ply
format ascii 1.0
comment ---
element vertex 1707
property float x
property float y
property float z
element face 0
property list uchar uint vertex_indices
end_header
0.401446 0.811724 0.023631
0.411520 0.823611 0.024223
-0.490433 0.790339 0.025439
-0.485938 0.789746 0.025376
-0.482109 0.790334 0.025357
-0.478544 0.791465 0.025348
-0.474624 0.792108 0.025294
-0.470641 0.792741 0.025221
-0.466228 0.792728 0.025096
-0.461813 0.792788 0.024958
-0.458085 0.794115 0.024870
-0.454021 0.794938 0.024740
-0.448385 0.793040 0.024453
-0.444440 0.794190 0.024312
-0.440847 0.796047 0.024195
-0.436928 0.797380 0.024038
-0.432626 0.798060 0.023838
-0.427439 0.797117 0.023544
-0.422975 0.797538 0.023313
-0.418996 0.798910 0.023123
-0.414280 0.798884 0.022856
-0.410129 0.799962 0.022639
-0.405602 0.800309 0.022381
-0.401093 0.800684 0.022123
-0.396634 0.801149 0.021866
-0.392440 0.802147 0.021633
-0.387975 0.802572 0.021373
-0.382307 0.800434 0.020990
-0.378065 0.801254 0.020750
-0.374245 0.802966 0.020552
-0.369858 0.803436 0.020298
-0.364913 0.802632 0.019987
-0.359718 0.801196 0.019651
-0.355281 0.801400 0.019393
-0.350783 0.801414 0.019131
-0.346318 0.801453 0.018874
-0.341834 0.801394 0.018617
-0.338694 0.804506 0.018504
-0.332720 0.800747 0.018092
-0.328762 0.801802 0.017897
-0.324636 0.802410 0.017687
-0.320739 0.803557 0.017504
-0.316468 0.803718 0.017284
-0.311971 0.803234 0.017041
-0.308120 0.804390 0.016873
-0.302946 0.801973 0.016559
-0.298935 0.802595 0.016378
-0.295191 0.803914 0.016230
-0.290505 0.802579 0.015978
-0.286402 0.802806 0.015795
-0.282311 0.803018 0.015616
-0.278344 0.803546 0.015454
-0.274895 0.805582 0.015358
-0.270384 0.804417 0.015137
-0.266153 0.804021 0.014952
-0.262064 0.804006 0.014787
-0.258428 0.805378 0.014680
-0.254898 0.807084 0.014591
-0.250504 0.805966 0.014395
-0.246495 0.806047 0.014250
-0.242713 0.806851 0.014137
-0.238859 0.807387 0.014018
-0.234621 0.806550 0.013849
-0.230536 0.806183 0.013703
-0.226940 0.807535 0.013625
-0.223218 0.808429 0.013534
-0.218693 0.806285 0.013332
-0.214973 0.807110 0.013244
-0.211202 0.807725 0.013153
-0.207446 0.808382 0.013065
-0.203602 0.808670 0.012968
-0.199739 0.808848 0.012869
-0.195769 0.808540 0.012755
-0.191887 0.808563 0.012656
-0.188261 0.809684 0.012601
-0.184547 0.810417 0.012534
-0.180272 0.808556 0.012375
-0.176298 0.807994 0.012266
-0.173681 0.813931 0.012395
-0.170450 0.817078 0.012424
-0.166205 0.815204 0.012275
-0.161252 0.809524 0.011993
-0.157353 0.809139 0.011903
-0.153486 0.808871 0.011819
-0.149852 0.809870 0.011783
-0.145880 0.808940 0.011680
-0.142352 0.810561 0.011670
-0.138599 0.810868 0.011615
-0.134732 0.810451 0.011536
-0.130797 0.809532 0.011442
-0.126975 0.809287 0.011373
-0.123384 0.810585 0.011360
-0.119644 0.810882 0.011314
-0.116213 0.813443 0.011348
-0.112438 0.813539 0.011298
-0.108417 0.811662 0.011181
-0.104447 0.810029 0.011074
-0.100716 0.810279 0.011034
-0.096951 0.810223 0.010985
-0.093154 0.809834 0.010926
-0.089880 0.814471 0.011041
-0.086573 0.819190 0.011160
-0.082574 0.816936 0.011040
-0.078452 0.813039 0.010866
-0.074552 0.811308 0.010768
-0.070841 0.811736 0.010745
-0.067030 0.810851 0.010678
-0.063315 0.811178 0.010654
-0.059652 0.812320 0.010659
-0.055794 0.810391 0.010561
-0.052654 0.820907 0.010886
-0.048999 0.823270 0.010935
-0.045078 0.820411 0.010809
-0.040972 0.812521 0.010514
-0.037193 0.811307 0.010446
-0.033504 0.812476 0.010459
-0.029787 0.812976 0.010452
-0.026121 0.815748 0.010521
-0.022468 0.820546 0.010661
-0.018737 0.822911 0.010719
-0.014908 0.817454 0.010515
-0.011120 0.810094 0.010249
-0.007406 0.811044 0.010263
-0.003678 0.813186 0.010319
0.000073 0.815785 0.010391
0.003807 0.815397 0.010364
0.007532 0.814649 0.010326
0.011244 0.813699 0.010283
0.015000 0.814661 0.010305
0.018737 0.814721 0.010298
0.022414 0.813136 0.010238
0.026123 0.812694 0.010217
0.029926 0.814369 0.010269
0.033725 0.815626 0.010308
0.037570 0.817520 0.010369
0.041128 0.814284 0.010261
0.044731 0.812204 0.010193
0.048505 0.812859 0.010218
0.052322 0.813997 0.010261
0.056126 0.814826 0.010295
0.059841 0.814452 0.010290
0.063555 0.814090 0.010288
0.067744 0.818905 0.010461
0.071761 0.821449 0.010560
0.075475 0.820754 0.010552
0.078746 0.815912 0.010407
0.082215 0.813248 0.010337
0.085863 0.812313 0.010327
0.089761 0.813517 0.010391
0.093851 0.816129 0.010505
0.098470 0.822622 0.010752
0.102865 0.826953 0.010929
0.106401 0.824772 0.010889
0.109156 0.817264 0.010671
0.112924 0.817031 0.010701
0.116986 0.818703 0.010798
0.120713 0.818111 0.010821
0.124613 0.818588 0.010884
0.128636 0.819736 0.010972
0.132428 0.819441 0.011013
0.136040 0.818108 0.011023
0.139414 0.815484 0.010990
0.143518 0.816886 0.011099
0.147845 0.819338 0.011247
0.151697 0.819208 0.011310
0.155889 0.820733 0.011434
0.160298 0.823203 0.011594
0.163873 0.821543 0.011614
0.167214 0.818824 0.011600
0.170745 0.817046 0.011623
0.174536 0.816453 0.011690
0.178405 0.816178 0.011773
0.182483 0.816758 0.011889
0.187625 0.821711 0.012165
0.191547 0.821420 0.012259
0.195577 0.821520 0.012371
0.198840 0.818545 0.012377
0.202608 0.817582 0.012459
0.206433 0.816819 0.012552
0.210645 0.817468 0.012700
0.215504 0.820400 0.012937
0.219026 0.818380 0.012997
0.223476 0.819643 0.013182
0.228386 0.822394 0.013427
0.232285 0.821558 0.013544
0.235994 0.820060 0.013640
0.240249 0.820345 0.013808
0.244426 0.820313 0.013968
0.248780 0.820787 0.014151
0.251862 0.817213 0.014185
0.256317 0.817920 0.014386
0.260144 0.816645 0.014515
0.265143 0.818849 0.014782
0.269209 0.818191 0.014943
0.273709 0.818753 0.015155
0.279266 0.822252 0.015487
0.283242 0.821165 0.015642
0.285784 0.816103 0.015640
0.290507 0.817073 0.015881
0.295187 0.817856 0.016117
0.298716 0.815531 0.016229
0.303179 0.815669 0.016443
0.311714 0.826219 0.017087
0.315609 0.824698 0.017236
0.317455 0.818077 0.017170
0.321865 0.817924 0.017372
0.326656 0.818686 0.017612
0.332150 0.821100 0.017919
0.338080 0.824476 0.018266
0.342696 0.824695 0.018474
0.347245 0.824760 0.018670
0.348848 0.818132 0.018569
0.351443 0.813918 0.018563
0.357516 0.817558 0.018893
0.366368 0.827244 0.019483
0.371596 0.828884 0.019708
0.377203 0.831353 0.019960
0.382910 0.834032 0.020210
0.377469 0.813364 0.019401
0.375908 0.801265 0.018957
0.386474 0.814356 0.019631
0.395098 0.823316 0.020105
0.398366 0.821434 0.020074
0.398624 0.813706 0.019761
0.405094 0.818449 0.019995
0.406955 0.814228 0.019806
-0.489891 0.788912 0.021382
-0.485085 0.787837 0.021294
-0.482568 0.790603 0.021373
-0.478108 0.790284 0.021284
-0.474672 0.791762 0.021263
-0.470394 0.791927 0.021161
-0.465460 0.791053 0.020992
-0.462246 0.793201 0.020952
-0.458321 0.794219 0.020841
-0.454272 0.795102 0.020709
-0.449217 0.794269 0.020481
-0.444530 0.794128 0.020273
-0.440691 0.795563 0.020128
-0.437297 0.797881 0.020012
-0.431800 0.796373 0.019709
-0.427143 0.796428 0.019469
-0.423234 0.797916 0.019288
-0.418834 0.798502 0.019058
-0.414740 0.799695 0.018850
-0.409847 0.799340 0.018569
-0.405313 0.799679 0.018314
-0.400531 0.799509 0.018035
-0.396359 0.800555 0.017808
-0.392520 0.802284 0.017608
-0.388091 0.802793 0.017355
-0.381775 0.799298 0.016932
-0.377719 0.800505 0.016711
-0.373800 0.801996 0.016502
-0.368654 0.800792 0.016184
-0.364616 0.801971 0.015966
-0.359779 0.801332 0.015677
-0.355076 0.800930 0.015402
-0.350932 0.801757 0.015179
-0.346046 0.800813 0.014890
-0.341937 0.801633 0.014675
-0.337835 0.802435 0.014463
-0.333902 0.803612 0.014270
-0.328757 0.801776 0.013965
-0.324697 0.802542 0.013765
-0.320446 0.802790 0.013549
-0.316376 0.803453 0.013354
-0.311792 0.802737 0.013112
-0.307648 0.803107 0.012916
-0.303610 0.803713 0.012733
-0.298988 0.802691 0.012494
-0.295025 0.803403 0.012324
-0.290590 0.802756 0.012110
-0.286345 0.802577 0.011917
-0.282187 0.802589 0.011736
-0.278436 0.803740 0.011600
-0.274767 0.805117 0.011477
-0.270579 0.804916 0.011301
-0.266003 0.803466 0.011087
-0.262221 0.804394 0.010960
-0.258788 0.806409 0.010874
-0.254903 0.806985 0.010743
-0.250767 0.806705 0.010586
-0.246654 0.806447 0.010434
-0.242765 0.806893 0.010310
-0.238650 0.806525 0.010162
-0.234417 0.805688 0.010003
-0.230679 0.806542 0.009904
-0.227078 0.807880 0.009824
-0.223190 0.808164 0.009712
-0.219049 0.807457 0.009571
-0.214946 0.806829 0.009437
-0.211157 0.807368 0.009343
-0.207427 0.808120 0.009260
-0.203692 0.808843 0.009179
-0.199897 0.809304 0.009092
-0.195905 0.808912 0.008981
-0.191992 0.808806 0.008881
-0.188205 0.809220 0.008801
-0.184486 0.809919 0.008733
-0.180265 0.808294 0.008594
-0.176408 0.808280 0.008508
-0.174308 0.816725 0.008690
-0.171226 0.820674 0.008733
-0.167051 0.819241 0.008609
-0.161418 0.810134 0.008249
-0.157334 0.808778 0.008133
-0.153546 0.808936 0.008067
-0.149581 0.808081 0.007971
-0.146104 0.809958 0.007961
-0.142303 0.809991 0.007897
-0.138474 0.809822 0.007828
-0.135084 0.812374 0.007845
-0.130814 0.809350 0.007693
-0.127041 0.809428 0.007637
-0.123348 0.810033 0.007599
-0.119665 0.810721 0.007565
-0.115771 0.809874 0.007487
-0.112145 0.810978 0.007468
-0.108477 0.811813 0.007443
-0.104675 0.811572 0.007388
-0.100944 0.811893 0.007350
-0.097006 0.810375 0.007259
-0.093203 0.809946 0.007202
-0.089646 0.811839 0.007216
-0.086424 0.817300 0.007336
-0.082890 0.819941 0.007374
-0.078889 0.817582 0.007265
-0.074587 0.811345 0.007042
-0.070879 0.811819 0.007020
-0.067206 0.812798 0.007013
-0.063474 0.813032 0.006986
-0.059705 0.812707 0.006943
-0.055896 0.811632 0.006880
-0.052789 0.822839 0.007178
-0.049092 0.824598 0.007199
-0.045025 0.818793 0.007000
-0.041045 0.813717 0.006824
-0.037240 0.811998 0.006748
-0.033494 0.811564 0.006710
-0.029816 0.813332 0.006738
-0.026156 0.816511 0.006807
-0.022536 0.823275 0.006982
-0.018742 0.822263 0.006931
-0.014927 0.818042 0.006789
-0.011143 0.812068 0.006597
-0.007417 0.811207 0.006555
-0.003693 0.812238 0.006569
0.000041 0.813243 0.006583
0.003773 0.813421 0.006574
0.007493 0.812921 0.006547
0.011223 0.813014 0.006538
0.014961 0.813422 0.006540
0.018686 0.813252 0.006526
0.022361 0.811771 0.006476
0.026076 0.811603 0.006465
0.029894 0.813685 0.006520
0.033608 0.813325 0.006506
0.037246 0.811619 0.006455
0.041091 0.813655 0.006513
0.044750 0.812463 0.006480
0.048640 0.814774 0.006549
0.052367 0.814562 0.006546
0.056204 0.815775 0.006587
0.059866 0.814708 0.006563
0.063571 0.814225 0.006558
0.068092 0.822615 0.006811
0.072023 0.824094 0.006867
0.075463 0.820573 0.006780
0.078901 0.817317 0.006702
0.082266 0.813648 0.006614
0.086099 0.814296 0.006653
0.089787 0.813667 0.006657
0.094096 0.818036 0.006808
0.098634 0.823827 0.007003
0.102695 0.825628 0.007085
0.106031 0.822054 0.007012
0.108949 0.815772 0.006863
0.112523 0.814278 0.006855
0.116459 0.815208 0.006921
0.120423 0.816234 0.006992
0.124146 0.815673 0.007019
0.128263 0.817468 0.007118
0.132205 0.818112 0.007187
0.135718 0.816253 0.007184
0.139238 0.814490 0.007187
0.142891 0.813492 0.007215
0.146790 0.813799 0.007285
0.151326 0.817302 0.007454
0.155881 0.820688 0.007623
0.160338 0.823399 0.007775
0.163616 0.820325 0.007757
0.166390 0.814999 0.007675
0.170681 0.816768 0.007809
0.174842 0.817833 0.007926
0.178556 0.816860 0.007985
0.182334 0.816151 0.008056
0.187575 0.821537 0.008317
0.191326 0.820554 0.008388
0.194440 0.816998 0.008382
0.198454 0.817076 0.008492
0.202622 0.817692 0.008624
0.206522 0.817215 0.008725
0.210290 0.816212 0.008814
0.214545 0.816969 0.008962
0.217855 0.814255 0.009005
0.221757 0.813669 0.009119
0.227578 0.819684 0.009450
0.231571 0.819221 0.009577
0.235463 0.818378 0.009697
0.239426 0.817740 0.009827
0.243549 0.817583 0.009977
0.247830 0.817877 0.010147
0.251720 0.816878 0.010278
0.255727 0.816216 0.010424
0.260838 0.818862 0.010685
0.265842 0.821048 0.010936
0.270141 0.821043 0.011117
0.274693 0.821712 0.011326
0.279842 0.824008 0.011594
0.282499 0.819198 0.011619
0.285488 0.815400 0.011680
0.291524 0.819950 0.012037
0.295408 0.818556 0.012188
0.299032 0.816469 0.012315
0.303698 0.817116 0.012541
0.310225 0.822486 0.012941
0.314541 0.822074 0.013132
0.317253 0.817642 0.013174
0.322213 0.818841 0.013423
0.326851 0.819206 0.013640
0.332470 0.821900 0.013943
0.338019 0.824346 0.014234
0.343365 0.826255 0.014503
0.347726 0.825847 0.014679
0.348665 0.817671 0.014549
0.350396 0.811497 0.014487
0.358746 0.820198 0.014995
0.366310 0.826998 0.015423
0.371874 0.829341 0.015669
0.377235 0.831245 0.015887
0.381464 0.830760 0.015999
0.383522 0.825806 0.015920
0.384563 0.818927 0.015748
0.388177 0.817543 0.015782
0.393313 0.819358 0.015928
0.393575 0.811449 0.015668
0.397711 0.811488 0.015711
0.404159 0.816169 0.015924
0.411105 0.821831 0.016160
-0.488460 0.786060 0.017271
-0.485944 0.788729 0.017346
-0.480687 0.787030 0.017213
-0.478424 0.790358 0.017280
-0.474939 0.791790 0.017246
-0.469786 0.790510 0.017078
-0.465907 0.791457 0.016990
-0.460795 0.790369 0.016798
-0.457913 0.793207 0.016760
-0.454085 0.794499 0.016640
-0.449659 0.794806 0.016465
-0.444702 0.794213 0.016240
-0.440572 0.795146 0.016067
-0.436079 0.795466 0.015859
-0.431596 0.795836 0.015644
-0.427304 0.796591 0.015436
-0.423124 0.797587 0.015230
-0.419012 0.798738 0.015025
-0.413490 0.797180 0.014706
-0.409804 0.799180 0.014524
-0.404871 0.798736 0.014243
-0.400325 0.799040 0.013989
-0.395973 0.799724 0.013748
-0.391332 0.799798 0.013483
-0.387716 0.801981 0.013298
-0.381794 0.799310 0.012931
-0.377708 0.800459 0.012708
-0.373627 0.801602 0.012487
-0.368943 0.801409 0.012218
-0.364151 0.800923 0.011942
-0.359717 0.801176 0.011695
-0.354888 0.800486 0.011419
-0.350399 0.800508 0.011171
-0.346255 0.801283 0.010954
-0.341946 0.801634 0.010726
-0.337773 0.802262 0.010512
-0.333609 0.802871 0.010301
-0.329209 0.802859 0.010073
-0.324262 0.801422 0.009803
-0.320192 0.802109 0.009608
-0.315785 0.801891 0.009388
-0.311443 0.801778 0.009176
-0.307497 0.802652 0.009001
-0.303375 0.803022 0.008814
-0.298823 0.802177 0.008593
-0.294564 0.802059 0.008400
-0.290122 0.801370 0.008194
-0.286067 0.801705 0.008025
-0.282397 0.803109 0.007893
-0.278659 0.804301 0.007758
-0.274538 0.804337 0.007593
-0.270498 0.804566 0.007437
-0.266267 0.804165 0.007267
-0.262476 0.805072 0.007140
-0.258722 0.806077 0.007020
-0.254852 0.806689 0.006892
-0.250528 0.805790 0.006724
-0.246548 0.805953 0.006590
-0.242680 0.806457 0.006471
-0.238549 0.806027 0.006328
-0.234552 0.806002 0.006200
-0.230735 0.806576 0.006093
-0.226941 0.807213 0.005991
-0.222956 0.807119 0.005872
-0.219465 0.808841 0.005807
-0.215033 0.806976 0.005645
-0.211193 0.807312 0.005547
-0.207449 0.808005 0.005463
-0.203660 0.808503 0.005376
-0.200063 0.809783 0.005313
-0.195998 0.809087 0.005198
-0.191960 0.808445 0.005088
-0.188067 0.808379 0.004997
-0.184067 0.807792 0.004894
-0.180185 0.807687 0.004806
-0.176414 0.808066 0.004734
-0.174081 0.815376 0.004850
-0.171339 0.820972 0.004920
-0.166690 0.817153 0.004743
-0.161714 0.811404 0.004517
-0.157802 0.811001 0.004435
-0.153482 0.808317 0.004296
-0.149671 0.808306 0.004229
-0.146009 0.809124 0.004185
-0.142751 0.812353 0.004206
-0.139613 0.816470 0.004252
-0.135716 0.816040 0.004181
-0.130989 0.810184 0.003972
-0.127080 0.809384 0.003895
-0.123361 0.809813 0.003852
-0.119649 0.810292 0.003811
-0.115880 0.810354 0.003762
-0.112182 0.810932 0.003727
-0.108492 0.811600 0.003695
-0.104776 0.812062 0.003660
-0.101031 0.812301 0.003621
-0.097210 0.811846 0.003565
-0.093259 0.810108 0.003479
-0.089657 0.811585 0.003474
-0.086635 0.819087 0.003622
-0.083271 0.823638 0.003697
-0.079780 0.827220 0.003748
-0.074684 0.812113 0.003334
-0.070979 0.812685 0.003313
-0.067293 0.813549 0.003300
-0.063567 0.813929 0.003276
-0.059753 0.813008 0.003221
-0.056012 0.813103 0.003192
-0.052795 0.822483 0.003394
-0.048888 0.820172 0.003308
-0.044948 0.816649 0.003193
-0.041066 0.813690 0.003094
-0.037282 0.812585 0.003041
-0.033511 0.811488 0.002990
-0.029798 0.812070 0.002980
-0.026205 0.817851 0.003099
-0.022559 0.823636 0.003219
-0.018807 0.825681 0.003248
-0.014907 0.814639 0.002960
-0.011159 0.812850 0.002898
-0.007428 0.810956 0.002835
-0.003704 0.811994 0.002844
0.000026 0.812561 0.002843
0.003752 0.812448 0.002827
0.007478 0.812449 0.002814
0.011228 0.813502 0.002828
0.014964 0.813669 0.002822
0.018660 0.812550 0.002786
0.022351 0.811582 0.002755
0.026067 0.811418 0.002744
0.029970 0.815366 0.002835
0.033651 0.814165 0.002802
0.037285 0.812318 0.002755
0.041078 0.813393 0.002779
0.044844 0.813881 0.002792
0.048565 0.813637 0.002788
0.052538 0.816834 0.002868
0.055935 0.812260 0.002762
0.059746 0.813184 0.002791
0.063450 0.812769 0.002789
0.068141 0.823071 0.003049
0.072122 0.825040 0.003108
0.075373 0.819605 0.002990
0.078388 0.812395 0.002830
0.082435 0.815092 0.002912
0.086055 0.813843 0.002901
0.089886 0.814419 0.002936
0.094438 0.820701 0.003112
0.098536 0.822995 0.003193
0.102261 0.822315 0.003204
0.105495 0.818123 0.003131
0.108895 0.815323 0.003095
0.112525 0.814226 0.003102
0.116475 0.815252 0.003164
0.120302 0.815402 0.003206
0.124249 0.816252 0.003269
0.128349 0.817934 0.003355
0.132064 0.817244 0.003385
0.135739 0.816326 0.003412
0.139365 0.815152 0.003435
0.143046 0.814289 0.003469
0.146986 0.814790 0.003540
0.151809 0.819739 0.003726
0.155862 0.820570 0.003812
0.159630 0.819928 0.003864
0.163995 0.822118 0.003991
0.166488 0.815447 0.003895
0.170181 0.814485 0.003949
0.174997 0.818523 0.004134
0.178751 0.817715 0.004198
0.182223 0.815686 0.004234
0.187567 0.821519 0.004478
0.191407 0.820905 0.004559
0.194568 0.817542 0.004571
0.198042 0.815484 0.004620
0.202302 0.816493 0.004755
0.206585 0.817498 0.004893
0.210369 0.816553 0.004984
0.214505 0.816876 0.005113
0.218592 0.816955 0.005240
0.222666 0.816931 0.005367
0.227197 0.818434 0.005542
0.230690 0.816297 0.005620
0.234890 0.816539 0.005768
0.239028 0.816511 0.005913
0.243383 0.817129 0.006080
0.247606 0.817250 0.006238
0.251691 0.816877 0.006386
0.256393 0.818357 0.006591
0.260515 0.817977 0.006748
0.264936 0.818443 0.006932
0.269827 0.820218 0.007159
0.275163 0.823169 0.007426
0.279483 0.823084 0.007607
0.284479 0.824845 0.007847
0.285623 0.815867 0.007765
0.290332 0.816803 0.007985
0.295399 0.818621 0.008235
0.299877 0.818789 0.008437
0.304695 0.819794 0.008666
0.309866 0.821640 0.008924
0.314180 0.821229 0.009112
0.318348 0.820434 0.009288
0.322482 0.819551 0.009460
0.326937 0.819450 0.009656
0.330307 0.816735 0.009765
0.336434 0.820603 0.010086
0.341732 0.822430 0.010339
0.345736 0.821230 0.010487
0.351836 0.824841 0.010791
0.356037 0.824109 0.010943
0.361576 0.826388 0.011190
0.366117 0.826455 0.011354
0.371478 0.828335 0.011572
0.376682 0.829882 0.011769
0.380275 0.828036 0.011836
0.383573 0.825677 0.011873
0.386576 0.822828 0.011879
0.390810 0.822636 0.011965
0.389265 0.810826 0.011625
0.391516 0.806959 0.011549
0.398753 0.813159 0.011814
0.405596 0.818557 0.012035
0.409972 0.819156 0.012068
-0.492180 0.791539 0.013502
-0.486655 0.789385 0.013374
-0.481110 0.787255 0.013228
-0.477432 0.788271 0.013186
-0.474229 0.790187 0.013162
-0.470217 0.790854 0.013072
-0.466200 0.791600 0.012970
-0.460713 0.789901 0.012759
-0.457185 0.791638 0.012664
-0.454100 0.794249 0.012588
-0.450106 0.795351 0.012441
-0.444847 0.794247 0.012201
-0.440398 0.794628 0.012006
-0.435857 0.794878 0.011796
-0.431619 0.795717 0.011599
-0.427415 0.796656 0.011397
-0.422898 0.797032 0.011168
-0.417106 0.794970 0.010849
-0.413548 0.797193 0.010675
-0.409171 0.797851 0.010443
-0.404465 0.797855 0.010185
-0.400387 0.799101 0.009967
-0.395430 0.798562 0.009688
-0.391076 0.799221 0.009449
-0.386131 0.798631 0.009169
-0.381749 0.799177 0.008927
-0.377803 0.800625 0.008716
-0.373822 0.801992 0.008502
-0.369270 0.802095 0.008251
-0.364384 0.801408 0.007978
-0.359849 0.801443 0.007731
-0.354366 0.799267 0.007420
-0.350219 0.800061 0.007203
-0.346313 0.801384 0.007006
-0.342033 0.801801 0.006786
-0.337695 0.802036 0.006564
-0.333345 0.802186 0.006344
-0.328345 0.800682 0.006081
-0.324309 0.801488 0.005889
-0.320486 0.802798 0.005715
-0.315398 0.800837 0.005454
-0.311179 0.801027 0.005258
-0.307162 0.801698 0.005080
-0.302956 0.801825 0.004891
-0.298483 0.801175 0.004686
-0.294597 0.802067 0.004528
-0.290254 0.801651 0.004338
-0.286196 0.801978 0.004173
-0.282469 0.803215 0.004036
-0.278497 0.803719 0.003884
-0.274627 0.804487 0.003743
-0.270631 0.804848 0.003595
-0.266728 0.805454 0.003457
-0.262323 0.804464 0.003284
-0.258573 0.805468 0.003164
-0.254685 0.806008 0.003037
-0.250418 0.805279 0.002882
-0.245857 0.803497 0.002705
-0.242415 0.805400 0.002622
-0.238718 0.806441 0.002521
-0.234792 0.806673 0.002405
-0.230750 0.806450 0.002280
-0.226811 0.806553 0.002167
-0.223304 0.808214 0.002094
-0.219549 0.808961 0.002002
-0.215511 0.808609 0.001887
-0.211273 0.807419 0.001757
-0.207341 0.807365 0.001655
-0.203761 0.808698 0.001589
-0.199848 0.808663 0.001493
-0.195931 0.808576 0.001399
-0.191912 0.808003 0.001297
-0.187852 0.807193 0.001193
-0.183958 0.807056 0.001106
-0.180139 0.807227 0.001028
-0.176213 0.806862 0.000941
-0.173071 0.810234 0.000939
-0.170699 0.817542 0.001024
-0.167223 0.819578 0.000995
-0.161702 0.811070 0.000739
-0.157768 0.810538 0.000659
-0.153616 0.808760 0.000554
-0.149728 0.808338 0.000481
-0.146162 0.809712 0.000448
-0.143615 0.817171 0.000546
-0.140225 0.819891 0.000544
-0.136145 0.818420 0.000455
-0.131112 0.810663 0.000235
-0.127245 0.810166 0.000171
-0.123445 0.810068 0.000116
-0.119712 0.810412 0.000073
-0.116065 0.811383 0.000043
-0.112335 0.811763 0.000003
-0.108545 0.811677 -0.000045
-0.104836 0.812211 -0.000079
-0.100898 0.810809 -0.000152
-0.097016 0.809754 -0.000216
-0.093293 0.810069 -0.000251
-0.089691 0.811553 -0.000261
-0.086921 0.821619 -0.000094
-0.083461 0.825287 -0.000058
-0.078856 0.816429 -0.000275
-0.074703 0.811943 -0.000401
-0.070991 0.812432 -0.000426
-0.067270 0.812836 -0.000451
-0.063579 0.813682 -0.000466
-0.059820 0.813588 -0.000499
-0.056097 0.814047 -0.000520
-0.052649 0.819421 -0.000441
-0.048796 0.817904 -0.000500
-0.044873 0.814561 -0.000594
-0.041069 0.813239 -0.000646
-0.037311 0.812801 -0.000680
-0.033556 0.812273 -0.000714
-0.029822 0.812243 -0.000738
-0.026238 0.818526 -0.000635
-0.022579 0.823824 -0.000551
-0.018790 0.823502 -0.000578
-0.014922 0.814793 -0.000769
-0.011157 0.810181 -0.000878
-0.007440 0.812230 -0.000854
-0.003710 0.812684 -0.000861
0.000023 0.813173 -0.000866
0.003748 0.812684 -0.000889
0.007484 0.813087 -0.000894
0.011234 0.813987 -0.000887
0.014962 0.813758 -0.000902
0.018679 0.813228 -0.000922
0.022370 0.812135 -0.000951
0.026098 0.812180 -0.000957
0.030013 0.816303 -0.000881
0.033796 0.817015 -0.000872
0.037499 0.816154 -0.000891
0.041121 0.814066 -0.000934
0.044886 0.814475 -0.000926
0.048768 0.816515 -0.000885
0.052469 0.815818 -0.000896
0.056032 0.813421 -0.000938
0.059667 0.812145 -0.000958
0.063444 0.812601 -0.000941
0.067915 0.820529 -0.000777
0.071746 0.821057 -0.000756
0.075318 0.818968 -0.000785
0.078759 0.815803 -0.000833
0.082364 0.814357 -0.000845
0.086043 0.813638 -0.000842
0.089768 0.813340 -0.000828
0.093694 0.814648 -0.000780
0.098522 0.822792 -0.000596
0.102264 0.822248 -0.000581
0.105284 0.816512 -0.000666
0.108754 0.814259 -0.000681
0.112756 0.815697 -0.000620
0.116606 0.816031 -0.000578
0.120444 0.816231 -0.000537
0.124312 0.816564 -0.000491
0.128213 0.817046 -0.000439
0.131988 0.816737 -0.000401
0.135721 0.816162 -0.000365
0.139627 0.816538 -0.000307
0.143411 0.816197 -0.000261
0.147208 0.815906 -0.000211
0.152084 0.821100 -0.000046
0.155641 0.819426 -0.000018
0.159667 0.820073 0.000061
0.162911 0.816923 0.000064
0.166436 0.815179 0.000099
0.170820 0.817373 0.000219
0.174943 0.818267 0.000316
0.178671 0.817355 0.000378
0.182504 0.816878 0.000453
0.188101 0.823753 0.000689
0.192238 0.824316 0.000794
0.194889 0.818836 0.000773
0.198151 0.815925 0.000810
0.202400 0.816890 0.000934
0.206363 0.816678 0.001037
0.210916 0.818616 0.001192
0.215232 0.819563 0.001329
0.219736 0.821096 0.001483
0.224048 0.821841 0.001625
0.227851 0.820744 0.001729
0.230987 0.817357 0.001784
0.234562 0.815497 0.001878
0.238809 0.815852 0.002027
0.243614 0.817941 0.002220
0.247903 0.818263 0.002377
0.252068 0.818128 0.002527
0.256301 0.818147 0.002685
0.260516 0.818057 0.002845
0.264569 0.817427 0.002995
0.269498 0.819332 0.003211
0.275153 0.823222 0.003481
0.279577 0.823434 0.003664
0.282971 0.820702 0.003776
0.286255 0.817691 0.003883
0.290368 0.816978 0.004051
0.295248 0.818291 0.004274
0.299637 0.818225 0.004463
0.305106 0.820932 0.004727
0.310756 0.823986 0.005003
0.315481 0.824576 0.005216
0.318684 0.821318 0.005324
0.322685 0.820084 0.005487
0.326550 0.818532 0.005639
0.330338 0.816819 0.005785
0.339714 0.828360 0.006299
0.340841 0.820332 0.006262
0.344435 0.818194 0.006385
0.348474 0.817132 0.006534
0.353443 0.818201 0.006738
0.358848 0.820231 0.006964
0.363392 0.820353 0.007127
0.366926 0.818321 0.007218
0.371905 0.819473 0.007393
0.376800 0.820475 0.007554
0.380668 0.819362 0.007640
0.384206 0.817658 0.007695
0.386063 0.812624 0.007637
0.390081 0.812154 0.007701
0.396139 0.815868 0.007878
0.403029 0.821249 0.008092
0.406149 0.819217 0.008063
0.409843 0.818443 0.008057
-0.492146 0.790959 0.009469
-0.485628 0.787218 0.009294
-0.481255 0.787029 0.009221
-0.477292 0.787603 0.009156
-0.473806 0.789072 0.009105
-0.470449 0.790865 0.009047
-0.465225 0.789585 0.008873
-0.461851 0.791536 0.008790
-0.457808 0.792424 0.008658
-0.454126 0.794020 0.008536
-0.450354 0.795541 0.008398
-0.445874 0.795863 0.008211
-0.440849 0.795241 0.007984
-0.436024 0.794999 0.007760
-0.431418 0.795177 0.007541
-0.427207 0.796116 0.007339
-0.422618 0.796366 0.007109
-0.418090 0.796740 0.006878
-0.413784 0.797546 0.006655
-0.409487 0.798378 0.006430
-0.405534 0.799895 0.006222
-0.399502 0.797245 0.005892
-0.395215 0.798056 0.005661
-0.390854 0.798704 0.005425
-0.386450 0.799241 0.005186
-0.381875 0.799390 0.004937
-0.377878 0.800738 0.004722
-0.373651 0.801574 0.004495
-0.368714 0.800830 0.004229
-0.365190 0.803153 0.004045
-0.359870 0.801445 0.003760
-0.353899 0.798157 0.003438
-0.350008 0.799527 0.003240
-0.346020 0.800651 0.003039
-0.341794 0.801185 0.002827
-0.337793 0.802216 0.002631
-0.333465 0.802421 0.002418
-0.328417 0.800799 0.002167
-0.324316 0.801440 0.001974
-0.320589 0.802990 0.001806
-0.316717 0.804152 0.001633
-0.311402 0.801529 0.001378
-0.307141 0.801559 0.001189
-0.302669 0.800968 0.000990
-0.298800 0.801941 0.000831
-0.294488 0.801664 0.000648
-0.291089 0.803885 0.000524
-0.287197 0.804712 0.000374
-0.282105 0.802048 0.000153
-0.278650 0.804043 0.000036
-0.274610 0.804311 -0.000114
-0.270782 0.805173 -0.000247
-0.266563 0.804808 -0.000402
-0.262399 0.804556 -0.000551
-0.258337 0.804568 -0.000690
-0.254543 0.805394 -0.000809
-0.250114 0.804121 -0.000966
-0.246080 0.804072 -0.001096
-0.242436 0.805295 -0.001196
-0.238906 0.806907 -0.001287
-0.235074 0.807475 -0.001394
-0.230913 0.806841 -0.001521
-0.226908 0.806710 -0.001635
-0.223228 0.807733 -0.001724
-0.219678 0.809241 -0.001801
-0.215697 0.809110 -0.001906
-0.211388 0.807650 -0.002032
-0.207374 0.807272 -0.002135
-0.203557 0.807637 -0.002222
-0.199946 0.808837 -0.002292
-0.195867 0.808065 -0.002394
-0.191878 0.807614 -0.002488
-0.187934 0.807305 -0.002576
-0.184195 0.807870 -0.002647
-0.180236 0.807415 -0.002734
-0.176310 0.807055 -0.002816
-0.172884 0.809063 -0.002855
-0.170556 0.816556 -0.002798
-0.167939 0.822920 -0.002760
-0.160854 0.806385 -0.003110
-0.157709 0.809937 -0.003116
-0.153825 0.809609 -0.003185
-0.149870 0.808837 -0.003260
-0.146076 0.808917 -0.003319
-0.143941 0.818792 -0.003213
-0.139885 0.817506 -0.003292
-0.136259 0.818815 -0.003326
-0.131376 0.812051 -0.003491
-0.127545 0.811836 -0.003547
-0.123719 0.811621 -0.003601
-0.119912 0.811496 -0.003652
-0.116245 0.812366 -0.003686
-0.112620 0.813591 -0.003712
-0.108768 0.813084 -0.003766
-0.104917 0.812522 -0.003818
-0.101015 0.811450 -0.003878
-0.097035 0.809558 -0.003949
-0.093290 0.809670 -0.003987
-0.089847 0.812684 -0.003978
-0.086389 0.815817 -0.003966
-0.083023 0.820212 -0.003934
-0.079352 0.821608 -0.003947
-0.074754 0.812140 -0.004130
-0.070906 0.810956 -0.004182
-0.067174 0.811126 -0.004211
-0.063457 0.811521 -0.004236
-0.059801 0.812866 -0.004245
-0.056103 0.813685 -0.004262
-0.052545 0.817119 -0.004237
-0.048883 0.819103 -0.004234
-0.044913 0.814901 -0.004325
-0.041076 0.812880 -0.004381
-0.037360 0.813533 -0.004395
-0.033616 0.813471 -0.004420
-0.029873 0.813423 -0.004443
-0.026237 0.817749 -0.004398
-0.022535 0.820708 -0.004374
-0.018777 0.821619 -0.004380
-0.014972 0.818535 -0.004445
-0.011182 0.812671 -0.004551
-0.007453 0.816996 -0.004503
-0.003705 0.816163 -0.004531
0.000022 0.813937 -0.004579
0.003749 0.813289 -0.004602
0.007495 0.814003 -0.004604
0.011259 0.815280 -0.004596
0.015013 0.815732 -0.004599
0.018755 0.815690 -0.004609
0.022756 0.822751 -0.004512
0.026198 0.814608 -0.004640
0.030013 0.816257 -0.004621
0.033890 0.818836 -0.004587
0.037634 0.818556 -0.004595
0.041224 0.815711 -0.004639
0.044829 0.813506 -0.004673
0.048626 0.814354 -0.004659
0.052472 0.815763 -0.004636
0.056160 0.814951 -0.004645
0.059802 0.813669 -0.004659
0.063560 0.813829 -0.004650
0.067388 0.814698 -0.004629
0.071387 0.817239 -0.004581
0.075347 0.819135 -0.004541
0.078772 0.815810 -0.004578
0.082328 0.813918 -0.004592
0.086085 0.813893 -0.004575
0.089839 0.813815 -0.004558
0.093755 0.815027 -0.004520
0.097997 0.818634 -0.004443
0.103862 0.834052 -0.004185
0.105320 0.816668 -0.004422
0.109013 0.815958 -0.004404
0.112823 0.816052 -0.004372
0.116627 0.816072 -0.004339
0.120522 0.816631 -0.004295
0.124128 0.815342 -0.004277
0.127817 0.814593 -0.004248
0.131681 0.814866 -0.004202
0.135825 0.816673 -0.004129
0.139677 0.816737 -0.004080
0.143432 0.816242 -0.004037
0.147241 0.816012 -0.003987
0.151160 0.816316 -0.003926
0.155790 0.820111 -0.003807
0.159370 0.818571 -0.003769
0.163085 0.817700 -0.003718
0.166973 0.817631 -0.003650
0.170641 0.816521 -0.003597
0.174598 0.816697 -0.003519
0.178677 0.817348 -0.003430
0.182541 0.817010 -0.003354
0.188259 0.824391 -0.003147
0.192789 0.826558 -0.003021
0.195409 0.820915 -0.003022
0.199091 0.819625 -0.002948
0.202809 0.818467 -0.002868
0.206465 0.817071 -0.002788
0.210482 0.817011 -0.002682
0.215472 0.820454 -0.002510
0.220156 0.822621 -0.002356
0.224621 0.823884 -0.002214
0.228363 0.822544 -0.002113
0.230637 0.816200 -0.002099
0.234541 0.815466 -0.001981
0.238900 0.816193 -0.001833
0.243776 0.818510 -0.001650
0.247589 0.817313 -0.001528
0.252232 0.818691 -0.001354
0.256365 0.818401 -0.001208
0.260322 0.817526 -0.001068
0.264776 0.818104 -0.000897
0.268544 0.816593 -0.000763
0.274339 0.820933 -0.000509
0.279051 0.822001 -0.000316
0.282678 0.819943 -0.000183
0.286504 0.818441 -0.000036
0.290619 0.817721 0.000130
0.295090 0.817925 0.000317
0.298976 0.816532 0.000473
0.304719 0.819972 0.000734
0.311247 0.825292 0.001039
0.315816 0.825464 0.001234
0.318237 0.820233 0.001311
0.321535 0.817273 0.001435
0.326745 0.819018 0.001665
0.330652 0.817571 0.001820
0.340767 0.830837 0.002314
0.342851 0.824995 0.002364
0.344516 0.818335 0.002390
0.348371 0.816834 0.002530
0.352942 0.816991 0.002704
0.358881 0.820199 0.002947
0.363220 0.819849 0.003096
0.367427 0.819254 0.003231
0.372380 0.820313 0.003398
0.376808 0.820286 0.003528
0.381343 0.820541 0.003654
0.384044 0.817061 0.003675
0.387494 0.815261 0.003724
0.391589 0.814885 0.003796
0.400990 0.825231 0.004127
0.403585 0.821962 0.004096
0.405829 0.818168 0.004037
0.408329 0.815049 0.003978
-0.491397 0.789234 0.005402
-0.485697 0.786844 0.005281
-0.481521 0.787006 0.005216
-0.477866 0.788123 0.005161
-0.474074 0.789116 0.005087
-0.470416 0.790433 0.005005
-0.466610 0.791597 0.004905
-0.462490 0.792311 0.004777
-0.458587 0.793480 0.004649
-0.454022 0.793561 0.004478
-0.450030 0.794713 0.004324
-0.446077 0.795997 0.004163
-0.441386 0.796006 0.003959
-0.437041 0.796673 0.003763
-0.431033 0.794291 0.003481
-0.427281 0.796098 0.003300
-0.422949 0.796854 0.003086
-0.417882 0.796213 0.002833
-0.413693 0.797253 0.002617
-0.409805 0.798898 0.002413
-0.405243 0.799222 0.002175
-0.400091 0.798344 0.001906
-0.395170 0.797886 0.001648
-0.390767 0.798451 0.001414
-0.386324 0.798909 0.001177
-0.382010 0.799611 0.000947
-0.377724 0.800345 0.000719
-0.373263 0.800674 0.000484
-0.368685 0.800707 0.000246
-0.364542 0.801654 0.000029
-0.359932 0.801524 -0.000207
-0.355173 0.800999 -0.000448
-0.349787 0.798954 -0.000716
-0.345368 0.799062 -0.000935
-0.341615 0.800693 -0.001121
-0.337446 0.801313 -0.001323
-0.333817 0.803204 -0.001497
-0.328309 0.800456 -0.001755
-0.324290 0.801294 -0.001940
-0.320423 0.802484 -0.002115
-0.316623 0.803820 -0.002283
-0.312541 0.804402 -0.002461
-0.307215 0.801654 -0.002694
-0.303262 0.802453 -0.002859
-0.298809 0.801857 -0.003044
-0.295133 0.803330 -0.003190
-0.291325 0.804424 -0.003338
-0.286487 0.802568 -0.003531
-0.283404 0.805663 -0.003638
-0.278125 0.802371 -0.003846
-0.274675 0.804359 -0.003963
-0.270501 0.804173 -0.004112
-0.266409 0.804183 -0.004254
-0.262321 0.804153 -0.004393
-0.258428 0.804692 -0.004519
-0.254513 0.805126 -0.004643
-0.250658 0.805725 -0.004761
-0.246372 0.804861 -0.004897
-0.242619 0.805727 -0.005005
-0.239136 0.807507 -0.005096
-0.235145 0.807523 -0.005210
-0.231115 0.807360 -0.005322
-0.227034 0.806959 -0.005436
-0.223307 0.807809 -0.005528
-0.219563 0.808586 -0.005619
-0.215639 0.808660 -0.005716
-0.211718 0.808712 -0.005811
-0.207634 0.808071 -0.005913
-0.203718 0.808051 -0.006003
-0.199859 0.808230 -0.006088
-0.196087 0.808747 -0.006167
-0.191963 0.807723 -0.006263
-0.188094 0.807748 -0.006342
-0.184286 0.808013 -0.006417
-0.180383 0.807818 -0.006495
-0.176542 0.807873 -0.006567
-0.173747 0.812947 -0.006575
-0.172298 0.824875 -0.006495
-0.166536 0.815522 -0.006680
-0.161734 0.810653 -0.006805
-0.157734 0.809768 -0.006880
-0.153903 0.809730 -0.006942
-0.150018 0.809355 -0.007006
-0.145960 0.807935 -0.007081
-0.142528 0.810109 -0.007111
-0.140458 0.820673 -0.007040
-0.136200 0.818113 -0.007124
-0.132078 0.816250 -0.007198
-0.128441 0.817473 -0.007234
-0.124431 0.816179 -0.007299
-0.120534 0.815576 -0.007353
-0.116534 0.814149 -0.007416
-0.112817 0.814742 -0.007454
-0.109172 0.815922 -0.007484
-0.105515 0.817069 -0.007513
-0.101523 0.815419 -0.007573
-0.098160 0.819202 -0.007570
-0.094630 0.821727 -0.007580
-0.089915 0.812964 -0.007716
-0.086219 0.813696 -0.007744
-0.082931 0.818832 -0.007723
-0.079394 0.821677 -0.007726
-0.074787 0.812123 -0.007864
-0.071009 0.811827 -0.007899
-0.067189 0.810908 -0.007941
-0.063501 0.811715 -0.007962
-0.059800 0.812407 -0.007983
-0.056044 0.812265 -0.008013
-0.052444 0.814847 -0.008013
-0.048959 0.820082 -0.007983
-0.045068 0.817684 -0.008034
-0.041135 0.813757 -0.008101
-0.037368 0.813206 -0.008130
-0.033619 0.812999 -0.008155
-0.029858 0.812240 -0.008185
-0.026205 0.815694 -0.008169
-0.022510 0.818618 -0.008158
-0.018778 0.820743 -0.008155
-0.015030 0.823074 -0.008149
-0.011236 0.820745 -0.008191
-0.007467 0.823183 -0.008182
-0.003687 0.822761 -0.008201
0.000046 0.817585 -0.008270
0.003770 0.815310 -0.008307
0.007541 0.816850 -0.008303
0.011325 0.818337 -0.008299
0.015074 0.818069 -0.008312
0.018948 0.821768 -0.008283
0.022818 0.824440 -0.008264
0.026403 0.819570 -0.008321
0.030030 0.816578 -0.008358
0.033859 0.818159 -0.008347
0.037595 0.817762 -0.008354
0.041227 0.815663 -0.008378
0.044873 0.814088 -0.008395
0.048600 0.813878 -0.008397
0.052394 0.814592 -0.008388
0.056183 0.815127 -0.008380
0.059849 0.814114 -0.008386
0.063570 0.813810 -0.008383
0.067428 0.815005 -0.008364
0.071611 0.819430 -0.008309
0.075533 0.820846 -0.008284
0.078653 0.814560 -0.008337
0.082358 0.814063 -0.008328
0.086100 0.813893 -0.008315
0.089924 0.814403 -0.008292
0.093781 0.815109 -0.008266
0.097585 0.815325 -0.008242
0.103082 0.828115 -0.008085
0.105785 0.819898 -0.008146
0.109055 0.816134 -0.008159
0.112836 0.816028 -0.008131
0.116579 0.815645 -0.008104
0.120211 0.814551 -0.008082
0.123913 0.813915 -0.008054
0.127857 0.814732 -0.008007
0.131745 0.815136 -0.007962
0.135898 0.816990 -0.007899
0.139698 0.816763 -0.007856
0.143398 0.815968 -0.007816
0.147146 0.815428 -0.007771
0.151188 0.816378 -0.007707
0.155943 0.820799 -0.007601
0.160574 0.824366 -0.007501
0.163989 0.821936 -0.007466
0.166975 0.817578 -0.007450
0.170642 0.816465 -0.007394
0.174488 0.816151 -0.007326
0.178280 0.815570 -0.007258
0.182750 0.817860 -0.007153
0.188181 0.824028 -0.006998
0.192236 0.824258 -0.006910
0.196015 0.823322 -0.006832
0.199117 0.819703 -0.006783
0.202749 0.818221 -0.006705
0.206358 0.816650 -0.006625
0.210095 0.815563 -0.006536
0.216080 0.822671 -0.006339
0.220847 0.825102 -0.006196
0.225052 0.825408 -0.006076
0.228499 0.823025 -0.005987
0.230880 0.817042 -0.005943
0.234703 0.816025 -0.005830
0.238845 0.816033 -0.005700
0.243216 0.816726 -0.005556
0.247950 0.818491 -0.005392
0.252163 0.818508 -0.005249
0.256217 0.817980 -0.005110
0.260660 0.818590 -0.004950
0.264599 0.817617 -0.004810
0.268521 0.816570 -0.004667
0.273480 0.818493 -0.004477
0.278588 0.820728 -0.004277
0.281928 0.817886 -0.004152
0.286137 0.817474 -0.003986
0.290682 0.817935 -0.003804
0.294949 0.817590 -0.003633
0.299181 0.817112 -0.003461
0.305057 0.820888 -0.003216
0.310635 0.823750 -0.002984
0.314870 0.823093 -0.002809
0.318172 0.820087 -0.002675
0.321951 0.818308 -0.002520
0.326338 0.818026 -0.002339
0.331356 0.819248 -0.002133
0.340089 0.829208 -0.001769
0.344718 0.829316 -0.001585
0.345221 0.819907 -0.001581
0.348920 0.818012 -0.001443
0.353953 0.819174 -0.001253
0.359159 0.820707 -0.001061
0.363413 0.820140 -0.000916
0.367864 0.820045 -0.000769
0.372197 0.819742 -0.000635
0.376949 0.820379 -0.000493
0.381235 0.820082 -0.000379
0.384654 0.818062 -0.000311
0.388022 0.816052 -0.000256
0.384869 0.800968 -0.000481
0.399553 0.821999 0.000019
0.402230 0.818892 0.000011
0.405049 0.816223 -0.000003
0.410254 0.818343 0.000066
-0.489367 0.785453 0.001299
-0.485608 0.786220 0.001260
-0.482448 0.788074 0.001231
-0.478283 0.788387 0.001150
-0.474559 0.789526 0.001072
-0.470845 0.790782 0.000982
-0.467066 0.792025 0.000876
-0.461053 0.789514 0.000674
-0.457961 0.792090 0.000572
-0.453460 0.792298 0.000405
-0.449460 0.793445 0.000248
-0.445439 0.794618 0.000080
-0.441509 0.796013 -0.000092
-0.436310 0.795137 -0.000320
-0.431656 0.795268 -0.000533
-0.426942 0.795300 -0.000755
-0.422979 0.796762 -0.000954
-0.417926 0.796161 -0.001197
-0.413491 0.796738 -0.001421
-0.409784 0.798741 -0.001621
-0.405206 0.799042 -0.001855
-0.400419 0.798904 -0.002099
-0.395168 0.797789 -0.002360
-0.390675 0.798175 -0.002594
-0.386392 0.798969 -0.002820
-0.382066 0.799649 -0.003046
-0.377595 0.799993 -0.003277
-0.372795 0.799587 -0.003519
-0.368214 0.799600 -0.003750
-0.364176 0.800768 -0.003960
-0.359910 0.801401 -0.004176
-0.355507 0.801682 -0.004394
-0.350899 0.801443 -0.004617
-0.346165 0.800847 -0.004841
-0.340803 0.798688 -0.005084
-0.337358 0.801015 -0.005256
-0.332890 0.800859 -0.005461
-0.328579 0.801029 -0.005657
-0.324046 0.800586 -0.005858
-0.320071 0.801491 -0.006035
-0.316242 0.802735 -0.006204
-0.310593 0.799216 -0.006432
-0.306999 0.800969 -0.006586
-0.303152 0.802039 -0.006745
-0.299236 0.802893 -0.006903
-0.295144 0.803233 -0.007063
-0.291139 0.803768 -0.007217
-0.287107 0.804190 -0.007369
-0.283733 0.806468 -0.007495
-0.278257 0.802606 -0.007688
-0.274217 0.802841 -0.007829
-0.270620 0.804372 -0.007953
-0.266533 0.804395 -0.008089
-0.262407 0.804250 -0.008224
-0.258623 0.805131 -0.008344
-0.254669 0.805446 -0.008467
-0.250526 0.805105 -0.008593
-0.246679 0.805690 -0.008706
-0.243221 0.807566 -0.008803
-0.238690 0.805765 -0.008933
-0.235072 0.807056 -0.009030
-0.231113 0.807133 -0.009136
-0.227318 0.807768 -0.009233
-0.223350 0.807742 -0.009334
-0.219402 0.807746 -0.009431
-0.215498 0.807882 -0.009525
-0.211766 0.808654 -0.009610
-0.207875 0.808783 -0.009698
-0.203867 0.808405 -0.009788
-0.199900 0.808140 -0.009875
-0.196016 0.808182 -0.009956
-0.192032 0.807753 -0.010039
-0.188149 0.807718 -0.010116
-0.184395 0.808231 -0.010187
-0.180570 0.808400 -0.010258
-0.176962 0.809570 -0.010320
-0.174740 0.817445 -0.010326
-0.171870 0.822460 -0.010354
-0.168080 0.823031 -0.010415
-0.161545 0.809366 -0.010584
-0.157472 0.808070 -0.010654
-0.153701 0.808313 -0.010711
-0.150118 0.809600 -0.010759
-0.146383 0.810048 -0.010812
-0.143905 0.817927 -0.010809
-0.140272 0.819206 -0.010852
-0.136689 0.820838 -0.010892
-0.132655 0.819636 -0.010951
-0.128555 0.817886 -0.011012
-0.124736 0.817932 -0.011059
-0.120902 0.817838 -0.011106
-0.116626 0.814462 -0.011173
-0.112744 0.813823 -0.011221
-0.108974 0.813991 -0.011261
-0.105499 0.816562 -0.011285
-0.101934 0.818549 -0.011311
-0.098227 0.819414 -0.011344
-0.094424 0.819430 -0.011381
-0.090458 0.817839 -0.011428
-0.086530 0.816464 -0.011472
-0.083222 0.821527 -0.011474
-0.079253 0.819683 -0.011519
-0.074880 0.812810 -0.011595
-0.071068 0.812149 -0.011630
-0.067299 0.811939 -0.011661
-0.063566 0.812197 -0.011689
-0.059870 0.813013 -0.011712
-0.056117 0.813008 -0.011739
-0.052518 0.815689 -0.011749
-0.049005 0.820484 -0.011746
-0.045197 0.819921 -0.011774
-0.041196 0.814648 -0.011830
-0.037396 0.813385 -0.011860
-0.033592 0.811588 -0.011893
-0.029840 0.810989 -0.011918
-0.026225 0.815825 -0.011909
-0.022542 0.819446 -0.011907
-0.018894 0.827762 -0.011877
-0.015033 0.822171 -0.011928
-0.011262 0.823637 -0.011937
-0.007477 0.823785 -0.011952
-0.003694 0.823195 -0.011970
0.000058 0.819769 -0.012004
0.003814 0.819015 -0.012022
0.007584 0.819501 -0.012032
0.011377 0.820812 -0.012035
0.015132 0.820247 -0.012049
0.018812 0.817515 -0.012074
0.022764 0.822930 -0.012051
0.026456 0.820815 -0.012070
0.030034 0.816598 -0.012101
0.033668 0.814276 -0.012119
0.037416 0.814406 -0.012122
0.041162 0.814467 -0.012124
0.044889 0.814223 -0.012127
0.048625 0.814110 -0.012128
0.052435 0.815012 -0.012122
0.056137 0.814405 -0.012123
0.059872 0.814259 -0.012120
0.063642 0.814501 -0.012113
0.067714 0.817966 -0.012087
0.071592 0.819081 -0.012072
0.075546 0.820824 -0.012053
0.078697 0.814829 -0.012076
0.082394 0.814243 -0.012067
0.086089 0.813660 -0.012056
0.089896 0.814028 -0.012037
0.093908 0.815983 -0.012008
0.098330 0.820938 -0.011960
0.101576 0.816758 -0.011962
0.105577 0.818262 -0.011930
0.109050 0.815967 -0.011918
0.112540 0.813897 -0.011903
0.116616 0.815758 -0.011862
0.120336 0.815217 -0.011834
0.124163 0.815329 -0.011799
0.127989 0.815398 -0.011763
0.131804 0.815366 -0.011725
0.135689 0.815696 -0.011682
0.139633 0.816297 -0.011635
0.143216 0.814889 -0.011598
0.146991 0.814515 -0.011552
0.151294 0.816823 -0.011486
0.156837 0.825167 -0.011378
0.161569 0.829124 -0.011294
0.164568 0.824610 -0.011264
0.167009 0.817658 -0.011248
0.170697 0.816643 -0.011189
0.174569 0.816444 -0.011122
0.178489 0.816419 -0.011050
0.182389 0.816258 -0.010977
0.187250 0.820078 -0.010871
0.192126 0.823754 -0.010763
0.195661 0.821855 -0.010691
0.199017 0.819269 -0.010622
0.202477 0.817132 -0.010546
0.206100 0.815640 -0.010462
0.210059 0.815403 -0.010365
0.216926 0.825738 -0.010180
0.220861 0.825132 -0.010077
0.224580 0.823733 -0.009977
0.227807 0.820622 -0.009888
0.231415 0.818856 -0.009785
0.235172 0.817593 -0.009674
0.238859 0.816084 -0.009561
0.243564 0.817858 -0.009416
0.248060 0.818850 -0.009273
0.252074 0.818244 -0.009141
0.256197 0.817936 -0.009002
0.260566 0.818323 -0.008853
0.264602 0.817649 -0.008711
0.268425 0.816312 -0.008572
0.275200 0.823490 -0.008342
0.278395 0.820206 -0.008216
0.281141 0.815706 -0.008100
0.284930 0.814168 -0.007951
0.291051 0.818965 -0.007730
0.294991 0.817725 -0.007572
0.298734 0.815953 -0.007418
0.305282 0.821493 -0.007177
0.310182 0.822600 -0.006985
0.313374 0.819312 -0.006845
0.317559 0.818557 -0.006674
0.321924 0.818236 -0.006497
0.326196 0.817669 -0.006324
0.330431 0.817003 -0.006154
0.341183 0.831759 -0.005780
0.346327 0.833023 -0.005584
0.345614 0.820747 -0.005576
0.349510 0.819274 -0.005426
0.354315 0.819888 -0.005253
0.359000 0.820236 -0.005088
0.363022 0.819144 -0.004950
0.366975 0.817959 -0.004821
0.372437 0.820071 -0.004651
0.377112 0.820515 -0.004515
0.381647 0.820707 -0.004393
0.385559 0.819670 -0.004300
0.388361 0.816457 -0.004252
0.393520 0.818154 -0.004141
0.400920 0.824385 -0.003972
0.401061 0.816198 -0.004042
0.405332 0.816370 -0.003996
0.407762 0.813066 -0.004019
-0.488399 0.783393 -0.002741
-0.486058 0.786475 -0.002744
-0.482410 0.787562 -0.002799
-0.479160 0.789414 -0.002856
-0.475162 0.790134 -0.002948
-0.471170 0.790957 -0.003053
-0.467100 0.791733 -0.003172
-0.462565 0.791792 -0.003317
-0.457110 0.790310 -0.003500
-0.453290 0.791720 -0.003646
-0.448707 0.791851 -0.003823
-0.444895 0.793405 -0.003987
-0.441232 0.795291 -0.004155
-0.436135 0.794614 -0.004371
-0.431717 0.795196 -0.004574
-0.426549 0.794392 -0.004804
-0.422254 0.795229 -0.005013
-0.417157 0.794540 -0.005249
-0.413846 0.797291 -0.005439
-0.409782 0.798611 -0.005652
-0.405521 0.799551 -0.005873
-0.401012 0.799987 -0.006101
-0.395412 0.798181 -0.006360
-0.390862 0.798460 -0.006590
-0.386262 0.798602 -0.006820
-0.381833 0.799066 -0.007046
-0.377912 0.800580 -0.007257
-0.372569 0.799008 -0.007503
-0.367640 0.798254 -0.007735
-0.363141 0.798382 -0.007955
-0.359098 0.799484 -0.008161
-0.355199 0.800890 -0.008361
-0.351076 0.801758 -0.008563
-0.344378 0.796574 -0.008823
-0.341412 0.800033 -0.008992
-0.336925 0.799875 -0.009193
-0.333270 0.801679 -0.009371
-0.328681 0.801171 -0.009568
-0.324333 0.801192 -0.009755
-0.319858 0.800834 -0.009941
-0.315545 0.800825 -0.010120
-0.311800 0.802237 -0.010283
-0.306765 0.800221 -0.010470
-0.303164 0.801935 -0.010623
-0.299182 0.802608 -0.010780
-0.295201 0.803244 -0.010934
-0.291014 0.803270 -0.011088
-0.287089 0.803984 -0.011234
-0.283203 0.804778 -0.011375
-0.278618 0.803499 -0.011526
-0.274310 0.802947 -0.011669
-0.270502 0.803839 -0.011798
-0.266648 0.804566 -0.011926
-0.262746 0.805119 -0.012050
-0.258752 0.805346 -0.012174
-0.254891 0.805963 -0.012292
-0.250325 0.804244 -0.012419
-0.247224 0.807293 -0.012517
-0.243092 0.806913 -0.012630
-0.239195 0.807286 -0.012737
-0.234908 0.806259 -0.012847
-0.231227 0.807310 -0.012944
-0.227433 0.807948 -0.013041
-0.223385 0.807630 -0.013139
-0.219093 0.806339 -0.013238
-0.215345 0.807048 -0.013326
-0.211599 0.807749 -0.013411
-0.207727 0.807933 -0.013497
-0.203758 0.807699 -0.013581
-0.199850 0.807663 -0.013662
-0.195938 0.807577 -0.013741
-0.192025 0.807449 -0.013817
-0.188254 0.807901 -0.013890
-0.184562 0.808695 -0.013959
-0.180740 0.808892 -0.014028
-0.177006 0.809479 -0.014094
-0.174323 0.815130 -0.014142
-0.172164 0.823601 -0.014180
-0.169453 0.829660 -0.014225
-0.161538 0.809016 -0.014347
-0.157415 0.807448 -0.014410
-0.153590 0.807386 -0.014467
-0.150026 0.808756 -0.014519
-0.146699 0.811532 -0.014565
-0.144163 0.819116 -0.014597
-0.140809 0.822129 -0.014641
-0.136482 0.819194 -0.014698
-0.132394 0.817597 -0.014750
-0.128616 0.817935 -0.014796
-0.124638 0.816896 -0.014844
-0.120921 0.817611 -0.014886
-0.116571 0.813695 -0.014937
-0.112569 0.812116 -0.014982
-0.108780 0.812082 -0.015022
-0.105350 0.814959 -0.015056
-0.101601 0.815321 -0.015093
-0.097861 0.815763 -0.015129
-0.094058 0.815639 -0.015165
-0.090659 0.819390 -0.015193
-0.087228 0.823143 -0.015220
-0.083240 0.821314 -0.015257
-0.078954 0.815908 -0.015298
-0.074798 0.811416 -0.015337
-0.071036 0.811324 -0.015367
-0.067303 0.811557 -0.015395
-0.063629 0.812643 -0.015422
-0.059936 0.813568 -0.015448
-0.056251 0.814741 -0.015472
-0.052676 0.818014 -0.015493
-0.049077 0.821368 -0.015513
-0.045294 0.821469 -0.015537
-0.041300 0.816570 -0.015567
-0.037473 0.814868 -0.015592
-0.033533 0.809208 -0.015621
-0.029855 0.810860 -0.015639
-0.026325 0.819338 -0.015648
-0.022540 0.818583 -0.015668
-0.018771 0.818346 -0.015687
-0.015026 0.820179 -0.015702
-0.011248 0.818990 -0.015720
-0.007484 0.819672 -0.015735
-0.003719 0.819004 -0.015750
0.000053 0.819988 -0.015763
0.003776 0.816599 -0.015780
0.007552 0.817944 -0.015791
0.011368 0.820517 -0.015799
0.015103 0.819235 -0.015811
0.018938 0.821473 -0.015817
0.022749 0.822482 -0.015825
0.026472 0.821118 -0.015833
0.030060 0.817096 -0.015844
0.033744 0.815680 -0.015851
0.037507 0.815942 -0.015854
0.041017 0.811914 -0.015862
0.044843 0.813373 -0.015862
0.048691 0.814932 -0.015861
0.052451 0.815082 -0.015860
