ply
format ascii 1.0
comment ---
element vertex 1702
property float x
property float y
property float z
element face 0
property list uchar uint vertex_indices
end_header
0.702609 0.799314 -0.040830
0.706545 0.797342 -0.039982
0.710484 0.795423 -0.039139
0.713970 0.792371 -0.038472
0.719076 0.793557 -0.037207
0.724331 0.795091 -0.035899
0.729708 0.796899 -0.034561
0.734560 0.797375 -0.033431
0.739090 0.797070 -0.032433
0.743756 0.797119 -0.031402
0.749083 0.798767 -0.030146
0.755944 0.804011 -0.028358
0.760970 0.804901 -0.027254
0.764817 0.803106 -0.026589
0.767933 0.799738 -0.026201
0.771077 0.796555 -0.025818
0.775859 0.797129 -0.024875
0.779825 0.795954 -0.024240
0.784278 0.795923 -0.023455
0.790485 0.799722 -0.022086
0.782950 0.774300 -0.025467
0.778818 0.756624 -0.027663
0.791437 0.774258 -0.024157
0.804477 0.792482 -0.020564
0.811805 0.798762 -0.018945
0.816146 0.798958 -0.018358
0.823207 0.804677 -0.016890
0.829692 0.809231 -0.015646
0.835419 0.812288 -0.014681
0.838552 0.810316 -0.014589
0.837296 0.799974 -0.015937
0.836256 0.790301 -0.017214
-0.067776 0.765994 -0.172142
-0.064277 0.766208 -0.171253
-0.060839 0.766650 -0.170382
-0.057707 0.767829 -0.169529
-0.054853 0.769705 -0.168692
-0.051026 0.769684 -0.167870
-0.047082 0.769520 -0.167068
-0.042344 0.767763 -0.166288
-0.033085 0.756356 -0.165558
-0.034765 0.768561 -0.164783
-0.039137 0.787012 -0.163981
-0.033530 0.783838 -0.163281
-0.028423 0.781810 -0.162600
-0.024856 0.783315 -0.161919
-0.016745 0.774546 -0.161332
-0.005916 0.759380 -0.160829
-0.002884 0.762188 -0.160209
0.002313 0.760013 -0.159651
-0.003621 0.784513 -0.158843
-0.001792 0.790856 -0.158218
0.004532 0.786388 -0.157725
0.014141 0.773705 -0.157352
0.024936 0.757766 -0.157051
0.025253 0.768163 -0.156437
0.028180 0.772136 -0.155913
0.031724 0.774632 -0.155419
0.032099 0.785630 -0.154810
0.038227 0.781486 -0.154430
0.045474 0.774193 -0.154113
0.049252 0.776295 -0.153661
0.053982 0.775794 -0.153259
0.058670 0.775398 -0.152862
0.062993 0.776041 -0.152454
0.067049 0.777478 -0.152036
0.067785 0.788834 -0.151439
0.073454 0.785604 -0.151111
0.081012 0.776451 -0.150902
0.086080 0.774747 -0.150556
0.090787 0.774107 -0.150193
0.095584 0.773121 -0.149837
0.098898 0.776929 -0.149383
0.102862 0.778659 -0.148970
0.107007 0.779796 -0.148567
0.112475 0.776368 -0.148263
0.116926 0.776340 -0.147884
0.121554 0.775635 -0.147518
0.125950 0.775696 -0.147133
0.129899 0.777365 -0.146706
0.133864 0.778988 -0.146275
0.137927 0.780240 -0.145849
0.142272 0.780383 -0.145447
0.144932 0.787215 -0.144868
0.148557 0.790327 -0.144377
0.153025 0.790002 -0.143970
0.158050 0.787239 -0.143625
0.163721 0.781503 -0.143361
0.168615 0.778903 -0.143009
0.173162 0.777701 -0.142616
0.177277 0.778387 -0.142164
0.181628 0.777931 -0.141740
0.185767 0.778424 -0.141284
0.188557 0.785569 -0.140619
0.192472 0.787291 -0.140110
0.196449 0.788716 -0.139604
0.200791 0.788207 -0.139154
0.205631 0.784887 -0.138791
0.210037 0.783774 -0.138353
0.214403 0.782773 -0.137908
0.218853 0.781164 -0.137480
0.223054 0.780925 -0.137001
0.227180 0.781085 -0.136504
0.231377 0.780738 -0.136020
0.235770 0.779007 -0.135581
0.239749 0.779960 -0.135041
0.243822 0.780257 -0.134520
0.247791 0.781277 -0.133965
0.251736 0.782505 -0.133397
0.255653 0.783987 -0.132813
0.261288 0.771449 -0.132783
0.264531 0.778240 -0.131979
0.268241 0.781399 -0.131312
0.272321 0.781351 -0.130771
0.275464 0.790281 -0.129844
0.279749 0.788460 -0.129365
0.284309 0.783507 -0.129020
0.288685 0.780035 -0.128611
0.292590 0.781661 -0.127973
0.296663 0.781334 -0.127418
0.300716 0.781186 -0.126851
0.304705 0.781847 -0.126242
0.308450 0.786184 -0.125453
0.312388 0.788004 -0.124775
0.316383 0.789084 -0.124127
0.320608 0.786000 -0.123679
0.324732 0.784356 -0.123159
0.328727 0.785201 -0.122510
0.332775 0.784864 -0.121917
0.336665 0.788844 -0.121095
0.340616 0.791949 -0.120309
0.344752 0.789037 -0.119837
0.348999 0.779814 -0.119708
0.352836 0.789275 -0.118560
0.356845 0.791915 -0.117774
0.360885 0.793546 -0.117037
0.364952 0.791932 -0.116479
0.369004 0.789653 -0.115958
0.373042 0.788935 -0.115344
0.377059 0.786585 -0.114824
0.381176 0.792892 -0.113783
0.385358 0.799651 -0.112700
0.389568 0.804945 -0.111693
0.393510 0.798802 -0.111386
0.397349 0.791148 -0.111180
0.401271 0.787631 -0.110717
0.405336 0.788333 -0.109982
0.409267 0.785922 -0.109444
0.413294 0.785841 -0.108752
0.417371 0.786653 -0.107995
0.421329 0.785310 -0.107378
0.425350 0.785094 -0.106681
0.429537 0.787327 -0.105809
0.433623 0.787849 -0.105049
0.437585 0.786681 -0.104403
0.441538 0.785508 -0.103754
0.445547 0.785057 -0.103050
0.449957 0.789038 -0.102015
0.453745 0.786079 -0.101483
0.458839 0.796413 -0.099952
0.462856 0.795511 -0.099252
0.467122 0.796936 -0.098369
0.471886 0.802581 -0.097149
0.474934 0.793258 -0.097091
0.479179 0.794317 -0.096217
0.483448 0.795459 -0.095328
0.487422 0.794247 -0.094623
0.490777 0.788540 -0.094283
0.494700 0.787192 -0.093584
0.499301 0.790541 -0.092486
0.505696 0.805564 -0.090384
0.509679 0.804093 -0.089664
0.512077 0.792743 -0.089796
0.516353 0.793417 -0.088888
0.521185 0.797302 -0.087686
0.525801 0.799689 -0.086604
0.528695 0.792246 -0.086400
0.532504 0.790144 -0.085714
0.536540 0.789311 -0.084906
0.540950 0.790415 -0.083912
0.545252 0.790875 -0.082967
0.550402 0.795473 -0.081618
0.554399 0.794226 -0.080816
0.559897 0.800100 -0.079313
0.563536 0.797053 -0.078670
0.567780 0.796828 -0.077743
0.571672 0.795009 -0.076968
0.575539 0.793103 -0.076197
0.578843 0.788831 -0.075665
0.582771 0.787283 -0.074850
0.587614 0.789491 -0.073634
0.592661 0.792380 -0.072333
0.596705 0.791160 -0.071457
0.600643 0.789533 -0.070619
0.604770 0.788631 -0.069696
0.609130 0.788577 -0.068673
0.614018 0.790407 -0.067430
0.618862 0.791961 -0.066205
0.623496 0.792676 -0.065064
0.628006 0.792884 -0.063972
0.632549 0.793152 -0.062864
0.637195 0.793708 -0.061714
0.641704 0.793748 -0.060616
0.645714 0.792124 -0.059712
0.650054 0.791562 -0.058676
0.654375 0.790911 -0.057646
0.659383 0.792363 -0.056351
0.664698 0.794665 -0.054941
0.670827 0.799296 -0.053227
0.678208 0.807447 -0.051047
0.686147 0.816941 -0.048671
0.692163 0.820618 -0.047027
0.694035 0.812459 -0.046931
0.690876 0.790505 -0.048689
0.694269 0.787125 -0.048013
0.706349 0.807316 -0.044157
0.710398 0.805510 -0.043260
0.711073 0.794862 -0.043593
0.716285 0.796269 -0.042282
0.720637 0.795432 -0.041291
0.724958 0.794539 -0.040321
0.729703 0.794729 -0.039210
0.734605 0.795309 -0.038056
0.739297 0.795379 -0.036991
0.744619 0.796978 -0.035718
0.750424 0.799704 -0.034295
0.757289 0.804880 -0.032522
0.762702 0.806599 -0.031277
0.764444 0.799913 -0.031319
0.768233 0.798054 -0.030668
0.772806 0.798039 -0.029767
0.777173 0.797615 -0.028956
0.781808 0.797843 -0.028075
0.786773 0.798839 -0.027105
0.793259 0.803132 -0.025649
0.792550 0.792151 -0.026619
0.792077 0.773024 -0.028262
0.808009 0.797094 -0.023794
0.816197 0.805002 -0.021914
0.819542 0.803071 -0.021641
0.823251 0.801979 -0.021270
0.829168 0.805361 -0.020211
0.838447 0.815356 -0.018110
0.841252 0.812671 -0.018101
0.839706 0.801726 -0.019478
-0.068136 0.766296 -0.176017
-0.064887 0.767077 -0.175147
-0.061748 0.768198 -0.174295
-0.058664 0.769551 -0.173460
-0.054026 0.767817 -0.172624
-0.051939 0.771482 -0.171834
-0.048228 0.771895 -0.171046
-0.046414 0.776455 -0.170288
-0.044137 0.780209 -0.169540
-0.043252 0.787160 -0.168810
-0.038598 0.786086 -0.168087
-0.034442 0.786192 -0.167385
-0.029228 0.784024 -0.166707
-0.025939 0.786258 -0.166044
-0.016084 0.773602 -0.165438
-0.007972 0.764776 -0.164856
0.000529 0.754916 -0.164310
0.001268 0.763284 -0.163708
0.005039 0.764651 -0.163151
0.001954 0.782752 -0.162509
0.009276 0.775794 -0.162027
0.016023 0.770145 -0.161560
0.019527 0.772571 -0.161051
0.024655 0.770955 -0.160588
0.027176 0.776078 -0.160080
0.029430 0.782065 -0.159571
0.033930 0.782276 -0.159123
0.038437 0.782494 -0.158686
0.043754 0.780516 -0.158282
0.049733 0.776656 -0.157909
0.054116 0.777175 -0.157496
0.059099 0.775992 -0.157110
0.064096 0.774728 -0.156731
0.067608 0.777776 -0.156302
0.069218 0.786581 -0.155796
0.074715 0.783856 -0.155447
0.083414 0.771159 -0.155246
0.087348 0.772935 -0.154843
0.091946 0.772624 -0.154471
0.095845 0.774528 -0.154065
0.100943 0.772520 -0.153721
0.104554 0.775371 -0.153297
0.109127 0.775007 -0.152925
0.113321 0.775896 -0.152529
0.117635 0.776348 -0.152138
0.122296 0.775521 -0.151768
0.126813 0.775142 -0.151388
0.131263 0.774945 -0.151001
0.135034 0.777259 -0.150563
0.139277 0.777788 -0.150154
0.142585 0.781957 -0.149667
0.147845 0.778409 -0.149333
0.151830 0.779876 -0.148892
0.153881 0.789420 -0.148268
0.159670 0.783376 -0.147979
0.164998 0.779020 -0.147653
0.169136 0.779712 -0.147209
0.173314 0.780194 -0.146765
0.177551 0.780361 -0.146323
0.181819 0.780337 -0.145881
0.186404 0.778706 -0.145475
0.188533 0.789165 -0.144754
0.191858 0.793980 -0.144166
0.195958 0.794924 -0.143671
0.200535 0.793302 -0.143241
0.205864 0.787404 -0.142928
0.211214 0.781018 -0.142629
0.215478 0.780517 -0.142162
0.219761 0.779818 -0.141697
0.224056 0.778952 -0.141232
0.228032 0.779993 -0.140706
0.232087 0.780524 -0.140189
0.236354 0.779617 -0.139713
0.240498 0.779439 -0.139210
0.244430 0.780719 -0.138654
0.248394 0.781792 -0.138099
0.252453 0.782162 -0.137562
0.256553 0.782173 -0.137033
0.260330 0.784802 -0.136407
0.263964 0.788808 -0.135723
0.267972 0.789747 -0.135143
0.272544 0.785481 -0.134749
0.277336 0.778636 -0.134455
0.279948 0.793255 -0.133340
0.284328 0.790410 -0.132885
0.289202 0.781677 -0.132661
0.293195 0.782365 -0.132066
0.297237 0.782457 -0.131489
0.301391 0.781036 -0.130971
0.305426 0.781051 -0.130391
0.308963 0.788492 -0.129487
0.312677 0.794128 -0.128648
0.316921 0.791375 -0.128169
0.321406 0.783525 -0.127918
0.325418 0.783938 -0.127296
0.329397 0.785130 -0.126635
0.333313 0.788156 -0.125881
0.337299 0.789878 -0.125181
0.341351 0.789863 -0.124559
0.345344 0.792121 -0.123821
0.349565 0.784487 -0.123567
0.353594 0.784102 -0.122955
0.357620 0.783659 -0.122343
0.361648 0.782287 -0.121775
0.365657 0.782804 -0.121105
0.369673 0.785752 -0.120301
0.373704 0.786700 -0.119597
0.377743 0.787571 -0.118891
0.381789 0.788430 -0.118181
0.385890 0.791716 -0.117328
0.390040 0.795824 -0.116420
0.394137 0.796724 -0.115686
0.398163 0.795182 -0.115089
0.402064 0.790670 -0.114666
0.405933 0.786331 -0.114236
0.409936 0.785697 -0.113582
0.414039 0.787106 -0.112799
0.418121 0.787876 -0.112049
0.422108 0.786923 -0.111401
0.426091 0.786014 -0.110748
0.430753 0.795018 -0.109449
0.434235 0.786862 -0.109256
0.438280 0.786810 -0.108534
0.442206 0.785292 -0.107905
0.446360 0.786519 -0.107087
0.450399 0.786342 -0.106358
0.454746 0.789337 -0.105403
0.458979 0.790892 -0.104539
0.463497 0.794995 -0.103485
0.468014 0.798701 -0.102447
0.471865 0.796263 -0.101846
0.475246 0.790029 -0.101525
0.478785 0.785491 -0.101081
0.484978 0.801941 -0.099050
0.488901 0.800124 -0.098383
0.492822 0.798380 -0.097707
0.497174 0.799734 -0.096785
0.500565 0.794410 -0.096384
0.505058 0.796662 -0.095378
0.509361 0.797515 -0.094475
0.513380 0.796512 -0.093715
0.518061 0.799526 -0.092616
0.522807 0.802721 -0.091490
0.525395 0.793326 -0.091419
0.529374 0.792144 -0.090654
0.533289 0.790627 -0.089912
0.537260 0.789442 -0.089136
0.541409 0.789187 -0.088272
0.545729 0.789766 -0.087326
0.550572 0.792853 -0.086143
0.556727 0.802092 -0.084380
0.561380 0.803779 -0.083291
0.564750 0.799422 -0.082758
0.567325 0.791615 -0.082553
0.571451 0.790942 -0.081671
0.576466 0.794104 -0.080409
0.580177 0.791553 -0.079692
0.583982 0.789443 -0.078929
0.588056 0.788467 -0.078047
0.593310 0.792195 -0.076681
0.596981 0.789525 -0.075953
0.600993 0.788216 -0.075082
0.605837 0.790045 -0.073876
0.610193 0.789952 -0.072860
0.614856 0.790931 -0.071721
0.619498 0.791749 -0.070588
0.623755 0.791135 -0.069602
0.628723 0.792950 -0.068339
0.633367 0.793555 -0.067199
0.637831 0.793491 -0.066126
0.642206 0.793090 -0.065083
0.646717 0.793093 -0.063987
0.651342 0.793415 -0.062847
0.656088 0.794057 -0.061661
0.660515 0.793657 -0.060592
0.665414 0.794659 -0.059350
0.670737 0.796855 -0.057956
0.675714 0.797931 -0.056689
0.687752 0.819416 -0.052882
0.693229 0.821489 -0.051453
0.696286 0.816653 -0.050893
0.697215 0.806018 -0.051086
0.698498 0.796626 -0.051147
0.706491 0.805583 -0.048839
0.711884 0.807353 -0.047459
0.714528 0.801842 -0.047047
0.719117 0.801505 -0.045960
0.723673 0.801084 -0.044894
0.726865 0.797233 -0.044306
0.730380 0.794286 -0.043614
0.735826 0.796165 -0.042270
0.739389 0.793439 -0.041582
0.745662 0.797288 -0.039986
0.750143 0.796823 -0.039015
0.760321 0.809714 -0.036143
0.762289 0.803360 -0.036053
0.764463 0.797658 -0.035904
0.770146 0.800050 -0.034602
0.774426 0.799299 -0.033786
0.778971 0.799198 -0.032902
0.783391 0.798879 -0.032080
0.788660 0.800457 -0.031003
0.794669 0.803640 -0.029710
0.800734 0.806941 -0.028427
0.806378 0.809359 -0.027306
0.807434 0.802300 -0.027678
0.808535 0.795545 -0.028048
0.819772 0.809574 -0.025226
0.821265 0.803820 -0.025515
0.824290 0.801305 -0.025337
0.828482 0.801220 -0.024816
0.836542 0.808783 -0.023120
0.839196 0.805814 -0.023123
0.848885 0.808627 -0.021847
0.854062 0.810750 -0.021144
-0.071758 0.765930 -0.180788
-0.067889 0.765420 -0.179901
-0.064845 0.766668 -0.179054
-0.062020 0.768486 -0.178229
-0.058115 0.768226 -0.177395
-0.054269 0.768186 -0.176583
-0.049424 0.766163 -0.175772
-0.048747 0.772991 -0.175056
-0.046015 0.775678 -0.174318
-0.042725 0.777321 -0.173589
-0.040512 0.781435 -0.172890
-0.036691 0.782206 -0.172190
-0.030790 0.778477 -0.171490
-0.025057 0.775136 -0.170817
-0.024443 0.783409 -0.170199
-0.017588 0.777657 -0.169563
-0.008392 0.766433 -0.168947
-0.003829 0.765881 -0.168370
-0.000040 0.767224 -0.167812
0.003932 0.768225 -0.167271
0.007184 0.771062 -0.166742
0.009823 0.775534 -0.166223
0.015636 0.772264 -0.165733
0.018941 0.775281 -0.165241
0.023422 0.775410 -0.164771
0.026975 0.777981 -0.164303
0.029324 0.783808 -0.163828
0.032985 0.786322 -0.163376
0.036558 0.789162 -0.162929
0.044486 0.780173 -0.162558
0.049841 0.778073 -0.162160
0.054789 0.777057 -0.161762
0.059769 0.775915 -0.161373
0.065278 0.773190 -0.161001
0.067935 0.778769 -0.160568
0.067847 0.792709 -0.160061
0.072780 0.791811 -0.159679
0.084079 0.771204 -0.159488
0.088530 0.771382 -0.159109
0.092219 0.773956 -0.158705
0.096836 0.773574 -0.158331
0.102711 0.768991 -0.158005
0.107007 0.769503 -0.157621
0.109796 0.775126 -0.157174
0.114364 0.774726 -0.156796
0.118819 0.774662 -0.156411
0.123116 0.775116 -0.156017
0.127159 0.776462 -0.155608
0.131564 0.776457 -0.155213
0.136326 0.775040 -0.154836
0.140297 0.776575 -0.154412
0.144078 0.778864 -0.153970
0.148886 0.777056 -0.153589
0.152727 0.779085 -0.153141
0.156754 0.780365 -0.152700
0.161636 0.777979 -0.152318
0.166076 0.777364 -0.151901
0.169691 0.780351 -0.151414
0.173821 0.781054 -0.150963
0.178101 0.781035 -0.150520
0.182728 0.779302 -0.150107
0.186785 0.780213 -0.149637
0.187824 0.796185 -0.148844
0.191511 0.799328 -0.148307
0.195892 0.798922 -0.147839
0.200549 0.796958 -0.147403
0.205993 0.790481 -0.147068
0.211497 0.783264 -0.146753
0.216256 0.779931 -0.146347
0.220576 0.778984 -0.145881
0.224690 0.779195 -0.145382
0.228621 0.780522 -0.144848
0.232505 0.782184 -0.144300
0.236991 0.779837 -0.143854
0.241193 0.779255 -0.143357
0.245095 0.780741 -0.142798
0.248788 0.783831 -0.142186
0.252806 0.784583 -0.141635
0.257131 0.782879 -0.141153
0.260150 0.791824 -0.140342
0.263336 0.799990 -0.139540
0.268254 0.793228 -0.139199
0.273449 0.783232 -0.138967
0.277342 0.785025 -0.138353
0.280931 0.790054 -0.137623
0.285220 0.788003 -0.137126
0.289755 0.782903 -0.136735
0.293806 0.782956 -0.136162
0.297809 0.783576 -0.135564
0.302003 0.781673 -0.135054
0.306094 0.780935 -0.134500
0.309656 0.788081 -0.133640
0.313282 0.795182 -0.132769
0.317405 0.794620 -0.132187
0.322080 0.783296 -0.132036
0.326185 0.781754 -0.131495
0.330120 0.783776 -0.130805
0.333996 0.787728 -0.130025
0.338008 0.788686 -0.129366
0.341995 0.790736 -0.128653
0.346116 0.788065 -0.128143
0.350195 0.786235 -0.127595
0.354254 0.784537 -0.127039
0.358289 0.783462 -0.126453
0.362304 0.783824 -0.125796
0.366319 0.785024 -0.125095
0.370342 0.784825 -0.124456
0.374376 0.786669 -0.123713
0.378403 0.786430 -0.123067
0.382430 0.786270 -0.122414
0.386456 0.786175 -0.121753
0.390548 0.788744 -0.120948
0.394730 0.793589 -0.120015
0.398862 0.795650 -0.119220
0.402898 0.794666 -0.118584
0.406581 0.785619 -0.118393
0.410673 0.786923 -0.117629
0.414743 0.787544 -0.116897
0.418794 0.787719 -0.116186
0.422818 0.787380 -0.115500
0.426811 0.786581 -0.114837
0.430857 0.786623 -0.114121
0.435294 0.791887 -0.113081
0.438992 0.787134 -0.112646
0.443020 0.786829 -0.111936
0.447044 0.786480 -0.111225
0.451424 0.789980 -0.110261
0.455510 0.790086 -0.109508
0.460173 0.795824 -0.108377
0.464880 0.801457 -0.107239
0.469453 0.805375 -0.106201
0.472876 0.798966 -0.105859
0.475292 0.784612 -0.106072
0.478790 0.779974 -0.105622
0.482813 0.779689 -0.104866
0.489377 0.798417 -0.102735
0.493850 0.800722 -0.101762
0.497751 0.798839 -0.101087
0.501949 0.799042 -0.100253
0.505896 0.797547 -0.099541
0.509526 0.794070 -0.098976
0.513391 0.792213 -0.098285
0.519102 0.801542 -0.096715
0.523751 0.804099 -0.095657
0.525891 0.792148 -0.095750
0.529909 0.791219 -0.094965
0.534093 0.791194 -0.094099
0.537984 0.789574 -0.093359
0.541987 0.788565 -0.092562
0.546263 0.788934 -0.091642
0.551523 0.794086 -0.090302
0.557030 0.800143 -0.088865
0.561958 0.803160 -0.087674
0.564323 0.794214 -0.087536
0.568054 0.791745 -0.086824
0.572129 0.790854 -0.085964
0.576137 0.789657 -0.085125
0.582459 0.798248 -0.083367
0.586284 0.796099 -0.082595
0.590342 0.794928 -0.081726
0.595742 0.799102 -0.080333
0.600991 0.802480 -0.079000
0.604025 0.797179 -0.078509
0.607154 0.792382 -0.077969
0.611233 0.791220 -0.077065
0.615655 0.791298 -0.076026
0.620063 0.791269 -0.074990
0.624785 0.792296 -0.073835
0.629230 0.792282 -0.072778
0.634008 0.793345 -0.071598
0.638795 0.794360 -0.070412
0.643218 0.794094 -0.069356
0.647901 0.794631 -0.068204
0.652672 0.795381 -0.067019
0.657225 0.795385 -0.065910
0.662125 0.796406 -0.064677
0.666686 0.796330 -0.063563
0.670735 0.794686 -0.062627
0.674558 0.792387 -0.061768
0.680467 0.796157 -0.060186
0.686186 0.799237 -0.058675
0.694130 0.808445 -0.056408
0.699694 0.810770 -0.054963
0.702980 0.806778 -0.054297
0.706133 0.802516 -0.053677
0.710430 0.801387 -0.052672
0.715510 0.802320 -0.051409
0.720718 0.803545 -0.050111
0.725073 0.802552 -0.049106
0.729722 0.802319 -0.048012
0.736320 0.806932 -0.046283
0.742343 0.810019 -0.044759
0.745734 0.806665 -0.044114
0.746761 0.797753 -0.044252
0.754319 0.804502 -0.042268
0.762738 0.813116 -0.040028
0.760691 0.797430 -0.041193
0.765694 0.798202 -0.040092
0.770994 0.799664 -0.038914
0.775765 0.799955 -0.037925
0.780694 0.800633 -0.036907
0.785687 0.801488 -0.035890
0.794633 0.810889 -0.033651
0.796744 0.805590 -0.033589
0.802765 0.808706 -0.032323
0.808223 0.810650 -0.031259
0.812460 0.810104 -0.030598
0.812732 0.801537 -0.031181
0.819341 0.806039 -0.029834
0.822408 0.803432 -0.029596
0.826064 0.802121 -0.029200
0.830352 0.802160 -0.028635
0.832818 0.798726 -0.028639
0.831253 0.787649 -0.029862
0.846249 0.808570 -0.026177
0.850269 0.808370 -0.025787
0.857811 0.814892 -0.024386
0.854410 0.800953 -0.026207
-0.078498 0.771716 -0.185694
-0.073114 0.768216 -0.184736
-0.068243 0.765783 -0.183822
-0.064883 0.766459 -0.182983
-0.062072 0.768369 -0.182181
-0.058384 0.768618 -0.181367
-0.054417 0.768398 -0.180565
-0.050690 0.768779 -0.179791
-0.046935 0.769213 -0.179036
-0.044935 0.773494 -0.178345
-0.041582 0.775054 -0.177638
-0.036860 0.773770 -0.176918
-0.032524 0.773404 -0.176230
-0.028154 0.773049 -0.175562
-0.023259 0.771601 -0.174905
-0.018532 0.770590 -0.174274
-0.014194 0.770533 -0.173669
-0.009174 0.768971 -0.173074
-0.008488 0.777611 -0.172553
-0.002728 0.774486 -0.171984
0.004572 0.767649 -0.171421
0.007405 0.771565 -0.170920
0.010758 0.774353 -0.170426
0.012203 0.782016 -0.169955
0.019005 0.776387 -0.169465
0.023828 0.775710 -0.169001
0.026495 0.780638 -0.168553
0.030469 0.782288 -0.168111
0.031752 0.791175 -0.167675
0.036957 0.789719 -0.167246
0.044173 0.782712 -0.166834
0.050871 0.776948 -0.166433
0.055407 0.777108 -0.166031
0.061178 0.773726 -0.165644
0.064730 0.776684 -0.165244
0.068152 0.780093 -0.164845
0.067564 0.795608 -0.164398
0.071805 0.796879 -0.164001
0.080048 0.785777 -0.163663
0.085950 0.781644 -0.163299
0.090771 0.780788 -0.162921
0.097184 0.774694 -0.162574
0.100811 0.777556 -0.162175
0.105690 0.776262 -0.161800
0.110745 0.774273 -0.161429
0.115179 0.774328 -0.161042
0.119470 0.774842 -0.160649
0.123155 0.777504 -0.160235
0.127177 0.778975 -0.159825
0.131891 0.777856 -0.159436
0.136357 0.777587 -0.159036
0.140938 0.776805 -0.158637
0.145126 0.777490 -0.158219
0.149261 0.778361 -0.157795
0.153169 0.780139 -0.157355
0.157269 0.781132 -0.156918
0.162416 0.777608 -0.156534
0.166124 0.780184 -0.156068
0.170365 0.780428 -0.155626
0.174755 0.779944 -0.155191
0.178986 0.780118 -0.154741
0.182950 0.781519 -0.154268
0.186680 0.784077 -0.153770
0.188972 0.793912 -0.153146
0.192728 0.796646 -0.152627
0.197115 0.796133 -0.152156
0.201938 0.793178 -0.151725
0.206751 0.790066 -0.151296
0.211864 0.785023 -0.150901
0.216589 0.781915 -0.150470
0.221160 0.779496 -0.150024
0.225139 0.780552 -0.149503
0.228971 0.782546 -0.148957
0.231909 0.790485 -0.148275
0.236961 0.784538 -0.147890
0.241587 0.781139 -0.147449
0.245695 0.781192 -0.146926
0.249806 0.781182 -0.146399
0.253817 0.781886 -0.145851
0.257442 0.785698 -0.145219
0.260509 0.794405 -0.144451
0.264652 0.794414 -0.143899
0.268039 0.801203 -0.143158
0.273888 0.785316 -0.143036
0.278172 0.783353 -0.142533
0.282026 0.785601 -0.141906
0.286014 0.786572 -0.141310
0.290296 0.784228 -0.140810
0.294538 0.782064 -0.140303
0.298333 0.785293 -0.139623
0.302380 0.785455 -0.139035
0.306523 0.784201 -0.138489
0.310311 0.788179 -0.137765
0.313935 0.795430 -0.136920
0.317804 0.799406 -0.136175
0.322114 0.795459 -0.135704
0.326177 0.795969 -0.135072
0.330579 0.788531 -0.134730
0.334707 0.786483 -0.134191
0.338720 0.787272 -0.133541
0.342721 0.788697 -0.132863
0.346781 0.788112 -0.132258
0.350860 0.786241 -0.131702
0.354896 0.786038 -0.131076
0.358932 0.785544 -0.130459
0.362953 0.786557 -0.129775
0.366983 0.787165 -0.129103
0.371022 0.789072 -0.128369
0.375041 0.785878 -0.127856
0.379047 0.784125 -0.127279
0.383104 0.786361 -0.126516
0.387128 0.786094 -0.125863
0.391124 0.784790 -0.125256
0.395342 0.791310 -0.124267
0.399593 0.797033 -0.123304
0.403465 0.791669 -0.122882
0.407338 0.787435 -0.122408
0.411350 0.786858 -0.121746
0.415437 0.787800 -0.121002
0.419432 0.786928 -0.120349
0.423427 0.786173 -0.119686
0.427494 0.786569 -0.118957
0.431989 0.792956 -0.117889
0.436186 0.794574 -0.117076
0.440001 0.791178 -0.116542
0.443982 0.790091 -0.115875
0.448058 0.790149 -0.115137
0.451905 0.787719 -0.114543
0.456671 0.794869 -0.113368
0.461040 0.797477 -0.112455
0.465665 0.802220 -0.111399
0.469634 0.800648 -0.110728
0.473672 0.799767 -0.110010
0.476878 0.792014 -0.109732
0.479455 0.779775 -0.109756
0.484506 0.787416 -0.108475
0.489081 0.790959 -0.107451
0.494132 0.797661 -0.106199
0.497806 0.794295 -0.105624
0.502513 0.798075 -0.104549
0.505978 0.793455 -0.104056
0.508502 0.783088 -0.103978
0.513878 0.790877 -0.102592
0.519449 0.799362 -0.101133
0.523855 0.800544 -0.100196
0.526802 0.793323 -0.099884
0.530543 0.790833 -0.099218
0.534697 0.790655 -0.098369
0.538620 0.789224 -0.097612
0.542638 0.788307 -0.096809
0.547208 0.790154 -0.095778
0.552690 0.796345 -0.094381
0.557474 0.798865 -0.093267
0.560455 0.792780 -0.092857
0.564404 0.791352 -0.092058
0.568856 0.792190 -0.091060
0.573362 0.793182 -0.090039
0.578925 0.798632 -0.088616
0.583188 0.798336 -0.087682
0.588342 0.801683 -0.086413
0.590564 0.792971 -0.086223
0.595745 0.796302 -0.084936
0.602517 0.805656 -0.083073
0.607250 0.806814 -0.081951
0.609642 0.799088 -0.081662
0.614839 0.801930 -0.080364
0.619221 0.801672 -0.079353
0.623349 0.800464 -0.078427
0.627063 0.797800 -0.077639
0.630212 0.793234 -0.077041
0.634619 0.793024 -0.076000
0.639468 0.794241 -0.074804
0.644376 0.795563 -0.073585
0.648762 0.795115 -0.072542
0.653231 0.794893 -0.071468
0.658678 0.797679 -0.070062
0.662934 0.796682 -0.069057
0.667561 0.796790 -0.067924
0.671877 0.795925 -0.066895
0.675340 0.792548 -0.066146
0.680063 0.792867 -0.064979
0.686034 0.796687 -0.063402
0.690412 0.795899 -0.062351
0.694393 0.794002 -0.061431
0.701961 0.801903 -0.059345
0.705464 0.798634 -0.058586
0.710907 0.800572 -0.057203
0.714974 0.798838 -0.056270
0.720768 0.801588 -0.054787
0.726122 0.803132 -0.053454
0.732005 0.805958 -0.051961
0.739097 0.811698 -0.050096
0.747473 0.820432 -0.047840
0.751996 0.819645 -0.046819
0.755816 0.817212 -0.046031
0.762119 0.820700 -0.044477
0.764003 0.813842 -0.044321
0.761574 0.797254 -0.045517
0.767771 0.800690 -0.044038
0.772105 0.799895 -0.043157
0.776608 0.799531 -0.042241
0.781168 0.799347 -0.041328
0.788821 0.805930 -0.039489
0.798216 0.816161 -0.037150
0.803276 0.817025 -0.036158
0.801867 0.804335 -0.037141
0.806978 0.805534 -0.036174
0.809843 0.802157 -0.035903
0.817812 0.809320 -0.034132
0.820631 0.806022 -0.033921
0.823395 0.802758 -0.033745
0.828505 0.804278 -0.032900
0.830575 0.799888 -0.032968
0.830161 0.790831 -0.033775
0.840532 0.802794 -0.031475
0.849118 0.811224 -0.029730
0.857032 0.818322 -0.028213
0.855922 0.808445 -0.029295
0.857555 0.803925 -0.029607
-0.078484 0.771266 -0.189622
-0.072437 0.766507 -0.188632
-0.068529 0.766047 -0.187766
-0.065460 0.767373 -0.186956
-0.062229 0.768502 -0.186158
-0.058446 0.768622 -0.185356
-0.054864 0.769266 -0.184583
-0.051968 0.771462 -0.183855
-0.047540 0.770572 -0.183090
-0.043967 0.771591 -0.182377
-0.039746 0.771336 -0.181663
-0.035128 0.770313 -0.180957
-0.031359 0.771229 -0.180300
-0.027173 0.771332 -0.179651
-0.023197 0.771999 -0.179028
-0.018937 0.772123 -0.178417
-0.014297 0.771460 -0.177815
-0.009914 0.771455 -0.177240
-0.006616 0.774069 -0.176709
-0.002739 0.775439 -0.176180
0.002035 0.774746 -0.175648
0.008437 0.770127 -0.175099
0.010466 0.776225 -0.174653
0.014179 0.778318 -0.174186
0.018132 0.779897 -0.173726
0.023675 0.777472 -0.173252
0.027445 0.779615 -0.172817
0.030429 0.783907 -0.172402
0.036098 0.781161 -0.171959
0.037786 0.789129 -0.171571
0.046341 0.778459 -0.171114
0.051688 0.776421 -0.170702
0.056126 0.776882 -0.170304
0.060675 0.777028 -0.169909
0.065410 0.776616 -0.169517
0.069118 0.779210 -0.169132
0.070484 0.788897 -0.168755
0.072734 0.796161 -0.168369
0.078116 0.793908 -0.167977
0.083731 0.790812 -0.167588
0.091024 0.782198 -0.167205
0.094616 0.785309 -0.166815
0.098888 0.786226 -0.166424
0.103600 0.785646 -0.166035
0.108724 0.783583 -0.165647
0.111339 0.790147 -0.165234
0.116933 0.786319 -0.164847
0.120739 0.788761 -0.164437
0.126447 0.784236 -0.164051
0.131661 0.781335 -0.163658
0.135903 0.781985 -0.163245
0.140320 0.781918 -0.162832
0.144533 0.782601 -0.162411
0.147614 0.787836 -0.161954
0.151960 0.788000 -0.161525
0.156828 0.785909 -0.161108
0.161446 0.784743 -0.160680
0.166893 0.779826 -0.160282
0.171303 0.779298 -0.159844
0.175537 0.779488 -0.159396
0.179736 0.779796 -0.158941
0.183600 0.781668 -0.158465
0.187557 0.783115 -0.157987
0.190305 0.790655 -0.157432
0.194041 0.793411 -0.156922
0.198011 0.795014 -0.156419
0.203286 0.789556 -0.156004
0.208016 0.786793 -0.155552
0.212814 0.783426 -0.155108
0.217052 0.783113 -0.154617
0.221445 0.781786 -0.154137
0.226015 0.779226 -0.153675
0.229560 0.783026 -0.153105
0.231591 0.796995 -0.152352
0.235884 0.796388 -0.151836
0.240849 0.790964 -0.151406
0.244294 0.796162 -0.150776
0.248770 0.793918 -0.150281
0.253837 0.786854 -0.149882
0.258277 0.784278 -0.149393
0.262399 0.784116 -0.148852
0.266517 0.783928 -0.148308
0.270846 0.781747 -0.147805
0.274776 0.783113 -0.147218
0.279283 0.778831 -0.146760
0.282911 0.783220 -0.146091
0.286770 0.785485 -0.145466
0.291010 0.783552 -0.144943
0.295173 0.782295 -0.144400
0.298987 0.785310 -0.143739
0.303111 0.784427 -0.143178
0.307086 0.785541 -0.142558
0.311058 0.786807 -0.141928
0.314882 0.790696 -0.141215
0.318716 0.794992 -0.140481
0.322547 0.800044 -0.139713
0.326697 0.799132 -0.139124
0.330974 0.794929 -0.138639
0.335377 0.786220 -0.138306
0.339421 0.786079 -0.137691
0.343464 0.785836 -0.137076
0.347488 0.786295 -0.136433
0.351513 0.786820 -0.135783
0.355548 0.786871 -0.135146
0.359575 0.787650 -0.134478
0.363615 0.787290 -0.133849
0.367650 0.788500 -0.133155
0.371692 0.788793 -0.132492
0.375705 0.785249 -0.131980
0.379735 0.785591 -0.131309
0.383668 0.780128 -0.130876
0.387732 0.782932 -0.130097
0.391792 0.784620 -0.129358
0.396211 0.797532 -0.128118
0.400503 0.803466 -0.127168
0.404146 0.791673 -0.127010
0.408064 0.788508 -0.126468
0.412072 0.787732 -0.125813
0.416102 0.787489 -0.125131
0.420141 0.787402 -0.124436
0.424097 0.785970 -0.123805
0.428612 0.793069 -0.122743
0.432886 0.795852 -0.121885
0.437423 0.801743 -0.120858
0.441252 0.798142 -0.120315
0.445055 0.794579 -0.119771
0.448890 0.791710 -0.119191
0.452386 0.785477 -0.118796
0.457142 0.792570 -0.117662
0.461524 0.795367 -0.116754
0.465142 0.790812 -0.116260
0.469314 0.791519 -0.115461
0.473691 0.793897 -0.114557
0.477444 0.790913 -0.113965
0.481293 0.788873 -0.113315
0.486041 0.793826 -0.112231
0.490776 0.798312 -0.111162
0.493831 0.790441 -0.110864
0.498982 0.797553 -0.109609
0.502730 0.794774 -0.108981
0.505022 0.782634 -0.108972
0.508829 0.780743 -0.108290
0.515162 0.794431 -0.106545
0.520445 0.801059 -0.105255
0.522907 0.790889 -0.105121
0.527192 0.791529 -0.104232
0.531341 0.791338 -0.103395
0.535493 0.791139 -0.102552
0.539566 0.790487 -0.101735
0.543435 0.788779 -0.100990
0.548536 0.793261 -0.099773
0.553706 0.797833 -0.098533
0.558120 0.798545 -0.097575
0.560824 0.791199 -0.097242
0.565074 0.791183 -0.096331
0.569572 0.792228 -0.095326
0.573898 0.792430 -0.094379
0.580542 0.802510 -0.092606
0.586200 0.807999 -0.091188
0.589491 0.803470 -0.090599
0.591512 0.793944 -0.090441
0.596077 0.794804 -0.089390
0.603939 0.808397 -0.087206
0.607610 0.805449 -0.086459
0.610821 0.800836 -0.085860
0.614635 0.798555 -0.085049
0.620636 0.804200 -0.083499
0.626122 0.807772 -0.082122
0.630427 0.807053 -0.081134
0.633970 0.803691 -0.080393
0.641053 0.812323 -0.078484
0.644372 0.808143 -0.077808
0.645615 0.797276 -0.077798
0.649447 0.795016 -0.076939
0.653528 0.793568 -0.075994
0.658622 0.795265 -0.074720
0.663325 0.795667 -0.073570
0.667945 0.795760 -0.072444
0.672585 0.795865 -0.071311
0.677557 0.796896 -0.070071
0.682264 0.797092 -0.068915
0.686646 0.796319 -0.067861
0.690400 0.793774 -0.067004
0.695583 0.795211 -0.065700
0.701164 0.797653 -0.064275
0.707216 0.801260 -0.062708
0.711025 0.798814 -0.061841
0.715856 0.799076 -0.060661
0.720639 0.799187 -0.059502
0.725416 0.799267 -0.058351
0.733377 0.807306 -0.056233
0.738998 0.809343 -0.054843
0.746243 0.815292 -0.052970
0.752973 0.819848 -0.051269
0.758625 0.821732 -0.049909
0.763146 0.820925 -0.048904
0.765591 0.815334 -0.048537
0.766215 0.805722 -0.048726
0.768962 0.801178 -0.048289
0.773228 0.800174 -0.047414
0.777500 0.799242 -0.046555
0.781721 0.798263 -0.045729
0.787491 0.800707 -0.044466
0.798248 0.813829 -0.041763
0.800610 0.808938 -0.041550
0.807923 0.814589 -0.039912
0.804821 0.798582 -0.041324
0.812095 0.804276 -0.039744
0.817835 0.806807 -0.038637
0.820138 0.802445 -0.038540
0.824646 0.802640 -0.037834
0.829450 0.803493 -0.037068
0.835030 0.805929 -0.036108
0.842453 0.811975 -0.034658
0.845680 0.809939 -0.034414
0.858717 0.826698 -0.031460
0.856292 0.814071 -0.032836
0.859416 0.812133 -0.032687
0.860410 0.806361 -0.033141
0.862550 0.802878 -0.033295
-0.086192 0.778839 -0.194692
-0.079096 0.772078 -0.193605
-0.073076 0.767443 -0.192608
-0.068758 0.766234 -0.191731
-0.066047 0.768345 -0.190961
-0.062992 0.769902 -0.190190
-0.058944 0.769559 -0.189389
-0.055125 0.769791 -0.188620
-0.051400 0.770328 -0.187878
-0.048704 0.773152 -0.187203
-0.044105 0.772081 -0.186462
-0.039128 0.770275 -0.185727
-0.034991 0.770359 -0.185051
-0.030575 0.769927 -0.184385
-0.026774 0.770944 -0.183765
-0.023424 0.773083 -0.183183
-0.019497 0.774047 -0.182597
-0.014209 0.771986 -0.181980
-0.010275 0.773099 -0.181432
-0.006231 0.774050 -0.180897
-0.002049 0.774760 -0.180375
0.003040 0.773364 -0.179839
0.007339 0.773909 -0.179344
0.011526 0.774792 -0.178868
0.015844 0.775414 -0.178401
0.020597 0.774981 -0.177933
0.025609 0.773902 -0.177471
0.029975 0.774494 -0.177037
0.033945 0.776167 -0.176622
0.037998 0.777673 -0.176213
0.042097 0.779100 -0.175810
0.046785 0.778948 -0.175398
0.051945 0.777465 -0.174982
0.057074 0.776013 -0.174572
0.061087 0.777716 -0.174189
0.065554 0.778119 -0.173800
0.070741 0.776377 -0.173400
0.072376 0.785248 -0.173065
0.075909 0.788559 -0.172693
0.078285 0.795541 -0.172337
0.083935 0.792364 -0.171929
0.089738 0.788549 -0.171521
0.095270 0.785445 -0.171117
0.099501 0.786510 -0.170728
0.103672 0.787764 -0.170337
0.106758 0.792739 -0.169951
0.111875 0.790733 -0.169545
0.115869 0.792600 -0.169144
0.121247 0.789462 -0.168732
0.126687 0.785926 -0.168320
0.131008 0.786405 -0.167908
0.134010 0.791898 -0.167490
0.138560 0.791497 -0.167067
0.143153 0.790853 -0.166641
0.148011 0.789045 -0.166214
0.152607 0.788189 -0.165782
0.157329 0.786703 -0.165348
0.162096 0.784903 -0.164912
0.167892 0.778424 -0.164492
0.171878 0.779761 -0.164039
0.175870 0.781074 -0.163581
0.180348 0.780095 -0.163129
0.184782 0.779222 -0.162673
0.188383 0.782360 -0.162187
0.191617 0.787448 -0.161680
0.195486 0.789443 -0.161186
0.199605 0.790149 -0.160696
0.204696 0.785537 -0.160245
0.209167 0.784091 -0.159767
0.213781 0.781691 -0.159294
0.217773 0.782770 -0.158784
0.221627 0.784691 -0.158260
0.226486 0.780389 -0.157799
0.230866 0.778857 -0.157306
0.232707 0.794019 -0.156602
0.236912 0.793913 -0.156075
0.241018 0.794439 -0.155535
0.245064 0.795390 -0.154985
0.249126 0.796231 -0.154431
0.254238 0.788852 -0.153998
0.259211 0.781993 -0.153563
0.263277 0.782211 -0.153013
0.267349 0.782349 -0.152460
0.271785 0.779100 -0.151964
0.275734 0.780181 -0.151388
0.279505 0.783082 -0.150771
0.283283 0.786144 -0.150143
0.287525 0.784362 -0.149607
0.291749 0.782537 -0.149071
0.295781 0.782817 -0.148487
0.299779 0.783507 -0.147890
0.303761 0.784468 -0.147281
0.307657 0.786750 -0.146637
0.311424 0.791365 -0.145928
0.315582 0.789986 -0.145361
0.319639 0.790202 -0.144750
0.323451 0.795290 -0.144006
0.327386 0.798637 -0.143299
0.331612 0.795569 -0.142763
0.335935 0.788977 -0.142327
0.340077 0.786166 -0.141786
0.344100 0.786702 -0.141146
0.348138 0.786768 -0.140516
0.352166 0.787293 -0.139867
0.356197 0.787865 -0.139213
0.360244 0.787191 -0.138595
0.364282 0.786984 -0.137959
0.368318 0.787181 -0.137305
0.372357 0.788065 -0.136624
0.376377 0.785792 -0.136050
0.380410 0.786086 -0.135383
0.384508 0.789846 -0.134582
0.388414 0.783507 -0.134155
0.392535 0.787280 -0.133343
0.397039 0.802143 -0.132085
0.401081 0.800391 -0.131467
0.404851 0.792287 -0.131107
0.408749 0.788620 -0.130572
0.412765 0.787998 -0.129908
0.416794 0.787683 -0.129228
0.420798 0.786968 -0.128563
0.424849 0.787067 -0.127857
0.429117 0.790342 -0.127003
0.434175 0.804127 -0.125652
0.437990 0.800039 -0.125117
0.442100 0.800000 -0.124391
0.446311 0.801126 -0.123602
0.450888 0.806148 -0.122615
0.455179 0.807644 -0.121792
0.457327 0.787410 -0.122074
0.461401 0.787448 -0.121330
0.465614 0.788723 -0.120516
0.469833 0.789922 -0.119698
0.474218 0.792401 -0.118804
0.477810 0.788168 -0.118272
0.482211 0.790590 -0.117367
0.486619 0.792858 -0.116461
0.491348 0.797303 -0.115419
0.495634 0.798263 -0.114569
0.499409 0.795601 -0.113928
0.503154 0.792867 -0.113291
0.505773 0.782964 -0.113093
0.509738 0.782060 -0.112344
0.516166 0.796225 -0.110636
0.520053 0.794467 -0.109919
0.523859 0.792294 -0.109226
0.527607 0.789865 -0.108547
0.531906 0.790548 -0.107657
0.536378 0.792075 -0.106701
0.540702 0.792709 -0.105796
0.544937 0.792822 -0.104919
0.549611 0.795071 -0.103883
0.555173 0.801490 -0.102535
0.558591 0.797377 -0.101934
0.561373 0.790447 -0.101542
0.565708 0.790832 -0.100607
0.570034 0.791113 -0.099672
0.575047 0.794338 -0.098500
0.581274 0.802563 -0.096923
0.586208 0.805002 -0.095778
0.589263 0.799578 -0.095250
0.592171 0.793728 -0.094758
0.598736 0.802486 -0.093068
0.604795 0.808908 -0.091544
0.608464 0.805951 -0.090790
0.610206 0.795859 -0.090643
0.613191 0.790635 -0.090088
0.617335 0.789716 -0.089157
0.625715 0.803769 -0.086887
0.629432 0.801074 -0.086085
0.635307 0.805796 -0.084602
0.643056 0.816608 -0.082537
0.648226 0.818485 -0.081274
0.647207 0.800117 -0.081916
0.649696 0.793515 -0.081464
0.654763 0.795195 -0.080215
0.659074 0.794429 -0.079194
0.663661 0.794480 -0.078086
0.668455 0.795105 -0.076912
0.673104 0.795240 -0.075781
0.678476 0.797433 -0.074430
0.683079 0.797308 -0.073310
0.687014 0.795256 -0.072389
0.691636 0.795142 -0.071262
0.696327 0.795182 -0.070115
0.701293 0.795933 -0.068887
0.706315 0.796784 -0.067644
0.711263 0.797386 -0.066427
0.716092 0.797637 -0.065249
0.720538 0.796878 -0.064189
0.725417 0.797214 -0.063006
0.730234 0.797375 -0.061848
0.734928 0.797218 -0.060734
0.739786 0.797459 -0.059581
0.747504 0.804568 -0.057605
0.755710 0.812661 -0.055503
0.760530 0.812624 -0.054399
0.764245 0.810043 -0.053626
0.767087 0.805544 -0.053119
0.769731 0.800729 -0.052680
0.773876 0.799412 -0.051825
0.778802 0.799885 -0.050764
0.783180 0.799189 -0.049878
0.789773 0.803338 -0.048383
0.792942 0.800128 -0.047880
0.799370 0.803932 -0.046477
0.801663 0.799066 -0.046262
0.810939 0.808812 -0.044111
0.814437 0.806595 -0.043603
0.818393 0.805419 -0.042990
0.819917 0.799459 -0.043072
0.825348 0.801455 -0.042096
0.830652 0.803244 -0.041181
0.839528 0.812045 -0.039319
0.851774 0.827278 -0.036577
0.860115 0.834845 -0.034934
0.852071 0.811267 -0.037736
0.856811 0.812239 -0.037106
0.860351 0.811045 -0.036821
0.862868 0.808065 -0.036828
0.863632 0.802005 -0.037315
-0.084839 0.775790 -0.198588
-0.080788 0.775043 -0.197690
-0.076645 0.774209 -0.196806
-0.069619 0.767715 -0.195760
-0.065832 0.767737 -0.194946
-0.062945 0.769695 -0.194207
-0.059406 0.770461 -0.193449
-0.054358 0.768225 -0.192623
-0.051179 0.769959 -0.191930
-0.047801 0.771409 -0.191245
-0.042853 0.769649 -0.190494
-0.039336 0.771033 -0.189844
-0.034984 0.770727 -0.189170
-0.030338 0.769866 -0.188504
-0.026307 0.770443 -0.187890
-0.023084 0.772933 -0.187337
-0.019551 0.774860 -0.186787
-0.015019 0.774615 -0.186207
-0.010095 0.773525 -0.185628
-0.006245 0.775003 -0.185117
-0.001186 0.773700 -0.184568
0.003524 0.773264 -0.184051
0.007754 0.774036 -0.183571
0.011832 0.775250 -0.183112
0.015796 0.776817 -0.182669
0.021013 0.775275 -0.182186
0.026094 0.774068 -0.181721
0.030403 0.774857 -0.181297
0.034368 0.776591 -0.180895
0.038609 0.777640 -0.180489
0.043227 0.777695 -0.180075
0.047361 0.779082 -0.179686
0.053559 0.774724 -0.179226
0.057721 0.776002 -0.178844
0.061580 0.778173 -0.178476
0.066139 0.778337 -0.178085
0.071372 0.776477 -0.177673
0.076441 0.775018 -0.177269
0.080730 0.775872 -0.176890
0.085113 0.776423 -0.176508
0.090229 0.774627 -0.176104
0.093150 0.779795 -0.175761
0.097414 0.780695 -0.175377
0.102187 0.779879 -0.174977
0.105382 0.784331 -0.174615
0.110028 0.783885 -0.174212
0.114141 0.785239 -0.173818
0.118534 0.785587 -0.173414
0.123020 0.785552 -0.173004
0.127335 0.786094 -0.172594
0.131209 0.788260 -0.172187
0.134604 0.792287 -0.171783
0.138763 0.793419 -0.171359
0.143992 0.790263 -0.170916
0.149151 0.787205 -0.170471
0.154195 0.784438 -0.170026
0.158453 0.784836 -0.169586
0.162739 0.785063 -0.169140
0.167928 0.781244 -0.168686
0.172252 0.781112 -0.168233
0.176275 0.782305 -0.167776
0.180361 0.783198 -0.167312
0.184944 0.781663 -0.166846
0.188559 0.784798 -0.166369
0.192570 0.786013 -0.165889
0.196730 0.786451 -0.165405
0.200312 0.789939 -0.164906
0.204909 0.787997 -0.164419
0.209387 0.786566 -0.163927
0.214019 0.784109 -0.163438
0.218237 0.783911 -0.162935
0.221602 0.788844 -0.162396
0.225353 0.791597 -0.161862
0.229805 0.789924 -0.161352
0.234419 0.787011 -0.160850
0.238362 0.788470 -0.160310
0.243286 0.783009 -0.159827
0.245702 0.795543 -0.159172
0.250105 0.793796 -0.158645
0.254143 0.794744 -0.158086
0.259992 0.780903 -0.157691
0.263834 0.782975 -0.157118
0.268042 0.781937 -0.156577
0.271892 0.784058 -0.155992
0.275600 0.787680 -0.155379
0.279648 0.788160 -0.154804
0.283604 0.789613 -0.154209
0.287767 0.788865 -0.153644
0.292416 0.782305 -0.153171
0.296448 0.782564 -0.152587
0.300475 0.782876 -0.151998
0.304506 0.783127 -0.151405
0.307834 0.793797 -0.150609
0.311721 0.797056 -0.149943
0.316086 0.792578 -0.149426
0.320305 0.789997 -0.148873
0.324265 0.792150 -0.148215
0.328029 0.799095 -0.147443
0.332201 0.797379 -0.146859
0.336654 0.787275 -0.146475
0.340675 0.788041 -0.145834
0.344725 0.787979 -0.145208
0.348789 0.787147 -0.144600
0.352811 0.788167 -0.143940
0.356855 0.788186 -0.143302
0.360909 0.786975 -0.142695
0.364949 0.786156 -0.142076
0.368983 0.786767 -0.141411
0.373015 0.786232 -0.140777
0.377077 0.789242 -0.140030
0.381216 0.795817 -0.139162
0.385116 0.786417 -0.138800
0.389190 0.788147 -0.138078
0.393284 0.790025 -0.137344
0.397607 0.798488 -0.136375
0.401627 0.796584 -0.135758
0.405411 0.789332 -0.135335
0.409454 0.789175 -0.134655
0.413455 0.788169 -0.134004
0.417467 0.787516 -0.133337
0.421461 0.786626 -0.132676
0.425447 0.785720 -0.132013
0.429891 0.791598 -0.131070
0.434607 0.800452 -0.129989
0.438787 0.801318 -0.129229
0.442531 0.796730 -0.128700
0.447393 0.805525 -0.127583
0.451725 0.807582 -0.126750
0.454600 0.794177 -0.126618
0.458160 0.788795 -0.126128
0.462035 0.786856 -0.125480
0.466222 0.787899 -0.124685
0.470959 0.793664 -0.123652
0.475424 0.796650 -0.122744
0.479659 0.797508 -0.121933
0.483012 0.791351 -0.121478
0.487812 0.796539 -0.120432
0.492122 0.797763 -0.119583
0.495972 0.795610 -0.118909
0.499967 0.794549 -0.118174
0.503757 0.792157 -0.117509
0.507383 0.788811 -0.116896
0.511753 0.790272 -0.116006
0.517007 0.796998 -0.114797
0.520530 0.793066 -0.114205
0.523200 0.784393 -0.113901
0.528086 0.788562 -0.112817
0.532576 0.790315 -0.111869
0.537155 0.792410 -0.110889
0.541430 0.792779 -0.110009
0.545709 0.793111 -0.109124
0.550546 0.796148 -0.108051
0.555196 0.798099 -0.107038
0.559873 0.800044 -0.106013
0.562271 0.791296 -0.105717
0.566416 0.790800 -0.104851
0.570877 0.791684 -0.103879
0.576145 0.795989 -0.102650
0.580726 0.797148 -0.101635
0.583995 0.792735 -0.101022
0.585788 0.782414 -0.100856
0.593671 0.796868 -0.098809
0.601024 0.808646 -0.096929
0.605731 0.809709 -0.095857
0.607368 0.799043 -0.095708
0.609252 0.789635 -0.095472
0.613810 0.790286 -0.094423
0.618665 0.791930 -0.093282
0.622789 0.790884 -0.092354
0.629176 0.797675 -0.090750
0.635770 0.804892 -0.089085
0.643915 0.817017 -0.086965
0.649267 0.819482 -0.085664
0.646822 0.796513 -0.086635
0.651339 0.796457 -0.085564
0.655443 0.795054 -0.084609
0.659799 0.794428 -0.083577
0.664254 0.794073 -0.082512
0.668820 0.794011 -0.081413
0.673501 0.794246 -0.080277
0.678598 0.795640 -0.079020
0.683873 0.797458 -0.077711
0.688125 0.796291 -0.076693
0.693870 0.799274 -0.075249
0.697616 0.796649 -0.074374
0.702112 0.796090 -0.073286
0.706889 0.796262 -0.072119
0.711843 0.796866 -0.070905
0.716415 0.796432 -0.069801
0.721111 0.796306 -0.068666
0.725868 0.796315 -0.067518
0.731370 0.798164 -0.066168
0.736254 0.798435 -0.064997
0.741140 0.798693 -0.063835
0.746160 0.799261 -0.062644
0.751429 0.800407 -0.061394
0.756693 0.801518 -0.060158
0.761957 0.802614 -0.058934
0.766029 0.800979 -0.058054
0.770267 0.799778 -0.057143
0.775076 0.799905 -0.056090
0.779610 0.799455 -0.055129
0.785079 0.801090 -0.053931
0.794018 0.810206 -0.051807
0.797752 0.808077 -0.051125
0.798570 0.799903 -0.051254
0.804817 0.803281 -0.049931
0.810244 0.804956 -0.048854
0.814754 0.804788 -0.048048
0.813842 0.793733 -0.048717
0.815452 0.788019 -0.048726
0.824374 0.796981 -0.046813
0.832753 0.804785 -0.045077
0.839023 0.808420 -0.043930
0.860728 0.833237 -0.039329
0.857720 0.819217 -0.040691
0.858402 0.812451 -0.041106
0.860456 0.808440 -0.041183
0.862409 0.804400 -0.041303
0.866704 0.804798 -0.040844
0.866970 0.797967 -0.041429
-0.080127 0.759286 -0.202810
-0.080592 0.767150 -0.202259
-0.080112 0.773395 -0.201645
-0.078212 0.777046 -0.200939
-0.071021 0.770311 -0.199864
-0.066295 0.768529 -0.198995
-0.062863 0.769455 -0.198241
-0.059110 0.769844 -0.197486
-0.053032 0.765541 -0.196594
-0.055190 0.778466 -0.196282
-0.052084 0.780647 -0.195632
-0.044706 0.773870 -0.194724
-0.039498 0.771729 -0.193984
-0.035546 0.772373 -0.193348
-0.030679 0.771113 -0.192675
-0.026304 0.771007 -0.192056
-0.023512 0.774545 -0.191552
-0.019226 0.774848 -0.190978
-0.014418 0.774036 -0.190392
-0.009656 0.773379 -0.189827
-0.005871 0.775076 -0.189337
-0.000145 0.772245 -0.188753
0.004085 0.773005 -0.188271
0.008763 0.772737 -0.187777
0.012517 0.774792 -0.187349
0.016390 0.776634 -0.186925
0.021130 0.776349 -0.186466
0.026184 0.775268 -0.186001
0.030622 0.775782 -0.185578
0.034548 0.777673 -0.185189
0.039388 0.777168 -0.184760
0.044033 0.777177 -0.184348
0.048905 0.776547 -0.183929
0.053539 0.776555 -0.183527
0.057649 0.778037 -0.183154
0.062729 0.776738 -0.182736
0.067378 0.776637 -0.182340
0.071314 0.778625 -0.181980
0.076870 0.775739 -0.181544
0.080960 0.777230 -0.181176
0.085572 0.777097 -0.180783
0.090713 0.775238 -0.180365
0.095160 0.775509 -0.179977
0.099676 0.775516 -0.179583
0.103992 0.776142 -0.179196
0.108243 0.776954 -0.178808
0.112108 0.779079 -0.178432
0.117864 0.774572 -0.177975
0.121938 0.775869 -0.177583
0.125773 0.778026 -0.177196
0.128429 0.784584 -0.176848
0.134320 0.779094 -0.176373
0.138584 0.779605 -0.175955
0.143385 0.777964 -0.175514
0.147197 0.780166 -0.175102
0.150560 0.784227 -0.174698
0.155294 0.782679 -0.174245
0.159391 0.783716 -0.173806
0.163514 0.784623 -0.173361
0.168267 0.782711 -0.172895
0.172653 0.782320 -0.172434
0.176783 0.783041 -0.171974
0.181060 0.783036 -0.171506
0.185364 0.782843 -0.171033
0.189357 0.784126 -0.170560
0.193466 0.784819 -0.170080
0.197586 0.785436 -0.169594
0.200922 0.790216 -0.169109
0.204405 0.794386 -0.168613
0.209008 0.792400 -0.168107
0.213901 0.788571 -0.167599
0.218306 0.787380 -0.167089
0.222591 0.786795 -0.166575
0.225393 0.795472 -0.166039
0.229148 0.798430 -0.165503
0.234251 0.792488 -0.164988
0.239657 0.784015 -0.164486
0.242210 0.795307 -0.163902
0.246478 0.794640 -0.163361
0.249600 0.802647 -0.162768
0.254993 0.793179 -0.162269
0.259878 0.787126 -0.161755
0.264564 0.782235 -0.161236
0.268299 0.785367 -0.160655
0.271991 0.789113 -0.160060
0.275833 0.791685 -0.159468
0.279744 0.793753 -0.158873
0.284122 0.790992 -0.158324
0.288750 0.785110 -0.157810
0.292926 0.783867 -0.157244
0.297047 0.783119 -0.156670
0.301118 0.782904 -0.156087
0.305128 0.783452 -0.155489
0.308495 0.793681 -0.154747
0.312147 0.800766 -0.154035
0.316675 0.793711 -0.153535
0.320823 0.792542 -0.152943
0.324751 0.795643 -0.152276
0.328783 0.796972 -0.151633
0.333016 0.793455 -0.151075
0.337403 0.784559 -0.150623
0.341422 0.785048 -0.149991
0.345400 0.787283 -0.149319
0.349442 0.787372 -0.148687
0.353476 0.787877 -0.148042
0.357524 0.787577 -0.147411
0.361577 0.786127 -0.146804
0.365609 0.786842 -0.146144
0.369647 0.787160 -0.145489
0.373690 0.787956 -0.144817
0.377733 0.788032 -0.144161
0.381894 0.796098 -0.143282
0.386039 0.799492 -0.142520
0.389928 0.790914 -0.142092
0.393973 0.790538 -0.141432
0.398102 0.792795 -0.140689
0.402307 0.796500 -0.139895
0.406061 0.788662 -0.139457
0.410032 0.786989 -0.138828
0.414123 0.787922 -0.138110
0.418147 0.787491 -0.137434
0.422145 0.786658 -0.136768
0.426185 0.786565 -0.136073
0.430764 0.794261 -0.135092
0.435252 0.799740 -0.134176
0.439069 0.795970 -0.133599
0.442752 0.790971 -0.133071
0.447719 0.801172 -0.131945
0.451966 0.802487 -0.131158
0.455031 0.791382 -0.130875
0.458949 0.789705 -0.130210
0.462763 0.787154 -0.129580
0.466701 0.785904 -0.128893
0.471653 0.793571 -0.127806
0.476268 0.797787 -0.126859
0.481642 0.807795 -0.125631
0.486244 0.811031 -0.124700
0.489485 0.803777 -0.124260
0.493095 0.799648 -0.123675
0.496799 0.796410 -0.123047
0.500018 0.790040 -0.122578
0.504185 0.790280 -0.121774
0.508023 0.788360 -0.121077
