ply
format ascii 1.0
comment ---
element vertex 1678
property float x
property float y
property float z
element face 0
property list uchar uint vertex_indices
end_header
0.238546 0.795824 -0.639770
0.243990 0.793458 -0.638173
0.249471 0.797963 -0.640211
0.254921 0.796712 -0.639220
0.260371 0.795965 -0.638504
0.265817 0.795252 -0.637814
0.271251 0.794273 -0.636992
0.276797 0.796709 -0.637975
0.282247 0.795987 -0.637303
0.287724 0.795988 -0.637018
0.293331 0.798464 -0.638041
0.298838 0.798634 -0.637857
0.304339 0.798590 -0.637567
0.309781 0.797625 -0.636800
0.315243 0.797027 -0.636230
0.320632 0.795513 -0.635186
0.326335 0.797999 -0.636240
0.331823 0.797688 -0.635833
0.337440 0.798783 -0.636164
0.343087 0.800059 -0.636590
0.348329 0.797252 -0.634883
0.353911 0.797872 -0.634967
0.359734 0.800573 -0.636137
0.365467 0.802292 -0.636792
0.370940 0.801785 -0.636281
0.376167 0.799444 -0.634810
0.381866 0.800853 -0.635289
0.387606 0.802495 -0.635883
0.393377 0.804303 -0.636555
0.398700 0.803058 -0.635628
0.403687 0.799819 -0.633653
0.409320 0.800906 -0.633918
0.414789 0.801037 -0.633672
0.420516 0.802787 -0.634253
0.425936 0.802804 -0.633917
0.431470 0.803585 -0.633960
0.436965 0.804248 -0.633922
0.442455 0.805004 -0.633912
0.447701 0.804633 -0.633296
0.452835 0.803889 -0.632465
0.458219 0.804574 -0.632349
0.463010 0.802598 -0.630834
0.467873 0.801231 -0.629608
0.472846 0.800623 -0.628749
0.478692 0.804121 -0.629976
0.483806 0.804500 -0.629566
0.488722 0.804232 -0.628795
0.494262 0.806801 -0.629450
0.498622 0.804656 -0.627657
0.503242 0.803859 -0.626527
0.508779 0.806940 -0.627349
0.513474 0.806874 -0.626531
0.517925 0.806106 -0.625325
0.523057 0.808151 -0.625522
0.527974 0.809563 -0.625365
0.532623 0.810187 -0.624777
0.536982 0.809977 -0.623738
0.540330 0.806422 -0.620982
0.544441 0.805854 -0.619712
0.546823 0.799574 -0.615542
-0.676935 0.740068 -0.758779
-0.673986 0.744368 -0.761247
-0.670443 0.748156 -0.763308
-0.664114 0.748988 -0.763309
-0.655856 0.747750 -0.761857
-0.650352 0.749664 -0.762475
-0.643791 0.750479 -0.762294
-0.637556 0.751747 -0.762360
-0.630562 0.752223 -0.761837
-0.625441 0.754953 -0.762770
-0.617042 0.753934 -0.761130
-0.608009 0.752201 -0.758962
-0.603843 0.756310 -0.760650
-0.601781 0.763082 -0.764056
-0.594589 0.763772 -0.763346
-0.586622 0.763559 -0.761986
-0.577160 0.761520 -0.759370
-0.568644 0.760656 -0.757494
-0.559390 0.758864 -0.754968
-0.553017 0.760740 -0.754827
-0.545147 0.760732 -0.753406
-0.537340 0.760815 -0.752012
-0.528277 0.759247 -0.749505
-0.522066 0.761441 -0.749437
-0.515012 0.762538 -0.748622
-0.508172 0.763936 -0.747977
-0.501849 0.766055 -0.747778
-0.495326 0.767920 -0.747391
-0.486347 0.766347 -0.744763
-0.476421 0.763365 -0.741221
-0.469679 0.764846 -0.740550
-0.462023 0.764994 -0.739012
-0.453567 0.763926 -0.736692
-0.445754 0.763740 -0.734937
-0.437451 0.762761 -0.732678
-0.434259 0.769456 -0.735297
-0.428215 0.771870 -0.735188
-0.416439 0.765385 -0.729453
-0.410056 0.767149 -0.728945
-0.405427 0.771675 -0.730177
-0.393116 0.763896 -0.723687
-0.386561 0.765220 -0.722927
-0.379951 0.766415 -0.722094
-0.373488 0.767809 -0.721393
-0.368050 0.770888 -0.721749
-0.361074 0.771346 -0.720486
-0.353683 0.771024 -0.718755
-0.346641 0.771225 -0.717362
-0.337205 0.767124 -0.713338
-0.330249 0.767281 -0.711956
-0.324810 0.770111 -0.712226
-0.319684 0.773508 -0.712851
-0.312201 0.772536 -0.710821
-0.302312 0.766935 -0.705997
-0.295985 0.767897 -0.705186
-0.290193 0.769839 -0.704983
-0.284429 0.771807 -0.704808
-0.279050 0.774513 -0.705089
-0.271827 0.773512 -0.703152
-0.266671 0.776610 -0.703694
-0.257294 0.771020 -0.699043
-0.252990 0.775791 -0.700614
-0.246622 0.776248 -0.699618
-0.240797 0.777807 -0.699292
-0.234694 0.778731 -0.698603
-0.228464 0.779325 -0.697732
-0.221269 0.777704 -0.695565
-0.213977 0.775744 -0.693218
-0.208222 0.777189 -0.692897
-0.203894 0.781926 -0.694525
-0.196178 0.778719 -0.691494
-0.188406 0.775211 -0.688309
-0.181901 0.774610 -0.686847
-0.176729 0.777218 -0.687274
-0.171112 0.778720 -0.687065
-0.164593 0.777898 -0.685515
-0.158555 0.778227 -0.684649
-0.152927 0.779573 -0.684385
-0.146711 0.779325 -0.683210
-0.140800 0.779830 -0.682484
-0.135785 0.782750 -0.683162
-0.130589 0.785194 -0.683574
-0.122544 0.779538 -0.679338
-0.116310 0.778870 -0.677988
-0.110808 0.780271 -0.677836
-0.104829 0.780222 -0.676864
-0.099110 0.780901 -0.676321
-0.092886 0.779972 -0.674870
-0.087952 0.783020 -0.675697
-0.082547 0.784597 -0.675694
-0.076776 0.784975 -0.675020
-0.069895 0.781594 -0.672225
-0.064688 0.783718 -0.672562
-0.060179 0.788279 -0.674284
-0.052983 0.783457 -0.670713
-0.048415 0.787857 -0.672359
-0.041929 0.785316 -0.670101
-0.035760 0.783797 -0.668433
-0.030479 0.785560 -0.668617
-0.024936 0.786309 -0.668243
-0.019277 0.786566 -0.667601
-0.013626 0.786807 -0.666959
-0.008020 0.787184 -0.666403
-0.002363 0.787298 -0.665710
0.003557 0.786200 -0.664352
0.008840 0.787858 -0.664537
0.014366 0.788413 -0.664116
0.020059 0.788147 -0.663249
0.025661 0.788253 -0.662598
0.031562 0.786808 -0.661098
0.036986 0.787671 -0.660884
0.042622 0.787404 -0.660056
0.048230 0.787212 -0.659277
0.053627 0.788132 -0.659121
0.059151 0.788312 -0.658566
0.064519 0.789377 -0.658505
0.069788 0.791056 -0.658790
0.075001 0.793140 -0.659303
0.080503 0.793420 -0.658836
0.086277 0.791818 -0.657348
0.091989 0.790477 -0.656013
0.097549 0.790083 -0.655206
0.102823 0.791777 -0.655547
0.108432 0.790903 -0.654496
0.114180 0.788754 -0.652762
0.119346 0.791369 -0.653629
0.124966 0.790089 -0.652387
0.130149 0.792762 -0.653300
0.135596 0.793037 -0.652920
0.141078 0.792917 -0.652334
0.146623 0.792024 -0.651340
0.151987 0.793132 -0.651438
0.157277 0.795258 -0.652093
0.162942 0.792579 -0.650162
0.168394 0.792545 -0.649670
0.173806 0.793093 -0.649500
0.179258 0.793027 -0.649008
0.184585 0.795256 -0.649760
0.190008 0.795946 -0.649692
0.195521 0.794655 -0.648569
0.201000 0.793900 -0.647744
0.206430 0.794426 -0.647615
0.211909 0.793357 -0.646640
0.217361 0.792985 -0.646049
0.222800 0.793218 -0.645790
0.228240 0.793725 -0.645687
0.233686 0.794327 -0.645643
0.239136 0.797512 -0.646986
0.244611 0.797922 -0.646855
0.250078 0.796864 -0.645949
0.255534 0.795591 -0.644937
0.260994 0.795044 -0.644321
0.266471 0.795298 -0.644140
0.272013 0.797505 -0.645006
0.277526 0.798187 -0.645066
0.282989 0.797335 -0.644318
0.288410 0.795700 -0.643160
0.293951 0.796698 -0.643409
0.299513 0.797812 -0.643725
0.305044 0.798182 -0.643651
0.310552 0.798095 -0.643338
0.315886 0.795564 -0.641736
0.321520 0.797241 -0.642368
0.327242 0.799735 -0.643435
0.332739 0.799349 -0.642979
0.338310 0.799791 -0.642963
0.343933 0.800701 -0.643195
0.349612 0.802068 -0.643669
0.354999 0.800625 -0.642657
0.360529 0.800591 -0.642387
0.366135 0.801221 -0.642466
0.371775 0.802108 -0.642675
0.377225 0.801502 -0.642092
0.382828 0.802126 -0.642152
0.388547 0.803601 -0.642652
0.393934 0.802753 -0.641919
0.399087 0.800488 -0.640430
0.404351 0.799179 -0.639434
0.409780 0.799081 -0.639063
0.415513 0.800928 -0.639700
0.420505 0.798458 -0.638052
0.426588 0.802449 -0.639781
0.432123 0.803329 -0.639856
0.437439 0.803140 -0.639350
0.442831 0.803513 -0.639118
0.448143 0.803628 -0.638728
0.453460 0.803930 -0.638412
0.458168 0.801452 -0.636619
0.463420 0.801856 -0.636306
0.467807 0.798430 -0.633970
0.473369 0.800677 -0.634564
0.479056 0.803583 -0.635471
0.484450 0.805314 -0.635734
0.489176 0.804353 -0.634569
0.494402 0.805731 -0.634588
0.499221 0.805615 -0.633802
0.503662 0.804212 -0.632321
0.508409 0.804291 -0.631576
0.513871 0.807367 -0.632347
0.518270 0.806515 -0.631061
0.522495 0.805265 -0.629543
0.527344 0.806587 -0.629317
0.532477 0.809126 -0.629683
0.536344 0.807280 -0.627777
0.541042 0.808641 -0.627482
0.544594 0.806194 -0.625219
-0.674290 0.737243 -0.763406
-0.671537 0.741685 -0.766034
-0.668415 0.745864 -0.768423
-0.662231 0.746785 -0.768528
-0.656486 0.748284 -0.768970
-0.647114 0.745792 -0.766634
-0.640296 0.746228 -0.766238
-0.634696 0.748132 -0.766785
-0.630521 0.751778 -0.768455
-0.627078 0.756400 -0.770727
-0.620208 0.757136 -0.770302
-0.609874 0.753836 -0.767093
-0.605245 0.757351 -0.768440
-0.601336 0.761846 -0.770390
-0.593846 0.762109 -0.769430
-0.583536 0.758952 -0.766122
-0.577031 0.760492 -0.765927
-0.569533 0.760848 -0.764892
-0.561128 0.760091 -0.763069
-0.553790 0.760702 -0.762122
-0.546639 0.761585 -0.761316
-0.537751 0.760231 -0.758988
-0.530495 0.761004 -0.758042
-0.523131 0.761651 -0.756980
-0.517454 0.764573 -0.757391
-0.509481 0.764429 -0.755752
-0.501273 0.763944 -0.753867
-0.493534 0.764080 -0.752373
-0.485292 0.763488 -0.750388
-0.476991 0.762770 -0.748308
-0.470647 0.764807 -0.748013
-0.463573 0.765792 -0.747020
-0.456368 0.766565 -0.745881
-0.446764 0.763758 -0.742425
-0.441270 0.766992 -0.742868
-0.432512 0.765303 -0.740137
-0.427195 0.768790 -0.740732
-0.414163 0.760345 -0.733691
-0.410136 0.765756 -0.735519
-0.405082 0.769601 -0.736341
-0.396104 0.767175 -0.733181
-0.386211 0.763141 -0.729020
-0.379708 0.764506 -0.728291
-0.372841 0.765229 -0.727165
-0.366250 0.766360 -0.726306
-0.361190 0.770050 -0.727062
-0.354839 0.771534 -0.726440
-0.347554 0.771347 -0.724787
-0.339589 0.769881 -0.722355
-0.332037 0.769037 -0.720329
-0.323967 0.767161 -0.717681
-0.319137 0.771091 -0.718644
-0.314057 0.774582 -0.719341
-0.307459 0.775231 -0.718297
-0.296366 0.767268 -0.711985
-0.290271 0.768652 -0.711433
-0.289019 0.779447 -0.716645
-0.278256 0.771640 -0.710506
-0.272640 0.773860 -0.710504
-0.267112 0.776242 -0.710611
-0.262288 0.780057 -0.711597
-0.251781 0.772053 -0.705447
-0.246659 0.775133 -0.706020
-0.239647 0.774173 -0.704170
-0.234349 0.776832 -0.704513
-0.226888 0.774729 -0.702011
-0.220356 0.774565 -0.700691
-0.213545 0.773692 -0.698964
-0.209283 0.778573 -0.700683
-0.203556 0.780110 -0.700418
-0.197050 0.779778 -0.699055
-0.189848 0.777697 -0.696673
-0.181744 0.773285 -0.692931
-0.176492 0.775714 -0.693253
-0.171332 0.778378 -0.693722
-0.166277 0.781319 -0.694363
-0.158989 0.778512 -0.691636
-0.152707 0.778186 -0.690384
-0.146113 0.776952 -0.688615
-0.139903 0.776648 -0.687405
-0.134786 0.779276 -0.687919
-0.129537 0.781554 -0.688237
-0.123472 0.781519 -0.687220
-0.117301 0.781110 -0.685998
-0.111657 0.782170 -0.685641
-0.105340 0.781189 -0.684113
-0.098832 0.779525 -0.682205
-0.093254 0.780617 -0.681901
-0.087880 0.782329 -0.681964
-0.082466 0.783913 -0.681962
-0.076903 0.784998 -0.681683
-0.070546 0.783415 -0.679883
-0.063879 0.780656 -0.677425
-0.058123 0.780880 -0.676687
-0.054477 0.788509 -0.680185
-0.046343 0.780197 -0.674598
-0.040673 0.780550 -0.673967
-0.036051 0.784791 -0.675553
-0.030414 0.785260 -0.675004
-0.024443 0.784375 -0.673696
-0.018650 0.784102 -0.672747
-0.012968 0.784210 -0.672024
-0.007611 0.785623 -0.672047
-0.002089 0.786333 -0.671682
0.003872 0.785088 -0.670224
0.009352 0.785887 -0.669928
0.014278 0.789217 -0.671062
0.020192 0.787985 -0.669643
0.025798 0.788126 -0.669003
0.031326 0.788595 -0.668557
0.036966 0.788465 -0.667785
0.042775 0.787375 -0.666486
0.048679 0.785641 -0.664840
0.053934 0.787373 -0.665135
0.058940 0.790584 -0.666260
0.064604 0.790034 -0.665301
0.069758 0.792514 -0.666034
0.075270 0.792833 -0.665575
0.081000 0.791690 -0.664315
0.086691 0.790674 -0.663136
0.092441 0.789101 -0.661661
0.097965 0.789009 -0.661013
0.103417 0.789400 -0.660642
0.109024 0.788541 -0.659590
0.114432 0.789193 -0.659381
0.119909 0.789255 -0.658855
0.124993 0.792838 -0.660273
0.130476 0.792930 -0.659781
0.135865 0.793918 -0.659789
0.141340 0.794044 -0.659333
0.146812 0.794186 -0.658896
0.152045 0.797129 -0.659999
0.157766 0.794231 -0.657917
0.163256 0.794014 -0.657311
0.168750 0.793662 -0.656642
0.174164 0.794484 -0.656621
0.179607 0.794902 -0.656389
0.185052 0.795343 -0.656179
0.190611 0.793461 -0.654715
0.196189 0.790636 -0.652749
0.201641 0.790372 -0.652185
0.206967 0.793987 -0.653734
0.212446 0.793281 -0.652947
0.217939 0.791582 -0.651633
0.223380 0.792086 -0.651521
0.228812 0.793854 -0.652101
0.234260 0.796496 -0.653161
0.239738 0.796694 -0.652907
0.245225 0.798087 -0.653307
0.250708 0.797229 -0.652500
0.256148 0.794030 -0.650440
0.261641 0.794970 -0.650620
0.267157 0.796291 -0.651012
0.272718 0.798525 -0.651902
0.278252 0.799308 -0.652018
0.283680 0.797223 -0.650598
0.289107 0.795534 -0.649398
0.294616 0.795713 -0.649208
0.300260 0.798168 -0.650246
0.305976 0.801333 -0.651669
0.311354 0.798951 -0.650120
0.316873 0.798816 -0.649780
0.322413 0.798952 -0.649589
0.327958 0.799099 -0.649407
0.333626 0.800619 -0.649961
0.339008 0.798918 -0.648793
0.344714 0.800662 -0.649468
0.350394 0.802006 -0.649928
0.356046 0.802972 -0.650183
0.361373 0.801052 -0.648894
0.366661 0.799010 -0.647537
0.371979 0.797417 -0.646416
0.378395 0.804434 -0.649881
0.383826 0.803701 -0.649205
0.388953 0.800939 -0.647439
0.394303 0.799989 -0.646629
0.399540 0.798441 -0.645491
0.405034 0.798739 -0.645323
0.410737 0.800422 -0.645877
0.415895 0.798851 -0.644686
0.421511 0.800169 -0.645012
0.427288 0.802455 -0.645834
0.432641 0.802433 -0.645410
0.437863 0.801871 -0.644680
0.443727 0.804840 -0.645797
0.448742 0.803528 -0.644624
0.453685 0.802099 -0.643365
0.458189 0.798807 -0.641099
0.463320 0.798821 -0.640554
0.468735 0.800345 -0.640777
0.473749 0.800192 -0.640087
0.479208 0.802228 -0.640520
0.484315 0.802869 -0.640189
0.488920 0.801571 -0.638811
0.494044 0.802705 -0.638678
0.499023 0.803430 -0.638300
0.503654 0.802957 -0.637264
0.507982 0.801529 -0.635702
0.513369 0.804483 -0.636394
0.518384 0.806149 -0.636382
0.522506 0.804634 -0.634688
0.528121 0.808909 -0.635967
0.530778 0.802517 -0.631693
0.535740 0.804801 -0.631883
0.540443 0.806321 -0.631648
0.545453 0.809084 -0.632024
-0.670927 0.741057 -0.772172
-0.666306 0.743530 -0.773447
-0.662484 0.746999 -0.775351
-0.657721 0.749543 -0.776558
-0.650736 0.749695 -0.776060
-0.638397 0.743841 -0.771376
-0.634085 0.747144 -0.772934
-0.629524 0.750280 -0.774316
-0.627586 0.756583 -0.777809
-0.619913 0.756322 -0.776743
-0.612002 0.755832 -0.775467
-0.602926 0.753995 -0.773218
-0.596522 0.755395 -0.773128
-0.588810 0.755276 -0.771951
-0.582400 0.756796 -0.771838
-0.576280 0.758742 -0.771962
-0.569749 0.760244 -0.771737
-0.563277 0.761880 -0.771554
-0.553422 0.759253 -0.768452
-0.545925 0.759634 -0.767342
-0.537469 0.758787 -0.765370
-0.529975 0.759197 -0.764209
-0.523243 0.760631 -0.763701
-0.517239 0.763070 -0.763830
-0.510175 0.764117 -0.762999
-0.503001 0.765024 -0.762050
-0.492739 0.761657 -0.758245
-0.484226 0.760643 -0.755989
-0.478231 0.763147 -0.756040
-0.472193 0.765611 -0.756045
-0.463320 0.763997 -0.753355
-0.453910 0.761520 -0.750099
-0.451171 0.768810 -0.753222
-0.441324 0.765589 -0.749473
-0.433657 0.765542 -0.747795
-0.421598 0.758723 -0.741728
-0.415725 0.761260 -0.741735
-0.409769 0.763668 -0.741655
-0.405923 0.769410 -0.743719
-0.399942 0.771803 -0.743622
-0.386677 0.762383 -0.735963
-0.380041 0.763541 -0.735100
-0.372247 0.762736 -0.732993
-0.365399 0.763429 -0.731852
-0.358773 0.764445 -0.730926
-0.354683 0.769773 -0.732738
-0.347427 0.769646 -0.731107
-0.338901 0.767200 -0.728031
-0.332455 0.768331 -0.727224
-0.326345 0.770019 -0.726778
-0.319215 0.769810 -0.725157
-0.313054 0.771310 -0.724620
-0.305241 0.769674 -0.722143
-0.297476 0.768009 -0.719671
-0.292167 0.770948 -0.720071
-0.284971 0.770209 -0.718208
-0.277872 0.769566 -0.716422
-0.272330 0.771941 -0.716513
-0.267244 0.775228 -0.717175
-0.260042 0.774181 -0.715189
-0.252438 0.772190 -0.712647
-0.245649 0.771789 -0.711097
-0.240960 0.775792 -0.712245
-0.233807 0.774490 -0.710177
-0.227185 0.774241 -0.708768
-0.220697 0.774210 -0.707507
-0.214478 0.774713 -0.706585
-0.208577 0.775884 -0.706082
-0.203372 0.778637 -0.706542
-0.196611 0.777723 -0.704811
-0.189707 0.776367 -0.702831
-0.183467 0.776514 -0.701770
-0.177020 0.776082 -0.700377
-0.172177 0.779584 -0.701346
-0.166811 0.781794 -0.701552
-0.160674 0.782010 -0.700584
-0.152961 0.778029 -0.697142
-0.146047 0.775981 -0.694866
-0.140111 0.776448 -0.694093
-0.134864 0.778755 -0.694420
-0.129001 0.779349 -0.693746
-0.123261 0.780246 -0.693262
-0.117474 0.780969 -0.692687
-0.112282 0.783399 -0.693124
-0.106743 0.784809 -0.692972
-0.099610 0.781351 -0.689988
-0.093190 0.779910 -0.688198
-0.087583 0.780919 -0.687849
-0.082210 0.782653 -0.687932
-0.076888 0.784550 -0.688118
-0.070171 0.781806 -0.685623
-0.063660 0.779591 -0.683450
-0.058394 0.781540 -0.683699
-0.052718 0.782051 -0.683126
-0.048006 0.785998 -0.684543
-0.041471 0.783338 -0.682163
-0.035771 0.783635 -0.681497
-0.030446 0.785325 -0.681640
-0.024511 0.784633 -0.680427
-0.018102 0.781950 -0.678086
-0.012534 0.782528 -0.677623
-0.007058 0.783456 -0.677370
-0.001877 0.785633 -0.677837
0.003081 0.788837 -0.678895
0.008621 0.789512 -0.678522
0.015197 0.785380 -0.675428
0.020317 0.787866 -0.676102
0.025764 0.788834 -0.675924
0.031317 0.789266 -0.675451
0.037085 0.788557 -0.674342
0.042841 0.787813 -0.673224
0.048465 0.787680 -0.672462
0.054266 0.786490 -0.671114
0.058998 0.791330 -0.673169
0.064384 0.792526 -0.673180
0.070079 0.791847 -0.672147
0.075642 0.791904 -0.671537
0.081387 0.790704 -0.670233
0.087259 0.788503 -0.668379
0.092719 0.788981 -0.668036
0.098373 0.788026 -0.666901
0.103965 0.787402 -0.665961
0.109419 0.787771 -0.665584
0.114919 0.787732 -0.664990
0.120050 0.790850 -0.666160
0.125417 0.792050 -0.666271
0.130888 0.792334 -0.665881
0.136305 0.793140 -0.665791
0.141803 0.793128 -0.665256
0.147165 0.794594 -0.665549
0.152536 0.796080 -0.665861
0.157938 0.797332 -0.666051
0.163840 0.791882 -0.662551
0.169128 0.794582 -0.663560
0.174530 0.795884 -0.663806
0.180100 0.794460 -0.662559
0.185580 0.794423 -0.662085
0.191049 0.794614 -0.661747
0.196704 0.790348 -0.658969
0.202061 0.793003 -0.660004
0.207537 0.792750 -0.659449
0.213033 0.791639 -0.658435
0.218507 0.791014 -0.657696
0.223979 0.790153 -0.656837
0.229405 0.792904 -0.657965
0.234868 0.794172 -0.658287
0.240347 0.795436 -0.658616
0.245838 0.796275 -0.658720
0.251364 0.799423 -0.660091
0.256879 0.799612 -0.659854
0.262349 0.797440 -0.658339
0.267847 0.797111 -0.657837
0.273383 0.798034 -0.658023
0.278934 0.799002 -0.658240
0.284371 0.796963 -0.656829
0.289880 0.796836 -0.656463
0.295499 0.798788 -0.657233
0.301113 0.800263 -0.657748
0.306618 0.799719 -0.657171
0.312104 0.798948 -0.656475
0.317515 0.797249 -0.655280
0.323020 0.796951 -0.654848
0.328584 0.797380 -0.654811
0.334065 0.796828 -0.654245
0.339850 0.799571 -0.655463
0.345188 0.797548 -0.654100
0.350926 0.799564 -0.654921
0.356568 0.800539 -0.655175
0.362172 0.801143 -0.655225
0.367194 0.796913 -0.652661
0.373581 0.803925 -0.656159
0.379157 0.804263 -0.656047
0.384494 0.802898 -0.655008
0.389604 0.800107 -0.653192
0.394872 0.798685 -0.652103
0.400376 0.799006 -0.651942
0.406381 0.802608 -0.653530
0.411514 0.800731 -0.652157
0.416474 0.798062 -0.650343
0.422004 0.798990 -0.650443
0.428086 0.803118 -0.652240
0.433276 0.802289 -0.651356
0.438907 0.804019 -0.651822
0.444503 0.805653 -0.652211
0.449489 0.804291 -0.650973
0.453522 0.798479 -0.647336
0.458653 0.798428 -0.646751
0.464216 0.800610 -0.647329
0.469156 0.800032 -0.646408
0.474187 0.800097 -0.645801
0.479149 0.800065 -0.645114
0.484337 0.801230 -0.645031
0.489029 0.800466 -0.643896
0.494048 0.801312 -0.643584
0.498827 0.801374 -0.642827
0.503236 0.800173 -0.641373
0.507464 0.798527 -0.639657
0.513959 0.805942 -0.642679
0.520417 0.813200 -0.645576
0.524154 0.810248 -0.643081
0.526850 0.803770 -0.638719
0.533053 0.810465 -0.641220
0.536039 0.805654 -0.637683
0.539062 0.801331 -0.634384
-0.664535 0.741616 -0.778699
-0.659720 0.743918 -0.779849
-0.656691 0.748322 -0.782405
-0.648343 0.746876 -0.780834
-0.640276 0.745794 -0.779462
-0.632017 0.744541 -0.777918
-0.626083 0.746014 -0.778208
-0.620897 0.748445 -0.779104
-0.616270 0.751633 -0.780464
-0.609462 0.752352 -0.780059
-0.602231 0.752634 -0.779299
-0.592686 0.750182 -0.776603
-0.587443 0.752965 -0.777459
-0.581766 0.755311 -0.777960
-0.577078 0.758966 -0.779303
-0.569182 0.758712 -0.777918
-0.560168 0.757074 -0.775544
-0.552865 0.757612 -0.774615
-0.545437 0.758022 -0.773557
-0.536591 0.756612 -0.771224
-0.528147 0.755715 -0.769207
-0.521793 0.757579 -0.769026
-0.515760 0.759914 -0.769127
-0.509589 0.762108 -0.769098
-0.502917 0.763654 -0.768603
-0.497244 0.766602 -0.769020
-0.485397 0.760963 -0.763668
-0.477714 0.761064 -0.762145
-0.470670 0.762053 -0.761197
-0.462940 0.762042 -0.759570
-0.455138 0.761890 -0.757841
-0.448357 0.763202 -0.757072
-0.442845 0.766395 -0.757533
-0.433368 0.763625 -0.754061
-0.424424 0.761557 -0.751057
-0.416124 0.760382 -0.748646
-0.412325 0.766157 -0.750775
-0.406771 0.769232 -0.751132
-0.397434 0.766268 -0.747566
-0.388842 0.764376 -0.744710
-0.380802 0.763276 -0.742381
-0.373694 0.763627 -0.741000
-0.365005 0.761266 -0.737886
-0.360199 0.765366 -0.738934
-0.353494 0.766233 -0.737913
-0.348506 0.770034 -0.738776
-0.342052 0.771273 -0.738010
-0.333392 0.768539 -0.734732
-0.327294 0.770280 -0.734313
-0.319763 0.769373 -0.732231
-0.311037 0.766156 -0.728710
-0.303253 0.764546 -0.726226
-0.298110 0.767825 -0.726834
-0.292790 0.770773 -0.727241
-0.284994 0.768903 -0.724645
-0.275408 0.763376 -0.719791
-0.272101 0.770170 -0.722636
-0.266329 0.772078 -0.722446
-0.259779 0.772366 -0.721264
-0.252514 0.771097 -0.719136
-0.246112 0.771538 -0.718084
-0.241394 0.775512 -0.719222
-0.235138 0.776187 -0.718340
-0.228369 0.775681 -0.716749
-0.222475 0.777035 -0.716314
-0.215145 0.775109 -0.713889
-0.209570 0.777073 -0.713856
-0.202801 0.776246 -0.712137
-0.196762 0.777042 -0.711421
-0.189795 0.775569 -0.709343
-0.185003 0.779262 -0.710410
-0.179501 0.781245 -0.710452
-0.173168 0.781135 -0.709242
-0.166865 0.781028 -0.708050
-0.160653 0.781081 -0.706968
-0.153838 0.779486 -0.704914
-0.148914 0.782803 -0.705817
-0.142202 0.781324 -0.703861
-0.136160 0.781568 -0.702950
-0.129817 0.780908 -0.701514
-0.123073 0.779022 -0.699364
-0.117405 0.780111 -0.698997
-0.112062 0.782126 -0.699189
-0.106186 0.782551 -0.698450
-0.099445 0.780292 -0.696138
-0.092960 0.778679 -0.694224
-0.087214 0.779272 -0.693624
-0.082191 0.782144 -0.694375
-0.077538 0.786266 -0.695866
-0.072183 0.788141 -0.696045
-0.064395 0.781760 -0.691401
-0.057995 0.779868 -0.689404
-0.052756 0.781941 -0.689734
-0.047124 0.782616 -0.689258
-0.041245 0.782347 -0.688243
-0.035793 0.783612 -0.688130
-0.030515 0.785528 -0.688404
-0.025164 0.787183 -0.688535
-0.019075 0.785890 -0.686968
-0.013099 0.784939 -0.685612
-0.007874 0.787032 -0.686024
-0.001572 0.784539 -0.683801
0.003823 0.785852 -0.683783
0.008692 0.789532 -0.685133
0.014841 0.787432 -0.683171
0.020845 0.785848 -0.681517
0.025415 0.791087 -0.683783
0.030815 0.792407 -0.683810
0.037038 0.789513 -0.681439
0.042573 0.790029 -0.681027
0.048321 0.789358 -0.679948
0.053923 0.789404 -0.679288
0.059472 0.789694 -0.678776
0.064964 0.790289 -0.678447
0.070722 0.789221 -0.677184
0.076170 0.790002 -0.676980
0.081568 0.791100 -0.676964
0.086950 0.792332 -0.677033
0.092701 0.790994 -0.675657
0.098566 0.788651 -0.673726
0.104211 0.787750 -0.672621
0.109743 0.787612 -0.671956
0.114933 0.790255 -0.672865
0.120339 0.791201 -0.672827
0.125808 0.791617 -0.672501
0.131223 0.792543 -0.672469
0.136827 0.791600 -0.671399
0.142349 0.791383 -0.670747
0.147710 0.792903 -0.671075
0.153035 0.795009 -0.671740
0.158823 0.791412 -0.669227
0.164307 0.791422 -0.668739
0.169557 0.794858 -0.670172
0.175033 0.795216 -0.669896
0.180627 0.793532 -0.668493
0.186144 0.792955 -0.667716
0.191523 0.795172 -0.668503
0.197026 0.794924 -0.667928
0.202648 0.791308 -0.665493
0.208109 0.791676 -0.665280
0.213600 0.790991 -0.664492
0.219099 0.789592 -0.663319
0.224528 0.791888 -0.664200
0.230024 0.789860 -0.662696
0.235484 0.791490 -0.663225
0.240961 0.792652 -0.663503
0.246460 0.795113 -0.664505
0.251974 0.796396 -0.664864
0.257530 0.799342 -0.666147
0.263029 0.798099 -0.665127
0.268506 0.796454 -0.663893
0.274064 0.797806 -0.664317
0.279559 0.797008 -0.663565
0.285085 0.797104 -0.663310
0.290713 0.799250 -0.664188
0.296282 0.799819 -0.664204
0.301807 0.799497 -0.663734
0.307187 0.796934 -0.662040
0.312657 0.796036 -0.661263
0.318181 0.795987 -0.660955
0.323615 0.794809 -0.660030
0.329151 0.794977 -0.659845
0.335180 0.800617 -0.662656
0.341164 0.805184 -0.664876
0.345958 0.797437 -0.660358
0.351292 0.795614 -0.659079
0.357208 0.799238 -0.660775
0.362684 0.798795 -0.660243
0.368754 0.803346 -0.662431
0.374207 0.802707 -0.661779
0.379677 0.802328 -0.661261
0.385036 0.801245 -0.660349
0.390678 0.802325 -0.660605
0.396452 0.804322 -0.661348
0.402050 0.805149 -0.661439
0.406295 0.797461 -0.656886
0.412307 0.801230 -0.658546
0.419012 0.809033 -0.662375
0.423707 0.804912 -0.659711
0.428622 0.802417 -0.657912
0.434276 0.804250 -0.658437
0.439512 0.803940 -0.657778
0.444866 0.804436 -0.657531
0.449736 0.802650 -0.656026
0.454818 0.802183 -0.655209
0.460269 0.803714 -0.655442
0.465104 0.802477 -0.654155
0.469723 0.800513 -0.652451
0.474542 0.799749 -0.651365
0.479516 0.799908 -0.650746
0.485163 0.803187 -0.651769
0.488963 0.798743 -0.648624
0.494351 0.801284 -0.649189
0.498543 0.799080 -0.647188
0.502807 0.797464 -0.645475
0.507024 0.795947 -0.643787
0.514938 0.809018 -0.649819
0.521033 0.814958 -0.652019
0.524610 0.811496 -0.649204
0.528384 0.809093 -0.646927
0.532848 0.809490 -0.646104
0.537001 0.808985 -0.644778
-0.660371 0.744672 -0.786966
-0.655304 0.746752 -0.787955
-0.648525 0.747007 -0.787606
-0.639006 0.744225 -0.785071
-0.631397 0.743648 -0.784030
-0.621513 0.740501 -0.781136
-0.615964 0.742408 -0.781723
-0.610725 0.744770 -0.782570
-0.607329 0.749412 -0.784949
-0.599401 0.748780 -0.783593
-0.592001 0.748825 -0.782657
-0.584382 0.748651 -0.781517
-0.581463 0.754285 -0.784353
-0.576882 0.758008 -0.785805
-0.568887 0.757574 -0.784328
-0.558818 0.754546 -0.781017
-0.550635 0.753892 -0.779304
-0.546012 0.757829 -0.780706
-0.538958 0.758705 -0.779959
-0.527773 0.754193 -0.775484
-0.519697 0.753720 -0.773746
-0.515176 0.758003 -0.775220
-0.509035 0.760184 -0.775221
-0.504490 0.764589 -0.776698
-0.497115 0.765166 -0.775546
-0.488075 0.763416 -0.772797
-0.478349 0.760641 -0.769343
-0.470176 0.759998 -0.767316
-0.463978 0.762162 -0.767159
-0.457668 0.764177 -0.766885
-0.449884 0.764027 -0.765150
-0.442714 0.764750 -0.763989
-0.434665 0.764119 -0.761921
-0.424497 0.760195 -0.757669
-0.417478 0.760988 -0.756549
-0.412196 0.764456 -0.757192
-0.406834 0.767821 -0.757759
-0.395430 0.761557 -0.751999
-0.387272 0.760328 -0.749562
-0.382706 0.764879 -0.750912
-0.376178 0.766228 -0.750170
-0.366067 0.761541 -0.745509
-0.360184 0.763838 -0.745403
-0.356366 0.769661 -0.747583
-0.348446 0.768434 -0.745207
-0.342618 0.770781 -0.745150
-0.335760 0.771278 -0.743911
-0.325981 0.766454 -0.739276
-0.319287 0.767057 -0.738140
-0.311579 0.765728 -0.735786
-0.302732 0.762159 -0.732025
-0.298744 0.767628 -0.734030
-0.293414 0.770586 -0.734446
-0.286334 0.770143 -0.732719
-0.277218 0.765600 -0.728425
-0.270178 0.765005 -0.726645
-0.266733 0.771585 -0.729389
-0.260307 0.772158 -0.728369
-0.252585 0.769979 -0.725643
-0.246121 0.770311 -0.724507
-0.241928 0.775423 -0.726363
-0.234968 0.774616 -0.724545
-0.228568 0.774939 -0.723446
-0.221918 0.774639 -0.721978
-0.214982 0.773611 -0.720078
-0.212081 0.781714 -0.723826
-0.204322 0.778698 -0.720728
-0.197979 0.778854 -0.719603
-0.191733 0.779177 -0.718595
-0.184072 0.776002 -0.715463
-0.179113 0.779312 -0.716313
-0.173096 0.780007 -0.715577
-0.166359 0.778824 -0.713713
-0.159606 0.777490 -0.711774
-0.154353 0.779974 -0.712167
-0.147879 0.779218 -0.710609
-0.142237 0.780617 -0.710369
-0.137093 0.783361 -0.710952
-0.131936 0.786091 -0.711534
-0.123767 0.780289 -0.706997
-0.117388 0.779391 -0.705427
-0.111611 0.780165 -0.704874
-0.105608 0.780221 -0.703904
-0.098830 0.777855 -0.701500
-0.092382 0.776361 -0.699634
-0.087346 0.779194 -0.700359
-0.082430 0.782452 -0.701344
-0.077282 0.785011 -0.701921
-0.071939 0.786949 -0.702137
-0.064663 0.782332 -0.698483
-0.060426 0.787992 -0.700921
-0.053145 0.783065 -0.697116
-0.046586 0.780470 -0.694704
-0.041162 0.781881 -0.694665
-0.035636 0.782908 -0.694410
-0.030561 0.785642 -0.695165
-0.025088 0.786874 -0.695047
-0.019285 0.786773 -0.694159
-0.013335 0.786004 -0.692892
-0.007832 0.787012 -0.692672
-0.002198 0.787441 -0.692126
0.003265 0.788584 -0.692005
0.008572 0.790422 -0.692297
0.014697 0.788511 -0.690420
0.020728 0.786887 -0.688724
0.025766 0.789943 -0.689749
0.030787 0.793192 -0.690893
0.036737 0.791787 -0.689354
0.042544 0.791003 -0.688186
0.048426 0.789700 -0.686730
0.054223 0.788731 -0.685478
0.059821 0.788795 -0.684832
0.065736 0.786917 -0.683080
0.071259 0.787269 -0.682620
0.076605 0.788710 -0.682794
0.081972 0.790056 -0.682921
0.087171 0.792591 -0.683737
0.092736 0.792665 -0.683154
0.098580 0.790634 -0.681379
0.104353 0.788928 -0.679802
0.110399 0.784837 -0.676879
0.115234 0.790433 -0.679481
0.120429 0.793356 -0.680568
0.126125 0.791912 -0.679182
0.131752 0.790941 -0.678076
0.137308 0.790536 -0.677301
0.142869 0.789973 -0.676447
0.148167 0.792279 -0.677227
0.153560 0.793692 -0.677509
0.159131 0.792954 -0.676585
0.164612 0.793299 -0.676283
0.170009 0.794914 -0.676706
0.175536 0.794667 -0.676087
0.181162 0.792582 -0.674445
0.186549 0.794683 -0.675169
0.191965 0.796602 -0.675797
0.197483 0.796497 -0.675297
0.203128 0.792770 -0.672774
0.208642 0.792083 -0.671968
0.214082 0.794023 -0.672643
0.219651 0.790491 -0.670262
0.225123 0.791135 -0.670230
0.230599 0.792091 -0.670380
0.236093 0.791340 -0.669584
0.241585 0.793887 -0.670639
0.247078 0.792423 -0.669461
0.252615 0.795814 -0.671000
0.258145 0.796600 -0.671093
0.263703 0.798209 -0.671651
0.269173 0.795925 -0.670047
0.274693 0.795837 -0.669674
0.280249 0.796673 -0.669820
0.285798 0.797082 -0.669735
0.291352 0.797486 -0.669651
0.296945 0.798501 -0.669912
0.302476 0.798267 -0.669483
0.307889 0.796223 -0.668053
0.313404 0.795938 -0.667603
0.319368 0.801692 -0.670503
0.324634 0.797982 -0.668157
0.330273 0.799111 -0.668493
0.335997 0.801070 -0.669289
0.341484 0.800359 -0.668604
0.346727 0.797350 -0.666647
0.352596 0.800565 -0.668128
0.357988 0.799247 -0.667100
0.364043 0.803784 -0.669299
0.369357 0.801926 -0.667959
0.374863 0.801811 -0.667574
0.380234 0.800762 -0.666664
0.385583 0.799732 -0.665756
0.392007 0.806390 -0.669068
0.397342 0.805353 -0.668129
0.402086 0.800647 -0.665159
0.407474 0.800436 -0.664646
0.412342 0.797198 -0.662454
0.419291 0.806640 -0.667202
0.422707 0.795352 -0.660559
0.429188 0.802006 -0.663731
0.434640 0.802865 -0.663703
0.439865 0.802651 -0.663065
0.444819 0.801238 -0.661747
0.450511 0.803801 -0.662574
0.456052 0.805691 -0.663005
0.461020 0.804952 -0.661975
0.465868 0.803887 -0.660740
0.470658 0.802815 -0.659474
0.475426 0.801902 -0.658267
0.480520 0.802682 -0.657949
0.485024 0.801108 -0.656326
0.490887 0.805561 -0.657933
0.494717 0.801637 -0.654982
0.498875 0.799418 -0.652926
0.503100 0.797770 -0.651152
0.508833 0.802333 -0.652687
0.512435 0.798728 -0.649806
0.517217 0.799950 -0.649486
0.522853 0.804558 -0.650946
0.527775 0.806608 -0.651005
0.532131 0.806759 -0.650023
-0.656163 0.740089 -0.790272
-0.651466 0.742495 -0.791543
-0.646687 0.744915 -0.792768
-0.641596 0.747087 -0.793760
-0.631376 0.743493 -0.790616
-0.621159 0.739907 -0.787428
-0.612903 0.738604 -0.785802
-0.608888 0.742314 -0.787656
-0.606408 0.747962 -0.790815
-0.601894 0.751335 -0.792311
-0.593305 0.749916 -0.790381
-0.586598 0.750807 -0.790022
-0.580563 0.752585 -0.790231
-0.574591 0.754516 -0.790493
-0.566556 0.753947 -0.788958
-0.556524 0.750884 -0.785639
-0.548892 0.750849 -0.784389
-0.544872 0.755481 -0.786336
-0.537798 0.756263 -0.785563
-0.527311 0.752605 -0.781677
-0.519975 0.753057 -0.780603
-0.513996 0.755344 -0.780757
-0.508968 0.758965 -0.781791
-0.502894 0.761232 -0.781857
-0.495529 0.761759 -0.780697
-0.486836 0.760434 -0.778248
-0.478055 0.758942 -0.775667
-0.470190 0.758702 -0.773924
-0.465279 0.762687 -0.775031
-0.460216 0.766509 -0.776002
-0.453157 0.767445 -0.775001
-0.443668 0.764746 -0.771539
-0.435108 0.763343 -0.768951
-0.425414 0.760138 -0.765153
-0.417088 0.758918 -0.762692
-0.412283 0.763106 -0.763842
-0.406415 0.765660 -0.763892
-0.399050 0.765832 -0.762355
-0.387445 0.759107 -0.756255
-0.383839 0.765219 -0.758663
-0.379401 0.770039 -0.760208
-0.367459 0.762366 -0.753531
-0.361773 0.765024 -0.753666
-0.356178 0.767833 -0.753901
-0.350292 0.770136 -0.753809
-0.338650 0.762325 -0.747136
-0.331264 0.761807 -0.745239
-0.325385 0.763915 -0.745059
-0.318923 0.764940 -0.744187
-0.313223 0.767322 -0.744202
-0.307992 0.770565 -0.744781
-0.300436 0.769417 -0.742545
-0.294487 0.771242 -0.742234
-0.288463 0.772895 -0.741825
-0.284565 0.778694 -0.744072
-0.271669 0.766640 -0.734956
-0.266406 0.769600 -0.735426
-0.259576 0.769358 -0.733876
-0.252034 0.767555 -0.731356
-0.247415 0.771772 -0.732658
-0.240937 0.772068 -0.731496
-0.233366 0.769935 -0.728823
-0.227338 0.771049 -0.728209
-0.220561 0.770454 -0.726539
-0.214635 0.771683 -0.726028
-0.208777 0.773032 -0.725604
-0.205146 0.779509 -0.728384
-0.198350 0.778655 -0.726611
-0.192818 0.780721 -0.726668
-0.185851 0.779296 -0.724575
-0.178763 0.777460 -0.722248
-0.172688 0.778024 -0.721420
-0.166108 0.777253 -0.719785
-0.159796 0.777077 -0.718532
-0.153633 0.777214 -0.717487
-0.148413 0.779792 -0.717949
-0.140613 0.775416 -0.714173
-0.133441 0.772549 -0.711341
-0.130742 0.782002 -0.716030
-0.123952 0.780095 -0.713808
-0.117422 0.778805 -0.711979
-0.111805 0.780082 -0.711721
-0.105665 0.779774 -0.710515
-0.099550 0.779465 -0.709323
-0.092372 0.775788 -0.706115
-0.086981 0.777537 -0.706192
-0.081899 0.780280 -0.706876
-0.076450 0.781860 -0.706870
-0.070387 0.781390 -0.705645
-0.067152 0.790436 -0.710127
-0.059158 0.783297 -0.704936
-0.053160 0.782856 -0.703766
-0.047176 0.782382 -0.702588
-0.041195 0.781839 -0.701382
-0.035518 0.782347 -0.700813
-0.030078 0.783724 -0.700770
-0.024845 0.785907 -0.701214
-0.018920 0.785353 -0.700046
-0.013132 0.785270 -0.699169
-0.007123 0.784197 -0.697720
-0.001995 0.786791 -0.698443
0.003284 0.788781 -0.698818
0.009038 0.788673 -0.697968
0.015071 0.787205 -0.696331
0.020579 0.788089 -0.696086
0.025881 0.789959 -0.696427
0.031972 0.787925 -0.694494
0.037189 0.790208 -0.695095
0.042978 0.789542 -0.693983
0.048601 0.789674 -0.693348
0.054414 0.788694 -0.692076
0.060239 0.787522 -0.690704
0.065710 0.788320 -0.690488
0.071142 0.789362 -0.690422
0.076801 0.788964 -0.689532
0.082106 0.790822 -0.689957
0.087656 0.791077 -0.689464
0.092868 0.793695 -0.690346
0.098633 0.792378 -0.688963
0.104494 0.790166 -0.687078
0.109878 0.791526 -0.687261
0.115371 0.792036 -0.686964
0.120973 0.791587 -0.686126
0.126359 0.793029 -0.686384
0.132249 0.789699 -0.683913
0.137883 0.788568 -0.682716
0.143052 0.792241 -0.684280
0.148606 0.791929 -0.683571
0.154166 0.791458 -0.682782
0.159636 0.792049 -0.682609
0.165095 0.792827 -0.682552
0.170604 0.792932 -0.682120
0.176083 0.793497 -0.681961
0.181523 0.794847 -0.682257
0.187092 0.793880 -0.681244
0.192573 0.794603 -0.681202
0.198083 0.794761 -0.680848
0.203633 0.793798 -0.679867
0.209154 0.793473 -0.679258
0.214675 0.792971 -0.678558
0.220163 0.793933 -0.678696
0.225694 0.792535 -0.677507
0.231208 0.791477 -0.676520
0.236692 0.796240 -0.678831
0.242221 0.798093 -0.679505
0.247751 0.797047 -0.678548
0.253272 0.796038 -0.677621
0.258816 0.796894 -0.677753
0.264279 0.793729 -0.675626
0.269804 0.793889 -0.675380
0.275326 0.793890 -0.675051
0.280864 0.794257 -0.674933
0.286431 0.795150 -0.675117
0.291985 0.795577 -0.675043
0.297535 0.795831 -0.674875
0.303137 0.796888 -0.675161
0.308725 0.797564 -0.675236
0.314393 0.799269 -0.675890
0.319982 0.799715 -0.675839
0.325542 0.799740 -0.675553
0.330870 0.797096 -0.673772
0.336611 0.799310 -0.674709
0.342111 0.798829 -0.674136
0.347785 0.800141 -0.674562
0.353401 0.800836 -0.674639
0.358946 0.800900 -0.674357
0.364234 0.798838 -0.672882
0.369683 0.798345 -0.672276
0.375100 0.797728 -0.671591
0.380767 0.799125 -0.672019
0.386818 0.803290 -0.673975
0.392353 0.803676 -0.673812
0.397317 0.800325 -0.671557
0.402506 0.798786 -0.670296
0.408108 0.800080 -0.670591
0.413594 0.800731 -0.670510
0.417943 0.794780 -0.666750
0.424218 0.800384 -0.669373
0.429485 0.800225 -0.668781
0.434972 0.801438 -0.668923
0.440350 0.802199 -0.668790
0.446263 0.805868 -0.670236
0.450168 0.799467 -0.666100
0.456084 0.803429 -0.667651
0.461459 0.804824 -0.667757
0.465519 0.800210 -0.664531
0.471774 0.806065 -0.667028
0.476403 0.804603 -0.665477
0.480405 0.800661 -0.662541
0.485709 0.802708 -0.662854
0.490477 0.802635 -0.661978
0.494831 0.801074 -0.660260
0.499168 0.799719 -0.658628
0.504179 0.801337 -0.658584
0.509207 0.803188 -0.658634
0.513156 0.801032 -0.656484
0.516592 0.797213 -0.653410
0.521001 0.797376 -0.652465
0.526655 0.802343 -0.654079
-0.651787 0.742934 -0.798397
-0.647375 0.745719 -0.799935
-0.641926 0.747437 -0.800654
-0.634527 0.747018 -0.799791
-0.623657 0.742655 -0.796060
-0.615379 0.741295 -0.794420
-0.609864 0.743214 -0.795061
-0.607172 0.748561 -0.798082
-0.602333 0.751495 -0.799327
-0.594360 0.750763 -0.797914
-0.584899 0.748263 -0.795196
-0.578403 0.749398 -0.795003
-0.571905 0.750595 -0.794801
-0.564449 0.750659 -0.793748
-0.557341 0.751201 -0.792983
-0.550676 0.752348 -0.792597
-0.544183 0.753769 -0.792356
-0.536566 0.753783 -0.791084
-0.527863 0.752397 -0.788793
-0.522025 0.754788 -0.789103
-0.516764 0.758009 -0.789949
-0.510319 0.759706 -0.789693
-0.504346 0.762082 -0.789872
-0.495842 0.761018 -0.787636
-0.487779 0.760537 -0.785780
-0.477381 0.756746 -0.781621
-0.469929 0.757049 -0.780267
-0.464456 0.760185 -0.780838
-0.460221 0.765165 -0.782644
-0.452967 0.765786 -0.781445
-0.443330 0.762843 -0.777807
-0.434668 0.761262 -0.775095
-0.425316 0.758555 -0.771618
-0.418509 0.759655 -0.770720
-0.412550 0.762052 -0.770691
-0.407339 0.765632 -0.771449
-0.400724 0.767004 -0.770716
-0.393779 0.767821 -0.769609
-0.386586 0.768195 -0.768208
-0.379072 0.767986 -0.766423
-0.371041 0.766844 -0.764026
-0.361919 0.763767 -0.760358
-0.356352 0.766626 -0.760638
-0.346925 0.762806 -0.756510
-0.338136 0.759940 -0.753034
-0.332661 0.762810 -0.753348
-0.325522 0.762692 -0.751708
-0.319748 0.764982 -0.751656
-0.314393 0.768025 -0.752104
-0.308635 0.770321 -0.752071
-0.302464 0.771823 -0.751530
-0.297098 0.774827 -0.751975
-0.292015 0.778383 -0.752784
-0.283848 0.775898 -0.749703
-0.275046 0.772007 -0.745740
-0.267241 0.769948 -0.742980
-0.259241 0.767356 -0.739903
-0.252681 0.767602 -0.738664
-0.247497 0.770668 -0.739241
-0.241961 0.772993 -0.739356
-0.233637 0.769291 -0.735650
-0.226846 0.768763 -0.733983
-0.220677 0.769527 -0.733153
-0.215248 0.771904 -0.733357
-0.210558 0.775960 -0.734630
-0.203095 0.773640 -0.731897
-0.198444 0.777784 -0.733246
-0.192124 0.777999 -0.732138
-0.186180 0.779057 -0.731574
-0.179425 0.778080 -0.729752
-0.172788 0.777293 -0.728066
-0.166570 0.777475 -0.727002
-0.160009 0.776705 -0.725361
-0.153912 0.777053 -0.724430
-0.147975 0.777768 -0.723740
-0.142350 0.779278 -0.723555
-0.135740 0.778062 -0.721700
-0.128472 0.774905 -0.718668
-0.123286 0.777474 -0.719176
-0.118172 0.780271 -0.719831
-0.112685 0.781998 -0.719841
-0.107057 0.783300 -0.719601
-0.100013 0.780277 -0.716731
-0.093914 0.780000 -0.715554
-0.086920 0.776829 -0.712630
-0.081421 0.778270 -0.712528
-0.075655 0.778824 -0.711897
-0.070797 0.782356 -0.713083
-0.066059 0.786369 -0.714565
-0.059335 0.783599 -0.711956
-0.052888 0.781629 -0.709848
-0.047180 0.782179 -0.709272
-0.040817 0.780275 -0.707232
-0.035374 0.781682 -0.707196
-0.030249 0.784308 -0.707899
-0.024023 0.782668 -0.706055
-0.018707 0.784536 -0.706324
-0.012172 0.781434 -0.703634
-0.006628 0.782277 -0.703312
-0.000973 0.782620 -0.702703
0.004390 0.784205 -0.702843
0.009795 0.785616 -0.702888
0.015636 0.785021 -0.701752
0.021085 0.786188 -0.701673
0.026719 0.786460 -0.701072
0.032384 0.786528 -0.700362
0.038343 0.785028 -0.698737
0.043487 0.787695 -0.699582
0.048954 0.788698 -0.699454
0.054668 0.788314 -0.698519
0.060204 0.788880 -0.698153
0.065887 0.788537 -0.697264
0.071707 0.787277 -0.695848
0.076780 0.790629 -0.697146
0.082532 0.789679 -0.695932
0.088063 0.790117 -0.695542
0.093576 0.790661 -0.695223
0.098967 0.792087 -0.695429
0.104552 0.792081 -0.694809
0.110236 0.791221 -0.693702
0.115877 0.790596 -0.692743
0.121211 0.792548 -0.693292
0.126989 0.790556 -0.691560
0.132562 0.790292 -0.690842
0.138047 0.790840 -0.690606
0.143896 0.787473 -0.688112
0.149376 0.787868 -0.687809
0.154694 0.790238 -0.688655
0.160108 0.791648 -0.688955
0.165692 0.790836 -0.687982
0.171139 0.791929 -0.688117
0.176415 0.795960 -0.689954
0.182089 0.793589 -0.688112
0.187576 0.794375 -0.688098
0.193181 0.792710 -0.686684
0.198749 0.791497 -0.685541
0.204195 0.793420 -0.686207
0.209768 0.791652 -0.684765
0.215272 0.791982 -0.684535
0.220752 0.793791 -0.685160
0.226302 0.791822 -0.683631
0.231815 0.791911 -0.683290
0.237330 0.792010 -0.682962
0.242859 0.797915 -0.685956
0.248402 0.797194 -0.685174
0.253965 0.798622 -0.685624
0.259478 0.796329 -0.683961
0.264939 0.792851 -0.681631
0.270424 0.791423 -0.680475
0.275979 0.792487 -0.680745
0.281548 0.793568 -0.681029
0.287115 0.794363 -0.681155
0.292720 0.795719 -0.681603
0.298280 0.795993 -0.681440
0.303902 0.797250 -0.681837
0.309563 0.798900 -0.682459
0.315084 0.798342 -0.681829
0.320570 0.797430 -0.681000
0.325991 0.795860 -0.679799
0.331524 0.795805 -0.679455
0.337047 0.795692 -0.679076
0.342947 0.799511 -0.680917
0.348388 0.798513 -0.680029
0.353711 0.796591 -0.678616
0.359163 0.796058 -0.677981
0.364517 0.794819 -0.676940
0.370024 0.795013 -0.676699
0.375571 0.795594 -0.676666
0.381488 0.799002 -0.678212
0.387361 0.801949 -0.679484
0.392975 0.803012 -0.679680
0.398045 0.800494 -0.677847
0.403430 0.800317 -0.677314
0.408934 0.801044 -0.677270
0.414398 0.801644 -0.677135
0.419916 0.802677 -0.677221
0.424918 0.800878 -0.675699
0.429934 0.799434 -0.674354
0.435658 0.802075 -0.675269
0.441558 0.805695 -0.676702
0.446075 0.802229 -0.674155
0.450683 0.799591 -0.672046
0.455711 0.799335 -0.671237
0.460636 0.798808 -0.670250
0.465292 0.797259 -0.668668
0.471271 0.802041 -0.670568
0.476142 0.801882 -0.669696
0.480558 0.799957 -0.667819
0.485416 0.800230 -0.667129
0.490378 0.801153 -0.666767
0.495102 0.801283 -0.665937
0.499985 0.802278 -0.665553
0.504474 0.801887 -0.664378
0.509418 0.803517 -0.664282
0.513610 0.802412 -0.662660
0.517759 0.801400 -0.661063
0.521693 0.799832 -0.659138
0.526116 0.800329 -0.658312
-0.644399 0.742449 -0.804134
-0.637978 0.742985 -0.804052
-0.627677 0.739159 -0.800771
-0.622798 0.741586 -0.801942
-0.616945 0.742983 -0.802315
-0.611319 0.744729 -0.802883
-0.608613 0.750015 -0.805934
-0.605363 0.754801 -0.808565
-0.597765 0.754494 -0.807487
-0.585747 0.748870 -0.802553
-0.579900 0.750749 -0.802937
-0.573211 0.751669 -0.802582
-0.566105 0.752126 -0.801845
-0.560923 0.755053 -0.802816
-0.552772 0.754299 -0.801119
-0.542843 0.751279 -0.797773
-0.534417 0.750174 -0.795745
-0.531272 0.755980 -0.798560
-0.523099 0.755276 -0.796731
-0.518086 0.758790 -0.797834
-0.512412 0.761494 -0.798324
-0.504699 0.761480 -0.796869
-0.494994 0.758723 -0.793465
-0.487872 0.759498 -0.792507
-0.482042 0.762097 -0.792791
-0.469554 0.755277 -0.786500
-0.464140 0.758453 -0.787139
-0.457891 0.760463 -0.786945
-0.451099 0.761696 -0.786192
-0.441837 0.759257 -0.782895
-0.432703 0.756921 -0.779665
-0.425002 0.756670 -0.777864
-0.418650 0.758444 -0.777441
-0.412680 0.760807 -0.777410
-0.406777 0.763282 -0.777445
-0.401132 0.766174 -0.777755
-0.394900 0.768135 -0.777427
-0.386396 0.766388 -0.774591
-0.378592 0.765694 -0.772475
-0.371447 0.766019 -0.771051
-0.362651 0.763504 -0.767730
-0.353814 0.760793 -0.764294
-0.347169 0.761737 -0.763316
-0.339659 0.761122 -0.761307
-0.335015 0.765501 -0.762630
-0.328944 0.767358 -0.762280
-0.321258 0.766258 -0.759982
-0.314606 0.766960 -0.758889
-0.307336 0.766454 -0.757014
-0.298389 0.762697 -0.753020
-0.297123 0.773448 -0.758560
-0.291539 0.776045 -0.758752
-0.285408 0.777563 -0.758249
-0.278453 0.777406 -0.756667
-0.269130 0.772401 -0.751953
-0.261330 0.770291 -0.749148
-0.253615 0.768225 -0.746392
-0.248694 0.771887 -0.747356
-0.243401 0.774781 -0.747833
-0.237580 0.776545 -0.747592
-0.228185 0.770468 -0.742334
-0.222655 0.772712 -0.742436
-0.217136 0.774971 -0.742558
-0.210143 0.773859 -0.740541
-0.203843 0.774241 -0.739495
-0.196641 0.772444 -0.737081
-0.190899 0.773999 -0.736812
-0.185199 0.775631 -0.736604
-0.179173 0.776437 -0.735887
-0.172881 0.776530 -0.734735
-0.165883 0.774769 -0.732431
-0.159880 0.775438 -0.731674
-0.154249 0.777028 -0.731507
-0.148480 0.778233 -0.731112
-0.143134 0.780546 -0.731421
-0.136188 0.778479 -0.729009
-0.128970 0.775514 -0.726058
-0.123164 0.776383 -0.725509
-0.117833 0.778579 -0.725797
-0.112873 0.781871 -0.726772
-0.107419 0.783737 -0.726874
-0.102030 0.785795 -0.727104
-0.093976 0.779628 -0.722275
-0.087498 0.778124 -0.720341
-0.081309 0.777423 -0.718917
-0.075796 0.778836 -0.718804
-0.070221 0.780031 -0.718567
-0.065097 0.782737 -0.719266
-0.060063 0.785797 -0.720189
-0.052912 0.781442 -0.716598
-0.046804 0.780599 -0.715165
-0.041498 0.782602 -0.715476
-0.036320 0.785111 -0.716103
-0.030176 0.783953 -0.714516
-0.024324 0.783829 -0.713568
-0.017074 0.778030 -0.709202
-0.012126 0.781341 -0.710357
-0.006367 0.781338 -0.709519
-0.000136 0.779247 -0.707437
0.005143 0.781179 -0.707788
0.010485 0.782860 -0.707998
0.015722 0.785053 -0.708523
0.021983 0.782440 -0.706176
0.027380 0.783833 -0.706242
0.032554 0.786352 -0.706990
0.038293 0.786052 -0.706063
0.043224 0.789947 -0.707648
0.049630 0.785973 -0.704552
0.055269 0.786003 -0.703855
0.060491 0.788392 -0.704570
0.065808 0.790311 -0.705014
0.072043 0.786618 -0.702139
0.077364 0.788458 -0.702556
0.082663 0.790518 -0.703112
0.088587 0.788382 -0.701196
0.093943 0.790077 -0.701555
0.099498 0.790365 -0.701093
0.105070 0.790492 -0.700546
0.110627 0.790705 -0.700060
0.116232 0.790465 -0.699318
0.121452 0.793543 -0.700535
0.127205 0.791951 -0.699019
0.132846 0.791217 -0.698019
0.138469 0.790550 -0.697068
0.144556 0.784715 -0.693105
0.149922 0.786416 -0.693563
0.155019 0.791581 -0.696054
0.160409 0.793578 -0.696700
0.166004 0.792940 -0.695818
0.171452 0.794395 -0.696166
0.177126 0.792320 -0.694467
0.182568 0.794015 -0.694973
0.188114 0.793934 -0.694455
0.193604 0.795065 -0.694651
0.199197 0.793860 -0.693499
0.204759 0.793158 -0.692649
0.210368 0.790516 -0.690685
0.215869 0.791248 -0.690686
0.221353 0.793371 -0.691500
0.226880 0.793885 -0.691390
0.232449 0.789700 -0.688573
0.237950 0.795755 -0.691681
0.243493 0.794359 -0.690492
0.249055 0.796912 -0.691589
0.254603 0.796459 -0.690958
0.260144 0.795813 -0.690224
0.265645 0.793734 -0.688670
0.271141 0.792228 -0.687454
0.276711 0.793313 -0.687735
0.282292 0.794356 -0.687996
0.287828 0.794159 -0.687547
0.293413 0.794974 -0.687685
0.299026 0.796140 -0.688025
0.304707 0.798237 -0.688901
0.310315 0.798905 -0.688959
0.316081 0.801710 -0.690240
0.321183 0.795537 -0.686379
0.326623 0.794306 -0.685349
0.332090 0.793575 -0.684603
0.337853 0.796171 -0.685758
0.343823 0.800655 -0.687985
0.348729 0.794447 -0.684098
0.354043 0.792684 -0.682746
0.359601 0.793302 -0.682746
0.365074 0.793236 -0.682346
0.370849 0.795713 -0.683385
0.376893 0.800171 -0.685540
0.382245 0.799259 -0.684623
0.387400 0.797131 -0.683000
0.393071 0.798848 -0.683550
0.398714 0.800396 -0.683985
0.404096 0.800310 -0.683473
0.409427 0.800068 -0.682855
0.415371 0.803701 -0.684411
0.420522 0.802644 -0.683287
0.425485 0.800752 -0.681670
0.430352 0.798615 -0.679893
0.435996 0.800972 -0.680628
0.441556 0.802962 -0.681129
0.446760 0.803227 -0.680629
0.451449 0.801111 -0.678762
0.456901 0.803030 -0.679137
0.461593 0.801445 -0.677514
0.466493 0.801119 -0.676571
0.470636 0.797568 -0.673794
0.475062 0.795649 -0.671904
0.479980 0.796185 -0.671359
0.485106 0.797817 -0.671393
0.489885 0.798144 -0.670670
0.494494 0.797982 -0.669645
0.499822 0.800971 -0.670340
0.504486 0.801424 -0.669595
0.508770 0.800593 -0.668113
0.513358 0.801182 -0.667388
0.518405 0.803717 -0.667705
0.523044 0.804860 -0.667227
-0.633321 0.737782 -0.806803
-0.625747 0.736980 -0.805736
-0.623574 0.742456 -0.809178
-0.621777 0.748520 -0.812987
-0.614383 0.748186 -0.812093
-0.606034 0.746776 -0.810366
-0.604478 0.753496 -0.814471
