ply
format ascii 1.0
comment ---
element vertex 1708
property float x
property float y
property float z
element face 0
property list uchar uint vertex_indices
end_header
0.801607 0.796188 -0.418330
0.805300 0.793011 -0.417003
0.808798 0.789422 -0.415537
0.813262 0.788085 -0.414863
0.818133 0.787660 -0.414511
0.822878 0.786915 -0.414052
0.833442 0.798945 -0.418046
0.838134 0.797873 -0.417480
0.840842 0.792524 -0.415432
0.844680 0.789651 -0.414251
0.849048 0.787910 -0.413469
0.854792 0.789008 -0.413678
0.860257 0.789460 -0.413668
0.865039 0.788472 -0.413163
0.871213 0.790233 -0.413617
0.876593 0.790336 -0.413500
0.881879 0.790201 -0.413307
0.887573 0.790804 -0.413375
0.892998 0.790826 -0.413247
0.898879 0.791651 -0.413403
0.904063 0.791107 -0.413091
0.909500 0.790983 -0.412930
0.918792 0.797821 -0.415180
0.923039 0.795372 -0.414227
0.927018 0.792442 -0.413115
0.932293 0.791799 -0.412800
0.939435 0.794359 -0.413596
0.945491 0.794934 -0.413713
0.952399 0.796886 -0.414311
0.956883 0.794653 -0.413473
0.963445 0.795867 -0.413829
0.969846 0.796729 -0.414071
0.975684 0.796590 -0.413974
0.982658 0.798223 -0.414494
0.988568 0.798059 -0.414402
0.994430 0.797760 -0.414269
1.000217 0.797284 -0.414082
1.007456 0.798999 -0.414655
1.013305 0.798486 -0.414467
1.018860 0.797474 -0.414113
1.024783 0.796970 -0.413939
1.032331 0.798822 -0.414582
1.038367 0.798354 -0.414430
1.044986 0.798680 -0.414557
1.052293 0.799925 -0.415004
1.059773 0.801330 -0.415510
1.065583 0.800295 -0.415179
1.071466 0.799324 -0.414871
1.078146 0.799416 -0.414932
1.086873 0.802248 -0.415938
1.093098 0.801589 -0.415740
1.098874 0.800290 -0.415321
1.108370 0.803904 -0.416593
1.114429 0.802891 -0.416268
1.121759 0.803511 -0.416501
1.130597 0.806025 -0.417381
1.136652 0.804910 -0.417003
1.142491 0.803518 -0.416521
1.150626 0.805002 -0.417021
1.157819 0.805274 -0.417091
1.165176 0.805731 -0.417213
1.172714 0.806396 -0.417391
1.180247 0.807042 -0.417546
1.185702 0.805203 -0.416826
1.191942 0.804340 -0.416424
1.199897 0.805520 -0.416704
1.206262 0.804859 -0.416327
1.214603 0.806516 -0.416723
1.220907 0.805856 -0.416297
1.228972 0.807245 -0.416548
1.235420 0.806845 -0.416156
1.241877 0.806515 -0.415759
1.247636 0.805481 -0.415091
1.252939 0.804028 -0.414250
1.260310 0.804913 -0.414177
1.266356 0.804428 -0.413605
1.270203 0.801673 -0.412227
1.278525 0.803790 -0.412478
1.282751 0.801640 -0.411245
1.289899 0.802662 -0.411058
1.296976 0.803683 -0.410838
1.296264 0.796730 -0.407891
0.174751 0.746593 -0.461177
0.177931 0.747314 -0.461501
0.181370 0.747334 -0.461501
0.184772 0.747690 -0.461613
0.188968 0.745357 -0.460566
0.192223 0.746655 -0.461014
0.195463 0.748260 -0.461559
0.198496 0.750916 -0.462515
0.202400 0.750472 -0.462138
0.206560 0.749202 -0.461385
0.210892 0.747391 -0.460376
0.214321 0.749435 -0.460951
0.217574 0.752495 -0.461920
0.221315 0.753782 -0.462117
0.226486 0.749041 -0.459770
0.230014 0.751629 -0.460455
0.233729 0.753654 -0.460877
0.237733 0.754578 -0.460815
0.242008 0.754409 -0.460274
0.245941 0.756050 -0.460462
0.250084 0.756859 -0.460284
0.254208 0.757932 -0.460194
0.258360 0.759026 -0.460094
0.262930 0.758012 -0.459108
0.267337 0.757950 -0.458501
0.271711 0.758148 -0.457987
0.276386 0.756642 -0.456764
0.281003 0.755455 -0.455664
0.284898 0.758797 -0.456407
0.289375 0.758597 -0.455695
0.293757 0.759045 -0.455241
0.298132 0.759589 -0.454822
0.302555 0.759824 -0.454273
0.307030 0.759673 -0.453565
0.311390 0.760388 -0.453208
0.315847 0.760347 -0.452544
0.320326 0.760071 -0.451787
0.324821 0.759585 -0.450948
0.329221 0.759878 -0.450424
0.333646 0.759881 -0.449787
0.338011 0.760446 -0.449379
0.342399 0.760724 -0.448859
0.346779 0.761046 -0.448362
0.351228 0.760459 -0.447508
0.355698 0.759410 -0.446477
0.360110 0.758911 -0.445671
0.364204 0.763007 -0.446688
0.368679 0.761414 -0.445461
0.373116 0.760077 -0.444344
0.377478 0.759770 -0.443639
0.381658 0.763184 -0.444404
0.386109 0.760668 -0.442846
0.390436 0.760657 -0.442278
0.394724 0.761683 -0.442123
0.399005 0.763094 -0.442123
0.403349 0.761884 -0.441107
0.407661 0.761493 -0.440419
0.411945 0.762785 -0.440391
0.416230 0.765004 -0.440728
0.420536 0.764668 -0.440081
0.424831 0.763874 -0.439263
0.429120 0.763693 -0.438689
0.433399 0.763243 -0.438018
0.437669 0.762760 -0.437341
0.441950 0.763077 -0.436979
0.446261 0.764465 -0.437034
0.450568 0.765422 -0.436928
0.454876 0.766212 -0.436763
0.459070 0.764178 -0.435524
0.463474 0.767023 -0.436155
0.467730 0.766537 -0.435519
0.471930 0.765175 -0.434556
0.476404 0.768424 -0.435352
0.480920 0.771833 -0.436211
0.485140 0.770681 -0.435343
0.489434 0.770629 -0.434898
0.493661 0.769743 -0.434142
0.498204 0.772593 -0.434803
0.503448 0.782763 -0.438227
0.507546 0.780025 -0.436784
0.511512 0.776235 -0.434952
0.515667 0.774549 -0.433918
0.520362 0.777828 -0.434755
0.524530 0.776288 -0.433785
0.528670 0.774606 -0.432768
0.533937 0.781957 -0.435136
0.538724 0.785073 -0.435919
0.541479 0.772999 -0.431034
0.546292 0.776330 -0.431906
0.550444 0.774880 -0.430998
0.555060 0.776570 -0.431263
0.559752 0.778612 -0.431662
0.563613 0.775319 -0.430082
0.567394 0.771712 -0.428391
0.571470 0.770014 -0.427414
0.576268 0.772479 -0.427982
0.581114 0.775048 -0.428589
0.585927 0.777266 -0.429068
0.590816 0.779730 -0.429639
0.594836 0.777592 -0.428515
0.598015 0.771337 -0.425881
0.603256 0.775373 -0.427038
0.610480 0.788596 -0.431570
0.616774 0.796849 -0.434271
0.619881 0.790264 -0.431530
0.622609 0.782259 -0.428276
0.626941 0.781512 -0.427686
0.633061 0.788338 -0.429867
0.637177 0.786530 -0.428893
0.640594 0.781921 -0.426902
0.644006 0.777442 -0.424964
0.649060 0.779508 -0.425414
0.654268 0.782046 -0.426038
0.658074 0.779193 -0.424703
0.662763 0.779659 -0.424578
0.668167 0.782653 -0.425372
0.675109 0.790951 -0.428090
0.676176 0.778471 -0.423280
0.680239 0.776637 -0.422333
0.685491 0.778822 -0.422842
0.690328 0.779524 -0.422817
0.694944 0.779452 -0.422515
0.699177 0.778121 -0.421762
0.704308 0.779613 -0.422030
0.710851 0.785376 -0.423837
0.716597 0.788494 -0.424691
0.721286 0.788320 -0.424364
0.725521 0.786777 -0.423548
0.729635 0.784893 -0.422614
0.738170 0.795632 -0.426209
0.746799 0.806275 -0.429767
0.749563 0.800332 -0.427385
0.747308 0.780845 -0.420166
0.755492 0.789924 -0.423169
0.763293 0.797688 -0.425702
0.768292 0.797877 -0.425530
0.772010 0.794723 -0.424170
0.773732 0.786551 -0.421027
0.780141 0.790293 -0.422134
0.788162 0.797866 -0.424606
0.792583 0.796430 -0.423874
0.798452 0.798465 -0.424381
0.802038 0.794991 -0.422934
0.806024 0.792499 -0.421841
0.809611 0.789107 -0.420435
0.814467 0.788650 -0.420074
0.819339 0.788193 -0.419718
0.824594 0.788555 -0.419657
0.834210 0.798430 -0.422965
0.838969 0.797488 -0.422449
0.839394 0.787247 -0.418653
0.845806 0.789862 -0.419405
0.851188 0.790216 -0.419364
0.856702 0.790785 -0.419403
0.860811 0.788426 -0.418415
0.865309 0.786854 -0.417710
0.872923 0.791472 -0.419192
0.878337 0.791602 -0.419097
0.884004 0.792170 -0.419162
0.888319 0.790072 -0.418295
0.894015 0.790591 -0.418354
0.900059 0.791698 -0.418626
0.905724 0.792021 -0.418628
0.910288 0.790259 -0.417904
0.918327 0.794788 -0.419395
0.924294 0.795439 -0.419531
0.927966 0.791942 -0.418216
0.934585 0.793639 -0.418732
0.940447 0.793924 -0.418758
0.947287 0.795822 -0.419357
0.952947 0.795615 -0.419223
0.958668 0.795451 -0.419112
0.964316 0.795110 -0.418944
0.971050 0.796497 -0.419390
0.977648 0.797571 -0.419732
0.984016 0.798188 -0.419921
0.989893 0.797946 -0.419815
0.995921 0.797884 -0.419778
1.001839 0.797588 -0.419666
1.007366 0.796629 -0.419327
1.014494 0.798070 -0.419836
1.020416 0.797595 -0.419679
1.027812 0.799269 -0.420281
1.034167 0.799306 -0.420314
1.039799 0.798221 -0.419958
1.045714 0.797505 -0.419736
1.053355 0.799217 -0.420369
1.060904 0.800706 -0.420928
1.067051 0.800135 -0.420766
1.073377 0.799767 -0.420678
1.081181 0.801386 -0.421288
1.087776 0.801274 -0.421292
1.093839 0.800394 -0.421025
1.100920 0.800844 -0.421224
1.109200 0.802828 -0.421958
1.114996 0.801478 -0.421518
1.120702 0.800000 -0.421028
1.132645 0.806529 -0.423343
1.138790 0.805528 -0.423006
1.145039 0.804654 -0.422705
1.152444 0.805219 -0.422898
1.159346 0.805138 -0.422851
1.166008 0.804757 -0.422686
1.173240 0.805072 -0.422749
1.180494 0.805411 -0.422802
1.186358 0.804098 -0.422258
1.192007 0.802572 -0.421617
1.201527 0.805622 -0.422560
1.208290 0.805450 -0.422348
1.214645 0.804847 -0.421960
1.222137 0.805589 -0.422017
1.228081 0.804615 -0.421445
1.234043 0.803730 -0.420876
1.241438 0.804507 -0.420858
1.249932 0.806544 -0.421247
1.255312 0.805209 -0.420429
1.260272 0.803508 -0.419453
1.266403 0.803168 -0.418919
1.273977 0.804452 -0.418916
1.279506 0.803626 -0.418148
1.289183 0.807263 -0.418892
1.297277 0.809276 -0.419039
1.298277 0.803978 -0.416631
1.312202 0.812174 -0.418841
0.172524 0.756253 -0.469414
0.178598 0.746892 -0.465477
0.181957 0.747121 -0.465588
0.185324 0.747531 -0.465746
0.188893 0.747420 -0.465652
0.192874 0.745975 -0.464961
0.195684 0.749117 -0.466189
0.199062 0.750391 -0.466592
0.202740 0.750737 -0.466569
0.207220 0.748113 -0.465256
0.210746 0.749465 -0.465599
0.214561 0.749874 -0.465511
0.218159 0.751414 -0.465871
0.222070 0.751868 -0.465742
0.225857 0.753067 -0.465899
0.230335 0.751410 -0.464822
0.234253 0.752425 -0.464846
0.238073 0.754106 -0.465124
0.242101 0.755035 -0.465060
0.246157 0.756025 -0.464998
0.250327 0.756630 -0.464751
0.254600 0.756865 -0.464329
0.258670 0.758316 -0.464397
0.263170 0.757610 -0.463544
0.267657 0.757040 -0.462735
0.272016 0.757258 -0.462240
0.276220 0.758485 -0.462153
0.280614 0.758692 -0.461629
0.285147 0.758086 -0.460760
0.289547 0.758346 -0.460243
0.293916 0.758863 -0.459824
0.298359 0.758918 -0.459209
0.302778 0.759159 -0.458668
0.307169 0.759632 -0.458218
0.311576 0.759997 -0.457722
0.316024 0.760033 -0.457091
0.320564 0.759249 -0.456125
0.325071 0.758652 -0.455238
0.329518 0.758500 -0.454535
0.333866 0.759256 -0.454204
0.338266 0.759471 -0.453656
0.342561 0.760786 -0.453556
0.346973 0.760820 -0.452942
0.351451 0.759936 -0.451963
0.355915 0.759028 -0.450980
0.360102 0.761752 -0.451464
0.364486 0.761801 -0.450876
0.368862 0.761871 -0.450304
0.373315 0.760406 -0.449124
0.377592 0.761967 -0.449161
0.381910 0.762814 -0.448916
0.386235 0.763483 -0.448608
0.390631 0.762187 -0.447525
0.394995 0.761269 -0.446601
0.399261 0.763501 -0.446931
0.403578 0.764094 -0.446618
0.407901 0.764221 -0.446127
0.412230 0.763428 -0.445281
0.416542 0.763193 -0.444662
0.420847 0.762480 -0.443862
0.425140 0.761686 -0.443039
0.429428 0.761684 -0.442532
0.433725 0.762693 -0.442428
0.438009 0.762666 -0.441925
0.442308 0.763449 -0.441743
0.446637 0.765097 -0.441904
0.450972 0.766558 -0.441996
0.455242 0.765971 -0.441299
0.459584 0.767252 -0.441332
0.463897 0.767686 -0.441042
0.468103 0.766069 -0.439965
0.472453 0.767218 -0.439962
0.476718 0.766842 -0.439377
0.480942 0.765916 -0.438585
0.485200 0.765585 -0.438028
0.489360 0.764034 -0.437009
0.493573 0.763293 -0.436306
0.498073 0.765915 -0.436897
0.502507 0.767532 -0.437107
0.507049 0.770071 -0.437672
0.511429 0.770759 -0.437533
0.515696 0.770311 -0.436965
0.520144 0.771497 -0.437023
0.524343 0.770430 -0.436229
0.528707 0.770782 -0.435979
0.533431 0.773912 -0.436786
0.537895 0.774811 -0.436749
0.541983 0.772867 -0.435640
0.546287 0.772550 -0.435152
0.550666 0.772734 -0.434856
0.555312 0.774641 -0.435215
0.560537 0.780101 -0.436914
0.564180 0.775386 -0.434782
0.568177 0.773052 -0.433553
0.572391 0.772084 -0.432843
0.576660 0.771452 -0.432262
0.581154 0.772059 -0.432150
0.586356 0.776400 -0.433439
0.591634 0.780879 -0.434780
0.595684 0.778841 -0.433684
0.599065 0.773547 -0.431378
0.603141 0.771843 -0.430418
0.608401 0.775787 -0.431566
0.614555 0.783637 -0.434169
0.618557 0.781383 -0.433012
0.622508 0.778969 -0.431799
0.627763 0.782252 -0.432706
0.633225 0.786235 -0.433872
0.637396 0.784674 -0.432986
0.641723 0.783775 -0.432347
0.645639 0.781248 -0.431110
0.650682 0.783162 -0.431519
0.655475 0.784015 -0.431537
0.659624 0.782389 -0.430644
0.663024 0.778044 -0.428751
0.670008 0.786720 -0.431659
0.671722 0.776426 -0.427586
0.680663 0.791537 -0.432859
0.682983 0.783510 -0.429629
0.685850 0.777563 -0.427170
0.691408 0.780633 -0.428023
0.695845 0.779937 -0.427497
0.700500 0.779923 -0.427224
0.708198 0.789388 -0.430421
0.713072 0.789817 -0.430313
0.719201 0.793993 -0.431576
0.724175 0.794559 -0.431523
0.728218 0.792337 -0.430456
0.734017 0.795214 -0.431251
0.740719 0.800533 -0.432936
0.749351 0.811061 -0.436516
0.749245 0.797120 -0.431201
0.750786 0.788024 -0.427656
0.756668 0.790786 -0.428423
0.765745 0.801866 -0.432208
0.769564 0.798899 -0.430901
0.771039 0.789960 -0.427436
0.775610 0.789063 -0.426889
0.782259 0.793336 -0.428217
0.788740 0.797035 -0.429339
0.794684 0.799286 -0.429940
0.799417 0.798534 -0.429460
0.803394 0.795967 -0.428330
0.807598 0.793956 -0.427405
0.810671 0.789344 -0.425550
0.815512 0.788825 -0.425174
0.820760 0.789191 -0.425121
0.826381 0.790324 -0.425348
0.835572 0.799199 -0.428363
0.840242 0.798032 -0.427771
0.844900 0.796823 -0.427170
0.847991 0.792287 -0.425380
0.854875 0.795713 -0.426453
0.858181 0.791645 -0.424843
0.864108 0.792953 -0.425166
0.868578 0.791250 -0.424416
0.875120 0.793650 -0.425141
0.882857 0.798289 -0.426673
0.888658 0.799010 -0.426807
0.892532 0.795966 -0.425600
0.898211 0.796359 -0.425629
0.903949 0.796797 -0.425680
0.909287 0.796430 -0.425450
0.914715 0.796177 -0.425267
0.920069 0.795740 -0.425024
0.924275 0.793200 -0.424037
0.930936 0.795003 -0.424608
0.936422 0.794651 -0.424415
0.942494 0.795262 -0.424573
0.948366 0.795455 -0.424589
0.953621 0.794539 -0.424215
0.959392 0.794446 -0.424142
0.966023 0.795718 -0.424563
0.972329 0.796366 -0.424768
0.979133 0.797745 -0.425240
0.984960 0.797465 -0.425128
0.991230 0.797830 -0.425252
0.997563 0.798222 -0.425392
1.003333 0.797668 -0.425200
1.009436 0.797573 -0.425179
1.015781 0.797783 -0.425273
1.023155 0.799476 -0.425901
1.029515 0.799559 -0.425960
1.036064 0.799856 -0.426101
1.041353 0.798245 -0.425566
1.048153 0.798789 -0.425804
1.054768 0.798998 -0.425925
1.062602 0.800869 -0.426643
1.069287 0.801035 -0.426755
1.075915 0.801062 -0.426819
1.082383 0.800817 -0.426787
1.088993 0.800717 -0.426806
1.094999 0.799758 -0.426517
1.101547 0.799494 -0.426475
1.108725 0.800025 -0.426713
1.115928 0.800540 -0.426941
1.124248 0.802455 -0.427663
1.133204 0.805117 -0.428646
1.140702 0.805852 -0.428931
1.146864 0.804872 -0.428593
1.152864 0.803694 -0.428171
1.160705 0.804796 -0.428552
1.168213 0.805467 -0.428763
1.174175 0.804253 -0.428284
1.180386 0.803368 -0.427904
1.187213 0.803244 -0.427775
1.196764 0.806348 -0.428778
1.203216 0.805805 -0.428454
1.209448 0.805047 -0.428030
1.215982 0.804686 -0.427720
1.222908 0.804818 -0.427559
1.232312 0.807791 -0.428381
1.235096 0.803363 -0.426537
1.241158 0.802703 -0.426005
1.251452 0.806772 -0.427122
1.256356 0.804959 -0.426116
1.260470 0.802389 -0.424811
1.268075 0.803685 -0.424844
1.276293 0.805692 -0.425093
1.283120 0.806277 -0.424805
1.290858 0.807893 -0.424847
1.295562 0.806400 -0.423761
1.301652 0.806452 -0.423187
1.306348 0.805152 -0.422107
0.176440 0.744700 -0.468619
0.179432 0.745926 -0.469208
0.182484 0.747173 -0.469778
0.185991 0.747006 -0.469711
0.189471 0.747141 -0.469744
0.192831 0.747928 -0.470027
0.196273 0.748638 -0.470247
0.199771 0.749360 -0.470441
0.203121 0.750896 -0.470952
0.206251 0.753572 -0.471922
0.210707 0.751166 -0.470679
0.214718 0.750711 -0.470243
0.218818 0.750069 -0.469697
0.223130 0.748680 -0.468801
0.226077 0.753427 -0.470502
0.229698 0.755538 -0.471044
0.234278 0.753523 -0.469797
0.238386 0.753808 -0.469505
0.242271 0.755341 -0.469719
0.246392 0.755941 -0.469511
0.250789 0.755336 -0.468769
0.254939 0.756110 -0.468590
0.259326 0.755796 -0.467931
0.263750 0.755381 -0.467212
0.268087 0.755533 -0.466716
0.272283 0.756608 -0.466595
0.276640 0.756870 -0.466117
0.280972 0.757372 -0.465728
0.285241 0.758363 -0.465532
0.289740 0.757967 -0.464747
0.294191 0.757900 -0.464092
0.298472 0.759049 -0.463939
0.302970 0.758724 -0.463167
0.307381 0.759028 -0.462652
0.311782 0.759430 -0.462176
0.316205 0.759663 -0.461628
0.320723 0.759078 -0.460741
0.325258 0.758253 -0.459758
0.329600 0.759117 -0.459473
0.334052 0.758915 -0.458750
0.338374 0.759992 -0.458556
0.342760 0.760401 -0.458090
0.347211 0.760018 -0.457304
0.351740 0.758550 -0.456080
0.356059 0.759537 -0.455864
0.360388 0.760414 -0.455607
0.364726 0.761178 -0.455309
0.369144 0.760605 -0.454474
0.373519 0.760584 -0.453869
0.377828 0.761675 -0.453720
0.382156 0.762460 -0.453453
0.386486 0.763191 -0.453170
0.390832 0.763464 -0.452708
0.395221 0.762196 -0.451635
0.399565 0.761934 -0.450973
0.403880 0.762629 -0.450702
0.408206 0.762642 -0.450164
0.412518 0.763476 -0.449961
0.416840 0.762953 -0.449223
0.421152 0.762250 -0.448421
0.425452 0.761487 -0.447603
0.429751 0.761925 -0.447268
0.434050 0.762375 -0.446945
0.438362 0.763475 -0.446885
0.442686 0.764765 -0.446905
0.447016 0.765944 -0.446887
0.451312 0.765863 -0.446378
0.455601 0.765671 -0.445831
0.459878 0.765288 -0.445215
0.464191 0.765763 -0.444943
0.468480 0.765740 -0.444481
0.472756 0.765495 -0.443938
0.477034 0.765340 -0.443436
0.481286 0.764836 -0.442803
0.485540 0.764422 -0.442212
0.489811 0.764284 -0.441734
0.494293 0.766684 -0.442248
0.498711 0.768089 -0.442378
0.503198 0.770070 -0.442736
0.507274 0.767623 -0.441382
0.511643 0.768253 -0.441225
0.515936 0.768101 -0.440770
0.520243 0.768058 -0.440362
0.524679 0.769100 -0.440376
0.529064 0.769615 -0.440192
0.533575 0.771053 -0.440366
0.538072 0.772251 -0.440451
0.542292 0.771313 -0.439719
0.546685 0.771637 -0.439476
0.550950 0.771030 -0.438880
0.554623 0.766548 -0.436807
0.559790 0.771821 -0.438469
0.564319 0.772810 -0.438494
0.568775 0.773269 -0.438321
0.573130 0.773078 -0.437903
0.577227 0.771412 -0.436927
0.581420 0.770331 -0.436178
0.585912 0.770872 -0.436050
0.590917 0.774019 -0.436914
0.595766 0.776188 -0.437407
0.600077 0.775547 -0.436839
0.604169 0.773845 -0.435872
0.608968 0.775526 -0.436189
0.613161 0.774298 -0.435409
0.617311 0.772901 -0.434569
0.622047 0.774110 -0.434715
0.627042 0.776343 -0.435249
0.632136 0.778859 -0.435891
0.636443 0.777993 -0.435263
0.641515 0.780215 -0.435798
0.647258 0.784962 -0.437283
0.652082 0.785924 -0.437348
0.655421 0.781169 -0.435274
0.659251 0.778389 -0.433945
0.664924 0.782419 -0.435167
0.666728 0.772377 -0.431132
0.675420 0.786931 -0.436287
0.679821 0.786080 -0.435691
0.685103 0.788214 -0.436211
0.687483 0.780550 -0.433084
0.691653 0.778982 -0.432233
0.697195 0.781857 -0.433037
0.701710 0.781343 -0.432584
0.707218 0.783901 -0.433274
0.713548 0.788866 -0.434858
0.719443 0.792317 -0.435882
0.724443 0.792960 -0.435868
0.728912 0.791990 -0.435259
0.733509 0.791383 -0.434788
0.740584 0.797780 -0.436909
0.742819 0.790423 -0.433952
0.746843 0.788168 -0.432884
0.752238 0.789657 -0.433201
0.758116 0.792356 -0.433967
0.766273 0.800938 -0.436901
0.769925 0.797534 -0.435425
0.771916 0.789933 -0.432411
0.776418 0.788841 -0.431796
0.784333 0.796233 -0.434302
0.790785 0.799791 -0.435400
0.794469 0.796500 -0.433989
0.799708 0.796972 -0.433964
0.803861 0.794824 -0.432982
0.807781 0.792145 -0.431812
0.811623 0.789311 -0.430590
0.816447 0.788733 -0.430200
0.821249 0.788075 -0.429784
0.829117 0.794164 -0.431839
0.836605 0.799225 -0.433521
0.840569 0.796515 -0.432370
0.845783 0.796483 -0.432202
0.848931 0.792058 -0.430437
0.855809 0.795442 -0.431526
0.859701 0.792564 -0.430337
0.866505 0.795610 -0.431312
0.871758 0.795424 -0.431116
0.877186 0.795538 -0.431034
0.882855 0.796067 -0.431109
0.890165 0.799706 -0.432321
0.894932 0.798343 -0.431720
0.899798 0.797143 -0.431185
0.905082 0.796696 -0.430930
0.912503 0.800152 -0.432099
0.917078 0.798274 -0.431337
0.921730 0.796520 -0.430627
0.926323 0.794641 -0.429878
0.931880 0.794448 -0.429749
0.937283 0.793930 -0.429508
0.943465 0.794709 -0.429745
0.949210 0.794665 -0.429689
0.955683 0.795789 -0.430065
0.961819 0.796266 -0.430212
0.967351 0.795670 -0.429978
0.973911 0.796708 -0.430343
0.979725 0.796451 -0.430245
0.985626 0.796278 -0.430184
0.992225 0.797150 -0.430509
0.998300 0.797118 -0.430513
1.004524 0.797254 -0.430584
1.011474 0.798438 -0.431041
1.018225 0.799232 -0.431362
1.024246 0.798849 -0.431263
1.031171 0.799756 -0.431636
1.037480 0.799675 -0.431657
1.043618 0.799286 -0.431569
1.050174 0.799446 -0.431685
1.056724 0.799536 -0.431779
1.064827 0.801758 -0.432650
1.071695 0.802155 -0.432860
1.077418 0.800903 -0.432473
1.084764 0.801849 -0.432884
1.090792 0.800939 -0.432620
1.096654 0.799777 -0.432262
1.103161 0.799452 -0.432207
1.109367 0.798698 -0.431991
1.119174 0.802616 -0.433468
1.125990 0.802564 -0.433496
1.133988 0.803997 -0.434056
1.142004 0.805400 -0.434595
1.147979 0.804201 -0.434176
1.153561 0.802521 -0.433569
1.160949 0.803089 -0.433766
1.169514 0.805077 -0.434463
1.175588 0.804025 -0.434036
1.181284 0.802548 -0.433435
1.188854 0.803336 -0.433636
1.196606 0.804345 -0.433895
1.205763 0.807002 -0.434728
1.210040 0.804009 -0.433482
1.215758 0.802755 -0.432841
1.224923 0.805482 -0.433616
1.230074 0.803693 -0.432723
1.236199 0.803076 -0.432225
1.243205 0.803504 -0.432074
1.250422 0.804221 -0.431994
1.256670 0.803938 -0.431520
1.261950 0.802683 -0.430663
1.269526 0.803988 -0.430695
1.277013 0.805255 -0.430679
1.284535 0.806621 -0.430663
1.289705 0.805577 -0.429749
1.294677 0.804426 -0.428764
1.300784 0.804550 -0.428204
1.279844 0.776914 -0.417715
0.178680 0.738965 -0.470231
0.180135 0.745469 -0.473142
0.183203 0.746586 -0.473683
0.186925 0.745563 -0.473264
0.190303 0.745976 -0.473441
0.193696 0.746551 -0.473658
0.196817 0.748378 -0.474389
0.200355 0.748864 -0.474505
0.203616 0.750665 -0.475162
0.206677 0.753533 -0.476250
0.210855 0.752165 -0.475467
0.215321 0.749759 -0.474203
0.219019 0.750704 -0.474363
0.222614 0.752332 -0.474788
0.226645 0.752307 -0.474466
0.230268 0.754304 -0.474990
0.234355 0.754441 -0.474681
0.238542 0.754292 -0.474221
0.242542 0.755206 -0.474193
0.246523 0.756421 -0.474270
0.250974 0.755475 -0.473393
0.255206 0.755764 -0.473025
0.259652 0.755061 -0.472211
0.264206 0.753855 -0.471164
0.268385 0.754796 -0.471019
0.272573 0.755848 -0.470904
0.277004 0.755599 -0.470220
0.281177 0.757000 -0.470226
0.285561 0.757221 -0.469716
0.289956 0.757442 -0.469198
0.294327 0.757881 -0.468764
0.298727 0.758190 -0.468267
0.303115 0.758617 -0.467814
0.307300 0.760635 -0.468027
0.311917 0.759411 -0.466870
0.316446 0.758790 -0.465967
0.320842 0.759235 -0.465511
0.325404 0.758204 -0.464437
0.329757 0.758996 -0.464127
0.334085 0.760066 -0.463933
0.338544 0.759825 -0.463195
0.342981 0.759726 -0.462520
0.347380 0.759988 -0.461998
0.351862 0.759161 -0.461029
0.356264 0.759196 -0.460423
0.360629 0.759630 -0.459986
0.364981 0.760234 -0.459624
0.369385 0.759943 -0.458900
0.373719 0.760733 -0.458625
0.378061 0.761364 -0.458291
0.382377 0.762548 -0.458189
0.386746 0.762518 -0.457595
0.391094 0.762898 -0.457177
0.395466 0.762338 -0.456381
0.399836 0.761398 -0.455440
0.404145 0.762691 -0.455412
0.408469 0.763410 -0.455157
0.412814 0.762306 -0.454171
0.417130 0.763314 -0.454046
0.421452 0.763058 -0.453418
0.425776 0.764915 -0.453647
0.430087 0.763980 -0.452758
0.434407 0.764576 -0.452492
0.438709 0.764152 -0.451824
0.443019 0.764372 -0.451420
0.447346 0.765196 -0.451264
0.451644 0.765028 -0.450717
0.455904 0.764011 -0.449839
0.460193 0.763909 -0.449332
0.464487 0.763979 -0.448900
0.468815 0.764675 -0.448723
0.473182 0.765960 -0.448784
0.477450 0.765486 -0.448153
0.481725 0.765202 -0.447604
0.486058 0.765737 -0.447384
0.490504 0.767635 -0.447707
0.494832 0.767893 -0.447387
0.499251 0.769149 -0.447465
0.503585 0.769340 -0.447129
0.508115 0.771492 -0.447567
0.512185 0.768969 -0.446174
0.516310 0.767160 -0.445069
0.520816 0.768862 -0.445344
0.525161 0.769031 -0.445023
0.529495 0.769075 -0.444657
0.533977 0.770246 -0.444736
0.538486 0.771501 -0.444851
0.542947 0.772300 -0.444791
0.547283 0.772129 -0.444358
0.551516 0.771252 -0.443655
0.555911 0.771456 -0.443376
0.560176 0.770797 -0.442767
0.564428 0.770069 -0.442135
0.569445 0.773911 -0.443275
0.573839 0.773892 -0.442924
0.577897 0.771949 -0.441834
0.582022 0.770451 -0.440920
0.586896 0.772986 -0.441565
0.591319 0.773014 -0.441247
0.596022 0.774425 -0.441464
0.600561 0.774922 -0.441332
0.605082 0.775276 -0.441148
0.609237 0.773856 -0.440288
0.613451 0.772743 -0.439549
0.617867 0.772549 -0.439165
0.622607 0.773747 -0.439318
0.627285 0.774592 -0.439337
0.631833 0.774821 -0.439125
0.636361 0.774922 -0.438866
0.641128 0.775946 -0.438961
0.645576 0.775633 -0.438551
0.649824 0.774524 -0.437841
0.654619 0.775496 -0.437925
0.659038 0.774995 -0.437453
0.663700 0.775367 -0.437315
0.669755 0.780669 -0.439048
0.674416 0.780844 -0.438840
0.678559 0.779191 -0.437943
0.683490 0.780227 -0.438066
0.688110 0.780156 -0.437774
0.693486 0.782522 -0.438405
0.698256 0.782823 -0.438259
0.702775 0.782280 -0.437797
0.707196 0.781414 -0.437218
0.712484 0.783190 -0.437636
0.718167 0.786061 -0.438469
0.722354 0.784370 -0.437589
0.726684 0.783107 -0.436874
0.732497 0.786106 -0.437762
0.735708 0.781612 -0.435842
0.741316 0.783893 -0.436468
0.746289 0.784323 -0.436402
0.751735 0.785977 -0.436798
0.757276 0.787799 -0.437260
0.763552 0.791459 -0.438411
0.767455 0.788826 -0.437214
0.770693 0.784527 -0.435401
0.776567 0.786942 -0.436097
0.784239 0.793716 -0.438423
0.790233 0.796152 -0.439133
0.793685 0.792332 -0.437516
0.798359 0.791486 -0.437013
0.803412 0.791510 -0.436837
0.807285 0.788749 -0.435631
0.811920 0.787759 -0.435089
0.816839 0.787392 -0.434784
0.821840 0.787172 -0.434537
0.830374 0.794701 -0.437172
0.833444 0.790097 -0.435308
0.840174 0.793430 -0.436394
0.844334 0.791172 -0.435412
0.848997 0.789976 -0.434830
0.855617 0.792816 -0.435748
0.860159 0.791280 -0.435052
0.866188 0.792742 -0.435470
0.870806 0.791294 -0.434817
0.877483 0.793898 -0.435670
0.883107 0.794331 -0.435725
0.889491 0.796167 -0.436305
0.894970 0.796178 -0.436216
0.899832 0.794973 -0.435685
0.905628 0.795479 -0.435792
0.912232 0.797408 -0.436431
0.916017 0.794097 -0.435143
0.921859 0.794511 -0.435236
0.927302 0.794146 -0.435049
0.932630 0.793528 -0.434775
0.937846 0.792668 -0.434419
0.943636 0.792756 -0.434420
0.951628 0.796535 -0.435788
0.956760 0.795350 -0.435334
0.962601 0.795311 -0.435308
0.968840 0.795867 -0.435510
0.974159 0.794847 -0.435137
0.980479 0.795402 -0.435351
0.986639 0.795626 -0.435451
0.993100 0.796260 -0.435708
0.999836 0.797245 -0.436102
1.005251 0.796104 -0.435717
1.012305 0.797432 -0.436249
1.019269 0.798532 -0.436704
1.025616 0.798622 -0.436791
1.032282 0.799122 -0.437035
1.038502 0.798896 -0.437015
1.045329 0.799495 -0.437304
1.052198 0.800084 -0.437594
1.058155 0.799305 -0.437381
1.065405 0.800306 -0.437828
1.072622 0.801187 -0.438232
1.079754 0.801880 -0.438568
1.087242 0.802996 -0.439060
1.092076 0.800451 -0.438197
1.098523 0.800072 -0.438132
1.105037 0.799748 -0.438084
1.111665 0.799543 -0.438076
1.121516 0.803499 -0.439601
1.127110 0.801867 -0.439051
1.135611 0.803948 -0.439866
1.142557 0.804005 -0.439921
1.148588 0.802899 -0.439533
1.155015 0.802296 -0.439318
1.165188 0.806298 -0.440792
1.171952 0.806079 -0.440686
1.177003 0.803808 -0.439800
1.185749 0.806002 -0.440547
1.188883 0.801532 -0.438806
1.200530 0.807155 -0.440774
1.204976 0.804332 -0.439593
1.211480 0.803969 -0.439295
1.218208 0.803908 -0.439080
1.225316 0.804325 -0.439012
1.230286 0.802384 -0.438044
1.235854 0.801199 -0.437323
1.243201 0.802059 -0.437324
1.251699 0.804234 -0.437776
1.257877 0.803919 -0.437277
1.264089 0.803717 -0.436786
1.270519 0.803826 -0.436375
1.277137 0.804213 -0.436032
1.284302 0.805250 -0.435893
1.290337 0.805170 -0.435310
1.295617 0.804386 -0.434439
1.297038 0.799702 -0.432118
1.320989 0.818336 -0.438230
0.177045 0.746758 -0.477723
0.180082 0.747733 -0.478257
0.183529 0.747459 -0.478215
0.186741 0.748228 -0.478601
0.190959 0.745511 -0.477426
0.194186 0.746623 -0.477904
0.196475 0.751547 -0.480028
0.200350 0.750703 -0.479584
0.203814 0.751653 -0.479898
0.207543 0.751785 -0.479821
0.211865 0.749707 -0.478742
0.216009 0.748503 -0.478016
0.219304 0.751045 -0.478903
0.223087 0.751785 -0.478968
0.227015 0.752111 -0.478821
0.230983 0.752465 -0.478656
0.234858 0.753453 -0.478740
0.238881 0.753968 -0.478589
0.242726 0.755538 -0.478871
0.246855 0.755953 -0.478622
0.250981 0.756564 -0.478435
0.255542 0.755098 -0.477320
0.259757 0.755540 -0.477015
0.264280 0.754451 -0.476026
0.268557 0.754804 -0.475643
0.272862 0.755122 -0.475229
0.277020 0.756433 -0.475227
0.281409 0.756488 -0.474669
0.285871 0.756163 -0.473935
0.290317 0.755982 -0.473254
0.294552 0.757276 -0.473196
0.298954 0.757523 -0.472681
0.303081 0.759826 -0.473037
0.307519 0.759968 -0.472464
0.311992 0.759856 -0.471778
0.316537 0.759140 -0.470834
0.321090 0.758271 -0.469824
0.325481 0.758754 -0.469388
0.329883 0.759144 -0.468912
0.334184 0.760537 -0.468861
0.338690 0.759880 -0.467945
0.343140 0.759697 -0.467233
0.347596 0.759359 -0.466460
0.351979 0.759803 -0.466019
0.356405 0.759644 -0.465329
0.360800 0.759784 -0.464769
0.365228 0.759347 -0.463974
0.369616 0.759374 -0.463379
0.373964 0.760002 -0.463039
0.378234 0.762140 -0.463331
0.382560 0.763369 -0.463250
0.387097 0.759463 -0.461051
0.391411 0.760610 -0.460949
0.395701 0.762675 -0.461232
0.400044 0.763224 -0.460895
0.404390 0.763575 -0.460483
0.408744 0.763181 -0.459771
0.413076 0.764015 -0.459571
0.417419 0.763071 -0.458649
0.421748 0.763824 -0.458428
0.426076 0.763790 -0.457893
0.430408 0.764712 -0.457754
0.434727 0.764434 -0.457132
0.439042 0.764282 -0.456569
0.443355 0.764259 -0.456066
0.447668 0.764341 -0.455611
0.451991 0.764791 -0.455312
0.456260 0.763819 -0.454444
0.460550 0.763572 -0.453877
0.464843 0.763485 -0.453380
0.469264 0.765798 -0.453856
0.473628 0.766778 -0.453799
0.477936 0.766762 -0.453348
0.482178 0.765783 -0.452516
0.486548 0.766676 -0.452441
0.490885 0.767032 -0.452156
0.495262 0.767822 -0.452049
0.499603 0.768099 -0.451743
0.503991 0.768844 -0.451628
0.508574 0.771476 -0.452269
0.512772 0.770121 -0.451327
0.517035 0.769477 -0.450674
0.521349 0.769306 -0.450214
0.525739 0.769775 -0.450012
0.529994 0.769089 -0.449358
0.534473 0.770178 -0.449411
0.539066 0.772014 -0.449762
0.543480 0.772395 -0.449543
0.547781 0.771935 -0.448996
0.552149 0.771927 -0.448631
0.556445 0.771418 -0.448074
0.561030 0.772739 -0.448240
0.565437 0.772859 -0.447938
0.570002 0.773882 -0.447994
0.574471 0.774256 -0.447798
0.578777 0.773661 -0.447227
0.583187 0.773636 -0.446883
0.587755 0.774418 -0.446858
0.592203 0.774506 -0.446565
0.596585 0.774222 -0.446131
0.601027 0.774210 -0.445806
0.605472 0.774185 -0.445480
0.610154 0.775230 -0.445573
0.614559 0.774931 -0.445146
0.618995 0.774744 -0.444767
0.623444 0.774591 -0.444405
0.628016 0.774930 -0.444236
0.632448 0.774640 -0.443827
0.636890 0.774363 -0.443427
0.641702 0.775546 -0.443594
0.646177 0.775324 -0.443221
0.651239 0.777332 -0.443712
0.656468 0.779859 -0.444404
0.660820 0.779005 -0.443796
0.665406 0.778994 -0.443516
0.670565 0.780993 -0.444012
0.675037 0.780474 -0.443543
0.679662 0.780464 -0.443273
0.684194 0.780101 -0.442870
0.689149 0.781119 -0.443001
0.694256 0.782561 -0.443296
0.699215 0.783442 -0.443379
0.703662 0.782638 -0.442821
0.708302 0.782423 -0.442491
0.713341 0.783394 -0.442618
0.717877 0.782787 -0.442146
0.722466 0.782314 -0.441729
0.727372 0.782739 -0.441657
0.732042 0.782436 -0.441311
0.736949 0.782771 -0.441213
0.742133 0.783827 -0.441392
0.747296 0.784752 -0.441524
0.752222 0.784970 -0.441391
0.756846 0.784339 -0.440940
0.762179 0.785544 -0.441189
0.767329 0.786199 -0.441234
0.771795 0.785050 -0.440598
0.777181 0.786204 -0.440840
0.782201 0.786376 -0.440713
0.788053 0.788532 -0.441342
0.793702 0.790100 -0.441751
0.798660 0.789936 -0.441510
0.802944 0.788150 -0.440661
0.807799 0.787688 -0.440318
0.812443 0.786710 -0.439784
0.817726 0.787153 -0.439792
0.822779 0.787027 -0.439590
0.826698 0.784362 -0.438437
0.834662 0.790505 -0.440607
0.838785 0.788205 -0.439602
0.845050 0.790453 -0.440314
0.850492 0.790873 -0.440345
0.856068 0.791510 -0.440462
0.860766 0.790288 -0.439886
0.865329 0.788771 -0.439205
0.870656 0.788761 -0.439097
0.877760 0.792202 -0.440291
0.883727 0.793296 -0.440609
0.889033 0.793036 -0.440426
0.894319 0.792690 -0.440216
0.900636 0.794238 -0.440724
0.906940 0.795668 -0.441194
0.911342 0.793513 -0.440326
0.916028 0.791867 -0.439656
0.921268 0.791194 -0.439358
0.927110 0.791548 -0.439452
0.933004 0.791927 -0.439562
0.938649 0.791806 -0.439492
0.945719 0.794076 -0.440325
0.952369 0.795523 -0.440857
0.958157 0.795427 -0.440818
0.964896 0.796853 -0.441356
0.970619 0.796514 -0.441240
0.976417 0.796242 -0.441156
0.981821 0.795280 -0.440820
0.988039 0.795572 -0.440961
0.995131 0.797173 -0.441600
1.001807 0.798026 -0.441965
1.008697 0.799130 -0.442430
1.015731 0.800367 -0.442952
1.021164 0.799098 -0.442539
1.028457 0.800574 -0.443161
1.033737 0.798980 -0.442637
1.039315 0.797795 -0.442270
1.048188 0.801350 -0.443687
1.053981 0.800356 -0.443399
1.060320 0.800101 -0.443391
1.066828 0.800033 -0.443455
1.073844 0.800621 -0.443767
1.081050 0.801407 -0.444154
1.087791 0.801495 -0.444278
1.094368 0.801316 -0.444299
1.100823 0.800933 -0.444241
1.106810 0.799900 -0.443933
1.116003 0.803052 -0.445195
1.122376 0.802453 -0.445038
1.129516 0.802823 -0.445238
1.136427 0.802873 -0.445306
1.143481 0.803084 -0.445424
1.149467 0.801946 -0.445020
1.158138 0.804141 -0.445857
1.167459 0.807090 -0.446962
1.173073 0.805489 -0.446333
1.178961 0.804256 -0.445823
1.184624 0.802792 -0.445204
1.195532 0.807571 -0.446912
1.199855 0.804583 -0.445671
1.206925 0.804868 -0.445635
1.213562 0.804687 -0.445397
1.219802 0.804101 -0.444976
1.224626 0.801970 -0.443945
1.232041 0.802835 -0.444009
1.237029 0.801043 -0.443043
1.241365 0.798621 -0.441809
1.252106 0.803321 -0.443209
1.257936 0.802679 -0.442574
1.265469 0.803957 -0.442622
1.270434 0.802539 -0.441629
1.276381 0.802265 -0.441030
1.283495 0.803306 -0.440885
1.292076 0.805952 -0.441301
1.294075 0.801791 -0.439159
1.308151 0.810260 -0.441658
1.304147 0.800124 -0.437250
0.180201 0.749445 -0.483140
0.183162 0.750875 -0.483875
0.187142 0.748830 -0.483037
0.190996 0.747384 -0.482436
0.194337 0.748028 -0.482734
0.197098 0.751104 -0.484083
0.200249 0.752976 -0.484866
0.204314 0.751514 -0.484136
0.208320 0.750445 -0.483549
0.212403 0.749231 -0.482865
0.215904 0.750602 -0.483299
0.219601 0.751398 -0.483446
0.223626 0.751007 -0.483036
0.227430 0.751774 -0.483107
0.231222 0.752828 -0.483276
0.235382 0.752422 -0.482768
0.239227 0.753663 -0.482961
0.243062 0.755194 -0.483253
0.247007 0.756425 -0.483385
0.251430 0.755466 -0.482527
0.255783 0.754972 -0.481850
0.260185 0.754345 -0.481092
0.264061 0.756690 -0.481620
0.268573 0.755719 -0.480671
0.273221 0.754021 -0.479388
0.277217 0.756215 -0.479792
0.281330 0.757919 -0.479964
0.286306 0.754333 -0.477817
0.290035 0.758760 -0.479149
0.294765 0.756761 -0.477673
0.298941 0.758561 -0.477840
0.303254 0.759530 -0.477637
0.307667 0.759844 -0.477144
0.312276 0.758655 -0.475997
0.316764 0.758357 -0.475232
0.321140 0.758990 -0.474867
0.325529 0.759548 -0.474467
0.329961 0.759726 -0.473903
0.334422 0.759603 -0.473212
0.338897 0.759261 -0.472428
0.343254 0.760135 -0.472165
0.347784 0.759020 -0.471058
0.352159 0.759605 -0.470679
0.356535 0.760183 -0.470299
0.360931 0.760456 -0.469795
0.365382 0.759816 -0.468909
0.369824 0.759106 -0.468000
0.374181 0.759684 -0.467641
0.378516 0.760658 -0.467453
0.382830 0.762188 -0.467503
0.387170 0.763246 -0.467361
0.391641 0.760671 -0.465703
0.395965 0.761910 -0.465649
0.400304 0.762794 -0.465452
0.404661 0.762911 -0.464942
0.409008 0.763316 -0.464558
0.413359 0.763166 -0.463950
0.417700 0.763642 -0.463609
0.422040 0.762033 -0.462412
0.426372 0.762938 -0.462262
0.430700 0.762941 -0.461747
0.435017 0.762557 -0.461078
0.439367 0.764195 -0.461250
0.443716 0.765284 -0.461201
0.448062 0.766020 -0.461012
0.452350 0.764987 -0.460105
0.456681 0.765341 -0.459772
0.460947 0.764229 -0.458847
0.465342 0.765956 -0.459088
0.469654 0.765876 -0.458597
0.474094 0.767985 -0.459004
0.478454 0.768543 -0.458784
0.482689 0.767233 -0.457811
0.487036 0.767608 -0.457528
0.491331 0.767283 -0.456967
0.495620 0.766911 -0.456393
0.499985 0.767423 -0.456183
0.504377 0.768160 -0.456068
0.508755 0.768670 -0.455867
0.513316 0.770868 -0.456350
0.517471 0.769136 -0.455255
0.522283 0.773283 -0.456531
0.526355 0.770850 -0.455165
0.530507 0.769235 -0.454134
0.535082 0.770996 -0.454462
0.539498 0.771416 -0.454256
0.543911 0.771758 -0.454024
0.548352 0.772248 -0.453855
0.552970 0.773859 -0.454138
0.557670 0.775867 -0.454581
0.561841 0.774393 -0.453641
0.566141 0.773769 -0.453044
0.570478 0.773365 -0.452539
0.574892 0.773398 -0.452212
0.579335 0.773560 -0.451940
0.583782 0.773698 -0.451663
0.588268 0.774006 -0.451457
0.592783 0.774413 -0.451293
0.597141 0.773978 -0.450800
0.601556 0.773805 -0.450414
0.606142 0.774428 -0.450346
0.610952 0.776033 -0.450669
0.615539 0.776513 -0.450551
0.619851 0.775708 -0.449930
0.624412 0.775991 -0.449741
0.629027 0.776456 -0.449627
0.633728 0.777222 -0.449634
0.638181 0.776907 -0.449220
0.642600 0.776436 -0.448748
0.647767 0.778880 -0.449422
0.652502 0.779531 -0.449396
0.657074 0.779503 -0.449107
0.661443 0.778694 -0.448517
0.665890 0.778158 -0.448037
0.671007 0.779990 -0.448484
0.675835 0.780710 -0.448500
0.680365 0.780344 -0.448096
0.685203 0.780991 -0.448090
0.690256 0.782290 -0.448341
0.695219 0.783213 -0.448448
0.699707 0.782549 -0.447942
0.704416 0.782563 -0.447703
0.709225 0.782848 -0.447572
0.714081 0.783226 -0.447480
0.718508 0.782269 -0.446876
0.723187 0.782048 -0.446560
0.728096 0.782462 -0.446493
0.733115 0.783136 -0.446531
0.738411 0.784529 -0.446850
0.743163 0.784335 -0.446559
0.747923 0.784124 -0.446266
0.752919 0.784515 -0.446209
0.757985 0.785041 -0.446207
0.763103 0.785646 -0.446240
0.767764 0.785013 -0.445801
0.772822 0.785364 -0.445745
0.777681 0.785164 -0.445481
0.783012 0.786093 -0.445655
0.788147 0.786477 -0.445624
0.793670 0.787739 -0.445935
0.798751 0.787872 -0.445817
0.804087 0.788556 -0.445914
0.808950 0.788083 -0.445573
0.813731 0.787390 -0.445154
0.818835 0.787397 -0.445007
0.824051 0.787604 -0.444942
0.829787 0.788900 -0.445299
0.835216 0.789450 -0.445376
0.840145 0.788868 -0.445025
0.845529 0.789213 -0.445035
0.851558 0.790846 -0.445542
0.856829 0.790826 -0.445423
0.862312 0.791188 -0.445456
0.867463 0.790821 -0.445218
0.873754 0.792679 -0.445834
0.878311 0.791030 -0.445119
0.884134 0.791827 -0.445343
0.889314 0.791317 -0.445075
0.894755 0.791259 -0.444986
0.900964 0.792587 -0.445432
0.906667 0.792893 -0.445495
0.911882 0.792237 -0.445200
0.916968 0.791306 -0.444805
0.922399 0.790956 -0.444640
0.928047 0.790941 -0.444609
0.933490 0.790507 -0.444426
0.940272 0.792344 -0.445116
0.947190 0.794316 -0.445863
0.953459 0.795081 -0.446159
0.959791 0.795876 -0.446473
0.966220 0.796752 -0.446825
0.972219 0.796841 -0.446884
0.977712 0.796045 -0.446614
0.983698 0.795995 -0.446634
0.990041 0.796450 -0.446854
0.996448 0.796934 -0.447092
1.003651 0.798584 -0.447781
1.009938 0.798726 -0.447901
1.015710 0.798019 -0.447704
1.024280 0.801482 -0.449102
1.030111 0.800726 -0.448897
1.035201 0.798834 -0.448262
1.042624 0.800327 -0.448924
1.048692 0.799773 -0.448808
1.055819 0.800688 -0.449256
1.062463 0.800845 -0.449417
1.068980 0.800768 -0.449489
1.075294 0.800359 -0.449436
1.082113 0.800603 -0.449632
1.088104 0.799670 -0.449376
1.096220 0.801573 -0.450202
1.102460 0.800898 -0.450038
1.108605 0.800073 -0.449812
1.117502 0.802830 -0.450950
1.124140 0.802579 -0.450929
1.129835 0.801100 -0.450428
1.139222 0.804316 -0.451714
1.144975 0.802888 -0.451209
1.150669 0.801403 -0.450667
1.158954 0.803138 -0.451343
1.166766 0.804264 -0.451767
1.173820 0.804458 -0.451814
1.179067 0.802493 -0.451014
1.188618 0.805699 -0.452170
1.193792 0.803713 -0.451314
1.202377 0.805778 -0.451982
1.207618 0.803966 -0.451139
1.215555 0.805323 -0.451479
1.220816 0.803655 -0.450632
1.225141 0.801008 -0.449381
1.232486 0.801844 -0.449428
1.239019 0.801821 -0.449114
1.245625 0.801944 -0.448822
1.249041 0.798640 -0.447192
1.259439 0.803039 -0.448458
1.265438 0.802704 -0.447888
1.270371 0.801309 -0.446882
1.274734 0.799406 -0.445651
1.286978 0.805921 -0.447568
1.287412 0.800058 -0.444774
1.292746 0.799452 -0.443934
1.306672 0.807817 -0.446433
1.316589 0.812039 -0.447334
0.180821 0.749443 -0.487258
0.184376 0.748670 -0.487033
0.188090 0.747486 -0.486595
0.191863 0.746246 -0.486102
0.194897 0.747952 -0.486904
0.197966 0.749781 -0.487731
0.201228 0.751124 -0.488308
0.205155 0.750085 -0.487784
0.209035 0.749410 -0.487392
0.212758 0.749562 -0.487340
0.216289 0.750727 -0.487711
0.219958 0.751556 -0.487900
0.224087 0.750623 -0.487267
0.227780 0.751788 -0.487543
0.231652 0.752390 -0.487536
0.235523 0.753212 -0.487598
0.239441 0.754045 -0.487635
0.243298 0.755387 -0.487871
0.247420 0.755666 -0.487604
0.251710 0.755275 -0.487012
0.256174 0.754125 -0.486058
0.260264 0.755055 -0.486007
0.264244 0.756783 -0.486288
0.268907 0.754894 -0.484942
0.273376 0.754144 -0.484084
0.277383 0.756219 -0.484460
0.281546 0.757564 -0.484495
0.285774 0.758673 -0.484410
0.290333 0.757763 -0.483421
0.294687 0.758244 -0.483035
0.299164 0.757954 -0.482300
0.303450 0.759085 -0.482181
0.307967 0.758578 -0.481336
0.312443 0.758380 -0.480622
0.317101 0.756673 -0.479246
0.321365 0.758200 -0.479277
0.325500 0.761029 -0.479870
0.330093 0.759792 -0.478695
0.334740 0.757852 -0.477216
0.339059 0.759091 -0.477117
0.343539 0.758651 -0.476292
0.347854 0.760016 -0.476249
0.352335 0.759435 -0.475369
0.356706 0.760144 -0.475049
0.361111 0.760378 -0.474528
0.365553 0.759970 -0.473736
0.369989 0.759498 -0.472923
0.374395 0.759343 -0.472251
0.378727 0.760510 -0.472149
0.383073 0.761481 -0.471968
0.387434 0.762131 -0.471656
0.391805 0.762517 -0.471237
0.396201 0.761917 -0.470407
0.400576 0.761696 -0.469745
0.404925 0.762358 -0.469463
0.409280 0.762632 -0.469024
0.413631 0.763062 -0.468657
0.417980 0.763698 -0.468383
0.422329 0.763771 -0.467879
0.426660 0.761242 -0.466293
0.430989 0.761461 -0.465866
0.435334 0.762749 -0.465892
0.439713 0.765323 -0.466460
0.444056 0.765609 -0.466080
0.448393 0.765699 -0.465623
0.452746 0.766314 -0.465392
0.457049 0.765593 -0.464613
0.461430 0.766817 -0.464647
0.465679 0.765215 -0.463517
0.470029 0.765741 -0.463275
0.474466 0.767656 -0.463611
0.478845 0.768406 -0.463472
0.483121 0.767578 -0.462688
0.487432 0.767342 -0.462155
0.491785 0.767660 -0.461856
0.496078 0.767223 -0.461252
0.500371 0.766825 -0.460670
0.504771 0.767589 -0.460570
0.509245 0.769010 -0.460744
0.513800 0.771051 -0.461175
0.518260 0.772022 -0.461173
0.522549 0.771398 -0.460524
0.526758 0.770142 -0.459625
0.531116 0.770157 -0.459249
0.535421 0.769735 -0.458700
0.539902 0.770628 -0.458690
0.544364 0.771292 -0.458591
0.548821 0.771852 -0.458454
0.553328 0.772682 -0.458430
0.557941 0.774114 -0.458653
0.562434 0.774672 -0.458527
0.566625 0.773331 -0.457639
0.570960 0.772891 -0.457119
0.575249 0.772180 -0.456495
0.579709 0.772432 -0.456262
0.584281 0.773236 -0.456256
0.588757 0.773463 -0.456021
0.593208 0.773521 -0.455721
0.597672 0.773602 -0.455436
0.602127 0.773604 -0.455122
0.606790 0.774562 -0.455194
0.611491 0.775617 -0.455308
0.616133 0.776322 -0.455286
0.620657 0.776436 -0.455031
0.625087 0.776099 -0.454599
0.629653 0.776322 -0.454395
0.634270 0.776713 -0.454261
0.639011 0.777554 -0.454308
0.643644 0.777895 -0.454161
0.648084 0.777430 -0.453697
0.653050 0.778962 -0.454028
0.657294 0.777689 -0.453250
0.661666 0.776899 -0.452669
0.666551 0.777955 -0.452821
0.671429 0.778912 -0.452937
0.676436 0.780247 -0.453206
0.681106 0.780342 -0.452987
0.686051 0.781320 -0.453121
0.691142 0.782710 -0.453420
0.695638 0.782083 -0.452927
0.700190 0.781617 -0.452502
0.704743 0.781130 -0.452071
0.709936 0.782598 -0.452414
0.714559 0.782250 -0.452046
0.719366 0.782422 -0.451886
0.723941 0.781865 -0.451444
0.728638 0.781641 -0.451137
0.734109 0.783590 -0.451685
0.739521 0.785274 -0.452132
0.744164 0.784742 -0.451716
0.748818 0.784214 -0.451305
0.753927 0.784880 -0.451365
0.759093 0.785637 -0.451465
0.764099 0.785915 -0.451382
0.768800 0.785357 -0.450976
0.773302 0.784269 -0.450369
0.778422 0.784714 -0.450364
0.783539 0.785092 -0.450338
0.789042 0.786357 -0.450662
0.794258 0.786855 -0.450692
0.799704 0.787841 -0.450916
0.805000 0.788405 -0.450980
0.810042 0.788321 -0.450798
0.814952 0.787893 -0.450487
0.820017 0.787780 -0.450304
0.825308 0.788121 -0.450302
0.831255 0.789844 -0.450843
0.836477 0.789907 -0.450745
0.841412 0.789307 -0.450395
0.846666 0.789344 -0.450298
0.852048 0.789598 -0.450291
0.857699 0.790349 -0.450483
0.863408 0.791147 -0.450699
0.869266 0.792174 -0.451011
0.874404 0.791697 -0.450745
0.880345 0.792751 -0.451079
0.885076 0.791381 -0.450482
0.890616 0.791539 -0.450482
0.896141 0.791610 -0.450456
0.901618 0.791533 -0.450379
0.907085 0.791383 -0.450281
0.912941 0.791891 -0.450446
0.918491 0.791779 -0.450377
0.924170 0.791841 -0.450382
0.930540 0.793063 -0.450844
0.935966 0.792549 -0.450642
0.942421 0.793767 -0.451116
0.948511 0.794273 -0.451323
0.954283 0.794168 -0.451301
0.961232 0.795975 -0.452026
0.967677 0.796847 -0.452396
0.973225 0.796170 -0.452175
0.978899 0.795649 -0.452021
0.985326 0.796284 -0.452321
0.991319 0.796155 -0.452332
0.998029 0.797090 -0.452763
1.005215 0.798682 -0.453453
1.010684 0.797544 -0.453093
1.016645 0.797115 -0.453013
1.025362 0.800776 -0.454524
1.031126 0.799907 -0.454285
1.037107 0.799318 -0.454157
1.043929 0.799908 -0.454492
1.049569 0.798724 -0.454141
1.056636 0.799546 -0.454571
1.064167 0.800952 -0.455230
1.070733 0.800928 -0.455334
1.077102 0.800583 -0.455314
1.083287 0.799945 -0.455179
1.090407 0.800545 -0.455523
1.098328 0.802166 -0.456261
1.103813 0.800479 -0.455707
1.110643 0.800562 -0.455836
1.118800 0.802342 -0.456618
1.124759 0.801225 -0.456263
1.131800 0.801491 -0.456436
1.138675 0.801523 -0.456506
1.147075 0.803457 -0.457303
1.152950 0.802211 -0.456846
1.159584 0.801920 -0.456743
1.167073 0.802682 -0.457031
1.174638 0.803531 -0.457333
1.180984 0.802921 -0.457043
1.188957 0.804273 -0.457493
1.195632 0.804100 -0.457324
1.201360 0.802859 -0.456712
1.210027 0.805074 -0.457416
1.217509 0.805935 -0.457562
1.220945 0.802230 -0.455903
1.226238 0.800732 -0.455070
1.232895 0.800840 -0.454829
1.243769 0.805688 -0.456391
1.246485 0.801540 -0.454431
1.253645 0.802381 -0.454370
1.259849 0.802243 -0.453894
1.265664 0.801760 -0.453252
1.269156 0.798880 -0.451650
1.274253 0.797821 -0.450718
1.285784 0.803633 -0.452392
1.292033 0.803920 -0.451905
1.292217 0.797982 -0.449002
1.312579 0.813033 -0.454093
1.306465 0.800818 -0.448734
0.185925 0.745297 -0.489628
0.189278 0.745314 -0.489752
0.192641 0.745492 -0.489920
0.195969 0.746004 -0.490211
0.198794 0.748664 -0.491448
0.201920 0.750437 -0.492252
0.205584 0.750344 -0.492176
0.209569 0.749165 -0.491575
0.213143 0.749834 -0.491783
0.216719 0.750728 -0.492061
0.220452 0.751192 -0.492111
0.224207 0.751785 -0.492189
0.228214 0.751489 -0.491832
0.231886 0.752900 -0.492218
0.235787 0.753504 -0.492207
0.239665 0.754440 -0.492316
0.243661 0.755034 -0.492242
0.247699 0.755629 -0.492139
0.252120 0.754482 -0.491224
0.256349 0.754447 -0.490786
0.260535 0.754798 -0.490497
0.264713 0.755355 -0.490277
0.268935 0.755839 -0.490003
0.273612 0.753845 -0.488598
0.277789 0.754832 -0.488512
0.281694 0.757670 -0.489235
0.285884 0.758977 -0.489256
0.290469 0.757856 -0.488179
0.295108 0.756361 -0.486926
0.299523 0.756409 -0.486349
0.303782 0.757656 -0.486296
0.308068 0.758834 -0.486203
0.312810 0.756524 -0.484559
0.317272 0.756356 -0.483859
0.321258 0.760274 -0.484958
0.325738 0.760102 -0.484248
0.330236 0.759733 -0.483450
0.334708 0.759556 -0.482737
0.339251 0.758588 -0.481677
0.343629 0.759291 -0.481351
0.348101 0.758918 -0.480556
0.352436 0.760151 -0.480465
0.356788 0.761246 -0.480315
0.361135 0.762476 -0.480226
0.365659 0.761085 -0.479003
0.370153 0.759833 -0.477847
0.374559 0.759848 -0.477246
0.378911 0.760835 -0.477070
0.383284 0.761397 -0.476716
0.387691 0.761086 -0.475991
0.392076 0.761127 -0.475425
0.396433 0.761920 -0.475187
0.400806 0.762107 -0.474696
0.405185 0.761767 -0.473986
0.409538 0.762622 -0.473794
0.413897 0.763052 -0.473427
0.418256 0.763519 -0.473082
0.422613 0.763826 -0.472675
0.426957 0.762121 -0.471422
0.431286 0.761100 -0.470467
