ply
format ascii 1.0
comment ---
element vertex 1771
property float x
property float y
property float z
element face 0
property list uchar uint vertex_indices
end_header
0.977290 0.825599 0.101127
0.984197 0.826131 0.101053
0.989637 0.824754 0.100828
0.996585 0.825210 0.100748
1.003119 0.825085 0.100621
1.008920 0.824005 0.100419
1.017449 0.826171 0.100472
1.025433 0.827578 0.100465
1.033684 0.829207 0.100474
1.038697 0.826936 0.100177
1.049300 0.831134 0.100386
1.055550 0.830170 0.100190
1.065127 0.832945 0.100285
1.071932 0.832461 0.100126
1.077873 0.830943 0.099886
1.085884 0.831670 0.099820
1.094725 0.833220 0.099817
1.101315 0.832208 0.099615
1.109308 0.832649 0.099525
1.116803 0.832465 0.099386
1.127431 0.835517 0.099495
1.133127 0.833256 0.099196
1.141552 0.833785 0.099109
1.149220 0.833438 0.098955
1.159440 0.835610 0.098993
1.170472 0.838470 0.099081
1.178257 0.837938 0.098910
1.183999 0.835299 0.098579
1.191552 0.834393 0.098380
1.203375 0.837562 0.098486
1.209393 0.834986 0.098159
1.224161 0.840710 0.098455
1.222283 0.830504 0.097554
1.239314 0.838090 0.097986
1.252496 0.841868 0.098131
1.258651 0.839028 0.097780
1.270414 0.841248 0.097805
1.278679 0.840180 0.097584
1.290786 0.842467 0.097611
1.299320 0.841463 0.097393
1.309198 0.841566 0.097255
1.318536 0.841113 0.097075
1.333200 0.845154 0.097223
1.342742 0.844687 0.097038
1.353346 0.845048 0.096913
1.366080 0.847106 0.096909
1.376519 0.847166 0.096757
1.389613 0.849335 0.096757
1.399829 0.849081 0.096578
1.410343 0.849025 0.096413
1.419563 0.847903 0.096168
1.432865 0.849985 0.096152
1.445580 0.851548 0.096096
1.457451 0.852418 0.095988
1.465791 0.850567 0.095684
1.476469 0.850526 0.095507
1.486651 0.850128 0.095302
1.494212 0.847807 0.094961
0.202143 0.805616 0.112146
0.208239 0.782245 0.109856
0.213489 0.765759 0.108216
0.216766 0.768636 0.108397
0.220366 0.768805 0.108321
0.223977 0.769370 0.108281
0.227713 0.768984 0.108149
0.231416 0.769441 0.108094
0.233929 0.786397 0.109578
0.237934 0.784667 0.109314
0.242455 0.775159 0.108325
0.246263 0.776392 0.108336
0.249697 0.784927 0.109024
0.253507 0.788004 0.109203
0.257695 0.783803 0.108707
0.262170 0.771944 0.107502
0.266024 0.774289 0.107612
0.269950 0.775259 0.107594
0.273926 0.774933 0.107457
0.277905 0.774463 0.107306
0.281877 0.774223 0.107177
0.285808 0.777142 0.107338
0.289789 0.776925 0.107210
0.293765 0.777422 0.107149
0.297743 0.778636 0.107152
0.301723 0.778892 0.107069
0.305733 0.781769 0.107224
0.309715 0.781678 0.107110
0.313649 0.779618 0.106816
0.317738 0.784389 0.107144
0.321702 0.783873 0.106992
0.325749 0.785943 0.107074
0.329763 0.786881 0.107054
0.333451 0.780587 0.106382
0.337566 0.784074 0.106593
0.341439 0.782656 0.106362
0.345398 0.782975 0.106288
0.349189 0.780743 0.105986
0.353438 0.785465 0.106308
0.357866 0.792045 0.106795
0.361546 0.788407 0.106368
0.365143 0.784239 0.105896
0.368844 0.781721 0.105572
0.373078 0.785209 0.105783
0.376970 0.784892 0.105656
0.380582 0.781883 0.105290
0.384816 0.784946 0.105463
0.388759 0.785166 0.105385
0.392554 0.784109 0.105194
0.396586 0.785072 0.105182
0.400447 0.784613 0.105044
0.404343 0.784444 0.104933
0.408488 0.786110 0.104983
0.412419 0.786131 0.104889
0.416289 0.785706 0.104755
0.420086 0.784810 0.104581
0.423963 0.784463 0.104456
0.428002 0.785133 0.104419
0.432201 0.786709 0.104461
0.436462 0.788539 0.104526
0.440914 0.791343 0.104675
0.445441 0.794386 0.104844
0.450053 0.797706 0.105036
0.453139 0.792702 0.104507
0.456873 0.791278 0.104289
0.460270 0.788181 0.103926
0.464187 0.787760 0.103796
0.468085 0.787235 0.103656
0.472035 0.786944 0.103537
0.478795 0.799587 0.104530
0.483763 0.803552 0.104775
0.487739 0.802923 0.104625
0.490970 0.799063 0.104198
0.495013 0.798760 0.104077
0.498443 0.795882 0.103736
0.502546 0.795812 0.103635
0.506030 0.793234 0.103320
0.510042 0.792778 0.103186
0.514496 0.793991 0.103194
0.520209 0.799851 0.103596
0.524780 0.801235 0.103617
0.528856 0.800725 0.103478
0.533422 0.801938 0.103484
0.537904 0.802770 0.103458
0.540907 0.798438 0.102996
0.544130 0.794955 0.102607
0.545622 0.785788 0.101740
0.552972 0.796029 0.102504
0.556543 0.793742 0.102215
0.563847 0.803291 0.102918
0.567949 0.802521 0.102756
0.571406 0.799757 0.102427
0.573673 0.793440 0.101802
0.578696 0.795459 0.101873
0.582422 0.793579 0.101619
0.587280 0.794971 0.101636
0.591077 0.793265 0.101397
0.601342 0.809652 0.102654
0.608620 0.817284 0.103184
0.614186 0.820003 0.103307
0.619952 0.823137 0.103462
0.622464 0.817544 0.102899
0.621504 0.803026 0.101604
0.623351 0.796070 0.100932
0.628087 0.796572 0.100873
0.633494 0.798694 0.100945
0.637829 0.798073 0.100793
0.642568 0.798407 0.100718
0.647697 0.799623 0.100715
0.652066 0.798965 0.100559
0.657006 0.799617 0.100509
0.661433 0.799022 0.100357
0.669498 0.806689 0.100874
0.678663 0.816595 0.101570
0.683100 0.815705 0.101391
0.685709 0.810785 0.100888
0.690256 0.810141 0.100730
0.692806 0.805194 0.100226
0.695952 0.801583 0.099830
0.701304 0.802627 0.099807
0.706576 0.803438 0.099765
0.712249 0.805005 0.099783
0.722633 0.815991 0.100550
0.727390 0.815467 0.100399
0.726469 0.803724 0.099356
0.731142 0.803102 0.099198
0.735985 0.802778 0.099063
0.744553 0.809510 0.099486
0.753597 0.816944 0.099962
0.764137 0.826956 0.100639
0.770094 0.828265 0.100628
0.768442 0.815650 0.099523
0.774475 0.817104 0.099524
0.783070 0.823045 0.099875
0.790500 0.826761 0.100050
0.794551 0.824465 0.099755
0.799140 0.823101 0.099533
0.801039 0.817132 0.098953
0.807225 0.818482 0.098942
0.811527 0.816611 0.098681
0.813945 0.811619 0.098178
0.821579 0.815218 0.098340
0.828521 0.817576 0.098404
0.833434 0.816591 0.098210
0.840144 0.818428 0.098233
0.844970 0.817225 0.098022
0.848155 0.813450 0.097614
0.853523 0.813061 0.097465
0.863822 0.820138 0.097885
0.873215 0.825663 0.098184
0.878906 0.825504 0.098050
0.882590 0.822332 0.097687
0.886033 0.818820 0.097298
0.892277 0.819386 0.097218
0.897890 0.818984 0.097065
0.903589 0.818659 0.096917
0.911554 0.821477 0.097004
0.918168 0.822306 0.096941
0.927591 0.826942 0.097162
0.932440 0.825183 0.096904
0.939084 0.825833 0.096825
0.943770 0.823790 0.096545
0.950117 0.823934 0.096428
0.956220 0.823698 0.096282
0.962686 0.823879 0.096166
0.971009 0.826395 0.096222
0.977742 0.826771 0.096119
0.983397 0.825714 0.095910
0.988712 0.824189 0.095666
0.994301 0.822970 0.095444
1.003360 0.825980 0.095531
1.011239 0.827431 0.095503
1.018036 0.827480 0.095372
1.024639 0.827231 0.095218
1.032674 0.828614 0.095182
1.039293 0.828240 0.095018
1.047304 0.829421 0.094965
1.054570 0.829649 0.094843
1.062673 0.830755 0.094782
1.070597 0.831564 0.094700
1.076222 0.829706 0.094425
1.085226 0.831557 0.094415
1.094129 0.833182 0.094387
1.101172 0.832672 0.094206
1.108763 0.832681 0.094062
1.116229 0.832474 0.093901
1.126676 0.835345 0.093956
1.135634 0.836514 0.093889
1.142638 0.835543 0.093671
1.149236 0.834085 0.093418
1.160732 0.837562 0.093508
1.168605 0.837222 0.093331
1.177103 0.837423 0.093190
1.183360 0.835305 0.092888
1.189324 0.832846 0.092561
1.198185 0.833158 0.092425
1.211538 0.837699 0.092577
1.216826 0.834361 0.092187
1.232491 0.840802 0.092465
1.237107 0.836678 0.092019
1.250864 0.841014 0.092149
1.257264 0.838415 0.091805
1.268161 0.839861 0.091733
1.279771 0.841829 0.091695
1.290194 0.842607 0.091575
1.299132 0.841967 0.091357
1.308477 0.841607 0.091157
1.318284 0.841568 0.090976
1.331291 0.844193 0.090971
1.341964 0.844705 0.090823
1.350120 0.843013 0.090527
1.366163 0.847859 0.090660
1.377888 0.848981 0.090546
1.387491 0.848287 0.090310
1.399605 0.849588 0.090203
1.410187 0.849589 0.090009
1.423110 0.851411 0.089931
1.431183 0.849351 0.089601
1.439449 0.847457 0.089280
1.456561 0.852423 0.089398
1.464753 0.850462 0.089070
1.472809 0.848438 0.088737
1.484441 0.849154 0.088578
1.485198 0.841774 0.087906
0.207121 0.759860 0.104202
0.213274 0.767285 0.104688
0.216915 0.766478 0.104523
0.220330 0.768538 0.104612
0.223997 0.768441 0.104507
0.227704 0.768347 0.104400
0.231449 0.768225 0.104290
0.233478 0.791576 0.106263
0.237591 0.788630 0.105897
0.241842 0.783555 0.105341
0.246421 0.772651 0.104270
0.250270 0.773369 0.104228
0.254251 0.771970 0.103998
0.258202 0.771216 0.103825
0.261630 0.783283 0.104780
0.265667 0.782073 0.104564
0.269726 0.779990 0.104273
0.273515 0.787444 0.104816
0.277653 0.782396 0.104265
0.281655 0.782556 0.104170
0.285650 0.783416 0.104136
0.289647 0.785007 0.104165
0.293661 0.784880 0.104045
0.297688 0.792113 0.104563
0.301706 0.788790 0.104166
0.305692 0.785866 0.103804
0.309613 0.781038 0.103278
0.313753 0.788739 0.103835
0.317674 0.785575 0.103455
0.321654 0.785443 0.103336
0.325666 0.786391 0.103311
0.329722 0.788338 0.103371
0.333418 0.782096 0.102730
0.337294 0.780731 0.102508
0.341074 0.777938 0.102165
0.345150 0.780637 0.102291
0.349092 0.780923 0.102212
0.353271 0.784649 0.102425
0.357444 0.787881 0.102595
0.361498 0.789264 0.102608
0.364759 0.781039 0.101809
0.368576 0.780024 0.101621
0.372668 0.782096 0.101694
0.376508 0.781405 0.101534
0.380458 0.781881 0.101472
0.384574 0.783864 0.101537
0.388876 0.787353 0.101728
0.392816 0.787461 0.101636
0.396306 0.783844 0.101232
0.400208 0.783770 0.101125
0.404211 0.784463 0.101083
0.408418 0.786604 0.101161
0.412354 0.786653 0.101064
0.416126 0.785553 0.100873
0.420062 0.785595 0.100776
0.424015 0.785734 0.100688
0.427990 0.785971 0.100607
0.431952 0.786093 0.100518
0.436154 0.787608 0.100543
0.440509 0.789889 0.100630
0.445962 0.798180 0.101211
0.450212 0.799439 0.101214
0.453610 0.796059 0.100836
0.456395 0.789625 0.100209
0.460155 0.788414 0.100010
0.464008 0.787684 0.099850
0.467881 0.787049 0.099699
0.471786 0.786551 0.099558
0.479191 0.802204 0.100730
0.483977 0.805303 0.100879
0.487808 0.804008 0.100672
0.491174 0.800716 0.100304
0.495144 0.800075 0.100150
0.499459 0.800849 0.100111
0.502613 0.796828 0.099685
0.505823 0.793142 0.099287
0.509771 0.792445 0.099130
0.512738 0.787963 0.098669
0.519871 0.799301 0.099475
0.523998 0.799059 0.099353
0.528392 0.799752 0.099306
0.533206 0.801877 0.099372
0.537490 0.802020 0.099279
0.541172 0.800045 0.099019
0.543196 0.792479 0.098315
0.546051 0.787890 0.097849
0.552275 0.794428 0.098263
0.556608 0.794622 0.098174
0.562577 0.799944 0.098489
0.568016 0.803399 0.098656
0.570625 0.798027 0.098129
0.574441 0.796415 0.097897
0.578479 0.795470 0.097718
0.582737 0.795149 0.097587
0.586633 0.793753 0.097372
0.591187 0.794221 0.097303
0.598128 0.801308 0.097747
0.607078 0.813687 0.098601
0.612482 0.816026 0.098672
0.617651 0.817623 0.098686
0.622060 0.817123 0.098537
0.622021 0.805006 0.097491
0.622063 0.793385 0.096487
0.627550 0.795834 0.096566
0.632941 0.797932 0.096618
0.637250 0.797262 0.096457
0.641400 0.796180 0.096264
0.646772 0.798016 0.096294
0.651635 0.798556 0.096224
0.656227 0.798404 0.096101
0.661039 0.798720 0.096013
0.668719 0.805523 0.096416
0.676709 0.812812 0.096854
0.680416 0.810352 0.096553
0.682066 0.803393 0.095914
0.686774 0.803196 0.095784
0.693996 0.808343 0.096056
0.694664 0.799454 0.095273
0.701246 0.803100 0.095431
0.705854 0.802542 0.095273
0.710415 0.801854 0.095105
0.721712 0.814734 0.095947
0.728000 0.817282 0.096017
0.727873 0.807082 0.095141
0.731167 0.803738 0.094774
0.736654 0.804653 0.094723
0.744035 0.809114 0.094933
0.756326 0.822679 0.095811
0.763360 0.826108 0.095939
0.759506 0.809362 0.094588
0.771328 0.821496 0.095354
0.780593 0.828716 0.095757
0.786923 0.830505 0.095761
0.793185 0.832089 0.095750
0.795947 0.827493 0.095289
0.799136 0.823684 0.094886
0.803419 0.821781 0.094621
0.810693 0.824924 0.094721
0.813846 0.821070 0.094315
0.814244 0.812693 0.093584
0.819785 0.812864 0.093469
0.827223 0.816057 0.093569
0.833157 0.816729 0.093488
0.839882 0.818595 0.093491
0.846511 0.820227 0.093477
0.848755 0.814960 0.092972
0.855128 0.816108 0.092922
0.860904 0.816276 0.092801
0.867522 0.817662 0.092766
0.874626 0.819698 0.092776
0.880564 0.819920 0.092657
0.886703 0.820383 0.092555
0.894335 0.822950 0.092598
0.899431 0.821776 0.092380
0.906139 0.822866 0.092318
0.913063 0.824184 0.092272
0.919703 0.825030 0.092191
0.927501 0.827405 0.092215
0.934048 0.827968 0.092113
0.937568 0.824367 0.091724
0.942333 0.822448 0.091450
0.948917 0.822926 0.091340
0.955298 0.823070 0.091207
0.962350 0.824029 0.091128
0.969709 0.825305 0.091070
0.976133 0.825304 0.090924
0.982951 0.825739 0.090806
0.988248 0.824196 0.090554
0.996173 0.825886 0.090519
1.005108 0.828724 0.090560
1.010132 0.826673 0.090271
1.016878 0.826676 0.090120
1.025514 0.828873 0.090113
1.031802 0.828177 0.089913
1.039223 0.828755 0.089796
1.047321 0.830040 0.089725
1.053320 0.828808 0.089486
1.059496 0.827729 0.089257
1.069211 0.830600 0.089286
1.078193 0.832521 0.089250
1.086504 0.833583 0.089156
1.093515 0.833116 0.088962
1.101049 0.833148 0.088799
1.108061 0.832535 0.088593
1.117470 0.834414 0.088546
1.125901 0.835140 0.088423
1.137148 0.838723 0.088481
1.143493 0.837052 0.088201
1.149810 0.835297 0.087914
1.159476 0.836904 0.087841
1.166973 0.836197 0.087618
1.176057 0.837003 0.087490
1.182994 0.835570 0.087219
1.189723 0.833867 0.086930
1.202675 0.838161 0.087014
1.210609 0.837440 0.086782
1.218771 0.836854 0.086558
1.231005 0.840038 0.086565
1.238377 0.838509 0.086278
1.246815 0.837902 0.086047
1.256750 0.838588 0.085893
1.268660 0.840965 0.085839
1.280273 0.842934 0.085758
1.289362 0.842519 0.085530
1.296792 0.840553 0.085206
1.306655 0.840669 0.085007
1.318398 0.842326 0.084897
1.329739 0.843524 0.084757
1.343668 0.846820 0.084739
1.351495 0.844837 0.084405
1.360955 0.844184 0.084149
1.376683 0.848660 0.084192
1.386615 0.848244 0.083945
1.400495 0.850986 0.083880
1.409134 0.849420 0.083563
1.420015 0.849628 0.083348
1.433590 0.851927 0.083250
1.443856 0.851576 0.082999
1.447629 0.846195 0.082462
1.464514 0.850959 0.082499
1.474506 0.850406 0.082235
1.483980 0.849486 0.081949
1.505300 0.857442 0.082157
0.204213 0.785681 0.102777
0.208784 0.775923 0.101850
0.213094 0.768437 0.101118
0.216768 0.767328 0.100927
0.220278 0.768389 0.100919
0.223881 0.769001 0.100871
0.227656 0.768111 0.100695
0.231334 0.768818 0.100652
0.234754 0.773511 0.100945
0.237844 0.783977 0.101721
0.241979 0.780330 0.101307
0.246061 0.777400 0.100954
0.250136 0.774441 0.100598
0.254150 0.772472 0.100326
0.258089 0.772016 0.100180
0.261665 0.780511 0.100780
0.265644 0.780484 0.100669
0.269639 0.780160 0.100532
0.273570 0.782276 0.100598
0.277505 0.785261 0.100735
0.281496 0.786773 0.100749
0.285527 0.786299 0.100600
0.289549 0.786132 0.100475
0.293555 0.790437 0.100719
0.297592 0.790826 0.100641
0.301621 0.790195 0.100478
0.305617 0.787650 0.100159
0.309593 0.785666 0.099887
0.313356 0.774918 0.098900
0.317581 0.785897 0.099688
0.321485 0.783314 0.099369
0.325589 0.787169 0.099574
0.329690 0.790177 0.099710
0.333313 0.782144 0.098950
0.337211 0.781229 0.098769
0.341135 0.781046 0.098647
0.345076 0.781256 0.098558
0.349021 0.781581 0.098477
0.353088 0.783689 0.098541
0.357307 0.787623 0.098750
0.361423 0.789831 0.098820
0.365399 0.790152 0.098740
0.368512 0.780674 0.097876
0.372692 0.783687 0.098011
0.376532 0.782943 0.097847
0.380226 0.780856 0.097576
0.384858 0.787729 0.098017
0.389187 0.791316 0.098196
0.393059 0.790688 0.098040
0.396405 0.785771 0.097547
0.400074 0.783784 0.097285
0.404105 0.784705 0.097253
0.408247 0.786375 0.097280
0.412204 0.786595 0.097193
0.415982 0.785546 0.097006
0.419788 0.784735 0.096838
0.423789 0.785217 0.096771
0.427929 0.786524 0.096769
0.431748 0.785763 0.096605
0.435538 0.784852 0.096430
0.440431 0.790330 0.096750
0.445591 0.796985 0.097160
0.450012 0.799219 0.097227
0.453293 0.795226 0.096812
0.456279 0.789863 0.096293
0.460053 0.788725 0.096100
0.464043 0.788676 0.095991
0.467845 0.787680 0.095809
0.471906 0.787918 0.095721
0.478186 0.798363 0.096414
0.482464 0.799261 0.096376
0.486643 0.799641 0.096297
0.490336 0.797860 0.096054
0.495456 0.802164 0.096273
0.498658 0.798282 0.095870
0.502335 0.796444 0.095623
0.505528 0.792704 0.095232
0.508992 0.790124 0.094930
0.513728 0.792491 0.095000
0.516939 0.788971 0.094628
0.522288 0.793451 0.094856
0.526429 0.793334 0.094738
0.531864 0.797794 0.094962
0.535966 0.797383 0.094822
0.539922 0.796437 0.094641
0.543137 0.792966 0.094272
0.545936 0.788183 0.093807
0.551618 0.792954 0.094050
0.557169 0.797103 0.094246
0.562468 0.800274 0.094369
0.565817 0.797217 0.094031
0.569664 0.795740 0.093810
0.574040 0.795865 0.093706
0.578598 0.796477 0.093638
0.582532 0.795202 0.093432
0.586765 0.794780 0.093287
0.591253 0.795051 0.093193
0.598614 0.803317 0.093681
0.607059 0.814288 0.094362
0.611379 0.813676 0.094200
0.614011 0.808512 0.093708
0.618722 0.808945 0.093621
0.622792 0.807648 0.093410
0.622550 0.795261 0.092400
0.626429 0.793613 0.092165
0.632725 0.798012 0.092363
0.636971 0.797192 0.092186
0.641546 0.797149 0.092064
0.646592 0.798197 0.092020
0.651409 0.798632 0.091931
0.655912 0.798275 0.091786
0.661156 0.799598 0.091759
0.667924 0.804321 0.091971
0.679338 0.819347 0.092909
0.682850 0.816377 0.092575
0.681373 0.802474 0.091473
0.684023 0.797826 0.091024
0.689763 0.799871 0.091044
0.694664 0.800049 0.090933
0.700998 0.803179 0.091026
0.705475 0.802352 0.090843
0.709216 0.799997 0.090554
0.722726 0.817381 0.091631
0.726745 0.815378 0.091364
0.733315 0.818408 0.091443
0.733437 0.808753 0.090649
0.738502 0.808803 0.090523
0.749585 0.820281 0.091179
0.757153 0.824834 0.091358
0.760267 0.820940 0.090959
0.762054 0.814643 0.090397
0.764617 0.809856 0.089940
0.780846 0.829768 0.091155
0.786622 0.830564 0.091072
0.787816 0.823215 0.090440
0.798576 0.832673 0.090939
0.796017 0.818890 0.089876
0.797970 0.813060 0.089348
0.808566 0.821919 0.089803
0.813414 0.820932 0.089598
0.813732 0.812425 0.088894
0.819880 0.813597 0.088833
0.826374 0.815261 0.088803
0.832112 0.815631 0.088687
0.840420 0.820030 0.088835
0.847674 0.822636 0.088864
0.854214 0.824031 0.088811
0.857047 0.819641 0.088380
0.861134 0.817204 0.088077
0.866160 0.816185 0.087866
0.874872 0.820644 0.088009
0.882810 0.823823 0.088067
0.891199 0.827549 0.088159
0.896487 0.826652 0.087952
0.903685 0.828467 0.087917
0.910932 0.830263 0.087881
0.917033 0.830359 0.087734
0.924080 0.831718 0.087667
0.929363 0.830560 0.087438
0.934762 0.829529 0.087218
0.936284 0.823208 0.086663
0.941090 0.821360 0.086391
0.947209 0.821236 0.086226
0.954891 0.823115 0.086186
0.960936 0.822767 0.086005
0.967312 0.822792 0.085847
0.972638 0.821414 0.085601
0.980711 0.823483 0.085566
0.990559 0.827682 0.085661
0.995317 0.825407 0.085357
1.002684 0.826325 0.085247
1.009500 0.826488 0.085089
1.017319 0.827797 0.085000
1.024949 0.828786 0.084890
1.030571 0.827305 0.084628
1.036297 0.825905 0.084371
1.046019 0.829116 0.084390
1.052971 0.828999 0.084207
1.059018 0.827775 0.083957
1.070216 0.832334 0.084049
1.077849 0.832732 0.083892
1.085646 0.833229 0.083738
1.093301 0.833481 0.083569
1.101821 0.834592 0.083448
1.109619 0.834821 0.083273
1.116503 0.833984 0.083034
1.123195 0.832875 0.082779
1.133498 0.835497 0.082737
1.142918 0.837064 0.082631
1.149124 0.835200 0.082327
1.158457 0.836476 0.082200
1.164225 0.834031 0.081860
1.175593 0.837153 0.081833
1.183632 0.836821 0.081608
1.191458 0.836190 0.081365
1.197732 0.833967 0.081030
1.210014 0.837488 0.081014
1.217301 0.836073 0.080721
1.230254 0.839955 0.080718
1.236959 0.837807 0.080380
1.249011 0.840572 0.080309
1.258079 0.840444 0.080077
1.268617 0.841561 0.079910
1.279278 0.842676 0.079739
1.288124 0.842053 0.079473
1.296752 0.841160 0.079190
1.306844 0.841477 0.078969
1.321120 0.845335 0.078933
1.325322 0.840375 0.078430
1.340980 0.845185 0.078437
1.351064 0.845128 0.078186
1.364600 0.847883 0.078079
1.372321 0.845711 0.077715
1.388251 0.850246 0.077693
1.398953 0.850399 0.077444
1.409091 0.850050 0.077168
1.417991 0.848684 0.076840
1.435580 0.854165 0.076853
1.441308 0.850255 0.076396
1.449618 0.848403 0.076042
1.463807 0.851089 0.075912
1.475551 0.851872 0.075687
1.486571 0.852110 0.075435
1.497361 0.852194 0.075175
0.205077 0.777262 0.098356
0.208307 0.779801 0.098462
0.212936 0.769329 0.097519
0.216628 0.768069 0.097317
0.220145 0.769079 0.097297
0.223744 0.769758 0.097248
0.227526 0.768813 0.097069
0.231283 0.768534 0.096942
0.234533 0.775463 0.097389
0.238332 0.775907 0.097318
0.242138 0.776710 0.097274
0.246041 0.776415 0.097142
0.250054 0.774461 0.096879
0.254030 0.773220 0.096672
0.257990 0.772367 0.096495
0.261838 0.774281 0.096537
0.265590 0.779607 0.096846
0.269555 0.780012 0.096768
0.273514 0.781001 0.096735
0.277464 0.782986 0.096779
0.281414 0.786139 0.096914
0.285431 0.786348 0.096819
0.289456 0.785701 0.096657
0.293479 0.782585 0.096304
0.297475 0.782605 0.096195
0.301481 0.784621 0.096240
0.305509 0.787189 0.096328
0.309498 0.786207 0.096141
0.313426 0.783058 0.095788
0.317201 0.775435 0.095091
0.321339 0.782071 0.095492
0.325479 0.787145 0.095771
0.329525 0.788854 0.095792
0.333198 0.782091 0.095165
0.337119 0.781664 0.095023
0.341064 0.781851 0.094928
0.344994 0.781858 0.094820
0.349026 0.783496 0.094836
0.353037 0.784687 0.094817
0.357171 0.787441 0.094916
0.361402 0.791147 0.095087
0.365391 0.791565 0.095009
0.368709 0.784348 0.094356
0.372304 0.780882 0.093987
0.376137 0.780219 0.093830
0.380199 0.781868 0.093845
0.385383 0.793884 0.094635
0.389362 0.794097 0.094541
0.392964 0.791051 0.094205
0.396456 0.787338 0.093819
0.400200 0.785896 0.093604
0.404035 0.785251 0.093447
0.408114 0.786450 0.093427
0.411970 0.785956 0.093282
0.415912 0.786076 0.093182
0.419703 0.785151 0.093005
0.423533 0.784523 0.092850
0.427581 0.785281 0.092796
0.431441 0.784824 0.092654
0.435388 0.784880 0.092549
0.439812 0.787664 0.092642
0.445259 0.796020 0.093141
0.449534 0.797486 0.093136
0.452994 0.794498 0.092808
0.456035 0.789448 0.092331
0.459888 0.788724 0.092168
0.464051 0.789541 0.092116
0.467979 0.789144 0.091976
0.471774 0.788100 0.091790
0.476981 0.793592 0.092072
0.481091 0.793843 0.091977
0.485722 0.796352 0.092044
0.491451 0.803472 0.092438
0.494463 0.798724 0.091986
0.499168 0.801164 0.092045
0.502324 0.797155 0.091645
0.505745 0.794315 0.091330
0.509513 0.792903 0.091116
0.514149 0.794838 0.091137
0.518047 0.793873 0.090954
0.522104 0.793487 0.090812
0.526267 0.793459 0.090694
0.531583 0.797502 0.090861
0.535407 0.796127 0.090648
0.539581 0.795960 0.090519
0.542941 0.792994 0.090196
0.548248 0.796568 0.090326
0.553540 0.799933 0.090441
0.558936 0.803480 0.090567
0.562767 0.801899 0.090338
0.566770 0.800861 0.090146
0.570319 0.798419 0.089858
0.574168 0.796913 0.089634
0.578075 0.795580 0.089423
0.582354 0.795334 0.089285
0.587010 0.796138 0.089218
0.592057 0.797985 0.089222
0.599431 0.806254 0.089660
0.608032 0.817627 0.090305
0.611405 0.814399 0.089961
0.613530 0.807867 0.089395
0.617322 0.805883 0.089136
0.621884 0.805917 0.089012
0.624779 0.801619 0.088598
0.628912 0.800534 0.088399
0.633659 0.800971 0.088302
0.638032 0.800431 0.088139
0.644442 0.804823 0.088303
0.651702 0.811099 0.088589
0.656376 0.811031 0.088455
0.663562 0.816805 0.088704
0.667082 0.813909 0.088382
0.671445 0.812968 0.088188
0.680342 0.822230 0.088662
0.684316 0.820255 0.088398
0.683569 0.807906 0.087460
0.684781 0.800069 0.086818
0.690293 0.801606 0.086785
0.694920 0.801187 0.086624
0.700629 0.803001 0.086608
0.705088 0.802144 0.086418
0.709095 0.800338 0.086167
0.723099 0.818735 0.087209
0.722297 0.807090 0.086326
0.732265 0.816934 0.086816
0.739134 0.820460 0.086900
0.746092 0.824036 0.086985
0.751704 0.824918 0.086899
0.756271 0.823768 0.086683
0.760888 0.822693 0.086472
0.764349 0.819465 0.086126
0.766515 0.813903 0.085635
0.774654 0.819194 0.085821
0.782340 0.823519 0.085944
0.788708 0.825378 0.085913
0.790236 0.818703 0.085353
0.794178 0.816297 0.085057
0.796365 0.810897 0.084578
0.805658 0.817584 0.084840
0.813023 0.820861 0.084892
0.812568 0.811074 0.084144
0.820380 0.814994 0.084233
0.826414 0.815902 0.084137
0.831345 0.814977 0.083929
0.842710 0.824248 0.084336
0.847135 0.822368 0.084068
0.854333 0.824796 0.084058
0.858321 0.822181 0.083745
0.862542 0.819927 0.083453
0.867126 0.818216 0.083194
0.876114 0.823078 0.083324
0.883300 0.825125 0.083285
0.889389 0.825476 0.083144
0.894972 0.825032 0.082956
0.902606 0.827497 0.082936
0.909366 0.828616 0.082837
0.915542 0.828838 0.082684
0.922088 0.829520 0.082556
0.927854 0.829055 0.082361
0.932256 0.826678 0.082056
0.934696 0.821631 0.081596
0.940329 0.820912 0.081385
0.946357 0.820678 0.081201
0.954169 0.822740 0.081146
0.960379 0.822615 0.080965
0.966438 0.822238 0.080768
0.973518 0.823116 0.080641
0.980020 0.823184 0.080467
0.986645 0.823343 0.080297
0.994919 0.825489 0.080236
1.002112 0.826200 0.080092
1.008322 0.825630 0.079877
1.017305 0.828361 0.079841
1.023631 0.827789 0.079622
1.029069 0.826104 0.079341
1.034372 0.824222 0.079049
1.047237 0.831121 0.079230
1.053577 0.830283 0.078990
1.058917 0.828244 0.078684
1.069129 0.831690 0.078670
1.076138 0.831401 0.078454
1.084254 0.832271 0.078298
1.091645 0.832248 0.078092
1.103645 0.837176 0.078144
1.109303 0.835073 0.077824
1.116086 0.834132 0.077564
1.122048 0.832254 0.077253
1.129552 0.831945 0.077022
1.135517 0.829954 0.076703
1.147727 0.834358 0.076708
1.154775 0.833314 0.076433
1.164130 0.834536 0.076269
1.176625 0.838793 0.076255
1.182282 0.836085 0.075888
1.191481 0.836819 0.075692
1.200724 0.837490 0.075489
1.210556 0.838621 0.075305
1.221244 0.840456 0.075153
1.226500 0.837013 0.074740
1.234768 0.836367 0.074462
1.244046 0.836576 0.074222
1.256171 0.839307 0.074100
1.266869 0.840591 0.073904
1.274017 0.838550 0.073548
1.289545 0.843951 0.073539
1.294981 0.840218 0.073100
1.306200 0.841542 0.072893
1.319145 0.844255 0.072747
1.330186 0.845193 0.072516
1.340159 0.845124 0.072236
1.354626 0.848773 0.072120
1.362772 0.846999 0.071758
1.371734 0.845869 0.071424
1.382077 0.845834 0.071137
1.397872 0.850172 0.071039
1.408524 0.850247 0.070752
1.417505 0.848950 0.070405
1.427987 0.848832 0.070108
1.439440 0.849453 0.069842
1.448521 0.848212 0.069497
1.461886 0.850277 0.069291
1.475550 0.852536 0.069091
1.485148 0.851703 0.068765
1.502304 0.856555 0.068671
0.201126 0.812436 0.097339
0.208316 0.779064 0.094691
0.212925 0.768761 0.093803
0.216602 0.767611 0.093612
0.220158 0.768162 0.093549
0.223705 0.769356 0.093534
0.227361 0.769869 0.093466
0.231205 0.768547 0.093260
0.234326 0.777168 0.093801
0.238207 0.776523 0.093643
0.242018 0.777276 0.093590
0.245964 0.776288 0.093407
0.250048 0.773043 0.093054
0.253820 0.775621 0.093136
0.257905 0.772280 0.092777
0.261916 0.770238 0.092515
0.265451 0.780853 0.093192
0.269411 0.781595 0.093136
0.273548 0.776233 0.092628
0.277350 0.783720 0.093069
0.281301 0.786939 0.093194
0.285325 0.786784 0.093070
0.289358 0.785107 0.092834
0.293389 0.777749 0.092183
0.297357 0.775569 0.091913
0.301353 0.781326 0.092222
0.305411 0.788081 0.092602
0.309441 0.789431 0.092588
0.313390 0.786588 0.092269
0.317279 0.782709 0.091877
0.321253 0.782972 0.091784
0.325394 0.788010 0.092036
0.329508 0.791346 0.092164
0.333100 0.782525 0.091418
0.337016 0.781990 0.091268
0.340964 0.782235 0.091175
0.344880 0.781979 0.091045
0.348743 0.781013 0.090865
0.353067 0.786936 0.091176
0.357226 0.789914 0.091276
0.361285 0.791303 0.091262
0.365277 0.791766 0.091182
0.368964 0.788737 0.090856
0.372474 0.784142 0.090420
0.376258 0.782829 0.090216
0.380106 0.782275 0.090065
0.383757 0.779948 0.089790
0.389322 0.794991 0.090732
0.392868 0.791442 0.090371
0.396359 0.787705 0.089997
0.400319 0.787984 0.089904
0.404452 0.789563 0.089900
0.408339 0.789195 0.089762
0.412156 0.788344 0.089589
0.415980 0.787576 0.089423
0.420238 0.789753 0.089459
0.424716 0.793197 0.089582
0.428829 0.794121 0.089531
0.431893 0.788540 0.089033
0.435987 0.789374 0.088976
0.441106 0.796065 0.089318
0.444902 0.794921 0.089124
0.449522 0.798321 0.089238
0.452879 0.794769 0.088881
0.455692 0.788523 0.088341
0.459687 0.788553 0.088227
0.463886 0.789564 0.088179
0.467917 0.789674 0.088069
0.471739 0.788748 0.087890
0.476836 0.793731 0.088106
0.480919 0.793866 0.087997
0.485991 0.798338 0.088176
0.490810 0.801480 0.088266
0.494565 0.799936 0.088043
0.497544 0.795177 0.087607
0.502776 0.799759 0.087789
0.507017 0.800152 0.087694
0.510869 0.798965 0.087494
0.515212 0.799663 0.087418
0.520146 0.802527 0.087483
0.523936 0.801001 0.087260
0.527431 0.798410 0.086967
0.532315 0.800832 0.087001
0.536641 0.801166 0.086898
0.540133 0.798565 0.086605
0.544316 0.798351 0.086466
0.550522 0.804846 0.086760
0.556920 0.811709 0.087075
0.561418 0.812171 0.086977
0.566105 0.813175 0.086912
0.569837 0.811116 0.086651
0.572607 0.806120 0.086203
0.574289 0.797942 0.085554
0.577831 0.795511 0.085271
0.581744 0.794197 0.085060
0.586855 0.796340 0.085066
0.592896 0.801023 0.085231
0.597782 0.802282 0.085180
0.605989 0.812639 0.085697
0.611903 0.816407 0.085799
0.614574 0.811314 0.085347
0.617566 0.807168 0.084954
0.622358 0.807792 0.084859
0.625680 0.804569 0.084524
0.630270 0.804608 0.084392
0.633885 0.802161 0.084106
0.637772 0.800409 0.083862
0.642610 0.800976 0.083761
0.648689 0.804472 0.083838
0.659158 0.818259 0.084541
0.663673 0.817688 0.084365
0.666227 0.812550 0.083913
0.671299 0.813251 0.083815
0.677567 0.816588 0.083875
0.683046 0.818043 0.083819
0.685776 0.813366 0.083396
0.687802 0.807233 0.082886
0.689628 0.800775 0.082358
0.695045 0.802047 0.082292
0.700186 0.802667 0.082185
0.705074 0.802708 0.082044
0.709568 0.801896 0.081851
0.720237 0.813548 0.082391
0.725968 0.815019 0.082330
0.731164 0.815355 0.082201
0.738880 0.820563 0.082355
0.745453 0.823401 0.082369
0.748296 0.819011 0.081963
0.751923 0.816158 0.081646
0.757473 0.816913 0.081538
0.763949 0.819316 0.081522
0.767775 0.816787 0.081224
0.771344 0.813805 0.080899
0.778338 0.816962 0.080924
0.782757 0.815456 0.080683
0.788150 0.815641 0.080537
0.791302 0.811905 0.080169
0.798479 0.815089 0.080190
0.805419 0.817761 0.080181
0.809556 0.815638 0.079903
0.814548 0.814930 0.079703
0.820168 0.815221 0.079558
0.825433 0.814886 0.079377
0.830940 0.814900 0.079215
0.837171 0.816020 0.079112
0.846169 0.821426 0.079242
0.851063 0.820281 0.079013
0.858123 0.822452 0.078962
0.864103 0.822885 0.078817
0.870245 0.823503 0.078680
0.877548 0.825799 0.078631
0.881217 0.822616 0.078288
0.885495 0.820338 0.077993
0.890604 0.819263 0.077762
0.896942 0.819925 0.077622
0.901389 0.817831 0.077336
0.905864 0.815763 0.077050
0.914444 0.819418 0.077063
0.924394 0.824845 0.077165
0.929368 0.823296 0.076903
0.934568 0.822028 0.076654
0.940240 0.821364 0.076436
0.947330 0.822543 0.076310
0.953928 0.822993 0.076146
0.960476 0.823313 0.075973
0.967236 0.823840 0.075810
0.975046 0.825645 0.075709
0.980357 0.824183 0.075441
0.986167 0.823313 0.075203
0.993895 0.824786 0.075079
1.001375 0.825863 0.074934
1.007999 0.825808 0.074730
1.014923 0.826051 0.074540
1.021880 0.826263 0.074346
1.028643 0.826172 0.074135
1.035495 0.826118 0.073924
1.045033 0.829128 0.073858
1.053419 0.830678 0.073719
1.060161 0.830245 0.073483
1.065387 0.828026 0.073161
1.075039 0.830746 0.073070
1.082653 0.831069 0.072863
1.089939 0.830947 0.072632
1.098976 0.832661 0.072485
1.108145 0.834405 0.072335
1.115092 0.833651 0.072068
1.122017 0.832804 0.071794
1.127895 0.830787 0.071466
1.136294 0.831349 0.071251
1.146608 0.833791 0.071118
1.152793 0.831875 0.070787
1.159205 0.830135 0.070462
1.174604 0.837359 0.070527
1.181671 0.836070 0.070215
1.188734 0.834709 0.069898
1.196503 0.833968 0.069604
1.207793 0.836551 0.069450
1.215985 0.836024 0.069160
1.222830 0.834134 0.068809
1.232695 0.835022 0.068572
1.248973 0.841761 0.068573
1.257773 0.841389 0.068275
1.265216 0.839691 0.067920
1.271740 0.837102 0.067527
1.286276 0.841640 0.067418
1.294331 0.840256 0.067067
1.305234 0.841311 0.066811
1.315700 0.841879 0.066531
1.327935 0.843877 0.066304
1.340414 0.845965 0.066076
1.349162 0.844788 0.065720
1.357199 0.842968 0.065339
1.376363 0.850334 0.065298
1.382844 0.847096 0.064860
1.395186 0.848629 0.064596
1.405553 0.848497 0.064270
1.417747 0.849786 0.063994
1.427876 0.849389 0.063656
1.438783 0.849586 0.063339
1.449769 0.849828 0.063024
1.462145 0.851128 0.062746
1.472084 0.850555 0.062404
1.482061 0.850033 0.062066
1.489944 0.847979 0.061678
0.205331 0.773728 0.090706
0.208351 0.778061 0.090909
0.213005 0.767262 0.090029
0.216626 0.766597 0.089874
0.220342 0.765367 0.089679
0.223893 0.766349 0.089641
0.227283 0.769842 0.089780
0.231039 0.769601 0.089654
0.234693 0.771128 0.089652
0.238001 0.778225 0.090043
0.241998 0.776226 0.089791
0.245707 0.779036 0.089877
0.249635 0.778776 0.089747
0.253509 0.779859 0.089711
0.257442 0.780208 0.089623
0.261459 0.778888 0.089419
0.265494 0.776989 0.089174
0.269514 0.775225 0.088939
0.273405 0.777749 0.089003
0.277297 0.781451 0.089147
0.281226 0.785148 0.089289
0.285267 0.782848 0.089018
0.289278 0.781462 0.088809
0.293272 0.780462 0.088628
0.297251 0.777984 0.088346
0.301290 0.788868 0.088978
0.305331 0.791099 0.089016
0.309329 0.789652 0.088804
0.313340 0.789764 0.088698
0.317292 0.787750 0.088447
0.321242 0.786507 0.088249
0.325354 0.790317 0.088393
0.329346 0.790369 0.088282
0.332980 0.782599 0.087645
0.336898 0.782107 0.087499
0.340850 0.782450 0.087409
0.344771 0.782277 0.087284
0.348664 0.781777 0.087137
0.352950 0.787128 0.087380
0.357126 0.790344 0.087480
0.361090 0.790521 0.087376
0.364781 0.787416 0.087056
0.368787 0.788272 0.086997
0.372615 0.787145 0.086808
0.376326 0.784941 0.086548
0.379929 0.781905 0.086233
0.384100 0.784476 0.086287
0.388920 0.792671 0.086707
0.392784 0.791958 0.086544
0.396354 0.788868 0.086226
0.400366 0.789529 0.086152
0.404692 0.792545 0.086230
0.408686 0.792878 0.086134
0.412585 0.792497 0.085991
0.416568 0.792708 0.085887
0.420758 0.794277 0.085869
0.424983 0.795950 0.085857
0.428800 0.794934 0.085672
0.432770 0.794886 0.085549
0.437658 0.800280 0.085772
0.441243 0.797802 0.085493
0.446544 0.805100 0.085835
0.448975 0.796229 0.085151
0.452977 0.796185 0.085026
0.455654 0.789198 0.084464
0.459462 0.788269 0.084284
0.463589 0.788938 0.084204
0.467585 0.788901 0.084079
0.472008 0.790852 0.084078
0.476632 0.793606 0.084126
0.482026 0.799695 0.084380
0.486529 0.801527 0.084368
0.489986 0.798700 0.084067
0.493922 0.797988 0.083897
0.498080 0.798185 0.083782
0.502243 0.798351 0.083665
0.506831 0.800169 0.083649
0.510520 0.798346 0.083409
0.514855 0.799037 0.083323
0.519028 0.799044 0.083194
0.523921 0.801679 0.083224
0.527311 0.798698 0.082914
0.531840 0.799855 0.082853
0.536310 0.800717 0.082773
0.540771 0.801476 0.082687
0.545187 0.802008 0.082587
0.551772 0.809717 0.082913
0.556556 0.811213 0.082868
0.560869 0.811096 0.082725
0.566382 0.814747 0.082805
0.571023 0.815508 0.082713
0.573103 0.808324 0.082152
0.574493 0.799227 0.081482
0.577743 0.795909 0.081151
0.581844 0.795146 0.080971
0.585693 0.793634 0.080746
0.590024 0.793493 0.080601
0.596969 0.800649 0.080877
0.603359 0.806018 0.081048
0.608459 0.807671 0.081003
0.612315 0.805889 0.080759
0.616593 0.805230 0.080579
0.621166 0.805315 0.080442
0.624968 0.803367 0.080188
0.629003 0.802017 0.079969
0.632431 0.799143 0.079663
0.636201 0.797144 0.079407
0.640211 0.795740 0.079184
0.646307 0.799355 0.079242
0.653605 0.805688 0.079451
0.660040 0.809790 0.079532
0.662784 0.805194 0.079129
0.667472 0.805116 0.078976
0.673741 0.808566 0.079017
0.679981 0.811824 0.079047
0.683114 0.808116 0.078692
0.686229 0.804416 0.078339
0.689421 0.800927 0.077997
0.693526 0.799419 0.077764
0.700531 0.803984 0.077859
0.705101 0.803355 0.077672
0.709597 0.802545 0.077475
0.716573 0.806732 0.077544
0.722227 0.808132 0.077463
0.727207 0.808127 0.077306
0.732947 0.809565 0.077225
0.735536 0.804838 0.076817
0.739835 0.803443 0.076585
0.745651 0.804902 0.076502
0.751203 0.805791 0.076389
0.756907 0.806899 0.076285
0.761881 0.806606 0.076108
0.767940 0.808238 0.076030
0.773027 0.808053 0.075856
0.778527 0.808561 0.075718
0.783397 0.807911 0.075519
0.789038 0.808566 0.075386
0.795684 0.810883 0.075336
0.801914 0.812404 0.075244
0.806816 0.811622 0.075035
0.813755 0.814189 0.074993
0.819798 0.815189 0.074870
0.825242 0.815149 0.074695
0.830429 0.814652 0.074496
0.836854 0.816088 0.074391
0.842776 0.816658 0.074243
0.848337 0.816605 0.074062
0.855634 0.819185 0.074009
0.862270 0.820657 0.073900
0.868584 0.821564 0.073761
0.874363 0.821604 0.073580
0.879704 0.820944 0.073364
0.884325 0.819190 0.073094
0.889462 0.818171 0.072859
0.895377 0.818241 0.072675
0.902028 0.819307 0.072536
0.907281 0.818328 0.072300
0.915179 0.821012 0.072233
0.922821 0.823236 0.072142
0.928505 0.822681 0.071920
0.933905 0.821694 0.071678
0.940716 0.822568 0.071519
0.947407 0.823212 0.071348
0.953223 0.822629 0.071120
0.961041 0.824617 0.071006
0.967496 0.824744 0.070806
0.973829 0.824652 0.070594
0.980377 0.824774 0.070390
0.985673 0.823257 0.070112
0.994464 0.826062 0.070022
1.001015 0.825985 0.069803
1.007966 0.826335 0.069601
1.014582 0.826205 0.069376
1.022162 0.827169 0.069196
1.028902 0.827047 0.068966
1.037884 0.829500 0.068844
1.044836 0.829466 0.068613
1.051646 0.829198 0.068370
1.059185 0.829697 0.068157
1.066653 0.830032 0.067935
1.073594 0.829692 0.067682
1.081237 0.830064 0.067455
1.091628 0.833383 0.067344
1.097930 0.832091 0.067044
1.105450 0.832061 0.066793
1.112831 0.831800 0.066529
1.121213 0.832524 0.066301
1.129153 0.832685 0.066047
1.136527 0.832167 0.065765
1.147499 0.835288 0.065618
1.153048 0.832712 0.065251
1.159034 0.830538 0.064896
1.173049 0.836379 0.064839
1.179276 0.834269 0.064480
1.187126 0.833706 0.064176
1.197303 0.835332 0.063949
1.207708 0.837053 0.063720
1.213955 0.834664 0.063340
1.220202 0.832226 0.062956
1.232727 0.835639 0.062775
1.241768 0.835649 0.062469
1.255883 0.840241 0.062318
1.263654 0.838859 0.061956
1.272345 0.838243 0.061618
1.283421 0.839682 0.061345
1.293408 0.840037 0.061032
1.307142 0.843589 0.060819
1.313182 0.840294 0.060380
1.320036 0.837680 0.059962
1.336421 0.843169 0.059797
1.349202 0.845435 0.059526
1.357973 0.844230 0.059144
1.375545 0.850278 0.058979
1.383544 0.848292 0.058569
1.392565 0.847122 0.058183
1.401192 0.845612 0.057786
1.415302 0.848466 0.057515
1.427459 0.849693 0.057196
1.437346 0.849098 0.056825
1.452544 0.852621 0.056567
1.461408 0.851205 0.056175
1.470928 0.850320 0.055800
1.481485 0.850248 0.055448
1.491429 0.849740 0.055088
0.206485 0.762651 0.086282
0.208279 0.778050 0.087206
0.212624 0.770256 0.086572
0.216709 0.764953 0.086106
0.220356 0.764357 0.085955
0.223788 0.766606 0.085995
0.227158 0.770316 0.086130
0.230944 0.769702 0.085977
0.234336 0.774705 0.086197
0.238035 0.776430 0.086198
0.241727 0.778925 0.086250
0.245667 0.778104 0.086083
0.249483 0.779737 0.086077
0.253261 0.782743 0.086160
0.257154 0.784186 0.086141
0.261196 0.782717 0.085931
0.265316 0.778962 0.085573
0.269293 0.778783 0.085448
0.273259 0.779114 0.085357
0.277249 0.778655 0.085214
0.281297 0.774775 0.084850
0.285210 0.778501 0.084977
0.289161 0.781865 0.085080
0.293146 0.783813 0.085091
0.297153 0.789153 0.085319
0.301184 0.790856 0.085313
0.305194 0.789686 0.085123
0.309186 0.788389 0.084926
0.313195 0.788743 0.084833
0.317394 0.796555 0.085212
0.321231 0.790231 0.084696
0.325195 0.789390 0.084528
0.329212 0.790222 0.084464
0.332841 0.782358 0.083855
0.336748 0.781692 0.083698
0.340684 0.781786 0.083589
0.344729 0.783804 0.083599
0.348705 0.784512 0.083527
0.352879 0.788061 0.083631
0.357091 0.791740 0.083742
0.361010 0.791264 0.083594
0.364859 0.790028 0.083400
0.368876 0.790887 0.083335
0.372734 0.789964 0.083160
0.376513 0.788340 0.082942
0.380314 0.787093 0.082747
0.384508 0.789664 0.082784
0.388887 0.793694 0.082909
0.393033 0.795386 0.082891
0.396624 0.792345 0.082586
0.400459 0.791466 0.082412
0.404750 0.794165 0.082453
0.408829 0.795080 0.082386
0.412822 0.795311 0.082277
0.416919 0.796225 0.082209
0.421045 0.797261 0.082147
0.424620 0.794625 0.081866
0.428231 0.792355 0.081607
0.433057 0.797641 0.081796
0.437622 0.801048 0.081871
0.441801 0.801996 0.081800
0.443908 0.791179 0.081038
0.449611 0.800648 0.081467
0.452773 0.796002 0.081068
0.455339 0.788439 0.080500
0.459254 0.788080 0.080352
0.463327 0.788494 0.080248
0.467441 0.789046 0.080152
0.471613 0.789811 0.080068
0.476379 0.793258 0.080137
0.481085 0.796244 0.080178
0.486726 0.803216 0.080446
0.489588 0.797771 0.080003
0.493108 0.795313 0.079731
0.497355 0.795940 0.079634
0.501436 0.795826 0.079494
0.505160 0.794239 0.079271
0.509107 0.793548 0.079098
0.513411 0.794218 0.079002
0.519216 0.800498 0.079218
0.520903 0.791209 0.078563
0.525848 0.794092 0.078588
0.531477 0.799275 0.078739
0.534900 0.796472 0.078446
0.539798 0.798823 0.078437
0.543616 0.797375 0.078219
0.548168 0.798386 0.078135
0.552565 0.798808 0.078018
0.557175 0.799858 0.077934
0.560420 0.796490 0.077610
0.564706 0.796441 0.077466
0.569578 0.798153 0.077416
0.573629 0.797276 0.077226
0.577397 0.795539 0.076989
0.581398 0.794493 0.076790
0.585551 0.793875 0.076612
0.589640 0.793047 0.076424
0.594830 0.795292 0.076398
0.599600 0.796264 0.076303
0.604649 0.797926 0.076243
0.608813 0.797114 0.076053
0.613198 0.796869 0.075892
0.617513 0.796401 0.075718
0.621578 0.795259 0.075510
0.626004 0.795020 0.075348
0.631305 0.796939 0.075296
0.635480 0.795979 0.075095
0.640426 0.796881 0.074989
0.645051 0.796943 0.074840
0.649663 0.796929 0.074686
0.654252 0.796820 0.074526
0.660535 0.800593 0.074561
0.665191 0.800507 0.074401
0.669599 0.799818 0.074210
0.675151 0.801658 0.074144
0.679126 0.799933 0.073900
0.683870 0.799881 0.073739
0.689380 0.801436 0.073656
0.693863 0.800728 0.073461
0.700348 0.804196 0.073469
0.705040 0.803821 0.073288
0.709557 0.803054 0.073088
0.714892 0.803918 0.072966
0.719870 0.804006 0.072805
0.726405 0.807130 0.072789
0.730518 0.805404 0.072540
0.735389 0.805138 0.072360
0.740157 0.804640 0.072168
0.745402 0.805011 0.072017
0.751750 0.807393 0.071959
0.756302 0.806360 0.071739
0.762116 0.807615 0.071626
0.767004 0.807124 0.071430
0.772576 0.807824 0.071288
0.777629 0.807548 0.071101
0.783164 0.808077 0.070949
0.789040 0.809142 0.070821
0.794315 0.809112 0.070641
0.801812 0.812803 0.070629
0.806701 0.812001 0.070412
0.813219 0.813872 0.070314
0.819571 0.815388 0.070198
0.825221 0.815686 0.070026
0.831635 0.817161 0.069905
0.837026 0.816932 0.069708
0.841991 0.815988 0.069478
0.847724 0.816216 0.069299
0.854267 0.817644 0.069170
0.860862 0.819074 0.069039
0.866638 0.819188 0.068850
0.872891 0.819966 0.068688
0.878311 0.819444 0.068469
0.883597 0.818687 0.068239
0.888977 0.818030 0.068012
0.894658 0.817769 0.067801
0.900351 0.817479 0.067587
0.908210 0.820201 0.067496
0.914579 0.820736 0.067312
0.921667 0.822202 0.067164
0.927851 0.822346 0.066960
0.933299 0.821433 0.066713
0.940953 0.823449 0.066580
0.946657 0.822773 0.066339
0.952091 0.821695 0.066080
0.959667 0.823382 0.065928
0.966803 0.824408 0.065747
0.973445 0.824721 0.065536
0.979413 0.824111 0.065288
0.985686 0.823834 0.065050
0.992211 0.823814 0.064821
1.000196 0.825535 0.064654
1.007249 0.826018 0.064438
1.015128 0.827428 0.064254
1.022240 0.827823 0.064030
1.028598 0.827245 0.063767
1.037477 0.829582 0.063607
1.043914 0.828952 0.063338
1.051587 0.829692 0.063114
1.058436 0.829400 0.062851
1.065969 0.829818 0.062610
1.074712 0.831511 0.062410
1.081443 0.830856 0.062126
1.089320 0.831399 0.061880
1.097792 0.832504 0.061649
1.104313 0.831392 0.061340
1.111843 0.831303 0.061062
1.120760 0.832607 0.060827
1.129004 0.833093 0.060561
1.136407 0.832607 0.060260
1.149203 0.837618 0.060131
1.154515 0.834782 0.059747
1.164249 0.836395 0.059500
1.170190 0.834075 0.059127
1.178630 0.834194 0.058826
1.188714 0.835841 0.058568
1.194908 0.833563 0.058187
1.206175 0.836143 0.057946
1.213751 0.835041 0.057593
1.222684 0.835153 0.057271
1.232648 0.836139 0.056970
1.239275 0.833903 0.056574
1.254247 0.839312 0.056387
1.261673 0.837630 0.055998
1.271680 0.838223 0.055667
1.286809 0.843302 0.055451
1.294514 0.841604 0.055051
1.303855 0.841290 0.054683
1.313763 0.841389 0.054323
1.321215 0.839286 0.053904
1.340726 0.847442 0.053735
1.349798 0.846538 0.053338
1.361216 0.847547 0.052985
1.372095 0.848024 0.052616
1.381539 0.847255 0.052217
1.391321 0.846721 0.051822
1.401381 0.846377 0.051430
1.411243 0.845844 0.051034
1.423650 0.847303 0.050681
1.435611 0.848365 0.050318
1.446290 0.848398 0.049935
1.459757 0.850570 0.049596
1.468084 0.848790 0.049180
1.481506 0.850905 0.048843
1.498040 0.855335 0.048550
0.209309 0.736478 0.081012
0.208424 0.775964 0.083375
0.212062 0.774994 0.083199
0.216573 0.765516 0.082493
0.220072 0.766509 0.082440
0.223685 0.766792 0.082344
0.227125 0.769658 0.082408
0.230786 0.770534 0.082348
0.234310 0.773785 0.082434
0.237730 0.779379 0.082664
0.241442 0.781742 0.082694
0.245316 0.782196 0.082607
0.249355 0.780166 0.082368
0.253026 0.785232 0.082562
0.256870 0.787954 0.082613
0.260970 0.785466 0.082346
0.265065 0.782722 0.082065
0.269068 0.782263 0.081923
0.273088 0.781181 0.081743
0.277100 0.780117 0.081564
0.281123 0.777975 0.081322
0.285080 0.779343 0.081289
0.289041 0.781694 0.081316
0.293014 0.786614 0.081494
0.297028 0.789017 0.081521
0.301027 0.785915 0.081221
0.305002 0.783814 0.080981
0.309005 0.785050 0.080939
0.313090 0.789889 0.081108
0.317080 0.789409 0.080963
0.321035 0.788128 0.080771
0.325026 0.788374 0.080668
0.329030 0.789024 0.080589
0.332711 0.782430 0.080087
0.336586 0.781137 0.079895
0.340522 0.781312 0.079788
0.344454 0.781457 0.079679
0.348544 0.784151 0.079716
0.352483 0.784316 0.079607
0.356856 0.790460 0.079840
0.360850 0.791034 0.079752
0.364852 0.791684 0.079669
0.368712 0.790672 0.079490
0.372476 0.788742 0.079259
0.376320 0.787850 0.079086
0.380368 0.789081 0.079034
0.384425 0.790290 0.078979
0.388448 0.791098 0.078902
0.392758 0.794327 0.078959
0.396408 0.791815 0.078693
0.400316 0.791553 0.078554
0.404034 0.789845 0.078334
0.408277 0.792147 0.078336
0.412823 0.796452 0.078447
0.416036 0.791202 0.078030
0.420118 0.792108 0.077953
0.423719 0.789807 0.077699
0.427645 0.789672 0.077563
0.431662 0.790087 0.077457
0.435125 0.787136 0.077168
0.438998 0.786705 0.077015
0.443281 0.788581 0.076987
0.447505 0.790009 0.076933
0.451423 0.789684 0.076784
0.455057 0.787863 0.076555
0.459013 0.787736 0.076416
0.463203 0.788742 0.076336
0.467267 0.789053 0.076219
0.471568 0.790440 0.076159
0.475587 0.790415 0.076023
0.479594 0.790302 0.075881
0.483396 0.789236 0.075689
0.487881 0.791150 0.075653
0.491786 0.790471 0.075480
0.496120 0.791572 0.075399
0.499398 0.788264 0.075089
0.503412 0.787997 0.074937
0.508058 0.790182 0.074910
0.512285 0.790623 0.074792
0.515982 0.789002 0.074569
0.520184 0.789268 0.074441
0.524853 0.791189 0.074397
0.528870 0.790657 0.074227
0.532778 0.789719 0.074036
0.537273 0.790799 0.073946
0.541673 0.791475 0.073836
0.546129 0.792269 0.073730
0.550307 0.792079 0.073574
0.555184 0.794110 0.073528
0.559146 0.793120 0.073331
0.564284 0.795798 0.073315
0.568833 0.796531 0.073201
0.572965 0.795932 0.073022
0.576901 0.794723 0.072812
0.580945 0.793821 0.072617
0.585481 0.794326 0.072490
0.589886 0.794398 0.072341
0.595020 0.796474 0.072287
0.599419 0.796408 0.072130
0.603558 0.795589 0.071936
0.608348 0.796501 0.071824
0.613044 0.797093 0.071696
0.617291 0.796452 0.071509
0.621392 0.795406 0.071302
0.626015 0.795673 0.071157
0.631118 0.797094 0.071064
0.635281 0.796106 0.070858
0.640485 0.797643 0.070769
0.645164 0.797831 0.070616
0.649618 0.797434 0.070436
0.654228 0.797372 0.070270
0.659103 0.797881 0.070130
0.664810 0.800242 0.070072
0.669871 0.801038 0.069943
0.675192 0.802352 0.069835
0.678999 0.800252 0.069574
0.684926 0.802779 0.069518
0.689492 0.802273 0.069327
0.693804 0.801196 0.069110
0.698763 0.801463 0.068951
0.704494 0.803281 0.068859
0.709358 0.803236 0.068685
0.714311 0.803331 0.068516
0.719060 0.802971 0.068326
0.724082 0.803118 0.068158
0.729712 0.804411 0.068037
0.735596 0.806122 0.067933
0.740938 0.806713 0.067779
0.746313 0.807313 0.067625
0.751269 0.807073 0.067435
0.757285 0.808755 0.067324
0.761958 0.807902 0.067106
0.766832 0.807387 0.066902
0.771902 0.807193 0.066710
0.776943 0.806907 0.066513
0.782126 0.806833 0.066324
0.788923 0.809512 0.066245
0.795135 0.811088 0.066119
0.800513 0.811173 0.065932
0.807543 0.813983 0.065851
0.812578 0.813378 0.065635
0.818926 0.814897 0.065500
0.824654 0.815333 0.065321
0.831212 0.817049 0.065190
0.836604 0.816827 0.064983
0.841712 0.816116 0.064756
