ply
format ascii 1.0
comment ---
element vertex 1675
property float x
property float y
property float z
element face 0
property list uchar uint vertex_indices
end_header
0.184469 0.790985 -0.254364
0.188951 0.793053 -0.254628
0.192828 0.792274 -0.254409
0.196181 0.789184 -0.253799
0.200513 0.790386 -0.253913
0.205263 0.793244 -0.254306
0.209778 0.794972 -0.254507
0.217378 0.809039 -0.256787
0.220947 0.806545 -0.256273
0.223993 0.802063 -0.255424
0.225731 0.792717 -0.253757
0.228275 0.786681 -0.252648
0.232386 0.786557 -0.252532
0.236535 0.786520 -0.252430
0.241668 0.789910 -0.252902
0.247324 0.794937 -0.253646
0.252748 0.798940 -0.254217
0.256230 0.796230 -0.253662
0.260715 0.796861 -0.253665
0.264791 0.796084 -0.253432
0.266393 0.787384 -0.251875
0.271923 0.791223 -0.252411
0.275381 0.788486 -0.251849
0.281915 0.795110 -0.252846
0.286172 0.794660 -0.252662
0.290282 0.793732 -0.252398
0.295201 0.795110 -0.252516
0.299700 0.795186 -0.252417
0.305589 0.799101 -0.252953
0.309216 0.796584 -0.252421
0.312906 0.794254 -0.251919
0.317427 0.794166 -0.251788
0.321948 0.794022 -0.251647
0.326454 0.793790 -0.251491
0.332750 0.798109 -0.252085
0.337978 0.799552 -0.252202
0.340612 0.794434 -0.251237
0.343899 0.791023 -0.250554
0.350475 0.795652 -0.251195
0.364300 0.817478 -0.254660
0.363288 0.803637 -0.252261
0.368642 0.804982 -0.252358
0.369503 0.795935 -0.250751
0.367946 0.781622 -0.248284
0.373707 0.784076 -0.248566
0.387955 0.805257 -0.251909
0.391816 0.803216 -0.251454
0.395589 0.801058 -0.250981
0.399681 0.799658 -0.250634
0.404663 0.800206 -0.250606
0.409770 0.801048 -0.250628
0.415149 0.802486 -0.250749
0.419450 0.801763 -0.250520
0.419702 0.792978 -0.248986
0.429359 0.794255 -0.248987
-0.504021 0.744333 -0.261059
-0.503643 0.750973 -0.262239
-0.498485 0.750413 -0.262065
-0.493490 0.750170 -0.261952
-0.489748 0.751966 -0.262223
-0.485331 0.752778 -0.262311
-0.480481 0.752961 -0.262281
-0.475222 0.752523 -0.262135
-0.470316 0.752690 -0.262104
-0.465576 0.753162 -0.262131
-0.460975 0.753897 -0.262208
-0.456214 0.754386 -0.262239
-0.451759 0.755415 -0.262372
-0.446922 0.755798 -0.262384
-0.442203 0.756386 -0.262435
-0.437468 0.756943 -0.262481
-0.433390 0.758668 -0.262745
-0.429346 0.760466 -0.263023
-0.423004 0.758050 -0.262514
-0.418769 0.759456 -0.262719
-0.413818 0.759507 -0.262672
-0.409072 0.759902 -0.262689
-0.404037 0.759703 -0.262595
-0.399221 0.759873 -0.262570
-0.395041 0.761247 -0.262769
-0.390747 0.762372 -0.262921
-0.386293 0.763144 -0.263008
-0.380788 0.761724 -0.262687
-0.376353 0.762427 -0.262761
-0.371403 0.762005 -0.262625
-0.367190 0.763076 -0.262767
-0.361790 0.761560 -0.262428
-0.358287 0.764073 -0.262837
-0.353607 0.763992 -0.262765
-0.348882 0.763748 -0.262662
-0.344480 0.764164 -0.262681
-0.339811 0.763917 -0.262577
-0.335420 0.764251 -0.262581
-0.330934 0.764305 -0.262532
-0.326600 0.764667 -0.262541
-0.322486 0.765508 -0.262637
-0.317548 0.764293 -0.262353
-0.313532 0.765280 -0.262477
-0.309587 0.766413 -0.262627
-0.304958 0.765775 -0.262449
-0.300941 0.766650 -0.262551
-0.296931 0.767512 -0.262649
-0.292931 0.768372 -0.262748
-0.288803 0.768855 -0.262776
-0.284656 0.769250 -0.262788
-0.280408 0.769324 -0.262740
-0.276118 0.769230 -0.262661
-0.272024 0.769647 -0.262676
-0.268261 0.770992 -0.262862
-0.264206 0.771466 -0.262887
-0.259999 0.771451 -0.262822
-0.256114 0.772375 -0.262929
-0.251814 0.771994 -0.262796
-0.247556 0.771690 -0.262678
-0.243451 0.771822 -0.262639
-0.239248 0.771597 -0.262534
-0.235355 0.772347 -0.262608
-0.231496 0.773199 -0.262700
-0.227477 0.773493 -0.262690
-0.223275 0.773118 -0.262558
-0.219222 0.773220 -0.262512
-0.215420 0.774195 -0.262626
-0.211638 0.775243 -0.262753
-0.207509 0.774995 -0.262642
-0.203435 0.774908 -0.262561
-0.199325 0.774646 -0.262448
-0.195297 0.774661 -0.262385
-0.191019 0.773632 -0.262132
-0.187157 0.774252 -0.262180
-0.183376 0.775202 -0.262287
-0.179584 0.776115 -0.262388
-0.176272 0.779155 -0.262875
-0.173019 0.782559 -0.263429
-0.169571 0.785193 -0.263841
-0.164825 0.781801 -0.263157
-0.159749 0.776624 -0.262148
-0.155812 0.776797 -0.262112
-0.151955 0.777355 -0.262147
-0.148135 0.778107 -0.262216
-0.144647 0.780636 -0.262608
-0.141025 0.782542 -0.262886
-0.137243 0.783626 -0.263015
-0.134402 0.790175 -0.264134
-0.129793 0.786575 -0.263413
-0.125828 0.786668 -0.263361
-0.120827 0.780217 -0.262124
-0.117129 0.781800 -0.262343
-0.113438 0.783509 -0.262584
-0.109091 0.780752 -0.262016
-0.104791 0.778116 -0.261472
-0.101022 0.779215 -0.261602
-0.097501 0.782282 -0.262087
-0.094193 0.787270 -0.262919
-0.090774 0.791704 -0.263649
-0.086890 0.792442 -0.263712
-0.082751 0.790911 -0.263366
-0.077926 0.782710 -0.261819
-0.073965 0.782280 -0.261673
-0.070205 0.783872 -0.261890
-0.066325 0.784283 -0.261895
-0.062350 0.783603 -0.261703
-0.058312 0.782053 -0.261355
-0.054515 0.783414 -0.261530
-0.050834 0.786522 -0.262018
-0.046651 0.782584 -0.261242
-0.042716 0.781973 -0.261062
-0.038904 0.783366 -0.261242
-0.035006 0.783335 -0.261167
-0.031084 0.782758 -0.260994
-0.027523 0.790307 -0.262275
-0.023572 0.789577 -0.262074
-0.019651 0.789498 -0.261989
-0.015786 0.791263 -0.262234
-0.011945 0.794588 -0.262757
-0.007955 0.791868 -0.262200
-0.003877 0.781569 -0.260291
-0.000011 0.782172 -0.260328
0.003808 0.791809 -0.261976
0.007722 0.796844 -0.262802
0.011659 0.796102 -0.262598
0.015579 0.794350 -0.262214
0.019512 0.794856 -0.262232
0.023433 0.794458 -0.262090
0.027263 0.790350 -0.261287
0.031119 0.788575 -0.260900
0.035087 0.790821 -0.261227
0.039046 0.792284 -0.261415
0.042802 0.788555 -0.260681
0.046658 0.787749 -0.260465
0.050519 0.787182 -0.260293
0.054398 0.787049 -0.260197
0.058365 0.788389 -0.260362
0.062514 0.792314 -0.260984
0.066529 0.793790 -0.261172
0.070287 0.791635 -0.260717
0.073962 0.788695 -0.260124
0.077845 0.788540 -0.260023
0.081906 0.790390 -0.260276
0.085806 0.790323 -0.260190
0.089756 0.790756 -0.260192
0.093475 0.788899 -0.259790
0.096892 0.784400 -0.258922
0.101454 0.790407 -0.259905
0.105781 0.793919 -0.260448
0.109506 0.792207 -0.260071
0.113646 0.793868 -0.260287
0.117162 0.790653 -0.259645
0.120064 0.783139 -0.258249
0.124486 0.786875 -0.258829
0.129638 0.795330 -0.260235
0.134489 0.801237 -0.261193
0.137768 0.796641 -0.260308
0.141903 0.797633 -0.260403
0.145948 0.797989 -0.260386
0.150330 0.800277 -0.260707
0.152984 0.792513 -0.259268
0.157079 0.793165 -0.259302
0.160854 0.792004 -0.259018
0.164656 0.791012 -0.258763
0.169102 0.793356 -0.259091
0.172776 0.791661 -0.258713
0.176823 0.791838 -0.258661
0.180807 0.791666 -0.258547
0.186406 0.799026 -0.259745
0.189511 0.794587 -0.258887
0.192843 0.791322 -0.258234
0.196278 0.788600 -0.257675
0.201185 0.792265 -0.258226
0.205528 0.793356 -0.258328
0.209600 0.793241 -0.258220
0.217130 0.807030 -0.260522
0.220759 0.804801 -0.260045
0.223486 0.799109 -0.258968
0.226628 0.795157 -0.258192
0.231376 0.797295 -0.258470
0.237377 0.803886 -0.259516
0.239322 0.795597 -0.257990
0.243563 0.795653 -0.257905
0.249250 0.800670 -0.258675
0.253283 0.799815 -0.258431
0.256984 0.797813 -0.257988
0.261514 0.798554 -0.258017
0.265411 0.797155 -0.257678
0.271011 0.801167 -0.258267
0.271255 0.788211 -0.255940
0.279348 0.799792 -0.257827
0.282227 0.795138 -0.256925
0.286127 0.793612 -0.256559
0.291839 0.797391 -0.257102
0.296203 0.797096 -0.256945
0.300263 0.795882 -0.256631
0.305380 0.797607 -0.256817
0.309476 0.796399 -0.256502
0.312577 0.792461 -0.255720
0.317489 0.793434 -0.255776
0.322858 0.795529 -0.256022
0.327480 0.795567 -0.255916
0.332990 0.797826 -0.256187
0.338999 0.801236 -0.256652
0.343555 0.800880 -0.256476
0.348781 0.802139 -0.256574
0.357130 0.810897 -0.257942
0.363398 0.814405 -0.258418
0.367264 0.812122 -0.257913
0.369237 0.805465 -0.256668
0.367807 0.791145 -0.254131
0.369516 0.784304 -0.252860
0.378845 0.794699 -0.254499
0.387441 0.803212 -0.255819
0.393237 0.805412 -0.256074
0.395137 0.799176 -0.254909
0.399811 0.799030 -0.254771
0.405075 0.800163 -0.254850
0.410672 0.802010 -0.255049
0.416840 0.805045 -0.255449
0.419190 0.800312 -0.254549
0.420544 0.793757 -0.253346
0.422010 0.787648 -0.252222
0.440100 0.814463 -0.256609
-0.508123 0.749894 -0.266411
-0.502552 0.748629 -0.266093
-0.497943 0.748908 -0.266073
-0.493150 0.748979 -0.266014
-0.488395 0.749173 -0.265980
-0.484372 0.750598 -0.266183
-0.480177 0.751823 -0.266348
-0.475849 0.752898 -0.266485
-0.470638 0.752580 -0.266353
-0.466414 0.753920 -0.266542
-0.461671 0.754434 -0.266571
-0.456923 0.754962 -0.266604
-0.452442 0.755963 -0.266728
-0.447300 0.755835 -0.266635
-0.442612 0.756488 -0.266693
-0.438282 0.757774 -0.266872
-0.433751 0.758705 -0.266984
-0.429834 0.760743 -0.267308
-0.423751 0.758819 -0.266872
-0.418641 0.758618 -0.266766
-0.414193 0.759613 -0.266891
-0.409369 0.759873 -0.266875
-0.404998 0.760962 -0.267017
-0.400252 0.761293 -0.267015
-0.394970 0.760521 -0.266801
-0.390662 0.761619 -0.266946
-0.385799 0.761566 -0.266870
-0.381937 0.763496 -0.267174
-0.376162 0.761456 -0.266718
-0.371728 0.762113 -0.266779
-0.367802 0.763805 -0.267036
-0.363504 0.764677 -0.267138
-0.357896 0.762657 -0.266687
-0.353835 0.763931 -0.266865
-0.349682 0.764974 -0.266998
-0.344256 0.763099 -0.266576
-0.339736 0.763191 -0.266528
-0.335566 0.764035 -0.266624
-0.331506 0.765100 -0.266761
-0.327099 0.765308 -0.266735
-0.321881 0.763501 -0.266326
-0.318129 0.765174 -0.266579
-0.313500 0.764659 -0.266416
-0.309150 0.764775 -0.266372
-0.305122 0.765658 -0.266474
-0.300955 0.766152 -0.266503
-0.297098 0.767420 -0.266677
-0.292812 0.767525 -0.266631
-0.288711 0.768080 -0.266670
-0.284586 0.768534 -0.266690
-0.280404 0.768791 -0.266673
-0.276205 0.768960 -0.266639
-0.272246 0.769769 -0.266725
-0.268162 0.770189 -0.266739
-0.264191 0.770913 -0.266809
-0.260267 0.771751 -0.266900
-0.256227 0.772215 -0.266921
-0.251675 0.771063 -0.266637
-0.247537 0.771134 -0.266583
-0.243559 0.771676 -0.266618
-0.239294 0.771255 -0.266472
-0.235245 0.771500 -0.266451
-0.231423 0.772470 -0.266566
-0.227096 0.771708 -0.266356
-0.223148 0.772200 -0.266381
-0.219280 0.772955 -0.266455
-0.215358 0.773506 -0.266491
-0.211388 0.773861 -0.266490
-0.207435 0.774258 -0.266497
-0.203453 0.774527 -0.266479
-0.199642 0.775434 -0.266581
-0.195529 0.775143 -0.266459
-0.191248 0.774127 -0.266200
-0.187236 0.774146 -0.266135
-0.183247 0.774232 -0.266083
-0.179337 0.774634 -0.266090
-0.176046 0.777744 -0.266603
-0.173382 0.783784 -0.267664
-0.169709 0.785427 -0.267902
-0.163373 0.774565 -0.265802
-0.159590 0.775473 -0.265903
-0.155950 0.777103 -0.266139
-0.152134 0.777898 -0.266218
-0.148546 0.779881 -0.266519
-0.145387 0.784231 -0.267260
-0.141547 0.785058 -0.267344
-0.137461 0.784521 -0.267174
-0.132767 0.780417 -0.266340
-0.129185 0.782657 -0.266687
-0.124995 0.781282 -0.266362
-0.121788 0.785989 -0.267167
-0.117712 0.785324 -0.266973
-0.113220 0.781790 -0.266246
-0.109194 0.781234 -0.266073
-0.105165 0.780587 -0.265883
-0.101312 0.781173 -0.265921
-0.097940 0.785494 -0.266652
-0.094922 0.792946 -0.267963
-0.090624 0.790318 -0.267405
-0.086471 0.788696 -0.267033
-0.082438 0.787989 -0.266832
-0.078567 0.788730 -0.266898
-0.073984 0.782444 -0.265664
-0.070134 0.783138 -0.265722
-0.066231 0.783304 -0.265682
-0.062282 0.782913 -0.265539
-0.058332 0.782445 -0.265382
-0.054695 0.785945 -0.265957
-0.050865 0.787205 -0.266119
-0.046713 0.783842 -0.265428
-0.042686 0.781915 -0.265002
-0.038859 0.783093 -0.265148
-0.034951 0.782902 -0.265042
-0.030964 0.781021 -0.264625
-0.027542 0.791649 -0.266508
-0.023663 0.793053 -0.266694
-0.019741 0.793523 -0.266709
-0.015804 0.793603 -0.266651
-0.011843 0.792605 -0.266396
-0.007883 0.791147 -0.266057
-0.003848 0.783651 -0.264610
0.000009 0.786418 -0.265046
0.003883 0.790447 -0.265712
0.007794 0.796469 -0.266743
0.011734 0.796091 -0.266601
0.015636 0.791823 -0.265748
0.019562 0.792472 -0.265794
0.023515 0.794298 -0.266055
0.027455 0.794862 -0.266085
0.031434 0.796646 -0.266338
0.035358 0.796255 -0.266193
0.039140 0.792152 -0.265372
0.042914 0.788789 -0.264686
0.046723 0.786874 -0.264264
0.050598 0.786620 -0.264145
0.054518 0.787198 -0.264178
0.058481 0.788402 -0.264324
0.062625 0.792175 -0.264937
0.066504 0.791686 -0.264774
0.070298 0.790103 -0.264413
0.074160 0.789565 -0.264241
0.077864 0.787203 -0.263739
0.081857 0.788311 -0.263866
0.085913 0.789977 -0.264094
0.089914 0.790915 -0.264190
0.093628 0.788970 -0.263763
0.096820 0.782354 -0.262490
0.100660 0.782020 -0.262355
0.105847 0.793143 -0.264292
0.110187 0.796457 -0.264816
0.114135 0.796426 -0.264734
0.117958 0.795427 -0.264477
0.120054 0.781840 -0.261948
0.123272 0.777069 -0.261012
0.130698 0.801367 -0.265317
0.134151 0.797790 -0.264594
0.138089 0.797519 -0.264467
0.141794 0.795777 -0.264075
0.146386 0.799476 -0.264662
0.150336 0.799158 -0.264526
0.153861 0.796401 -0.263951
0.157322 0.793395 -0.263331
0.161111 0.792294 -0.263054
0.164863 0.791011 -0.262744
0.168884 0.791143 -0.262687
0.172855 0.790983 -0.262577
0.176933 0.791310 -0.262555
0.180911 0.791104 -0.262436
0.185751 0.794899 -0.263033
0.190336 0.797317 -0.263382
0.193647 0.793882 -0.262685
0.196703 0.789434 -0.261806
0.200962 0.790287 -0.261874
0.205202 0.790973 -0.261912
0.209967 0.793741 -0.262320
0.214889 0.796983 -0.262812
0.220051 0.800995 -0.263439
0.223061 0.796464 -0.262544
0.227026 0.795679 -0.262316
0.231714 0.797567 -0.262563
0.235050 0.794384 -0.261908
0.239117 0.793883 -0.261728
0.245963 0.803150 -0.263282
0.249740 0.801397 -0.262879
0.252619 0.796587 -0.261933
0.256270 0.794467 -0.261464
0.261130 0.796332 -0.261700
0.265440 0.796299 -0.261599
0.267912 0.790359 -0.260453
0.274839 0.798486 -0.261793
0.279874 0.800466 -0.262045
0.281819 0.792966 -0.260623
0.287595 0.797055 -0.261245
0.291992 0.796907 -0.261119
0.296115 0.795913 -0.260843
0.300477 0.795564 -0.260680
0.305891 0.798110 -0.261025
0.309328 0.795067 -0.260387
0.312675 0.791811 -0.259711
0.318143 0.794268 -0.260038
0.322954 0.794867 -0.260037
0.328450 0.797171 -0.260335
0.333805 0.798999 -0.260547
0.340478 0.804052 -0.261323
0.347522 0.809844 -0.262227
0.351400 0.807652 -0.261733
0.356923 0.809470 -0.261939
0.363500 0.813719 -0.262569
0.364955 0.805750 -0.261068
0.359117 0.781002 -0.256646
0.364521 0.782696 -0.256833
0.372709 0.790641 -0.258106
0.379440 0.795119 -0.258775
0.384511 0.795821 -0.258787
0.387266 0.791465 -0.257922
0.395202 0.798396 -0.259016
0.399899 0.798296 -0.258891
0.405585 0.800313 -0.259133
0.411646 0.803109 -0.259511
0.416793 0.804017 -0.259563
0.419538 0.800090 -0.258782
0.420204 0.792150 -0.257310
0.424175 0.791029 -0.257019
0.431226 0.796072 -0.257793
-0.507856 0.748808 -0.270510
-0.502853 0.748415 -0.270353
-0.498393 0.748932 -0.270378
-0.492226 0.746868 -0.269889
-0.487915 0.747753 -0.269986
-0.484013 0.749366 -0.270228
-0.480156 0.751131 -0.270500
-0.475484 0.751651 -0.270525
-0.471226 0.752896 -0.270694
-0.466657 0.753676 -0.270770
-0.462946 0.755929 -0.271139
-0.457123 0.754662 -0.270810
-0.452063 0.754676 -0.270735
-0.448210 0.756777 -0.271073
-0.443149 0.756798 -0.271000
-0.438872 0.758193 -0.271199
-0.434270 0.759012 -0.271284
-0.427787 0.756408 -0.270694
-0.424324 0.759252 -0.271179
-0.419603 0.759789 -0.271208
-0.414329 0.759257 -0.271028
-0.409885 0.760244 -0.271147
-0.405233 0.760805 -0.271182
-0.400379 0.760936 -0.271133
-0.395379 0.760728 -0.271017
-0.390105 0.759910 -0.270782
-0.386625 0.762637 -0.271244
-0.380760 0.760498 -0.270750
-0.376643 0.761860 -0.270943
-0.372048 0.762197 -0.270936
-0.367905 0.763437 -0.271106
-0.362370 0.761657 -0.270684
-0.358316 0.762990 -0.270872
-0.354002 0.763722 -0.270942
-0.349572 0.764153 -0.270954
-0.345678 0.765742 -0.271192
-0.339129 0.761233 -0.270238
-0.335473 0.763254 -0.270561
-0.331629 0.764827 -0.270797
-0.326350 0.762962 -0.270360
-0.322185 0.763677 -0.270428
-0.318268 0.764958 -0.270607
-0.313875 0.765037 -0.270551
-0.309385 0.764816 -0.270436
-0.305352 0.765698 -0.270537
-0.301494 0.767002 -0.270719
-0.296836 0.766189 -0.270490
-0.292836 0.767048 -0.270586
-0.288776 0.767718 -0.270645
-0.284714 0.768350 -0.270697
-0.280396 0.768237 -0.270604
-0.276297 0.768691 -0.270621
-0.272236 0.769215 -0.270652
-0.268275 0.769996 -0.270732
-0.264167 0.770321 -0.270724
-0.260110 0.770761 -0.270739
-0.255869 0.770611 -0.270639
-0.251839 0.771063 -0.270655
-0.247678 0.771072 -0.270586
-0.243500 0.770982 -0.270498
-0.239755 0.772257 -0.270674
-0.234999 0.770192 -0.270204
-0.231047 0.770716 -0.270234
-0.227353 0.772102 -0.270431
-0.223114 0.771600 -0.270264
-0.219352 0.772734 -0.270412
-0.215525 0.773635 -0.270515
-0.211365 0.773308 -0.270381
-0.207509 0.774074 -0.270458
-0.203838 0.775537 -0.270669
-0.199783 0.775526 -0.270595
-0.195639 0.775132 -0.270449
-0.191443 0.774472 -0.270251
-0.187341 0.774147 -0.270117
-0.183289 0.773982 -0.270015
-0.179356 0.774290 -0.270003
-0.175920 0.776773 -0.270409
-0.173225 0.782664 -0.271468
-0.168599 0.779909 -0.270868
-0.166023 0.786650 -0.272090
-0.159829 0.776240 -0.270022
-0.155846 0.776212 -0.269946
-0.152105 0.777379 -0.270098
-0.148405 0.778788 -0.270297
-0.145464 0.784285 -0.271277
-0.141953 0.786931 -0.271711
-0.137846 0.786344 -0.271527
-0.133221 0.782717 -0.270762
-0.128750 0.779760 -0.270126
-0.125217 0.782340 -0.270547
-0.121893 0.786368 -0.271244
-0.117751 0.785305 -0.270969
-0.113020 0.780194 -0.269922
-0.108897 0.778934 -0.269611
-0.105896 0.785610 -0.270811
-0.102152 0.787219 -0.271045
-0.099010 0.793553 -0.272178
-0.094971 0.793178 -0.272034
-0.090324 0.787673 -0.270915
-0.086044 0.784873 -0.270311
-0.082221 0.785934 -0.270440
-0.078008 0.783373 -0.269882
-0.073907 0.781662 -0.269485
-0.069943 0.781166 -0.269320
-0.066043 0.781289 -0.269271
-0.062154 0.781530 -0.269245
-0.058369 0.783042 -0.269460
-0.054741 0.786736 -0.270087
-0.051071 0.790328 -0.270695
-0.047035 0.788943 -0.270360
-0.042627 0.781374 -0.268856
-0.038761 0.781886 -0.268881
-0.034890 0.782381 -0.268903
-0.030997 0.782452 -0.268844
-0.027288 0.786722 -0.269578
-0.023626 0.793231 -0.270733
-0.019696 0.793582 -0.270727
-0.015648 0.789992 -0.269977
-0.011735 0.790400 -0.269981
-0.007860 0.792912 -0.270381
-0.003967 0.795696 -0.270832
0.000040 0.789676 -0.269626
0.003950 0.790724 -0.269751
0.007865 0.796937 -0.270845
0.011804 0.794754 -0.270361
0.015693 0.789416 -0.269286
0.019622 0.790859 -0.269484
0.023585 0.793446 -0.269896
0.027532 0.794325 -0.269987
0.031522 0.796460 -0.270314
0.035454 0.796253 -0.270201
0.039212 0.791421 -0.269223
0.042950 0.787217 -0.268363
0.046832 0.786944 -0.268238
0.050749 0.787428 -0.268256
0.054666 0.787820 -0.268255
0.058664 0.789494 -0.268495
0.062768 0.792523 -0.268986
0.066572 0.790895 -0.268609
0.070467 0.790663 -0.268491
0.074347 0.790273 -0.268344
0.078106 0.788487 -0.267937
0.081981 0.788167 -0.267804
0.085856 0.787884 -0.267677
0.090074 0.791070 -0.268195
0.094062 0.791741 -0.268245
0.097619 0.788356 -0.267541
0.101527 0.788335 -0.267462
0.106141 0.794294 -0.268494
0.110763 0.799828 -0.269445
0.114706 0.799605 -0.269327
0.118074 0.795021 -0.268401
0.121293 0.789648 -0.267329
0.125140 0.789043 -0.267141
0.129427 0.791454 -0.267511
0.134823 0.801015 -0.269203
0.137661 0.793577 -0.267750
0.141383 0.792038 -0.267388
0.145740 0.794399 -0.267747
0.150665 0.799930 -0.268690
0.154655 0.799787 -0.268585
0.158065 0.796394 -0.267880
0.161140 0.791334 -0.266869
0.164929 0.790253 -0.266591
0.169034 0.790817 -0.266616
0.173181 0.791528 -0.266667
0.177080 0.790952 -0.266481
0.180854 0.789760 -0.266182
0.185795 0.794036 -0.266888
0.190573 0.797337 -0.267413
0.194028 0.794536 -0.266817
0.197165 0.790416 -0.265979
0.202110 0.794166 -0.266585
0.205490 0.791153 -0.265949
0.208795 0.787903 -0.265271
0.215546 0.798601 -0.267147
0.218379 0.793374 -0.266105
0.222383 0.792828 -0.265921
0.226753 0.793639 -0.265984
0.230817 0.793224 -0.265822
0.233752 0.788643 -0.264900
0.241906 0.802899 -0.267415
0.240549 0.783078 -0.263711
0.244533 0.782384 -0.263498
0.250176 0.787300 -0.264306
0.256236 0.793378 -0.265324
0.261148 0.795421 -0.265606
0.262919 0.787186 -0.264018
0.268113 0.790039 -0.264446
0.274046 0.795045 -0.265263
0.278129 0.794139 -0.265006
0.281539 0.791165 -0.264373
0.287708 0.796435 -0.265235
0.291828 0.795476 -0.264966
0.296530 0.796161 -0.264995
0.301160 0.796558 -0.264970
0.306011 0.797499 -0.265043
0.309857 0.795585 -0.264599
0.313817 0.793975 -0.264210
0.318009 0.792974 -0.263931
0.323501 0.795373 -0.264264
0.328730 0.796964 -0.264450
0.335051 0.801251 -0.265121
0.342568 0.808387 -0.266303
0.347798 0.809582 -0.266415
0.351368 0.806631 -0.265780
0.354893 0.803612 -0.265134
0.363573 0.812943 -0.266704
0.367091 0.809839 -0.266041
0.361492 0.785609 -0.261593
0.359627 0.770559 -0.258795
0.373906 0.792427 -0.262608
0.378387 0.791838 -0.262400
0.380200 0.785382 -0.261143
0.386612 0.789117 -0.261708
0.394572 0.796109 -0.262854
0.400730 0.799129 -0.263290
0.405871 0.799976 -0.263339
0.412254 0.803428 -0.263853
0.416561 0.802597 -0.263605
0.419746 0.799572 -0.262968
0.423343 0.797514 -0.262505
0.428044 0.797773 -0.262455
0.431262 0.795203 -0.261905
-0.506164 0.745558 -0.274163
-0.503737 0.749087 -0.274801
-0.498685 0.748706 -0.274640
-0.492470 0.746576 -0.274120
-0.487628 0.746630 -0.274047
-0.485320 0.750776 -0.274808
-0.479642 0.749638 -0.274490
-0.475675 0.751297 -0.274743
-0.470491 0.751028 -0.274602
-0.466527 0.752801 -0.274877
-0.462290 0.754173 -0.275069
-0.457433 0.754532 -0.275056
-0.452650 0.755030 -0.275071
-0.447777 0.755379 -0.275055
-0.444077 0.757780 -0.275456
-0.438907 0.757612 -0.275336
-0.434208 0.758260 -0.275381
-0.428657 0.757350 -0.275111
-0.424025 0.758071 -0.275171
-0.419285 0.758568 -0.275187
-0.414786 0.759486 -0.275288
-0.410308 0.760421 -0.275392
-0.405762 0.761199 -0.275465
-0.400727 0.760994 -0.275339
-0.395905 0.761145 -0.275286
-0.391496 0.762070 -0.275389
-0.387274 0.763334 -0.275561
-0.383195 0.764863 -0.275787
-0.376601 0.761169 -0.274960
-0.372439 0.762413 -0.275128
-0.367757 0.762523 -0.275069
-0.363041 0.762502 -0.274984
-0.358249 0.762250 -0.274852
-0.354085 0.763313 -0.274985
-0.349823 0.764124 -0.275068
-0.345711 0.765229 -0.275210
-0.342151 0.767568 -0.275600
-0.335382 0.762463 -0.274496
-0.331479 0.763896 -0.274705
-0.326770 0.763387 -0.274524
-0.322910 0.764855 -0.274740
-0.318684 0.765408 -0.274773
-0.314253 0.765408 -0.274695
-0.309895 0.765536 -0.274643
-0.305847 0.766399 -0.274739
-0.301664 0.766883 -0.274759
-0.297192 0.766569 -0.274619
-0.292667 0.766049 -0.274439
-0.288689 0.766937 -0.274539
-0.284615 0.767533 -0.274582
-0.280664 0.768441 -0.274687
-0.276430 0.768525 -0.274628
-0.272500 0.769434 -0.274734
-0.268427 0.769905 -0.274752
-0.264255 0.770050 -0.274705
-0.260112 0.770242 -0.274668
-0.256136 0.770900 -0.274724
-0.251774 0.770343 -0.274538
-0.247730 0.770720 -0.274538
-0.244125 0.772471 -0.274811
-0.239714 0.771616 -0.274567
-0.234936 0.769482 -0.274069
-0.231990 0.773389 -0.274769
-0.227615 0.772504 -0.274520
-0.223464 0.772331 -0.274411
-0.219540 0.772915 -0.274453
-0.215977 0.774786 -0.274749
-0.211909 0.774834 -0.274684
-0.207920 0.775142 -0.274671
-0.203937 0.775448 -0.274658
-0.199929 0.775635 -0.274621
-0.195667 0.774786 -0.274380
-0.191457 0.774083 -0.274167
-0.187512 0.774409 -0.274158
-0.183646 0.775048 -0.274211
-0.179973 0.776517 -0.274427
-0.176684 0.779707 -0.274981
-0.172413 0.778594 -0.274688
-0.168913 0.780941 -0.275077
-0.166103 0.786620 -0.276120
-0.159758 0.775503 -0.273860
-0.156057 0.776866 -0.274055
-0.151907 0.776001 -0.273812
-0.148204 0.777377 -0.274009
-0.144659 0.779639 -0.274380
-0.141800 0.785740 -0.275503
-0.137865 0.786114 -0.275503
-0.133589 0.784510 -0.275114
-0.129706 0.785122 -0.275161
-0.126029 0.786999 -0.275454
-0.121746 0.785148 -0.275018
-0.117385 0.782653 -0.274457
-0.113139 0.780735 -0.274008
-0.109132 0.780318 -0.273854
-0.106018 0.786256 -0.274941
-0.102732 0.791318 -0.275855
-0.098546 0.789788 -0.275483
-0.093789 0.783547 -0.274191
-0.090028 0.785065 -0.274414
-0.086204 0.786144 -0.274551
-0.081892 0.782866 -0.273839
-0.077783 0.781185 -0.273438
-0.073852 0.781086 -0.273346
-0.069892 0.780645 -0.273187
-0.065970 0.780537 -0.273093
-0.062156 0.781637 -0.273234
-0.058321 0.782588 -0.273346
-0.054606 0.785182 -0.273776
-0.051172 0.791987 -0.275024
-0.047154 0.791042 -0.274766
-0.042662 0.782342 -0.273006
-0.038726 0.781789 -0.272825
-0.034823 0.781722 -0.272739
-0.030982 0.782887 -0.272892
-0.027185 0.785266 -0.273279
-0.023434 0.789384 -0.274003
-0.019487 0.788827 -0.273821
-0.015505 0.786804 -0.273357
-0.011623 0.788049 -0.273524
-0.007870 0.796349 -0.275053
-0.003937 0.797778 -0.275254
0.000068 0.793268 -0.274310
0.004035 0.787655 -0.273153
0.007940 0.793226 -0.274154
0.011873 0.793058 -0.274047
0.015779 0.790262 -0.273435
0.019689 0.789677 -0.273248
0.023644 0.791960 -0.273614
0.027567 0.791932 -0.273534
0.031457 0.790783 -0.273239
0.035404 0.791734 -0.273348
0.039208 0.788618 -0.272676
0.043030 0.786677 -0.272229
0.046953 0.787255 -0.272266
0.050901 0.788236 -0.272381
0.054866 0.789361 -0.272522
0.058830 0.790282 -0.272625
0.062970 0.793746 -0.273214
0.066708 0.791047 -0.272623
0.070519 0.789662 -0.272283
0.074419 0.789529 -0.272184
0.078162 0.787560 -0.271733
0.081990 0.786730 -0.271500
0.085804 0.785830 -0.271254
0.090279 0.791669 -0.272294
0.094393 0.793492 -0.272567
0.098186 0.792179 -0.272241
0.102303 0.793816 -0.272478
0.106895 0.799326 -0.273452
0.111184 0.801917 -0.273870
0.114961 0.800284 -0.273483
0.118111 0.794011 -0.272213
0.121926 0.793000 -0.271945
0.125779 0.792301 -0.271736
0.129669 0.791868 -0.271578
0.134554 0.798010 -0.272668
0.137901 0.793909 -0.271813
0.141315 0.790432 -0.271077
0.145635 0.792587 -0.271409
0.150829 0.799713 -0.272682
0.155462 0.803223 -0.273269
0.157944 0.794577 -0.271554
0.161113 0.790055 -0.270621
0.164932 0.789156 -0.270374
0.169154 0.790325 -0.270517
0.173403 0.791537 -0.270668
0.177253 0.790707 -0.270433
0.181139 0.790038 -0.270228
0.187071 0.798914 -0.271824
0.191001 0.798212 -0.271612
0.193799 0.792446 -0.270445
0.196884 0.788134 -0.269553
0.201872 0.792094 -0.270219
0.206204 0.793098 -0.270328
0.210096 0.792207 -0.270079
0.214836 0.794710 -0.270469
0.218600 0.793219 -0.270107
0.222487 0.792206 -0.269835
0.227781 0.796514 -0.270561
0.232792 0.799555 -0.271048
0.240960 0.813950 -0.273663
0.238490 0.789644 -0.269023
0.240997 0.783666 -0.267820
0.245076 0.783277 -0.267664
0.251856 0.792019 -0.269215
0.256963 0.794815 -0.269653
0.261791 0.796541 -0.269889
0.266578 0.798015 -0.270078
0.270370 0.796224 -0.269656
0.273253 0.791593 -0.268704
0.276864 0.789282 -0.268186
0.281572 0.790296 -0.268287
0.287636 0.795250 -0.269120
0.292447 0.796318 -0.269229
0.295841 0.793209 -0.268561
0.302067 0.798166 -0.269391
0.305577 0.795322 -0.268771
0.309458 0.793527 -0.268346
0.313941 0.793353 -0.268221
0.319158 0.795090 -0.268450
0.324065 0.795901 -0.268507
0.328806 0.796205 -0.268469
0.337953 0.807711 -0.270504
0.344098 0.811276 -0.271067
0.348046 0.809234 -0.270591
0.350320 0.803101 -0.269361
0.356363 0.806209 -0.269837
0.363213 0.811119 -0.270645
0.367716 0.810347 -0.270404
0.366866 0.797148 -0.267872
0.374068 0.802718 -0.268800
0.383324 0.812776 -0.270553
0.382260 0.799542 -0.268019
0.381376 0.787041 -0.265623
0.387834 0.790837 -0.266224
0.397406 0.801253 -0.268040
0.401619 0.800067 -0.267725
0.406567 0.800486 -0.267705
0.411331 0.800561 -0.267622
0.417076 0.802699 -0.267918
0.421564 0.802304 -0.267751
0.426591 0.803074 -0.267798
0.429463 0.799635 -0.267077
0.430579 0.792918 -0.265759
-0.508911 0.749034 -0.279201
-0.503304 0.747738 -0.278841
-0.498617 0.747916 -0.278790
-0.492716 0.746278 -0.278356
-0.489574 0.749014 -0.278839
-0.484016 0.748023 -0.278539
-0.480865 0.750925 -0.279054
-0.476608 0.752136 -0.279214
-0.471488 0.751990 -0.279090
-0.466195 0.751580 -0.278910
-0.462856 0.754450 -0.279414
-0.458996 0.756512 -0.279749
-0.454502 0.757537 -0.279867
-0.449197 0.757175 -0.279696
-0.443890 0.756791 -0.279520
-0.439567 0.758121 -0.279702
-0.434690 0.758467 -0.279678
-0.429097 0.757496 -0.279381
-0.424274 0.757876 -0.279365
-0.419323 0.757991 -0.279294
-0.414903 0.759062 -0.279422
-0.410543 0.760226 -0.279570
-0.405995 0.761008 -0.279638
-0.401400 0.761666 -0.279681
-0.396695 0.762067 -0.279672
-0.391958 0.762359 -0.279640
-0.387634 0.763431 -0.279770
-0.382095 0.761992 -0.279381
-0.378028 0.763497 -0.279601
-0.372590 0.762110 -0.279224
-0.367939 0.762293 -0.279172
-0.363109 0.762035 -0.279030
-0.358704 0.762631 -0.279064
-0.354247 0.763063 -0.279065
-0.349404 0.762586 -0.278879
-0.346220 0.765779 -0.279449
-0.341706 0.765950 -0.279398
-0.336418 0.764270 -0.278966
-0.331741 0.763920 -0.278808
-0.327610 0.764799 -0.278904
-0.323131 0.764803 -0.278820
-0.318842 0.765211 -0.278819
-0.314536 0.765531 -0.278801
-0.310308 0.765998 -0.278813
-0.306231 0.766806 -0.278895
-0.301726 0.766473 -0.278745
-0.297200 0.766023 -0.278570
-0.292944 0.766222 -0.278529
-0.288799 0.766673 -0.278539
-0.284807 0.767502 -0.278628
-0.280833 0.768357 -0.278722
-0.277006 0.769600 -0.278895
-0.272848 0.769883 -0.278872
-0.268468 0.769481 -0.278710
-0.264367 0.769841 -0.278703
-0.260413 0.770609 -0.278780
-0.256476 0.771404 -0.278863
-0.252335 0.771548 -0.278813
-0.247561 0.769666 -0.278351
-0.243839 0.771035 -0.278551
-0.240213 0.772722 -0.278816
-0.235956 0.772339 -0.278660
-0.231946 0.772733 -0.278662
-0.227788 0.772594 -0.278556
-0.223748 0.772819 -0.278524
-0.219846 0.773506 -0.278586
-0.215936 0.774148 -0.278639
-0.212033 0.774802 -0.278695
-0.208004 0.774977 -0.278653
-0.203838 0.774597 -0.278499
-0.199905 0.775073 -0.278519
-0.196036 0.775788 -0.278587
-0.191643 0.774377 -0.278225
-0.187511 0.773953 -0.278064
-0.183485 0.773927 -0.277982
-0.179526 0.774158 -0.277953
-0.176574 0.778791 -0.278813
-0.172131 0.776903 -0.278356
-0.168435 0.778326 -0.278567
-0.164916 0.780624 -0.278955
-0.161942 0.785620 -0.279886
-0.157994 0.786031 -0.279892
-0.152833 0.780300 -0.278662
-0.148139 0.776667 -0.277856
-0.144282 0.777268 -0.277902
-0.140425 0.777876 -0.277949
-0.136828 0.779948 -0.278290
-0.133925 0.786116 -0.279454
-0.130683 0.790596 -0.280278
-0.126310 0.788406 -0.279762
-0.121730 0.784756 -0.278955
-0.117616 0.783875 -0.278703
-0.113457 0.782604 -0.278373
-0.109292 0.781184 -0.278013
-0.104888 0.777926 -0.277286
-0.100921 0.777650 -0.277157
-0.096938 0.777207 -0.276994
-0.093346 0.779834 -0.277445
-0.089789 0.782929 -0.277989
-0.086026 0.784477 -0.278223
-0.081645 0.780534 -0.277361
-0.077666 0.780015 -0.277184
-0.073826 0.780798 -0.277265
-0.069976 0.781518 -0.277335
-0.066006 0.780971 -0.277151
-0.062121 0.781327 -0.277148
-0.058252 0.781881 -0.277184
-0.054517 0.784216 -0.277575
-0.050933 0.788922 -0.278436
-0.047147 0.791273 -0.278829
-0.042992 0.788027 -0.278109
-0.038966 0.786456 -0.277722
-0.035038 0.786401 -0.277637
-0.030997 0.783947 -0.277075
-0.027053 0.783154 -0.276843
-0.023133 0.782717 -0.276682
-0.019237 0.782820 -0.276629
-0.015331 0.782570 -0.276505
-0.011587 0.788809 -0.277667
-0.007756 0.793526 -0.278526
-0.003824 0.794338 -0.278612
0.000151 0.791492 -0.277974
0.004082 0.791756 -0.277951
0.008013 0.791292 -0.277785
0.011943 0.791692 -0.277789
0.015831 0.787229 -0.276833
0.019695 0.784139 -0.276149
0.023622 0.786085 -0.276459
0.027591 0.789121 -0.276983
0.031505 0.789147 -0.276914
0.035440 0.789874 -0.276982
0.039329 0.789186 -0.276772
0.043157 0.787229 -0.276313
0.047073 0.787541 -0.276300
0.051036 0.788700 -0.276453
0.054965 0.789090 -0.276455
0.058863 0.788891 -0.276342
0.062934 0.791348 -0.276750
0.067270 0.797221 -0.277827
0.070805 0.791746 -0.276678
0.074429 0.788007 -0.275870
0.078256 0.787063 -0.275611
0.082078 0.786163 -0.275360
0.086109 0.787556 -0.275558
0.090497 0.792388 -0.276429
0.094234 0.790515 -0.275988
0.098224 0.791111 -0.276029
0.102184 0.791373 -0.276006
0.106736 0.796601 -0.276952
0.111375 0.802119 -0.277953
0.114690 0.796836 -0.276846
0.118152 0.793020 -0.276026
0.121778 0.790645 -0.275488
0.125891 0.791827 -0.275643
0.130200 0.794244 -0.276038
0.133901 0.792470 -0.275617
0.137655 0.791121 -0.275279
0.141538 0.790616 -0.275105
0.145759 0.792149 -0.275327
0.149987 0.793601 -0.275533
0.154697 0.797690 -0.276252
0.157997 0.793712 -0.275402
0.160907 0.787806 -0.274180
0.165020 0.788486 -0.274236
0.169565 0.791310 -0.274707
0.173510 0.790960 -0.274563
0.177548 0.791039 -0.274501
0.182384 0.794883 -0.275168
0.187452 0.799588 -0.276001
0.190440 0.794563 -0.274951
0.195098 0.797158 -0.275375
0.196844 0.786897 -0.273315
0.202159 0.792257 -0.274272
0.206165 0.791874 -0.274120
0.209997 0.790749 -0.273825
0.214559 0.792547 -0.274093
0.218953 0.793563 -0.274210
0.223618 0.795534 -0.274511
0.228781 0.799263 -0.275149
0.234581 0.805160 -0.276203
0.238464 0.803799 -0.275861
0.241431 0.799152 -0.274886
0.243305 0.790772 -0.273194
0.248629 0.794543 -0.273838
0.253001 0.794894 -0.273824
0.258053 0.797441 -0.274231
0.262661 0.798384 -0.274330
0.267742 0.800759 -0.274702
0.271485 0.798757 -0.274235
0.274273 0.793777 -0.273198
0.277514 0.790286 -0.272447
0.281940 0.790422 -0.272389
0.287802 0.794753 -0.273133
0.292764 0.796255 -0.273336
0.295895 0.792381 -0.272511
0.301689 0.796107 -0.273136
0.306619 0.797250 -0.273268
0.310563 0.795586 -0.272864
0.314985 0.795205 -0.272705
0.319897 0.796086 -0.272785
0.325010 0.797412 -0.272950
0.330489 0.799592 -0.273276
0.335861 0.801385 -0.273528
0.342481 0.806218 -0.274357
0.348674 0.809809 -0.274948
0.353717 0.810441 -0.274977
0.350664 0.791470 -0.271286
0.352142 0.783770 -0.269737
0.372898 0.810164 -0.274555
0.378083 0.810933 -0.274608
0.383498 0.812187 -0.274752
0.387670 0.810634 -0.274365
0.386444 0.797244 -0.271743
0.391755 0.798405 -0.271870
0.397600 0.800703 -0.272212
0.402587 0.801154 -0.272205
0.407056 0.800546 -0.271999
0.412285 0.801573 -0.272101
0.417765 0.803143 -0.272305
0.427457 0.813267 -0.274119
0.430644 0.810219 -0.273455
0.431299 0.802308 -0.271878
0.434999 0.800622 -0.271473
-0.508687 0.747999 -0.283315
-0.504242 0.748477 -0.283325
-0.499645 0.748808 -0.283302
-0.494242 0.747964 -0.283025
-0.489583 0.748338 -0.283008
-0.485944 0.750397 -0.283352
-0.481423 0.751133 -0.283410
-0.476904 0.751927 -0.283479
-0.472810 0.753470 -0.283708
-0.468284 0.754356 -0.283795
-0.462894 0.753832 -0.283579
-0.458975 0.755795 -0.283895
-0.454591 0.757009 -0.284051
-0.449595 0.757186 -0.283984
-0.443702 0.755788 -0.283579
-0.439921 0.758075 -0.283963
-0.433602 0.755852 -0.283384
-0.429386 0.757351 -0.283599
-0.424921 0.758398 -0.283718
-0.420435 0.759390 -0.283825
-0.415250 0.759053 -0.283649
-0.410723 0.759910 -0.283729
-0.406054 0.760468 -0.283744
-0.402123 0.762417 -0.284056
-0.397651 0.763298 -0.284141
-0.392638 0.763064 -0.283990
-0.387124 0.761761 -0.283613
-0.382516 0.762212 -0.283608
-0.377767 0.762321 -0.283532
-0.372569 0.761433 -0.283245
-0.367767 0.761301 -0.283119
-0.363606 0.762475 -0.283271
-0.359200 0.763083 -0.283303
-0.354362 0.762697 -0.283125
-0.349954 0.763193 -0.283135
-0.345745 0.764090 -0.283230
-0.341535 0.764947 -0.283317
-0.337116 0.765279 -0.283293
-0.332426 0.764924 -0.283126
-0.327874 0.764826 -0.283013
-0.323305 0.764625 -0.282880
-0.318697 0.764264 -0.282713
-0.314687 0.765313 -0.282844
-0.310500 0.765891 -0.282875
-0.306266 0.766310 -0.282874
-0.302301 0.767377 -0.283010
-0.297218 0.765493 -0.282527
-0.293156 0.766211 -0.282590
-0.289465 0.767895 -0.282856
-0.285792 0.769627 -0.283133
-0.281349 0.769223 -0.282962
-0.277217 0.769630 -0.282961
-0.273026 0.769835 -0.282919
-0.268618 0.769363 -0.282735
-0.264419 0.769447 -0.282669
-0.260577 0.770553 -0.282816
-0.256566 0.771136 -0.282854
-0.252160 0.770470 -0.282632
-0.248362 0.771649 -0.282795
-0.243881 0.770639 -0.282502
-0.240083 0.771775 -0.282656
-0.235874 0.771548 -0.282527
-0.231641 0.771191 -0.282371
-0.227784 0.772069 -0.282473
-0.223850 0.772668 -0.282517
-0.219779 0.772766 -0.282456
-0.215851 0.773344 -0.282496
-0.212245 0.775088 -0.282778
-0.207962 0.774331 -0.282541
-0.203931 0.774471 -0.282490
-0.199998 0.774959 -0.282512
-0.196254 0.776181 -0.282686
-0.192418 0.777049 -0.282787
-0.187800 0.774691 -0.282219
-0.183588 0.773913 -0.281980
-0.179303 0.772758 -0.281662
-0.176080 0.776185 -0.282293
-0.172675 0.778916 -0.282780
-0.169640 0.783440 -0.283636
-0.166529 0.787789 -0.284456
-0.162300 0.786936 -0.284201
-0.159123 0.791195 -0.285002
-0.154158 0.786604 -0.283976
-0.148544 0.778391 -0.282205
-0.144211 0.776527 -0.281743
-0.140405 0.777415 -0.281849
-0.136873 0.779854 -0.282275
-0.133968 0.786026 -0.283468
-0.130809 0.791019 -0.284417
-0.126866 0.791493 -0.284437
-0.122181 0.787298 -0.283497
-0.117914 0.785522 -0.283055
-0.113791 0.784579 -0.282785
-0.109032 0.779132 -0.281590
-0.104835 0.777313 -0.281141
-0.100884 0.777161 -0.281034
-0.096979 0.777329 -0.280993
-0.093226 0.778700 -0.281198
-0.089749 0.782449 -0.281890
-0.085943 0.783637 -0.282057
-0.081814 0.781969 -0.281639
-0.077578 0.779117 -0.280980
-0.073905 0.781548 -0.281402
-0.069997 0.781746 -0.281366
-0.066026 0.781243 -0.281188
-0.062107 0.781250 -0.281114
-0.058524 0.785350 -0.281875
-0.054798 0.788067 -0.282353
-0.050907 0.788822 -0.282431
-0.046983 0.789155 -0.282423
-0.042932 0.787488 -0.282007
-0.039067 0.788703 -0.282179
-0.035132 0.788805 -0.282124
-0.031146 0.787799 -0.281843
-0.026985 0.782492 -0.280689
-0.023081 0.782493 -0.280614
-0.019157 0.781840 -0.280406
-0.015255 0.781695 -0.280302
-0.011618 0.792324 -0.282384
-0.007670 0.792099 -0.282262
-0.003704 0.790377 -0.281837
0.000197 0.793448 -0.282384
0.004130 0.795804 -0.282785
0.008085 0.794398 -0.282424
0.012001 0.787501 -0.280953
0.015873 0.783062 -0.279980
0.019766 0.783271 -0.279947
0.023697 0.785496 -0.280322
0.027662 0.788272 -0.280808
0.031654 0.791113 -0.281306
0.035603 0.791842 -0.281378
0.039417 0.788826 -0.280694
0.043218 0.786187 -0.280087
0.047193 0.787788 -0.280335
0.051141 0.788585 -0.280421
0.054986 0.787418 -0.280111
0.058866 0.787015 -0.279955
0.063196 0.793452 -0.281175
0.067516 0.798906 -0.282196
0.071117 0.794141 -0.281163
0.074595 0.788417 -0.279937
0.078876 0.792747 -0.280732
0.083294 0.798142 -0.281740
0.087296 0.798581 -0.281752
0.090139 0.787300 -0.279414
0.094088 0.787658 -0.279411
0.097994 0.787573 -0.279320
0.101892 0.787408 -0.279212
0.107300 0.799986 -0.281655
0.111497 0.801744 -0.281931
0.115166 0.799218 -0.281350
0.118081 0.791176 -0.279667
0.121898 0.790230 -0.279403
0.126316 0.793545 -0.279990
0.129980 0.791491 -0.279505
0.133797 0.790544 -0.279241
0.137684 0.790082 -0.279074
0.141616 0.789892 -0.278961
0.145525 0.789545 -0.278817
0.150842 0.797408 -0.280308
0.154020 0.792660 -0.279288
0.158100 0.793114 -0.279303
0.161480 0.789742 -0.278557
0.165543 0.790095 -0.278552
0.169671 0.790718 -0.278601
0.173838 0.791472 -0.278675
0.177916 0.791717 -0.278648
0.182710 0.795320 -0.279288
0.187200 0.797303 -0.279606
0.190128 0.792045 -0.278487
0.194447 0.793163 -0.278633
0.199922 0.799223 -0.279758
0.203555 0.797129 -0.279267
0.207878 0.797954 -0.279354
0.210224 0.790612 -0.277825
0.213414 0.786893 -0.277014
0.219005 0.792709 -0.278087
0.222671 0.790826 -0.277639
0.228942 0.798812 -0.279139
0.233193 0.798952 -0.279090
0.236484 0.795535 -0.278338
0.241256 0.797482 -0.278645
0.245451 0.797276 -0.278527
0.248548 0.793231 -0.277653
0.252538 0.792296 -0.277391
0.256693 0.791883 -0.277232
0.261301 0.792905 -0.277355
0.265542 0.792652 -0.277228
0.271547 0.797931 -0.278187
0.275866 0.797722 -0.278067
0.278972 0.793746 -0.277207
0.283579 0.794358 -0.277248
0.288439 0.795635 -0.277419
0.292438 0.794298 -0.277077
0.296672 0.793615 -0.276864
0.302570 0.797599 -0.277564
0.306469 0.795829 -0.277136
0.311917 0.798304 -0.277540
0.317757 0.801706 -0.278124
0.322978 0.803300 -0.278353
0.328268 0.804970 -0.278597
0.330864 0.799565 -0.277458
0.334723 0.797485 -0.276970
0.339046 0.796577 -0.276710
0.348524 0.808431 -0.278937
0.354585 0.811558 -0.279462
0.355061 0.801091 -0.277338
0.355210 0.790098 -0.275114
0.365783 0.803829 -0.277702
0.373235 0.809946 -0.278806
0.371200 0.794205 -0.275660
0.375438 0.793008 -0.275343
0.380233 0.793079 -0.275272
0.390525 0.805235 -0.277545
0.395569 0.805705 -0.277549
0.398785 0.802263 -0.276795
0.401852 0.798619 -0.276003
0.407335 0.800153 -0.276214
0.413225 0.802539 -0.276589
0.418854 0.804390 -0.276861
0.430244 0.817912 -0.279388
0.434791 0.817526 -0.279225
0.432680 0.804066 -0.276538
0.431964 0.793717 -0.274455
-0.511008 0.750808 -0.288276
-0.506181 0.750737 -0.288163
-0.499845 0.748416 -0.287550
-0.494743 0.748045 -0.287367
-0.489991 0.748280 -0.287315
-0.485483 0.748967 -0.287361
-0.481019 0.749787 -0.287434
-0.477142 0.751615 -0.287728
-0.473239 0.753475 -0.288027
-0.468866 0.754621 -0.288168
-0.463397 0.753977 -0.287914
-0.457702 0.752949 -0.287575
-0.453700 0.754792 -0.287867
-0.449069 0.755586 -0.287927
-0.444768 0.756962 -0.288114
-0.439153 0.756030 -0.287796
-0.435226 0.758070 -0.288128
-0.429499 0.756874 -0.287752
-0.425150 0.758136 -0.287914
-0.420361 0.758575 -0.287896
-0.415686 0.759196 -0.287919
-0.411103 0.759959 -0.287972
-0.406699 0.761034 -0.288094
-0.402280 0.762053 -0.288205
-0.397917 0.763154 -0.288333
-0.391249 0.759642 -0.287458
-0.386801 0.760452 -0.287525
-0.382394 0.761308 -0.287603
-0.377736 0.761605 -0.287559
-0.372781 0.761230 -0.287371
-0.368478 0.762160 -0.287467
-0.363697 0.762028 -0.287333
-0.358771 0.761515 -0.287117
-0.354083 0.761447 -0.286999
-0.349869 0.762373 -0.287097
-0.345695 0.763348 -0.287206
-0.341517 0.764280 -0.287307
-0.336900 0.764158 -0.287180
-0.333121 0.765934 -0.287464
-0.328391 0.765440 -0.287258
-0.322963 0.763190 -0.286675
-0.318995 0.764383 -0.286835
-0.315079 0.765680 -0.287018
-0.310679 0.765741 -0.286936
-0.306312 0.765828 -0.286860
-0.301960 0.765902 -0.286781
-0.297528 0.765713 -0.286647
-0.293366 0.766181 -0.286655
-0.289645 0.767799 -0.286910
-0.285706 0.768813 -0.287036
-0.281655 0.769495 -0.287091
-0.277732 0.770509 -0.287218
-0.273024 0.769260 -0.286860
-0.268770 0.769240 -0.286767
-0.264627 0.769498 -0.286733
-0.260490 0.769735 -0.286695
-0.256417 0.770129 -0.286692
-0.252330 0.770449 -0.286673
-0.248146 0.770426 -0.286581
-0.244412 0.771795 -0.286787
-0.240171 0.771527 -0.286644
-0.235816 0.770828 -0.286409
-0.231702 0.770872 -0.286334
-0.227841 0.771744 -0.286435
-0.223891 0.772296 -0.286468
-0.219734 0.772097 -0.286342
-0.216228 0.774198 -0.286705
-0.212480 0.775451 -0.286889
-0.208498 0.775840 -0.286888
-0.204017 0.774310 -0.286480
-0.200086 0.774817 -0.286506
-0.196224 0.775586 -0.286587
-0.192123 0.775386 -0.286463
-0.188000 0.775054 -0.286311
-0.183761 0.774184 -0.286045
-0.179962 0.775140 -0.286167
-0.176343 0.776898 -0.286458
-0.174519 0.786762 -0.288466
-0.171795 0.792906 -0.289684
-0.168253 0.795465 -0.290144
-0.163678 0.793147 -0.289572
-0.159634 0.793306 -0.289524
-0.154109 0.785958 -0.287892
-0.148647 0.778537 -0.286245
-0.144356 0.776923 -0.285825
-0.140584 0.778025 -0.285979
-0.136694 0.778501 -0.286000
-0.133584 0.783469 -0.286968
-0.130196 0.787050 -0.287644
-0.126674 0.790000 -0.288186
-0.122581 0.789512 -0.288003
-0.117733 0.784062 -0.286778
-0.113542 0.782640 -0.286401
-0.109330 0.780940 -0.285965
-0.104948 0.777888 -0.285247
-0.101063 0.778274 -0.285250
-0.097414 0.780482 -0.285636
-0.093266 0.778842 -0.285214
-0.089775 0.782513 -0.285907
-0.086139 0.785208 -0.286394
-0.082050 0.784014 -0.286066
-0.077994 0.782982 -0.285773
-0.073975 0.782207 -0.285533
-0.070048 0.782272 -0.285470
-0.066068 0.781740 -0.285282
-0.062112 0.781394 -0.285133
-0.058332 0.783130 -0.285419
-0.054916 0.789788 -0.286732
-0.051006 0.790452 -0.286793
-0.047003 0.789782 -0.286576
-0.042952 0.788214 -0.286172
-0.039088 0.789587 -0.286381
-0.035230 0.791277 -0.286656
-0.031185 0.789361 -0.286180
-0.026956 0.782757 -0.284728
-0.023016 0.781932 -0.284480
-0.019124 0.782256 -0.284472
-0.015331 0.786065 -0.285188
-0.011588 0.793340 -0.286623
-0.007651 0.794117 -0.286707
-0.003662 0.791808 -0.286151
0.000251 0.794703 -0.286675
0.004183 0.799077 -0.287505
0.008157 0.796690 -0.286933
0.012074 0.786703 -0.284787
0.015959 0.783802 -0.284110
0.019872 0.784900 -0.284262
0.023813 0.787027 -0.284626
0.027771 0.789062 -0.284971
0.031845 0.794545 -0.286029
0.035687 0.791430 -0.285309
0.039565 0.790071 -0.284952
0.043376 0.787458 -0.284337
0.047265 0.787017 -0.284170
0.051225 0.788040 -0.284306
0.055062 0.786718 -0.283958
0.058918 0.785913 -0.283717
0.063486 0.795965 -0.285712
0.067535 0.797356 -0.285923
0.071161 0.792992 -0.284949
0.075229 0.794627 -0.285209
0.079434 0.797670 -0.285759
0.083752 0.801636 -0.286499
0.087674 0.801009 -0.286294
0.090240 0.786820 -0.283304
0.094226 0.787518 -0.283372
0.098090 0.787026 -0.283197
0.102035 0.787259 -0.283170
0.107502 0.800289 -0.285767
0.111912 0.803730 -0.286396
0.115728 0.802255 -0.286018
0.119107 0.797574 -0.284984
0.122541 0.793601 -0.284096
0.127537 0.800822 -0.285498
0.130227 0.791898 -0.283598
0.133523 0.787500 -0.282625
0.137521 0.787805 -0.282613
0.141674 0.789026 -0.282789
0.145634 0.788990 -0.282707
0.149656 0.789283 -0.282693
0.154658 0.795093 -0.283804
0.158137 0.792140 -0.283128
0.161941 0.791061 -0.282834
0.165784 0.790202 -0.282585
0.170009 0.791300 -0.282735
0.173981 0.791047 -0.282609
0.178112 0.791537 -0.282635
0.182382 0.792631 -0.282784
0.186003 0.790611 -0.282300
0.191545 0.797372 -0.283600
0.195714 0.797686 -0.283589
0.200131 0.799024 -0.283787
0.205914 0.806073 -0.285142
0.209531 0.803749 -0.284596
0.210720 0.791555 -0.282050
0.214547 0.790359 -0.281734
0.218630 0.790161 -0.281621
0.223473 0.792846 -0.282091
0.228054 0.794386 -0.282329
0.231534 0.791737 -0.281719
0.237146 0.796882 -0.282686
0.242351 0.800329 -0.283309
0.245979 0.798070 -0.282778
0.250835 0.800061 -0.283106
0.252425 0.790870 -0.281177
0.257048 0.792025 -0.281336
0.261879 0.793758 -0.281612
0.265351 0.791003 -0.280983
0.272760 0.800726 -0.282867
0.277619 0.802138 -0.283077
0.280793 0.798285 -0.282227
0.284405 0.795816 -0.281655
0.288605 0.795099 -0.281437
0.292808 0.794353 -0.281212
0.296923 0.793315 -0.280929
0.302663 0.796838 -0.281562
0.307257 0.797002 -0.281519
0.311745 0.796812 -0.281406
0.318969 0.803957 -0.282763
0.322664 0.801438 -0.282182
0.321814 0.787021 -0.279217
0.330760 0.798280 -0.281397
0.334697 0.796405 -0.280945
0.338893 0.795183 -0.280624
0.347953 0.805994 -0.282709
0.354314 0.809870 -0.283406
0.358157 0.807537 -0.282862
0.361198 0.803326 -0.281942
0.361905 0.793728 -0.279947
0.366184 0.792623 -0.279649
0.371115 0.793013 -0.279649
0.377077 0.795706 -0.280107
0.381371 0.794617 -0.279811
0.392179 0.807860 -0.282369
0.397105 0.808032 -0.282322
0.398667 0.801013 -0.280844
0.402981 0.800015 -0.280565
0.408098 0.800757 -0.280631
0.413747 0.802625 -0.280921
0.420051 0.805843 -0.281478
0.427791 0.811954 -0.282608
0.429218 0.805396 -0.281224
0.433718 0.805132 -0.281088
0.434509 0.797719 -0.279536
-0.510688 0.749616 -0.292371
-0.504676 0.747733 -0.291842
-0.499718 0.747515 -0.291688
-0.495024 0.747774 -0.291639
-0.490342 0.748124 -0.291608
-0.486232 0.749447 -0.291795
-0.481734 0.750223 -0.291856
-0.477184 0.750974 -0.291909
-0.473483 0.753163 -0.292285
-0.468761 0.753737 -0.292294
-0.464085 0.754418 -0.292327
-0.457408 0.751746 -0.291604
-0.452891 0.752707 -0.291697
-0.449930 0.756367 -0.292398
-0.444923 0.756529 -0.292310
-0.440813 0.758260 -0.292575
-0.435534 0.757920 -0.292374
-0.430449 0.757894 -0.292245
-0.425225 0.757579 -0.292050
-0.420423 0.757997 -0.292021
-0.415966 0.759029 -0.292129
-0.411552 0.760119 -0.292251
-0.406946 0.760821 -0.292286
-0.402399 0.761601 -0.292339
-0.397481 0.761616 -0.292222
-0.392677 0.761802 -0.292144
-0.388057 0.762305 -0.292138
-0.382014 0.759864 -0.291477
-0.377606 0.760670 -0.291540
-0.373299 0.761646 -0.291641
-0.368816 0.762214 -0.291653
-0.364902 0.763949 -0.291925
-0.357990 0.759171 -0.290752
-0.355847 0.764672 -0.291861
-0.350072 0.762178 -0.291198
-0.345602 0.762498 -0.291159
-0.341360 0.763282 -0.291225
-0.337242 0.764311 -0.291345
-0.332655 0.764210 -0.291216
-0.328323 0.764649 -0.291208
-0.323629 0.764170 -0.290997
-0.319399 0.764748 -0.291022
-0.315873 0.767026 -0.291421
-0.311540 0.767285 -0.291376
-0.306382 0.765398 -0.290860
-0.302004 0.765411 -0.290763
-0.297573 0.765231 -0.290624
-0.293489 0.765911 -0.290675
-0.289601 0.767084 -0.290836
-0.285758 0.768363 -0.291020
-0.281820 0.769365 -0.291143
-0.277895 0.770383 -0.291271
-0.274269 0.772236 -0.291583
