ply
format ascii 1.0
comment ---
element vertex 1756
property float x
property float y
property float z
element face 0
property list uchar uint vertex_indices
end_header
0.527505 0.810158 0.106980
0.535003 0.820499 0.108873
0.538632 0.814561 0.108005
0.540994 0.803722 0.106306
0.545419 0.801347 0.106052
0.550142 0.800148 0.106005
0.554847 0.798867 0.105950
0.561143 0.803464 0.106906
0.565859 0.802085 0.106847
0.570388 0.800022 0.106676
0.575564 0.800238 0.106903
0.581148 0.801787 0.107364
0.586327 0.801844 0.107577
0.591524 0.801892 0.107795
0.596919 0.802519 0.108120
0.603047 0.805415 0.108843
0.610141 0.811206 0.110075
0.617631 0.817976 0.111486
0.623873 0.820629 0.112194
0.623688 0.803753 0.109521
0.629374 0.804758 0.109954
0.634710 0.804643 0.110199
0.640189 0.804873 0.110510
0.648291 0.812459 0.112113
0.653936 0.812893 0.112475
0.656708 0.805351 0.111446
0.660759 0.801428 0.111054
0.667542 0.804845 0.111955
0.674064 0.807416 0.112714
0.680211 0.808881 0.113283
0.683977 0.804160 0.112765
0.688738 0.802025 0.112705
0.694737 0.802971 0.113193
0.700163 0.802442 0.113422
0.705996 0.802864 0.113821
0.711884 0.803364 0.114234
0.717860 0.804022 0.114676
0.723674 0.804257 0.115041
0.732724 0.811881 0.116727
0.738766 0.812479 0.117154
0.741419 0.805477 0.116208
0.748702 0.808860 0.117123
0.754787 0.809551 0.117547
0.761811 0.812253 0.118325
0.770936 0.819377 0.119894
0.772701 0.810887 0.118624
0.776216 0.806267 0.118039
0.783982 0.810520 0.119048
0.790556 0.812307 0.119594
0.798077 0.816012 0.120472
0.803740 0.816015 0.120656
0.806962 0.811300 0.119957
0.811429 0.809188 0.119710
0.816784 0.808914 0.119774
0.825365 0.814883 0.120954
0.830413 0.814179 0.120890
0.835160 0.813037 0.120718
0.838610 0.809635 0.120105
0.843645 0.809316 0.120029
0.855807 0.822048 0.122311
0.867101 0.824005 0.122488
-0.262977 0.755820 0.114808
-0.258658 0.756456 0.114978
-0.255569 0.759413 0.115554
-0.250510 0.759021 0.115474
-0.246286 0.760252 0.115671
-0.241950 0.761424 0.115828
-0.237765 0.763012 0.116036
-0.232352 0.762462 0.115815
-0.227063 0.762242 0.115629
-0.222286 0.763089 0.115618
-0.215846 0.760864 0.115007
-0.211064 0.761891 0.114980
-0.206858 0.764149 0.115160
-0.201353 0.763960 0.114862
-0.192458 0.757051 0.113295
-0.187767 0.758552 0.113275
-0.184289 0.762622 0.113712
-0.180132 0.765421 0.113897
-0.175483 0.767290 0.113894
-0.169876 0.767196 0.113516
-0.164943 0.768566 0.113396
-0.159892 0.769723 0.113227
-0.146047 0.751546 0.109511
-0.145843 0.763319 0.111272
-0.144061 0.771821 0.112423
-0.138472 0.771812 0.112016
-0.134795 0.776212 0.112406
-0.127680 0.772620 0.111345
-0.121688 0.771569 0.110746
-0.116796 0.773105 0.110613
-0.115960 0.784559 0.112264
-0.106119 0.773942 0.109950
-0.099006 0.769838 0.108813
-0.093761 0.770327 0.108503
-0.088743 0.771360 0.108294
-0.084333 0.773956 0.108366
-0.080397 0.777829 0.108667
-0.075594 0.779409 0.108566
-0.070209 0.779371 0.108184
-0.064590 0.778611 0.107681
-0.058802 0.777281 0.107084
-0.050749 0.769334 0.105335
-0.046095 0.770984 0.105278
-0.041415 0.772542 0.105211
-0.036181 0.772408 0.104854
-0.030587 0.771100 0.104300
-0.027789 0.778370 0.105244
-0.023665 0.781620 0.105493
-0.017850 0.779476 0.104815
-0.011410 0.775143 0.103766
-0.005611 0.772728 0.103058
-0.000634 0.772936 0.102809
0.004076 0.774002 0.102715
0.006292 0.783779 0.104121
0.011818 0.782037 0.103556
0.018976 0.774234 0.101962
0.024173 0.773332 0.101557
0.029070 0.773464 0.101334
0.033856 0.773963 0.101181
0.038093 0.776569 0.101392
0.041789 0.781383 0.101983
0.045510 0.786227 0.102583
0.051438 0.782024 0.101654
0.057227 0.778176 0.100793
0.061959 0.778693 0.100676
0.066825 0.778583 0.100459
0.072483 0.774819 0.099632
0.076931 0.776441 0.099718
0.081267 0.778609 0.099900
0.083908 0.789063 0.101479
0.088606 0.789736 0.101418
0.094299 0.785318 0.100507
0.099542 0.782981 0.099952
0.104079 0.784251 0.100005
0.108700 0.785080 0.099989
0.114869 0.777151 0.098514
0.119570 0.777265 0.098387
0.124232 0.777567 0.098297
0.127460 0.786667 0.099676
0.131488 0.791194 0.100295
0.136641 0.788613 0.099734
0.142323 0.782252 0.098550
0.147234 0.780791 0.098185
0.152023 0.780072 0.097947
0.156589 0.780927 0.097973
0.160620 0.785936 0.098692
0.165232 0.786615 0.098695
0.170094 0.785232 0.098360
0.174715 0.785782 0.098348
0.179320 0.786478 0.098364
0.184082 0.785722 0.098142
0.189160 0.781713 0.097387
0.193652 0.783367 0.097569
0.198418 0.782160 0.097282
0.202988 0.783050 0.097344
0.207735 0.781842 0.097062
0.212251 0.783433 0.097245
0.216828 0.784348 0.097318
0.221532 0.783495 0.097104
0.226146 0.783890 0.097096
0.230583 0.787344 0.097594
0.235228 0.787490 0.097551
0.240009 0.784877 0.097057
0.244783 0.781816 0.096491
0.249011 0.791697 0.098053
0.253680 0.791653 0.097987
0.258415 0.789382 0.097559
0.263157 0.785970 0.096945
0.267793 0.786027 0.096903
0.272428 0.786153 0.096875
0.277062 0.786404 0.096869
0.281675 0.789798 0.097380
0.286322 0.792066 0.097708
0.290994 0.796171 0.098339
0.295698 0.799254 0.098805
0.300406 0.800204 0.098924
0.304996 0.793365 0.097771
0.309583 0.789344 0.097081
0.314143 0.785767 0.096467
0.318880 0.789107 0.096985
0.323537 0.789262 0.096985
0.328192 0.789291 0.096967
0.332915 0.790807 0.097194
0.337482 0.788837 0.096854
0.342120 0.788511 0.096784
0.346839 0.789590 0.096947
0.351658 0.792070 0.097340
0.357042 0.802519 0.099038
0.361362 0.796887 0.098112
0.365696 0.792091 0.097324
0.370636 0.795232 0.097836
0.375391 0.795855 0.097939
0.379875 0.793406 0.097543
0.384514 0.792792 0.097449
0.389253 0.793191 0.097524
0.393952 0.793138 0.097527
0.398830 0.794682 0.097795
0.404415 0.802234 0.099047
0.407837 0.791033 0.097238
0.412382 0.789696 0.097044
0.418557 0.801069 0.098931
0.423334 0.801140 0.098973
0.427685 0.798083 0.098508
0.431999 0.794931 0.098030
0.436806 0.795276 0.098128
0.441583 0.795360 0.098187
0.446380 0.795530 0.098263
0.451175 0.795634 0.098332
0.455908 0.795312 0.098336
0.460615 0.794821 0.098316
0.465677 0.796317 0.098625
0.470905 0.798607 0.099070
0.476570 0.803082 0.099877
0.481640 0.804160 0.100132
0.486300 0.803049 0.100032
0.491359 0.803931 0.100264
0.495913 0.802257 0.100080
0.500728 0.801858 0.100111
0.504498 0.796563 0.099341
0.509713 0.798017 0.099687
0.514982 0.799595 0.100058
0.520159 0.800651 0.100349
0.528100 0.813383 0.102573
0.535504 0.823290 0.104339
0.539907 0.820471 0.104010
0.541551 0.806653 0.101865
0.545764 0.803408 0.101474
0.549675 0.799057 0.100904
0.554780 0.799327 0.101106
0.560247 0.800868 0.101525
0.565198 0.800410 0.101619
0.570154 0.799920 0.101713
0.575317 0.800112 0.101927
0.580377 0.799879 0.102077
0.585776 0.800731 0.102415
0.591313 0.801952 0.102821
0.597092 0.803856 0.103349
0.601984 0.802771 0.103383
0.608314 0.806208 0.104183
0.616857 0.816362 0.106120
0.620537 0.811208 0.105492
0.623954 0.805353 0.104750
0.629763 0.806718 0.105231
0.634753 0.805575 0.105296
0.639919 0.804905 0.105446
0.647650 0.811459 0.106827
0.653101 0.811381 0.107092
0.657152 0.807387 0.106696
0.661657 0.804673 0.106522
0.667354 0.805158 0.106898
0.673693 0.807253 0.107555
0.680503 0.810453 0.108407
0.687051 0.812829 0.109124
0.689606 0.805012 0.108094
0.694971 0.804345 0.108293
0.700064 0.802980 0.108374
0.705571 0.802605 0.108627
0.711843 0.804025 0.109191
0.717646 0.804263 0.109551
0.724921 0.807884 0.110499
0.733229 0.813753 0.111838
0.739285 0.814348 0.112257
0.741310 0.805898 0.111092
0.748267 0.808541 0.111858
0.754683 0.809934 0.112400
0.761139 0.811389 0.112944
0.769462 0.816792 0.114174
0.771846 0.809602 0.113177
0.777101 0.808575 0.113251
0.783773 0.810521 0.113834
0.791050 0.813696 0.114620
0.798202 0.816606 0.115342
0.803638 0.816107 0.115443
0.805802 0.809269 0.114398
0.809636 0.805898 0.113944
0.815819 0.807204 0.114298
0.823075 0.810616 0.115002
0.830508 0.814395 0.115747
0.835317 0.813314 0.115602
0.840137 0.812385 0.115458
0.845402 0.812407 0.115455
0.850537 0.812316 0.115404
0.854865 0.810902 0.115090
0.859745 0.810624 0.114950
-0.262386 0.754327 0.109715
-0.260522 0.759315 0.110663
-0.255571 0.759044 0.110624
-0.250609 0.758874 0.110574
-0.246124 0.759684 0.110676
-0.242640 0.762453 0.111108
-0.237731 0.762771 0.111065
-0.232324 0.762280 0.110848
-0.225937 0.760046 0.110288
-0.220483 0.759635 0.110035
-0.215653 0.760506 0.109992
-0.210836 0.761508 0.109949
-0.206032 0.762636 0.109906
-0.201150 0.763707 0.109832
-0.197476 0.767282 0.110192
-0.191568 0.766474 0.109740
-0.184561 0.763443 0.108873
-0.181129 0.767788 0.109319
-0.176019 0.768747 0.109141
-0.169153 0.766026 0.108293
-0.163201 0.765216 0.107778
-0.158376 0.766845 0.107690
-0.152366 0.765900 0.107136
-0.146789 0.765890 0.106743
-0.144867 0.774125 0.107805
-0.139099 0.773746 0.107337
-0.132030 0.770312 0.106328
-0.127041 0.771642 0.106159
-0.121179 0.770891 0.105623
-0.115011 0.769336 0.104949
-0.111254 0.773593 0.105293
-0.105677 0.773400 0.104860
-0.099194 0.770867 0.104025
-0.093641 0.770579 0.103585
-0.088853 0.772203 0.103480
-0.084109 0.773926 0.103395
-0.079548 0.776127 0.103397
-0.074918 0.778138 0.103371
-0.071624 0.783810 0.103976
-0.065917 0.782857 0.103450
-0.056899 0.772438 0.101316
-0.050856 0.770173 0.100585
-0.045766 0.770550 0.100311
-0.040818 0.771287 0.100105
-0.037071 0.775600 0.100510
-0.031966 0.775821 0.100228
-0.027797 0.778889 0.100433
-0.024004 0.783181 0.100850
-0.017496 0.778812 0.099815
-0.010570 0.772863 0.098524
-0.005831 0.773912 0.098416
-0.000886 0.774231 0.098192
0.003394 0.776783 0.098348
0.005287 0.787728 0.099907
0.013907 0.774995 0.097528
0.019229 0.773716 0.097064
0.024201 0.773616 0.096803
0.029276 0.773062 0.096473
0.033802 0.774536 0.096485
0.037863 0.777824 0.096802
0.041914 0.781228 0.097143
0.046404 0.782915 0.097205
0.052263 0.778911 0.096336
0.057313 0.778119 0.096002
0.062080 0.778465 0.095861
0.066838 0.778810 0.095724
0.072324 0.775812 0.095046
0.076997 0.776394 0.094959
0.081510 0.777706 0.094996
0.086305 0.777659 0.094816
0.091110 0.777507 0.094623
0.095932 0.777209 0.094412
0.100873 0.776221 0.094092
0.105247 0.778177 0.094256
0.109939 0.778435 0.094148
0.113594 0.784519 0.094990
0.118210 0.785311 0.094976
0.123696 0.780904 0.094124
0.127439 0.786918 0.094963
0.131081 0.793888 0.095959
0.136252 0.791250 0.095405
0.142211 0.783086 0.093963
0.147275 0.780573 0.093438
0.151950 0.780650 0.093334
0.156551 0.781240 0.093317
0.160886 0.783895 0.093635
0.164841 0.789763 0.094473
0.169631 0.789078 0.094259
0.175040 0.782920 0.093169
0.179903 0.781146 0.092788
0.184525 0.781448 0.092742
0.188658 0.786594 0.093476
0.192815 0.791953 0.094246
0.197141 0.795987 0.094806
0.201896 0.795459 0.094637
0.206682 0.794476 0.094398
0.211381 0.794448 0.094315
0.216186 0.792917 0.093994
0.220908 0.792372 0.093833
0.225442 0.794660 0.094127
0.230181 0.793795 0.093920
0.235090 0.789587 0.093181
0.240053 0.783446 0.092138
0.244582 0.785720 0.092439
0.249087 0.789089 0.092916
0.253632 0.792188 0.093352
0.258351 0.790464 0.093022
0.263153 0.784887 0.092081
0.267761 0.785983 0.092205
0.272379 0.787036 0.092324
0.277010 0.787796 0.092398
0.281633 0.790453 0.092776
0.286270 0.797529 0.093858
0.290949 0.793228 0.093133
0.295568 0.786139 0.091968
0.300188 0.784851 0.091727
0.304836 0.786040 0.091882
0.309647 0.794535 0.093199
0.314292 0.793338 0.092978
0.318939 0.792586 0.092831
0.323531 0.790433 0.092463
0.328135 0.789048 0.092220
0.332793 0.789178 0.092219
0.337456 0.789342 0.092226
0.342117 0.789429 0.092222
0.346841 0.790542 0.092384
0.351497 0.790387 0.092347
0.356045 0.788625 0.092057
0.360685 0.788337 0.092004
0.365775 0.793898 0.092880
0.370718 0.796981 0.093366
0.375426 0.796992 0.093368
0.379809 0.793389 0.092798
0.384312 0.791368 0.092483
0.389081 0.792152 0.092615
0.393852 0.792847 0.092735
0.398746 0.794576 0.093022
0.404306 0.801937 0.094206
0.408641 0.798410 0.093665
0.413868 0.802301 0.094305
0.418910 0.804444 0.094670
0.423622 0.803924 0.094616
0.427857 0.799946 0.094016
0.432010 0.795617 0.093364
0.436718 0.795293 0.093351
0.441806 0.797433 0.093732
0.446862 0.799204 0.094059
0.452157 0.802300 0.094601
0.456233 0.797872 0.093950
0.460934 0.797288 0.093913
0.465691 0.797009 0.093930
0.470788 0.798573 0.094244
0.475295 0.796844 0.094037
0.480543 0.799034 0.094459
0.485953 0.801897 0.094994
0.491866 0.807085 0.095904
0.497202 0.809167 0.096323
0.500327 0.800584 0.095045
0.504137 0.795519 0.094333
0.509743 0.798793 0.094957
0.514674 0.798871 0.095076
0.519688 0.799252 0.095248
0.529204 0.818753 0.098489
0.535458 0.823778 0.099419
0.539976 0.821435 0.099174
0.545012 0.821209 0.099274
0.545860 0.804465 0.096724
0.549316 0.798362 0.095888
0.554653 0.799540 0.096228
0.559972 0.800546 0.096547
0.565125 0.800847 0.096759
0.570309 0.801189 0.096983
0.575369 0.801013 0.097130
0.580419 0.800747 0.097269
0.585747 0.801365 0.097558
0.591604 0.803660 0.098125
0.597263 0.805162 0.098571
0.600125 0.797528 0.097538
0.603682 0.792282 0.096898
0.610125 0.796140 0.097747
0.617323 0.802118 0.098950
0.623161 0.803732 0.099449
0.629332 0.806218 0.100098
0.634269 0.804945 0.100139
0.639665 0.804962 0.100397
0.646532 0.809082 0.101337
0.652476 0.810432 0.101828
0.657111 0.808071 0.101714
0.661650 0.805448 0.101561
0.667191 0.805516 0.101858
0.673976 0.808795 0.102692
0.681149 0.812926 0.103676
0.689029 0.818688 0.104937
0.696091 0.822165 0.105825
0.700955 0.820018 0.105779
0.704059 0.813554 0.105011
0.706980 0.806774 0.104188
0.713597 0.808961 0.104869
0.720180 0.810970 0.105522
0.726390 0.812020 0.106014
0.733276 0.814566 0.106758
0.738614 0.813513 0.106892
0.741401 0.806758 0.106054
0.747339 0.807125 0.106417
0.753564 0.808102 0.106878
0.760451 0.810485 0.107571
0.766241 0.810486 0.107850
0.770594 0.807480 0.107604
0.776240 0.807260 0.107821
0.784299 0.812037 0.108882
0.787812 0.807517 0.108333
0.800846 0.822269 0.111079
0.799158 0.807518 0.108734
0.804111 0.806205 0.108680
0.809472 0.805789 0.108759
0.816203 0.808099 0.109287
0.824428 0.813299 0.110290
0.832069 0.817391 0.111079
0.838828 0.819865 0.111563
0.841994 0.815766 0.110885
0.844589 0.810817 0.110034
0.857913 0.825530 0.112553
0.864247 0.827546 0.112849
0.852659 0.797753 0.107625
-0.266941 0.761820 0.106224
-0.260754 0.759324 0.105806
-0.255780 0.759063 0.105758
-0.250156 0.757759 0.105496
-0.246334 0.759806 0.105803
-0.241348 0.759891 0.105735
-0.237629 0.762421 0.106073
-0.232800 0.763050 0.106048
-0.226601 0.761226 0.105563
-0.221382 0.761322 0.105395
-0.216498 0.762152 0.105332
-0.211551 0.762963 0.105244
-0.206447 0.763562 0.105097
-0.200211 0.762003 0.104551
-0.200096 0.772722 0.106143
-0.194129 0.771893 0.105688
-0.186998 0.768703 0.104804
-0.183234 0.772453 0.105121
-0.178310 0.773888 0.105020
-0.169655 0.767455 0.103539
-0.163929 0.767171 0.103121
-0.158831 0.768247 0.102930
-0.153222 0.768222 0.102542
-0.149436 0.772252 0.102848
-0.143974 0.772580 0.102511
-0.138288 0.772379 0.102080
-0.132107 0.770993 0.101445
-0.127131 0.772367 0.101282
-0.120946 0.770856 0.100627
-0.115416 0.770840 0.100229
-0.110972 0.773437 0.100276
-0.105735 0.774084 0.099993
-0.098697 0.770154 0.098943
-0.093707 0.771285 0.098750
-0.088903 0.772872 0.098638
-0.084194 0.774689 0.098569
-0.080343 0.778784 0.098884
-0.076928 0.784114 0.099408
-0.071752 0.784696 0.099144
-0.066774 0.785777 0.098969
-0.056131 0.770778 0.096135
-0.050302 0.769090 0.095519
-0.045412 0.770016 0.095343
-0.040502 0.770844 0.095156
-0.037715 0.778027 0.096020
-0.033752 0.781767 0.096321
-0.030129 0.786620 0.096809
-0.024456 0.785074 0.096256
-0.016685 0.776657 0.094589
-0.010457 0.772931 0.093698
-0.005658 0.773766 0.093558
-0.000990 0.775003 0.093489
0.003514 0.776781 0.093513
0.007138 0.781640 0.094041
0.011478 0.784055 0.094179
0.019859 0.771799 0.091956
0.024838 0.771623 0.091691
0.029410 0.772911 0.091666
0.033775 0.774979 0.091773
0.038294 0.776468 0.091792
0.042684 0.778469 0.091897
0.047537 0.778602 0.091709
0.052046 0.780114 0.091747
0.056852 0.780366 0.091589
0.061635 0.780671 0.091444
0.067024 0.778246 0.090870
0.072248 0.776407 0.090395
0.076986 0.776679 0.090261
0.081514 0.777913 0.090285
0.086375 0.777530 0.090056
0.091259 0.776964 0.089804
0.096019 0.776952 0.089643
0.100637 0.777633 0.089596
0.105548 0.776725 0.089303
0.109720 0.779792 0.089641
0.112451 0.791125 0.091283
0.117986 0.786745 0.090455
0.123307 0.783345 0.089785
0.127022 0.789585 0.090635
0.131115 0.793762 0.091162
0.136542 0.789432 0.090359
0.142686 0.779941 0.088751
0.147303 0.780422 0.088711
0.151847 0.781423 0.088754
0.156319 0.782991 0.088890
0.160554 0.786463 0.089326
0.164706 0.790830 0.089904
0.169438 0.790660 0.089776
0.175017 0.783072 0.088495
0.179921 0.780907 0.088063
0.184476 0.781824 0.088114
0.189005 0.783043 0.088214
0.192985 0.790051 0.089218
0.196913 0.798313 0.090417
0.201501 0.799833 0.090571
0.206197 0.800163 0.090542
0.210849 0.801073 0.090606
0.215916 0.796357 0.089799
0.220341 0.800374 0.090349
0.224877 0.803223 0.090720
0.230142 0.794046 0.089230
0.235209 0.786914 0.088060
0.239709 0.789884 0.088456
0.244399 0.789192 0.088288
0.248889 0.793313 0.088867
0.253582 0.792723 0.088719
0.258373 0.788728 0.088046
0.263135 0.784358 0.087319
0.267737 0.785565 0.087455
0.272347 0.786879 0.087609
0.276964 0.788686 0.087842
0.281535 0.798997 0.089389
0.286218 0.802934 0.089953
0.290924 0.800126 0.089479
0.295517 0.784434 0.087020
0.300147 0.784839 0.087046
0.304786 0.785558 0.087123
0.309535 0.791241 0.087966
0.314326 0.796427 0.088734
0.318981 0.795479 0.088560
0.323526 0.791618 0.087939
0.328086 0.789025 0.087515
0.332745 0.789193 0.087519
0.337406 0.789349 0.087522
0.342128 0.790588 0.087695
0.346798 0.790704 0.087697
0.351418 0.789985 0.087573
0.356021 0.789075 0.087421
0.360745 0.789942 0.087546
0.365658 0.793133 0.088030
0.370781 0.798488 0.088849
0.375425 0.797690 0.088725
0.379771 0.793663 0.088105
0.384210 0.790977 0.087695
0.389007 0.792078 0.087870
0.393816 0.793153 0.088044
0.398683 0.794633 0.088283
0.404622 0.805322 0.089941
0.409487 0.806125 0.090082
0.414072 0.804566 0.089861
0.418592 0.802581 0.089579
0.423113 0.800710 0.089316
0.427602 0.798696 0.089035
0.431551 0.792999 0.088190
0.436434 0.793958 0.088373
0.441686 0.797239 0.088917
0.447473 0.803683 0.089952
0.452935 0.807699 0.090618
0.456940 0.802698 0.089896
0.460465 0.795142 0.088784
0.464903 0.793124 0.088529
0.469881 0.794155 0.088749
0.474617 0.793786 0.088757
0.479738 0.795410 0.089077
0.485341 0.799368 0.089762
0.491667 0.806699 0.090974
0.496522 0.806465 0.091021
0.499623 0.797839 0.089772
0.503920 0.795118 0.089442
0.509071 0.796353 0.089730
0.514570 0.799033 0.090247
0.519591 0.799457 0.090419
0.527823 0.813510 0.092713
0.534388 0.819960 0.093835
0.539678 0.820875 0.094102
0.542039 0.809944 0.092529
0.547136 0.810145 0.092695
0.548809 0.797067 0.090795
0.554453 0.799451 0.091311
0.559589 0.799799 0.091516
0.565326 0.802262 0.092058
0.570365 0.802075 0.092191
0.575391 0.801785 0.092315
0.580445 0.801538 0.092451
0.585834 0.802368 0.092763
0.591018 0.802421 0.092959
0.598126 0.808715 0.094145
0.601564 0.802896 0.093429
0.605158 0.797692 0.092815
0.610760 0.798856 0.093212
0.616589 0.800610 0.093710
0.621886 0.800630 0.093940
0.628060 0.803189 0.094580
0.633716 0.804084 0.094963
0.639134 0.804195 0.095227
0.646377 0.809414 0.096314
0.652027 0.809951 0.096660
0.656665 0.807616 0.096554
0.660993 0.804439 0.096317
0.666924 0.805576 0.096777
0.673473 0.808246 0.097489
0.681047 0.813438 0.098614
0.687607 0.815822 0.099294
0.693398 0.816139 0.099644
0.699845 0.818022 0.100252
0.703918 0.813966 0.099901
0.711207 0.817762 0.100826
0.717491 0.819008 0.101339
0.722274 0.816633 0.101263
0.726771 0.813619 0.101081
0.733183 0.815048 0.101624
0.737961 0.812710 0.101548
0.741367 0.807334 0.100967
0.746787 0.806532 0.101133
0.753082 0.807653 0.101609
0.759733 0.809514 0.102202
0.765547 0.809553 0.102485
0.767583 0.801656 0.101442
0.777002 0.809323 0.102970
0.780326 0.804313 0.102379
0.787647 0.807582 0.103152
0.799472 0.819872 0.105414
0.800266 0.810034 0.103969
0.814279 0.826450 0.106890
0.816530 0.819727 0.105924
0.823348 0.822013 0.106444
0.830912 0.825762 0.107187
0.843897 0.839747 0.109622
0.848968 0.838799 0.109530
0.853563 0.837102 0.109286
0.851191 0.822812 0.106902
0.858146 0.825816 0.107393
0.857512 0.815263 0.105583
0.863245 0.816359 0.105699
-0.263558 0.755507 0.100267
-0.260786 0.759004 0.100884
-0.255236 0.757767 0.100658
-0.251005 0.758992 0.100829
-0.245029 0.757213 0.100455
-0.240884 0.758852 0.100645
-0.237115 0.761331 0.100953
-0.233124 0.763553 0.101191
-0.228114 0.764012 0.101100
-0.222405 0.763253 0.100777
-0.217357 0.763835 0.100661
-0.212534 0.764947 0.100615
-0.207461 0.765670 0.100481
-0.202098 0.765900 0.100244
-0.193993 0.760706 0.099065
-0.188611 0.760956 0.098799
-0.186574 0.768107 0.099691
-0.183495 0.773301 0.100233
-0.177714 0.772973 0.099827
-0.171426 0.771577 0.099230
-0.165257 0.770411 0.098665
-0.159039 0.769109 0.098072
-0.153541 0.769353 0.097732
-0.148659 0.770966 0.097617
-0.142682 0.770122 0.097088
-0.136416 0.768565 0.096438
-0.131013 0.768940 0.096110
-0.126134 0.770519 0.095981
-0.120728 0.770842 0.095644
-0.116918 0.774984 0.095938
-0.112651 0.778070 0.096057
-0.105739 0.774612 0.095104
-0.098963 0.771345 0.094189
-0.093635 0.771622 0.093859
-0.088764 0.773031 0.093718
-0.083858 0.774324 0.093562
-0.080009 0.778412 0.093864
-0.075232 0.780037 0.093770
-0.070527 0.781839 0.093710
-0.063612 0.777461 0.092660
-0.057481 0.775098 0.091942
-0.050519 0.770197 0.090827
-0.045254 0.770034 0.090479
-0.040502 0.771318 0.090369
-0.037621 0.778209 0.091158
-0.034370 0.784122 0.091794
-0.029289 0.784455 0.091548
-0.022872 0.780501 0.090629
-0.017619 0.780090 0.090279
-0.011395 0.776419 0.089422
-0.005356 0.773167 0.088640
-0.000283 0.773005 0.088352
0.004081 0.775214 0.088442
0.008409 0.777558 0.088560
0.013413 0.777511 0.088308
0.019416 0.773765 0.087484
0.024746 0.772304 0.087024
0.029210 0.773994 0.087063
0.033591 0.776007 0.087157
0.038003 0.777919 0.087240
0.042762 0.778454 0.087113
0.047422 0.779357 0.087050
0.052029 0.780457 0.087022
0.057059 0.779749 0.086719
0.061595 0.781096 0.086740
0.067141 0.777965 0.086074
0.072036 0.777594 0.085839
0.076740 0.778038 0.085735
0.081240 0.779416 0.085779
0.085826 0.780392 0.085765
0.090945 0.778710 0.085348
0.096076 0.776829 0.084905
0.100342 0.779331 0.085138
0.104967 0.779986 0.085093
0.109672 0.780190 0.084982
0.112153 0.792929 0.086788
0.117228 0.791254 0.086397
0.122815 0.786381 0.085522
0.126726 0.791488 0.086172
0.131300 0.792655 0.086225
0.137107 0.785787 0.085060
0.142610 0.780494 0.084139
0.147363 0.780033 0.083956
0.151787 0.781863 0.084123
0.156116 0.784499 0.084416
0.160187 0.789285 0.085037
0.164352 0.793640 0.085594
0.169371 0.791162 0.085120
0.174859 0.784369 0.083998
0.180263 0.777720 0.082901
0.184521 0.781287 0.083350
0.188914 0.783817 0.083645
0.193302 0.786609 0.083981
0.197362 0.793233 0.084897
0.201902 0.795008 0.085084
0.206313 0.798511 0.085533
0.211101 0.797552 0.085313
0.215025 0.808305 0.086857
0.220385 0.799397 0.085446
0.225106 0.799218 0.085349
0.230351 0.790053 0.083906
0.235205 0.786497 0.083308
0.239698 0.789563 0.083706
0.244196 0.793111 0.084178
0.248803 0.794730 0.084363
0.253541 0.793014 0.084049
0.258417 0.786238 0.082980
0.263120 0.783685 0.082546
0.267701 0.785652 0.082790
0.272314 0.786755 0.082908
0.276944 0.787351 0.082951
0.281546 0.792393 0.083661
0.286184 0.801236 0.084941
0.290890 0.802712 0.085120
0.295477 0.784406 0.082345
0.300112 0.785325 0.082446
0.304775 0.787456 0.082730
0.309532 0.793139 0.083546
0.314320 0.797938 0.084232
0.319001 0.797649 0.084159
0.323595 0.794911 0.083723
0.328125 0.791204 0.083145
0.332736 0.790076 0.082953
0.337459 0.791433 0.083135
0.342162 0.792164 0.083225
0.346810 0.791790 0.083152
0.351447 0.791278 0.083061
0.356083 0.790788 0.082976
0.360823 0.791790 0.083115
0.365639 0.793622 0.083380
0.371112 0.803270 0.084813
0.375603 0.800445 0.084388
0.379726 0.793844 0.083402
0.384365 0.793252 0.083315
0.389073 0.793365 0.083336
0.393851 0.794111 0.083454
0.398614 0.794622 0.083539
0.403851 0.799201 0.084233
0.409328 0.805394 0.085172
0.413826 0.803175 0.084858
0.418432 0.801925 0.084692
0.422882 0.799561 0.084362
0.427438 0.798085 0.084168
0.431504 0.793240 0.083474
0.436104 0.792287 0.083364
0.441359 0.795661 0.083903
0.447819 0.806457 0.085555
0.451962 0.802256 0.084970
0.456043 0.797884 0.084363
0.459463 0.789861 0.083213
0.464238 0.789915 0.083274
0.469957 0.795143 0.084113
0.474548 0.793983 0.084001
0.479571 0.795104 0.084234
0.484769 0.797022 0.084590
0.491018 0.804045 0.085716
0.495695 0.803019 0.085641
0.499636 0.798488 0.085043
0.504003 0.796095 0.084771
0.508953 0.796412 0.084910
0.514350 0.798650 0.085342
0.520205 0.802740 0.086059
0.527620 0.813262 0.087750
0.533791 0.818092 0.088590
0.536163 0.807115 0.087054
0.540129 0.802912 0.086542
0.545614 0.804794 0.086954
0.549241 0.799370 0.086268
0.554287 0.799465 0.086420
0.559964 0.801843 0.086924
0.565184 0.802404 0.087160
0.570349 0.802685 0.087358
0.575246 0.801945 0.087409
0.580427 0.802152 0.087608
0.585472 0.801825 0.087733
0.590781 0.802321 0.087989
0.598217 0.809715 0.089305
0.603427 0.809612 0.089484
0.608416 0.808740 0.089552
0.613970 0.809593 0.089891
0.619515 0.810321 0.090217
0.622225 0.802380 0.089218
0.628046 0.803880 0.089675
0.633239 0.803423 0.089837
0.639593 0.806259 0.090513
0.646232 0.809750 0.091299
0.652241 0.811301 0.091792
0.655716 0.805751 0.091191
0.660480 0.803797 0.091151
0.666584 0.805419 0.091672
0.673169 0.808196 0.092379
0.680139 0.811832 0.093228
0.686818 0.814555 0.093940
0.691423 0.811898 0.093814
0.696231 0.809761 0.093773
0.702099 0.810232 0.094144
0.710333 0.816377 0.095412
0.716564 0.817516 0.095895
0.719851 0.811628 0.095268
0.724282 0.808518 0.095079
0.729956 0.808313 0.095348
0.736973 0.811132 0.096097
0.741085 0.807347 0.095792
0.747129 0.807911 0.096176
0.752761 0.807550 0.096407
0.757970 0.806284 0.096486
0.765753 0.810536 0.097443
0.771616 0.810656 0.097728
0.775073 0.805788 0.097200
0.782132 0.808468 0.097875
0.787620 0.807932 0.098018
0.798530 0.818348 0.099916
0.805826 0.821405 0.100611
0.808360 0.815101 0.099773
0.816460 0.819826 0.100701
0.823715 0.822906 0.101344
0.831200 0.826450 0.102040
0.840510 0.833455 0.103277
0.848988 0.838874 0.104233
0.851582 0.833430 0.103397
0.853182 0.826390 0.102274
0.844427 0.800840 0.098114
0.846747 0.795769 0.097260
0.850432 0.793345 0.096811
-0.262411 0.753111 0.095022
-0.260681 0.758460 0.095921
-0.256690 0.760029 0.096160
-0.250391 0.757627 0.095708
-0.245691 0.758185 0.095725
-0.241493 0.759786 0.095891
-0.237812 0.762482 0.096214
-0.233394 0.763969 0.096310
-0.228608 0.764898 0.096289
-0.222610 0.763645 0.095881
-0.216992 0.763182 0.095583
-0.212293 0.764568 0.095572
-0.207799 0.766460 0.095625
-0.201411 0.764709 0.095055
-0.189810 0.752532 0.092747
-0.184930 0.753736 0.092639
-0.183458 0.761993 0.093678
-0.178476 0.763195 0.093541
-0.174369 0.766285 0.093701
-0.171258 0.771578 0.094210
-0.165206 0.770681 0.093698
-0.158001 0.767249 0.092767
-0.150665 0.763429 0.091771
-0.146880 0.767428 0.092041
-0.141159 0.767125 0.091610
-0.135712 0.767414 0.091273
-0.130424 0.768046 0.090991
-0.125328 0.769104 0.090777
-0.120678 0.771212 0.090732
-0.116443 0.774333 0.090848
-0.112530 0.778277 0.091096
-0.105407 0.774290 0.090084
-0.098280 0.770124 0.089051
-0.093574 0.771969 0.088976
-0.088509 0.772871 0.088756
-0.082438 0.771086 0.088117
-0.078671 0.775335 0.088433
-0.074143 0.777580 0.088438
-0.068570 0.776946 0.087997
-0.063493 0.777609 0.087765
-0.057352 0.775205 0.087061
-0.051482 0.773435 0.086464
-0.045941 0.772499 0.086004
-0.040405 0.771477 0.085538
-0.036852 0.776333 0.085987
-0.032045 0.777431 0.085861
-0.025711 0.773737 0.085003
-0.021189 0.775590 0.085006
-0.016989 0.778468 0.085171
-0.012596 0.780745 0.085250
-0.004439 0.770496 0.083421
0.000002 0.772411 0.083458
0.004661 0.773577 0.083386
0.008401 0.777942 0.083806
0.013907 0.776089 0.083287
0.019853 0.772504 0.082513
0.024416 0.773846 0.082491
0.029131 0.774600 0.082386
0.033635 0.776138 0.082404
0.038102 0.777814 0.082448
0.042175 0.781080 0.082736
0.047782 0.778151 0.082098
0.053180 0.775917 0.081570
0.056990 0.780284 0.082037
0.061167 0.783188 0.082289
0.066780 0.779788 0.081603
0.071925 0.778303 0.081208
0.076222 0.780639 0.081389
0.080424 0.783474 0.081647
0.085072 0.784229 0.081600
0.089725 0.784941 0.081550
0.095200 0.781446 0.080880
0.100235 0.780026 0.080523
0.104694 0.781575 0.080610
0.107886 0.790130 0.081738
0.112038 0.793682 0.082128
0.117036 0.792459 0.081814
0.122570 0.787921 0.081016
0.126986 0.789950 0.081191
0.131552 0.791105 0.081240
0.137150 0.785540 0.080303
0.142427 0.781751 0.079631
0.147130 0.781658 0.079507
0.151802 0.781753 0.079414
0.156150 0.784224 0.079673
0.160261 0.788674 0.080224
0.164583 0.791727 0.080572
0.169429 0.790609 0.080312
0.174590 0.786616 0.079634
0.179131 0.787875 0.079728
0.184638 0.780057 0.078496
0.188880 0.784006 0.078989
0.193322 0.786232 0.079231
0.197754 0.788754 0.079519
0.202339 0.789752 0.079586
0.206649 0.794172 0.080154
0.211106 0.797195 0.080521
0.215422 0.802519 0.081224
0.220045 0.804030 0.081374
0.225423 0.793818 0.079819
0.230334 0.789887 0.079182
0.235037 0.789092 0.079003
0.239330 0.796426 0.080008
0.243952 0.797906 0.080164
0.248602 0.798976 0.080262
0.253429 0.795285 0.079670
0.258285 0.789485 0.078775
0.263151 0.781218 0.077524
0.267653 0.786297 0.078211
0.272274 0.787059 0.078274
0.276899 0.788118 0.078382
0.281511 0.792066 0.078910
0.286155 0.797909 0.079714
0.290846 0.799969 0.079971
0.295555 0.801862 0.080206
0.300182 0.794999 0.079176
0.304894 0.797468 0.079498
0.309578 0.797422 0.079458
0.314287 0.798336 0.079559
0.319022 0.799818 0.079743
0.323706 0.799409 0.079657
0.328465 0.801001 0.079861
0.333371 0.805556 0.080495
0.338299 0.809659 0.081066
0.342433 0.798145 0.079382
0.347255 0.800325 0.079679
0.352184 0.803839 0.080171
0.356501 0.797767 0.079280
0.361194 0.797676 0.079255
0.366556 0.806268 0.080486
0.371364 0.807059 0.080593
0.375744 0.802757 0.079967
0.379812 0.795440 0.078908
0.384341 0.793632 0.078646
0.389180 0.795056 0.078854
0.393828 0.794500 0.078778
0.398605 0.795135 0.078877
0.403902 0.800237 0.079623
0.409069 0.803804 0.080151
0.413994 0.805108 0.080354
0.418477 0.802848 0.080045
0.422963 0.800733 0.079761
0.426773 0.793823 0.078786
0.431111 0.791041 0.078410
0.436732 0.797093 0.079314
0.441829 0.799292 0.079665
0.447174 0.802900 0.080223
0.451891 0.802368 0.080186
0.454117 0.786867 0.077985
0.458409 0.784249 0.077652
0.465464 0.797423 0.079609
0.471857 0.806200 0.080934
0.475023 0.797091 0.079672
0.480094 0.798403 0.079924
0.485327 0.800433 0.080283
0.490103 0.800031 0.080295
0.495237 0.801352 0.080560
0.499580 0.798789 0.080266
0.504410 0.798558 0.080315
0.509212 0.798165 0.080344
0.514548 0.800111 0.080719
0.519953 0.802227 0.081123
0.527214 0.812122 0.082667
0.532431 0.813008 0.082903
0.537376 0.812687 0.082969
0.543456 0.816879 0.083699
0.546502 0.808902 0.082656
0.550063 0.803161 0.081945
0.554750 0.801842 0.081884
0.559608 0.801148 0.081921
0.565554 0.804391 0.082540
0.570417 0.803571 0.082570
0.575158 0.802286 0.082537
0.580604 0.803421 0.082866
0.585664 0.803137 0.082992
0.590508 0.802076 0.083009
0.598878 0.812567 0.084739
0.604190 0.812760 0.084955
0.610582 0.816313 0.085676
0.616822 0.819201 0.086306
0.620666 0.814563 0.085826
0.623010 0.805459 0.084687
0.627558 0.803134 0.084559
0.633420 0.804665 0.085012
0.639425 0.806492 0.085516
0.645633 0.808771 0.086095
0.652956 0.814032 0.087127
0.655830 0.806795 0.086293
0.659963 0.803120 0.085996
0.666120 0.804907 0.086526
0.672358 0.806791 0.087077
0.678609 0.808588 0.087620
0.686373 0.814150 0.088739
0.692321 0.814901 0.089136
0.695213 0.807948 0.088367
0.701241 0.808843 0.088792
0.707775 0.810887 0.089396
0.711705 0.806593 0.089034
0.713734 0.797874 0.087994
0.720385 0.800117 0.088631
0.729157 0.807144 0.090005
0.736442 0.810581 0.090828
0.741746 0.809460 0.090949
0.747167 0.808609 0.091107
0.752149 0.806805 0.091112
0.757761 0.806398 0.091328
0.767214 0.814192 0.092811
0.770551 0.808924 0.092256
0.778203 0.812780 0.093111
0.782824 0.810337 0.092974
0.788803 0.810743 0.093268
0.802212 0.826122 0.095892
0.805890 0.821865 0.095429
0.807648 0.813989 0.094379
0.810675 0.808820 0.093733
0.817024 0.810233 0.094100
0.822505 0.810049 0.094196
0.827791 0.809594 0.094227
0.834814 0.812489 0.094763
0.842027 0.815784 0.095338
0.845999 0.813203 0.094963
0.850191 0.811187 0.094651
0.850360 0.802110 0.093200
0.858547 0.807590 0.094018
-0.263702 0.754974 0.090486
-0.260270 0.757399 0.090872
-0.256846 0.760010 0.091263
-0.251545 0.759438 0.091111
-0.246756 0.759898 0.091100
-0.242608 0.761654 0.091275
-0.238188 0.763055 0.091367
-0.233345 0.763806 0.091329
-0.227941 0.763619 0.091117
-0.222254 0.762984 0.090810
-0.216339 0.761985 0.090423
-0.211605 0.763331 0.090395
-0.207219 0.765461 0.090474
-0.202510 0.767058 0.090449
-0.188859 0.750831 0.087553
-0.185283 0.754690 0.087863
-0.184499 0.764398 0.089091
-0.178245 0.763016 0.088536
-0.174215 0.766288 0.088712
-0.170613 0.770560 0.089035
-0.164763 0.770103 0.088600
-0.157474 0.766492 0.087663
-0.150750 0.764025 0.086904
-0.145611 0.765017 0.086686
-0.140844 0.766851 0.086598
-0.135882 0.768253 0.086440
-0.130766 0.769299 0.086225
-0.125129 0.769104 0.085817
-0.119594 0.769098 0.085440
-0.115153 0.771690 0.085467
-0.110126 0.772863 0.085276
-0.103347 0.769649 0.084413
-0.097917 0.769690 0.084057
-0.093208 0.771514 0.083977
-0.088128 0.772364 0.083753
-0.081693 0.769601 0.082982
-0.077711 0.773245 0.083194
-0.073741 0.776962 0.083419
-0.069498 0.779965 0.083540
-0.063508 0.778109 0.082932
-0.057182 0.775173 0.082168
-0.051752 0.774655 0.081777
-0.047101 0.776326 0.081720
-0.042471 0.778039 0.081676
-0.035253 0.771928 0.080467
-0.029984 0.771524 0.080120
-0.024950 0.771768 0.079876
-0.020361 0.773359 0.079839
-0.017376 0.780100 0.080571
-0.012505 0.780821 0.080415
-0.007307 0.780409 0.080097
-0.002900 0.782596 0.080170
0.001459 0.784958 0.080273
0.006494 0.784965 0.080035
0.012654 0.780887 0.079203
0.019297 0.774834 0.078089
0.024375 0.774294 0.077791
0.029210 0.774590 0.077621
0.034178 0.774321 0.077374
0.038470 0.776638 0.077510
0.042163 0.781384 0.078003
0.046596 0.783239 0.078080
0.051938 0.781321 0.077613
0.055613 0.786366 0.078162
0.060124 0.787932 0.078210
0.065521 0.785574 0.077695
0.070605 0.784482 0.077368
0.074361 0.789452 0.077921
0.078833 0.791194 0.078011
0.083777 0.790677 0.077780
0.088353 0.791911 0.077806
0.094120 0.787083 0.076964
0.099407 0.784472 0.076446
0.104162 0.784532 0.076316
0.107824 0.790568 0.077046
0.111725 0.795530 0.077623
0.116845 0.793639 0.077224
0.122274 0.789748 0.076543
0.126287 0.794291 0.077070
0.130995 0.794664 0.077004
0.136693 0.788549 0.076018
0.142677 0.780062 0.074698
0.147147 0.781528 0.074800
0.151577 0.783344 0.074953
0.156215 0.783701 0.074902
0.160144 0.789522 0.075630
0.164335 0.793643 0.076118
0.168942 0.794582 0.076157
0.173325 0.797505 0.076479
0.178383 0.794525 0.075968
0.183705 0.788745 0.075063
0.188660 0.786019 0.074594
0.192854 0.790905 0.075204
0.197346 0.792996 0.075420
0.202442 0.788326 0.074684
0.206985 0.789818 0.074820
0.211280 0.794652 0.075429
0.215520 0.800836 0.076230
0.220349 0.799188 0.075929
0.225495 0.792267 0.074888
0.230223 0.791307 0.074689
0.234809 0.792795 0.074836
0.239441 0.793591 0.074887
0.243971 0.796799 0.075280
0.248621 0.797724 0.075353
0.253351 0.796582 0.075138
0.258115 0.793956 0.074716
0.262977 0.786600 0.073632
0.267600 0.787172 0.073663
0.272231 0.787547 0.073669
0.276865 0.787882 0.073670
0.281476 0.791795 0.074175
0.286120 0.796626 0.074810
0.290812 0.802437 0.075583
0.295534 0.804807 0.075876
0.300259 0.805423 0.075925
0.304908 0.800925 0.075260
0.309562 0.798640 0.074906
0.314229 0.797748 0.074749
0.318993 0.800329 0.075080
0.323751 0.802010 0.075287
0.328366 0.799648 0.074930
0.333461 0.808658 0.076165
0.337860 0.801633 0.075161
0.342534 0.800951 0.075044
0.347376 0.803261 0.075348
0.352296 0.806439 0.075775
0.357127 0.807823 0.075954
0.361839 0.807362 0.075876
0.366920 0.811726 0.076475
0.371654 0.811295 0.076406
0.375944 0.805735 0.075623
0.379868 0.796688 0.074355
0.384421 0.795080 0.074128
0.388983 0.793691 0.073935
0.393789 0.794712 0.074080
0.398605 0.795716 0.074225
0.404235 0.803719 0.075351
0.409413 0.807257 0.075855
0.413985 0.805593 0.075635
0.418723 0.805311 0.075612
0.423142 0.802620 0.075254
0.427035 0.796260 0.074386
0.431147 0.791823 0.073790
0.438134 0.807136 0.075957
0.443584 0.811357 0.076578
0.448389 0.811170 0.076585
0.452571 0.807103 0.076053
0.455995 0.798672 0.074913
0.459127 0.788961 0.073597
0.466776 0.805407 0.075946
0.471844 0.806659 0.076172
0.476276 0.804377 0.075906
0.481162 0.804543 0.075987
0.485516 0.801935 0.075684
0.490606 0.803084 0.075910
0.495225 0.801832 0.075804
0.499662 0.799721 0.075582
0.504342 0.798791 0.075529
0.509086 0.798141 0.075520
0.514288 0.799510 0.075799
0.519580 0.801162 0.076123
0.526889 0.811308 0.077649
0.532051 0.811999 0.077848
0.538574 0.818182 0.078828
0.543740 0.818615 0.079002
0.548327 0.816689 0.078848
0.551168 0.808027 0.077746
0.556228 0.808045 0.077876
0.562989 0.814334 0.078900
0.567216 0.811076 0.078577
0.571823 0.809231 0.078460
0.576886 0.808996 0.078577
0.582334 0.810038 0.078881
0.587576 0.810277 0.079077
0.592630 0.809814 0.079180
0.597647 0.809176 0.079263
0.602294 0.807296 0.079174
0.609306 0.812924 0.080166
0.614712 0.813281 0.080411
0.618990 0.810084 0.080152
0.621165 0.800551 0.078987
0.627564 0.803838 0.079670
0.632884 0.803784 0.079879
0.638447 0.804362 0.080185
0.645266 0.808428 0.081003
0.652895 0.814571 0.082129
0.656719 0.809955 0.081703
0.660486 0.805249 0.081267
0.664897 0.802336 0.081096
0.670919 0.803698 0.081552
0.679172 0.810764 0.082847
0.687372 0.817431 0.084093
0.692486 0.816034 0.084164
0.696532 0.811947 0.083843
0.703539 0.815202 0.084604
0.708587 0.813558 0.084648
0.710451 0.804274 0.083565
0.710771 0.791540 0.081967
0.719066 0.797703 0.083166
0.728727 0.806807 0.084805
0.736485 0.811321 0.085765
0.739239 0.804462 0.085030
0.745936 0.806487 0.085616
0.751834 0.806699 0.085928
0.760271 0.812379 0.087055
0.765621 0.811332 0.087168
0.772690 0.813939 0.087822
0.774746 0.806060 0.086888
0.782589 0.810297 0.087769
0.790056 0.813703 0.088515
0.797644 0.805807 0.087738
0.804989 0.809054 0.088417
0.811246 0.810181 0.088756
0.816885 0.810170 0.088904
0.822433 0.810071 0.089019
0.829451 0.812834 0.089548
0.834542 0.812046 0.089514
0.840212 0.812449 0.089638
0.847980 0.816795 0.090340
0.853778 0.817606 0.090478
0.859509 0.818406 0.090589
0.867376 0.823117 0.091271
-0.264073 0.755255 0.085675
-0.261115 0.758557 0.086178
-0.255850 0.757965 0.086042
-0.251701 0.759478 0.086212
-0.247731 0.761464 0.086431
-0.242485 0.761281 0.086284
-0.238219 0.763007 0.086413
-0.233248 0.763563 0.086335
-0.227512 0.762793 0.086027
-0.222027 0.762577 0.085784
-0.216254 0.761887 0.085447
-0.211173 0.762597 0.085310
-0.206511 0.764213 0.085296
-0.201956 0.766135 0.085312
-0.189134 0.751589 0.082759
-0.189178 0.762822 0.084191
-0.184786 0.765255 0.084244
-0.178662 0.764177 0.083745
-0.173448 0.764999 0.083529
-0.170929 0.771578 0.084187
-0.163830 0.768460 0.083351
-0.156203 0.764107 0.082324
-0.150855 0.764655 0.082043
-0.146038 0.766385 0.081937
-0.141232 0.768156 0.081835
-0.136933 0.771102 0.081909
-0.131393 0.771203 0.081552
-0.125927 0.771435 0.081215
-0.119436 0.769177 0.080507
-0.113646 0.768503 0.080040
-0.108253 0.768728 0.079711
-0.103394 0.770229 0.079576
-0.097837 0.769952 0.079179
-0.092959 0.771339 0.079034
-0.087055 0.770037 0.078496
-0.082242 0.771502 0.078371
-0.079306 0.777960 0.078986
-0.074933 0.780642 0.079048
-0.070232 0.782431 0.078983
-0.063934 0.779737 0.078269
-0.057313 0.775975 0.077407
-0.052418 0.776996 0.077249
-0.048586 0.781084 0.077543
-0.042713 0.779165 0.076970
-0.035650 0.773522 0.075867
-0.030259 0.772752 0.075476
-0.025280 0.773173 0.075264
-0.021677 0.777896 0.075676
-0.017540 0.780988 0.075858
-0.013694 0.785068 0.076186
-0.008038 0.783187 0.075666
-0.004040 0.786792 0.075936
0.000427 0.788842 0.075989
0.005265 0.789593 0.075863
0.011578 0.785033 0.074988
0.017910 0.780172 0.074078
0.024007 0.775933 0.073264
0.029001 0.775644 0.073016
0.034070 0.774991 0.072721
0.038695 0.775997 0.072667
0.042554 0.780048 0.073045
0.046174 0.785186 0.073580
0.049111 0.793318 0.074537
0.055216 0.788255 0.073648
0.059760 0.789705 0.073677
0.065706 0.784932 0.072840
0.069429 0.789990 0.073382
0.072471 0.798381 0.074392
0.078998 0.790556 0.073144
0.083589 0.791722 0.073155
0.089028 0.788674 0.072583
0.094243 0.786566 0.072147
0.099148 0.785922 0.071918
0.104365 0.783531 0.071452
0.108672 0.785968 0.071658
0.112893 0.788983 0.071947
0.117037 0.792573 0.072318
0.122461 0.788661 0.071656
0.126637 0.792160 0.072021
0.130918 0.795166 0.072320
0.137005 0.786506 0.071015
0.142571 0.780764 0.070117
0.147197 0.781153 0.070066
0.151636 0.782875 0.070200
0.156056 0.784827 0.070369
0.160318 0.788101 0.070722
0.164281 0.793990 0.071435
0.168311 0.799742 0.072132
0.173342 0.797226 0.071697
0.178513 0.793199 0.071059
0.183643 0.789160 0.070422
0.188473 0.787684 0.070138
0.192931 0.789895 0.070361
0.197445 0.791679 0.070527
0.202633 0.785867 0.069659
0.207232 0.786526 0.069676
0.211373 0.793131 0.070506
0.215755 0.797249 0.070998
0.220997 0.789284 0.069846
0.225575 0.790561 0.069955
0.230160 0.791895 0.070073
0.234930 0.790012 0.069756
0.239685 0.788036 0.069428
0.244330 0.788068 0.069375
0.248734 0.794100 0.070139
0.253345 0.795824 0.070319
0.258097 0.793454 0.069945
0.262920 0.787503 0.069087
0.267554 0.787719 0.069068
0.272197 0.787442 0.068983
0.276840 0.786982 0.068876
0.281455 0.789536 0.069178
0.286089 0.794042 0.069746
0.290764 0.797815 0.070217
0.295491 0.804224 0.071045
0.300168 0.800904 0.070559
0.304817 0.797806 0.070104
0.309415 0.793575 0.069498
0.314088 0.793866 0.069505
0.318845 0.796835 0.069876
0.323561 0.797791 0.069977
0.328326 0.799762 0.070216
0.332657 0.791426 0.069064
0.337586 0.796960 0.069789
0.342277 0.797026 0.069776
0.347005 0.797691 0.069846
0.351900 0.800916 0.070264
0.356704 0.802299 0.070434
0.361603 0.804796 0.070757
0.366593 0.808150 0.071198
0.371424 0.809141 0.071322
0.375704 0.803590 0.070564
0.379832 0.796910 0.069657
0.384300 0.794412 0.069317
0.389064 0.795085 0.069406
0.393762 0.795030 0.069399
0.398437 0.794741 0.069364
0.404138 0.803423 0.070541
0.408950 0.803911 0.070615
0.413558 0.802678 0.070459
0.418124 0.801178 0.070270
0.422862 0.801038 0.070267
0.427531 0.800374 0.070196
0.432356 0.800814 0.070277
0.438439 0.809723 0.071504
0.443546 0.811628 0.071789
0.448089 0.809773 0.071569
0.452686 0.808327 0.071407
0.457419 0.807739 0.071365
0.462909 0.811569 0.071923
0.466644 0.805170 0.071101
0.471092 0.803010 0.070856
0.476119 0.804044 0.071046
0.480588 0.802042 0.070829
0.485187 0.800765 0.070714
0.490588 0.803514 0.071148
0.495844 0.805377 0.071467
0.499140 0.797753 0.070502
0.504221 0.798752 0.070711
0.509054 0.798525 0.070758
0.514099 0.799200 0.070932
0.519699 0.802220 0.071429
0.526240 0.809084 0.072455
0.530958 0.807978 0.072401
0.535778 0.807278 0.072407
0.541969 0.812063 0.073166
0.547108 0.812454 0.073331
0.551256 0.808943 0.072969
0.557129 0.812046 0.073515
0.562560 0.813331 0.073818
0.567387 0.812295 0.073809
0.571943 0.810262 0.073669
0.577450 0.811590 0.073995
0.583233 0.813764 0.074444
0.588240 0.813155 0.074516
0.592445 0.809820 0.074219
0.596912 0.807389 0.074051
0.601435 0.805152 0.073914
0.608561 0.811200 0.074929
0.614101 0.812022 0.075229
0.618312 0.808652 0.074953
0.621811 0.803164 0.074389
0.628163 0.806285 0.075026
0.632990 0.804761 0.075023
0.639919 0.809289 0.075870
0.645551 0.809918 0.076180
0.651062 0.810118 0.076436
0.658397 0.815279 0.077394
0.665365 0.819217 0.078188
0.669994 0.816697 0.078082
0.674818 0.814696 0.078053
0.683200 0.821956 0.079335
0.687867 0.819400 0.079238
0.691934 0.815330 0.078930
0.698019 0.816350 0.079346
0.705929 0.821778 0.080393
0.710665 0.819287 0.080318
0.711864 0.808331 0.079037
0.713643 0.798985 0.077982
0.721677 0.804443 0.079044
0.730748 0.812105 0.080425
0.737058 0.813252 0.080874
0.739641 0.805973 0.080108
0.745359 0.805802 0.080362
0.752267 0.808220 0.080986
0.759718 0.811739 0.081768
0.766097 0.812879 0.082199
0.770600 0.810038 0.082046
0.772884 0.802652 0.081221
0.779331 0.804032 0.081661
0.787647 0.809213 0.082646
0.795661 0.813703 0.083520
0.797925 0.806701 0.082698
0.804768 0.808917 0.083210
0.810843 0.809653 0.083489
0.817636 0.811830 0.083962
0.823444 0.812166 0.084145
0.830626 0.815173 0.084701
0.835660 0.814210 0.084651
0.838702 0.809691 0.084054
0.849656 0.819843 0.085597
0.854924 0.819617 0.085586
0.858552 0.816573 0.085134
0.858041 0.806354 0.083600
-0.268698 0.762945 0.081985
-0.262243 0.760229 0.081544
-0.257182 0.760056 0.081466
-0.252438 0.760573 0.081469
-0.246219 0.758559 0.081061
-0.242675 0.761490 0.081383
-0.237727 0.762007 0.081313
-0.233535 0.764044 0.081451
-0.228232 0.764133 0.081273
-0.221808 0.762191 0.080766
-0.216956 0.763300 0.080701
-0.211280 0.762910 0.080392
-0.206018 0.763389 0.080197
-0.200782 0.763985 0.080003
-0.190910 0.755353 0.078412
-0.187836 0.760340 0.078851
-0.191024 0.778318 0.081214
-0.186903 0.781576 0.081364
-0.178345 0.775604 0.080132
-0.170509 0.771024 0.079102
-0.163294 0.767664 0.078251
-0.158362 0.769186 0.078118
-0.152835 0.769415 0.077790
-0.149432 0.774379 0.078154
-0.144139 0.775155 0.077901
-0.140057 0.778699 0.078050
-0.134101 0.777932 0.077570
-0.128178 0.777178 0.077094
-0.120687 0.772607 0.076068
-0.114888 0.771952 0.075614
-0.108964 0.770918 0.075109
-0.103188 0.770162 0.074648
-0.097535 0.769630 0.074225
-0.091971 0.769250 0.073828
-0.086991 0.770309 0.073642
-0.082787 0.773376 0.073747
-0.079085 0.777803 0.074048
-0.074102 0.778818 0.073869
-0.068695 0.778622 0.073523
-0.062710 0.776731 0.072945
-0.057672 0.777400 0.072735
-0.052405 0.777358 0.072431
-0.047972 0.779681 0.072464
-0.043453 0.781750 0.072467
-0.037383 0.779131 0.071821
-0.030090 0.772600 0.070637
-0.025534 0.774321 0.070611
-0.021747 0.778468 0.070927
-0.017744 0.781985 0.071160
-0.011986 0.779801 0.070609
-0.006920 0.779779 0.070363
-0.002504 0.781894 0.070418
0.001833 0.784290 0.070516
0.006970 0.783895 0.070236
0.012724 0.781213 0.069649
0.018636 0.777794 0.068967
0.023545 0.777902 0.068774
0.028879 0.776348 0.068360
0.033888 0.775924 0.068106
0.038425 0.777279 0.068099
0.042685 0.779739 0.068247
0.047575 0.779661 0.068054
0.052386 0.779856 0.067903
0.057406 0.779111 0.067630
0.062620 0.777437 0.067236
0.067540 0.776942 0.067007
0.072072 0.778137 0.067010
0.076501 0.779806 0.067080
0.081078 0.780801 0.067064
0.085921 0.780496 0.066877
0.090418 0.781853 0.066917
0.095179 0.781881 0.066782
0.100094 0.781055 0.066536
0.104850 0.780992 0.066397
0.109796 0.779834 0.066115
0.114470 0.780108 0.066028
0.118793 0.782391 0.066212
0.123888 0.780150 0.065796
0.128843 0.778590 0.065474
0.133490 0.778849 0.065398
0.137915 0.780535 0.065515
0.142463 0.781459 0.065533
0.147165 0.781329 0.065414
0.151828 0.781431 0.065328
0.156214 0.783570 0.065515
0.160767 0.784533 0.065549
0.165582 0.783428 0.065311
0.170537 0.781036 0.064905
0.175221 0.780763 0.064783
0.179862 0.780822 0.064707
0.184553 0.780374 0.064566
0.189279 0.779507 0.064373
0.193909 0.779517 0.064297
0.198419 0.780799 0.064391
0.202991 0.781473 0.064407
0.207431 0.783808 0.064643
0.212176 0.782449 0.064396
0.216845 0.781918 0.064259
0.221394 0.783046 0.064342
0.225977 0.783783 0.064376
0.230759 0.781208 0.063976
0.235294 0.782734 0.064117
0.239805 0.784981 0.064353
0.244431 0.785116 0.064315
0.249092 0.784353 0.064160
0.253698 0.784928 0.064183
0.258314 0.785292 0.064179
0.262896 0.787072 0.064363
0.267510 0.788094 0.064448
0.272155 0.787843 0.064369
0.276793 0.787861 0.064326
0.281427 0.788424 0.064357
0.286069 0.787647 0.064213
0.290706 0.788080 0.064230
0.295348 0.788550 0.064253
0.299976 0.787417 0.064068
0.304637 0.789039 0.064244
0.309298 0.789862 0.064318
0.313910 0.788459 0.064102
0.318564 0.788855 0.064123
0.323285 0.791082 0.064385
0.327907 0.790212 0.064244
0.332491 0.788653 0.064015
0.337188 0.789698 0.064128
0.342016 0.793005 0.064537
0.346671 0.792743 0.064482
0.351258 0.791432 0.064292
0.355949 0.791814 0.064325
