ply
format ascii 1.0
comment ---
element vertex 1737
property float x
property float y
property float z
element face 0
property list uchar uint vertex_indices
end_header
-0.339570 0.756981 0.118945
-0.334231 0.755361 0.118430
-0.329655 0.755344 0.118172
-0.325122 0.755362 0.117924
-0.320848 0.755916 0.117765
-0.316525 0.756309 0.117584
-0.312937 0.758385 0.117671
-0.308443 0.758292 0.117422
-0.304048 0.758377 0.117206
-0.299986 0.759221 0.117112
-0.295673 0.759406 0.116919
-0.291905 0.760909 0.116935
-0.286932 0.759319 0.116476
-0.282783 0.759763 0.116335
-0.278191 0.758998 0.116013
-0.274399 0.760289 0.116011
-0.270334 0.760823 0.115896
-0.266256 0.761284 0.115774
-0.262356 0.762200 0.115725
-0.258225 0.762436 0.115576
-0.253980 0.762304 0.115373
-0.250057 0.763054 0.115309
-0.246020 0.763439 0.115193
-0.241985 0.763791 0.115075
-0.238005 0.764278 0.114980
-0.234121 0.765027 0.114929
-0.230041 0.765138 0.114783
-0.226255 0.766150 0.114777
-0.222193 0.766249 0.114636
-0.218127 0.766295 0.114490
-0.214144 0.766578 0.114382
-0.210028 0.766374 0.114204
-0.206291 0.767438 0.114219
-0.202495 0.768293 0.114205
-0.198450 0.768240 0.114057
-0.194175 0.767296 0.113778
-0.190319 0.767849 0.113726
-0.187183 0.771133 0.114085
-0.182563 0.768734 0.113596
-0.178824 0.769694 0.113611
-0.175302 0.771539 0.113760
-0.172639 0.776970 0.114444
-0.169008 0.778507 0.114549
-0.163562 0.772267 0.113502
-0.159320 0.771016 0.113198
-0.155217 0.770297 0.112975
-0.151357 0.770635 0.112911
-0.147450 0.770729 0.112812
-0.143396 0.770095 0.112607
-0.139646 0.770889 0.112615
-0.137024 0.777389 0.113467
-0.133426 0.779133 0.113617
-0.128545 0.774126 0.112773
-0.125363 0.778083 0.113252
-0.121559 0.778736 0.113245
-0.117434 0.777560 0.112971
-0.113466 0.777211 0.112820
-0.110185 0.780992 0.113276
-0.106897 0.784924 0.113754
-0.103138 0.786031 0.113819
-0.099049 0.784985 0.113570
-0.094407 0.780025 0.112750
-0.089972 0.776178 0.112095
-0.086078 0.776021 0.111980
-0.082538 0.778522 0.112254
-0.078465 0.776955 0.111936
-0.074669 0.777530 0.111931
-0.070780 0.777312 0.111812
-0.066980 0.777854 0.111803
-0.063087 0.777536 0.111671
-0.059294 0.778141 0.111674
-0.055867 0.782520 0.112225
-0.052564 0.788657 0.113031
-0.048721 0.789297 0.113040
-0.044061 0.780178 0.111636
-0.040044 0.778104 0.111255
-0.036160 0.777520 0.111090
-0.032365 0.778127 0.111098
-0.028815 0.782561 0.111660
-0.025132 0.785448 0.111998
-0.021143 0.783234 0.111601
-0.017209 0.781648 0.111296
-0.013523 0.785115 0.111719
-0.009530 0.781860 0.111175
-0.005820 0.785519 0.111626
-0.001891 0.783247 0.111226
0.001970 0.782679 0.111071
0.005816 0.782464 0.110968
0.009640 0.783296 0.111016
0.013435 0.786851 0.111455
0.017308 0.784929 0.111109
0.021147 0.786875 0.111318
0.025005 0.789125 0.111572
0.028866 0.788668 0.111438
0.032694 0.785627 0.110937
0.036599 0.789492 0.111423
0.040455 0.789095 0.111301
0.044172 0.783274 0.110405
0.048026 0.784013 0.110448
0.051874 0.784331 0.110431
0.055710 0.784291 0.110364
0.059558 0.784554 0.110341
0.063826 0.793466 0.111551
0.067685 0.793050 0.111433
0.071442 0.790939 0.111075
0.075095 0.787452 0.110523
0.078822 0.785548 0.110198
0.082671 0.785591 0.110150
0.086578 0.786370 0.110208
0.090437 0.786455 0.110169
0.094417 0.787926 0.110328
0.098494 0.790304 0.110616
0.102297 0.789540 0.110461
0.105583 0.783644 0.109580
0.110064 0.789702 0.110393
0.114170 0.791777 0.110644
0.118619 0.796663 0.111294
0.122598 0.797177 0.111326
0.126389 0.796099 0.111135
0.129951 0.793289 0.110701
0.133397 0.789765 0.110168
0.137450 0.790878 0.110293
0.140898 0.787630 0.109803
0.145271 0.790852 0.110228
0.149002 0.789604 0.110025
0.152517 0.787025 0.109635
0.156303 0.786239 0.109501
0.160801 0.789754 0.109976
0.164512 0.788422 0.109769
0.168698 0.789835 0.109951
0.172840 0.790884 0.110084
0.176837 0.791055 0.110096
0.180984 0.791968 0.110214
0.186153 0.798044 0.111063
0.189887 0.796585 0.110852
0.193525 0.794686 0.110582
0.196384 0.789103 0.109795
0.200833 0.791153 0.110086
0.205234 0.792843 0.110330
0.209304 0.792928 0.110350
0.215860 0.803830 0.111898
0.218974 0.799493 0.111300
0.221198 0.791552 0.110197
0.224702 0.789134 0.109876
0.230555 0.796210 0.110897
0.235593 0.799736 0.111420
0.239452 0.798511 0.111276
0.241734 0.791294 0.110289
0.248412 0.800653 0.111646
0.251691 0.797189 0.111195
0.254307 0.791410 0.110421
0.258963 0.792967 0.110686
0.261489 0.787038 0.109895
0.264538 0.783033 0.109380
0.270205 0.787853 0.110116
0.275643 0.791697 0.110718
0.280481 0.793410 0.111023
0.285234 0.794737 0.111275
0.290077 0.796237 0.111556
0.294518 0.796395 0.111650
0.298819 0.796059 0.111677
0.304087 0.798555 0.112109
0.308693 0.798971 0.112249
0.312590 0.797273 0.112091
0.317108 0.797332 0.112185
0.321472 0.796904 0.112212
0.326137 0.797262 0.112354
0.331427 0.799255 0.112731
0.335968 0.799142 0.112809
0.342917 0.805327 0.113789
0.347158 0.804262 0.113734
0.350986 0.802134 0.113528
0.354172 0.798409 0.113091
0.358532 0.797684 0.113085
0.365350 0.802986 0.113942
0.371820 0.807284 0.114655
0.376784 0.807860 0.114832
0.378415 0.800561 0.113873
0.382580 0.799351 0.113786
0.387711 0.800400 0.114020
0.393973 0.804007 0.114618
0.398987 0.804754 0.114799
0.402807 0.802878 0.114595
0.407376 0.802730 0.114633
0.412037 0.802836 0.114700
0.416288 0.802126 0.114640
0.422291 0.805196 0.115117
0.425147 0.801715 0.114636
0.428335 0.799079 0.114267
0.431941 0.797449 0.114032
0.438350 0.801609 0.114623
0.444185 0.804645 0.115038
-0.484148 0.742009 0.120439
-0.476826 0.737622 0.119590
-0.473209 0.739009 0.119668
-0.469275 0.740008 0.119668
-0.465352 0.741119 0.119672
-0.460270 0.740468 0.119377
-0.456330 0.741716 0.119378
-0.452353 0.742987 0.119370
-0.448468 0.744485 0.119387
-0.444213 0.745442 0.119307
-0.438682 0.744305 0.118881
-0.434904 0.746158 0.118927
-0.430613 0.747187 0.118834
-0.425923 0.747562 0.118629
-0.421347 0.748151 0.118453
-0.416066 0.747498 0.118076
-0.411672 0.748419 0.117945
-0.407391 0.749555 0.117845
-0.402946 0.750396 0.117696
-0.398550 0.751323 0.117559
-0.392659 0.749428 0.116977
-0.388367 0.750501 0.116863
-0.383333 0.750132 0.116523
-0.378993 0.751065 0.116388
-0.374375 0.751428 0.116165
-0.368998 0.750235 0.115702
-0.364933 0.751615 0.115642
-0.360979 0.753203 0.115617
-0.356967 0.754657 0.115572
-0.352985 0.756156 0.115537
-0.348107 0.755729 0.115209
-0.343906 0.756689 0.115097
-0.339741 0.757695 0.114996
-0.334410 0.756091 0.114499
-0.329605 0.755563 0.114171
-0.325191 0.755845 0.113971
-0.321315 0.757307 0.113955
-0.317632 0.759196 0.114006
-0.312384 0.757391 0.113502
-0.308100 0.757775 0.113334
-0.303262 0.756770 0.112960
-0.299072 0.757271 0.112817
-0.294836 0.757609 0.112655
-0.290716 0.758190 0.112532
-0.286962 0.759666 0.112547
-0.282705 0.759825 0.112369
-0.279080 0.761590 0.112434
-0.274547 0.760932 0.112141
-0.270619 0.761835 0.112085
-0.265718 0.760042 0.111631
-0.261894 0.761141 0.111611
-0.258171 0.762504 0.111633
-0.254218 0.763201 0.111560
-0.250116 0.763432 0.111421
-0.246044 0.763707 0.111291
-0.242056 0.764196 0.111197
-0.237937 0.764254 0.111042
-0.233960 0.764707 0.110948
-0.230196 0.765796 0.110950
-0.226057 0.765676 0.110778
-0.222011 0.765813 0.110647
-0.218171 0.766587 0.110611
-0.214254 0.767087 0.110538
-0.210092 0.766724 0.110342
-0.206260 0.767457 0.110308
-0.202571 0.768680 0.110347
-0.198538 0.768666 0.110209
-0.194169 0.767376 0.109889
-0.189965 0.766617 0.109648
-0.186237 0.767609 0.109663
-0.182661 0.769193 0.109765
-0.178726 0.769376 0.109667
-0.175779 0.773531 0.110143
-0.173238 0.779494 0.110880
-0.169222 0.779457 0.110755
-0.163058 0.770134 0.109297
-0.159086 0.770015 0.109165
-0.155151 0.770020 0.109053
-0.151126 0.769581 0.108879
-0.147910 0.772896 0.109243
-0.144038 0.773176 0.109175
-0.140966 0.777376 0.109668
-0.137395 0.779234 0.109827
-0.132779 0.775749 0.109225
-0.128510 0.773894 0.108858
-0.124869 0.775332 0.108962
-0.121378 0.777656 0.109192
-0.117401 0.777290 0.109041
-0.113707 0.778545 0.109122
-0.109914 0.779238 0.109123
-0.106418 0.781811 0.109392
-0.102732 0.783285 0.109506
-0.098571 0.781653 0.109182
-0.095144 0.784941 0.109554
-0.090749 0.781540 0.108982
-0.086688 0.780326 0.108720
-0.082738 0.779840 0.108562
-0.078571 0.777575 0.108154
-0.074686 0.777427 0.108046
-0.070870 0.777825 0.108016
-0.066898 0.776831 0.107791
-0.063217 0.778443 0.107933
-0.059548 0.780291 0.108109
-0.055910 0.782602 0.108350
-0.052493 0.787490 0.108953
-0.048566 0.787102 0.108816
-0.044087 0.780022 0.107744
-0.040093 0.778216 0.107411
-0.036204 0.777565 0.107241
-0.032474 0.779077 0.107374
-0.028861 0.782597 0.107788
-0.025310 0.787661 0.108417
-0.021273 0.784764 0.107936
-0.017142 0.779394 0.107112
-0.013283 0.778839 0.106960
-0.009709 0.785027 0.107747
-0.005836 0.784583 0.107611
-0.002039 0.786309 0.107778
0.001838 0.785616 0.107609
0.005731 0.783870 0.107295
0.009591 0.782966 0.107099
0.013421 0.783633 0.107121
0.017223 0.788306 0.107699
0.021092 0.786081 0.107322
0.024947 0.790600 0.107879
0.028789 0.785922 0.107165
0.032647 0.786956 0.107241
0.036542 0.789875 0.107579
0.040449 0.792054 0.107815
0.044104 0.783192 0.106528
0.047930 0.783012 0.106440
0.051812 0.784512 0.106585
0.055658 0.784744 0.106556
0.059496 0.784746 0.106496
0.063583 0.789941 0.107152
0.067580 0.792479 0.107443
0.071323 0.790185 0.107070
0.075077 0.788395 0.106768
0.078776 0.786041 0.106389
0.082643 0.786324 0.106374
0.086535 0.786889 0.106399
0.090422 0.787306 0.106405
0.094425 0.789026 0.106590
0.098320 0.789338 0.106584
0.102432 0.791898 0.106887
0.106036 0.789096 0.106456
0.110000 0.789980 0.106532
0.114202 0.792937 0.106893
0.118420 0.795778 0.107240
0.122178 0.794473 0.107020
0.125588 0.790423 0.106427
0.128712 0.784402 0.105567
0.133088 0.788232 0.106055
0.137546 0.792360 0.106584
0.141888 0.795368 0.106962
0.145012 0.789855 0.106179
0.149526 0.793824 0.106692
0.153484 0.793956 0.106683
0.157044 0.791579 0.106334
0.160465 0.788464 0.105886
0.164442 0.788745 0.105903
0.168554 0.789742 0.106020
0.172628 0.790434 0.106098
0.176668 0.790866 0.106143
0.180745 0.791431 0.106207
0.185847 0.797194 0.106982
0.190893 0.802349 0.107677
0.193701 0.796265 0.106843
0.196877 0.792172 0.106283
0.200901 0.792180 0.106284
0.204968 0.792336 0.106308
0.209163 0.793009 0.106404
0.214588 0.798984 0.107226
0.218433 0.797893 0.107088
0.222370 0.797176 0.107004
0.225955 0.794991 0.106722
0.228193 0.787415 0.105709
0.235311 0.799344 0.107357
0.238337 0.794915 0.106778
0.241184 0.789919 0.106125
0.244632 0.787292 0.105798
0.251182 0.796049 0.107027
0.254645 0.793341 0.106695
0.259058 0.794023 0.106828
0.263272 0.793931 0.106859
0.267793 0.794824 0.107028
0.271809 0.793935 0.106957
0.276825 0.796307 0.107335
0.280662 0.794721 0.107174
0.285413 0.796034 0.107414
0.290248 0.797502 0.107678
0.294207 0.796169 0.107561
0.298115 0.794662 0.107423
0.303250 0.796794 0.107788
0.308350 0.798699 0.108124
0.312429 0.797538 0.108042
0.316530 0.796420 0.107969
0.321335 0.797246 0.108165
0.325932 0.797423 0.108274
0.331632 0.800537 0.108790
0.339497 0.809303 0.110087
0.344417 0.810001 0.110275
0.343890 0.796485 0.108499
0.347945 0.795049 0.108392
0.353460 0.797307 0.108796
0.357356 0.795439 0.108629
0.364435 0.801418 0.109548
0.373237 0.811390 0.111022
0.376682 0.808275 0.110679
0.379292 0.803271 0.110070
0.382495 0.799778 0.109668
0.386982 0.799334 0.109685
0.392723 0.801763 0.110097
0.398567 0.804387 0.110532
0.402924 0.803691 0.110499
0.407232 0.802947 0.110452
0.411617 0.802436 0.110430
0.416045 0.802090 0.110423
0.426049 0.813586 0.112060
0.427323 0.797394 0.109834
0.435371 0.804823 0.110873
0.438425 0.802107 0.110484
0.442822 0.802240 0.110480
-0.478977 0.734170 0.115032
-0.477585 0.738880 0.115642
-0.472420 0.737891 0.115338
-0.468471 0.738874 0.115332
-0.464839 0.740456 0.115406
-0.460685 0.741303 0.115352
-0.455956 0.741300 0.115152
-0.451928 0.742500 0.115130
-0.448471 0.744714 0.115255
-0.444253 0.745748 0.115186
-0.438284 0.743891 0.114659
-0.434308 0.745413 0.114650
-0.430345 0.747009 0.114644
-0.425093 0.746411 0.114294
-0.420697 0.747311 0.114170
-0.416326 0.748274 0.114051
-0.411780 0.748935 0.113883
-0.406072 0.747483 0.113388
-0.402057 0.749093 0.113361
-0.398172 0.750959 0.113370
-0.393891 0.752090 0.113267
-0.387803 0.749771 0.112640
-0.383362 0.750533 0.112482
-0.378926 0.751280 0.112322
-0.373691 0.750422 0.111922
-0.369183 0.750949 0.111733
-0.365447 0.752998 0.111775
-0.361432 0.754474 0.111732
-0.356647 0.754334 0.111451
-0.352289 0.755032 0.111297
-0.347694 0.755185 0.111066
-0.343818 0.756830 0.111059
-0.338600 0.755534 0.110620
-0.333653 0.754740 0.110260
-0.329606 0.755879 0.110189
-0.325475 0.756798 0.110090
-0.320810 0.756452 0.109808
-0.317195 0.758480 0.109878
-0.312546 0.758067 0.109594
-0.307761 0.757253 0.109256
-0.303344 0.757251 0.109041
-0.298840 0.756975 0.108790
-0.294485 0.757003 0.108588
-0.290844 0.758774 0.108642
-0.287664 0.761716 0.108868
-0.281792 0.757708 0.108093
-0.278722 0.760891 0.108361
-0.274866 0.762019 0.108335
-0.270587 0.761977 0.108144
-0.266311 0.761890 0.107950
-0.261868 0.761283 0.107686
-0.258024 0.762298 0.107657
-0.254164 0.763246 0.107621
-0.249622 0.762187 0.107302
-0.246053 0.763923 0.107385
-0.241883 0.763857 0.107215
-0.237741 0.763829 0.107052
-0.233964 0.764884 0.107047
-0.230026 0.765419 0.106970
-0.226027 0.765731 0.106864
-0.222010 0.765950 0.106748
-0.218383 0.767426 0.106812
-0.214467 0.767935 0.106742
-0.210418 0.767962 0.106607
-0.206256 0.767555 0.106413
-0.202131 0.767227 0.106232
-0.198245 0.767705 0.106168
-0.194423 0.768401 0.106135
-0.190146 0.767380 0.105865
-0.186403 0.768318 0.105871
-0.182654 0.769231 0.105875
-0.178280 0.767666 0.105536
-0.175486 0.772398 0.106076
-0.172883 0.778076 0.106748
-0.168610 0.776911 0.106470
-0.162919 0.769564 0.105335
-0.158921 0.769309 0.105187
-0.155097 0.769789 0.105144
-0.151373 0.770719 0.105164
-0.148221 0.774347 0.105559
-0.145733 0.781311 0.106415
-0.142389 0.784356 0.106730
-0.137657 0.780520 0.106097
-0.133237 0.778072 0.105657
-0.128764 0.775186 0.105159
-0.124548 0.773525 0.104831
-0.120997 0.775453 0.104999
-0.117975 0.780501 0.105595
-0.113539 0.777456 0.105082
-0.109719 0.777947 0.105055
-0.105752 0.777516 0.104902
-0.101539 0.775442 0.104526
-0.098677 0.782209 0.105361
-0.094578 0.780882 0.105089
-0.091146 0.784188 0.105450
-0.087307 0.784689 0.105430
-0.083198 0.783147 0.105132
-0.078629 0.777809 0.104318
-0.074715 0.777416 0.104179
-0.070900 0.777817 0.104149
-0.067107 0.778410 0.104145
-0.063251 0.778451 0.104068
-0.059507 0.779550 0.104135
-0.055796 0.781064 0.104258
-0.052488 0.787039 0.104987
-0.048433 0.785165 0.104652
-0.044170 0.780552 0.103948
-0.040071 0.777425 0.103447
-0.036207 0.777049 0.103318
-0.032411 0.777564 0.103311
-0.028996 0.784009 0.104104
-0.025530 0.790581 0.104913
-0.021540 0.788758 0.104592
-0.017262 0.780854 0.103452
-0.013388 0.780081 0.103274
-0.009668 0.782851 0.103573
-0.005777 0.781580 0.103330
-0.001980 0.782826 0.103425
0.001814 0.784603 0.103592
0.005634 0.785836 0.103687
0.009489 0.785696 0.103598
0.013358 0.784225 0.103331
0.017149 0.790395 0.104088
0.021005 0.794380 0.104553
0.024885 0.788086 0.103643
0.028732 0.786540 0.103370
0.032568 0.785322 0.103141
0.036434 0.786896 0.103286
0.040331 0.789333 0.103547
0.044067 0.784296 0.102812
0.047869 0.783169 0.102599
0.051704 0.783315 0.102557
0.055600 0.785028 0.102724
0.059425 0.784732 0.102625
0.063342 0.786408 0.102789
0.067497 0.792303 0.103514
0.071153 0.788528 0.102955
0.074520 0.780652 0.101854
0.078704 0.786111 0.102523
0.082514 0.785612 0.102403
0.086447 0.786790 0.102507
0.090296 0.786758 0.102451
0.094287 0.788392 0.102616
0.098786 0.795463 0.103503
0.102450 0.793014 0.103130
0.106640 0.796067 0.103487
0.110797 0.798504 0.103763
0.114218 0.793946 0.103116
0.117633 0.789689 0.102511
0.121301 0.787888 0.102231
0.124610 0.783276 0.101583
0.128279 0.781801 0.101350
0.132650 0.785699 0.101828
0.138483 0.799962 0.103673
0.142171 0.798128 0.103397
0.145772 0.795785 0.103056
0.149849 0.796700 0.103147
0.154165 0.799057 0.103428
0.157657 0.796117 0.103015
0.160929 0.791985 0.102446
0.164283 0.788528 0.101969
0.168423 0.789704 0.102103
0.172489 0.790371 0.102172
0.176315 0.789661 0.102062
0.180256 0.789552 0.102034
0.186062 0.799004 0.103264
0.190901 0.803099 0.103793
0.193864 0.797763 0.103084
0.196269 0.789952 0.102052
0.200348 0.790286 0.102093
0.204839 0.792439 0.102376
0.208143 0.789139 0.101944
0.215280 0.802712 0.103733
0.219114 0.801507 0.103582
0.223196 0.801341 0.103571
0.227470 0.801914 0.103659
0.230862 0.798860 0.103273
0.236147 0.803346 0.103882
0.240823 0.805242 0.104153
0.240623 0.788483 0.101972
0.246910 0.796479 0.103052
0.250905 0.795736 0.102984
0.254440 0.793306 0.102697
0.258751 0.793641 0.102778
0.264118 0.797567 0.103334
0.268945 0.799452 0.103625
0.272418 0.796682 0.103305
0.275354 0.792174 0.102759
0.280393 0.794559 0.103125
0.285130 0.795842 0.103349
0.290259 0.798248 0.103725
0.293852 0.795787 0.103460
0.297244 0.792735 0.103120
0.303717 0.798900 0.104002
0.308584 0.800098 0.104230
0.312212 0.797624 0.103974
0.316462 0.796935 0.103957
0.320548 0.795752 0.103877
0.325774 0.797694 0.104214
0.331997 0.802235 0.104898
0.339948 0.811217 0.106176
0.343191 0.807472 0.105762
0.347050 0.805391 0.105571
0.350086 0.801220 0.105101
0.353676 0.798530 0.104829
0.360851 0.804816 0.105754
0.366987 0.808354 0.106313
0.370814 0.806174 0.106107
0.373588 0.801522 0.105568
0.376430 0.797145 0.105063
0.382215 0.799737 0.105488
0.385945 0.797544 0.105269
0.391517 0.799607 0.105616
0.398301 0.804356 0.106319
0.402924 0.804236 0.106364
0.406758 0.802432 0.106175
0.411406 0.802481 0.106229
0.415641 0.801705 0.106164
0.425023 0.811879 0.107564
0.435853 0.806184 0.106833
0.440432 0.806511 0.106867
0.446034 0.808981 0.107179
-0.480534 0.736620 0.111280
-0.477482 0.738812 0.111481
-0.472841 0.738655 0.111310
-0.468441 0.738957 0.111195
-0.463990 0.739258 0.111069
-0.460782 0.741626 0.111243
-0.457202 0.743501 0.111330
-0.452374 0.743431 0.111113
-0.448310 0.744668 0.111083
-0.442933 0.743783 0.110725
-0.438398 0.744330 0.110574
-0.434188 0.745469 0.110505
-0.429601 0.746003 0.110338
-0.425250 0.746968 0.110231
-0.420744 0.747688 0.110082
-0.416409 0.748724 0.109976
-0.412101 0.749823 0.109877
-0.407629 0.750633 0.109731
-0.401508 0.748403 0.109136
-0.397741 0.750480 0.109176
-0.393834 0.752311 0.109177
-0.387711 0.749924 0.108561
-0.383372 0.750884 0.108436
-0.379348 0.752435 0.108399
-0.373242 0.749866 0.107762
-0.369328 0.751568 0.107750
-0.365656 0.753750 0.107809
-0.361572 0.755089 0.107747
-0.356765 0.754905 0.107468
-0.351396 0.753478 0.107014
-0.345866 0.751616 0.106501
-0.341957 0.753138 0.106478
-0.337548 0.753550 0.106299
-0.333717 0.755187 0.106299
-0.329664 0.756311 0.106228
-0.325885 0.758024 0.106244
-0.320166 0.755265 0.105629
-0.316194 0.756438 0.105576
-0.311935 0.756904 0.105427
-0.307561 0.757049 0.105236
-0.303453 0.757781 0.105131
-0.298699 0.756890 0.104802
-0.294853 0.758173 0.104782
-0.291149 0.759793 0.104813
-0.287296 0.761019 0.104791
-0.282839 0.760656 0.104551
-0.278725 0.761128 0.104431
-0.274567 0.761442 0.104292
-0.270293 0.761397 0.104107
-0.266377 0.762281 0.104055
-0.261882 0.761522 0.103778
-0.257917 0.762189 0.103701
-0.253979 0.762904 0.103635
-0.249984 0.763423 0.103544
-0.246062 0.764122 0.103481
-0.241113 0.761711 0.102993
-0.237380 0.762887 0.103001
-0.233913 0.764879 0.103124
-0.229974 0.765402 0.103048
-0.225783 0.765091 0.102860
-0.222214 0.766748 0.102944
-0.218553 0.768115 0.102990
-0.214564 0.768378 0.102888
-0.210530 0.768458 0.102763
-0.206508 0.768540 0.102642
-0.201606 0.765460 0.102094
-0.198085 0.767216 0.102204
-0.194263 0.767896 0.102170
-0.190476 0.768690 0.102153
-0.186635 0.769270 0.102110
-0.181983 0.766680 0.101641
-0.178419 0.768270 0.101737
-0.175397 0.772084 0.102134
-0.172312 0.775753 0.102513
-0.167972 0.774252 0.102198
-0.162912 0.769552 0.101457
-0.158793 0.768757 0.101241
-0.155067 0.769659 0.101255
-0.151749 0.772442 0.101521
-0.148316 0.774782 0.101729
-0.147057 0.787657 0.103342
-0.143424 0.789422 0.103474
-0.138508 0.784771 0.102752
-0.134000 0.781966 0.102279
-0.129796 0.780603 0.101999
-0.123939 0.770135 0.100512
-0.120581 0.773046 0.100803
-0.117440 0.777335 0.101277
-0.113532 0.777309 0.101180
-0.109279 0.775155 0.100803
-0.106283 0.780711 0.101447
-0.102085 0.778830 0.101108
-0.097948 0.777203 0.100803
-0.094570 0.780659 0.101171
-0.090721 0.780976 0.101125
-0.087346 0.784781 0.101539
-0.083022 0.781583 0.101032
-0.078846 0.779293 0.100646
-0.074601 0.776231 0.100160
-0.070953 0.777999 0.100309
-0.067199 0.778941 0.100350
-0.063243 0.778060 0.100153
-0.059421 0.778368 0.100113
-0.055836 0.781105 0.100391
-0.052197 0.783507 0.100625
-0.048500 0.785487 0.100805
-0.043975 0.777746 0.099715
-0.040011 0.776157 0.099431
-0.036163 0.775900 0.099321
-0.032391 0.776672 0.099346
-0.029174 0.786095 0.100497
-0.025536 0.789944 0.100923
-0.021413 0.785638 0.100288
-0.017358 0.781823 0.099718
-0.013865 0.789455 0.100636
-0.009747 0.783587 0.099802
-0.005900 0.783590 0.099730
-0.001972 0.780981 0.099321
0.001828 0.782170 0.099404
0.005594 0.785240 0.099731
0.009405 0.787355 0.099936
0.013229 0.789890 0.100194
0.017134 0.785412 0.099547
0.020973 0.787190 0.099709
0.024829 0.790600 0.100082
0.028665 0.785276 0.099330
0.032481 0.782753 0.098939
0.036310 0.782789 0.098880
0.040177 0.784742 0.099067
0.044009 0.784557 0.098981
0.047799 0.782986 0.098717
0.051633 0.783199 0.098683
0.055448 0.782833 0.098575
0.059299 0.783416 0.098591
0.063166 0.784205 0.098633
0.067309 0.790095 0.099330
0.070991 0.786975 0.098873
0.074966 0.789043 0.099082
0.078403 0.782746 0.098221
0.082379 0.784812 0.098431
0.086351 0.786560 0.098602
0.090245 0.787131 0.098623
0.095587 0.804592 0.100801
0.098277 0.790750 0.098984
0.102178 0.791058 0.098975
0.106663 0.797181 0.099708
0.110867 0.800036 0.100025
0.113417 0.787425 0.098373
0.116909 0.784133 0.097911
0.120836 0.784759 0.097949
0.124759 0.785272 0.097973
0.128422 0.783689 0.097733
0.132912 0.788440 0.098300
0.138204 0.798686 0.099566
0.142626 0.802084 0.099962
0.146458 0.801200 0.099817
0.150151 0.799426 0.099559
0.153809 0.797498 0.099285
0.157197 0.793972 0.098809
0.160494 0.790060 0.098287
0.164028 0.787724 0.097966
0.168388 0.790197 0.098258
0.172251 0.789734 0.098179
0.176160 0.789509 0.098132
0.180296 0.790449 0.098235
0.185961 0.799175 0.099326
0.190108 0.799805 0.099394
0.193003 0.794221 0.098676
0.196197 0.790287 0.098170
0.199188 0.785529 0.097562
0.203659 0.787714 0.097836
0.207803 0.788292 0.097909
0.215437 0.804085 0.099912
0.220102 0.806425 0.100213
0.223249 0.802245 0.099690
0.227444 0.802489 0.099731
0.231829 0.803439 0.099863
0.236473 0.805321 0.100117
0.240258 0.803741 0.099935
0.246625 0.811984 0.101000
0.249086 0.805282 0.100174
0.251881 0.799991 0.099530
0.254936 0.795771 0.099023
0.259598 0.797315 0.099251
0.264712 0.800314 0.099667
0.269053 0.800511 0.099730
0.270602 0.791286 0.098599
0.274013 0.788444 0.098281
0.278582 0.789385 0.098447
0.283947 0.792768 0.098927
0.288494 0.793415 0.099061
0.293860 0.796505 0.099510
0.296859 0.792256 0.099027
0.302776 0.796787 0.099665
0.311120 0.808239 0.101189
0.311846 0.797259 0.099855
0.314852 0.793043 0.099385
0.320500 0.796304 0.099872
0.324844 0.795812 0.099882
0.330258 0.798192 0.100261
0.337793 0.806135 0.101355
0.343454 0.808850 0.101782
0.347215 0.806499 0.101560
0.352042 0.806905 0.101693
0.356479 0.806279 0.101694
0.361169 0.806267 0.101774
0.369869 0.816094 0.103119
0.371236 0.807839 0.102137
0.370151 0.793920 0.100422
0.373937 0.791865 0.100232
0.380432 0.796179 0.100861
0.384982 0.795913 0.100897
0.391262 0.799596 0.101439
0.398626 0.805640 0.102282
0.401780 0.802237 0.101899
0.406821 0.803086 0.102060
0.411270 0.802681 0.102052
0.415523 0.801924 0.101991
0.421198 0.804253 0.102322
0.423223 0.798981 0.101659
0.429983 0.803685 0.102280
0.435135 0.805092 0.102464
0.439838 0.805660 0.102528
0.443868 0.804972 0.102420
-0.482680 0.739973 0.107636
-0.477149 0.738389 0.107270
-0.473512 0.739810 0.107332
-0.468977 0.739928 0.107191
-0.464782 0.740663 0.107128
-0.460853 0.741906 0.107127
-0.456773 0.742989 0.107093
-0.452441 0.743738 0.106999
-0.447826 0.744084 0.106837
-0.443216 0.744483 0.106675
-0.438106 0.744080 0.106389
-0.433607 0.744733 0.106250
-0.429576 0.746225 0.106226
-0.425640 0.747922 0.106225
-0.421427 0.749174 0.106156
-0.416625 0.749400 0.105935
-0.412222 0.750339 0.105814
-0.406723 0.749286 0.105407
-0.401700 0.749065 0.105118
-0.397861 0.751016 0.105136
-0.393661 0.752301 0.105060
-0.388065 0.750916 0.104606
-0.383156 0.750784 0.104330
-0.378876 0.751832 0.104223
-0.373564 0.750820 0.103827
-0.369190 0.751610 0.103687
-0.365363 0.753473 0.103698
-0.361084 0.754402 0.103581
-0.356361 0.754378 0.103334
-0.351420 0.753836 0.103018
-0.346941 0.754206 0.102833
-0.341504 0.752461 0.102358
-0.337591 0.753939 0.102332
-0.333452 0.754892 0.102237
-0.329724 0.756732 0.102267
-0.324452 0.755055 0.101818
-0.320074 0.755328 0.101640
-0.315932 0.756099 0.101534
-0.311479 0.756095 0.101326
-0.307491 0.757141 0.101264
-0.303533 0.758228 0.101211
-0.298987 0.757842 0.100962
-0.294917 0.758573 0.100867
-0.291147 0.760022 0.100873
-0.286715 0.759763 0.100652
-0.283025 0.761360 0.100684
-0.278875 0.761740 0.100555
-0.274173 0.760600 0.100226
-0.270089 0.761050 0.100114
-0.265835 0.760990 0.099936
-0.261253 0.759959 0.099633
-0.258059 0.762775 0.099845
-0.254304 0.764012 0.099849
-0.250250 0.764367 0.099739
-0.245875 0.763733 0.099501
-0.241196 0.762117 0.099136
-0.237591 0.763680 0.099194
-0.233904 0.764996 0.099222
-0.229848 0.765141 0.099098
-0.225874 0.765512 0.099006
-0.222316 0.767204 0.099091
-0.218076 0.766650 0.098882
-0.214389 0.767899 0.098913
-0.210540 0.768592 0.098872
-0.206326 0.767999 0.098666
-0.202321 0.768082 0.098550
-0.198318 0.768141 0.098433
-0.194344 0.768265 0.098327
-0.190504 0.768859 0.098284
-0.187239 0.771636 0.098527
-0.182927 0.770404 0.098250
-0.178674 0.769324 0.097995
-0.176350 0.775975 0.098745
-0.172714 0.777442 0.098823
-0.168277 0.775558 0.098469
-0.162617 0.768295 0.097422
-0.158806 0.768817 0.097383
-0.155065 0.769647 0.097386
-0.151260 0.770182 0.097352
-0.148487 0.775566 0.097943
-0.146968 0.787199 0.099338
-0.142274 0.783723 0.098790
-0.137745 0.780873 0.098325
-0.134063 0.782234 0.098402
-0.129093 0.776808 0.097611
-0.123969 0.770224 0.096673
-0.119934 0.769345 0.096468
-0.117263 0.776222 0.097255
-0.113067 0.774456 0.096939
-0.109765 0.777986 0.097299
-0.106524 0.782087 0.097732
-0.103344 0.786807 0.098244
-0.098282 0.779267 0.097197
-0.094334 0.778863 0.097059
-0.090631 0.780151 0.097137
-0.086865 0.781035 0.097164
-0.082916 0.780554 0.097018
-0.078926 0.779694 0.096826
-0.074616 0.776094 0.096288
-0.070832 0.776684 0.096281
-0.067069 0.777483 0.096302
-0.063228 0.777594 0.096236
-0.059452 0.778323 0.096248
-0.055913 0.781522 0.096573
-0.052295 0.784152 0.096826
-0.048300 0.782776 0.096575
-0.044090 0.778648 0.095979
-0.040074 0.776438 0.095625
-0.036214 0.776037 0.095499
-0.032529 0.778041 0.095676
-0.028815 0.779876 0.095832
-0.025071 0.781444 0.095955
-0.021159 0.780215 0.095728
-0.017349 0.780723 0.095719
-0.013632 0.783320 0.095972
-0.009971 0.787835 0.096465
-0.006045 0.786184 0.096187
-0.002245 0.787981 0.096341
0.001647 0.786924 0.096139
0.005535 0.785524 0.095895
0.009395 0.784922 0.095751
0.013305 0.779920 0.095060
0.017133 0.778866 0.094862
0.020948 0.778480 0.094748
0.024763 0.782580 0.095192
0.028609 0.785699 0.095514
0.032391 0.779841 0.094722
0.036222 0.780971 0.094799
0.040097 0.783840 0.095091
0.043914 0.783263 0.094957
0.047793 0.785004 0.095111
0.051584 0.783690 0.094888
0.055393 0.783144 0.094760
0.059198 0.782644 0.094639
0.063135 0.785009 0.094873
0.067126 0.787971 0.095180
0.071314 0.793892 0.095854
0.075115 0.792645 0.095643
0.078879 0.791024 0.095388
0.082525 0.787934 0.094953
0.086312 0.787081 0.094795
0.090122 0.786594 0.094683
0.093771 0.784256 0.094345
0.097556 0.783658 0.094221
0.101528 0.785081 0.094347
0.105563 0.786979 0.094533
0.109786 0.790503 0.094919
0.113191 0.786169 0.094342
0.116562 0.781870 0.093771
0.120404 0.781878 0.093730
0.124782 0.786234 0.094222
0.128851 0.787808 0.094375
0.131812 0.780871 0.093487
0.136468 0.786751 0.094170
0.140453 0.787483 0.094224
0.144395 0.787839 0.094233
0.149220 0.793985 0.094952
0.153059 0.793395 0.094849
0.156342 0.789351 0.094326
0.159817 0.786656 0.093969
0.164064 0.788619 0.094183
0.168157 0.789560 0.094274
0.172195 0.790101 0.094318
0.176366 0.791298 0.094444
0.180229 0.790764 0.094360
0.185760 0.798811 0.095326
0.189328 0.796553 0.095036
0.192615 0.792983 0.094589
0.196639 0.793066 0.094589
0.202482 0.801619 0.095624
0.206279 0.800373 0.095466
0.210690 0.801879 0.095647
0.211891 0.789200 0.094100
0.216119 0.789998 0.094199
0.220355 0.790745 0.094294
0.224583 0.791373 0.094377
0.228913 0.792337 0.094503
0.233265 0.793293 0.094631
0.237416 0.793378 0.094656
0.241721 0.793992 0.094747
0.245958 0.794269 0.094800
0.250668 0.796212 0.095060
0.255655 0.799022 0.095428
0.259495 0.797617 0.095284
0.264663 0.800813 0.095705
0.267544 0.796034 0.095154
0.270390 0.791242 0.094605
0.273504 0.787431 0.094177
0.279178 0.791981 0.094775
0.284210 0.794273 0.095100
0.288562 0.794298 0.095151
0.292957 0.794392 0.095212
0.297418 0.794621 0.095293
0.303282 0.798970 0.095881
0.308085 0.800002 0.096066
0.311492 0.796905 0.095746
0.314357 0.792301 0.095244
0.319217 0.793376 0.095440
0.324329 0.795057 0.095714
0.330678 0.800002 0.096391
0.337641 0.806397 0.097250
0.341617 0.804663 0.097109
0.346807 0.806096 0.097359
0.351156 0.805286 0.097334
0.355837 0.805303 0.097411
0.361732 0.808316 0.097859
0.366635 0.808775 0.097991
0.375100 0.817847 0.099188
0.372770 0.800799 0.097150
0.373871 0.792302 0.096168
0.380394 0.796674 0.096778
0.385184 0.796947 0.096877
0.389931 0.797126 0.096961
0.396602 0.801640 0.097580
0.402112 0.803496 0.097864
0.406560 0.803020 0.097852
0.411369 0.803381 0.097939
0.416846 0.805217 0.098202
0.420626 0.803488 0.098014
0.422292 0.797454 0.097282
0.426501 0.796888 0.097221
0.432540 0.800163 0.097630
0.436757 0.799778 0.097574
0.440910 0.799377 0.097505
-0.477808 0.732594 0.102436
-0.477136 0.738460 0.103135
-0.473448 0.739820 0.103183
-0.469056 0.740180 0.103077
-0.465173 0.741427 0.103085
-0.461522 0.743139 0.103147
-0.457077 0.743660 0.103031
-0.452379 0.743831 0.102856
-0.446700 0.742430 0.102453
-0.441579 0.741971 0.102174
-0.437303 0.742959 0.102091
-0.433342 0.744526 0.102082
-0.429563 0.746457 0.102117
-0.425673 0.748244 0.102127
-0.421236 0.749111 0.102005
-0.417001 0.750349 0.101930
-0.411645 0.749586 0.101578
-0.405849 0.747987 0.101109
-0.401778 0.749503 0.101068
-0.398747 0.752967 0.101291
-0.393854 0.752966 0.101041
-0.388187 0.751451 0.100585
-0.382971 0.750730 0.100238
-0.378703 0.751799 0.100137
-0.374525 0.753021 0.100057
-0.369569 0.752669 0.099766
-0.364751 0.752534 0.099508
-0.360599 0.753706 0.099428
-0.355662 0.753221 0.099128
-0.351372 0.754027 0.099004
-0.346475 0.753502 0.098705
-0.342126 0.754084 0.098558
-0.337360 0.753714 0.098287
-0.333532 0.755344 0.098284
-0.328843 0.755031 0.098028
-0.324080 0.754479 0.097744
-0.319995 0.755407 0.097659
-0.315883 0.756239 0.097564
-0.311424 0.756213 0.097360
-0.307544 0.757511 0.097333
-0.303708 0.758892 0.097320
-0.299300 0.758845 0.097124
-0.295015 0.759045 0.096963
-0.290158 0.757748 0.096611
-0.286409 0.759194 0.096619
-0.282785 0.760948 0.096670
-0.279099 0.762533 0.096702
-0.274050 0.760470 0.096265
-0.269738 0.760287 0.096075
-0.265560 0.760417 0.095928
-0.261631 0.761190 0.095867
-0.258028 0.762857 0.095923
-0.254430 0.764539 0.095984
-0.249696 0.762910 0.095624
-0.245329 0.762268 0.095393
-0.241748 0.763921 0.095457
-0.237885 0.764717 0.095415
-0.233938 0.765232 0.095339
-0.229815 0.765162 0.095192
-0.226080 0.766290 0.095199
-0.222028 0.766379 0.095076
-0.217910 0.766206 0.094923
-0.213941 0.766490 0.094829
-0.210150 0.767349 0.094811
-0.206319 0.768057 0.094775
-0.202487 0.768750 0.094740
-0.198568 0.769115 0.094665
-0.194614 0.769322 0.094572
-0.191048 0.770957 0.094660
-0.186994 0.770748 0.094518
-0.182056 0.767058 0.093943
-0.178312 0.767924 0.093941
-0.176567 0.776884 0.094949
-0.173020 0.778724 0.095070
-0.168094 0.774799 0.094473
-0.164478 0.776313 0.094556
-0.160824 0.777690 0.094623
-0.156827 0.777553 0.094503
-0.152028 0.773692 0.093923
-0.147420 0.770523 0.093431
-0.143335 0.769688 0.093230
-0.139378 0.769417 0.093100
-0.135575 0.769873 0.093061
-0.132760 0.775435 0.093654
-0.128696 0.774629 0.093461
-0.124273 0.771796 0.093020
-0.120693 0.773495 0.093138
-0.115812 0.767785 0.092346
-0.113432 0.776493 0.093328
-0.109517 0.776357 0.093223
-0.105170 0.773474 0.092782
-0.100885 0.770790 0.092367
-0.097244 0.772193 0.092454
-0.093759 0.774730 0.092681
-0.091324 0.784884 0.093838
-0.086882 0.780946 0.093274
-0.082843 0.779772 0.093048
-0.078881 0.779095 0.092884
-0.074824 0.777552 0.092615
-0.070735 0.775580 0.092295
-0.066991 0.776493 0.092327
-0.063234 0.777333 0.092350
-0.059504 0.778481 0.092412
-0.056076 0.782807 0.092860
-0.052355 0.784388 0.092974
-0.048414 0.783632 0.092806
-0.044518 0.783289 0.092689
-0.040657 0.783311 0.092616
-0.036889 0.784567 0.092693
-0.033234 0.787573 0.092982
-0.028862 0.779929 0.091986
-0.024994 0.779421 0.091852
-0.021097 0.778268 0.091641
-0.017345 0.779738 0.091747
-0.013626 0.782158 0.091967
-0.009917 0.785348 0.092280
-0.006115 0.786754 0.092379
-0.002274 0.787293 0.092374
0.001544 0.788821 0.092488
0.005509 0.784379 0.091886
0.009416 0.780705 0.091378
0.013248 0.780143 0.091244
0.017075 0.779208 0.091066
0.020889 0.779329 0.091015
0.024702 0.778466 0.090847
0.028520 0.780220 0.090992
0.032314 0.778192 0.090686
0.036202 0.783682 0.091278
0.040051 0.784669 0.091333
0.043830 0.782381 0.090998
0.047705 0.784167 0.091150
0.051560 0.784899 0.091176
0.055379 0.784523 0.091071
0.059193 0.784101 0.090962
0.062982 0.783232 0.090801
0.067306 0.792748 0.091873
0.071336 0.795549 0.092148
0.075153 0.794449 0.091961
0.078936 0.793000 0.091734
0.082598 0.790025 0.091327
0.086238 0.787113 0.090929
0.089916 0.785009 0.090628
0.093727 0.784677 0.090537
0.097476 0.783664 0.090367
0.101443 0.785058 0.090483
0.105532 0.787519 0.090726
0.109907 0.792501 0.091267
0.113853 0.793072 0.091288
0.117133 0.787694 0.090609
0.120654 0.784767 0.090221
0.124849 0.787531 0.090505
0.128504 0.785830 0.090264
0.132441 0.786353 0.090286
0.136511 0.787788 0.090417
0.140244 0.786720 0.090255
0.144099 0.786515 0.090195
0.148293 0.788543 0.090400
0.152278 0.789074 0.090430
0.155920 0.787397 0.090203
0.159587 0.785939 0.090003
0.163527 0.786133 0.089998
0.168016 0.789415 0.090358
0.172143 0.790470 0.090458
0.176065 0.790324 0.090419
0.179832 0.789317 0.090281
0.185202 0.796588 0.091115
0.189301 0.797070 0.091155
0.192333 0.792243 0.090575
0.197776 0.799166 0.091374
0.203102 0.805175 0.092068
0.207108 0.804818 0.092018
0.208808 0.794089 0.090755
0.211976 0.790211 0.090297
0.216132 0.790690 0.090352
0.220395 0.791549 0.090453
0.224595 0.792063 0.090517
0.228817 0.792589 0.090584
0.233031 0.793008 0.090641
0.237107 0.792819 0.090630
0.241385 0.793352 0.090705
0.245635 0.793705 0.090762
0.250154 0.794970 0.090929
0.255736 0.799961 0.091535
0.260638 0.802309 0.091834
0.263922 0.798889 0.091459
0.268225 0.799008 0.091502
0.270762 0.793133 0.090844
0.274562 0.791562 0.090693
0.279653 0.794168 0.091036
0.284366 0.795422 0.091223
0.288599 0.795065 0.091223
0.292936 0.794979 0.091258
0.297647 0.795968 0.091422
0.302829 0.798271 0.091743
0.306951 0.797324 0.091684
0.310098 0.793522 0.091290
0.315544 0.796332 0.091679
0.323242 0.805321 0.092799
0.328462 0.807130 0.093074
0.327964 0.793256 0.091498
0.334089 0.797513 0.092066
0.338829 0.797936 0.092182
0.344122 0.799741 0.092463
0.348901 0.800130 0.092577
0.353725 0.800584 0.092700
0.358248 0.800238 0.092728
0.362718 0.799743 0.092738
0.368090 0.801430 0.093006
0.373310 0.802688 0.093223
0.375136 0.795872 0.092478
0.380344 0.797127 0.092690
0.384484 0.795892 0.092604
0.389471 0.796623 0.092748
0.394957 0.798475 0.093022
0.401655 0.802999 0.093611
0.406517 0.803423 0.093706
0.411839 0.804878 0.093918
0.415960 0.803782 0.093819
0.419948 0.802492 0.093690
0.421648 0.796520 0.092994
0.428415 0.801235 0.093566
0.432219 0.799874 0.093404
0.434723 0.796009 0.092933
0.448070 0.814028 0.095068
-0.482733 0.740201 0.099361
-0.477260 0.738742 0.099030
-0.473674 0.740281 0.099097
-0.468915 0.740084 0.098916
-0.464538 0.740561 0.098815
-0.461591 0.743407 0.099025
-0.457831 0.745054 0.099063
-0.451650 0.742825 0.098568
-0.446599 0.742466 0.098317
-0.441606 0.742229 0.098077
-0.437189 0.742991 0.097964
-0.433389 0.744842 0.097991
-0.429631 0.746820 0.098029
-0.425443 0.748099 0.097968
-0.420932 0.748837 0.097832
-0.415746 0.748383 0.097535
-0.411996 0.750493 0.097575
-0.405767 0.748116 0.097020
-0.401179 0.748683 0.096854
-0.397780 0.751451 0.096976
-0.392633 0.750951 0.096669
-0.387563 0.750549 0.096376
-0.383460 0.751962 0.096321
-0.378553 0.751793 0.096061
-0.373951 0.752174 0.095874
-0.369753 0.753323 0.095789
-0.365359 0.754051 0.095651
-0.359609 0.751957 0.095152
-0.356487 0.755214 0.095345
-0.350641 0.752767 0.094807
-0.346115 0.753009 0.094618
-0.341902 0.753873 0.094512
-0.337775 0.754886 0.094428
-0.333072 0.754590 0.094179
-0.329168 0.756014 0.094154
-0.324404 0.755464 0.093880
-0.320061 0.755807 0.093723
-0.315984 0.756715 0.093641
-0.311615 0.756900 0.093471
-0.307625 0.757936 0.093412
-0.303673 0.759031 0.093363
-0.299306 0.759079 0.093185
-0.295112 0.759499 0.093058
-0.290109 0.757831 0.092673
-0.286069 0.758525 0.092586
-0.282718 0.760970 0.092721
-0.277722 0.759098 0.092321
-0.273628 0.759526 0.092210
-0.269713 0.760398 0.092157
-0.265812 0.761281 0.092109
-0.261804 0.761839 0.092023
-0.257809 0.762398 0.091939
-0.254210 0.764060 0.091995
-0.249307 0.761923 0.091585
-0.245553 0.763071 0.091582
-0.241823 0.764281 0.091589
-0.238051 0.765352 0.091581
-0.233599 0.764302 0.091316
-0.229571 0.764508 0.091207
-0.225875 0.765739 0.091226
-0.222004 0.766400 0.091177
-0.217569 0.765171 0.090900
-0.213647 0.765587 0.090825
-0.209903 0.766585 0.090824
-0.206172 0.767621 0.090828
-0.202288 0.768111 0.090768
-0.198585 0.769238 0.090788
-0.194774 0.769966 0.090760
-0.190099 0.767448 0.090343
-0.186650 0.769476 0.090476
-0.182189 0.767610 0.090141
-0.179101 0.771081 0.090450
-0.176738 0.777594 0.091125
-0.172848 0.778028 0.091071
-0.168346 0.775867 0.090708
-0.164965 0.778406 0.090909
-0.162062 0.783122 0.091371
-0.158025 0.782917 0.091245
-0.152710 0.776797 0.090416
-0.147628 0.771463 0.089684
-0.143512 0.770497 0.089473
-0.139380 0.769371 0.089245
-0.135586 0.769866 0.089211
-0.132733 0.775227 0.089756
-0.129142 0.776915 0.089865
-0.125399 0.777833 0.089883
-0.122528 0.783648 0.090482
-0.118638 0.783903 0.090423
-0.113598 0.777356 0.089562
-0.109400 0.775509 0.089258
-0.105157 0.773252 0.088906
-0.101845 0.776825 0.089243
-0.098029 0.777250 0.089210
-0.093933 0.775748 0.088950
-0.091917 0.788898 0.090413
-0.088124 0.789874 0.090446
-0.082741 0.778770 0.089061
-0.078934 0.779267 0.089040
-0.074921 0.778086 0.088822
-0.070788 0.775748 0.088470
-0.067007 0.776330 0.088461
-0.063241 0.777074 0.088471
-0.059464 0.777747 0.088473
-0.056244 0.784144 0.089143
-0.052551 0.786087 0.089293
-0.048526 0.784454 0.089028
-0.044411 0.781526 0.088613
-0.040728 0.783689 0.088790
-0.037099 0.786820 0.089080
-0.033441 0.789919 0.089367
-0.028976 0.781010 0.088261
-0.025004 0.778849 0.087939
-0.021147 0.778367 0.087812
-0.017274 0.777418 0.087632
-0.013709 0.782935 0.088200
-0.009942 0.784788 0.088344
-0.005998 0.782218 0.087978
-0.002105 0.780426 0.087703
0.001682 0.781880 0.087803
0.005488 0.782987 0.087863
0.009346 0.781692 0.087647
0.013189 0.780488 0.087442
0.017000 0.781640 0.087509
0.020828 0.780685 0.087334
0.024646 0.779987 0.087190
0.028507 0.788434 0.088095
0.032335 0.785982 0.087750
0.036168 0.785418 0.087623
0.039983 0.784287 0.087431
0.043784 0.783041 0.087227
0.047594 0.782538 0.087108
0.051469 0.784106 0.087227
0.055327 0.784858 0.087254
0.059162 0.784923 0.087202
0.063122 0.787600 0.087450
0.067195 0.791952 0.087888
0.071090 0.792464 0.087889
0.074967 0.792611 0.087850
0.078449 0.786762 0.087129
0.082338 0.787419 0.087150
0.086186 0.787424 0.087097
0.089599 0.782016 0.086430
0.093619 0.784317 0.086640
0.097609 0.786033 0.086785
0.101450 0.785984 0.086730
0.105705 0.790102 0.087148
0.110260 0.796713 0.087850
0.114179 0.796879 0.087822
0.117700 0.793484 0.087392
0.121290 0.790922 0.087058
0.125115 0.790451 0.086962
0.128763 0.788594 0.086710
0.132603 0.788301 0.086637
0.136362 0.787403 0.086497
0.140086 0.786296 0.086334
0.143966 0.786296 0.086298
0.147986 0.787187 0.086364
0.152189 0.789175 0.086555
0.156268 0.790231 0.086642
0.159744 0.787545 0.086309
0.163657 0.787547 0.086281
0.167954 0.789707 0.086497
0.172016 0.790407 0.086550
0.175874 0.789926 0.086473
0.179840 0.789995 0.086458
0.185044 0.796412 0.087160
0.189162 0.797008 0.087209
0.193099 0.796639 0.087151
0.197579 0.798852 0.087385
0.202917 0.804945 0.088057
0.206739 0.803763 0.087914
0.209107 0.796058 0.087039
0.211882 0.790420 0.086399
0.216216 0.791674 0.086536
0.220356 0.792008 0.086571
0.224505 0.792313 0.086606
0.228812 0.793187 0.086706
0.232827 0.792824 0.086670
0.236844 0.792421 0.086632
0.241114 0.792942 0.086700
0.245365 0.793317 0.086754
0.249589 0.793522 0.086792
0.255552 0.799927 0.087529
0.260555 0.802646 0.087854
0.265239 0.804100 0.088040
0.269298 0.803303 0.087975
0.273062 0.801482 0.087797
0.275771 0.796179 0.087230
0.280123 0.796324 0.087278
0.284246 0.795671 0.087239
0.288362 0.794953 0.087195
0.292818 0.795245 0.087268
0.297632 0.796555 0.087458
0.302152 0.796881 0.087539
0.306647 0.797061 0.087607
0.310694 0.795879 0.087522
0.317135 0.801502 0.088209
0.324073 0.808293 0.089031
0.327914 0.806251 0.088856
0.328209 0.794549 0.087588
0.332955 0.795092 0.087708
0.338402 0.797428 0.088033
0.343101 0.797694 0.088124
0.348062 0.798586 0.088288
0.353145 0.799723 0.088480
0.357795 0.799708 0.088541
0.362555 0.799937 0.088630
0.367991 0.801777 0.088902
0.372595 0.801554 0.088938
0.377040 0.800945 0.088929
0.381868 0.801244 0.089021
0.385638 0.799093 0.088831
0.390199 0.798810 0.088852
0.393555 0.795842 0.088562
0.400705 0.801394 0.089241
0.406330 0.803499 0.089522
0.411116 0.803781 0.089590
0.416037 0.804396 0.089689
0.420043 0.803123 0.089566
0.422112 0.797897 0.088983
0.429894 0.804681 0.089767
0.430930 0.797603 0.088956
0.432936 0.792734 0.088389
0.429490 0.777151 0.086587
-0.480538 0.736916 0.094778
-0.477424 0.739086 0.094933
-0.473775 0.740545 0.094983
-0.469067 0.740445 0.094818
-0.464549 0.740718 0.094691
-0.460957 0.742545 0.094757
-0.456308 0.742756 0.094604
-0.451266 0.742379 0.094366
-0.446349 0.742244 0.094152
-0.442226 0.743471 0.094108
-0.437760 0.744170 0.093989
-0.433193 0.744734 0.093847
-0.429252 0.746402 0.093841
-0.425371 0.748218 0.093850
-0.420111 0.747641 0.093550
-0.414522 0.746458 0.093170
-0.409944 0.747057 0.093016
-0.405610 0.748094 0.092916
-0.401238 0.749060 0.092806
-0.397021 0.750307 0.092730
-0.391585 0.749247 0.092364
-0.387401 0.750514 0.092292
-0.383166 0.751669 0.092206
-0.378562 0.752085 0.092029
-0.373637 0.751828 0.091769
-0.369554 0.753197 0.091714
-0.365274 0.754148 0.091609
-0.360625 0.754311 0.091408
-0.354850 0.752080 0.090914
-0.349925 0.751522 0.090631
-0.345875 0.752755 0.090571
-0.341759 0.753818 0.090494
-0.337308 0.754116 0.090324
-0.333627 0.756061 0.090360
-0.329439 0.756864 0.090258
-0.325126 0.757340 0.090120
-0.320264 0.756504 0.089825
-0.316083 0.757174 0.089717
-0.311917 0.757836 0.089611
-0.307692 0.758313 0.089486
-0.303249 0.758217 0.089294
-0.298904 0.758297 0.089127
-0.294667 0.758593 0.088990
-0.290351 0.758638 0.088825
-0.285716 0.757810 0.088559
-0.281607 0.758269 0.088450
-0.277519 0.758742 0.088346
-0.273577 0.759563 0.088286
-0.269888 0.761037 0.088306
-0.266077 0.762169 0.088288
-0.261791 0.761955 0.088113
-0.258145 0.763496 0.088149
-0.253432 0.761967 0.087824
-0.249612 0.762948 0.087798
-0.245476 0.762973 0.087662
-0.241601 0.763737 0.087615
-0.237827 0.764784 0.087604
-0.233019 0.762613 0.087217
-0.229318 0.763815 0.087229
-0.225710 0.765311 0.087276
-0.221794 0.765808 0.087209
-0.218161 0.767217 0.087251
-0.213431 0.764938 0.086864
-0.209730 0.766064 0.086876
-0.205738 0.766175 0.086772
-0.202042 0.767298 0.086787
-0.197983 0.767114 0.086652
-0.193965 0.767036 0.086532
-0.190669 0.769622 0.086721
-0.186625 0.769415 0.086589
-0.182744 0.769797 0.086526
-0.178703 0.769521 0.086389
-0.177368 0.780157 0.087511
-0.173150 0.779281 0.087307
-0.168812 0.777826 0.087038
-0.165386 0.780208 0.087211
-0.162365 0.784436 0.087597
-0.158615 0.785543 0.087625
-0.153757 0.781575 0.087074
-0.147811 0.772284 0.085917
-0.143975 0.772673 0.085868
-0.139700 0.770889 0.085573
-0.135611 0.769928 0.085372
-0.132740 0.775183 0.085881
-0.129315 0.777746 0.086084
-0.126225 0.782233 0.086506
-0.124007 0.791805 0.087505
-0.118581 0.783457 0.086470
-0.114049 0.779887 0.085980
-0.110337 0.781070 0.086029
-0.105349 0.774300 0.085179
-0.101712 0.775810 0.085268
-0.097909 0.776274 0.085239
-0.093924 0.775497 0.085070
-0.092419 0.792265 0.086880
-0.087641 0.786101 0.086105
-0.083577 0.784910 0.085891
-0.078869 0.778506 0.085092
-0.074884 0.777510 0.084902
-0.070954 0.776887 0.084756
-0.067062 0.776513 0.084637
-0.063232 0.776659 0.084578
-0.059622 0.778924 0.084757
-0.056391 0.785263 0.085391
-0.052772 0.788045 0.085628
-0.048368 0.782218 0.084903
-0.044158 0.778024 0.084361
-0.040453 0.779692 0.084475
-0.037306 0.789042 0.085445
-0.033259 0.786690 0.085111
-0.028907 0.779269 0.084214
-0.025068 0.779168 0.084132
-0.021219 0.778842 0.084026
-0.017445 0.779886 0.084073
-0.013922 0.786523 0.084740
-0.010091 0.787196 0.084745
-0.006086 0.783263 0.084241
-0.002123 0.779435 0.083750
0.001679 0.780122 0.083759
0.005481 0.781003 0.083790
0.009285 0.782133 0.083849
0.013133 0.780682 0.083623
0.016969 0.778928 0.083365
0.020773 0.780585 0.083483
0.024592 0.782577 0.083639
0.028447 0.788017 0.084174
0.032329 0.791145 0.084455
0.036101 0.784930 0.083709
0.039932 0.784798 0.083633
0.043732 0.783440 0.083423
0.047535 0.782653 0.083276
0.051327 0.781781 0.083121
0.055231 0.784055 0.083311
0.059126 0.785627 0.083424
0.063225 0.791183 0.083974
0.067139 0.792210 0.084029
0.070882 0.790043 0.083735
0.074527 0.786620 0.083306
0.078306 0.785687 0.083149
0.082127 0.785472 0.083072
0.086147 0.787901 0.083283
0.089757 0.784925 0.082907
0.093426 0.782962 0.082641
0.097557 0.786329 0.082957
0.101463 0.786976 0.082978
0.105380 0.787652 0.083003
0.109633 0.791482 0.083371
0.113484 0.791255 0.083300
0.117337 0.791034 0.083230
0.121390 0.792516 0.083346
0.125464 0.794027 0.083466
0.129876 0.798061 0.083861
0.132264 0.786430 0.082560
0.135530 0.782003 0.082041
0.140272 0.788290 0.082683
0.144014 0.787295 0.082538
0.148189 0.789200 0.082708
0.152736 0.793350 0.083122
0.156576 0.792809 0.083031
0.160542 0.793026 0.083022
0.163765 0.788821 0.082538
0.167787 0.789388 0.082571
0.171899 0.790387 0.082652
0.175741 0.789827 0.082566
0.179606 0.789378 0.082494
0.184471 0.794078 0.082978
0.188744 0.795522 0.083114
0.192614 0.794872 0.083025
0.197724 0.800168 0.083579
0.201166 0.797340 0.083259
0.205093 0.796823 0.083190
0.209557 0.798689 0.083380
0.211926 0.791220 0.082567
0.215747 0.790260 0.082457
0.220836 0.794633 0.082922
0.224218 0.791731 0.082607
0.227200 0.787275 0.082127
0.231688 0.788908 0.082304
0.236682 0.792394 0.082683
0.240923 0.792819 0.082735
0.245462 0.794287 0.082901
0.249675 0.794445 0.082929
0.254051 0.795123 0.083015
0.257581 0.792726 0.082772
0.263529 0.798762 0.083440
0.269742 0.805438 0.084179
0.272475 0.800126 0.083629
0.276157 0.798065 0.083432
0.280140 0.796991 0.083344
0.284096 0.795804 0.083246
0.288059 0.794612 0.083149
0.292771 0.795713 0.083303
0.297274 0.796080 0.083379
0.302243 0.797768 0.083601
0.307777 0.801002 0.083992
0.312274 0.801073 0.084043
0.316963 0.801628 0.084149
0.322175 0.803574 0.084408
0.326491 0.802926 0.084387
0.328311 0.795432 0.083627
0.331798 0.792588 0.083371
0.338276 0.797696 0.083979
0.342295 0.796190 0.083871
0.347497 0.797728 0.084094
