ply
format ascii 1.0
comment ---
element vertex 1750
property float x
property float y
property float z
element face 0
property list uchar uint vertex_indices
end_header
0.038478 0.789915 0.280431
0.042473 0.789361 0.280205
0.046862 0.781663 0.277828
0.050983 0.777707 0.276583
0.054960 0.776001 0.276019
0.058754 0.778279 0.276658
0.062755 0.775481 0.275769
0.066622 0.776030 0.275892
0.070429 0.778981 0.276740
0.074279 0.781256 0.277387
0.078074 0.787940 0.279363
0.081952 0.793132 0.280891
0.085948 0.789632 0.279805
0.089917 0.784100 0.278109
0.093857 0.791662 0.280356
0.097816 0.791087 0.280156
0.101767 0.790187 0.279860
0.105626 0.784116 0.278011
0.109602 0.786288 0.278643
0.113422 0.781614 0.277218
0.117099 0.773666 0.274809
0.121318 0.783122 0.277638
0.125668 0.793514 0.280750
0.129606 0.792535 0.280443
0.133341 0.787644 0.278962
0.137075 0.783560 0.277725
0.140948 0.782430 0.277378
0.145135 0.786294 0.278534
0.149478 0.791840 0.280198
0.153051 0.786255 0.278516
0.156908 0.784912 0.278112
0.161077 0.787412 0.278865
0.165114 0.788123 0.279082
0.168882 0.785850 0.278403
0.172622 0.783487 0.277698
0.176497 0.782620 0.277446
0.180675 0.784602 0.278051
0.184791 0.785828 0.278431
0.188893 0.786808 0.278740
0.194102 0.796690 0.281727
0.198067 0.796050 0.281552
0.200739 0.785680 0.278451
0.204163 0.781476 0.277206
0.208343 0.782847 0.277641
0.212513 0.784024 0.278019
0.217047 0.787492 0.279089
0.220787 0.785653 0.278564
0.225015 0.786910 0.278973
0.230634 0.796389 0.281859
0.235599 0.801487 0.283429
0.239651 0.801110 0.283353
0.241583 0.789070 0.279767
0.245673 0.789183 0.279842
0.249879 0.789863 0.280091
0.255281 0.796552 0.282153
0.260211 0.800543 0.283405
0.265191 0.804551 0.284665
0.269812 0.806638 0.285349
0.270506 0.790479 0.280534
0.277019 0.801251 0.283843
0.281505 0.802577 0.284306
0.285284 0.800761 0.283824
0.288621 0.797122 0.282795
0.290408 0.787192 0.279868
0.294876 0.788485 0.280332
0.299214 0.789177 0.280619
0.303151 0.788242 0.280417
0.307499 0.788876 0.280693
0.314436 0.799126 0.283882
0.318641 0.798926 0.283914
0.322529 0.797556 0.283596
0.327466 0.799902 0.284406
0.333303 0.805247 0.286130
0.336659 0.801900 0.285224
0.340991 0.801900 0.285337
0.346166 0.804630 0.286282
0.348384 0.797651 0.284286
0.352477 0.796829 0.284161
0.357276 0.798199 0.284707
0.366070 0.811784 0.288971
0.365859 0.797596 0.284797
0.368995 0.793793 0.283784
0.373703 0.794673 0.284200
0.379361 0.798227 0.285437
0.383719 0.797920 0.285503
0.387282 0.795344 0.284881
0.390590 0.792088 0.284057
0.394884 0.791561 0.284070
0.401012 0.795913 0.285581
0.405924 0.796871 0.286060
0.409995 0.795560 0.285852
0.414431 0.795169 0.285930
0.419235 0.795663 0.286285
0.424234 0.796572 0.286775
0.429196 0.797312 0.287219
0.434021 0.797639 0.287542
0.438543 0.797176 0.287628
0.443461 0.797601 0.287995
0.448368 0.797930 0.288338
0.452485 0.796376 0.288106
0.457976 0.797920 0.288837
0.462157 0.796431 0.288636
0.466723 0.795774 0.288699
0.473123 0.799072 0.289993
0.478058 0.799074 0.290272
0.483262 0.799588 0.290716
0.488918 0.800979 0.291439
0.493570 0.800200 0.291493
0.498007 0.798942 0.291402
0.503633 0.800062 0.292056
0.509785 0.802152 0.293019
0.514625 0.801553 0.293146
0.519795 0.801558 0.293465
0.525762 0.803052 0.294254
0.531176 0.803411 0.294690
0.536534 0.803615 0.295080
0.541973 0.803925 0.295503
0.547364 0.804106 0.295886
0.552529 0.803841 0.296127
0.557554 0.803303 0.296281
0.565802 0.808473 0.298235
0.571370 0.808809 0.298659
0.576717 0.808745 0.298950
0.581229 0.807243 0.298779
0.587130 0.808133 0.299358
0.593007 0.808971 0.299912
0.598702 0.809503 0.300358
0.604299 0.809883 0.300743
0.609534 0.809695 0.300934
0.616316 0.812037 0.301918
0.622127 0.812827 0.302390
0.627169 0.812437 0.302467
0.632905 0.813195 0.302892
0.638812 0.814267 0.303397
0.643495 0.813510 0.303295
0.647705 0.812124 0.302969
0.653936 0.813885 0.303628
0.659222 0.814288 0.303828
0.665022 0.815535 0.304274
0.670008 0.815659 0.304335
0.669399 0.807744 0.301791
-0.291463 0.742117 0.275654
-0.287362 0.741272 0.275428
-0.284676 0.743439 0.276128
-0.281465 0.744681 0.276516
-0.278442 0.746459 0.277051
-0.275474 0.748509 0.277650
-0.271662 0.748903 0.277709
-0.267954 0.749641 0.277855
-0.263688 0.749272 0.277634
-0.259179 0.748452 0.277254
-0.255218 0.748931 0.277263
-0.251464 0.749977 0.277432
-0.247349 0.750291 0.277357
-0.243781 0.751958 0.277689
-0.239517 0.752085 0.277526
-0.235761 0.753482 0.277746
-0.232134 0.755276 0.278078
-0.228190 0.756375 0.278183
-0.224072 0.757102 0.278162
-0.219783 0.757439 0.278011
-0.215440 0.757660 0.277817
-0.210765 0.757030 0.277354
-0.206008 0.756166 0.276814
-0.201908 0.757030 0.276807
-0.197808 0.757905 0.276800
-0.193445 0.758063 0.276569
-0.189250 0.758671 0.276476
-0.185007 0.759132 0.276337
-0.180881 0.759914 0.276298
-0.176634 0.760329 0.276147
-0.171783 0.758907 0.275433
-0.171876 0.772426 0.279307
-0.167754 0.773321 0.279305
-0.160567 0.764555 0.276349
-0.157152 0.767498 0.276983
-0.151332 0.762659 0.275241
-0.148545 0.767648 0.276507
-0.144900 0.769859 0.276927
-0.140429 0.769253 0.276492
-0.135493 0.766933 0.275542
-0.130963 0.765914 0.274993
-0.126848 0.766300 0.274876
-0.123138 0.768143 0.275207
-0.119074 0.768656 0.275139
-0.113540 0.763457 0.273346
-0.109619 0.764331 0.273398
-0.106303 0.767611 0.274183
-0.102216 0.767801 0.274038
-0.098441 0.769249 0.274278
-0.094573 0.770297 0.274402
-0.090894 0.772160 0.274777
-0.087271 0.774296 0.275238
-0.083440 0.775517 0.275428
-0.078702 0.772476 0.274341
-0.073963 0.769222 0.273196
-0.069135 0.765310 0.271860
-0.065282 0.766071 0.271932
-0.061320 0.766248 0.271834
-0.057516 0.767222 0.271980
-0.053845 0.768924 0.272347
-0.050567 0.772876 0.273392
-0.046593 0.772971 0.273287
-0.042808 0.774144 0.273507
-0.038652 0.773064 0.273059
-0.034290 0.770560 0.272190
-0.030419 0.771049 0.272218
-0.026668 0.772331 0.272488
-0.022690 0.772078 0.272303
-0.019452 0.777099 0.273695
-0.015074 0.773903 0.272640
-0.011211 0.774424 0.272696
-0.007689 0.777695 0.273575
-0.003720 0.777431 0.273405
0.000291 0.776735 0.273109
0.003253 0.785543 0.275644
0.007965 0.778354 0.273424
0.012261 0.774604 0.272230
0.016066 0.775625 0.272458
0.019748 0.778093 0.273118
0.023338 0.781878 0.274172
0.027509 0.778831 0.273200
0.031532 0.777339 0.272693
0.035243 0.780027 0.273429
0.038848 0.784691 0.274753
0.042594 0.787739 0.275600
0.046918 0.780978 0.273541
0.050971 0.778192 0.272663
0.054934 0.776753 0.272187
0.058822 0.776748 0.272139
0.062710 0.776752 0.272095
0.066599 0.776660 0.272025
0.070459 0.777638 0.272275
0.074257 0.781775 0.273462
0.078058 0.787980 0.275263
0.081955 0.791391 0.276238
0.086012 0.778639 0.272430
0.089908 0.778345 0.272313
0.093804 0.778905 0.272450
0.097732 0.783466 0.273773
0.101615 0.780149 0.272766
0.105540 0.781318 0.273089
0.109548 0.785869 0.274414
0.113460 0.784936 0.274119
0.117214 0.779117 0.272379
0.121105 0.778703 0.272241
0.125523 0.791409 0.275984
0.129406 0.789514 0.275410
0.133124 0.784625 0.273953
0.136885 0.781360 0.272977
0.141017 0.784809 0.273989
0.145273 0.789644 0.275412
0.149345 0.791100 0.275838
0.153276 0.790434 0.275637
0.157273 0.790646 0.275698
0.161346 0.791718 0.276015
0.165493 0.793470 0.276534
0.169047 0.788665 0.275116
0.172456 0.782836 0.273398
0.176740 0.785996 0.274338
0.180569 0.784628 0.273942
0.184432 0.783657 0.273664
0.188681 0.786005 0.274369
0.193812 0.795323 0.277138
0.197824 0.795129 0.277095
0.200646 0.785938 0.274393
0.203804 0.779823 0.272603
0.207971 0.781182 0.273025
0.212606 0.785603 0.274354
0.218092 0.795307 0.277249
0.221142 0.788854 0.275366
0.225414 0.790310 0.275824
0.230948 0.799215 0.278490
0.235971 0.804601 0.280116
0.239745 0.802591 0.279556
0.243597 0.801081 0.279145
0.246584 0.794992 0.277381
0.251090 0.797111 0.278049
0.256566 0.804027 0.280142
0.261492 0.807837 0.281317
0.262960 0.794692 0.277470
0.267442 0.796381 0.278021
0.270712 0.792358 0.276881
0.275826 0.796811 0.278258
0.280381 0.798561 0.278836
0.284818 0.799697 0.279234
0.287283 0.792412 0.277137
0.290390 0.788053 0.275910
0.294716 0.788774 0.276194
0.298970 0.789150 0.276379
0.303126 0.789088 0.276437
0.307199 0.788675 0.276394
0.314098 0.798820 0.279493
0.319512 0.803091 0.280851
0.322880 0.799787 0.279960
0.328024 0.802853 0.280967
0.331838 0.801141 0.280556
0.336385 0.801952 0.280901
0.340788 0.802209 0.281084
0.344761 0.800994 0.280833
0.349012 0.800681 0.280855
0.352913 0.799217 0.280537
0.360796 0.810240 0.283953
0.361622 0.799096 0.280753
0.364390 0.794156 0.279409
0.368486 0.793290 0.279287
0.372431 0.791960 0.279031
0.379895 0.800806 0.281826
0.385643 0.804444 0.283068
0.388618 0.800138 0.281936
0.391085 0.794505 0.280409
0.394309 0.791048 0.279539
0.399969 0.794179 0.280651
0.406371 0.799126 0.282317
0.409099 0.794304 0.281051
0.413792 0.794612 0.281334
0.418787 0.795620 0.281833
0.423692 0.796319 0.282245
0.428836 0.797532 0.282819
0.433950 0.798581 0.283350
0.438365 0.797869 0.283355
0.444476 0.801127 0.284568
0.448993 0.800522 0.284618
0.453367 0.799545 0.284561
0.457344 0.797632 0.284225
0.460823 0.794591 0.283553
0.467381 0.798384 0.284962
0.472375 0.798602 0.285291
0.476025 0.795859 0.284724
0.482563 0.799273 0.286039
0.488519 0.801321 0.286945
0.492923 0.800037 0.286839
0.497859 0.799819 0.287063
0.503591 0.801162 0.287770
0.509315 0.802400 0.288451
0.513642 0.800797 0.288264
0.520170 0.803474 0.289395
0.525737 0.804186 0.289927
0.530825 0.803924 0.290160
0.535923 0.803641 0.290390
0.541670 0.804532 0.290983
0.547141 0.804858 0.291402
0.552207 0.804408 0.291580
0.557970 0.805190 0.292139
0.565294 0.808703 0.293544
0.569952 0.807438 0.293462
0.576100 0.808775 0.294184
0.581094 0.808093 0.294271
0.586698 0.808460 0.294679
0.591710 0.807831 0.294766
0.598593 0.810335 0.295823
0.604018 0.810410 0.296109
0.610806 0.812725 0.297084
0.617305 0.814562 0.297896
0.621441 0.812634 0.297512
0.627011 0.813055 0.297848
0.632217 0.812952 0.298000
0.637485 0.813009 0.298183
0.642681 0.813021 0.298331
0.648634 0.814257 0.298843
0.654091 0.814801 0.299114
0.659789 0.815778 0.299499
0.664619 0.815544 0.299478
0.669304 0.815193 0.299395
0.680404 0.824276 0.302260
-0.291514 0.742414 0.271730
-0.288731 0.744291 0.272340
-0.285221 0.744832 0.272517
-0.282194 0.746509 0.273023
-0.279109 0.748215 0.273519
-0.274281 0.746378 0.272898
-0.271045 0.748022 0.273333
-0.267188 0.748460 0.273377
-0.263389 0.749138 0.273475
-0.259466 0.749651 0.273504
-0.255354 0.749836 0.273414
-0.250514 0.748453 0.272826
-0.246849 0.749813 0.273067
-0.243124 0.751134 0.273281
-0.239885 0.753696 0.273863
-0.235647 0.753983 0.273733
-0.231693 0.755010 0.273820
-0.227844 0.756357 0.273994
-0.222971 0.755216 0.273397
-0.219292 0.757080 0.273713
-0.214761 0.756820 0.273373
-0.210415 0.757041 0.273175
-0.205877 0.756758 0.272819
-0.201580 0.757103 0.272652
-0.197472 0.757957 0.272637
-0.193157 0.758246 0.272449
-0.189029 0.759040 0.272413
-0.184906 0.759843 0.272380
-0.180551 0.759963 0.272141
-0.176038 0.759582 0.271751
-0.171749 0.759814 0.271549
-0.168124 0.762032 0.271949
-0.164855 0.765374 0.272689
-0.160090 0.764072 0.272033
-0.154057 0.758605 0.270129
-0.149620 0.758089 0.269720
-0.145373 0.758132 0.269483
-0.141729 0.760155 0.269843
-0.138993 0.765318 0.271147
-0.134278 0.763675 0.270418
-0.129715 0.762446 0.269819
-0.126661 0.766607 0.270833
-0.122865 0.768111 0.271059
-0.118782 0.768528 0.270965
-0.113562 0.764504 0.269554
-0.108521 0.760956 0.268292
-0.106669 0.770030 0.270787
-0.103413 0.773661 0.271668
-0.098774 0.771578 0.270856
-0.095038 0.773213 0.271153
-0.091627 0.776291 0.271882
-0.087238 0.775053 0.271337
-0.082528 0.772226 0.270328
-0.078149 0.770762 0.269728
-0.074031 0.770421 0.269465
-0.069084 0.765912 0.267976
-0.065109 0.766038 0.267862
-0.061070 0.765783 0.267639
-0.057266 0.766711 0.267770
-0.053670 0.768773 0.268239
-0.049972 0.770325 0.268561
-0.044976 0.764395 0.266686
-0.041672 0.768150 0.267665
-0.038844 0.775010 0.269559
-0.033688 0.767491 0.267232
-0.030139 0.769955 0.267842
-0.026361 0.770983 0.268033
-0.022646 0.772474 0.268364
-0.019176 0.775800 0.269235
-0.015373 0.776824 0.269436
-0.011148 0.774598 0.268687
-0.007695 0.778398 0.269707
-0.003255 0.774149 0.268374
0.000386 0.776516 0.268980
0.003567 0.783270 0.270872
0.008108 0.777565 0.269123
0.012432 0.773443 0.267842
0.016364 0.773011 0.267642
0.019880 0.777135 0.268775
0.023263 0.783256 0.270494
0.027578 0.778439 0.269021
0.031801 0.774194 0.267719
0.035744 0.773313 0.267402
0.039293 0.778267 0.268789
0.043004 0.781320 0.269624
0.046927 0.781087 0.269502
0.051006 0.777730 0.268473
0.054916 0.777299 0.268299
0.058800 0.777356 0.268269
0.062688 0.777332 0.268218
0.066680 0.773988 0.267202
0.070395 0.779664 0.268815
0.074153 0.785860 0.270581
0.078025 0.788955 0.271445
0.082013 0.785187 0.270314
0.086007 0.776296 0.267694
0.089880 0.778709 0.268366
0.093770 0.777255 0.267914
0.097659 0.777609 0.267990
0.101574 0.779901 0.268631
0.105399 0.775162 0.267229
0.109272 0.774863 0.267121
0.113575 0.791311 0.271884
0.117450 0.788543 0.271060
0.121483 0.790962 0.271746
0.125416 0.790241 0.271521
0.129300 0.788575 0.271023
0.132906 0.781587 0.268979
0.136929 0.783441 0.269507
0.141195 0.789038 0.271125
0.145297 0.791214 0.271749
0.149405 0.793134 0.272301
0.153347 0.792533 0.272122
0.157707 0.797267 0.273494
0.161652 0.796464 0.273259
0.165451 0.794069 0.272563
0.169059 0.789851 0.271339
0.172333 0.782606 0.269236
0.176467 0.784368 0.269752
0.180447 0.784505 0.269798
0.184275 0.783256 0.269443
0.188172 0.782663 0.269280
0.193536 0.794059 0.272603
0.197740 0.795446 0.273019
0.201081 0.790188 0.271505
0.204086 0.782822 0.269379
0.208031 0.782541 0.269315
0.212321 0.784602 0.269934
0.216520 0.785901 0.270332
0.221612 0.792787 0.272358
0.225523 0.791918 0.272131
0.230956 0.800204 0.274568
0.235336 0.801843 0.275074
0.239973 0.804818 0.275971
0.244496 0.806972 0.276632
0.248762 0.807599 0.276850
0.252087 0.803247 0.275622
0.255757 0.800841 0.274961
0.259204 0.797413 0.274005
0.263360 0.797550 0.274090
0.265837 0.789707 0.271853
0.270092 0.790414 0.272108
0.273097 0.785404 0.270699
0.279393 0.795127 0.273588
0.282216 0.789379 0.271969
0.286433 0.789738 0.272134
0.290663 0.790106 0.272304
0.294454 0.788637 0.271941
0.298466 0.788073 0.271845
0.302636 0.788111 0.271928
0.306748 0.787885 0.271936
0.314515 0.801331 0.275943
0.318975 0.802072 0.276242
0.323122 0.801616 0.276196
0.323444 0.787587 0.272182
0.328620 0.790909 0.273246
0.333375 0.792633 0.273847
0.339426 0.798609 0.275697
0.344027 0.799550 0.276078
0.346615 0.793885 0.274526
0.354650 0.805749 0.278118
0.358576 0.804279 0.277805
0.358341 0.789964 0.273726
0.362983 0.790880 0.274120
0.367893 0.792520 0.274731
0.373748 0.796844 0.276137
0.380442 0.803415 0.278210
0.384597 0.802493 0.278085
0.389253 0.802956 0.278372
0.391394 0.796395 0.276595
0.394954 0.793844 0.276003
0.397687 0.789095 0.274767
0.403080 0.791472 0.275638
0.407187 0.790372 0.275489
0.412816 0.793168 0.276496
0.418078 0.794895 0.277194
0.422769 0.795093 0.277446
0.428047 0.796678 0.278115
0.433659 0.798971 0.279000
0.438389 0.799031 0.279230
0.444274 0.801765 0.280260
0.450458 0.805063 0.281466
0.454213 0.802618 0.280969
0.457319 0.798702 0.280039
0.465497 0.806211 0.282520
0.466948 0.798564 0.280486
0.469067 0.792515 0.278932
0.474199 0.793063 0.279353
0.481035 0.797172 0.280847
0.486272 0.797754 0.281291
0.491770 0.798804 0.281882
0.500013 0.805405 0.284147
0.506083 0.807380 0.285029
0.510953 0.806851 0.285163
0.516668 0.807949 0.285791
0.521071 0.806406 0.285627
0.525587 0.805069 0.285526
0.530393 0.804267 0.285589
0.535413 0.803842 0.285769
0.540846 0.804155 0.286173
0.546827 0.805430 0.286870
0.552257 0.805640 0.287244
0.557755 0.805937 0.287643
0.563714 0.807019 0.288280
0.569792 0.808267 0.288965
0.574480 0.807054 0.288895
0.579712 0.806793 0.289110
0.584945 0.806536 0.289318
0.592451 0.810112 0.290694
0.597310 0.809215 0.290690
0.603869 0.811153 0.291545
0.609202 0.811077 0.291770
0.614582 0.811108 0.292015
0.619792 0.810906 0.292172
0.625115 0.810931 0.292383
0.631371 0.812467 0.293043
0.635892 0.811344 0.292863
0.640947 0.811126 0.292943
0.647282 0.812931 0.293628
0.653725 0.814944 0.294354
0.660056 0.816834 0.295021
0.665031 0.816772 0.295061
0.670478 0.817495 0.295319
0.674525 0.816265 0.294949
-0.294160 0.747957 0.269397
-0.289258 0.745613 0.268706
-0.285949 0.746618 0.269012
-0.282233 0.746919 0.269083
-0.277617 0.745454 0.268598
-0.274596 0.747455 0.269146
-0.270270 0.746810 0.268871
-0.267026 0.748601 0.269315
-0.263475 0.749857 0.269580
-0.259388 0.750045 0.269502
-0.254365 0.748219 0.268798
-0.250401 0.748837 0.268819
-0.246637 0.750001 0.268991
-0.242847 0.751199 0.269158
-0.239286 0.753023 0.269502
-0.235103 0.753454 0.269413
-0.231101 0.754375 0.269462
-0.226974 0.755045 0.269425
-0.221648 0.752764 0.268493
-0.218472 0.755879 0.269177
-0.214339 0.756632 0.269145
-0.210534 0.758263 0.269371
-0.205342 0.756272 0.268507
-0.201221 0.757082 0.268481
-0.197299 0.758440 0.268615
-0.193162 0.759223 0.268577
-0.188900 0.759651 0.268432
-0.184728 0.760316 0.268358
-0.180128 0.759722 0.267910
-0.175855 0.760031 0.267733
-0.171566 0.760258 0.267533
-0.168057 0.762823 0.268029
-0.164412 0.765003 0.268413
-0.160171 0.765324 0.268249
-0.153743 0.758585 0.266003
-0.149552 0.758853 0.265834
-0.145349 0.759036 0.265643
-0.141055 0.758854 0.265349
-0.136967 0.759315 0.265250
-0.133288 0.761172 0.265565
-0.129849 0.763891 0.266137
-0.125559 0.763552 0.265815
-0.121328 0.763358 0.265542
-0.118210 0.767307 0.266486
-0.113775 0.766263 0.265973
-0.108439 0.761554 0.264395
-0.105647 0.766839 0.265742
-0.101329 0.766007 0.265308
-0.097810 0.768432 0.265828
-0.094680 0.772578 0.266854
-0.090802 0.773557 0.266961
-0.085515 0.768194 0.265227
-0.081080 0.766438 0.264549
-0.077374 0.767967 0.264832
-0.073578 0.769082 0.264998
-0.068634 0.764516 0.263520
-0.065128 0.766950 0.264078
-0.061237 0.767458 0.264081
-0.057179 0.767040 0.263821
-0.053805 0.770301 0.264630
-0.050058 0.771587 0.264870
-0.045779 0.769807 0.264229
-0.042876 0.776080 0.265918
-0.038436 0.773238 0.264977
-0.033593 0.767612 0.263238
-0.030012 0.769834 0.263768
-0.026334 0.771498 0.264141
-0.022529 0.772344 0.264280
-0.019097 0.775902 0.265205
-0.015667 0.779688 0.266198
-0.011680 0.779380 0.266014
-0.007322 0.776005 0.264952
-0.003806 0.779405 0.265842
0.000444 0.776604 0.264953
0.004766 0.772845 0.263791
0.008105 0.778145 0.265236
0.012120 0.777114 0.264864
0.016166 0.775612 0.264360
0.019919 0.777186 0.264742
0.023589 0.779879 0.265447
0.027747 0.776767 0.264490
0.032237 0.768800 0.262143
0.036067 0.769088 0.262167
0.039587 0.774117 0.263552
0.043260 0.777404 0.264439
0.046905 0.781720 0.265624
0.051047 0.777116 0.264254
0.054954 0.776585 0.264055
0.058807 0.777238 0.264196
0.062720 0.776385 0.263908
0.066549 0.777897 0.264299
0.070409 0.778795 0.264516
0.074110 0.787179 0.266877
0.078040 0.787069 0.266809
0.082037 0.781617 0.265215
0.085979 0.776680 0.263770
0.089855 0.777382 0.263941
0.093740 0.778268 0.264165
0.097633 0.779017 0.264352
0.101547 0.781004 0.264895
0.105337 0.773988 0.262865
0.109122 0.769900 0.261675
0.113119 0.775544 0.263267
0.117465 0.790801 0.267608
0.121502 0.793096 0.268246
0.125538 0.794785 0.268712
0.129251 0.788904 0.267017
0.133316 0.791168 0.267650
0.136951 0.785143 0.265917
0.140974 0.786574 0.266316
0.145278 0.792128 0.267893
0.149011 0.788619 0.266883
0.153578 0.796805 0.269216
0.157578 0.796752 0.269196
0.161546 0.796296 0.269062
0.165377 0.794314 0.268495
0.169216 0.792587 0.268001
0.172314 0.783445 0.265391
0.176349 0.784231 0.265619
0.180336 0.784478 0.265693
0.184177 0.783369 0.265382
0.188073 0.782799 0.265227
0.193157 0.791944 0.267848
0.197387 0.793646 0.268345
0.201019 0.790672 0.267507
0.204081 0.783721 0.265535
0.207969 0.783040 0.265356
0.212147 0.784350 0.265747
0.216336 0.785615 0.266127
0.221193 0.791042 0.267699
0.225393 0.792039 0.268006
0.229100 0.789984 0.267443
0.234387 0.797238 0.269543
0.239541 0.803299 0.271304
0.245058 0.811002 0.273537
0.249578 0.812910 0.274116
0.250590 0.796340 0.269412
0.253163 0.788533 0.267215
0.257869 0.791687 0.268156
0.263051 0.796965 0.269707
0.267731 0.799587 0.270501
0.267503 0.779335 0.264749
0.273104 0.786339 0.266803
0.277129 0.786026 0.266763
0.280838 0.784326 0.266329
0.285760 0.787802 0.267381
0.290641 0.790927 0.268335
0.294007 0.787737 0.267482
0.298029 0.787247 0.267405
0.302325 0.787815 0.267635
0.306697 0.788610 0.267934
0.311161 0.789685 0.268316
0.318146 0.799964 0.271344
0.321250 0.795797 0.270228
0.323542 0.788865 0.268321
0.328238 0.790516 0.268882
0.332411 0.790280 0.268905
0.336782 0.790675 0.269113
0.344413 0.801790 0.272410
0.348600 0.801297 0.272372
0.352012 0.798300 0.271616
0.353980 0.790822 0.269573
0.361065 0.799356 0.272148
0.363540 0.793550 0.270593
0.368058 0.793998 0.270846
0.373911 0.798321 0.272222
0.378042 0.797462 0.272108
0.381332 0.794182 0.271298
0.385830 0.794349 0.271489
0.392409 0.800225 0.273337
0.394451 0.793492 0.271541
0.397444 0.789463 0.270531
0.403139 0.792662 0.271620
0.407433 0.792053 0.271611
0.413040 0.794792 0.272580
0.418486 0.796990 0.273398
0.422705 0.795997 0.273294
0.426917 0.794957 0.273182
0.432385 0.796949 0.273959
0.436420 0.795388 0.273706
0.443364 0.800705 0.275466
0.448647 0.801937 0.276040
0.452910 0.800724 0.275907
0.459719 0.805278 0.277467
0.461977 0.799428 0.275987
0.466261 0.798163 0.275855
0.468420 0.792217 0.274354
0.471513 0.788382 0.273475
0.477991 0.791811 0.274735
0.482646 0.791252 0.274829
0.487938 0.791973 0.275305
0.492457 0.791032 0.275296
0.503144 0.802577 0.278980
0.509751 0.805602 0.280156
0.517537 0.810835 0.281992
0.521298 0.808013 0.281448
0.524777 0.804660 0.280748
0.529967 0.804606 0.281029
0.534476 0.803224 0.280917
0.540890 0.805382 0.281860
0.546152 0.805327 0.282145
0.552983 0.808096 0.283274
0.557916 0.807350 0.283353
0.566121 0.812419 0.285170
0.571399 0.812199 0.285403
0.573767 0.806899 0.284109
0.578744 0.806196 0.284186
0.586959 0.811017 0.285918
0.594557 0.814694 0.287301
0.598968 0.812989 0.287056
0.602617 0.810080 0.286436
0.610154 0.813594 0.287743
0.615618 0.813718 0.288014
0.619223 0.810903 0.287382
0.622539 0.807729 0.286625
0.628835 0.809338 0.287298
0.636133 0.812526 0.288433
0.641310 0.812458 0.288562
0.646064 0.811817 0.288497
0.652627 0.813992 0.289265
0.655737 0.811046 0.288457
0.664573 0.816725 0.290246
0.669673 0.816906 0.290342
0.674340 0.816550 0.290251
-0.292713 0.745268 0.264549
-0.289470 0.746309 0.264873
-0.285726 0.746464 0.264911
-0.282156 0.747102 0.265073
-0.278000 0.746641 0.264888
-0.273660 0.745889 0.264597
-0.270600 0.747977 0.265134
-0.267195 0.749467 0.265474
-0.263112 0.749598 0.265391
-0.258690 0.749069 0.265095
-0.254367 0.748834 0.264870
-0.250544 0.749808 0.264990
-0.248345 0.754618 0.266236
-0.243398 0.753196 0.265616
-0.238572 0.752076 0.265075
-0.234819 0.753544 0.265291
-0.230418 0.753512 0.265053
-0.226566 0.754862 0.265215
-0.222682 0.756191 0.265363
-0.218327 0.756377 0.265166
-0.213617 0.755662 0.264699
-0.209948 0.757640 0.265022
-0.204987 0.756246 0.264348
-0.200767 0.756790 0.264242
-0.197055 0.758716 0.264540
-0.192816 0.759214 0.264418
-0.188514 0.759523 0.264241
-0.184540 0.760743 0.264330
-0.179885 0.759983 0.263842
-0.175547 0.760095 0.263611
-0.171560 0.761215 0.263676
-0.167219 0.761243 0.263425
-0.164196 0.765311 0.264352
-0.160019 0.765823 0.264247
-0.153793 0.759712 0.262224
-0.149389 0.759284 0.261857
-0.145595 0.760814 0.262061
-0.141966 0.762899 0.262429
-0.136518 0.758718 0.260990
-0.133396 0.762497 0.261856
-0.129167 0.762395 0.261605
-0.124426 0.760353 0.260801
-0.121162 0.763668 0.261545
-0.118223 0.768281 0.262665
-0.114940 0.771689 0.263442
-0.111933 0.776265 0.264557
-0.104888 0.764674 0.261038
-0.100437 0.763218 0.260434
-0.096720 0.764726 0.260685
-0.093803 0.769679 0.261925
-0.089166 0.767228 0.261052
-0.083856 0.761581 0.259270
-0.079759 0.761193 0.258998
-0.076318 0.763820 0.259591
-0.073295 0.768534 0.260782
-0.068051 0.762434 0.258895
-0.065090 0.767552 0.260209
-0.061085 0.767446 0.260039
-0.057222 0.768039 0.260072
-0.053488 0.769319 0.260304
-0.050306 0.773736 0.261431
-0.047025 0.777774 0.262454
-0.042292 0.773321 0.261069
-0.037994 0.771230 0.260359
-0.033634 0.768566 0.259491
-0.030047 0.770743 0.260000
-0.026300 0.771943 0.260235
-0.022356 0.771789 0.260090
-0.019151 0.776941 0.261450
-0.015780 0.781172 0.262552
-0.011754 0.780578 0.262291
-0.007431 0.777489 0.261329
-0.003407 0.776621 0.260998
0.000873 0.773390 0.260002
0.004830 0.772804 0.259758
0.008235 0.777426 0.260986
0.011724 0.781617 0.262095
0.016300 0.774680 0.260066
0.020122 0.775378 0.260195
0.023926 0.776342 0.260401
0.027836 0.776055 0.260256
0.032276 0.768649 0.258109
0.036298 0.766140 0.257344
0.040006 0.768024 0.257819
0.043209 0.778513 0.260719
0.047138 0.777765 0.260457
0.051169 0.774881 0.259596
0.054990 0.775902 0.259836
0.058832 0.776634 0.259997
0.062783 0.774554 0.259368
0.066621 0.775386 0.259561
0.070421 0.777935 0.260238
0.074173 0.783640 0.261804
0.077998 0.788392 0.263104
0.082006 0.782315 0.261362
0.085950 0.777051 0.259850
0.089830 0.776282 0.259603
0.093705 0.776915 0.259752
0.097592 0.778332 0.260122
0.101494 0.779781 0.260503
0.105418 0.781712 0.261021
0.109283 0.779818 0.260466
0.113174 0.779630 0.260392
0.117101 0.780608 0.260647
0.121313 0.789372 0.263089
0.125368 0.792074 0.263831
0.129684 0.799983 0.266035
0.133300 0.792222 0.263842
0.137025 0.787788 0.262585
0.140735 0.783797 0.261453
0.144969 0.788534 0.262772
0.149286 0.793776 0.264235
0.153307 0.794290 0.264372
0.157572 0.797810 0.265353
0.161364 0.795212 0.264620
0.165121 0.792490 0.263853
0.168655 0.787613 0.262482
0.172277 0.784091 0.261494
0.176205 0.783835 0.261423
0.180199 0.784200 0.261528
0.184085 0.783533 0.261345
0.187965 0.782848 0.261158
0.193115 0.792567 0.263892
0.197257 0.793589 0.264188
0.200787 0.789864 0.263152
0.204181 0.785388 0.261907
0.208104 0.784919 0.261788
0.211985 0.784171 0.261593
0.216260 0.786036 0.262133
0.221151 0.791691 0.263739
0.224991 0.790460 0.263413
0.229100 0.790894 0.263556
0.233192 0.791170 0.263657
0.236932 0.789406 0.263187
0.244347 0.807998 0.268437
0.248157 0.806193 0.267960
0.248006 0.783713 0.261675
0.252416 0.785614 0.262242
0.257265 0.789575 0.263390
0.263251 0.798838 0.266032
0.268583 0.804532 0.267673
0.271305 0.797835 0.265833
0.275938 0.800066 0.266505
0.277268 0.787533 0.263026
0.280659 0.784442 0.262206
0.286518 0.791911 0.264360
0.290348 0.790613 0.264049
0.293849 0.787993 0.263368
0.297772 0.787124 0.263184
0.302250 0.788426 0.263613
0.306772 0.789804 0.264067
0.311611 0.792285 0.264836
0.317449 0.798320 0.266610
0.320792 0.795068 0.265769
0.324423 0.792916 0.265240
0.328287 0.791614 0.264955
0.332328 0.790926 0.264847
0.336667 0.791221 0.265019
0.344844 0.804166 0.268770
0.350287 0.807738 0.269878
0.351152 0.796504 0.266804
0.354377 0.793021 0.265923
0.359472 0.795394 0.266704
0.363435 0.794199 0.266479
0.366671 0.790814 0.265637
0.371107 0.791031 0.265820
0.375464 0.790963 0.265926
0.378717 0.787691 0.265128
0.384746 0.792291 0.266569
0.387940 0.788835 0.265727
0.389828 0.781864 0.263889
0.398324 0.792841 0.267160
0.404174 0.796426 0.268336
0.407889 0.794269 0.267883
0.411941 0.792991 0.267684
0.417775 0.796222 0.268777
0.422459 0.796426 0.269012
0.427910 0.798465 0.269777
0.432862 0.799174 0.270168
0.436180 0.795877 0.269419
0.438907 0.791206 0.268281
0.445312 0.795214 0.269633
0.450992 0.797383 0.270466
0.457224 0.800693 0.271634
0.461345 0.799107 0.271402
0.463377 0.792861 0.269833
0.468279 0.793009 0.270108
0.470434 0.787148 0.268657
0.475998 0.788661 0.269336
0.479713 0.786177 0.268866
0.485551 0.788117 0.269680
0.491596 0.790380 0.270593
0.495227 0.787622 0.270057
0.505041 0.797290 0.273129
0.514113 0.805195 0.275701
0.519829 0.806280 0.276297
0.519362 0.795319 0.273390
0.527906 0.801804 0.275565
0.533055 0.801672 0.275815
0.538400 0.801865 0.276162
0.545839 0.805876 0.277627
0.553789 0.810691 0.279332
0.559956 0.812144 0.280053
0.565770 0.812905 0.280570
0.571244 0.813024 0.280897
0.573002 0.806644 0.279308
0.578238 0.806387 0.279515
0.587465 0.812930 0.281722
0.591120 0.809934 0.281108
0.588913 0.797227 0.277615
0.599175 0.805384 0.280278
0.607088 0.809551 0.281754
0.616066 0.815381 0.283713
0.625476 0.821816 0.285841
0.630640 0.821437 0.285934
0.634882 0.819667 0.285597
0.631319 0.805866 0.281663
0.636552 0.805922 0.281830
0.646000 0.812466 0.283909
0.650161 0.810981 0.283579
0.657744 0.814724 0.284785
0.662875 0.814848 0.284890
0.668405 0.815649 0.285175
0.675721 0.819131 0.286236
-0.296193 0.752526 0.262649
-0.289038 0.745707 0.260653
-0.285555 0.746427 0.260848
-0.281661 0.746427 0.260813
-0.277861 0.746741 0.260850
-0.274243 0.747558 0.261016
-0.270353 0.747917 0.261030
-0.266226 0.747869 0.260906
-0.262652 0.749130 0.261149
-0.258460 0.749136 0.261008
-0.254368 0.749448 0.260941
-0.250853 0.751158 0.261269
-0.247044 0.752300 0.261416
-0.241935 0.750488 0.260689
-0.238861 0.753502 0.261359
-0.234569 0.753711 0.261200
-0.230095 0.753519 0.260915
-0.226021 0.754336 0.260916
-0.221874 0.755010 0.260869
-0.218162 0.756817 0.261144
-0.213225 0.755526 0.260516
-0.209063 0.756218 0.260459
-0.204974 0.757116 0.260459
-0.200798 0.757786 0.260390
-0.196325 0.757646 0.260087
-0.191957 0.757766 0.259858
-0.188183 0.759531 0.260103
-0.184149 0.760570 0.260139
-0.180230 0.761939 0.260270
-0.175372 0.760529 0.259607
-0.171084 0.760739 0.259411
-0.166914 0.761268 0.259309
-0.162435 0.760799 0.258925
-0.159723 0.765845 0.260118
-0.153492 0.759693 0.258121
-0.149282 0.759880 0.257936
-0.145327 0.760861 0.257981
-0.141966 0.763835 0.258597
-0.136919 0.761032 0.257576
-0.132454 0.760109 0.257094
-0.128426 0.760653 0.257033
-0.123152 0.756605 0.255677
-0.118443 0.754439 0.254860
-0.117958 0.768177 0.258543
-0.114704 0.771670 0.259331
-0.111300 0.774653 0.259979
-0.107182 0.774810 0.259835
-0.099920 0.761946 0.256028
-0.096558 0.764897 0.256682
-0.093903 0.770959 0.258214
-0.089031 0.767472 0.257066
-0.083895 0.762575 0.255528
-0.079359 0.760156 0.254692
-0.076399 0.765001 0.255898
-0.073398 0.769822 0.257099
-0.069025 0.768034 0.256453
-0.064790 0.766797 0.255966
-0.060904 0.767264 0.255960
-0.057008 0.767643 0.255934
-0.053428 0.769726 0.256388
-0.049845 0.771856 0.256858
-0.045624 0.770355 0.256318
-0.042275 0.773923 0.257196
-0.038069 0.772383 0.256653
-0.033537 0.768623 0.255496
-0.029839 0.770040 0.255785
-0.026089 0.771158 0.255994
-0.022224 0.771495 0.255988
-0.018915 0.775849 0.257103
-0.015340 0.778473 0.257739
-0.011048 0.775664 0.256869
-0.007050 0.774975 0.256591
-0.002862 0.772583 0.255843
0.001392 0.769365 0.254870
0.004929 0.772410 0.255637
0.007968 0.780492 0.257804
0.012124 0.778066 0.257058
0.016459 0.773454 0.255710
0.020540 0.771146 0.255004
0.024252 0.772893 0.255424
0.028214 0.771703 0.255032
0.032280 0.768931 0.254205
0.036558 0.762753 0.252439
0.039885 0.770147 0.254430
0.043388 0.775787 0.255937
0.047088 0.778845 0.256732
0.051182 0.774740 0.255548
0.055004 0.775639 0.255750
0.058882 0.775391 0.255637
0.062740 0.775598 0.255651
0.066649 0.774234 0.255233
0.070459 0.776063 0.255699
0.074217 0.780943 0.257009
0.078026 0.785630 0.258267
0.081825 0.794622 0.260716
0.085926 0.776668 0.255726
0.089802 0.775421 0.255351
0.093669 0.775377 0.255310
0.097540 0.776000 0.255454
0.101465 0.780859 0.256768
0.105425 0.784887 0.257855
0.109338 0.784755 0.257795
0.113303 0.786632 0.258290
0.117072 0.781434 0.256836
0.121058 0.783788 0.257466
0.125303 0.791994 0.259711
0.128923 0.784447 0.257613
0.132925 0.786019 0.258031
0.137049 0.789535 0.258987
0.140950 0.788667 0.258735
0.144755 0.786394 0.258097
0.148964 0.790276 0.259158
0.153289 0.795187 0.260503
0.157000 0.791646 0.259519
0.160407 0.784833 0.257635
0.164205 0.783169 0.257172
0.168477 0.786743 0.258154
0.172137 0.783676 0.257307
0.176076 0.783587 0.257281
0.180026 0.783575 0.257279
0.183928 0.783112 0.257153
0.187905 0.783291 0.257206
0.192976 0.792393 0.259720
0.197122 0.793481 0.260026
0.200660 0.789848 0.259033
0.204268 0.786951 0.258243
0.208157 0.786215 0.258051
0.211961 0.784918 0.257706
0.215804 0.783933 0.257448
0.220670 0.789526 0.259006
0.224679 0.789434 0.258998
0.228695 0.789360 0.258996
0.232526 0.788175 0.258690
0.236035 0.785199 0.257892
0.240025 0.785015 0.257865
0.247067 0.801236 0.262366
0.249758 0.793777 0.260337
0.252564 0.787251 0.258566
0.256661 0.787454 0.258654
0.261588 0.791649 0.259846
0.267395 0.799794 0.262131
0.272729 0.805333 0.263700
0.275549 0.799194 0.262046
0.279108 0.796570 0.261365
0.282569 0.793604 0.260591
0.287854 0.798468 0.261984
0.290395 0.791696 0.260163
0.293948 0.789285 0.259550
0.297810 0.788167 0.259296
0.302083 0.788664 0.259492
0.307254 0.792549 0.260629
0.312144 0.795192 0.261425
0.317235 0.798443 0.262393
0.321326 0.797910 0.262317
0.323636 0.791028 0.260485
0.327033 0.788150 0.259764
0.332256 0.791594 0.260799
0.337022 0.793341 0.261368
0.344098 0.802636 0.264034
0.350741 0.810167 0.266217
0.353218 0.804061 0.264619
0.350123 0.780564 0.258192
0.352509 0.774770 0.256683
0.360265 0.785486 0.259767
0.368437 0.797067 0.263099
0.371393 0.792833 0.262036
0.374403 0.788843 0.261045
0.379397 0.790604 0.261659
0.382996 0.788332 0.261154
0.386770 0.786564 0.260793
0.389623 0.782278 0.259734
0.395621 0.786546 0.261067
0.401718 0.790904 0.262432
0.407278 0.793678 0.263360
0.410864 0.791223 0.262830
0.416759 0.794660 0.263956
0.421725 0.795615 0.264392
0.426211 0.795297 0.264477
0.433513 0.801810 0.266484
0.435438 0.795137 0.264797
0.440478 0.795989 0.265226
0.445546 0.796822 0.265657
0.451092 0.798683 0.266383
0.456178 0.799384 0.266789
0.460629 0.798576 0.266775
0.463369 0.793923 0.265681
0.464869 0.786608 0.263837
0.472496 0.792701 0.265788
0.476797 0.791460 0.265671
0.478245 0.784164 0.263841
0.484626 0.787284 0.264969
0.488866 0.785857 0.264812
0.489901 0.777883 0.262797
0.499638 0.787544 0.265802
0.510321 0.798792 0.269269
0.510198 0.788515 0.266606
0.519802 0.797288 0.269381
0.527363 0.801886 0.270972
0.533513 0.803658 0.271759
0.539266 0.804599 0.272310
0.544977 0.805399 0.272824
0.554038 0.812259 0.275080
0.561483 0.816010 0.276446
0.565401 0.813347 0.275967
0.567897 0.808206 0.274769
0.571636 0.805328 0.274218
0.576307 0.804107 0.274140
0.582560 0.805604 0.274843
0.583386 0.797900 0.272875
0.585391 0.792335 0.271515
0.588567 0.788832 0.270743
0.604726 0.806649 0.276153
0.613182 0.811655 0.277835
0.615150 0.806196 0.276462
0.606339 0.783795 0.270136
0.609694 0.780983 0.269496
0.618342 0.786506 0.271271
0.626124 0.790646 0.272628
0.640160 0.804313 0.276750
0.652140 0.814691 0.279896
0.658142 0.816005 0.280374
0.663268 0.816083 0.280469
0.668314 0.816130 0.280534
0.671950 0.814212 0.280001
-0.293335 0.747017 0.256996
-0.288444 0.744788 0.256349
-0.285059 0.745735 0.256599
-0.282086 0.747676 0.257116
-0.277748 0.746906 0.256833
-0.274010 0.747503 0.256926
-0.270085 0.747817 0.256920
-0.265975 0.747837 0.256811
-0.261899 0.748024 0.256734
-0.258238 0.749226 0.256934
-0.254519 0.750405 0.257111
-0.250968 0.752072 0.257415
-0.246924 0.752704 0.257409
-0.242718 0.753029 0.257302
-0.238403 0.753153 0.257128
-0.234322 0.753882 0.257117
-0.229808 0.753608 0.256811
-0.225798 0.754594 0.256858
-0.222016 0.756195 0.257073
-0.217708 0.756512 0.256916
-0.213370 0.756763 0.256737
-0.209014 0.756968 0.256541
-0.204912 0.757839 0.256531
-0.200714 0.758462 0.256450
-0.195851 0.757261 0.255851
-0.191670 0.757885 0.255769
-0.187626 0.758885 0.255793
-0.184007 0.761093 0.256158
-0.179707 0.761349 0.255974
-0.175156 0.760824 0.255573
-0.170422 0.759683 0.255001
-0.167235 0.763184 0.255737
-0.163407 0.764755 0.255932
-0.159855 0.767200 0.256375
-0.153053 0.759205 0.253899
-0.148924 0.759628 0.253785
-0.144160 0.757889 0.253072
-0.141453 0.763008 0.254277
-0.137001 0.762223 0.253838
-0.132706 0.761897 0.253532
-0.128304 0.761108 0.253103
-0.122785 0.756144 0.251518
-0.118353 0.754973 0.250994
-0.116261 0.762600 0.252916
-0.112451 0.763800 0.253058
-0.108433 0.764164 0.252972
-0.106948 0.774721 0.255712
-0.101453 0.769112 0.253981
-0.096240 0.764383 0.252502
-0.093317 0.769254 0.253679
-0.090708 0.775669 0.255285
-0.084366 0.765495 0.252320
-0.080242 0.765013 0.252033
-0.076221 0.764937 0.251862
-0.073036 0.768843 0.252791
-0.068987 0.768601 0.252583
-0.064762 0.767401 0.252116
-0.060851 0.767721 0.252071
-0.056980 0.768217 0.252078
-0.053328 0.769892 0.252413
-0.049471 0.770445 0.252443
-0.045572 0.770741 0.252406
-0.042630 0.776729 0.253932
-0.038132 0.773431 0.252918
-0.033409 0.768458 0.251450
-0.029619 0.769236 0.251560
-0.025823 0.769980 0.251663
-0.022079 0.771092 0.251871
-0.018782 0.775483 0.252976
-0.014761 0.774699 0.252671
-0.010382 0.771030 0.251582
-0.006626 0.772081 0.251785
-0.003559 0.778993 0.253588
0.001695 0.767205 0.250296
0.005285 0.769629 0.250881
0.008428 0.776541 0.252690
0.012457 0.775157 0.252242
0.016699 0.771337 0.251134
0.020478 0.772235 0.251313
0.024330 0.772348 0.251281
0.028509 0.768360 0.250135
0.032781 0.762579 0.248505
0.035992 0.771082 0.250761
0.039567 0.775236 0.251835
0.043360 0.776444 0.252111
0.047217 0.776674 0.252123
0.051094 0.776551 0.252041
0.055051 0.774635 0.251475
0.058858 0.775890 0.251771
0.062794 0.773931 0.251197
0.066642 0.774149 0.251215
0.070382 0.778355 0.252317
0.074244 0.778960 0.252444
0.078103 0.780053 0.252704
0.082004 0.778750 0.252317
0.085919 0.774049 0.251009
0.089771 0.775449 0.251358
0.093635 0.775722 0.251402
0.097502 0.776088 0.251473
0.101452 0.783407 0.253430
0.105406 0.786509 0.254245
0.109265 0.783546 0.253418
0.112989 0.776343 0.251444
0.117462 0.796092 0.256772
0.120865 0.779920 0.252372
0.124887 0.783111 0.253217
0.129039 0.788463 0.254649
0.132982 0.788530 0.254651
0.137113 0.792020 0.255581
0.141217 0.794429 0.256219
0.145040 0.792063 0.255567
0.148862 0.789970 0.254989
0.152509 0.785731 0.253831
0.156401 0.785119 0.253657
0.160014 0.781191 0.252587
0.164201 0.784170 0.253387
0.168349 0.786402 0.253986
0.171883 0.782096 0.252817
0.175830 0.782189 0.252840
0.179871 0.783123 0.253092
0.183818 0.783101 0.253086
0.187785 0.783229 0.253122
0.192887 0.792617 0.255666
0.197122 0.794424 0.256160
0.200936 0.792880 0.255748
0.204389 0.788762 0.254640
0.207802 0.784622 0.253528
0.211827 0.784914 0.253617
0.215713 0.784235 0.253445
0.219876 0.785340 0.253757
0.224036 0.786337 0.254042
0.227834 0.785060 0.253712
0.231662 0.784006 0.253445
0.235881 0.785204 0.253789
0.239517 0.783083 0.253236
0.243506 0.782946 0.253222
0.249077 0.791088 0.255452
0.252605 0.788339 0.254735
0.256458 0.787311 0.254485
0.260621 0.787816 0.254653
0.266282 0.795390 0.256738
0.271174 0.799007 0.257754
0.274399 0.794860 0.256668
0.278467 0.794608 0.256639
0.283566 0.798809 0.257821
0.287157 0.796394 0.257210
0.290299 0.792177 0.256113
0.293938 0.790120 0.255604
0.297912 0.789453 0.255475
0.301988 0.789173 0.255453
0.307198 0.793222 0.256610
0.311956 0.795377 0.257256
0.317431 0.800064 0.258593
0.321016 0.797689 0.258014
0.323599 0.791794 0.256481
0.326843 0.788384 0.255626
0.331806 0.790953 0.256400
0.336591 0.792796 0.256981
0.344326 0.804318 0.260201
0.350381 0.809931 0.261817
0.352428 0.802464 0.259873
0.350103 0.781416 0.254230
0.352961 0.777083 0.253144
0.361672 0.790708 0.256961
0.368051 0.796852 0.258742
0.372739 0.797760 0.259100
0.374812 0.790978 0.257361
0.380207 0.793880 0.258272
0.384720 0.794155 0.258469
0.389323 0.794623 0.258724
0.393022 0.792551 0.258288
0.394957 0.785726 0.256553
0.400014 0.787352 0.257138
0.406506 0.792645 0.258735
0.410991 0.792545 0.258858
0.416395 0.794738 0.259615
0.421433 0.795893 0.260094
0.425994 0.795778 0.260228
0.431218 0.797233 0.260800
0.436544 0.798836 0.261419
0.440973 0.798204 0.261428
0.445223 0.797110 0.261314
0.450146 0.797544 0.261627
0.455533 0.798970 0.262220
0.461311 0.801180 0.263036
0.463364 0.794977 0.261529
0.468442 0.795522 0.261895
0.473940 0.796906 0.262499
0.477591 0.794236 0.261984
0.481078 0.791229 0.261378
0.484892 0.788917 0.260969
0.487729 0.784589 0.260002
0.492388 0.784024 0.260087
0.497851 0.785033 0.260616
0.505101 0.789515 0.262120
0.512875 0.794864 0.263873
0.518716 0.796281 0.264532
0.527782 0.803796 0.266905
0.530573 0.799192 0.265883
0.539419 0.805990 0.268066
0.544401 0.805435 0.268185
0.552255 0.810103 0.269776
0.558947 0.812526 0.270737
0.562006 0.808369 0.269841
0.565416 0.804895 0.269134
0.570042 0.803601 0.269039
0.576656 0.805754 0.269917
0.580122 0.802467 0.269248
0.584049 0.800026 0.268811
0.585927 0.794210 0.267407
0.591581 0.794774 0.267808
0.599695 0.799367 0.269347
0.605790 0.800613 0.269924
0.604782 0.790475 0.267240
0.600887 0.775994 0.263298
0.603913 0.772719 0.262539
0.611927 0.777322 0.264017
0.623135 0.786812 0.266880
0.636294 0.799163 0.270549
0.648860 0.810458 0.273900
0.657286 0.815418 0.275418
0.662458 0.815540 0.275529
0.668382 0.816855 0.275961
0.674110 0.817953 0.276310
-0.291727 0.744037 0.252117
-0.287934 0.744050 0.252110
-0.285131 0.746220 0.252693
-0.281125 0.746052 0.252597
-0.277342 0.746462 0.252646
-0.273958 0.747839 0.252951
-0.269926 0.747959 0.252883
-0.265910 0.748212 0.252836
-0.261956 0.748700 0.252840
-0.257977 0.749231 0.252841
-0.254314 0.750562 0.253053
-0.250938 0.752654 0.253466
-0.247015 0.753593 0.253541
-0.242773 0.753865 0.253418
-0.238418 0.753921 0.253224
-0.234169 0.754273 0.253104
-0.229883 0.754570 0.252960
-0.224871 0.753103 0.252316
-0.221540 0.755820 0.252838
-0.217661 0.757229 0.252988
-0.213422 0.757749 0.252885
-0.208954 0.757675 0.252613
-0.204927 0.758758 0.252662
-0.199721 0.756670 0.251827
-0.195455 0.757068 0.251684
-0.191314 0.757797 0.251633
-0.187134 0.758400 0.251547
-0.182788 0.758508 0.251325
-0.178998 0.760197 0.251542
-0.174642 0.760216 0.251299
-0.170895 0.762022 0.251552
-0.167233 0.764096 0.251881
-0.163841 0.767023 0.252447
-0.157426 0.760420 0.250394
-0.152568 0.758543 0.249648
-0.148515 0.759187 0.249598
-0.144373 0.759490 0.249459
-0.141974 0.765672 0.250934
-0.137052 0.763283 0.250065
-0.131464 0.758393 0.248519
-0.127997 0.760878 0.248994
-0.126442 0.770395 0.251390
-0.122944 0.772967 0.251894
-0.116132 0.762954 0.248974
-0.110881 0.758541 0.247587
-0.107306 0.760529 0.247947
-0.108314 0.781085 0.253355
-0.103815 0.779689 0.252800
-0.094969 0.759820 0.247240
-0.093574 0.771165 0.250153
-0.090562 0.775823 0.251254
-0.086845 0.777452 0.251539
-0.080346 0.766258 0.248359
-0.076687 0.767891 0.248654
-0.073291 0.770820 0.249303
-0.068619 0.767513 0.248273
-0.064784 0.768236 0.248334
-0.060738 0.767841 0.248098
-0.056836 0.768144 0.248054
-0.053257 0.770190 0.248483
-0.049314 0.770235 0.248376
-0.045684 0.772054 0.248751
-0.042088 0.774135 0.249199
-0.038459 0.776090 0.249616
-0.033478 0.769520 0.247746
-0.029569 0.769516 0.247645
-0.025716 0.769849 0.247636
-0.021917 0.770538 0.247727
-0.018677 0.775289 0.248909
-0.014831 0.775786 0.248954
-0.010379 0.771546 0.247732
-0.007121 0.776617 0.249007
-0.003786 0.781418 0.250212
0.000991 0.773891 0.248120
0.005585 0.767334 0.246292
0.009206 0.769499 0.246799
0.012581 0.774335 0.248023
0.016759 0.771102 0.247092
0.020271 0.774923 0.248048
0.024183 0.774433 0.247855
0.028185 0.772729 0.247340
0.031970 0.773671 0.247533
0.035388 0.779928 0.249147
0.039103 0.782541 0.249791
0.042883 0.784460 0.250250
0.047010 0.780488 0.249141
0.051199 0.774546 0.247509
0.054976 0.776237 0.247913
0.058938 0.773852 0.247234
0.062786 0.773929 0.247212
0.066611 0.774739 0.247387
0.070342 0.779261 0.248552
0.074285 0.776283 0.247722
0.078137 0.776894 0.247849
0.082001 0.776991 0.247840
0.085890 0.774068 0.247029
0.089736 0.776168 0.247557
0.093601 0.776641 0.247653
0.097477 0.778156 0.248027
0.101461 0.788058 0.250634
0.105391 0.788470 0.250718
0.109193 0.782445 0.249090
0.113016 0.779421 0.248263
0.116829 0.777028 0.247605
0.120904 0.782683 0.249088
0.124856 0.783873 0.249384
0.129119 0.791724 0.251453
0.133104 0.792389 0.251613
0.136878 0.789002 0.250696
0.140957 0.791299 0.251292
0.144917 0.791351 0.251292
0.148740 0.789366 0.250752
0.152335 0.784508 0.249450
0.156016 0.781300 0.248588
0.160375 0.786596 0.249986
0.164645 0.790269 0.250955
0.168438 0.788397 0.250451
0.171579 0.779988 0.248212
0.175828 0.783159 0.249050
0.179803 0.783468 0.249130
0.183758 0.783534 0.249146
0.187860 0.784826 0.249489
0.192206 0.787981 0.250328
0.196599 0.791242 0.251197
0.200201 0.788224 0.250399
0.203632 0.784139 0.249318
0.207731 0.785029 0.249561
0.211711 0.785020 0.249567
0.215741 0.785312 0.249654
0.219947 0.786686 0.250029
0.223835 0.785973 0.249852
0.227323 0.782859 0.249038
0.232829 0.791721 0.251409
0.235713 0.785122 0.249672
0.240158 0.787503 0.250323
0.244120 0.787123 0.250243
0.247912 0.785841 0.249924
0.251862 0.785397 0.249830
0.255678 0.784284 0.249560
0.260319 0.787207 0.250365
0.265056 0.790422 0.251250
0.268818 0.788929 0.250884
0.273461 0.791470 0.251594
0.277860 0.792784 0.251980
0.282966 0.797078 0.253161
0.286699 0.795317 0.252733
0.289663 0.790397 0.251467
0.293371 0.788675 0.251053
0.297678 0.789386 0.251290
0.301967 0.789962 0.251494
0.306094 0.789859 0.251520
0.311623 0.795006 0.252948
0.316439 0.797285 0.253614
0.320279 0.795904 0.253308
0.323736 0.793167 0.252643
0.326995 0.789800 0.251812
0.331177 0.789684 0.251851
0.336923 0.794814 0.253295
0.343248 0.801651 0.255199
0.349357 0.807512 0.256847
0.352549 0.803772 0.255933
0.353812 0.794023 0.253414
0.355862 0.786990 0.251624
0.362255 0.793408 0.253437
0.367050 0.794774 0.253901
0.368494 0.786132 0.251689
0.372181 0.784246 0.251290
0.378644 0.790337 0.253034
0.384233 0.793728 0.254059
0.392118 0.803361 0.256765
0.394427 0.797364 0.255280
0.397093 0.792456 0.254090
0.403787 0.798368 0.255813
0.407403 0.795975 0.255308
0.411816 0.795662 0.255367
0.417062 0.797430 0.255992
0.421713 0.797593 0.256189
0.425944 0.796658 0.256096
0.431008 0.797730 0.256549
0.437395 0.801909 0.257847
0.441230 0.799840 0.257462
0.444179 0.795685 0.256518
0.449489 0.797054 0.257073
0.455470 0.799866 0.258025
0.462457 0.804818 0.259565
0.467052 0.804247 0.259612
0.470616 0.801361 0.259036
0.473610 0.797251 0.258130
0.476569 0.793106 0.257217
0.482224 0.794719 0.257878
0.486265 0.792852 0.257595
0.491606 0.793661 0.258046
0.494563 0.789524 0.257150
0.501186 0.792822 0.258292
0.508930 0.798214 0.260014
0.515637 0.801380 0.261132
0.522036 0.803816 0.262055
0.528110 0.805520 0.262782
0.531737 0.802488 0.262209
0.536314 0.801260 0.262133
0.542979 0.803887 0.263123
0.549890 0.806860 0.264210
0.555070 0.806592 0.264404
0.557610 0.801572 0.263282
0.564862 0.804973 0.264489
0.570394 0.805264 0.264833
0.577381 0.808047 0.265867
0.581848 0.806440 0.265678
0.582619 0.798606 0.263749
0.586802 0.796652 0.263447
0.592613 0.797441 0.263903
0.596914 0.795751 0.263658
0.601103 0.793933 0.263366
0.599449 0.782800 0.260457
0.604885 0.783191 0.260757
0.608235 0.780334 0.260133
0.616306 0.784935 0.261586
0.624032 0.788968 0.262865
0.636811 0.800706 0.266293
0.647943 0.809801 0.268963
0.655104 0.812847 0.269917
0.661756 0.815165 0.270647
0.667276 0.815860 0.270901
0.677318 0.823241 0.273014
-0.290009 0.740846 0.247213
-0.287807 0.744102 0.248099
-0.284092 0.744427 0.248153
-0.280796 0.745749 0.248465
-0.277106 0.746384 0.248570
-0.273537 0.747396 0.248761
-0.270475 0.749628 0.249274
-0.266138 0.749231 0.249042
-0.261605 0.748482 0.248697
-0.257530 0.748821 0.248640
-0.253655 0.749694 0.248717
-0.250225 0.751672 0.249086
-0.246797 0.753768 0.249476
-0.242445 0.753802 0.249285
-0.238197 0.754125 0.249165
-0.233770 0.754064 0.248930
-0.228602 0.752217 0.248198
-0.224110 0.752009 0.247910
-0.221004 0.755286 0.248574
-0.216709 0.755634 0.248429
-0.212362 0.755853 0.248245
-0.208806 0.758140 0.248624
-0.205601 0.761414 0.249270
-0.199130 0.755945 0.247527
-0.194786 0.756111 0.247323
-0.190914 0.757565 0.247470
-0.186641 0.757895 0.247312
-0.182362 0.758177 0.247142
-0.178035 0.758280 0.246926
-0.174332 0.760193 0.247202
-0.170897 0.762923 0.247702
-0.166759 0.763538 0.247631
-0.161563 0.760818 0.246662
-0.157263 0.760789 0.246425
-0.153050 0.760983 0.246252
-0.148137 0.758820 0.245448
-0.144187 0.759743 0.245480
-0.142277 0.767576 0.247372
-0.136216 0.761251 0.245464
-0.131517 0.759433 0.244772
-0.129226 0.766145 0.246372
