ply
format ascii 1.0
comment ---
element vertex 1771
property float x
property float y
property float z
element face 0
property list uchar uint vertex_indices
end_header
0.319303 0.784693 0.039345
0.323302 0.782764 0.039207
0.327269 0.779729 0.039015
0.331317 0.783905 0.039174
0.335389 0.787405 0.039301
0.339296 0.783176 0.039053
0.343198 0.780298 0.038872
0.347140 0.779459 0.038791
0.351088 0.779110 0.038734
0.355080 0.779925 0.038734
0.359007 0.779377 0.038669
0.363264 0.785114 0.038907
0.367438 0.788602 0.039038
0.371450 0.789095 0.039026
0.375564 0.791071 0.039085
0.379741 0.793706 0.039177
0.383408 0.789534 0.038944
0.386994 0.784895 0.038690
0.390596 0.780998 0.038473
0.394872 0.784849 0.038627
0.399031 0.787144 0.038708
0.403233 0.789672 0.038800
0.407034 0.788228 0.038704
0.410752 0.786164 0.038579
0.414752 0.786723 0.038581
0.418948 0.788867 0.038659
0.422811 0.788186 0.038603
0.426260 0.784372 0.038399
0.430614 0.787547 0.038529
0.434770 0.789077 0.038581
0.438113 0.784848 0.038360
0.441274 0.779656 0.038095
0.447640 0.795640 0.038835
0.449452 0.781877 0.038165
0.457725 0.808532 0.039412
0.459221 0.793254 0.038672
0.462246 0.787665 0.038393
0.466110 0.787074 0.038351
0.470002 0.786644 0.038317
0.473797 0.785690 0.038260
0.477451 0.784015 0.038169
0.482806 0.791051 0.038490
0.487362 0.793747 0.038607
0.491606 0.794770 0.038645
0.495053 0.791926 0.038502
0.499500 0.793816 0.038583
0.503572 0.793880 0.038578
0.507998 0.795479 0.038646
0.512087 0.795503 0.038640
0.516380 0.796356 0.038674
0.519867 0.793777 0.038547
0.524747 0.796947 0.038692
0.528562 0.795685 0.038628
0.531052 0.789226 0.038319
0.535296 0.789730 0.038340
0.539280 0.789187 0.038311
0.543452 0.789318 0.038315
0.547458 0.788799 0.038288
0.557182 0.808722 0.039226
0.561399 0.808535 0.039216
0.565805 0.808962 0.039236
0.569263 0.806106 0.039101
0.573529 0.806001 0.039096
0.577309 0.804260 0.039015
0.580311 0.800014 0.038816
0.582694 0.793895 0.038529
0.586397 0.792051 0.038443
0.590612 0.791797 0.038434
0.594669 0.791025 0.038400
0.599428 0.792328 0.038464
0.608316 0.805678 0.039097
0.612716 0.805593 0.039096
0.613132 0.794105 0.038558
0.622414 0.807813 0.039209
0.623651 0.798809 0.038788
0.627877 0.798172 0.038763
0.631660 0.796317 0.038680
0.636779 0.798010 0.038765
0.643655 0.804205 0.039063
0.646915 0.800862 0.038911
0.649200 0.795084 0.038645
0.654507 0.796997 0.038741
0.656653 0.790992 0.038464
0.663540 0.796679 0.038739
0.667049 0.794033 0.038621
0.674893 0.801719 0.038992
0.677722 0.797390 0.038795
0.683560 0.800100 0.038931
0.690263 0.804677 0.039155
0.695182 0.805065 0.039182
0.698673 0.802211 0.039055
0.702120 0.799289 0.038926
0.706562 0.798558 0.038900
0.710834 0.797435 0.038856
0.717262 0.800875 0.039029
0.723675 0.804158 0.039194
0.732071 0.811429 0.039548
0.735749 0.808818 0.039435
0.738483 0.804314 0.039232
0.763149 0.833457 0.040636
0.765076 0.827118 0.040347
0.765593 0.818152 0.039934
0.770603 0.817930 0.039935
0.776805 0.819921 0.040042
0.781600 0.819194 0.040020
0.785092 0.816032 0.039883
0.784243 0.804964 0.039371
0.789156 0.804506 0.039362
0.809556 0.831692 0.040669
0.807593 0.818712 0.040067
0.809800 0.813257 0.039822
0.814076 0.811456 0.039751
0.818769 0.810360 0.039715
0.823566 0.809420 0.039686
0.828952 0.809441 0.039703
0.836224 0.812543 0.039868
0.842296 0.813566 0.039934
0.847480 0.813081 0.039929
0.856686 0.819024 0.040231
0.865653 0.824418 0.040508
0.868729 0.820380 0.040335
0.872117 0.816863 0.040187
0.881944 0.823301 0.040516
0.891022 0.828420 0.040783
0.896808 0.828411 0.040804
0.897009 0.819991 0.040424
0.901215 0.817625 0.040334
0.911492 0.824164 0.040672
0.915662 0.821651 0.040576
0.921254 0.821183 0.040580
0.923207 0.815488 0.040333
0.930569 0.817483 0.040456
0.935118 0.815458 0.040386
0.942695 0.817607 0.040519
0.949404 0.818473 0.040591
0.954905 0.817628 0.040581
0.961342 0.818004 0.040631
0.970392 0.821794 0.040847
0.975721 0.820550 0.040821
0.980981 0.819183 0.040790
0.990039 0.822696 0.040996
0.994436 0.820112 0.040908
1.002270 0.821878 0.041033
1.008655 0.821730 0.041065
1.015205 0.821728 0.041106
1.022344 0.822391 0.041181
1.029785 0.823347 0.041272
1.034915 0.821421 0.041223
1.042411 0.822304 0.041313
1.051721 0.825260 0.041505
1.058698 0.825346 0.041560
1.065288 0.824910 0.041590
1.075616 0.828732 0.041830
1.081717 0.827572 0.041828
1.088911 0.827600 0.041886
1.095771 0.827179 0.041924
1.105237 0.829590 0.042103
1.113513 0.830568 0.042214
1.119785 0.829260 0.042213
1.130547 0.832757 0.042453
1.137042 0.831533 0.042460
1.145467 0.832300 0.042569
1.152817 0.831837 0.042618
1.159798 0.830914 0.042647
1.169343 0.832570 0.042806
1.177518 0.832706 0.042892
1.186697 0.833767 0.043027
1.192760 0.831591 0.043001
1.202846 0.833364 0.043176
1.209157 0.831295 0.043161
1.217985 0.831625 0.043268
1.225161 0.830258 0.043292
1.237646 0.833905 0.043572
1.246116 0.833579 0.043654
1.254559 0.833136 0.043732
1.266939 0.836267 0.043995
1.275451 0.835677 0.044070
1.287780 0.838482 0.044322
1.295271 0.836762 0.044344
1.310459 0.841868 0.044720
1.318592 0.840524 0.044766
1.325720 0.838227 0.044764
1.334256 0.837103 0.044824
1.346467 0.839072 0.045046
1.358849 0.841058 0.045272
1.369290 0.841278 0.045407
1.381483 0.842874 0.045615
1.391936 0.842916 0.045743
1.403680 0.843939 0.045922
1.413255 0.843108 0.046004
1.427689 0.846134 0.046291
1.439394 0.846866 0.046455
1.450282 0.846886 0.046580
1.462471 0.847875 0.046756
1.475093 0.849140 0.046944
1.488487 0.850941 0.047160
1.497990 0.849730 0.047210
1.506163 0.847527 0.047202
1.516269 0.846799 0.047270
1.526789 0.846395 0.047350
1.537307 0.846009 0.047426
1.548800 0.846359 0.047536
0.241130 0.756129 0.035073
0.243423 0.768029 0.035593
0.246451 0.773303 0.035811
0.250367 0.769112 0.035600
0.253911 0.769761 0.035603
0.257253 0.773802 0.035757
0.260783 0.776264 0.035837
0.264686 0.773966 0.035700
0.268441 0.774308 0.035680
0.272020 0.778393 0.035826
0.275800 0.779865 0.035853
0.279967 0.773900 0.035546
0.283608 0.779588 0.035758
0.287633 0.776946 0.035597
0.291557 0.777064 0.035558
0.295388 0.781080 0.035692
0.299221 0.787077 0.035913
0.303572 0.768229 0.035031
0.307418 0.774064 0.035244
0.311344 0.777414 0.035347
0.315312 0.779105 0.035375
0.319297 0.780813 0.035405
0.323291 0.781220 0.035377
0.327259 0.779018 0.035235
0.331267 0.780877 0.035271
0.335345 0.785427 0.035427
0.339288 0.783070 0.035279
0.343205 0.780697 0.035132
0.347144 0.779763 0.035048
0.351112 0.779895 0.035012
0.355044 0.779318 0.034946
0.358993 0.779274 0.034904
0.363507 0.789818 0.035323
0.367667 0.792698 0.035409
0.371566 0.791114 0.035302
0.375031 0.783459 0.034932
0.378816 0.781262 0.034800
0.382600 0.779349 0.034682
0.386515 0.779313 0.034646
0.390633 0.781633 0.034713
0.394574 0.781824 0.034688
0.399010 0.787149 0.034886
0.403325 0.790798 0.035012
0.407018 0.788294 0.034874
0.410725 0.786146 0.034752
0.415293 0.791619 0.034959
0.418877 0.788496 0.034796
0.421992 0.781869 0.034485
0.425963 0.782315 0.034478
0.429767 0.781477 0.034416
0.434166 0.784966 0.034541
0.437829 0.783103 0.034438
0.442053 0.785117 0.034501
0.447478 0.794809 0.034893
0.454168 0.811906 0.035602
0.456139 0.799031 0.035030
0.460449 0.800805 0.035085
0.461967 0.786273 0.034445
0.465979 0.786560 0.034438
0.469932 0.786486 0.034417
0.473654 0.785146 0.034342
0.477780 0.785955 0.034359
0.483602 0.795325 0.034742
0.487296 0.793644 0.034654
0.491464 0.794300 0.034667
0.494601 0.790003 0.034469
0.498444 0.789141 0.034418
0.502381 0.788698 0.034385
0.505878 0.786288 0.034270
0.510874 0.790454 0.034434
0.515285 0.791916 0.034484
0.520166 0.795239 0.034613
0.525167 0.798878 0.034756
0.527540 0.791809 0.034445
0.532294 0.794319 0.034541
0.536532 0.794706 0.034548
0.540584 0.794331 0.034522
0.542955 0.787685 0.034232
0.547974 0.790893 0.034359
0.555158 0.801690 0.034807
0.561545 0.809262 0.035120
0.566200 0.810541 0.035166
0.570242 0.809646 0.035120
0.574539 0.809585 0.035111
0.578559 0.808576 0.035061
0.581407 0.803763 0.034851
0.582664 0.794003 0.034433
0.586361 0.792141 0.034348
0.590494 0.791635 0.034321
0.594605 0.791035 0.034291
0.598477 0.789692 0.034229
0.608389 0.806096 0.034917
0.611460 0.802159 0.034747
0.615909 0.802221 0.034745
0.617569 0.794401 0.034411
0.622060 0.794602 0.034416
0.626372 0.794263 0.034398
0.631593 0.796331 0.034482
0.636038 0.796241 0.034475
0.640545 0.796268 0.034473
0.645672 0.797848 0.034537
0.652301 0.803161 0.034759
0.651352 0.789273 0.034171
0.657670 0.793698 0.034355
0.657756 0.782742 0.033891
0.667954 0.796402 0.034466
0.673715 0.799105 0.034578
0.675966 0.793455 0.034339
0.684288 0.801974 0.034697
0.689674 0.803517 0.034761
0.694813 0.804416 0.034798
0.699271 0.803731 0.034769
0.701927 0.799047 0.034571
0.706282 0.798131 0.034532
0.711371 0.798772 0.034559
0.716173 0.798744 0.034557
0.722649 0.802186 0.034703
0.730735 0.808841 0.034984
0.732959 0.803283 0.034750
0.733311 0.794024 0.034361
0.739361 0.796337 0.034459
0.745736 0.799198 0.034581
0.758352 0.814152 0.035213
0.762713 0.812765 0.035157
0.768367 0.813836 0.035204
0.778486 0.823277 0.035604
0.787062 0.829578 0.035872
0.789744 0.824806 0.035674
0.786128 0.808585 0.034992
0.789680 0.805630 0.034870
0.796354 0.808275 0.034985
0.805195 0.814651 0.035258
0.808355 0.810907 0.035104
0.816111 0.815154 0.035288
0.819582 0.811929 0.035156
0.823843 0.810064 0.035082
0.828861 0.809464 0.035062
0.835398 0.811349 0.035148
0.842322 0.813785 0.035257
0.849080 0.815856 0.035350
0.855731 0.817666 0.035434
0.858407 0.813069 0.035247
0.863092 0.811681 0.035196
0.870053 0.813822 0.035294
0.880394 0.821090 0.035610
0.891746 0.829706 0.035984
0.900205 0.833729 0.036164
0.904259 0.831026 0.036060
0.906902 0.826234 0.035868
0.914083 0.828147 0.035960
0.921360 0.830112 0.036056
0.917261 0.815619 0.035454
0.925545 0.819001 0.035610
0.928151 0.814254 0.035423
0.937774 0.819350 0.035653
0.944724 0.820598 0.035721
0.948918 0.817991 0.035627
0.955045 0.818003 0.035644
0.962656 0.819955 0.035744
0.970550 0.822191 0.035858
0.976166 0.821324 0.035840
0.982067 0.820790 0.035837
0.988357 0.820709 0.035855
0.995283 0.821388 0.035906
1.001697 0.821342 0.035926
1.008483 0.821707 0.035966
1.015491 0.822278 0.036015
1.021971 0.822125 0.036035
1.028072 0.821448 0.036033
1.035287 0.822068 0.036087
1.040521 0.820235 0.036038
1.051410 0.825090 0.036277
1.059490 0.826480 0.036368
1.065892 0.825818 0.036373
1.076209 0.829622 0.036571
1.083066 0.829322 0.036594
1.089828 0.828848 0.036611
1.096333 0.828019 0.036615
1.103804 0.828206 0.036663
1.111825 0.828919 0.036736
1.119114 0.828742 0.036771
1.128751 0.831030 0.036915
1.135863 0.830487 0.036939
1.143890 0.830844 0.037002
1.151929 0.831125 0.037065
1.159615 0.830947 0.037109
1.167164 0.830545 0.037145
1.177775 0.833195 0.037316
1.186966 0.834269 0.037420
1.193487 0.832552 0.037405
1.201239 0.831999 0.037441
1.209072 0.831445 0.037480
1.216520 0.830431 0.037500
1.229112 0.834316 0.037738
1.237185 0.833703 0.037780
1.245620 0.833350 0.037836
1.251804 0.830791 0.037795
1.265622 0.835288 0.038069
1.272420 0.833130 0.038050
1.286621 0.837673 0.038331
1.300667 0.841892 0.038600
1.308914 0.840738 0.038631
1.317710 0.839996 0.038682
1.326679 0.839323 0.038738
1.335695 0.838609 0.038793
1.347018 0.839803 0.038935
1.358532 0.841045 0.039081
1.367414 0.839951 0.039122
1.379581 0.841540 0.039286
1.392282 0.843460 0.039465
1.401985 0.842804 0.039528
1.413877 0.843868 0.039669
1.425465 0.844599 0.039795
1.439394 0.847119 0.040002
1.452438 0.848838 0.040172
1.465481 0.850474 0.040337
1.476083 0.850150 0.040410
1.488144 0.850919 0.040531
1.496300 0.848683 0.040509
1.504292 0.846350 0.040480
1.514534 0.845732 0.040527
1.526709 0.846556 0.040636
1.540248 0.848377 0.040788
1.559927 0.854640 0.041144
0.240213 0.765373 0.031859
0.243045 0.771859 0.032101
0.246363 0.774061 0.032166
0.250037 0.772822 0.032089
0.254126 0.766811 0.031816
0.257879 0.765192 0.031719
0.261328 0.768284 0.031811
0.265108 0.767329 0.031736
0.268678 0.770239 0.031816
0.272252 0.774094 0.031932
0.276072 0.774418 0.031904
0.280020 0.772610 0.031789
0.283767 0.775652 0.031868
0.287417 0.782522 0.032098
0.291487 0.779023 0.031913
0.295517 0.776219 0.031754
0.299520 0.773821 0.031612
0.303385 0.778187 0.031739
0.307275 0.784284 0.031935
0.311292 0.782812 0.031829
0.315298 0.781226 0.031718
0.319289 0.780022 0.031623
0.323286 0.781609 0.031639
0.327285 0.782222 0.031617
0.331254 0.780614 0.031507
0.335275 0.782466 0.031534
0.339281 0.783187 0.031517
0.343166 0.779765 0.031337
0.347137 0.779918 0.031299
0.351106 0.780083 0.031262
0.355027 0.779244 0.031186
0.358966 0.779039 0.031136
0.363454 0.789137 0.031488
0.367666 0.792975 0.031596
0.371422 0.789128 0.031406
0.375073 0.784356 0.031181
0.378755 0.780689 0.031000
0.382564 0.779168 0.030903
0.386263 0.776518 0.030763
0.390593 0.781443 0.030917
0.394764 0.784158 0.030986
0.399046 0.787779 0.031091
0.404260 0.800280 0.031538
0.407626 0.794278 0.031273
0.411534 0.793696 0.031217
0.415573 0.794294 0.031208
0.418969 0.789518 0.030993
0.421576 0.778796 0.030551
0.425473 0.778788 0.030520
0.430449 0.786795 0.030798
0.432983 0.776721 0.030384
0.437633 0.781988 0.030557
0.441469 0.781431 0.030508
0.447816 0.797265 0.031085
0.452579 0.802112 0.031244
0.456406 0.800917 0.031172
0.458684 0.790522 0.030751
0.461783 0.785442 0.030533
0.465597 0.784645 0.030479
0.469640 0.785119 0.030473
0.473869 0.786532 0.030504
0.477836 0.786481 0.030480
0.482302 0.788941 0.030551
0.488078 0.797766 0.030864
0.491611 0.795248 0.030747
0.494367 0.789127 0.030495
0.498326 0.788822 0.030464
0.502019 0.787284 0.030386
0.505686 0.785660 0.030305
0.509728 0.785696 0.030288
0.514294 0.787924 0.030354
0.520699 0.797687 0.030703
0.525037 0.798573 0.030719
0.528307 0.795105 0.030571
0.530620 0.787964 0.030286
0.537177 0.797415 0.030624
0.540863 0.795608 0.030540
0.543873 0.791310 0.030363
0.547501 0.789381 0.030275
0.553802 0.797052 0.030547
0.560533 0.805919 0.030864
0.566087 0.810366 0.031016
0.569035 0.805759 0.030829
0.574138 0.808461 0.030915
0.577292 0.804624 0.030757
0.580291 0.800367 0.030584
0.582389 0.793336 0.030308
0.586110 0.791562 0.030228
0.590359 0.791425 0.030210
0.594388 0.790579 0.030166
0.598670 0.790469 0.030149
0.604928 0.796127 0.030347
0.611938 0.803744 0.030619
0.614732 0.799067 0.030433
0.616609 0.791905 0.030154
0.620971 0.791784 0.030137
0.626147 0.793844 0.030203
0.632538 0.799070 0.030386
0.635886 0.796034 0.030261
0.640552 0.796479 0.030267
0.650189 0.809692 0.030747
0.649648 0.796607 0.030249
0.657773 0.805574 0.030572
0.658404 0.795706 0.030195
0.661177 0.791286 0.030020
0.670355 0.802377 0.030421
0.675746 0.804125 0.030476
0.673782 0.788512 0.029886
0.679879 0.791941 0.030003
0.689959 0.804355 0.030454
0.695388 0.805903 0.030501
0.699119 0.803577 0.030405
0.701581 0.798467 0.030206
0.705731 0.797114 0.030147
0.710558 0.797205 0.030141
0.715931 0.798410 0.030176
0.721652 0.800276 0.030236
0.727507 0.802328 0.030303
0.730862 0.799167 0.030177
0.736143 0.799936 0.030197
0.740235 0.798265 0.030126
0.746077 0.800050 0.030184
0.755368 0.808498 0.030487
0.762034 0.811632 0.030595
0.766264 0.809997 0.030526
0.777155 0.820942 0.030922
0.787238 0.830090 0.031251
0.787197 0.820279 0.030882
0.785809 0.808178 0.030428
0.788017 0.802799 0.030222
0.798201 0.811752 0.030545
0.799173 0.804178 0.030259
0.806552 0.807929 0.030390
0.815183 0.813725 0.030597
0.820739 0.814085 0.030604
0.823172 0.809102 0.030414
0.828521 0.809067 0.030407
0.834072 0.809324 0.030411
0.840782 0.811433 0.030483
0.849275 0.816349 0.030659
0.854746 0.816259 0.030651
0.858042 0.812662 0.030514
0.863061 0.811807 0.030478
0.870445 0.814609 0.030577
0.882985 0.825266 0.030966
0.895354 0.835398 0.031335
0.900352 0.834130 0.031285
0.904025 0.830854 0.031162
0.910881 0.832312 0.031214
0.918453 0.834743 0.031302
0.920290 0.828737 0.031080
0.924107 0.825649 0.030966
0.921890 0.813970 0.030536
0.930694 0.818020 0.030685
0.938921 0.821133 0.030800
0.945453 0.821787 0.030826
0.949519 0.818994 0.030725
0.956231 0.819794 0.030757
0.963103 0.820738 0.030794
0.970258 0.821985 0.030844
0.976465 0.821903 0.030845
0.982268 0.821235 0.030826
0.988309 0.820831 0.030816
0.994434 0.820484 0.030810
1.001437 0.821199 0.030843
1.008743 0.822220 0.030889
1.015807 0.822860 0.030921
1.022584 0.823071 0.030938
1.029070 0.822858 0.030941
1.034606 0.821434 0.030899
1.044076 0.824693 0.031031
1.051749 0.825687 0.031081
1.058709 0.825755 0.031098
1.066719 0.826979 0.031158
1.075860 0.829416 0.031264
1.083361 0.829859 0.031297
1.089611 0.828802 0.031276
1.097037 0.829012 0.031303
1.103105 0.827631 0.031273
1.109427 0.826479 0.031251
1.119897 0.829803 0.031397
1.127782 0.830189 0.031436
1.133861 0.828549 0.031400
1.141608 0.828630 0.031429
1.148547 0.827776 0.031425
1.159644 0.831190 0.031582
1.165905 0.829459 0.031548
1.177254 0.832880 0.031707
1.186735 0.834254 0.031792
1.194438 0.833727 0.031807
1.201186 0.832168 0.031785
1.208206 0.830814 0.031772
1.216155 0.830299 0.031792
1.226270 0.831795 0.031888
1.234926 0.831768 0.031930
1.245348 0.833322 0.032032
1.252496 0.831673 0.032015
1.265417 0.835330 0.032199
1.273901 0.834729 0.032224
1.284554 0.836022 0.032323
1.294041 0.836139 0.032378
1.308454 0.840566 0.032598
1.316208 0.838904 0.032589
1.325446 0.838482 0.032627
1.335455 0.838642 0.032689
1.348329 0.841174 0.032843
1.358301 0.841091 0.032897
1.368998 0.841531 0.032972
1.377173 0.839769 0.032963
1.392022 0.843487 0.033165
1.402293 0.843300 0.033217
1.411824 0.842441 0.033243
1.428970 0.847660 0.033503
1.438962 0.847014 0.033536
1.452716 0.849295 0.033681
1.464415 0.849878 0.033760
1.477273 0.851305 0.033870
1.488731 0.851599 0.033933
1.496588 0.849128 0.033887
1.504087 0.846417 0.033828
1.515404 0.846597 0.033878
1.528104 0.847800 0.033966
1.539892 0.848324 0.034023
1.560592 0.855326 0.034331
0.240995 0.756962 0.027924
0.243614 0.765393 0.028203
0.246067 0.777139 0.028598
0.249807 0.775305 0.028501
0.253795 0.770728 0.028304
0.257529 0.769616 0.028229
0.261369 0.767425 0.028113
0.265083 0.767443 0.028076
0.268845 0.767227 0.028028
0.272406 0.771086 0.028124
0.276282 0.770061 0.028045
0.280087 0.770880 0.028030
0.283747 0.775807 0.028160
0.287379 0.783199 0.028377
0.291365 0.782379 0.028300
0.295498 0.776452 0.028043
0.299474 0.775278 0.027953
0.303319 0.781149 0.028112
0.307248 0.785311 0.028211
0.311246 0.786632 0.028208
0.315288 0.780376 0.027940
0.319271 0.775347 0.027715
0.323289 0.784512 0.027988
0.327324 0.787223 0.028034
0.331283 0.783440 0.027854
0.335260 0.782512 0.027774
0.339228 0.781745 0.027701
0.343137 0.779405 0.027573
0.347101 0.779399 0.027527
0.351117 0.780831 0.027531
0.355025 0.779643 0.027445
0.358943 0.778995 0.027379
0.363330 0.787245 0.027619
0.367423 0.789222 0.027644
0.371335 0.788133 0.027564
0.374792 0.780598 0.027263
0.378742 0.780867 0.027231
0.382635 0.780410 0.027175
0.386215 0.776269 0.026994
0.390599 0.781823 0.027144
0.394609 0.782785 0.027138
0.398680 0.784307 0.027152
0.403047 0.788632 0.027261
0.408057 0.798642 0.027564
0.411529 0.793943 0.027368
0.415442 0.793457 0.027315
0.419040 0.790393 0.027176
0.422190 0.783985 0.026925
0.426097 0.783875 0.026887
0.432047 0.798955 0.027362
0.434728 0.789524 0.027011
0.437619 0.782161 0.026731
0.442325 0.787460 0.026877
0.445554 0.782785 0.026689
0.452480 0.801753 0.027293
0.455753 0.797168 0.027109
0.458376 0.788948 0.026804
0.461690 0.785160 0.026648
0.465484 0.784262 0.026590
0.469840 0.786467 0.026635
0.473852 0.786693 0.026614
0.477862 0.786868 0.026592
0.482414 0.789757 0.026661
0.488143 0.798336 0.026918
0.493009 0.802289 0.027022
0.495794 0.796144 0.026792
0.498299 0.788936 0.026528
0.502104 0.787907 0.026468
0.505734 0.786107 0.026384
0.509297 0.784058 0.026291
0.513728 0.785743 0.026322
0.520674 0.797817 0.026696
0.524808 0.797871 0.026673
0.526756 0.789118 0.026362
0.530628 0.788220 0.026309
0.536053 0.793308 0.026452
0.541997 0.800122 0.026653
0.543407 0.789803 0.026292
0.546555 0.786153 0.026150
0.553641 0.796696 0.026473
0.560421 0.805749 0.026746
0.562662 0.798741 0.026495
0.566981 0.798995 0.026482
0.572519 0.803270 0.026599
0.576307 0.801604 0.026524
0.579082 0.796670 0.026342
0.582080 0.792563 0.026187
0.586157 0.791918 0.026145
0.590259 0.791324 0.026105
0.594518 0.791180 0.026080
0.598998 0.791653 0.026075
0.605124 0.796907 0.026225
0.611364 0.802287 0.026379
0.614653 0.799043 0.026254
0.615938 0.790217 0.025948
0.621302 0.792898 0.026015
0.625102 0.791191 0.025940
0.632649 0.799569 0.026191
0.637275 0.799915 0.026183
0.642872 0.802745 0.026254
0.649860 0.809041 0.026437
0.656089 0.813188 0.026551
0.657258 0.804478 0.026251
0.658874 0.797059 0.025993
0.662598 0.794946 0.025906
0.668278 0.797560 0.025971
0.678468 0.810793 0.026376
0.683916 0.812501 0.026411
0.679708 0.791730 0.025728
0.686993 0.797753 0.025901
0.696631 0.808898 0.026239
0.700518 0.806885 0.026155
0.701153 0.797707 0.025843
0.705513 0.796822 0.025797
0.710058 0.796313 0.025762
0.716148 0.799053 0.025830
0.721181 0.799468 0.025825
0.728484 0.804535 0.025968
0.733310 0.804363 0.025943
0.736258 0.800348 0.025797
0.740532 0.799037 0.025737
0.745771 0.799621 0.025738
0.753637 0.805290 0.025899
0.757532 0.803105 0.025812
0.764212 0.806251 0.025893
0.773117 0.813488 0.026104
0.782458 0.821336 0.026333
0.783039 0.812772 0.026045
0.787840 0.793399 0.025380
0.794736 0.796502 0.025461
0.803326 0.802459 0.025631
0.814986 0.813558 0.025963
0.823221 0.818510 0.026101
0.823075 0.809111 0.025788
0.828160 0.808635 0.025756
0.833679 0.808846 0.025746
0.838750 0.808270 0.025711
0.853450 0.823307 0.026166
0.857875 0.821464 0.026092
0.857774 0.812409 0.025792
0.862700 0.811410 0.025744
0.872307 0.817686 0.025925
0.881551 0.823227 0.026082
0.892267 0.830858 0.026305
0.898164 0.830998 0.026294
0.900131 0.825198 0.026097
0.909743 0.830801 0.026257
0.917917 0.834132 0.026346
0.923038 0.832909 0.026294
0.920534 0.820683 0.025899
0.924090 0.817280 0.025780
0.928269 0.814773 0.025688
0.935325 0.816283 0.025723
0.945012 0.821353 0.025868
0.948597 0.817908 0.025748
0.955530 0.819019 0.025771
0.961598 0.818892 0.025756
0.969712 0.821436 0.025824
0.976075 0.821566 0.025817
0.982783 0.822088 0.025823
0.988630 0.821426 0.025793
0.994475 0.820717 0.025762
1.002581 0.822832 0.025819
1.008224 0.821749 0.025777
1.014017 0.820811 0.025741
1.022887 0.823628 0.025821
1.029350 0.823385 0.025807
1.035314 0.822476 0.025773
1.043305 0.823953 0.025813
1.050898 0.824863 0.025837
1.058310 0.825474 0.025852
1.065539 0.825791 0.025858
1.074942 0.828546 0.025941
1.081144 0.827512 0.025907
1.088700 0.827961 0.025920
1.095608 0.827599 0.025908
1.103476 0.828238 0.025928
1.111120 0.828542 0.025939
1.119259 0.829303 0.025965
1.126986 0.829525 0.025975
1.134321 0.829242 0.025970
1.140722 0.827890 0.025932
1.150971 0.830531 0.026020
1.159305 0.831040 0.026042
1.166185 0.829954 0.026016
1.177247 0.833079 0.026121
1.184914 0.832616 0.026116
1.193839 0.833335 0.026149
1.200695 0.831890 0.026116
1.207582 0.830411 0.026082
1.219318 0.833601 0.026195
1.226016 0.831763 0.026152
1.235527 0.832560 0.026192
1.243377 0.831669 0.026181
1.252575 0.831965 0.026208
1.261392 0.831803 0.026221
1.274332 0.835349 0.026351
1.284685 0.836366 0.026403
1.291831 0.834364 0.026362
1.300402 0.833579 0.026359
1.314014 0.837184 0.026494
1.322581 0.836192 0.026487
1.333976 0.837583 0.026555
1.344039 0.837707 0.026583
1.358992 0.841910 0.026740
1.370261 0.842829 0.026795
1.377252 0.840064 0.026734
1.392464 0.844083 0.026886
1.402764 0.843915 0.026906
1.412680 0.843365 0.026914
1.429014 0.847924 0.027083
1.441156 0.848990 0.027141
1.452087 0.849025 0.027165
1.462036 0.848241 0.027162
1.478452 0.852441 0.027316
1.487499 0.850874 0.027285
1.497405 0.849964 0.027273
1.506468 0.848422 0.027239
1.515940 0.847206 0.027212
1.530057 0.849448 0.027293
1.542574 0.850489 0.027332
1.552837 0.849895 0.027316
0.241004 0.756548 0.024319
0.243695 0.764190 0.024531
0.246169 0.775660 0.024860
0.249506 0.778585 0.024918
0.253717 0.771395 0.024655
0.257465 0.770148 0.024577
0.261194 0.769604 0.024520
0.265082 0.767112 0.024401
0.268756 0.768336 0.024397
0.272418 0.770510 0.024421
0.276219 0.770906 0.024388
0.280060 0.771030 0.024346
0.283787 0.774396 0.024404
0.287523 0.778853 0.024495
0.291376 0.781462 0.024527
0.295506 0.775478 0.024293
0.299410 0.777270 0.024299
0.303305 0.780865 0.024360
0.307264 0.782725 0.024368
0.311254 0.783483 0.024341
0.315278 0.777659 0.024113
0.319253 0.776836 0.024038
0.323264 0.783839 0.024202
0.327278 0.784864 0.024184
0.331272 0.784157 0.024113
0.335222 0.781762 0.023992
0.339210 0.781937 0.023949
0.343137 0.780147 0.023847
0.347134 0.781021 0.023825
0.351104 0.781142 0.023782
0.355000 0.779646 0.023690
0.358933 0.779320 0.023635
0.363288 0.786956 0.023817
0.367330 0.788108 0.023806
0.371113 0.785079 0.023671
0.374768 0.780670 0.023495
0.378723 0.781018 0.023462
0.382552 0.779734 0.023381
0.386483 0.779892 0.023343
0.390519 0.781288 0.023342
0.394299 0.779778 0.023256
0.398460 0.782386 0.023292
0.402811 0.786644 0.023376
0.406612 0.785367 0.023299
0.410226 0.782527 0.023176
0.415024 0.790166 0.023360
0.418741 0.788233 0.023264
0.422397 0.785952 0.023159
0.426585 0.787941 0.023179
0.430789 0.789908 0.023199
0.435102 0.792511 0.023237
0.439099 0.792739 0.023207
0.442930 0.791818 0.023143
0.447984 0.798918 0.023312
0.452195 0.800238 0.023314
0.455006 0.792869 0.023067
0.458019 0.787095 0.022866
0.461467 0.784138 0.022747
0.465703 0.785766 0.022759
0.469859 0.786842 0.022756
0.473791 0.786628 0.022717
0.478000 0.787847 0.022719
0.482810 0.792037 0.022805
0.488524 0.800494 0.023013
0.493280 0.803860 0.023076
0.495821 0.796525 0.022836
0.498736 0.791212 0.022653
0.502191 0.788549 0.022546
0.506000 0.787532 0.022486
0.509624 0.785718 0.022404
0.514984 0.791335 0.022532
0.519073 0.791374 0.022502
0.523758 0.793814 0.022541
0.527259 0.791366 0.022442
0.530795 0.789107 0.022348
0.537172 0.797852 0.022563
0.543701 0.806805 0.022784
0.543371 0.789895 0.022282
0.546856 0.787474 0.022185
0.554093 0.798541 0.022464
0.559675 0.803345 0.022569
0.562287 0.797668 0.022381
0.565764 0.795076 0.022280
0.570971 0.798312 0.022341
0.575556 0.799351 0.022341
0.579026 0.796705 0.022239
0.582341 0.793607 0.022125
0.586746 0.793972 0.022107
0.590938 0.793624 0.022069
0.594527 0.791416 0.021980
0.598709 0.790995 0.021940
0.606676 0.801677 0.022206
0.610861 0.801038 0.022160
0.613563 0.796139 0.021997
0.617248 0.794101 0.021913
0.621091 0.792514 0.021842
0.625496 0.792465 0.021813
0.631491 0.796649 0.021899
0.638090 0.802274 0.022025
0.644206 0.806433 0.022110
0.650561 0.811049 0.022207
0.655130 0.810945 0.022176
0.658787 0.808511 0.022081
0.658094 0.795319 0.021696
0.661226 0.791783 0.021573
0.667757 0.796493 0.021672
0.674811 0.802280 0.021800
0.684104 0.813134 0.022065
0.681148 0.795255 0.021555
0.688056 0.800372 0.021665
0.697617 0.811316 0.021931
0.700808 0.807718 0.021806
0.702139 0.800065 0.021573
0.705571 0.797129 0.021466
0.710242 0.796888 0.021432
0.716089 0.799108 0.021463
0.721586 0.800499 0.021472
0.732520 0.813091 0.021779
0.737815 0.813781 0.021769
0.735929 0.799859 0.021371
0.739928 0.798005 0.021294
0.747672 0.803561 0.021413
0.751665 0.801609 0.021333
0.754940 0.798268 0.021217
0.761281 0.800822 0.021256
0.774036 0.815403 0.021612
0.778833 0.814736 0.021566
0.783577 0.813941 0.021516
0.791064 0.818136 0.021598
0.782378 0.792948 0.020909
0.787336 0.792670 0.020874
0.789370 0.787179 0.020703
0.797680 0.792748 0.020821
0.815730 0.815020 0.021374
0.824170 0.820311 0.021483
0.822756 0.808743 0.021154
0.827829 0.808252 0.021113
0.833773 0.809173 0.021108
0.838215 0.807562 0.021039
0.854539 0.825251 0.021468
0.858934 0.823341 0.021391
0.857751 0.812542 0.021084
0.862291 0.810936 0.021014
0.869613 0.813656 0.021057
0.879883 0.820825 0.021213
0.891760 0.830257 0.021427
0.900727 0.835050 0.021522
0.906056 0.834248 0.021474
0.908075 0.828501 0.021299
0.913603 0.827972 0.021258
0.919491 0.827927 0.021229
0.921209 0.821826 0.021046
0.921296 0.813468 0.020806
0.922908 0.807375 0.020625
0.937082 0.818911 0.020892
0.943361 0.819240 0.020873
0.947526 0.816611 0.020781
0.953824 0.816875 0.020761
0.960424 0.817485 0.020751
0.967528 0.818701 0.020756
0.975539 0.821034 0.020790
0.982704 0.822160 0.020793
0.988737 0.821741 0.020758
0.995267 0.821908 0.020737
1.001538 0.821685 0.020707
1.007727 0.821300 0.020674
1.013384 0.820199 0.020622
1.022241 0.823009 0.020669
1.029013 0.823151 0.020649
1.036646 0.824270 0.020655
1.043360 0.824199 0.020630
1.049932 0.823894 0.020601
1.057723 0.824964 0.020605
1.066407 0.826987 0.020634
1.074056 0.827705 0.020631
1.080520 0.826981 0.020592
1.087672 0.826979 0.020572
1.097764 0.830209 0.020632
1.105087 0.830219 0.020613
1.110841 0.828421 0.020550
1.118840 0.829034 0.020546
1.125915 0.828554 0.020516
1.134001 0.829089 0.020512
1.142965 0.830466 0.020529
1.150636 0.830371 0.020510
1.158643 0.830544 0.020498
1.165530 0.829471 0.020457
1.175606 0.831596 0.020494
1.186013 0.833929 0.020537
1.193271 0.832963 0.020499
1.199995 0.831393 0.020447
1.209085 0.832094 0.020452
1.221255 0.835694 0.020528
1.229127 0.834976 0.020498
1.235062 0.832319 0.020422
1.242797 0.831323 0.020387
1.256210 0.835589 0.020481
1.262307 0.832862 0.020405
1.269055 0.830691 0.020343
1.283870 0.835831 0.020460
1.290953 0.833780 0.020401
1.302603 0.835762 0.020442
1.311293 0.834983 0.020415
1.319957 0.834099 0.020386
1.338526 0.841757 0.020566
1.345330 0.839034 0.020492
1.355077 0.838783 0.020479
1.365222 0.838785 0.020472
1.380998 0.843415 0.020578
1.394337 0.845853 0.020630
1.403432 0.844680 0.020594
1.414227 0.844838 0.020589
1.431395 0.850056 0.020707
1.440043 0.848318 0.020656
1.451213 0.848548 0.020651
1.463754 0.849796 0.020669
1.473734 0.848996 0.020637
1.486298 0.850160 0.020651
1.497307 0.850096 0.020633
1.507181 0.849162 0.020592
1.520578 0.850866 0.020614
1.532699 0.851598 0.020609
1.541559 0.849939 0.020545
1.564383 0.858468 0.020723
0.238705 0.780052 0.021369
0.243458 0.766418 0.020963
0.246176 0.775225 0.021165
0.249527 0.777964 0.021200
0.253755 0.770547 0.020960
0.257469 0.769723 0.020896
0.261253 0.768370 0.020817
0.265018 0.767693 0.020755
0.268740 0.768170 0.020723
0.272277 0.772549 0.020794
0.275937 0.775876 0.020835
0.279966 0.772511 0.020698
0.283849 0.772329 0.020644
0.287436 0.780516 0.020812
0.291416 0.779476 0.020735
0.295436 0.777103 0.020622
0.299428 0.775425 0.020527
0.303342 0.777443 0.020530
0.307279 0.779693 0.020538
0.311266 0.779103 0.020471
0.315250 0.778352 0.020401
0.319227 0.777545 0.020329
0.323201 0.777629 0.020281
0.327182 0.778413 0.020251
0.331122 0.776215 0.020144
0.335202 0.782120 0.020246
0.339184 0.782049 0.020194
0.343114 0.780370 0.020102
0.347096 0.780793 0.020063
0.351035 0.780147 0.019998
0.354943 0.779057 0.019922
0.358910 0.779493 0.019885
0.363210 0.786117 0.020005
0.367309 0.788325 0.020013
0.370883 0.781993 0.019806
0.374778 0.781326 0.019743
0.378690 0.781041 0.019689
0.382618 0.781046 0.019644
0.386564 0.781328 0.019606
0.390533 0.781868 0.019574
0.394511 0.782489 0.019545
0.398567 0.783894 0.019536
0.402767 0.786608 0.019559
0.406564 0.785292 0.019483
0.411180 0.791502 0.019593
0.414711 0.787819 0.019459
0.418625 0.787618 0.019411
0.421738 0.781026 0.019207
0.426070 0.784310 0.019246
0.430674 0.789378 0.019329
0.434996 0.792077 0.019353
0.439325 0.794625 0.019374
0.444158 0.800395 0.019473
0.448564 0.803010 0.019495
0.451466 0.795935 0.019283
0.454265 0.788611 0.019066
0.458389 0.789597 0.019050
0.461725 0.785925 0.018923
0.465324 0.783906 0.018835
0.469529 0.785303 0.018830
0.473778 0.786834 0.018828
0.478230 0.789323 0.018849
0.482442 0.790430 0.018837
0.488110 0.798702 0.018996
0.492123 0.798504 0.018953
0.494904 0.792430 0.018771
0.498003 0.788066 0.018630
0.502212 0.788899 0.018612
0.506087 0.788170 0.018558
0.510678 0.790554 0.018577
0.515127 0.792191 0.018578
0.519545 0.793591 0.018574
0.523462 0.792844 0.018520
0.527951 0.794382 0.018519
0.533036 0.798162 0.018570
0.535353 0.791073 0.018369
0.537376 0.783093 0.018148
0.548276 0.808359 0.018696
0.549870 0.798700 0.018436
0.551491 0.789442 0.018186
0.557189 0.794820 0.018274
0.562122 0.797320 0.018295
0.566104 0.796455 0.018239
0.571169 0.799198 0.018266
0.575212 0.798441 0.018212
0.579254 0.797659 0.018158
0.582951 0.795761 0.018079
0.586667 0.793938 0.018002
0.590596 0.792783 0.017940
0.594554 0.791705 0.017879
0.598478 0.790514 0.017817
0.606928 0.802628 0.018054
0.611634 0.803483 0.018037
0.613771 0.796938 0.017854
0.616388 0.791885 0.017704
0.620739 0.791741 0.017665
0.626066 0.794222 0.017685
0.630599 0.794447 0.017653
0.637167 0.800025 0.017741
0.644963 0.808614 0.017896
0.651262 0.813058 0.017957
0.655208 0.811342 0.017882
0.655573 0.800637 0.017609
0.660280 0.800928 0.017579
0.662013 0.793898 0.017388
0.667038 0.794948 0.017374
0.675061 0.803066 0.017516
0.680155 0.804046 0.017500
0.682646 0.798918 0.017351
0.688919 0.802537 0.017393
0.696950 0.809996 0.017518
0.701624 0.809727 0.017475
0.701797 0.799494 0.017216
0.705580 0.797331 0.017132
0.710016 0.796583 0.017078
0.714883 0.796727 0.017044
0.722053 0.801659 0.017113
0.731990 0.812172 0.017300
0.737679 0.813681 0.017294
0.735069 0.798295 0.016928
0.739631 0.797586 0.016875
0.746402 0.801224 0.016915
0.751226 0.800925 0.016870
0.755760 0.800030 0.016813
0.763244 0.804751 0.016875
0.772725 0.813101 0.017012
0.781357 0.819632 0.017111
0.786350 0.819245 0.017064
0.788695 0.813980 0.016914
0.786674 0.800889 0.016602
0.787723 0.793530 0.016410
0.791698 0.791466 0.016329
0.796322 0.790538 0.016271
0.810301 0.805790 0.016549
0.821991 0.816749 0.016736
0.823099 0.809494 0.016547
0.826854 0.806787 0.016452
0.832669 0.807509 0.016428
0.839658 0.810101 0.016441
0.851651 0.820728 0.016619
0.857851 0.821770 0.016600
0.858067 0.813216 0.016386
0.862648 0.811668 0.016315
0.868835 0.812611 0.016294
0.878211 0.818413 0.016372
0.891810 0.830506 0.016575
0.901053 0.835716 0.016639
0.905756 0.833970 0.016563
0.906201 0.825893 0.016361
0.909727 0.822451 0.016252
0.916617 0.823918 0.016241
0.918397 0.817947 0.016082
0.920322 0.812247 0.015928
0.928558 0.815520 0.015953
0.938020 0.820392 0.016009
0.943480 0.819575 0.015953
0.948014 0.817448 0.015871
0.954682 0.818210 0.015846
0.960499 0.817756 0.015797
0.967226 0.818468 0.015771
0.973496 0.818507 0.015731
0.980199 0.819056 0.015702
0.987112 0.819807 0.015677
0.994185 0.820692 0.015654
1.000643 0.820718 0.015614
1.007450 0.821123 0.015582
1.015638 0.823181 0.015582
1.022058 0.822955 0.015537
1.028862 0.823138 0.015501
1.035933 0.823579 0.015470
1.043247 0.824237 0.015442
1.049631 0.823710 0.015393
1.056502 0.823699 0.015353
1.066100 0.826804 0.015372
1.072499 0.826081 0.015319
1.080378 0.826995 0.015296
1.088363 0.827941 0.015275
1.094142 0.826314 0.015205
1.102694 0.827733 0.015192
1.111618 0.829459 0.015185
1.117066 0.827274 0.015106
1.124361 0.827052 0.015063
1.132219 0.827358 0.015030
1.142623 0.830285 0.015045
1.149245 0.829089 0.014984
1.156001 0.827971 0.014925
1.164492 0.828583 0.014898
1.175448 0.831620 0.014915
1.186022 0.834125 0.014923
1.193519 0.833400 0.014871
1.200709 0.832293 0.014813
1.210429 0.833608 0.014799
1.221805 0.836423 0.014811
1.228472 0.834534 0.014740
1.235250 0.832691 0.014669
1.243822 0.832490 0.014627
1.255782 0.835381 0.014641
1.263134 0.833828 0.014576
1.275898 0.837198 0.014598
1.283401 0.835600 0.014532
1.293640 0.836409 0.014508
1.302556 0.835918 0.014462
1.312458 0.836216 0.014429
1.327774 0.841169 0.014477
1.338483 0.841922 0.014452
1.346095 0.839894 0.014378
1.354182 0.838221 0.014309
1.366376 0.839963 0.014300
1.377837 0.840972 0.014278
1.392310 0.844375 0.014296
1.403365 0.844827 0.014263
1.415891 0.846394 0.014248
1.431443 0.850298 0.014272
1.440425 0.848824 0.014203
1.449571 0.847451 0.014135
1.461105 0.847924 0.014098
1.473007 0.848631 0.014064
1.488315 0.851906 0.014071
1.497634 0.850540 0.013999
1.508214 0.850133 0.013942
1.522231 0.852292 0.013926
1.532350 0.851530 0.013859
1.540459 0.849320 0.013767
1.530155 0.833799 0.013454
0.239919 0.767103 0.017381
0.241827 0.783724 0.017718
0.246621 0.769773 0.017361
0.249945 0.772566 0.017381
0.253799 0.769576 0.017270
0.257589 0.767684 0.017183
0.261264 0.767753 0.017139
0.265100 0.765955 0.017053
0.268828 0.766215 0.017011
0.271966 0.777529 0.017214
0.275671 0.780430 0.017229
0.279774 0.775951 0.017080
0.283679 0.775646 0.017023
0.287539 0.776933 0.017000
0.291397 0.779112 0.016997
0.295438 0.775923 0.016876
0.299405 0.775056 0.016805
0.303321 0.776885 0.016793
0.307266 0.778334 0.016773
0.311236 0.778873 0.016732
0.315214 0.779246 0.016688
0.319194 0.776801 0.016584
0.323161 0.776384 0.016523
0.327109 0.774720 0.016436
0.331120 0.778251 0.016460
0.335140 0.780770 0.016462
0.339064 0.778654 0.016366
0.343030 0.778725 0.016316
0.347041 0.780249 0.016298
0.350980 0.779681 0.016235
0.354880 0.778464 0.016159
0.358773 0.777462 0.016089
0.362824 0.779644 0.016084
0.366838 0.780947 0.016062
0.370827 0.781729 0.016029
0.374732 0.781232 0.015970
0.378619 0.780609 0.015908
0.382557 0.780792 0.015864
0.386531 0.781427 0.015829
0.390573 0.782808 0.015809
0.394505 0.782894 0.015763
0.398673 0.785433 0.015767
0.402715 0.786526 0.015742
0.407077 0.790549 0.015776
0.411110 0.791280 0.015744
0.414939 0.790189 0.015675
0.417856 0.781605 0.015457
0.421205 0.777128 0.015322
0.425281 0.778582 0.015306
0.431179 0.793498 0.015556
0.435663 0.797220 0.015584
0.438669 0.790413 0.015404
0.443971 0.799477 0.015537
0.447891 0.798952 0.015481
0.451302 0.795218 0.015363
0.455271 0.795112 0.015316
0.458928 0.793123 0.015233
0.461767 0.786473 0.015059
0.465415 0.784720 0.014981
0.469526 0.785581 0.014954
0.473611 0.786233 0.014923
0.477655 0.786601 0.014886
0.481835 0.787615 0.014862
0.487209 0.794495 0.014950
0.491170 0.794147 0.014899
0.494289 0.789778 0.014773
0.498112 0.788840 0.014712
0.501794 0.787261 0.014639
0.505965 0.787889 0.014607
0.510873 0.791659 0.014635
0.515780 0.795227 0.014658
0.519948 0.795526 0.014621
0.524682 0.798088 0.014625
0.529223 0.799731 0.014612
0.531863 0.793791 0.014458
0.535641 0.792423 0.014390
0.537938 0.785458 0.014219
0.544311 0.793859 0.014330
0.548516 0.793996 0.014289
0.552516 0.793349 0.014234
0.557150 0.794912 0.014220
0.562245 0.797974 0.014232
0.567427 0.801184 0.014246
0.570863 0.798400 0.014153
0.574565 0.796536 0.014075
0.577644 0.792671 0.013963
0.582266 0.793802 0.013939
0.586258 0.792872 0.013879
0.590132 0.791567 0.013813
0.594184 0.790794 0.013756
0.598736 0.791497 0.013724
0.605253 0.797913 0.013794
0.611114 0.802189 0.013825
0.613698 0.796934 0.013689
0.616670 0.792882 0.013574
0.621337 0.793602 0.013542
0.625614 0.793189 0.013491
0.630449 0.794244 0.013465
0.636757 0.799138 0.013505
0.644352 0.807216 0.013599
0.651964 0.815069 0.013689
0.654697 0.810240 0.013560
0.658099 0.807177 0.013463
0.660100 0.800675 0.013307
0.666447 0.804929 0.013333
0.670142 0.802630 0.013249
0.675336 0.803913 0.013225
0.680124 0.804164 0.013183
0.682572 0.798933 0.013049
0.687767 0.800084 0.013023
0.697120 0.810569 0.013151
0.701856 0.810433 0.013102
0.701319 0.798622 0.012860
0.705244 0.796783 0.012783
0.709919 0.796557 0.012733
0.714943 0.797036 0.012695
0.720545 0.798671 0.012675
0.730095 0.808422 0.012786
0.732737 0.803726 0.012662
0.734447 0.797211 0.012510
0.741184 0.800873 0.012521
0.745924 0.800454 0.012467
0.751853 0.802327 0.012449
0.758845 0.806172 0.012462
0.765273 0.808808 0.012455
0.772731 0.813288 0.012477
0.780045 0.817355 0.012492
0.784982 0.816891 0.012436
0.787155 0.811338 0.012299
0.787130 0.801885 0.012103
0.791794 0.800983 0.012040
0.795907 0.799085 0.011961
0.798633 0.794752 0.011846
0.806840 0.799964 0.011876
0.818901 0.811626 0.012005
0.821660 0.807225 0.011887
0.826936 0.807093 0.011835
0.832608 0.807576 0.011792
0.839849 0.810583 0.011787
0.852271 0.821905 0.011905
0.857997 0.822175 0.011857
0.858867 0.814658 0.011694
0.862991 0.812376 0.011609
0.868618 0.812440 0.011558
0.879091 0.819939 0.011616
0.890969 0.829389 0.011701
0.897729 0.830854 0.011670
0.897050 0.821094 0.011475
0.900927 0.818235 0.011381
0.907398 0.819196 0.011342
0.911031 0.815958 0.011242
0.914600 0.812643 0.011142
0.921447 0.814016 0.011108
0.929401 0.816876 0.011095
0.937677 0.820078 0.011086
0.942188 0.817950 0.011003
0.948473 0.818244 0.010953
0.955203 0.819082 0.010910
0.961115 0.818750 0.010851
0.967193 0.818589 0.010794
0.973886 0.819188 0.010747
0.980312 0.819369 0.010695
0.985727 0.818179 0.010624
0.993840 0.820415 0.010598
1.000708 0.820967 0.010550
1.008513 0.822628 0.010517
1.016004 0.823805 0.010476
1.022177 0.823269 0.010413
1.028609 0.822996 0.010352
1.034750 0.822313 0.010287
1.040563 0.821182 0.010215
1.049646 0.823896 0.010193
1.056466 0.823825 0.010135
1.063302 0.823706 0.010076
1.071454 0.825041 0.010035
1.080298 0.827073 0.010003
1.088258 0.827992 0.009956
1.096148 0.828741 0.009906
1.102127 0.827272 0.009829
1.111938 0.829983 0.009803
1.119098 0.829669 0.009740
1.127078 0.830168 0.009686
1.132551 0.827888 0.009598
1.139572 0.827214 0.009530
1.149512 0.829544 0.009497
1.157356 0.829560 0.009437
1.163712 0.827951 0.009356
1.177785 0.834190 0.009369
1.184651 0.832911 0.009291
1.192811 0.832867 0.009228
1.202276 0.834031 0.009179
1.209841 0.833208 0.009106
1.217489 0.832386 0.009033
1.227134 0.833419 0.008981
1.234489 0.832142 0.008902
1.248073 0.836707 0.008889
1.255942 0.835714 0.008812
1.263352 0.834213 0.008730
1.269806 0.831761 0.008636
1.279441 0.832165 0.008574
1.296248 0.838954 0.008581
1.304644 0.837976 0.008502
1.318316 0.841602 0.008473
1.328179 0.841713 0.008404
1.336692 0.840550 0.008322
1.344440 0.838655 0.008231
1.355563 0.839588 0.008170
1.366005 0.839837 0.008100
1.375764 0.839423 0.008023
1.385229 0.838691 0.007943
1.400007 0.842259 0.007904
1.419990 0.849917 0.007906
1.428276 0.847937 0.007810
1.439493 0.848270 0.007736
1.449196 0.847343 0.007648
1.458408 0.846001 0.007556
1.477639 0.852409 0.007538
1.489674 0.853137 0.007463
1.501656 0.853785 0.007387
1.509369 0.851188 0.007279
1.519517 0.850449 0.007188
1.532250 0.851637 0.007114
1.539259 0.848620 0.007001
1.547475 0.846553 0.006895
0.238692 0.779427 0.013970
0.241601 0.785762 0.014041
0.246064 0.775677 0.013812
0.250064 0.770702 0.013675
0.253810 0.768977 0.013597
0.257647 0.766411 0.013503
0.261360 0.765867 0.013445
0.265136 0.764860 0.013378
0.268965 0.763379 0.013302
0.271924 0.777612 0.013504
0.275718 0.778814 0.013474
0.279583 0.779230 0.013430
0.283560 0.777596 0.013349
0.287426 0.778976 0.013320
0.291346 0.779560 0.013278
0.295252 0.781280 0.013254
0.299234 0.780822 0.013193
0.303202 0.781356 0.013149
0.307145 0.784462 0.013149
0.311163 0.782899 0.013069
0.315168 0.781366 0.012989
0.319157 0.778809 0.012892
0.323128 0.777429 0.012816
0.327110 0.778441 0.012780
0.331140 0.782148 0.012789
0.335101 0.780852 0.012715
0.339098 0.781630 0.012675
0.343021 0.779813 0.012592
0.346966 0.779283 0.012531
0.350942 0.779765 0.012486
0.354840 0.778512 0.012414
0.358727 0.777392 0.012344
0.362803 0.780065 0.012336
0.366884 0.782485 0.012323
0.370815 0.782237 0.012268
0.374652 0.780712 0.012192
0.378661 0.781815 0.012158
0.382482 0.780412 0.012085
0.386108 0.776844 0.011978
0.390453 0.781960 0.012008
0.394280 0.780954 0.011942
0.398068 0.779658 0.011871
0.403545 0.795203 0.012064
0.406829 0.788676 0.011912
0.410961 0.790383 0.011888
0.414820 0.789589 0.011825
0.418413 0.786659 0.011730
0.421426 0.779302 0.011567
0.425445 0.780244 0.011532
0.431341 0.795093 0.011709
0.435739 0.798148 0.011705
0.439134 0.794009 0.011592
0.442647 0.790922 0.011496
0.446812 0.792260 0.011467
0.451487 0.796737 0.011484
0.455567 0.797269 0.011442
0.459109 0.794535 0.011352
0.461858 0.787318 0.011196
0.465632 0.786263 0.011131
0.469653 0.786588 0.011087
0.473449 0.785666 0.011024
0.477224 0.784647 0.010961
0.481529 0.786350 0.010936
0.487015 0.793823 0.010995
0.491140 0.794289 0.010952
0.493494 0.786280 0.010788
0.497952 0.788372 0.010769
0.501760 0.787382 0.010706
0.505688 0.786928 0.010650
0.509712 0.786870 0.010600
0.516128 0.796975 0.010692
0.521692 0.803072 0.010727
0.525261 0.800716 0.010644
0.528251 0.796085 0.010530
0.534600 0.804813 0.010600
0.537436 0.799604 0.010479
0.540219 0.794342 0.010357
0.544721 0.795623 0.010324
0.549129 0.796472 0.010285
0.552680 0.794175 0.010204
0.557768 0.797324 0.010196
0.562181 0.797988 0.010154
0.567045 0.800114 0.010132
0.571192 0.799729 0.010076
0.573830 0.794342 0.009954
0.577118 0.791192 0.009862
0.580534 0.788507 0.009776
0.585869 0.791874 0.009769
0.590168 0.791895 0.009718
0.594286 0.791318 0.009660
0.598415 0.790749 0.009601
0.603875 0.794069 0.009592
0.608344 0.794369 0.009544
0.615013 0.800900 0.009575
0.617581 0.795653 0.009456
0.621408 0.794003 0.009384
0.624914 0.791480 0.009300
0.629683 0.792383 0.009259
0.637409 0.801068 0.009313
0.643774 0.805905 0.009319
0.648826 0.807169 0.009280
0.653521 0.807445 0.009230
0.655863 0.801755 0.009107
0.661743 0.804944 0.009092
0.664495 0.800351 0.008983
0.670698 0.804164 0.008974
0.675435 0.804339 0.008921
0.678965 0.801629 0.008834
0.681371 0.796333 0.008718
0.687250 0.799087 0.008695
0.696733 0.809881 0.008764
0.702296 0.811603 0.008728
0.702545 0.801511 0.008557
0.705014 0.796462 0.008444
0.710971 0.799002 0.008417
0.715599 0.798609 0.008357
0.719557 0.796776 0.008280
0.730132 0.808678 0.008355
0.731823 0.802032 0.008225
0.736311 0.801167 0.008159
0.741144 0.800969 0.008099
0.745832 0.800448 0.008036
0.753540 0.805805 0.008036
0.759084 0.806810 0.007988
0.763278 0.805166 0.007913
0.768928 0.806268 0.007866
0.776250 0.810430 0.007850
0.781696 0.810987 0.007796
0.783129 0.804143 0.007666
0.787741 0.803160 0.007597
0.794547 0.806080 0.007567
0.800103 0.806679 0.007513
0.804405 0.805027 0.007436
0.809973 0.805558 0.007381
0.818568 0.811224 0.007376
0.822550 0.808900 0.007292
0.827457 0.808133 0.007223
0.833390 0.809042 0.007170
0.838124 0.807915 0.007097
0.854014 0.824909 0.007197
0.859883 0.825378 0.007138
0.860203 0.816952 0.006995
0.863076 0.812675 0.006891
0.867533 0.810910 0.006812
0.880525 0.822321 0.006852
0.889395 0.827149 0.006831
0.888542 0.817111 0.006675
0.892274 0.814099 0.006583
0.897064 0.812667 0.006505
0.903787 0.814053 0.006452
0.909643 0.814103 0.006387
0.917028 0.816302 0.006340
0.923291 0.816809 0.006278
0.930947 0.819221 0.006231
0.936266 0.818266 0.006156
0.940601 0.815914 0.006068
0.947845 0.817543 0.006014
0.954601 0.818426 0.005953
0.961519 0.819456 0.005892
0.967155 0.818700 0.005817
0.975020 0.820847 0.005764
0.981486 0.821066 0.005696
0.987466 0.820593 0.005622
0.992262 0.818551 0.005535
1.001224 0.821784 0.005489
1.008680 0.822999 0.005426
1.015119 0.822863 0.005353
1.022312 0.823596 0.005285
1.029516 0.824269 0.005217
1.034167 0.821766 0.005125
1.039861 0.820500 0.005042
1.049998 0.824477 0.004996
1.057039 0.824663 0.004922
1.063219 0.823771 0.004840
1.071150 0.824852 0.004771
1.078407 0.825069 0.004696
1.084845 0.824279 0.004613
1.096094 0.828844 0.004565
1.103400 0.828854 0.004486
1.112103 0.830330 0.004416
1.119481 0.830251 0.004335
1.123501 0.826456 0.004231
1.134499 0.830143 0.004172
1.142977 0.830999 0.004095
1.153156 0.833550 0.004027
1.158785 0.831217 0.003930
1.165392 0.829854 0.003838
1.175260 0.831770 0.003763
1.183659 0.832071 0.003679
1.192721 0.832943 0.003597
1.200731 0.832660 0.003508
1.210165 0.833695 0.003425
1.218375 0.833420 0.003334
1.228117 0.834540 0.003250
1.235154 0.832949 0.003151
1.247446 0.836282 0.003075
1.256054 0.835989 0.002980
1.262813 0.833881 0.002877
1.271161 0.833182 0.002779
1.278855 0.831799 0.002677
1.285857 0.829719 0.002572
1.303423 0.837053 0.002505
1.312340 0.836469 0.002403
1.326954 0.840809 0.002320
1.334274 0.838618 0.002210
1.342154 0.836858 0.002102
1.351385 0.836194 0.001996
1.364549 0.838780 0.001901
1.374679 0.838689 0.001795
1.384057 0.837894 0.001687
1.404011 0.845723 0.001603
1.415863 0.846737 0.001497
1.422260 0.843266 0.001377
1.435220 0.845037 0.001271
1.447237 0.845971 0.001161
1.459933 0.847370 0.001052
1.476905 0.852016 0.000949
1.487675 0.851777 0.000834
1.499797 0.852546 0.000720
1.510278 0.852047 0.000603
1.520921 0.851671 0.000486
1.533454 0.852701 0.000371
1.540115 0.849419 0.000249
1.547963 0.847077 0.000129
0.239248 0.773255 0.010196
0.242525 0.775316 0.010175
0.245869 0.777436 0.010154
