ply
format ascii 1.0
comment ---
element vertex 1691
property float x
property float y
property float z
element face 0
property list uchar uint vertex_indices
end_header
0.836693 0.775077 -0.036507
0.851777 0.796809 -0.035450
-0.311126 0.744755 -0.060185
-0.306772 0.745361 -0.059764
-0.302064 0.745498 -0.059390
-0.296486 0.744282 -0.059099
-0.292188 0.745327 -0.058750
-0.289243 0.748812 -0.058334
-0.283949 0.748417 -0.058103
-0.279886 0.750264 -0.057814
-0.274755 0.750377 -0.057626
-0.269377 0.750162 -0.057485
-0.263756 0.749613 -0.057389
-0.258790 0.750334 -0.057273
-0.254051 0.751580 -0.057168
-0.249081 0.752518 -0.057106
-0.242455 0.750497 -0.057196
-0.238481 0.753484 -0.057112
-0.234051 0.755750 -0.057086
-0.228780 0.756532 -0.057149
-0.221303 0.753138 -0.057408
-0.215765 0.753520 -0.057540
-0.210450 0.754405 -0.057675
-0.204754 0.754599 -0.057862
-0.199252 0.755234 -0.058052
-0.192593 0.753556 -0.058353
-0.187777 0.755675 -0.058522
-0.182405 0.756703 -0.058751
-0.177141 0.757997 -0.058985
-0.171246 0.757986 -0.059284
-0.164555 0.756252 -0.059659
-0.158569 0.756015 -0.059986
-0.153102 0.756914 -0.060278
-0.148349 0.759422 -0.060518
-0.143190 0.761052 -0.060797
-0.135797 0.757548 -0.061270
-0.130207 0.758131 -0.061594
-0.124984 0.759559 -0.061890
-0.118664 0.758361 -0.062281
-0.112634 0.757790 -0.062649
-0.107395 0.759101 -0.062949
-0.102238 0.760601 -0.063241
-0.096355 0.760256 -0.063594
-0.091172 0.761641 -0.063884
-0.085144 0.760810 -0.064246
-0.079483 0.760864 -0.064572
-0.074184 0.761827 -0.064864
-0.069120 0.763390 -0.065130
-0.063589 0.763652 -0.065433
-0.057710 0.762884 -0.065762
-0.051887 0.762188 -0.066082
-0.046252 0.761945 -0.066381
-0.040989 0.762711 -0.066640
-0.037201 0.767813 -0.066757
-0.029376 0.760844 -0.067241
-0.024706 0.763239 -0.067428
-0.020018 0.765591 -0.067610
-0.015151 0.767386 -0.067802
-0.010145 0.768726 -0.068000
-0.003821 0.765737 -0.068319
0.001548 0.765755 -0.068541
0.006765 0.766219 -0.068741
0.012244 0.765732 -0.068962
0.018059 0.763992 -0.069211
0.023406 0.763786 -0.069408
0.029027 0.762518 -0.069628
0.033411 0.765698 -0.069713
0.037745 0.769125 -0.069785
0.043349 0.767759 -0.069985
0.048694 0.767286 -0.070153
0.053828 0.767571 -0.070292
0.058109 0.771268 -0.070331
0.063621 0.769961 -0.070501
0.070265 0.763762 -0.070797
0.075475 0.763425 -0.070926
0.080435 0.764117 -0.071020
0.085284 0.765280 -0.071095
0.089809 0.767927 -0.071125
0.095072 0.767171 -0.071239
0.100276 0.766605 -0.071343
0.104886 0.768879 -0.071364
0.109728 0.770043 -0.071410
0.114685 0.770616 -0.071466
0.119732 0.770688 -0.071529
0.124704 0.771116 -0.071578
0.129996 0.769730 -0.071668
0.134787 0.771088 -0.071682
0.139503 0.772910 -0.071677
0.145087 0.769530 -0.071805
0.150016 0.769983 -0.071826
0.154807 0.771301 -0.071820
0.159728 0.771791 -0.071831
0.165153 0.768819 -0.071928
0.170207 0.768219 -0.071957
0.174899 0.770168 -0.071916
0.179626 0.771950 -0.071874
0.184773 0.770515 -0.071912
0.189772 0.770132 -0.071918
0.194625 0.770907 -0.071889
0.199642 0.770252 -0.071894
0.204378 0.772065 -0.071829
0.209265 0.772553 -0.071795
0.214149 0.773065 -0.071757
0.219014 0.773786 -0.071708
0.223971 0.773516 -0.071682
0.229075 0.771452 -0.071699
0.234011 0.771181 -0.071665
0.238887 0.771601 -0.071608
0.243905 0.770064 -0.071600
0.248533 0.774038 -0.071442
0.253691 0.770135 -0.071488
0.258563 0.770465 -0.071419
0.263386 0.771708 -0.071321
0.268177 0.773801 -0.071197
0.273061 0.774165 -0.071115
0.277970 0.773951 -0.071044
0.282856 0.774257 -0.070956
0.287682 0.776563 -0.070810
0.292550 0.778015 -0.070683
0.297469 0.777666 -0.070601
0.302432 0.774472 -0.070592
0.307328 0.774213 -0.070500
0.312207 0.775712 -0.070356
0.317104 0.775971 -0.070242
0.322004 0.777398 -0.070091
0.326914 0.778390 -0.069948
0.331817 0.777816 -0.069845
0.336700 0.776227 -0.069766
0.341557 0.774019 -0.069700
0.346536 0.777704 -0.069465
0.351430 0.777180 -0.069344
0.356360 0.777875 -0.069183
0.361323 0.779239 -0.069000
0.366223 0.778782 -0.068863
0.371175 0.779497 -0.068689
0.376114 0.779783 -0.068522
0.380991 0.778880 -0.068386
0.385940 0.779248 -0.068207
0.390916 0.779941 -0.068014
0.395865 0.780105 -0.067831
0.400745 0.779295 -0.067673
0.405613 0.778371 -0.067513
0.410660 0.779639 -0.067282
0.415670 0.780312 -0.067064
0.420733 0.781439 -0.066826
0.425660 0.781013 -0.066629
0.430497 0.779698 -0.066456
0.435484 0.779857 -0.066230
0.440497 0.780172 -0.065995
0.445448 0.779886 -0.065772
0.450394 0.779521 -0.065545
0.455592 0.781143 -0.065249
0.460606 0.781175 -0.064998
0.465719 0.781889 -0.064718
0.470919 0.783116 -0.064414
0.476016 0.783495 -0.064131
0.481010 0.783106 -0.063866
0.485777 0.781193 -0.063646
0.491080 0.782730 -0.063304
0.496318 0.783711 -0.062972
0.501568 0.784652 -0.062634
0.506697 0.784777 -0.062317
0.511860 0.785022 -0.061988
0.516914 0.784599 -0.061675
0.522016 0.784386 -0.061347
0.527235 0.784727 -0.060991
0.532578 0.785622 -0.060607
0.537647 0.785046 -0.060269
0.542705 0.784377 -0.059927
0.547665 0.783205 -0.059596
0.552970 0.783620 -0.059198
0.558176 0.783502 -0.058812
0.563801 0.785180 -0.058349
0.569013 0.784925 -0.057952
0.574264 0.784781 -0.057542
0.579568 0.784797 -0.057119
0.585364 0.786749 -0.056610
0.590365 0.785382 -0.056226
0.595634 0.785046 -0.055793
0.601424 0.786668 -0.055273
0.606754 0.786426 -0.054821
0.614312 0.794387 -0.054018
0.619039 0.791693 -0.053654
0.624859 0.792940 -0.053117
0.629805 0.791013 -0.052710
0.634826 0.789358 -0.052288
0.639728 0.787298 -0.051880
0.644589 0.785121 -0.051475
0.650109 0.785125 -0.050970
0.659902 0.798843 -0.049836
0.665497 0.798771 -0.049323
0.672171 0.802027 -0.048653
0.676835 0.798976 -0.048278
0.679639 0.790369 -0.048171
0.684994 0.789590 -0.047697
0.694802 0.801852 -0.046595
0.701647 0.805188 -0.045923
0.705390 0.799597 -0.045696
0.709148 0.794210 -0.045471
0.714275 0.792761 -0.045061
0.730564 0.821742 -0.043119
0.733588 0.814333 -0.043027
0.736066 0.805712 -0.043018
0.739088 0.798774 -0.042945
0.745261 0.800183 -0.042457
0.752077 0.803238 -0.041900
0.752783 0.790933 -0.042177
0.757748 0.789561 -0.041901
0.762765 0.788421 -0.041638
0.769209 0.790835 -0.041208
0.774806 0.791256 -0.040912
0.794926 0.826050 -0.038772
0.798904 0.822464 -0.038746
0.803066 0.819491 -0.038718
0.812027 0.827649 -0.038112
0.821106 0.836011 -0.037525
0.809831 0.798851 -0.039482
0.814578 0.798007 -0.039472
0.822223 0.803648 -0.039137
0.830447 0.810557 -0.038766
0.835292 0.810214 -0.038829
0.846373 0.823260 -0.038189
0.856483 0.834154 -0.037703
0.843037 0.795846 -0.039955
0.841465 0.782904 -0.040839
0.843533 0.777783 -0.041324
-0.309564 0.740607 -0.065176
-0.307262 0.744634 -0.064662
-0.303567 0.746511 -0.064247
-0.295126 0.740560 -0.064130
-0.292995 0.745306 -0.063676
-0.287638 0.744734 -0.063437
-0.283287 0.745995 -0.063164
-0.279358 0.748118 -0.062893
-0.274537 0.748826 -0.062703
-0.270073 0.750282 -0.062518
-0.265774 0.752163 -0.062350
-0.259768 0.751105 -0.062318
-0.254708 0.751845 -0.062254
-0.249780 0.752934 -0.062207
-0.242597 0.749955 -0.062337
-0.238429 0.752641 -0.062294
-0.234297 0.755531 -0.062271
-0.228723 0.755797 -0.062370
-0.222444 0.754774 -0.062541
-0.216454 0.754353 -0.062715
-0.211386 0.755797 -0.062847
-0.204987 0.754663 -0.063091
-0.199956 0.756305 -0.063258
-0.194320 0.756781 -0.063485
-0.187408 0.754660 -0.063818
-0.182461 0.756611 -0.064027
-0.177151 0.757853 -0.064274
-0.171178 0.757713 -0.064580
-0.165262 0.757691 -0.064892
-0.158740 0.756335 -0.065257
-0.153249 0.757218 -0.065556
-0.148612 0.760021 -0.065799
-0.143545 0.761892 -0.066078
-0.136945 0.760251 -0.066473
-0.130372 0.758597 -0.066868
-0.125729 0.761420 -0.067125
-0.120695 0.763343 -0.067412
-0.113569 0.760192 -0.067852
-0.107768 0.760166 -0.068194
-0.102388 0.761137 -0.068504
-0.096915 0.761844 -0.068819
-0.090115 0.759114 -0.069230
-0.084708 0.759868 -0.069535
-0.079624 0.761434 -0.069811
-0.074550 0.763008 -0.070083
-0.069186 0.763779 -0.070371
-0.063358 0.763228 -0.070690
-0.058344 0.764869 -0.070943
-0.052778 0.764930 -0.071231
-0.046141 0.761843 -0.071597
-0.041663 0.764900 -0.071791
-0.037854 0.769969 -0.071926
-0.032999 0.771978 -0.072136
-0.026388 0.768608 -0.072477
-0.021843 0.771484 -0.072650
-0.016872 0.773043 -0.072849
-0.012648 0.776980 -0.072982
-0.006679 0.775286 -0.073248
0.000171 0.770540 -0.073580
0.004646 0.773586 -0.073713
0.010022 0.773579 -0.073913
0.014694 0.775963 -0.074048
0.020490 0.774367 -0.074272
0.026186 0.773013 -0.074481
0.032396 0.769649 -0.074730
0.038095 0.768016 -0.074930
0.042836 0.769924 -0.075040
0.048613 0.767804 -0.075236
0.052753 0.772052 -0.075279
0.057307 0.774724 -0.075352
0.061916 0.777221 -0.075422
0.067080 0.777415 -0.075539
0.072411 0.776841 -0.075666
0.077694 0.776393 -0.075784
0.082211 0.779316 -0.075821
0.086710 0.782390 -0.075848
0.090297 0.789841 -0.075773
0.095978 0.787502 -0.075908
0.102208 0.782292 -0.076101
0.108014 0.778916 -0.076247
0.113789 0.775484 -0.076388
0.118297 0.778532 -0.076382
0.123139 0.779871 -0.076407
0.127828 0.782084 -0.076409
0.132416 0.784938 -0.076392
0.137105 0.787307 -0.076380
0.143375 0.780189 -0.076568
0.149716 0.772160 -0.076770
0.154915 0.770923 -0.076821
0.160111 0.769584 -0.076870
0.165035 0.769972 -0.076876
0.169889 0.770828 -0.076868
0.173637 0.779766 -0.076681
0.177668 0.787151 -0.076524
0.182713 0.787084 -0.076522
0.188312 0.782458 -0.076614
0.193779 0.778544 -0.076686
0.198806 0.778122 -0.076679
0.203495 0.780721 -0.076603
0.208884 0.776799 -0.076664
0.213320 0.782006 -0.076523
0.218263 0.782354 -0.076484
0.223371 0.780871 -0.076479
0.228346 0.780724 -0.076443
0.233066 0.783658 -0.076335
0.237399 0.791924 -0.076107
0.243042 0.783044 -0.076249
0.248261 0.779188 -0.076278
0.252946 0.783190 -0.076131
0.257789 0.785077 -0.076027
0.262730 0.785408 -0.075953
0.267805 0.783023 -0.075935
0.272988 0.777674 -0.075980
0.278004 0.775222 -0.075957
0.282951 0.774052 -0.075902
0.287802 0.775571 -0.075783
0.292627 0.778540 -0.075628
0.297437 0.783445 -0.075425
0.302363 0.784032 -0.075316
0.307280 0.785805 -0.075175
0.312245 0.783374 -0.075126
0.317182 0.782456 -0.075039
0.322110 0.781640 -0.074947
0.327039 0.782190 -0.074818
0.331962 0.781680 -0.074711
0.336897 0.782302 -0.074573
0.341823 0.782124 -0.074450
0.346790 0.783704 -0.074281
0.351827 0.787159 -0.074063
0.356622 0.782409 -0.074036
0.361441 0.779380 -0.073965
0.366390 0.780023 -0.073801
0.371232 0.778257 -0.073692
0.376110 0.777451 -0.073555
0.381116 0.779007 -0.073355
0.386003 0.778332 -0.073206
0.391062 0.780340 -0.072986
0.396071 0.781334 -0.072785
0.400941 0.780298 -0.072631
0.405881 0.780208 -0.072448
0.410764 0.779413 -0.072278
0.415718 0.779461 -0.072082
0.420700 0.779750 -0.071874
0.425724 0.780395 -0.071651
0.430667 0.780144 -0.071446
0.435708 0.780782 -0.071212
0.440744 0.781268 -0.070977
0.445563 0.779802 -0.070788
0.450402 0.778561 -0.070587
0.455466 0.779148 -0.070331
0.460643 0.780504 -0.070048
0.465961 0.782759 -0.069732
0.471290 0.784886 -0.069413
0.476356 0.784997 -0.069143
0.481132 0.783093 -0.068924
0.486064 0.782266 -0.068669
0.491234 0.782927 -0.068364
0.496576 0.784553 -0.068023
0.501790 0.785254 -0.067701
0.506691 0.784048 -0.067429
0.511717 0.783550 -0.067129
0.517099 0.784965 -0.066764
0.522143 0.784438 -0.066450
0.527391 0.784940 -0.066096
0.532736 0.785843 -0.065722
0.537828 0.785380 -0.065384
0.542985 0.785191 -0.065029
0.547998 0.784259 -0.064690
0.553056 0.783511 -0.064338
0.558428 0.784154 -0.063932
0.563903 0.785160 -0.063505
0.569243 0.785467 -0.063094
0.574437 0.785071 -0.062698
0.579688 0.784863 -0.062288
0.584775 0.783928 -0.061896
0.590207 0.784337 -0.061450
0.595595 0.784496 -0.061004
0.601240 0.785571 -0.060517
0.607095 0.787331 -0.059997
0.612674 0.787939 -0.059511
0.618844 0.790609 -0.058940
0.624252 0.790399 -0.058470
0.629486 0.789526 -0.058019
0.634699 0.788550 -0.057567
0.640060 0.788054 -0.057092
0.645323 0.787190 -0.056628
0.650155 0.784895 -0.056218
0.657311 0.790109 -0.055500
0.663351 0.791573 -0.054929
0.670209 0.795495 -0.054253
0.675608 0.794779 -0.053768
0.680167 0.791517 -0.053393
0.686983 0.795036 -0.052729
0.699005 0.813661 -0.051404
0.703759 0.810754 -0.051016
0.706275 0.801561 -0.050917
0.710812 0.798287 -0.050565
0.717637 0.801421 -0.049933
0.726228 0.809276 -0.049092
0.735024 0.817478 -0.048238
0.739442 0.813895 -0.047942
0.743167 0.808628 -0.047744
0.753071 0.819450 -0.046800
0.751476 0.800816 -0.047280
0.752904 0.790296 -0.047400
0.757849 0.788813 -0.047110
0.763804 0.789907 -0.046717
0.769824 0.791203 -0.046339
0.776943 0.795175 -0.045853
0.801140 0.839423 -0.043388
0.813144 0.854320 -0.042400
0.810415 0.835021 -0.043153
0.814385 0.831538 -0.043148
0.809982 0.809368 -0.044120
0.822494 0.825522 -0.043192
0.824381 0.818007 -0.043493
0.831155 0.821451 -0.043274
0.844889 0.828925 -0.042909
0.847217 0.823125 -0.043261
0.855170 0.829391 -0.043037
0.850920 0.810270 -0.044128
0.847205 0.792731 -0.045167
0.863218 0.815991 -0.044189
-0.307068 0.734969 -0.070199
-0.308307 0.744851 -0.069552
-0.305501 0.748269 -0.069118
-0.300170 0.747617 -0.068833
-0.293142 0.744197 -0.068661
-0.287999 0.744048 -0.068424
-0.283199 0.744595 -0.068197
-0.279102 0.746482 -0.067960
-0.275029 0.748549 -0.067749
-0.271271 0.751317 -0.067548
-0.266218 0.751932 -0.067444
-0.259435 0.749548 -0.067465
-0.254480 0.750532 -0.067412
-0.249458 0.751505 -0.067390
-0.244090 0.751943 -0.067415
-0.238593 0.752232 -0.067473
-0.233579 0.753515 -0.067527
-0.227968 0.753755 -0.067641
-0.222879 0.755072 -0.067747
-0.218191 0.757255 -0.067851
-0.210740 0.754090 -0.068139
-0.207464 0.759222 -0.068198
-0.201457 0.758998 -0.068438
-0.194994 0.757871 -0.068722
-0.187770 0.755170 -0.069068
-0.181958 0.755365 -0.069342
-0.176944 0.757261 -0.069580
-0.171250 0.757749 -0.069871
-0.166088 0.759396 -0.070138
-0.160009 0.759065 -0.070469
-0.152049 0.754536 -0.070922
-0.146809 0.755978 -0.071214
-0.142043 0.758510 -0.071482
-0.136965 0.760352 -0.071773
-0.132566 0.763792 -0.072023
-0.127530 0.765775 -0.072314
-0.122397 0.767530 -0.072611
-0.117053 0.768775 -0.072921
-0.111058 0.768399 -0.073269
-0.105077 0.767993 -0.073615
-0.099039 0.767373 -0.073961
-0.092103 0.764377 -0.074360
-0.085011 0.760830 -0.074764
-0.080178 0.763074 -0.075026
-0.074873 0.764058 -0.075312
-0.068342 0.761679 -0.075669
-0.063400 0.763536 -0.075922
-0.059621 0.768632 -0.076097
-0.054012 0.768625 -0.076381
-0.048834 0.769791 -0.076631
-0.042960 0.768889 -0.076919
-0.040197 0.777122 -0.077005
-0.036937 0.784046 -0.077114
-0.029990 0.779831 -0.077450
-0.022684 0.774298 -0.077804
-0.018214 0.777480 -0.077970
-0.012813 0.777706 -0.078189
-0.010558 0.788147 -0.078197
-0.005073 0.788147 -0.078407
0.002227 0.781946 -0.078731
0.007189 0.783498 -0.078894
0.011503 0.787305 -0.079007
0.018462 0.781768 -0.079291
0.027099 0.769888 -0.079686
0.034668 0.761448 -0.080006
0.039055 0.764588 -0.080101
0.043640 0.767027 -0.080202
0.048126 0.769884 -0.080290
0.053695 0.768483 -0.080449
0.057221 0.775253 -0.080453
0.060987 0.781248 -0.080466
0.065781 0.783085 -0.080548
0.071348 0.781608 -0.080682
0.076426 0.782163 -0.080774
0.080768 0.785997 -0.080803
0.086125 0.785273 -0.080905
0.089803 0.792358 -0.080866
0.093775 0.798303 -0.080841
0.099527 0.795703 -0.080959
0.107328 0.782587 -0.081252
0.112477 0.782477 -0.081314
0.118949 0.775299 -0.081492
0.122278 0.784779 -0.081380
0.126608 0.789129 -0.081351
0.130985 0.793388 -0.081319
0.136179 0.793027 -0.081360
0.142321 0.786844 -0.081494
0.149025 0.776750 -0.081690
0.154969 0.770873 -0.081809
0.160027 0.770451 -0.081831
0.165045 0.770231 -0.081845
0.169459 0.774212 -0.081785
0.173434 0.781624 -0.081662
0.177225 0.790897 -0.081503
0.182272 0.790964 -0.081495
0.187850 0.786666 -0.081557
0.193314 0.782945 -0.081605
0.198403 0.782174 -0.081599
0.203566 0.780610 -0.081602
0.207318 0.792379 -0.081376
0.212416 0.791696 -0.081356
0.217160 0.794622 -0.081271
0.222594 0.790176 -0.081308
0.227930 0.786350 -0.081331
0.232164 0.795606 -0.081126
0.237485 0.791741 -0.081142
0.243160 0.782423 -0.081248
0.247971 0.784581 -0.081154
0.252807 0.786625 -0.081057
0.257500 0.791391 -0.080910
0.262550 0.790271 -0.080861
0.267872 0.783334 -0.080910
0.272943 0.780572 -0.080884
0.278051 0.776187 -0.080882
0.283035 0.774132 -0.080837
0.287953 0.773546 -0.080762
0.292786 0.775946 -0.080631
0.297509 0.784449 -0.080385
0.302390 0.788106 -0.080222
0.307323 0.790210 -0.080083
0.312287 0.790765 -0.079968
0.317256 0.790916 -0.079857
0.322219 0.786334 -0.079829
0.327149 0.783157 -0.079772
0.332090 0.783743 -0.079642
0.337108 0.789100 -0.079419
0.342203 0.795860 -0.079163
0.347238 0.797552 -0.078999
0.352269 0.798533 -0.078843
0.357061 0.792115 -0.078826
0.361804 0.785883 -0.078803
0.366737 0.785445 -0.078664
0.371627 0.784130 -0.078538
0.377161 0.795425 -0.078158
0.382301 0.797881 -0.077947
0.386995 0.792608 -0.077887
0.391726 0.788597 -0.077798
0.396256 0.782203 -0.077754
0.401191 0.781964 -0.077580
0.406107 0.781482 -0.077407
0.411078 0.781659 -0.077215
0.416990 0.792383 -0.076796
0.422319 0.795748 -0.076524
0.426668 0.788728 -0.076469
0.431831 0.790245 -0.076226
0.436765 0.789439 -0.076028
0.441471 0.786616 -0.075869
0.446061 0.782963 -0.075725
0.451280 0.784738 -0.075454
0.457082 0.790971 -0.075074
0.461389 0.785234 -0.074961
0.466567 0.786288 -0.074687
0.471994 0.788996 -0.074368
0.476958 0.788265 -0.074122
0.481786 0.786616 -0.073892
0.486517 0.784380 -0.073670
0.491617 0.784543 -0.073384
0.496814 0.785227 -0.073079
0.502043 0.786013 -0.072763
0.506890 0.784471 -0.072499
0.511928 0.784034 -0.072200
0.517305 0.785415 -0.071847
0.522370 0.784996 -0.071534
0.527342 0.784046 -0.071227
0.532518 0.784120 -0.070885
0.537928 0.785283 -0.070506
0.543421 0.786734 -0.070111
0.548513 0.786144 -0.069764
0.553384 0.784497 -0.069439
0.559031 0.786367 -0.069007
0.564315 0.786480 -0.068616
0.569773 0.787275 -0.068197
0.574793 0.786111 -0.067828
0.579844 0.785051 -0.067448
0.584798 0.783570 -0.067075
0.590054 0.783291 -0.066657
0.596169 0.786323 -0.066129
0.601810 0.787344 -0.065654
0.607124 0.787032 -0.065214
0.612357 0.786363 -0.064778
0.618071 0.787402 -0.064280
0.623982 0.789044 -0.063753
0.630063 0.791161 -0.063203
0.634617 0.787881 -0.062830
0.640099 0.787796 -0.062343
0.646148 0.789548 -0.061787
0.652411 0.791884 -0.061204
0.656745 0.787886 -0.060843
0.662568 0.788680 -0.060307
0.668354 0.789291 -0.059776
0.674292 0.790310 -0.059227
0.679905 0.790275 -0.058716
0.685020 0.788731 -0.058264
0.690858 0.789323 -0.057733
0.696926 0.790535 -0.057179
0.702547 0.790429 -0.056680
0.709927 0.795235 -0.055990
0.714379 0.791825 -0.055637
0.720222 0.792298 -0.055135
0.732036 0.808772 -0.053979
0.737883 0.809037 -0.053501
0.741374 0.803174 -0.053296
0.743796 0.794752 -0.053220
0.756788 0.813428 -0.051999
0.753081 0.789824 -0.052622
0.759037 0.790784 -0.052206
0.764990 0.791777 -0.051809
0.770028 0.790608 -0.051531
0.779392 0.799861 -0.050813
0.808806 0.856220 -0.047995
0.806191 0.836780 -0.048610
0.807744 0.827484 -0.048802
0.803142 0.804490 -0.049653
0.812796 0.814214 -0.049046
0.817915 0.813744 -0.048937
0.820923 0.808754 -0.049068
0.825844 0.808165 -0.049031
0.851420 0.841053 -0.047489
0.854477 0.836611 -0.047731
0.848416 0.813266 -0.048877
0.847445 0.801067 -0.049540
0.851105 0.798765 -0.049782
0.864807 0.817139 -0.049112
-0.317921 0.751218 -0.074670
-0.309081 0.744649 -0.074481
-0.306002 0.747666 -0.074090
-0.302240 0.749701 -0.073751
-0.296268 0.748151 -0.073533
-0.289510 0.745350 -0.073378
-0.284547 0.745693 -0.073175
-0.279972 0.746827 -0.072984
-0.276448 0.749924 -0.072773
-0.273254 0.753767 -0.072573
-0.267520 0.753261 -0.072518
-0.260394 0.750344 -0.072556
-0.255112 0.750812 -0.072537
-0.250292 0.752225 -0.072523
-0.245045 0.752961 -0.072556
-0.239757 0.753718 -0.072616
-0.233791 0.753282 -0.072734
-0.227966 0.753176 -0.072870
-0.223682 0.756100 -0.072952
-0.218894 0.758159 -0.073080
-0.213450 0.759019 -0.073260
-0.207289 0.758508 -0.073495
-0.202332 0.760448 -0.073687
-0.195426 0.758483 -0.073992
-0.188706 0.756874 -0.074303
-0.192590 0.777369 -0.074096
-0.184407 0.772874 -0.074504
-0.174049 0.763620 -0.075031
-0.167714 0.762836 -0.075365
-0.163687 0.767073 -0.075592
-0.158703 0.769272 -0.075872
-0.151241 0.765937 -0.076281
-0.150679 0.778177 -0.076350
-0.148922 0.787945 -0.076482
-0.135758 0.771310 -0.077181
-0.128884 0.769062 -0.077568
-0.125961 0.776170 -0.077760
-0.123878 0.785459 -0.077910
-0.113908 0.775539 -0.078446
-0.105263 0.768596 -0.078913
-0.101358 0.773385 -0.079145
-0.094587 0.770899 -0.079514
-0.085648 0.762646 -0.079984
-0.080252 0.763434 -0.080276
-0.074861 0.764195 -0.080563
-0.068344 0.761854 -0.080899
-0.064857 0.767723 -0.081083
-0.060853 0.772250 -0.081286
-0.055457 0.772900 -0.081551
-0.049464 0.771781 -0.081838
-0.043930 0.771900 -0.082097
-0.040498 0.778193 -0.082247
-0.036009 0.781427 -0.082441
-0.025452 0.766115 -0.082924
-0.019435 0.764364 -0.083180
-0.017652 0.775875 -0.083222
-0.012968 0.778374 -0.083399
-0.007397 0.777993 -0.083612
-0.006550 0.793220 -0.083585
0.000093 0.789322 -0.083837
0.004982 0.791248 -0.083996
0.009846 0.793263 -0.084146
0.018027 0.783476 -0.084458
0.026983 0.770466 -0.084804
0.033776 0.764892 -0.085035
0.039194 0.764219 -0.085191
0.043616 0.767270 -0.085288
0.048541 0.768416 -0.085405
0.053673 0.768723 -0.085527
0.057646 0.773685 -0.085581
0.061261 0.780271 -0.085608
0.067357 0.776584 -0.085764
0.073263 0.773507 -0.085905
0.077555 0.777351 -0.085950
0.081096 0.784686 -0.085945
0.086196 0.785113 -0.086024
0.090562 0.788964 -0.086053
0.095205 0.791596 -0.086092
0.100445 0.791364 -0.086161
0.106814 0.785366 -0.086298
0.112765 0.781181 -0.086405
0.117504 0.783153 -0.086431
0.122428 0.784171 -0.086463
0.126949 0.787443 -0.086462
0.131825 0.788804 -0.086481
0.136400 0.791960 -0.086472
0.141932 0.789450 -0.086528
0.148523 0.780143 -0.086662
0.154738 0.772634 -0.086769
0.159926 0.771415 -0.086795
0.164843 0.771921 -0.086796
0.169440 0.774672 -0.086765
0.173507 0.781435 -0.086681
0.177845 0.786586 -0.086612
0.183088 0.784964 -0.086622
0.188439 0.782296 -0.086640
0.194045 0.777219 -0.086684
0.198754 0.779569 -0.086633
0.203463 0.782079 -0.086576
0.208373 0.782832 -0.086537
0.212248 0.793997 -0.086366
0.217008 0.796892 -0.086293
0.222601 0.790815 -0.086327
0.227912 0.787337 -0.086325
0.232556 0.791620 -0.086223
0.238118 0.784389 -0.086261
0.243219 0.782593 -0.086228
0.247973 0.785660 -0.086131
0.252885 0.786591 -0.086056
0.257830 0.787070 -0.085984
0.262497 0.792760 -0.085841
0.267495 0.792706 -0.085769
0.273109 0.778733 -0.085872
0.278130 0.776354 -0.085824
0.283125 0.774062 -0.085771
0.288065 0.772790 -0.085702
0.292931 0.773885 -0.085598
0.297597 0.784734 -0.085360
0.302489 0.787953 -0.085220
0.307482 0.785258 -0.085155
0.312414 0.787269 -0.085023
0.317360 0.790467 -0.084871
0.322320 0.783804 -0.084851
0.327237 0.780240 -0.084786
0.332198 0.783817 -0.084617
0.337336 0.796822 -0.084310
0.342455 0.802883 -0.084096
0.347426 0.800571 -0.083997
0.352240 0.793546 -0.083963
0.356952 0.785367 -0.083944
0.361996 0.787834 -0.083765
0.367021 0.789294 -0.083597
0.372342 0.796680 -0.083335
0.377267 0.795089 -0.083203
0.382145 0.792904 -0.083076
0.387078 0.791902 -0.082927
0.391739 0.786869 -0.082838
0.396431 0.782881 -0.082729
0.401264 0.781237 -0.082579
0.406282 0.782063 -0.082385
0.411410 0.784056 -0.082166
0.417010 0.791120 -0.081859
0.422690 0.798294 -0.081542
0.427499 0.795852 -0.081380
0.432454 0.795018 -0.081186
0.437401 0.794123 -0.080988
0.442281 0.792653 -0.080795
0.447112 0.790829 -0.080603
0.453686 0.803481 -0.080148
0.459986 0.812965 -0.079739
0.462801 0.795017 -0.079821
0.467820 0.794557 -0.079582
0.472909 0.794573 -0.079328
0.478494 0.797962 -0.079003
0.483631 0.798076 -0.078734
0.489663 0.803945 -0.078345
0.494902 0.804407 -0.078054
0.497995 0.791644 -0.078020
0.505065 0.803202 -0.077493
0.508788 0.794694 -0.077365
0.512860 0.788546 -0.077186
0.517501 0.785779 -0.076931
0.522559 0.785318 -0.076622
0.527590 0.784672 -0.076309
0.532465 0.783204 -0.076007
0.538765 0.788815 -0.075540
0.544008 0.788971 -0.075186
0.548938 0.787572 -0.074860
0.554544 0.789298 -0.074454
0.559629 0.788523 -0.074098
0.565023 0.789083 -0.073702
0.570431 0.789612 -0.073299
0.575771 0.789763 -0.072897
0.579882 0.784722 -0.072617
0.585191 0.784699 -0.072206
0.590521 0.784697 -0.071785
0.595888 0.784768 -0.071355
0.602350 0.788981 -0.070807
0.607280 0.787188 -0.070410
0.612458 0.786312 -0.069983
0.617687 0.785588 -0.069544
0.623459 0.786764 -0.069046
0.630069 0.790770 -0.068458
0.634299 0.786376 -0.068106
0.640249 0.787900 -0.067577
0.646209 0.789341 -0.067043
0.651808 0.789501 -0.066542
0.657592 0.790195 -0.066020
0.662204 0.787108 -0.065613
0.667451 0.786050 -0.065142
0.673092 0.786186 -0.064630
0.678617 0.785933 -0.064130
0.684516 0.786760 -0.063594
0.690706 0.788384 -0.063031
0.696245 0.788058 -0.062536
0.701685 0.787442 -0.062055
0.707423 0.787665 -0.061549
0.713363 0.788427 -0.061030
0.718925 0.788142 -0.060556
0.724274 0.787299 -0.060111
0.730266 0.788193 -0.059614
0.736402 0.789459 -0.059114
0.742142 0.789701 -0.058667
0.747598 0.789253 -0.058261
0.753916 0.791021 -0.057788
0.760254 0.792844 -0.057330
0.765449 0.791892 -0.057001
0.770170 0.789890 -0.056738
0.774541 0.787179 -0.056528
0.783196 0.794697 -0.055933
0.787935 0.793021 -0.055734
0.792337 0.790707 -0.055590
0.799426 0.794658 -0.055220
0.805316 0.795934 -0.054989
0.810205 0.795069 -0.054878
0.815661 0.795593 -0.054741
0.819938 0.793659 -0.054738
0.825387 0.794417 -0.054657
0.831775 0.797293 -0.054521
0.834778 0.793090 -0.054712
0.838934 0.791516 -0.054827
0.843783 0.791542 -0.054908
0.849329 0.793136 -0.054957
0.850024 0.784950 -0.055441
-0.312733 0.741234 -0.079825
-0.310619 0.745732 -0.079408
-0.307487 0.748727 -0.079048
-0.304115 0.751482 -0.078721
-0.297626 0.749141 -0.078528
-0.292190 0.748664 -0.078328
-0.287109 0.748900 -0.078145
-0.281688 0.748664 -0.078003
-0.276962 0.749744 -0.077865
-0.272073 0.750663 -0.077762
-0.267090 0.751534 -0.077690
-0.262517 0.753255 -0.077631
-0.257630 0.754534 -0.077611
-0.250578 0.751967 -0.077702
-0.245965 0.753939 -0.077725
-0.241008 0.755389 -0.077787
-0.234680 0.754354 -0.077927
-0.229196 0.754969 -0.078058
-0.224431 0.757046 -0.078182
-0.219522 0.758937 -0.078333
-0.213647 0.759011 -0.078542
-0.206847 0.757281 -0.078805
-0.200876 0.757211 -0.079052
-0.194418 0.756171 -0.079334
-0.189853 0.759025 -0.079553
-0.191954 0.775862 -0.079523
-0.189671 0.783847 -0.079677
-0.177063 0.769954 -0.080247
-0.168066 0.763523 -0.080681
-0.163579 0.766789 -0.080945
-0.157527 0.766643 -0.081276
-0.155165 0.774753 -0.081469
-0.152893 0.783238 -0.081662
-0.149502 0.789326 -0.081902
-0.144147 0.790949 -0.082217
-0.127070 0.764853 -0.082972
-0.123136 0.769496 -0.083231
-0.121531 0.779868 -0.083403
-0.109050 0.763701 -0.083974
-0.105782 0.770013 -0.084203
-0.101296 0.773361 -0.084473
-0.093808 0.769042 -0.084847
-0.086210 0.764250 -0.085220
-0.079706 0.762142 -0.085547
-0.073369 0.760354 -0.085863
-0.068483 0.762384 -0.086122
-0.066336 0.771950 -0.086280
-0.063397 0.779515 -0.086461
-0.050258 0.758312 -0.086987
-0.045547 0.760660 -0.087215
-0.041050 0.763638 -0.087430
-0.040646 0.778789 -0.087499
-0.034676 0.777564 -0.087751
-0.027174 0.771539 -0.088047
-0.022033 0.772598 -0.088257
-0.018675 0.779260 -0.088400
-0.014075 0.782082 -0.088577
-0.006000 0.773574 -0.088864
-0.000945 0.774747 -0.089043
-0.000606 0.791827 -0.089058
0.005429 0.789853 -0.089256
0.011239 0.788531 -0.089440
0.018814 0.780814 -0.089675
0.027499 0.768730 -0.089942
0.033890 0.764607 -0.090126
0.038511 0.766919 -0.090244
0.043507 0.767822 -0.090368
0.048187 0.769928 -0.090476
0.052970 0.771650 -0.090580
0.055785 0.781369 -0.090611
0.061775 0.778275 -0.090744
0.068930 0.770072 -0.090914
0.074426 0.768627 -0.091020
0.079569 0.768613 -0.091108
0.081494 0.783032 -0.091074
0.085652 0.787764 -0.091113
0.090725 0.788343 -0.091181
0.096693 0.784588 -0.091277
0.100692 0.790304 -0.091293
0.106091 0.789178 -0.091357
0.110832 0.791344 -0.091391
0.116103 0.790760 -0.091441
0.121052 0.791842 -0.091472
0.127028 0.787195 -0.091543
0.132135 0.787230 -0.091573
0.137233 0.787274 -0.091598
0.142300 0.787449 -0.091617
0.148064 0.783248 -0.091665
0.154439 0.774808 -0.091740
0.159763 0.772763 -0.091762
0.164821 0.772358 -0.091768
0.169450 0.774907 -0.091748
0.173711 0.780279 -0.091702
0.178273 0.783702 -0.091667
0.183618 0.781190 -0.091672
0.189624 0.773062 -0.091716
0.194581 0.773123 -0.091694
0.199457 0.773848 -0.091664
0.203818 0.779327 -0.091594
0.208212 0.784929 -0.091518
0.212960 0.787449 -0.091463
0.217393 0.793490 -0.091376
0.223427 0.782381 -0.091418
0.228821 0.777498 -0.091410
0.232889 0.788351 -0.091274
0.237605 0.791996 -0.091191
0.242888 0.788181 -0.091164
0.247496 0.793831 -0.091058
0.252737 0.790167 -0.091023
0.258095 0.783850 -0.091006
0.262685 0.790753 -0.090879
0.267742 0.789358 -0.090815
0.273195 0.778661 -0.090827
0.278229 0.776014 -0.090768
0.283183 0.774887 -0.090694
0.288140 0.773290 -0.090621
0.293024 0.773854 -0.090526
0.297589 0.789541 -0.090296
0.302618 0.786055 -0.090229
0.307664 0.778479 -0.090195
0.312601 0.776013 -0.090113
0.317509 0.775140 -0.090014
0.322411 0.775187 -0.089903
0.327345 0.780353 -0.089741
0.332387 0.791191 -0.089521
0.337465 0.797923 -0.089334
0.342513 0.800042 -0.089186
0.347421 0.795601 -0.089098
0.352170 0.787092 -0.089048
0.356910 0.780624 -0.088975
0.361829 0.780338 -0.088838
0.367318 0.793363 -0.088559
0.372389 0.795044 -0.088392
0.377402 0.795270 -0.088235
0.381909 0.786496 -0.088171
0.386764 0.784672 -0.088029
0.391522 0.781613 -0.087897
0.396340 0.779741 -0.087749
0.401358 0.780737 -0.087564
0.406369 0.781483 -0.087377
0.411546 0.784082 -0.087163
0.416902 0.788382 -0.086924
0.422152 0.791071 -0.086698
0.427556 0.795036 -0.086450
0.432008 0.789323 -0.086316
0.437041 0.789471 -0.086105
0.441803 0.787144 -0.085920
0.447625 0.794030 -0.085611
0.453898 0.804066 -0.085252
0.459700 0.809559 -0.084944
0.464595 0.807671 -0.084729
0.466825 0.786158 -0.084781
0.473265 0.796107 -0.084392
0.479366 0.803008 -0.084037
0.484329 0.801806 -0.083790
0.489555 0.802322 -0.083512
0.494795 0.802844 -0.083227
0.500905 0.808594 -0.082855
0.505131 0.802760 -0.082654
0.510251 0.802355 -0.082363
0.512910 0.788058 -0.082289
0.517702 0.786132 -0.082013
0.522742 0.785569 -0.081708
0.527721 0.784655 -0.081403
0.533166 0.786089 -0.081049
0.539332 0.790968 -0.080627
0.546039 0.798174 -0.080152
0.551720 0.800127 -0.079760
0.556208 0.796401 -0.079466
0.563108 0.803691 -0.078957
0.566786 0.796326 -0.078718
0.571439 0.793432 -0.078388
0.577409 0.796179 -0.077940
0.583033 0.797308 -0.077514
0.588425 0.797379 -0.077101
0.593476 0.796009 -0.076712
0.599107 0.796900 -0.076266
0.602849 0.790428 -0.075973
0.608509 0.791363 -0.075513
0.612737 0.786896 -0.075167
0.618542 0.788254 -0.074683
0.624361 0.789545 -0.074192
0.629781 0.789328 -0.073729
0.634812 0.787718 -0.073294
0.640651 0.788834 -0.072786
0.646206 0.788906 -0.072299
0.651708 0.788748 -0.071811
0.657177 0.788430 -0.071324
0.663188 0.789785 -0.070788
0.668303 0.788260 -0.070326
0.673149 0.785911 -0.069886
0.678754 0.785882 -0.069381
0.684589 0.786500 -0.068856
0.690656 0.787743 -0.068313
0.696722 0.788916 -0.067773
0.701712 0.786982 -0.067327
0.707094 0.786179 -0.066852
0.714155 0.790017 -0.066240
0.719431 0.788892 -0.065787
0.724757 0.787934 -0.065337
0.730596 0.788369 -0.064854
0.736773 0.789689 -0.064352
0.742713 0.790387 -0.063883
0.748263 0.790112 -0.063461
0.753901 0.790106 -0.063047
0.760567 0.792688 -0.062562
0.766358 0.793128 -0.062169
0.770049 0.788564 -0.061973
0.775265 0.787813 -0.061668
0.782874 0.792785 -0.061185
0.788545 0.793226 -0.060888
0.793850 0.792911 -0.060646
0.798884 0.792087 -0.060450
0.805383 0.794682 -0.060161
0.810650 0.794594 -0.059999
0.816148 0.795134 -0.059846
0.821262 0.794949 -0.059752
0.826973 0.796181 -0.059638
0.832344 0.796792 -0.059579
0.837657 0.797401 -0.059554
0.840266 0.792480 -0.059766
0.846883 0.796086 -0.059696
0.849750 0.792066 -0.059940
0.858025 0.799256 -0.059804
-0.312714 0.739738 -0.084788
-0.312425 0.747279 -0.084364
-0.309072 0.749976 -0.084039
-0.302974 0.748246 -0.083810
-0.298057 0.748592 -0.083580
-0.293063 0.748929 -0.083381
-0.288402 0.749953 -0.083202
-0.283060 0.749930 -0.083071
-0.276273 0.747494 -0.083010
-0.271007 0.747795 -0.082936
-0.266547 0.749635 -0.082868
-0.262381 0.752135 -0.082819
-0.256779 0.752176 -0.082839
-0.250861 0.751729 -0.082896
-0.246625 0.754459 -0.082929
-0.241587 0.755827 -0.083011
-0.235409 0.755141 -0.083151
-0.229826 0.755639 -0.083296
-0.225069 0.757794 -0.083439
-0.219824 0.759095 -0.083616
-0.214299 0.759915 -0.083820
-0.205338 0.753942 -0.084144
-0.200058 0.755276 -0.084375
-0.194919 0.756946 -0.084615
-0.189275 0.757624 -0.084883
-0.192416 0.776652 -0.084908
-0.187731 0.779612 -0.085173
-0.171816 0.758639 -0.085765
-0.166955 0.761044 -0.086048
-0.161778 0.762796 -0.086345
-0.158477 0.768728 -0.086596
-0.156346 0.777404 -0.086820
-0.151209 0.779430 -0.087130
-0.146994 0.783589 -0.087416
-0.136849 0.773972 -0.087858
-0.131303 0.774929 -0.088178
-0.121293 0.765161 -0.088609
-0.113273 0.759910 -0.088985
-0.109871 0.765822 -0.089243
-0.104576 0.767115 -0.089545
-0.098400 0.766152 -0.089863
-0.092890 0.766808 -0.090161
-0.084826 0.760774 -0.090512
-0.079605 0.762004 -0.090792
-0.073372 0.760491 -0.091088
-0.068290 0.761992 -0.091353
-0.065209 0.768979 -0.091570
-0.060566 0.771739 -0.091814
-0.051400 0.761684 -0.092145
-0.045524 0.760728 -0.092400
-0.040272 0.761498 -0.092635
-0.042299 0.783827 -0.092723
-0.037098 0.784997 -0.092946
-0.032099 0.786753 -0.093158
-0.024739 0.781146 -0.093406
-0.020237 0.784324 -0.093595
-0.015571 0.787013 -0.093780
-0.009772 0.786021 -0.093978
-0.003414 0.783071 -0.094178
0.002228 0.782369 -0.094358
0.007935 0.781355 -0.094532
0.014979 0.775566 -0.094721
0.021044 0.772987 -0.094886
0.028365 0.765702 -0.095065
0.033443 0.766365 -0.095201
0.038611 0.766651 -0.095331
0.043510 0.767918 -0.095451
0.048296 0.769610 -0.095563
0.052145 0.775043 -0.095655
0.053483 0.790820 -0.095702
0.060046 0.785545 -0.095823
0.069233 0.768903 -0.095978
0.074599 0.767992 -0.096069
0.079578 0.768689 -0.096148
0.079854 0.790535 -0.096152
0.085132 0.790276 -0.096225
0.091596 0.784373 -0.096310
0.097701 0.779867 -0.096385
0.102148 0.783264 -0.096429
0.107196 0.783743 -0.096477
0.111792 0.786531 -0.096514
0.116883 0.786781 -0.096553
0.122038 0.786645 -0.096588
0.127537 0.784530 -0.096625
0.132352 0.786171 -0.096645
0.137609 0.785248 -0.096669
0.142907 0.783982 -0.096688
0.147640 0.786110 -0.096694
0.154342 0.775668 -0.096731
0.159733 0.773211 -0.096741
0.164948 0.771756 -0.096744
0.169671 0.773637 -0.096734
0.173990 0.778550 -0.096711
0.178444 0.782744 -0.096686
0.183861 0.779648 -0.096678
0.189522 0.774282 -0.096673
0.194743 0.772169 -0.096655
0.199386 0.774929 -0.096619
0.203867 0.779370 -0.096574
0.208163 0.785934 -0.096519
0.212662 0.791018 -0.096465
0.217774 0.790112 -0.096425
0.223274 0.784762 -0.096396
0.228734 0.779256 -0.096364
0.233687 0.779328 -0.096312
0.237320 0.796631 -0.096199
0.242735 0.791295 -0.096157
0.247594 0.793464 -0.096087
0.252770 0.790836 -0.096030
0.257875 0.788960 -0.095967
0.262876 0.788658 -0.095895
0.267997 0.785810 -0.095830
0.273328 0.777552 -0.095782
0.278320 0.775882 -0.095707
0.283258 0.775247 -0.095625
0.288205 0.774097 -0.095542
0.293116 0.773860 -0.095452
0.297714 0.788141 -0.095299
0.302624 0.791550 -0.095186
0.307739 0.780439 -0.095132
0.312698 0.776472 -0.095045
0.317612 0.775311 -0.094943
0.322516 0.775034 -0.094834
0.327482 0.785041 -0.094673
0.332519 0.793139 -0.094516
0.337547 0.795836 -0.094380
0.342452 0.791169 -0.094277
0.347357 0.788250 -0.094163
0.352371 0.789913 -0.094021
0.357113 0.783069 -0.093921
0.362118 0.784670 -0.093773
0.367397 0.792282 -0.093586
0.372659 0.798049 -0.093404
0.377517 0.795011 -0.093269
0.382184 0.789063 -0.093148
0.386954 0.785647 -0.093009
0.391617 0.781052 -0.092875
0.396528 0.780524 -0.092711
0.401488 0.780690 -0.092538
0.406544 0.781985 -0.092353
0.411642 0.783593 -0.092161
0.417010 0.788035 -0.091943
0.422380 0.792004 -0.091723
0.426507 0.782919 -0.091595
0.431186 0.779958 -0.091418
0.436011 0.778573 -0.091225
0.441017 0.778863 -0.091013
0.447549 0.792143 -0.090688
0.453764 0.801756 -0.090383
0.459038 0.803142 -0.090140
0.462206 0.788275 -0.090038
0.468617 0.798317 -0.089707
0.473669 0.797947 -0.089464
0.479655 0.803990 -0.089153
0.484457 0.801676 -0.088916
0.488352 0.793569 -0.088732
0.494556 0.800410 -0.088390
0.500367 0.804404 -0.088069
0.505257 0.802639 -0.087802
0.508506 0.791427 -0.087635
0.514615 0.796837 -0.087277
0.517793 0.785849 -0.087101
0.522789 0.785067 -0.086801
0.527955 0.785138 -0.086485
0.533014 0.784605 -0.086168
0.541511 0.801074 -0.085625
0.548014 0.807058 -0.085203
0.551641 0.799094 -0.084958
0.555852 0.794114 -0.084670
0.560643 0.791912 -0.084337
0.566444 0.794211 -0.083933
0.572107 0.795742 -0.083530
0.577916 0.797766 -0.083111
0.583966 0.800635 -0.082670
0.589479 0.801131 -0.082256
0.593403 0.795196 -0.081939
0.598602 0.794413 -0.081533
0.605696 0.800868 -0.080995
0.611840 0.803428 -0.080512
0.616755 0.801281 -0.080105
0.620334 0.794293 -0.079780
0.624885 0.790953 -0.079386
0.630022 0.789720 -0.078947
0.636153 0.791886 -0.078435
0.641209 0.790277 -0.077991
0.646710 0.790139 -0.077513
0.652509 0.790921 -0.077009
0.658765 0.793088 -0.076471
0.666156 0.798720 -0.075850
0.668750 0.789192 -0.075559
0.674380 0.789215 -0.075056
0.679724 0.788331 -0.074571
0.685745 0.789443 -0.074039
0.692443 0.792461 -0.073460
0.697334 0.790158 -0.073009
0.702430 0.788475 -0.072547
0.707801 0.787593 -0.072069
0.714913 0.791512 -0.071471
0.720122 0.790146 -0.071016
0.726294 0.791396 -0.070498
0.731536 0.790161 -0.070057
0.737598 0.791109 -0.069566
0.743425 0.791449 -0.069104
0.749041 0.791274 -0.068670
0.755021 0.792049 -0.068224
0.761546 0.794197 -0.067754
0.766246 0.791896 -0.067435
0.771001 0.789845 -0.067130
0.776370 0.789374 -0.066800
0.782523 0.790833 -0.066436
0.788885 0.792828 -0.066079
0.794398 0.792922 -0.065807
0.799838 0.792945 -0.065566
0.804203 0.790664 -0.065427
0.810900 0.793715 -0.065148
0.816599 0.794628 -0.064969
0.821885 0.794746 -0.064846
0.827480 0.795652 -0.064730
0.835504 0.801838 -0.064476
0.838425 0.797279 -0.064602
0.842802 0.795983 -0.064655
0.845848 0.792094 -0.064824
0.851291 0.793325 -0.064861
0.857539 0.796306 -0.064874
-0.315221 0.742386 -0.089721
-0.313095 0.746981 -0.089378
-0.309669 0.749612 -0.089082
-0.304299 0.749159 -0.088847
-0.298193 0.747576 -0.088655
-0.292985 0.747606 -0.088477
-0.288307 0.748654 -0.088318
-0.282998 0.748744 -0.088201
-0.278134 0.749718 -0.088104
-0.272106 0.748766 -0.088060
-0.267380 0.750209 -0.088019
-0.261956 0.750526 -0.088020
-0.256728 0.751294 -0.088045
-0.250931 0.751124 -0.088108
-0.246235 0.753062 -0.088175
-0.241590 0.755211 -0.088265
-0.235780 0.755274 -0.088403
-0.230228 0.755892 -0.088559
-0.225281 0.757741 -0.088723
-0.220058 0.759137 -0.088912
-0.214570 0.760082 -0.089126
-0.208440 0.759798 -0.089368
-0.200637 0.756163 -0.089658
-0.195269 0.757421 -0.089914
-0.190300 0.759538 -0.090175
-0.189249 0.769877 -0.090374
-0.184138 0.771892 -0.090660
-0.171359 0.757559 -0.091088
-0.166403 0.759775 -0.091383
-0.162245 0.763770 -0.091669
-0.162041 0.776602 -0.091897
-0.159135 0.783660 -0.092174
-0.150922 0.778788 -0.092538
-0.142854 0.774081 -0.092897
-0.136241 0.772598 -0.093232
-0.133374 0.779883 -0.093513
-0.124433 0.772752 -0.093876
-0.113087 0.759536 -0.094262
-0.111187 0.769147 -0.094524
-0.104925 0.768076 -0.094837
-0.097043 0.762819 -0.095161
-0.089868 0.759162 -0.095471
-0.084992 0.761314 -0.095751
-0.079719 0.762412 -0.096029
-0.074454 0.763498 -0.096301
-0.067788 0.760744 -0.096578
-0.064106 0.766056 -0.096825
-0.059334 0.768413 -0.097075
-0.052402 0.764640 -0.097332
-0.046194 0.762769 -0.097576
-0.040852 0.763305 -0.097807
-0.040106 0.777428 -0.098009
-0.039379 0.791985 -0.098209
-0.034022 0.792751 -0.098424
-0.024899 0.781749 -0.098643
-0.018943 0.780335 -0.098842
-0.014181 0.782646 -0.099031
-0.012145 0.793873 -0.099209
-0.004583 0.787051 -0.099389
0.002775 0.780616 -0.099560
0.010968 0.771024 -0.099721
0.015943 0.772282 -0.099873
0.022189 0.769001 -0.100018
0.027736 0.768070 -0.100156
0.032998 0.768091 -0.100288
0.038512 0.767106 -0.100412
0.043604 0.767642 -0.100530
0.048539 0.768748 -0.100643
0.053853 0.768327 -0.100748
0.054483 0.786847 -0.100866
0.062695 0.774660 -0.100948
0.068968 0.770110 -0.101030
0.074474 0.768619 -0.101110
0.079128 0.770763 -0.101188
0.080783 0.786450 -0.101281
0.085962 0.786558 -0.101347
0.091461 0.785108 -0.101405
0.097288 0.781961 -0.101455
0.102198 0.783132 -0.101506
0.107591 0.781866 -0.101549
0.113172 0.779516 -0.101584
0.117939 0.781316 -0.101622
0.123095 0.781038 -0.101652
0.127800 0.783215 -0.101681
0.132609 0.784859 -0.101704
0.137431 0.786472 -0.101724
0.142541 0.786386 -0.101735
0.148917 0.778341 -0.101728
0.154595 0.774255 -0.101724
0.159688 0.773739 -0.101722
0.164899 0.772344 -0.101715
0.169852 0.772625 -0.101707
0.174217 0.777185 -0.101702
0.178069 0.785904 -0.101702
0.183629 0.781807 -0.101674
0.189682 0.773347 -0.101636
0.194749 0.772512 -0.101607
0.199514 0.774233 -0.101579
0.203791 0.780540 -0.101555
0.207929 0.788692 -0.101531
0.212768 0.790523 -0.101492
0.217269 0.796043 -0.101455
0.222703 0.791751 -0.101400
0.227976 0.788837 -0.101344
0.233367 0.784068 -0.101283
0.238624 0.780454 -0.101220
0.242891 0.790098 -0.101172
0.247793 0.791582 -0.101109
0.252737 0.792557 -0.101042
0.257660 0.794003 -0.100973
0.262730 0.792888 -0.100897
0.267961 0.788211 -0.100816
0.273532 0.774807 -0.100723
0.278486 0.773831 -0.100640
0.283319 0.776037 -0.100557
0.288272 0.774856 -0.100468
0.293240 0.772626 -0.100375
0.297747 0.791154 -0.100290
0.302797 0.787091 -0.100189
0.307853 0.779338 -0.100085
0.312800 0.776535 -0.099980
0.317717 0.774944 -0.099872
0.322629 0.778460 -0.099762
0.327629 0.790839 -0.099647
0.332687 0.798203 -0.099526
0.337641 0.794483 -0.099405
0.342560 0.790770 -0.099281
0.347433 0.786516 -0.099154
0.352450 0.788506 -0.099021
0.357543 0.792154 -0.098882
0.362456 0.790234 -0.098744
0.367651 0.795227 -0.098596
0.372713 0.796449 -0.098447
0.377584 0.793788 -0.098298
0.382354 0.789734 -0.098149
0.387253 0.788339 -0.097993
0.392125 0.786711 -0.097833
0.396721 0.781341 -0.097677
0.401652 0.781040 -0.097508
0.406682 0.781978 -0.097332
0.411799 0.783797 -0.097149
0.417322 0.789933 -0.096950
0.422470 0.791437 -0.096757
0.427065 0.787130 -0.096576
0.431377 0.780415 -0.096399
0.436212 0.779089 -0.096202
0.441279 0.779901 -0.095993
0.448788 0.801476 -0.095701
0.453845 0.801183 -0.095481
0.458993 0.801588 -0.095253
0.465824 0.814765 -0.094964
0.470599 0.811820 -0.094737
0.474165 0.800404 -0.094546
0.478716 0.796460 -0.094316
0.483402 0.793607 -0.094077
0.489993 0.803223 -0.093765
0.496011 0.808606 -0.093466
0.500594 0.804859 -0.093212
0.503453 0.791029 -0.093017
0.508879 0.792717 -0.092721
0.514594 0.795875 -0.092408
0.517880 0.785514 -0.092181
0.522804 0.784355 -0.091886
0.527971 0.784456 -0.091575
0.533194 0.784777 -0.091255
0.540581 0.795734 -0.090841
0.547457 0.803645 -0.090438
0.549849 0.789925 -0.090213
0.554367 0.786584 -0.089895
0.559972 0.788231 -0.089524
0.566649 0.794487 -0.089099
0.571539 0.792668 -0.088744
0.577563 0.795670 -0.088332
0.583077 0.796359 -0.087935
0.588939 0.798364 -0.087514
0.592548 0.791231 -0.087190
0.597929 0.791241 -0.086778
0.605055 0.797875 -0.086277
0.616689 0.821177 -0.085550
0.618826 0.808432 -0.085270
0.622612 0.802068 -0.084907
0.626600 0.796584 -0.084530
0.631958 0.796020 -0.084079
0.636524 0.792688 -0.083662
0.641629 0.791226 -0.083214
0.646953 0.790482 -0.082749
0.652286 0.789729 -0.082279
0.659042 0.793513 -0.081730
0.665529 0.796268 -0.081189
0.672234 0.799558 -0.080633
0.677651 0.798751 -0.080144
0.683689 0.799790 -0.079619
0.691468 0.805919 -0.078995
0.696884 0.804918 -0.078502
0.700660 0.799197 -0.078104
0.706317 0.798945 -0.077601
0.712373 0.799790 -0.077078
0.715200 0.791707 -0.076747
0.721411 0.793022 -0.076226
0.726586 0.791527 -0.075771
0.733611 0.794951 -0.075215
0.738580 0.792943 -0.074791
0.744229 0.792753 -0.074336
0.749829 0.792468 -0.073897
0.754283 0.789362 -0.073541
0.761225 0.792512 -0.073050
0.767153 0.793164 -0.072637
0.772102 0.791502 -0.072302
0.777329 0.790609 -0.071969
0.783001 0.790855 -0.071630
0.789457 0.792993 -0.071266
0.795603 0.794461 -0.070945
0.799639 0.791216 -0.070776
0.804343 0.789641 -0.070592
0.810972 0.792473 -0.070318
0.817475 0.795085 -0.070080
0.822245 0.794002 -0.069973
0.828012 0.795207 -0.069836
0.833937 0.796851 -0.069718
0.840979 0.800946 -0.069565
0.842426 0.793437 -0.069766
0.846050 0.790700 -0.069867
0.851533 0.791952 -0.069890
0.858963 0.797266 -0.069834
-0.313954 0.738912 -0.094734
-0.314541 0.747980 -0.094406
-0.311256 0.750912 -0.094136
-0.306972 0.752341 -0.093904
-0.300646 0.750482 -0.093720
-0.293174 0.746762 -0.093578
-0.288646 0.748125 -0.093438
-0.284806 0.750811 -0.093319
-0.279997 0.751964 -0.093240
-0.275087 0.753067 -0.093192
-0.269575 0.753223 -0.093179
-0.265193 0.755499 -0.093182
-0.256936 0.750904 -0.093256
-0.251949 0.752274 -0.093320
-0.246238 0.752413 -0.093417
-0.241535 0.754507 -0.093528
-0.236549 0.756175 -0.093666
-0.230400 0.755723 -0.093838
-0.225334 0.757394 -0.094019
-0.220153 0.758921 -0.094221
-0.214414 0.759418 -0.094446
-0.208508 0.759622 -0.094689
-0.201376 0.757382 -0.094957
-0.195720 0.758108 -0.095224
-0.190333 0.759409 -0.095500
-0.187314 0.765679 -0.095767
-0.181434 0.766050 -0.096066
-0.172186 0.759223 -0.096395
-0.166217 0.759295 -0.096705
-0.161461 0.761999 -0.097012
-0.162938 0.778557 -0.097291
-0.161291 0.788485 -0.097594
-0.152434 0.782229 -0.097932
-0.143306 0.775142 -0.098266
-0.138283 0.777395 -0.098584
-0.135357 0.784616 -0.098897
-0.128937 0.783599 -0.099215
-0.118305 0.772268 -0.099530
-0.118194 0.786463 -0.099837
-0.112060 0.785956 -0.100141
-0.098682 0.767044 -0.100428
-0.092068 0.764889 -0.100714
-0.085493 0.762705 -0.100992
-0.080168 0.763687 -0.101267
-0.074283 0.763133 -0.101534
-0.067785 0.760827 -0.101789
-0.067276 0.774881 -0.102073
-0.060089 0.770615 -0.102311
-0.052721 0.765635 -0.102538
-0.046770 0.764518 -0.102767
-0.041964 0.766642 -0.102997
-0.040561 0.778867 -0.103254
-0.039284 0.791784 -0.103511
-0.034186 0.793338 -0.103723
-0.025763 0.784519 -0.103889
-0.017324 0.775295 -0.104042
-0.014181 0.782726 -0.104255
-0.011626 0.792254 -0.104471
-0.005931 0.791603 -0.104637
0.004230 0.775770 -0.104726
0.008862 0.778331 -0.104890
0.013942 0.779349 -0.105041
0.019538 0.778504 -0.105176
0.026395 0.772993 -0.105279
0.032928 0.768411 -0.105380
0.038469 0.767331 -0.105491
0.043779 0.767032 -0.105601
0.048778 0.767874 -0.105710
0.053684 0.769063 -0.105816
0.057999 0.772638 -0.105929
0.062833 0.774152 -0.106025
0.068926 0.770352 -0.106084
0.074290 0.769479 -0.106155
0.078752 0.772488 -0.106243
0.082222 0.780040 -0.106354
0.087114 0.781331 -0.106421
0.092252 0.781469 -0.106477
0.096931 0.783765 -0.106540
0.101857 0.784905 -0.106592
0.107374 0.783061 -0.106620
0.112040 0.785476 -0.106670
0.118953 0.776050 -0.106639
0.123994 0.776267 -0.106665
0.128830 0.777592 -0.106694
0.133041 0.782524 -0.106742
0.137219 0.787881 -0.106789
0.142169 0.788809 -0.106802
0.148963 0.778238 -0.106737
0.154660 0.774034 -0.106709
0.159721 0.773737 -0.106703
0.164596 0.774648 -0.106700
0.169814 0.773148 -0.106678
0.174009 0.778979 -0.106700
0.178190 0.785284 -0.106721
0.183332 0.784462 -0.106692
0.189614 0.774251 -0.106599
0.194722 0.773128 -0.106562
0.199571 0.774147 -0.106535
0.203812 0.780798 -0.106540
0.208031 0.788220 -0.106546
0.212734 0.791412 -0.106521
0.217738 0.791705 -0.106476
0.222550 0.794111 -0.106440
0.227562 0.794386 -0.106387
0.233248 0.786336 -0.106281
0.238791 0.779125 -0.106178
0.243900 0.776999 -0.106103
0.248080 0.788372 -0.106104
0.252576 0.796319 -0.106081
0.257787 0.793131 -0.105990
0.262640 0.796069 -0.105931
0.267926 0.790604 -0.105822
0.273611 0.774898 -0.105654
0.278528 0.774941 -0.105571
0.283419 0.775689 -0.105489
0.288312 0.776530 -0.105404
0.293237 0.776336 -0.105311
0.298080 0.779959 -0.105234
0.302947 0.784000 -0.105156
0.307942 0.780265 -0.105035
0.312898 0.777151 -0.104916
0.317821 0.775421 -0.104800
0.322734 0.776844 -0.104696
