ply
format ascii 1.0
comment ---
element vertex 1698
property float x
property float y
property float z
element face 0
property list uchar uint vertex_indices
end_header
0.471910 0.808326 -0.429959
0.476448 0.808732 -0.429798
0.480966 0.808895 -0.429562
0.485470 0.808889 -0.429275
0.489993 0.809051 -0.429041
0.494512 0.809136 -0.428785
0.498969 0.808687 -0.428364
0.503514 0.808949 -0.428165
0.508053 0.809135 -0.427943
0.512623 0.809511 -0.427781
0.517140 0.809456 -0.427487
0.521436 0.807859 -0.426721
0.526215 0.809574 -0.426974
0.531198 0.812478 -0.427594
0.535792 0.812729 -0.427399
0.540283 0.812309 -0.427000
0.544744 0.811708 -0.426548
0.549257 0.811411 -0.426190
0.553797 0.811249 -0.425875
0.558425 0.811541 -0.425701
0.563011 0.811566 -0.425447
0.567747 0.812328 -0.425419
0.572354 0.812370 -0.425173
0.577190 0.813499 -0.425261
0.581927 0.814061 -0.425176
0.586622 0.814360 -0.425014
0.591354 0.814778 -0.424889
0.595534 0.812664 -0.423999
0.600107 0.812321 -0.423648
0.605137 0.813906 -0.423883
0.609445 0.812355 -0.423171
0.614201 0.812661 -0.423024
0.618939 0.812837 -0.422838
0.623630 0.812772 -0.422583
0.628556 0.813569 -0.422589
0.633682 0.815045 -0.422802
0.638431 0.815010 -0.422562
0.643107 0.814657 -0.422229
0.648564 0.817065 -0.422727
0.653418 0.817207 -0.422547
0.657872 0.815909 -0.421937
0.662398 0.814843 -0.421401
0.667320 0.815078 -0.421256
0.672098 0.814770 -0.420952
0.677746 0.817218 -0.421474
0.683383 0.819489 -0.421946
0.688601 0.820318 -0.421988
0.693567 0.820284 -0.421775
0.697884 0.818230 -0.420963
0.702692 0.817632 -0.420588
0.708109 0.818768 -0.420732
0.713889 0.820847 -0.421158
0.718319 0.818972 -0.420411
0.723428 0.818980 -0.420227
0.728806 0.819659 -0.420245
0.734314 0.820601 -0.420343
0.739882 0.821609 -0.420463
0.744131 0.819057 -0.419529
0.749826 0.820252 -0.419709
0.755561 0.821447 -0.419890
0.760918 0.821594 -0.419763
0.766007 0.821007 -0.419421
0.770676 0.819347 -0.418764
0.775780 0.818715 -0.418413
0.781664 0.819900 -0.418599
0.787411 0.820670 -0.418663
0.792602 0.820079 -0.418327
0.797592 0.818994 -0.417847
0.803900 0.820855 -0.418234
0.810553 0.823394 -0.418819
0.816926 0.825211 -0.419192
0.821828 0.823759 -0.418602
0.826900 0.822679 -0.418119
0.832797 0.823343 -0.418148
0.840278 0.827280 -0.419134
0.845426 0.826303 -0.418674
0.851292 0.826809 -0.418646
0.857493 0.827983 -0.418809
0.863855 0.829463 -0.419056
0.870342 0.831177 -0.419365
0.875761 0.830812 -0.419059
0.879722 0.827698 -0.417945
0.884273 0.825825 -0.417185
0.889248 0.824852 -0.416681
0.895861 0.827009 -0.417080
0.901468 0.827353 -0.416941
0.907552 0.828646 -0.417068
0.911947 0.826968 -0.416320
0.916222 0.825216 -0.415541
0.920510 0.823633 -0.414801
-0.175145 0.779233 -0.480753
-0.171917 0.782425 -0.481553
-0.167226 0.783423 -0.481502
-0.161615 0.783038 -0.480907
-0.156129 0.782952 -0.480405
-0.151254 0.783973 -0.480299
-0.145911 0.784309 -0.479918
-0.140086 0.783907 -0.479244
-0.134388 0.783779 -0.478656
-0.129247 0.784676 -0.478438
-0.124543 0.786409 -0.478517
-0.119367 0.787379 -0.478299
-0.114405 0.788787 -0.478232
-0.109003 0.789445 -0.477878
-0.103216 0.789422 -0.477264
-0.097471 0.789479 -0.476674
-0.092257 0.790534 -0.476448
-0.086524 0.790610 -0.475857
-0.080302 0.789724 -0.474910
-0.074680 0.789963 -0.474377
-0.069504 0.791055 -0.474155
-0.064305 0.792094 -0.473913
-0.058503 0.791886 -0.473218
-0.051957 0.790094 -0.471949
-0.047040 0.791600 -0.471883
-0.041684 0.792159 -0.471476
-0.036355 0.792731 -0.471078
-0.031001 0.793200 -0.470646
-0.025058 0.792323 -0.469733
-0.019962 0.793240 -0.469473
-0.014775 0.793909 -0.469128
-0.009390 0.794070 -0.468607
-0.003689 0.793433 -0.467806
0.001600 0.793672 -0.467324
0.006440 0.794918 -0.467209
0.011853 0.794738 -0.466590
0.017691 0.793435 -0.465579
0.022488 0.794614 -0.465457
0.027605 0.794943 -0.465039
0.032514 0.795742 -0.464793
0.038376 0.794015 -0.463661
0.043514 0.794073 -0.463167
0.048488 0.794500 -0.462809
0.053269 0.795392 -0.462620
0.058372 0.795354 -0.462110
0.063411 0.795422 -0.461644
0.068232 0.796048 -0.461378
0.073028 0.796696 -0.461125
0.078812 0.794390 -0.459848
0.083117 0.796365 -0.460069
0.088402 0.795362 -0.459258
0.092965 0.796491 -0.459194
0.097506 0.797666 -0.459150
0.102041 0.798836 -0.459108
0.107287 0.797676 -0.458265
0.112571 0.796284 -0.457347
0.117352 0.796481 -0.456984
0.122028 0.796984 -0.456730
0.127009 0.796385 -0.456102
0.131602 0.797088 -0.455926
0.136418 0.796954 -0.455466
0.140733 0.798611 -0.455624
0.145409 0.798921 -0.455324
0.150143 0.798966 -0.454937
0.154878 0.798956 -0.454535
0.159682 0.798621 -0.454026
0.164323 0.798887 -0.453725
0.168943 0.799206 -0.453446
0.173597 0.799343 -0.453108
0.178322 0.799130 -0.452655
0.182943 0.799325 -0.452343
0.187615 0.799252 -0.451944
0.192387 0.798663 -0.451373
0.197212 0.797745 -0.450695
0.201932 0.797255 -0.450164
0.206216 0.798893 -0.450353
0.210817 0.798932 -0.450005
0.215320 0.799459 -0.449824
0.219755 0.800337 -0.449763
0.224291 0.800661 -0.449517
0.228891 0.800600 -0.449145
0.233571 0.800017 -0.448601
0.238301 0.799057 -0.447933
0.242760 0.799704 -0.447804
0.246971 0.801974 -0.448218
0.251556 0.801836 -0.447830
0.256050 0.802287 -0.447640
0.260637 0.802068 -0.447229
0.265361 0.800768 -0.446461
0.269714 0.802215 -0.446606
0.274263 0.802157 -0.446254
0.278819 0.801998 -0.445870
0.283370 0.801835 -0.445486
0.287953 0.801328 -0.444990
0.292333 0.802678 -0.445108
0.296724 0.804022 -0.445224
0.301428 0.802163 -0.444288
0.305848 0.803216 -0.444310
0.310339 0.803533 -0.444092
0.314837 0.803750 -0.443842
0.319435 0.802626 -0.443154
0.323954 0.802441 -0.442775
0.328436 0.802735 -0.442553
0.332858 0.804053 -0.442667
0.337337 0.804527 -0.442506
0.341829 0.804789 -0.442276
0.346338 0.804672 -0.441924
0.350810 0.805403 -0.441848
0.355313 0.805382 -0.441529
0.359848 0.804306 -0.440869
0.364363 0.803477 -0.440290
0.368838 0.804106 -0.440185
0.373324 0.804363 -0.439960
0.377808 0.804792 -0.439791
0.382293 0.805624 -0.439753
0.386786 0.805335 -0.439354
0.391277 0.805501 -0.439102
0.395768 0.805620 -0.438836
0.400261 0.805871 -0.438614
0.404732 0.804827 -0.437976
0.409216 0.804839 -0.437678
0.413755 0.806843 -0.438020
0.418217 0.805901 -0.437419
0.422709 0.806009 -0.437155
0.427206 0.806246 -0.436932
0.431729 0.806966 -0.436865
0.436249 0.807503 -0.436740
0.440741 0.807463 -0.436431
0.445278 0.808147 -0.436355
0.449793 0.808402 -0.436142
0.454246 0.807751 -0.435642
0.458672 0.806813 -0.435053
0.463143 0.806538 -0.434676
0.467701 0.807300 -0.434628
0.472272 0.808100 -0.434593
0.476854 0.808925 -0.434566
0.481395 0.809253 -0.434384
0.485928 0.809457 -0.434163
0.490463 0.809641 -0.433937
0.494958 0.809445 -0.433592
0.499546 0.810022 -0.433492
0.504071 0.810033 -0.433216
0.508609 0.810126 -0.432966
0.513094 0.809788 -0.432582
0.517527 0.809085 -0.432086
0.522183 0.809943 -0.432080
0.526931 0.811343 -0.432244
0.531529 0.811651 -0.432069
0.536237 0.812602 -0.432095
0.540756 0.812320 -0.431738
0.545205 0.811609 -0.431249
0.549694 0.811143 -0.430839
0.554297 0.811306 -0.430626
0.558800 0.810881 -0.430232
0.563585 0.811941 -0.430301
0.568305 0.812576 -0.430239
0.573133 0.813684 -0.430326
0.577789 0.813863 -0.430126
0.582344 0.813512 -0.429764
0.586988 0.813549 -0.429525
0.591542 0.813141 -0.429150
0.596359 0.813879 -0.429131
0.601104 0.814227 -0.428993
0.605981 0.815086 -0.429015
0.610479 0.814276 -0.428526
0.614979 0.813459 -0.428037
0.619512 0.812764 -0.427588
0.624084 0.812203 -0.427183
0.629381 0.814411 -0.427629
0.634258 0.814894 -0.427549
0.638994 0.814782 -0.427288
0.643963 0.815475 -0.427277
0.649156 0.816887 -0.427487
0.653975 0.816879 -0.427266
0.658605 0.816163 -0.426831
0.663455 0.816164 -0.426619
0.668956 0.818269 -0.427049
0.673352 0.816632 -0.426343
0.678481 0.817344 -0.426354
0.683717 0.818311 -0.426446
0.689341 0.820390 -0.426877
0.693938 0.819198 -0.426318
0.698732 0.818573 -0.425934
0.703516 0.817871 -0.425530
0.708749 0.818437 -0.425513
0.713731 0.818197 -0.425255
0.718898 0.818423 -0.425140
0.724014 0.818430 -0.424962
0.729044 0.818136 -0.424696
0.734664 0.819375 -0.424895
0.740272 0.820478 -0.425056
0.745319 0.820011 -0.424745
0.750733 0.820439 -0.424707
0.756128 0.820740 -0.424632
0.761075 0.819842 -0.424198
0.766037 0.818943 -0.423767
0.771240 0.818593 -0.423503
0.777060 0.819676 -0.423671
0.782267 0.819213 -0.423376
0.788909 0.822066 -0.424078
0.793609 0.820304 -0.423395
0.798892 0.819866 -0.423110
0.805457 0.822273 -0.423678
0.811223 0.822803 -0.423683
0.816665 0.822570 -0.423459
0.822465 0.823081 -0.423456
0.828226 0.823471 -0.423415
0.833359 0.822503 -0.422966
0.838932 0.822461 -0.422791
0.845609 0.824683 -0.423289
0.851319 0.824885 -0.423180
0.856857 0.824744 -0.422963
0.862194 0.824225 -0.422628
0.868630 0.825899 -0.422941
0.874203 0.825896 -0.422747
0.879334 0.825091 -0.422307
0.886467 0.828147 -0.423007
0.891819 0.827864 -0.422705
0.896599 0.826601 -0.422103
0.902967 0.828356 -0.422386
0.908501 0.828651 -0.422225
0.914011 0.828995 -0.422067
0.918239 0.827161 -0.421254
0.922827 0.826106 -0.420660
-0.176196 0.780394 -0.486381
-0.171856 0.781794 -0.486515
-0.167396 0.783139 -0.486603
-0.162645 0.784142 -0.486537
-0.156967 0.783731 -0.485910
-0.151965 0.784534 -0.485726
-0.147355 0.786097 -0.485811
-0.141130 0.785020 -0.484874
-0.135570 0.785133 -0.484373
-0.129801 0.784942 -0.483742
-0.125156 0.786772 -0.483863
-0.119947 0.787683 -0.483622
-0.114569 0.788341 -0.483274
-0.109311 0.789254 -0.483013
-0.103286 0.788791 -0.482226
-0.097761 0.789254 -0.481781
-0.092380 0.789995 -0.481434
-0.086942 0.790633 -0.481045
-0.081058 0.790408 -0.480330
-0.075250 0.790300 -0.479658
-0.069778 0.790823 -0.479221
-0.064938 0.792588 -0.479244
-0.059172 0.792475 -0.478572
-0.052272 0.789980 -0.477022
-0.047776 0.792375 -0.477282
-0.042249 0.792601 -0.476744
-0.036869 0.793087 -0.476306
-0.031122 0.792727 -0.475562
-0.025813 0.793258 -0.475149
-0.020159 0.792965 -0.474440
-0.014920 0.793532 -0.474052
-0.009825 0.794376 -0.473769
-0.004645 0.794973 -0.473402
0.001469 0.793318 -0.472223
0.006481 0.794169 -0.471961
0.011479 0.795006 -0.471699
0.017112 0.794238 -0.470864
0.022526 0.793915 -0.470197
0.027482 0.794667 -0.469923
0.032857 0.794292 -0.469251
0.037626 0.795409 -0.469121
0.043304 0.794089 -0.468124
0.048225 0.794685 -0.467819
0.053005 0.795609 -0.467638
0.058223 0.795281 -0.467016
0.063445 0.794863 -0.466368
0.068125 0.795906 -0.466246
0.072625 0.797434 -0.466301
0.077606 0.797531 -0.465853
0.083242 0.795604 -0.464696
0.087972 0.796304 -0.464474
0.092805 0.796641 -0.464129
0.097315 0.797941 -0.464128
0.102576 0.796824 -0.463281
0.107215 0.797626 -0.463115
0.112529 0.796166 -0.462160
0.116991 0.797460 -0.462175
0.121912 0.797173 -0.461641
0.126687 0.797322 -0.461264
0.131414 0.797594 -0.460935
0.135939 0.798551 -0.460848
0.140694 0.798644 -0.460465
0.145355 0.799036 -0.460189
0.150378 0.798001 -0.459423
0.155116 0.797992 -0.459016
0.159881 0.797821 -0.458558
0.164234 0.799278 -0.458666
0.168834 0.799717 -0.458425
0.173501 0.799839 -0.458077
0.178382 0.798990 -0.457399
0.183216 0.798262 -0.456766
0.187768 0.798738 -0.456551
0.192266 0.799450 -0.456420
0.197119 0.798447 -0.455703
0.201683 0.798775 -0.455446
0.206383 0.798389 -0.454947
0.210859 0.799094 -0.454823
0.215270 0.800145 -0.454820
0.219784 0.800644 -0.454630
0.224383 0.800664 -0.454280
0.229093 0.800001 -0.453699
0.233670 0.800049 -0.453363
0.238281 0.799851 -0.452946
0.242683 0.800919 -0.452959
0.247215 0.801176 -0.452700
0.251687 0.801817 -0.452572
0.256412 0.800697 -0.451851
0.260941 0.800880 -0.451573
0.265296 0.802333 -0.451723
0.269862 0.802230 -0.451351
0.274308 0.803047 -0.451290
0.278887 0.802784 -0.450868
0.283591 0.801356 -0.450056
0.288085 0.801696 -0.449839
0.292508 0.802710 -0.449849
0.297010 0.802989 -0.449615
0.301544 0.802919 -0.449264
0.306057 0.803042 -0.448980
0.310535 0.803562 -0.448829
0.315045 0.803693 -0.448549
0.319576 0.803536 -0.448175
0.324124 0.803069 -0.447699
0.328576 0.803962 -0.447676
0.333108 0.803627 -0.447246
0.337601 0.803890 -0.447016
0.342085 0.804363 -0.446856
0.346545 0.805405 -0.446885
0.351055 0.805391 -0.446566
0.355577 0.804992 -0.446120
0.360124 0.803608 -0.445352
0.364631 0.803127 -0.444882
0.369116 0.803465 -0.444684
0.373599 0.804008 -0.444553
0.378078 0.805243 -0.444650
0.382572 0.805798 -0.444524
0.387071 0.805685 -0.444180
0.391569 0.805977 -0.443969
0.396068 0.806201 -0.443737
0.400567 0.806307 -0.443467
0.405071 0.806690 -0.443289
0.409576 0.806988 -0.443083
0.414056 0.806320 -0.442564
0.418568 0.806841 -0.442433
0.423045 0.806309 -0.441960
0.427530 0.806093 -0.441592
0.432067 0.807009 -0.441591
0.436593 0.807565 -0.441475
0.441083 0.807379 -0.441118
0.445627 0.808099 -0.441056
0.450101 0.807668 -0.440623
0.454586 0.807436 -0.440256
0.459044 0.806871 -0.439782
0.463535 0.806779 -0.439462
0.468330 0.810184 -0.440268
0.472772 0.809361 -0.439715
0.477209 0.808556 -0.439169
0.481740 0.808743 -0.438943
0.486316 0.809325 -0.438844
0.490868 0.809621 -0.438656
0.495442 0.810061 -0.438514
0.500121 0.811320 -0.438635
0.504686 0.811547 -0.438427
0.509132 0.810827 -0.437919
0.513540 0.809864 -0.437335
0.518010 0.809381 -0.436906
0.522842 0.811395 -0.437272
0.527433 0.811653 -0.437082
0.531929 0.811252 -0.436684
0.536585 0.811847 -0.436603
0.541067 0.811327 -0.436171
0.545432 0.810118 -0.435522
0.550063 0.810465 -0.435368
0.554727 0.810949 -0.435259
0.559391 0.811374 -0.435133
0.563949 0.811185 -0.434815
0.568842 0.812689 -0.435032
0.573590 0.813359 -0.434988
0.578202 0.813292 -0.434714
0.582719 0.812742 -0.434290
0.587297 0.812457 -0.433953
0.592010 0.812764 -0.433803
0.596716 0.812979 -0.433626
0.601924 0.815334 -0.434122
0.606569 0.815144 -0.433822
0.611280 0.815191 -0.433599
0.615795 0.814387 -0.433112
0.620102 0.812737 -0.432365
0.625119 0.813893 -0.432496
0.630092 0.814784 -0.432546
0.634892 0.814938 -0.432369
0.639699 0.815058 -0.432184
0.644850 0.816374 -0.432373
0.649743 0.816663 -0.432246
0.654565 0.816639 -0.432024
0.659709 0.817671 -0.432132
0.665086 0.819391 -0.432456
0.669859 0.818990 -0.432125
0.674525 0.818195 -0.431675
0.679144 0.817215 -0.431172
0.684669 0.819064 -0.431546
0.689826 0.819647 -0.431531
0.694904 0.819906 -0.431420
0.699551 0.818801 -0.430890
0.704518 0.818610 -0.430645
0.709655 0.818855 -0.430538
0.714679 0.818700 -0.430310
0.719835 0.818858 -0.430182
0.724928 0.818767 -0.429980
0.730182 0.819053 -0.429897
0.735781 0.820191 -0.430078
0.740959 0.820114 -0.429889
0.746273 0.820324 -0.429791
0.751255 0.819609 -0.429411
0.756638 0.819862 -0.429331
0.761820 0.819545 -0.429078
0.766876 0.818858 -0.428714
0.772392 0.819249 -0.428682
0.777771 0.819238 -0.428529
0.783907 0.820962 -0.428907
0.789443 0.821181 -0.428827
0.794956 0.821286 -0.428712
0.800466 0.821333 -0.428580
0.806000 0.821386 -0.428451
0.811780 0.821941 -0.428474
0.817477 0.822260 -0.428424
0.823757 0.823797 -0.428744
0.829213 0.823515 -0.428507
0.835041 0.824001 -0.428503
0.840255 0.823187 -0.428099
0.845884 0.823238 -0.427956
0.851390 0.823038 -0.427731
0.857013 0.823089 -0.427578
0.862487 0.822862 -0.427335
0.868144 0.823024 -0.427203
0.874307 0.824201 -0.427372
0.881222 0.826831 -0.427972
0.888442 0.830037 -0.428737
0.893027 0.828308 -0.427999
0.897776 0.826997 -0.427377
0.902843 0.826377 -0.426954
0.908945 0.827735 -0.427117
0.914148 0.827555 -0.426803
0.918979 0.826826 -0.426313
0.924555 0.827535 -0.426242
-0.179803 0.785613 -0.493614
-0.172875 0.782896 -0.492154
-0.168236 0.783941 -0.492135
-0.163441 0.784861 -0.492044
-0.157595 0.784163 -0.491303
-0.152952 0.785551 -0.491348
-0.148993 0.788204 -0.491862
-0.143783 0.788863 -0.491585
-0.137850 0.788364 -0.490843
-0.132276 0.788537 -0.490345
-0.124878 0.785561 -0.488624
-0.120327 0.787620 -0.488824
-0.115032 0.788423 -0.488530
-0.109596 0.789010 -0.488142
-0.104197 0.789696 -0.487783
-0.097922 0.788774 -0.486805
-0.092421 0.789286 -0.486368
-0.086993 0.789941 -0.485980
-0.081530 0.790527 -0.485562
-0.076478 0.791906 -0.485442
-0.070817 0.792086 -0.484867
-0.065095 0.792111 -0.484234
-0.059828 0.793018 -0.483934
-0.053629 0.791985 -0.482908
-0.048159 0.792394 -0.482426
-0.042847 0.793089 -0.482054
-0.036964 0.792525 -0.481215
-0.031567 0.792938 -0.480746
-0.026110 0.793163 -0.480212
-0.020580 0.793168 -0.479601
-0.015403 0.793899 -0.479265
-0.010233 0.794597 -0.478922
-0.005123 0.795383 -0.478617
0.000603 0.794670 -0.477765
0.006330 0.793860 -0.476886
0.011363 0.794632 -0.476595
0.016398 0.795346 -0.476288
0.021721 0.795293 -0.475707
0.027533 0.793931 -0.474655
0.032697 0.794111 -0.474174
0.037765 0.794476 -0.473767
0.042485 0.795692 -0.473675
0.047718 0.795502 -0.473078
0.052510 0.796433 -0.472895
0.057741 0.796111 -0.472264
0.063449 0.794368 -0.471127
0.067923 0.796016 -0.471220
0.072449 0.797500 -0.471259
0.077526 0.797341 -0.470712
0.083011 0.795892 -0.469709
0.087949 0.795990 -0.469267
0.092588 0.796948 -0.469138
0.097495 0.797033 -0.468703
0.101963 0.798464 -0.468753
0.107598 0.796085 -0.467449
0.111918 0.797913 -0.467650
0.116645 0.798375 -0.467369
0.121516 0.798301 -0.466903
0.126427 0.798029 -0.466371
0.131212 0.798135 -0.465978
0.135972 0.798281 -0.465603
0.140627 0.798762 -0.465351
0.145374 0.798864 -0.464970
0.150314 0.798177 -0.464315
0.155276 0.797318 -0.463604
0.159494 0.799353 -0.463915
0.164127 0.799729 -0.463646
0.168935 0.799337 -0.463110
0.173825 0.798530 -0.462434
0.178438 0.798852 -0.462157
0.183117 0.798843 -0.461767
0.187710 0.799177 -0.461500
0.192302 0.799492 -0.461229
0.196993 0.799297 -0.460784
0.201752 0.798723 -0.460211
0.206244 0.799413 -0.460079
0.210893 0.799285 -0.459667
0.215368 0.800034 -0.459560
0.219775 0.801154 -0.459584
0.224471 0.800674 -0.459057
0.229181 0.800048 -0.458483
0.233759 0.800128 -0.458155
0.238106 0.801582 -0.458302
0.242573 0.802334 -0.458209
0.247193 0.802104 -0.457780
0.251907 0.801185 -0.457117
0.256595 0.800347 -0.456484
0.261164 0.800268 -0.456114
0.265631 0.800902 -0.455990
0.269905 0.803057 -0.456387
0.274488 0.802852 -0.455978
0.279012 0.803081 -0.455719
0.283482 0.803772 -0.455619
0.288107 0.803064 -0.455045
0.292703 0.802528 -0.454531
0.297243 0.802478 -0.454183
0.301717 0.803081 -0.454059
0.306212 0.803475 -0.453865
0.310752 0.803342 -0.453493
0.315280 0.803304 -0.453156
0.319781 0.803584 -0.452926
0.324277 0.803934 -0.452722
0.328752 0.804630 -0.452635
0.333315 0.803926 -0.452077
0.337884 0.802915 -0.451418
0.342343 0.803890 -0.451429
0.346808 0.804896 -0.451449
0.351290 0.805661 -0.451390
0.355821 0.805169 -0.450910
0.360352 0.804490 -0.450368
0.364901 0.802750 -0.449474
0.369393 0.802870 -0.449203
0.373860 0.804557 -0.449456
0.378356 0.805033 -0.449305
0.382854 0.805517 -0.449157
0.387356 0.805924 -0.448985
0.391861 0.806238 -0.448782
0.396367 0.806552 -0.448579
0.400876 0.806875 -0.448381
0.405382 0.806947 -0.448101
0.409883 0.806804 -0.447750
0.414388 0.806850 -0.447463
0.418905 0.807299 -0.447310
0.423420 0.807550 -0.447092
0.427881 0.806530 -0.446457
0.432380 0.806500 -0.446148
0.436918 0.807223 -0.446089
0.441461 0.807903 -0.446017
0.445934 0.807354 -0.445541
0.450456 0.807606 -0.445330
0.454984 0.807904 -0.445134
0.459485 0.807796 -0.444807
0.464021 0.808125 -0.444624
0.468456 0.807252 -0.444049
0.473229 0.810125 -0.444699
0.477660 0.809169 -0.444100
0.482126 0.808633 -0.443639
0.486758 0.809682 -0.443696
0.491323 0.810029 -0.443525
0.495869 0.810162 -0.443287
0.500538 0.811277 -0.443368
0.505158 0.811895 -0.443289
0.509620 0.811246 -0.442800
0.514037 0.810284 -0.442212
0.518654 0.810791 -0.442102
0.523359 0.811841 -0.442168
0.527968 0.812158 -0.441998
0.532487 0.811849 -0.441628
0.536995 0.811465 -0.441236
0.541432 0.810643 -0.440705
0.545862 0.809801 -0.440170
0.550474 0.810014 -0.439976
0.555443 0.812165 -0.440407
0.559883 0.811305 -0.439872
0.564534 0.811574 -0.439701
0.569353 0.812649 -0.439791
0.574014 0.812849 -0.439602
0.578705 0.813144 -0.439446
0.583676 0.814721 -0.439701
0.588296 0.814553 -0.439400
0.592684 0.813300 -0.438756
0.597580 0.814315 -0.438838
0.602393 0.814885 -0.438780
0.607128 0.815054 -0.438596
0.611781 0.814830 -0.438290
0.616489 0.814792 -0.438046
0.621180 0.814639 -0.437768
0.625942 0.814721 -0.437567
0.630720 0.814816 -0.437373
0.635491 0.814825 -0.437154
0.640836 0.816905 -0.437594
0.645645 0.816910 -0.437379
0.650401 0.816672 -0.437091
0.655837 0.818762 -0.437540
0.660932 0.819551 -0.437581
0.665730 0.819254 -0.437282
0.670553 0.818990 -0.436997
0.675373 0.818669 -0.436697
0.680465 0.819163 -0.436657
0.685386 0.819045 -0.436427
0.690316 0.818897 -0.436191
0.695379 0.819093 -0.436067
0.700380 0.819033 -0.435865
0.705395 0.818950 -0.435659
0.710379 0.818715 -0.435408
0.715566 0.819002 -0.435324
0.721078 0.820125 -0.435505
0.726164 0.819968 -0.435289
0.731336 0.819983 -0.435129
0.736674 0.820377 -0.435090
0.741910 0.820422 -0.434945
0.746656 0.819118 -0.434382
0.751876 0.819007 -0.434194
0.757267 0.819264 -0.434124
0.762680 0.819506 -0.434051
0.768165 0.819854 -0.434013
0.773266 0.819198 -0.433665
0.778709 0.819318 -0.433560
0.784191 0.819470 -0.433467
0.790106 0.820573 -0.433670
0.796302 0.822236 -0.434048
0.801383 0.821278 -0.433611
0.806501 0.820384 -0.433195
0.811980 0.820269 -0.433021
0.818488 0.822363 -0.433531
0.823605 0.821380 -0.433085
0.830415 0.823994 -0.433752
0.836199 0.824371 -0.433723
0.841446 0.823614 -0.433339
0.846596 0.822674 -0.432895
0.852538 0.823360 -0.432950
0.858058 0.823200 -0.432737
0.863523 0.822955 -0.432492
0.868878 0.822530 -0.432185
0.875728 0.825039 -0.432775
0.881555 0.825586 -0.432751
0.887824 0.827014 -0.432989
0.893232 0.826870 -0.432732
0.898035 0.825687 -0.432145
0.903618 0.826040 -0.432019
0.908708 0.825588 -0.431633
0.914514 0.826527 -0.431663
0.919543 0.826179 -0.431284
0.922388 0.822119 -0.429756
-0.179778 0.785070 -0.498641
-0.173823 0.783885 -0.497773
-0.168534 0.783870 -0.497344
-0.163616 0.784566 -0.497171
-0.158683 0.785353 -0.497011
-0.154198 0.786996 -0.497164
-0.149910 0.789092 -0.497473
-0.144821 0.789952 -0.497276
-0.138695 0.789119 -0.496398
-0.132750 0.788646 -0.495645
-0.125165 0.785336 -0.493772
-0.120512 0.787203 -0.493904
-0.115671 0.788808 -0.493921
-0.109890 0.788772 -0.493288
-0.105348 0.791027 -0.493534
-0.100034 0.791910 -0.493239
-0.092690 0.788993 -0.491472
-0.087279 0.789682 -0.491092
-0.081881 0.790396 -0.490719
-0.076513 0.791165 -0.490363
-0.070986 0.791609 -0.489881
-0.065448 0.792007 -0.489381
-0.059801 0.792156 -0.488787
-0.054090 0.792130 -0.488128
-0.048487 0.792279 -0.487538
-0.043355 0.793368 -0.487308
-0.037993 0.793941 -0.486886
-0.031754 0.792568 -0.485732
-0.026928 0.794194 -0.485717
-0.021285 0.793980 -0.485012
-0.015856 0.794177 -0.484468
-0.010684 0.794896 -0.484126
-0.005453 0.795427 -0.483719
0.000061 0.795237 -0.483048
0.005979 0.794007 -0.481996
0.010994 0.794848 -0.481725
0.015882 0.795951 -0.481556
0.021005 0.796428 -0.481161
0.026479 0.795959 -0.480422
0.032370 0.794337 -0.479264
0.037593 0.794328 -0.478710
0.042362 0.795441 -0.478578
0.047378 0.795855 -0.478194
0.052494 0.795936 -0.477694
0.057381 0.796583 -0.477408
0.062837 0.795583 -0.476524
0.067757 0.796006 -0.476169
0.072424 0.797107 -0.476068
0.077411 0.797236 -0.475618
0.082705 0.796384 -0.474815
0.087783 0.796093 -0.474225
0.092340 0.797332 -0.474196
0.097157 0.797736 -0.473868
0.102356 0.796871 -0.473087
0.107056 0.797534 -0.472864
0.111837 0.797889 -0.472536
0.116602 0.798253 -0.472215
0.121404 0.798444 -0.471837
0.126275 0.798339 -0.471358
0.131156 0.798139 -0.470849
0.136135 0.797520 -0.470195
0.140657 0.798510 -0.470122
0.145231 0.799287 -0.469977
0.150113 0.798859 -0.469405
0.154860 0.798888 -0.469002
0.159459 0.799463 -0.468796
0.164306 0.798996 -0.468223
0.169287 0.797897 -0.467430
0.174082 0.797496 -0.466889
0.178513 0.798617 -0.466893
0.183078 0.799143 -0.466688
0.187778 0.799030 -0.466260
0.192401 0.799224 -0.465944
0.197148 0.798792 -0.465410
0.201650 0.799494 -0.465280
0.206197 0.799965 -0.465070
0.210770 0.800281 -0.464809
0.215344 0.800564 -0.464538
0.219841 0.801239 -0.464408
0.224447 0.801304 -0.464066
0.229214 0.800402 -0.463388
0.233760 0.800722 -0.463141
0.238200 0.801666 -0.463114
0.242609 0.802827 -0.463164
0.247068 0.803695 -0.463114
0.251857 0.802361 -0.462298
0.256522 0.801762 -0.461741
0.261434 0.799299 -0.460538
0.265681 0.801602 -0.460994
0.270252 0.801514 -0.460621
0.274701 0.802374 -0.460579
0.279146 0.803302 -0.460561
0.283631 0.803920 -0.460437
0.288387 0.802060 -0.459458
0.292852 0.802795 -0.459377
0.297402 0.802706 -0.459014
0.301907 0.803054 -0.458803
0.306379 0.803765 -0.458718
0.310871 0.804282 -0.458567
0.315474 0.803421 -0.457944
0.320006 0.803364 -0.457599
0.324499 0.803824 -0.457432
0.328995 0.804261 -0.457259
0.333517 0.804295 -0.456948
0.338066 0.803791 -0.456455
0.342560 0.804256 -0.456294
0.346989 0.806211 -0.456642
0.351542 0.805484 -0.456076
0.356049 0.805828 -0.455877
0.360593 0.804964 -0.455268
0.365136 0.803763 -0.454546
0.369615 0.805046 -0.454668
0.374122 0.805200 -0.454409
0.378609 0.807263 -0.454795
0.383130 0.806516 -0.454232
0.387643 0.806134 -0.453794
0.392152 0.805941 -0.453421
0.396661 0.806201 -0.453201
0.401178 0.806830 -0.453107
0.405691 0.807015 -0.452864
0.410208 0.807290 -0.452652
0.414726 0.807554 -0.452438
0.419266 0.808399 -0.452419
0.423816 0.809317 -0.452425
0.428287 0.808185 -0.451746
0.432713 0.806380 -0.450843
0.437261 0.807190 -0.450816
0.441797 0.807656 -0.450675
0.446300 0.807517 -0.450333
0.450784 0.807123 -0.449908
0.455331 0.807635 -0.449785
0.459876 0.808048 -0.449630
0.464371 0.807802 -0.449258
0.469035 0.809501 -0.449532
0.473556 0.809458 -0.449230
0.478096 0.809591 -0.448986
0.482677 0.810113 -0.448874
0.487134 0.809397 -0.448352
0.491878 0.811305 -0.448699
0.496317 0.810410 -0.448122
0.500719 0.809273 -0.447467
0.505635 0.812259 -0.448172
0.510016 0.810932 -0.447458
0.514480 0.810289 -0.446971
0.519231 0.811693 -0.447158
0.523955 0.812798 -0.447248
0.528472 0.812430 -0.446857
0.532974 0.811971 -0.446437
0.537472 0.811480 -0.446009
0.542056 0.811505 -0.445752
0.546534 0.810886 -0.445287
0.551336 0.812104 -0.445424
0.555828 0.811513 -0.444971
0.560476 0.811760 -0.444795
0.565316 0.812967 -0.444933
0.569914 0.812840 -0.444638
0.574548 0.812862 -0.444394
0.579522 0.814500 -0.444678
0.584188 0.814560 -0.444451
0.589095 0.815693 -0.444574
0.593496 0.814439 -0.443925
0.598024 0.813765 -0.443468
0.602880 0.814493 -0.443466
0.607504 0.814168 -0.443127
0.612263 0.814369 -0.442960
0.617018 0.814495 -0.442772
0.621873 0.814972 -0.442700
0.626606 0.814901 -0.442453
0.631263 0.814494 -0.442101
0.636303 0.815488 -0.442204
0.641451 0.816790 -0.442407
0.646486 0.817584 -0.442450
0.651205 0.817173 -0.442109
0.656120 0.817400 -0.441975
0.661143 0.817933 -0.441943
0.666121 0.818239 -0.441841
0.671200 0.818809 -0.441827
0.675910 0.818102 -0.441407
0.681054 0.818741 -0.441421
0.686003 0.818687 -0.441216
0.691101 0.819032 -0.441142
0.696201 0.819307 -0.441049
0.701144 0.819040 -0.440787
0.705966 0.818360 -0.440396
0.711205 0.818845 -0.440380
0.716504 0.819418 -0.440395
0.721747 0.819749 -0.440336
0.727158 0.820465 -0.440403
0.732512 0.820942 -0.440396
0.737646 0.820744 -0.440178
0.742534 0.819836 -0.439738
0.747669 0.819531 -0.439492
0.752866 0.819327 -0.439281
0.758338 0.819761 -0.439276
0.763914 0.820374 -0.439329
0.769070 0.819877 -0.439033
0.774296 0.819500 -0.438777
0.779524 0.819080 -0.438509
0.785105 0.819446 -0.438492
0.791706 0.822117 -0.439205
0.797079 0.821851 -0.438989
0.802538 0.821738 -0.438822
0.807620 0.820740 -0.438376
0.814252 0.823146 -0.439004
0.818682 0.820664 -0.438088
0.825166 0.822629 -0.438574
0.831738 0.824707 -0.439093
0.836712 0.823369 -0.438532
0.842574 0.823891 -0.438553
0.848185 0.823887 -0.438405
0.854083 0.824464 -0.438434
0.859533 0.824152 -0.438178
0.864880 0.823665 -0.437860
0.870621 0.823989 -0.437790
0.876559 0.824726 -0.437841
0.882265 0.825053 -0.437754
0.887619 0.824771 -0.437466
0.893143 0.824881 -0.437290
0.898352 0.824484 -0.436944
0.903786 0.824593 -0.436745
0.910167 0.826504 -0.437097
0.915709 0.826981 -0.436986
0.920750 0.826671 -0.436615
0.928289 0.830863 -0.437635
-0.177591 0.781106 -0.502298
-0.174610 0.784622 -0.503313
-0.168222 0.782814 -0.502169
-0.163044 0.783055 -0.501821
-0.158635 0.784668 -0.501998
-0.153957 0.785965 -0.502023
-0.149348 0.787492 -0.502118
-0.144527 0.788773 -0.502093
-0.138223 0.787609 -0.501077
-0.132630 0.787718 -0.500550
-0.127039 0.787889 -0.500032
-0.120869 0.787083 -0.499113
-0.115332 0.787431 -0.498638
-0.110548 0.789183 -0.498704
-0.105419 0.790362 -0.498533
-0.099310 0.789759 -0.497654
-0.093166 0.789078 -0.496739
-0.087706 0.789675 -0.496319
-0.082409 0.790591 -0.496019
-0.076430 0.790177 -0.495198
-0.071580 0.791954 -0.495227
-0.065739 0.791762 -0.494491
-0.059947 0.791627 -0.493777
-0.054574 0.792302 -0.493379
-0.049188 0.792919 -0.492960
-0.044182 0.794300 -0.492838
-0.037597 0.792291 -0.491415
-0.032452 0.793284 -0.491151
-0.027102 0.793789 -0.490704
-0.022010 0.794816 -0.490462
-0.016065 0.793885 -0.489477
-0.010731 0.794252 -0.488994
-0.005609 0.795048 -0.488680
-0.000215 0.795158 -0.488111
0.005225 0.795090 -0.487482
0.010346 0.795715 -0.487122
0.015605 0.795948 -0.486621
0.020772 0.796341 -0.486186
0.026141 0.796161 -0.485543
0.031426 0.796119 -0.484959
0.036918 0.795466 -0.484154
0.042306 0.794991 -0.483423
0.047641 0.794572 -0.482720
0.052687 0.794852 -0.482286
0.057445 0.795865 -0.482132
0.062509 0.795981 -0.481649
0.067639 0.795841 -0.481079
0.072445 0.796563 -0.480835
0.077332 0.797006 -0.480493
0.082304 0.797140 -0.480043
0.087223 0.797373 -0.479635
0.092290 0.797091 -0.479044
0.097105 0.797524 -0.478722
0.102073 0.797420 -0.478208
0.107085 0.797106 -0.477624
0.111920 0.797306 -0.477233
0.116710 0.797605 -0.476884
0.121435 0.798075 -0.476603
0.126181 0.798432 -0.476285
0.131275 0.797505 -0.475504
0.136079 0.797538 -0.475077
0.140909 0.797420 -0.474601
0.144728 0.801051 -0.475492
0.149729 0.800233 -0.474770
0.154691 0.799477 -0.474075
0.159427 0.799547 -0.473684
0.164016 0.800166 -0.473496
0.169155 0.798463 -0.472474
0.173500 0.800028 -0.472634
0.178628 0.798195 -0.471574
0.183231 0.798575 -0.471315
0.187919 0.798537 -0.470909
0.192486 0.799013 -0.470691
0.197108 0.799208 -0.470375
0.201692 0.799554 -0.470117
0.206202 0.800242 -0.469983
0.210768 0.800638 -0.469748
0.215432 0.800488 -0.469320
0.219958 0.801039 -0.469146
0.224588 0.801001 -0.468764
0.229249 0.800735 -0.468304
0.233915 0.800389 -0.467818
0.238299 0.801704 -0.467925
0.242723 0.802810 -0.467958
0.247314 0.802863 -0.467620
0.252029 0.802037 -0.466974
0.256678 0.801582 -0.466462
0.261181 0.802111 -0.466299
0.265909 0.800952 -0.465543
0.270391 0.801576 -0.465418
0.274982 0.801337 -0.464991
0.279361 0.802827 -0.465173
0.283897 0.803031 -0.464904
0.288520 0.802409 -0.464348
0.293155 0.801572 -0.463718
0.297449 0.804070 -0.464258
0.302057 0.803441 -0.463704
0.306583 0.803637 -0.463441
0.311095 0.803976 -0.463228
0.315654 0.803719 -0.462810
0.320206 0.803486 -0.462401
0.324737 0.803477 -0.462071
0.329235 0.803943 -0.461908
0.333754 0.804096 -0.461638
0.338242 0.804791 -0.461556
0.342729 0.805593 -0.461513
0.347251 0.805741 -0.461243
0.351776 0.805807 -0.460947
0.356320 0.805259 -0.460440
0.360887 0.803695 -0.459583
0.365363 0.805109 -0.459755
0.369878 0.805198 -0.459471
0.374386 0.805719 -0.459337
0.378893 0.806600 -0.459328
0.383407 0.807616 -0.459365
0.387931 0.806733 -0.458751
0.392445 0.806057 -0.458211
0.396955 0.805778 -0.457807
0.401481 0.806802 -0.457850
0.406016 0.807868 -0.457909
0.410529 0.807566 -0.457500
0.415055 0.807890 -0.457307
0.419593 0.808464 -0.457199
0.424145 0.809258 -0.457167
0.428630 0.808364 -0.456562
0.433151 0.808390 -0.456272
0.437662 0.808207 -0.455911
0.442184 0.808256 -0.455630
0.446667 0.807674 -0.455138
0.451150 0.807173 -0.454673
0.455707 0.807750 -0.454576
0.460234 0.807853 -0.454318
0.464805 0.808456 -0.454231
0.469397 0.809223 -0.454200
0.473958 0.809569 -0.454028
0.478508 0.809751 -0.453802
0.483116 0.810455 -0.453753
0.487688 0.810749 -0.453567
0.492059 0.809212 -0.452769
0.496639 0.809571 -0.452608
0.501428 0.811587 -0.453004
0.505994 0.811672 -0.452754
0.510349 0.810127 -0.451961
0.514881 0.809966 -0.451633
0.519584 0.810990 -0.451702
0.524354 0.812388 -0.451896
0.529016 0.812951 -0.451814
0.533486 0.812225 -0.451304
0.538291 0.813583 -0.451490
0.542785 0.812969 -0.451022
0.547342 0.812730 -0.450680
0.551952 0.812769 -0.450433
0.556459 0.812207 -0.449989
0.561312 0.813497 -0.450161
0.565819 0.812873 -0.449701
0.570445 0.812855 -0.449444
0.575127 0.813080 -0.449269
0.579872 0.813560 -0.449181
0.584659 0.814180 -0.449141
0.589258 0.813859 -0.448794
0.594060 0.814429 -0.448742
0.598726 0.814329 -0.448473
0.603420 0.814310 -0.448232
0.608465 0.815734 -0.448469
0.612673 0.813587 -0.447535
0.617898 0.815603 -0.447971
0.622579 0.815329 -0.447658
0.627221 0.814864 -0.447285
0.632256 0.815871 -0.447398
0.637136 0.816205 -0.447293
0.642042 0.816569 -0.447201
0.646942 0.816844 -0.447082
0.651736 0.816677 -0.446823
0.656421 0.816084 -0.446428
0.661419 0.816521 -0.446372
0.666561 0.817371 -0.446454
0.671464 0.817340 -0.446252
0.676698 0.818327 -0.446384
0.681359 0.817391 -0.445894
0.686560 0.818118 -0.445949
0.692016 0.819540 -0.446233
0.697337 0.820446 -0.446352
0.701830 0.818789 -0.445642
0.706967 0.819008 -0.445545
0.712269 0.819632 -0.445583
0.717200 0.819117 -0.445255
0.722283 0.818975 -0.445051
0.727705 0.819702 -0.445132
0.733303 0.820821 -0.445342
0.738499 0.820763 -0.445176
0.743444 0.819981 -0.444778
0.748662 0.819861 -0.444597
0.753996 0.819978 -0.444496
0.759419 0.820249 -0.444448
0.764632 0.819927 -0.444210
0.770059 0.820078 -0.444128
0.775268 0.819634 -0.443856
0.780923 0.820207 -0.443913
0.786471 0.820459 -0.443868
0.791656 0.819805 -0.443533
0.798188 0.822202 -0.444180
0.803676 0.822131 -0.444034
0.810131 0.824173 -0.444566
0.815382 0.823477 -0.444218
0.820410 0.822281 -0.443708
0.826170 0.822657 -0.443702
0.831633 0.822372 -0.443481
0.837922 0.823806 -0.443808
0.843191 0.823092 -0.443442
0.848992 0.823480 -0.443425
0.855249 0.824785 -0.443696
0.860882 0.824833 -0.443558
0.865503 0.822914 -0.442784
0.871387 0.823528 -0.442812
0.878032 0.825635 -0.443308
0.883352 0.825229 -0.442992
0.889358 0.826183 -0.443099
0.894127 0.824886 -0.442476
0.899192 0.824242 -0.442051
0.904790 0.824669 -0.441954
0.911058 0.826391 -0.442255
0.916916 0.827452 -0.442331
0.922037 0.827304 -0.442008
0.926031 0.825302 -0.441083
-0.180544 0.785296 -0.509238
-0.174364 0.783708 -0.508202
-0.169650 0.784573 -0.508136
-0.162619 0.781788 -0.506564
-0.157599 0.782361 -0.506331
-0.152928 0.783625 -0.506354
-0.148981 0.786221 -0.506891
-0.143870 0.786978 -0.506662
-0.138669 0.787672 -0.506387
-0.132983 0.787606 -0.505788
-0.127820 0.788513 -0.505563
-0.122463 0.789147 -0.505213
-0.115700 0.787313 -0.503860
-0.110256 0.787860 -0.503450
-0.105040 0.788860 -0.503209
-0.098949 0.788272 -0.502326
-0.093261 0.788431 -0.501735
-0.088134 0.789658 -0.501561
-0.083139 0.791157 -0.501488
-0.077897 0.792194 -0.501228
-0.072322 0.792575 -0.500707
-0.066855 0.793148 -0.500260
-0.060476 0.791856 -0.499080
-0.054846 0.792021 -0.498475
-0.049656 0.793056 -0.498213
-0.044307 0.793732 -0.497812
-0.038661 0.793738 -0.497153
-0.032286 0.792111 -0.495863
-0.027304 0.793425 -0.495723
-0.022453 0.795002 -0.495689
-0.016162 0.793319 -0.494396
-0.010722 0.793460 -0.493817
-0.005538 0.794125 -0.493447
-0.000401 0.794848 -0.493105
0.004839 0.795275 -0.492655
0.009657 0.796660 -0.492579
0.014996 0.796733 -0.492007
0.020704 0.795823 -0.491065
0.025823 0.796294 -0.490660
0.031380 0.795583 -0.489811
0.036497 0.795921 -0.489369
0.042064 0.795011 -0.488460
0.047881 0.793332 -0.487268
0.052560 0.794618 -0.487207
0.057592 0.794899 -0.486773
0.062426 0.795671 -0.486530
0.067311 0.796251 -0.486221
0.072200 0.796771 -0.485896
0.077336 0.796514 -0.485285
0.082253 0.796832 -0.484897
0.087223 0.796935 -0.484434
0.092211 0.796917 -0.483932
0.097254 0.796663 -0.483349
0.101823 0.797845 -0.483307
0.106619 0.798271 -0.482988
0.111945 0.796901 -0.482007
0.116775 0.797084 -0.481610
0.121414 0.797872 -0.481442
0.126085 0.798514 -0.481225
0.131063 0.798034 -0.480598
0.136221 0.796825 -0.479706
0.140642 0.798235 -0.479788
0.145442 0.798215 -0.479346
0.149395 0.801395 -0.480086
0.154541 0.799978 -0.479139
0.159346 0.799810 -0.478655
0.164115 0.799729 -0.478208
0.168525 0.801098 -0.478296
0.173227 0.801226 -0.477933
0.178358 0.799440 -0.476875
0.183347 0.798160 -0.476007
0.187899 0.798766 -0.475831
0.192385 0.799659 -0.475762
0.197033 0.799778 -0.475415
0.201677 0.799878 -0.475065
0.206376 0.799658 -0.474601
0.210803 0.800792 -0.474632
0.215444 0.800804 -0.474258
0.220123 0.800569 -0.473798
0.224704 0.800827 -0.473519
0.229400 0.800393 -0.472994
0.233963 0.800683 -0.472732
0.238361 0.801960 -0.472828
0.242862 0.802630 -0.472707
0.247630 0.801563 -0.471964
0.252280 0.801172 -0.471467
0.256772 0.801827 -0.471347
0.261295 0.802257 -0.471149
0.265846 0.802474 -0.470876
0.270459 0.802190 -0.470426
0.275039 0.802114 -0.470053
0.279585 0.802271 -0.469765
0.284144 0.802292 -0.469430
0.288829 0.801119 -0.468672
0.293103 0.803765 -0.469274
0.297611 0.804267 -0.469114
0.302233 0.803554 -0.468525
0.306814 0.803190 -0.468062
0.311311 0.803757 -0.467930
0.315825 0.804123 -0.467728
0.320398 0.803713 -0.467254
0.324936 0.803695 -0.466919
0.329465 0.803778 -0.466622
0.333933 0.804860 -0.466678
0.338437 0.805450 -0.466561
0.342969 0.805511 -0.466259
0.347513 0.805273 -0.465853
0.352040 0.805339 -0.465555
0.356565 0.805439 -0.465271
0.361041 0.807173 -0.465560
0.365617 0.805441 -0.464637
0.370138 0.805581 -0.464370
0.374661 0.805531 -0.464038
0.379184 0.805283 -0.463638
0.383694 0.806981 -0.463917
0.388219 0.806910 -0.463581
0.392741 0.806493 -0.463126
0.397260 0.806340 -0.462763
0.401792 0.807230 -0.462765
0.406319 0.807500 -0.462551
0.410879 0.808980 -0.462758
0.415406 0.808890 -0.462421
0.419920 0.808477 -0.461975
0.424392 0.807087 -0.461192
0.429001 0.809123 -0.461594
0.433516 0.808845 -0.461198
0.438065 0.809237 -0.461034
0.442559 0.808626 -0.460526
0.447053 0.808106 -0.460051
0.451627 0.808814 -0.459999
0.456191 0.809291 -0.459869
0.460648 0.808330 -0.459247
0.465242 0.809126 -0.459229
0.469833 0.809769 -0.459159
0.474402 0.810109 -0.458987
0.478939 0.810066 -0.458686
0.483461 0.809863 -0.458331
0.488045 0.810241 -0.458176
0.492520 0.809605 -0.457677
0.496966 0.808749 -0.457106
0.501722 0.810469 -0.457412
0.506426 0.811627 -0.457528
0.510804 0.810223 -0.456775
0.515249 0.809376 -0.456214
0.519908 0.810069 -0.456178
0.524665 0.811352 -0.456342
0.529414 0.812478 -0.456455
0.534139 0.813346 -0.456481
0.538662 0.812891 -0.456063
0.543206 0.812560 -0.455688
0.547765 0.812300 -0.455340
0.552327 0.812041 -0.454994
0.557095 0.812896 -0.455026
0.561834 0.813517 -0.454981
0.566501 0.813693 -0.454789
0.570905 0.812486 -0.454134
0.575612 0.812809 -0.453996
0.580443 0.813671 -0.454041
0.585019 0.813253 -0.453659
0.589701 0.813299 -0.453435
0.594630 0.814417 -0.453573
0.599429 0.814869 -0.453490
0.604381 0.815915 -0.453608
0.609181 0.816236 -0.453487
0.613988 0.816521 -0.453356
0.618825 0.816867 -0.453248
0.623652 0.817114 -0.453110
0.628424 0.817086 -0.452884
0.633222 0.817109 -0.452678
0.638045 0.817172 -0.452489
0.642750 0.816748 -0.452140
0.647411 0.816126 -0.451730
0.652318 0.816340 -0.451601
0.657156 0.816251 -0.451374
0.662228 0.816904 -0.451396
0.667285 0.817427 -0.451379
0.672270 0.817633 -0.451260
0.677208 0.817623 -0.451073
0.682192 0.817698 -0.450918
0.687321 0.818159 -0.450895
0.692838 0.819735 -0.451242
0.698211 0.820759 -0.451410
0.703486 0.821395 -0.451454
0.707950 0.819574 -0.450692
0.713196 0.819994 -0.450672
0.718413 0.820254 -0.450602
0.723144 0.819082 -0.450065
0.728327 0.819122 -0.449931
0.734112 0.820721 -0.450312
0.739248 0.820479 -0.450091
0.744269 0.819872 -0.449754
0.749677 0.820220 -0.449734
0.755362 0.821199 -0.449923
0.760393 0.820440 -0.449546
0.765692 0.820303 -0.449374
0.770880 0.819839 -0.449099
0.776717 0.820889 -0.449321
0.782037 0.820626 -0.449115
0.787122 0.819762 -0.448714
0.793206 0.821179 -0.449061
0.799074 0.822016 -0.449218
0.804780 0.822422 -0.449235
0.810672 0.823187 -0.449368
0.815925 0.822495 -0.449025
0.821155 0.821737 -0.448659
0.826571 0.821374 -0.448420
0.832180 0.821405 -0.448307
0.838001 0.821866 -0.448331
0.843906 0.822481 -0.448401
0.849164 0.821767 -0.448032
0.856001 0.824253 -0.448700
0.861412 0.823868 -0.448427
0.866942 0.823753 -0.448233
0.874165 0.826960 -0.449111
0.879075 0.825704 -0.448529
0.886042 0.828432 -0.449230
0.890908 0.827224 -0.448642
0.895276 0.825190 -0.447774
0.899999 0.823934 -0.447146
0.906150 0.825388 -0.447384
0.912202 0.826732 -0.447571
0.917794 0.827337 -0.447504
0.921364 0.824476 -0.446302
0.928787 0.828520 -0.447315
-0.177234 0.779570 -0.512143
-0.174336 0.783150 -0.513236
-0.170768 0.785833 -0.513930
-0.163349 0.782408 -0.512081
-0.158262 0.782854 -0.511801
-0.154296 0.785271 -0.512306
-0.148685 0.785069 -0.511711
-0.144178 0.786819 -0.511894
-0.139410 0.788235 -0.511918
-0.134139 0.788881 -0.511606
-0.128311 0.788625 -0.510909
-0.122947 0.789235 -0.510549
-0.116972 0.788807 -0.509753
-0.110460 0.787428 -0.508559
-0.105365 0.788640 -0.508404
-0.100074 0.789532 -0.508109
-0.093783 0.788575 -0.507061
-0.088728 0.789941 -0.506942
-0.083609 0.791208 -0.506777
-0.078171 0.791870 -0.506364
-0.072736 0.792530 -0.505947
-0.066981 0.792540 -0.505268
-0.060934 0.791922 -0.504340
-0.055456 0.792414 -0.503856
-0.050028 0.792974 -0.503400
-0.044226 0.792714 -0.502622
-0.038832 0.793261 -0.502167
-0.033043 0.792911 -0.501361
-0.027774 0.793628 -0.500982
-0.022561 0.794426 -0.500639
-0.017311 0.795095 -0.500250
-0.010947 0.793179 -0.498853
-0.005545 0.793360 -0.498286
-0.000276 0.793789 -0.497823
0.004794 0.794629 -0.497526
0.009822 0.795521 -0.497256
0.014848 0.796371 -0.496976
0.020471 0.795692 -0.496109
0.025992 0.795177 -0.495313
0.031314 0.795079 -0.494688
0.036411 0.795490 -0.494266
0.041043 0.797059 -0.494298
0.045388 0.799373 -0.494622
0.051982 0.795586 -0.492607
0.057308 0.795100 -0.491869
0.062683 0.794391 -0.491055
0.067281 0.795797 -0.491057
0.072356 0.795799 -0.490528
0.077463 0.795639 -0.489945
0.082391 0.795942 -0.489544
0.087009 0.797124 -0.489485
0.092274 0.796288 -0.488664
0.097088 0.796769 -0.488350
0.101762 0.797650 -0.488193
0.106253 0.799093 -0.488253
0.111060 0.799481 -0.487921
0.116643 0.797209 -0.486591
0.121309 0.797938 -0.486398
0.125904 0.798877 -0.486289
0.130775 0.798815 -0.485810
0.135995 0.797426 -0.484837
0.140753 0.797633 -0.484469
0.145057 0.799503 -0.484728
0.150096 0.798570 -0.483943
0.154435 0.800286 -0.484151
0.159425 0.799421 -0.483402
0.164138 0.799593 -0.483043
0.168435 0.801461 -0.483318
0.173276 0.801038 -0.482746
0.178285 0.799812 -0.481881
0.182894 0.800270 -0.481644
0.187570 0.800389 -0.481286
0.192395 0.799773 -0.480660
0.197051 0.799891 -0.480308
0.201904 0.799000 -0.479588
0.206538 0.799120 -0.479245
0.210953 0.800340 -0.479309
0.215409 0.801359 -0.479301
0.220100 0.801110 -0.478831
0.224744 0.801062 -0.478437
0.229197 0.802080 -0.478437
0.233911 0.801559 -0.477876
0.238452 0.802033 -0.477681
0.243048 0.802141 -0.477355
0.247709 0.801796 -0.476867
0.252328 0.801667 -0.476460
0.256836 0.802264 -0.476319
0.261405 0.802427 -0.476023
0.265916 0.802998 -0.475877
0.270507 0.802952 -0.475508
0.275132 0.802581 -0.475025
0.279753 0.802185 -0.474534
0.284160 0.803593 -0.474698
0.288749 0.803419 -0.474291
0.293284 0.803711 -0.474055
0.297823 0.803945 -0.473799
0.302448 0.803251 -0.473212
0.306987 0.803402 -0.472929
0.311427 0.804726 -0.473070
0.315978 0.804761 -0.472749
0.320544 0.804562 -0.472346
0.325042 0.805265 -0.472267
0.329586 0.805332 -0.471962
0.334210 0.803986 -0.471153
0.338683 0.805154 -0.471244
0.343202 0.805582 -0.471072
0.347743 0.805538 -0.470732
0.352305 0.804880 -0.470176
0.356789 0.806260 -0.470346
0.361300 0.807135 -0.470337
0.365819 0.807969 -0.470314
0.370384 0.806699 -0.469546
0.374935 0.805514 -0.468810
0.379447 0.807014 -0.469026
0.383983 0.806088 -0.468385
0.388509 0.805989 -0.468038
0.393036 0.806419 -0.467878
0.397567 0.807010 -0.467776
0.402095 0.807074 -0.467490
0.406643 0.808103 -0.467545
0.411199 0.809118 -0.467595
0.415751 0.809641 -0.467472
0.420282 0.809460 -0.467104
0.424790 0.808741 -0.466549
0.429292 0.808039 -0.466001
0.433845 0.808518 -0.465868
0.438378 0.808547 -0.465579
0.442903 0.808435 -0.465242
0.447410 0.808043 -0.464809
0.451963 0.808378 -0.464631
0.456651 0.810471 -0.465066
0.461153 0.809943 -0.464590
0.465602 0.808826 -0.463910
0.470258 0.810159 -0.464084
0.474870 0.810871 -0.464043
0.479344 0.810089 -0.463485
0.483865 0.809830 -0.463110
0.488410 0.809788 -0.462812
0.493073 0.810772 -0.462871
0.497714 0.811470 -0.462832
0.501921 0.808569 -0.461552
0.507007 0.812734 -0.462712
0.511415 0.811468 -0.462000
0.515775 0.809913 -0.461192
0.520464 0.810747 -0.461208
0.525181 0.811691 -0.461263
0.530034 0.813442 -0.461597
0.534505 0.812623 -0.461051
0.539034 0.812188 -0.460638
0.543558 0.811713 -0.460215
0.548076 0.811200 -0.459780
0.552915 0.812492 -0.459966
0.557686 0.813313 -0.459993
0.562513 0.814347 -0.460094
0.567139 0.814252 -0.459811
0.571556 0.813063 -0.459159
0.576313 0.813576 -0.459089
0.581074 0.814046 -0.459007
0.585656 0.813609 -0.458619
0.590460 0.814174 -0.458575
0.595455 0.815531 -0.458802
0.600223 0.815784 -0.458656
0.604969 0.815886 -0.458462
0.609709 0.815916 -0.458247
0.614463 0.815956 -0.458038
0.619464 0.816941 -0.458152
0.624291 0.817150 -0.458006
0.629078 0.817144 -0.457791
0.633873 0.817122 -0.457574
0.638643 0.816951 -0.457310
0.643366 0.816564 -0.456976
0.648242 0.816685 -0.456817
0.653149 0.816854 -0.456678
0.657891 0.816392 -0.456330
0.663195 0.817795 -0.456613
0.668403 0.818769 -0.456755
0.673327 0.818721 -0.456556
0.678374 0.819010 -0.456475
0.683209 0.818557 -0.456148
0.688289 0.818819 -0.456065
0.693668 0.819923 -0.456268
0.699192 0.821366 -0.456589
0.704141 0.820992 -0.456303
0.709095 0.820578 -0.456009
0.714405 0.821136 -0.456043
0.719611 0.821315 -0.455955
0.724493 0.820520 -0.455544
0.729707 0.820592 -0.455427
0.735233 0.821439 -0.455572
0.740011 0.820202 -0.455025
0.745235 0.820106 -0.454862
0.751162 0.821762 -0.455288
0.756261 0.821197 -0.454975
0.761326 0.820498 -0.454620
0.766629 0.820346 -0.454451
0.772659 0.821908 -0.454855
0.778228 0.822260 -0.454858
0.783092 0.820873 -0.454284
0.788311 0.820299 -0.453982
0.794137 0.821091 -0.454136
0.799894 0.821656 -0.454215
0.805448 0.821705 -0.454122
0.811070 0.821864 -0.454066
0.817225 0.823150 -0.454383
0.822354 0.822156 -0.453941
0.827231 0.820626 -0.453319
0.833235 0.821491 -0.453490
0.839260 0.822366 -0.453659
0.845198 0.823039 -0.453757
0.850852 0.823121 -0.453654
0.856210 0.822622 -0.453351
0.862291 0.823587 -0.453527
0.869411 0.826593 -0.454369
0.874367 0.825382 -0.453807
0.880976 0.827407 -0.454304
0.886320 0.827052 -0.454004
0.891419 0.826312 -0.453565
0.895979 0.824663 -0.452814
0.901171 0.824293 -0.452471
0.907952 0.826903 -0.453097
0.913952 0.828158 -0.453261
0.919247 0.828243 -0.453024
0.924300 0.828015 -0.452668
0.929130 0.827522 -0.452209
-0.182676 0.787709 -0.520796
-0.173583 0.781443 -0.517794
-0.168201 0.781158 -0.517268
-0.164210 0.783244 -0.517706
-0.160072 0.785234 -0.518075
-0.155033 0.785869 -0.517853
-0.150345 0.787199 -0.517896
-0.144780 0.787158 -0.517345
-0.139966 0.788481 -0.517337
-0.134518 0.788805 -0.516896
-0.128525 0.788246 -0.516070
-0.122742 0.788097 -0.515397
-0.117456 0.788879 -0.515094
-0.111811 0.789066 -0.514531
-0.106629 0.790131 -0.514317
-0.100449 0.789389 -0.513351
-0.094748 0.789537 -0.512742
-0.089330 0.790226 -0.512346
-0.084359 0.791784 -0.512299
-0.078036 0.790735 -0.511185
-0.072625 0.791437 -0.510781
-0.066854 0.791409 -0.510079
-0.061272 0.791730 -0.509518
-0.055504 0.791637 -0.508790
-0.050310 0.792687 -0.508525
-0.044539 0.792503 -0.507766
-0.039118 0.793007 -0.507286
-0.033581 0.793218 -0.506692
-0.027973 0.793217 -0.506019
-0.022843 0.794214 -0.505749
-0.017359 0.794378 -0.505152
-0.011442 0.793493 -0.504143
-0.005664 0.792836 -0.503233
-0.000529 0.793593 -0.502892
0.005009 0.793346 -0.502159
0.009999 0.794337 -0.501923
0.014853 0.795615 -0.501806
0.020404 0.795131 -0.501002
0.026007 0.794429 -0.500120
0.031188 0.794707 -0.499632
