ply
format ascii 1.0
comment ---
element vertex 1755
property float x
property float y
property float z
element face 0
property list uchar uint vertex_indices
end_header
-0.100922 0.755744 0.262462
-0.097912 0.760042 0.263520
-0.095851 0.767996 0.265644
-0.092335 0.770688 0.266235
-0.086998 0.766378 0.264791
-0.082082 0.763498 0.263768
-0.077475 0.761682 0.263060
-0.073861 0.763822 0.263506
-0.071925 0.773073 0.266018
-0.066561 0.767892 0.264347
-0.062362 0.767549 0.264084
-0.058218 0.767372 0.263875
-0.054186 0.767635 0.263798
-0.050246 0.768280 0.263836
-0.046232 0.768537 0.263766
-0.043899 0.777082 0.266095
-0.039785 0.776934 0.265917
-0.036132 0.779119 0.266417
-0.029479 0.765238 0.262289
-0.025813 0.767015 0.262683
-0.022224 0.769263 0.263216
-0.018346 0.769892 0.263288
-0.016312 0.781583 0.266547
-0.011283 0.775357 0.264654
-0.007043 0.773728 0.264090
-0.003089 0.773810 0.264022
-0.000173 0.780930 0.265981
0.003005 0.786624 0.267533
0.007644 0.781987 0.266122
0.012045 0.778742 0.265116
0.015766 0.780547 0.265564
0.019515 0.782219 0.265977
0.023464 0.782258 0.265926
0.026972 0.786175 0.266991
0.031215 0.783547 0.266184
0.035085 0.784249 0.266334
0.039667 0.777691 0.264409
0.043651 0.776836 0.264121
0.047202 0.780743 0.265201
0.051052 0.781475 0.265375
0.055484 0.774825 0.263439
0.059414 0.774080 0.263197
0.063043 0.777557 0.264166
0.066941 0.777301 0.264071
0.070863 0.776565 0.263841
0.074461 0.781604 0.265266
0.078270 0.783336 0.265748
0.082123 0.784411 0.266046
0.086247 0.778947 0.264475
0.090180 0.777386 0.264023
0.094026 0.778162 0.264243
0.097897 0.778250 0.264269
0.101776 0.777914 0.264175
0.105480 0.788291 0.267150
0.109399 0.788394 0.267188
0.113325 0.787780 0.267022
0.117240 0.789715 0.267589
0.121173 0.791218 0.268034
0.125081 0.787482 0.266982
0.128850 0.775548 0.263586
0.132702 0.774891 0.263419
0.136602 0.776562 0.263921
0.140532 0.778743 0.264571
0.144418 0.778783 0.264610
0.148286 0.778311 0.264505
0.152555 0.787541 0.267180
0.155851 0.773790 0.263275
0.159862 0.776579 0.264109
0.164041 0.781845 0.265655
0.168737 0.794752 0.269393
0.172635 0.793528 0.269084
0.175961 0.784300 0.266481
0.179889 0.784237 0.266507
0.183812 0.784066 0.266505
0.187826 0.784959 0.266809
0.191992 0.787407 0.267561
0.196242 0.790446 0.268484
0.200387 0.792108 0.269015
0.204819 0.796322 0.270280
0.208213 0.790613 0.268697
0.211536 0.784727 0.267065
0.215739 0.786697 0.267690
0.219998 0.788930 0.268393
0.224181 0.790368 0.268870
0.229353 0.799077 0.271439
0.234660 0.808106 0.274104
0.239108 0.810492 0.274860
0.242385 0.804784 0.273289
0.246071 0.802071 0.272581
0.250103 0.801689 0.272546
0.253906 0.799894 0.272105
0.256929 0.793517 0.270346
0.260746 0.792069 0.270008
0.264813 0.792078 0.270091
0.269259 0.794121 0.270764
0.276339 0.810070 0.275451
0.278263 0.798387 0.272167
0.281733 0.795088 0.271304
0.285450 0.793134 0.270831
0.289555 0.793110 0.270917
0.292928 0.789611 0.270001
0.296660 0.787895 0.269601
0.301219 0.789933 0.270290
0.305535 0.790783 0.270638
0.309685 0.790848 0.270761
0.313827 0.790841 0.270866
0.321622 0.805856 0.275327
0.325622 0.804906 0.275166
0.328783 0.800639 0.274044
0.331600 0.795171 0.272575
0.334860 0.791564 0.271648
0.338915 0.791025 0.271614
0.343713 0.793189 0.272368
0.351182 0.804830 0.275884
0.357140 0.810683 0.277722
0.361003 0.809032 0.277379
0.363589 0.803058 0.275779
0.366417 0.798064 0.274467
0.371605 0.800953 0.275456
0.374972 0.797826 0.274693
0.379585 0.798718 0.275107
0.388986 0.814510 0.279881
0.386581 0.793445 0.273884
0.390790 0.793024 0.273925
0.396560 0.797224 0.275323
0.402419 0.801512 0.276753
0.407344 0.802930 0.277348
0.410893 0.800349 0.276774
0.416674 0.804049 0.278048
0.417615 0.794242 0.275358
0.422569 0.795588 0.275949
0.428026 0.798193 0.276917
0.432362 0.797716 0.276983
0.443675 0.815362 0.282399
0.446368 0.810347 0.281140
0.442683 0.789288 0.275142
0.448071 0.791396 0.275990
0.457323 0.802899 0.279628
0.463328 0.806161 0.280835
0.466019 0.801348 0.279654
0.471308 0.802743 0.280320
0.478200 0.807788 0.282078
0.481135 0.803541 0.281080
0.486311 0.804437 0.281619
0.493552 0.809884 0.283521
0.498868 0.810871 0.284102
0.501488 0.805888 0.282906
0.506159 0.805394 0.283056
0.516229 0.816353 0.286645
0.521477 0.816838 0.287106
0.523610 0.810778 0.285609
0.526457 0.806274 0.284581
0.531152 0.805562 0.284700
0.535906 0.804924 0.284846
0.540664 0.804247 0.284988
0.547372 0.807338 0.286275
0.552708 0.807642 0.286727
0.560581 0.812720 0.288634
0.564113 0.809432 0.288011
0.568895 0.808492 0.288105
0.572437 0.805230 0.287497
0.578310 0.806226 0.288191
0.584231 0.807232 0.288894
0.588765 0.805689 0.288823
0.595111 0.807315 0.289726
0.600246 0.806746 0.289960
0.607043 0.808998 0.291064
0.612612 0.809065 0.291500
0.618414 0.809479 0.292046
0.625222 0.811514 0.293093
0.631449 0.812514 0.293822
0.637320 0.812879 0.294353
0.644296 0.814986 0.295424
0.649950 0.814920 0.295818
0.655814 0.815169 0.296305
0.661415 0.814991 0.296654
0.667237 0.815149 0.297099
0.673684 0.816257 0.297834
0.678862 0.815435 0.297954
0.684494 0.815318 0.298283
0.691322 0.816995 0.299161
0.696960 0.816922 0.299476
0.703797 0.818624 0.300333
0.709615 0.818870 0.300714
0.714783 0.818232 0.300797
0.720192 0.818001 0.300988
0.726110 0.818546 0.301401
0.732107 0.819257 0.301844
0.738510 0.820584 0.302459
0.745327 0.822530 0.303245
0.750854 0.822784 0.303469
0.755752 0.822277 0.303426
0.754606 0.813845 0.300840
-0.224303 0.748128 0.259783
-0.221498 0.749873 0.260380
-0.218390 0.751087 0.260803
-0.215086 0.752003 0.261120
-0.212124 0.753883 0.261699
-0.208842 0.755167 0.262084
-0.205411 0.756245 0.262391
-0.201423 0.756098 0.262322
-0.196956 0.754871 0.261921
-0.193041 0.755112 0.261930
-0.189597 0.756662 0.262305
-0.185433 0.756484 0.262160
-0.181453 0.756872 0.262166
-0.177551 0.757555 0.262244
-0.173579 0.758137 0.262280
-0.169568 0.758690 0.262296
-0.166639 0.762321 0.263196
-0.163485 0.765468 0.263944
-0.158635 0.763893 0.263313
-0.156489 0.770161 0.264949
-0.148569 0.759580 0.261697
-0.144364 0.759827 0.261578
-0.140494 0.761106 0.261753
-0.138403 0.767951 0.263532
-0.136191 0.774639 0.265261
-0.130294 0.769699 0.263631
-0.124815 0.765925 0.262339
-0.120240 0.765000 0.261870
-0.115265 0.762650 0.260991
-0.110302 0.760216 0.260091
-0.104908 0.756130 0.258720
-0.101367 0.758488 0.259202
-0.098320 0.762696 0.260215
-0.095145 0.766538 0.261125
-0.090772 0.765927 0.260761
-0.086623 0.766104 0.260628
-0.082280 0.765458 0.260262
-0.077589 0.763317 0.259475
-0.073977 0.765478 0.259920
-0.070054 0.766360 0.260004
-0.065674 0.765242 0.259522
-0.061831 0.766378 0.259687
-0.058028 0.767685 0.259905
-0.053805 0.767043 0.259573
-0.049588 0.766332 0.259227
-0.046346 0.770250 0.260200
-0.043745 0.777488 0.262119
-0.039244 0.775342 0.261379
-0.035931 0.779229 0.262354
-0.029422 0.766072 0.258506
-0.025667 0.767350 0.258752
-0.022005 0.769159 0.259153
-0.018317 0.770855 0.259527
-0.015660 0.778801 0.261672
-0.011300 0.776597 0.260951
-0.006670 0.772460 0.259689
-0.002732 0.772570 0.259632
0.001677 0.769409 0.258656
0.003157 0.786680 0.263449
0.006660 0.790315 0.264398
0.011600 0.783234 0.262329
0.015887 0.780709 0.261549
0.020166 0.777987 0.260718
0.023842 0.780136 0.261264
0.027414 0.783343 0.262111
0.030920 0.787405 0.263203
0.035302 0.783243 0.261982
0.039862 0.776797 0.260123
0.043869 0.775587 0.259741
0.047493 0.778548 0.260537
0.051219 0.780573 0.261072
0.055465 0.776172 0.259803
0.059315 0.776532 0.259876
0.063261 0.775502 0.259562
0.067088 0.776138 0.259720
0.070858 0.777792 0.260166
0.074705 0.778289 0.260291
0.078091 0.788142 0.263048
0.081985 0.788725 0.263202
0.086172 0.782095 0.261331
0.090238 0.777061 0.259911
0.094110 0.776773 0.259828
0.097915 0.778998 0.260454
0.101743 0.781090 0.261045
0.105540 0.786369 0.262535
0.109435 0.787511 0.262864
0.113353 0.786692 0.262644
0.117260 0.788485 0.263161
0.121180 0.788766 0.263254
0.125040 0.781104 0.261117
0.128876 0.777187 0.260034
0.132768 0.778508 0.260426
0.136655 0.779037 0.260598
0.140549 0.779534 0.260763
0.144693 0.787711 0.263090
0.148618 0.787706 0.263118
0.152188 0.779068 0.260718
0.155990 0.777212 0.260227
0.159817 0.776125 0.259956
0.164382 0.788420 0.263453
0.168616 0.793244 0.264849
0.172439 0.791051 0.264272
0.175927 0.784338 0.262422
0.179850 0.784238 0.262437
0.183770 0.784088 0.262439
0.187829 0.785543 0.262895
0.191737 0.785114 0.262822
0.196066 0.789148 0.264009
0.200373 0.792538 0.265017
0.204173 0.790706 0.264553
0.207716 0.786639 0.263460
0.211499 0.784987 0.263049
0.215715 0.787085 0.263699
0.219607 0.786362 0.263554
0.223717 0.787355 0.263895
0.228955 0.796698 0.266597
0.233582 0.800926 0.267857
0.237833 0.802211 0.268287
0.241805 0.801483 0.268149
0.245149 0.796665 0.266856
0.249329 0.797413 0.267139
0.252831 0.793915 0.266222
0.257020 0.794686 0.266515
0.260311 0.790177 0.265314
0.264169 0.789079 0.265081
0.269852 0.798005 0.267690
0.274595 0.801419 0.268740
0.276902 0.791958 0.266141
0.280384 0.788899 0.265359
0.285472 0.793887 0.266861
0.291005 0.800754 0.268901
0.294513 0.797725 0.268132
0.296388 0.787293 0.265262
0.301166 0.790354 0.266228
0.305534 0.791438 0.266634
0.309575 0.791038 0.266620
0.313776 0.791297 0.266796
0.319981 0.799773 0.269315
0.324928 0.802789 0.270282
0.327051 0.794471 0.268023
0.329131 0.786278 0.265799
0.334902 0.792416 0.267665
0.339276 0.793068 0.267969
0.343843 0.794366 0.268461
0.351297 0.805958 0.271897
0.356005 0.807402 0.272439
0.359511 0.804591 0.271767
0.362668 0.800651 0.270774
0.365922 0.797136 0.269905
0.369850 0.795921 0.269697
0.376418 0.803242 0.271940
0.381117 0.804341 0.272404
0.384217 0.800359 0.271413
0.385077 0.789573 0.268470
0.389303 0.789284 0.268544
0.396996 0.799295 0.271585
0.402717 0.803168 0.272867
0.408472 0.806978 0.274137
0.412899 0.806848 0.274276
0.412452 0.793021 0.270469
0.417385 0.794410 0.271053
0.422046 0.794975 0.271405
0.428157 0.799365 0.272867
0.432311 0.798408 0.272789
0.443917 0.816846 0.278333
0.442644 0.801639 0.274138
0.444069 0.793638 0.272031
0.449846 0.796677 0.273132
0.454893 0.797785 0.273678
0.462169 0.804225 0.275782
0.465353 0.800635 0.274974
0.469869 0.800234 0.275100
0.477042 0.805992 0.277029
0.480587 0.803188 0.276466
0.478944 0.788611 0.272464
0.487729 0.797750 0.275403
0.494426 0.801975 0.276914
0.498292 0.799842 0.276568
0.503128 0.799803 0.276843
0.512058 0.808432 0.279674
0.519673 0.814021 0.281622
0.523943 0.812453 0.281471
0.524538 0.803315 0.279090
0.528254 0.800671 0.278629
0.535972 0.806052 0.280548
0.540898 0.805713 0.280783
0.546895 0.807416 0.281630
0.551974 0.807242 0.281927
0.559446 0.811582 0.283574
0.566824 0.815582 0.285131
0.571184 0.813796 0.284969
0.573539 0.808295 0.283701
0.578521 0.807651 0.283887
0.583319 0.806630 0.283966
0.590666 0.810116 0.285403
0.593262 0.805105 0.284290
0.599424 0.806360 0.285065
0.607842 0.811419 0.286993
0.613093 0.810926 0.287250
0.618406 0.810505 0.287531
0.625582 0.813150 0.288742
0.631260 0.813233 0.289178
0.637915 0.814870 0.290086
0.643180 0.814203 0.290291
0.648906 0.814260 0.290715
0.654988 0.814855 0.291299
0.661080 0.815441 0.291875
0.666327 0.814701 0.292038
0.672411 0.815251 0.292589
0.678609 0.815966 0.293181
0.684929 0.816860 0.293818
0.691360 0.817918 0.294494
0.698728 0.820355 0.295582
0.703715 0.819317 0.295582
0.708392 0.817892 0.295445
0.714022 0.817898 0.295731
0.720010 0.818461 0.296170
0.726232 0.819400 0.296705
0.731922 0.819649 0.297004
0.738070 0.820594 0.297495
0.744944 0.822587 0.298289
0.751224 0.823825 0.298824
0.755197 0.822038 0.298391
0.759305 0.820550 0.298024
-0.223344 0.746167 0.255287
-0.221269 0.749604 0.256350
-0.218403 0.751419 0.256930
-0.215374 0.753024 0.257431
-0.211990 0.753957 0.257720
-0.208806 0.755517 0.258170
-0.205299 0.756453 0.258423
-0.201503 0.756822 0.258496
-0.196685 0.754766 0.257857
-0.192893 0.755352 0.257958
-0.189041 0.755897 0.258032
-0.185238 0.756676 0.258158
-0.181257 0.757093 0.258166
-0.177314 0.757698 0.258215
-0.173170 0.757844 0.258121
-0.169562 0.759523 0.258453
-0.167304 0.765053 0.259874
-0.164111 0.768154 0.260592
-0.159595 0.767590 0.260257
-0.153191 0.761532 0.258351
-0.148296 0.759763 0.257662
-0.144289 0.760613 0.257714
-0.140564 0.762356 0.258016
-0.137201 0.765277 0.258649
-0.135364 0.773111 0.260671
-0.129761 0.769078 0.259327
-0.124122 0.764759 0.257903
-0.120094 0.765625 0.257949
-0.115747 0.765403 0.257687
-0.110521 0.762094 0.256556
-0.105393 0.758964 0.255479
-0.101847 0.761344 0.255958
-0.098743 0.765388 0.256907
-0.094461 0.765137 0.256649
-0.090656 0.766637 0.256887
-0.086664 0.767417 0.256926
-0.082754 0.768489 0.257050
-0.079298 0.771387 0.257690
-0.073949 0.766515 0.256157
-0.070261 0.768386 0.256517
-0.065563 0.765909 0.255665
-0.061299 0.765171 0.255305
-0.057370 0.765854 0.255346
-0.053206 0.765409 0.255077
-0.049100 0.765151 0.254866
-0.046244 0.770893 0.256332
-0.042405 0.771955 0.256496
-0.038215 0.771217 0.256164
-0.033999 0.770232 0.255768
-0.029467 0.767430 0.254872
-0.025661 0.768420 0.255035
-0.022003 0.770253 0.255438
-0.018542 0.773273 0.256174
-0.015809 0.780808 0.258167
-0.011452 0.778641 0.257471
-0.006593 0.773061 0.255832
-0.002292 0.770742 0.255103
0.001591 0.771071 0.255113
0.004517 0.778145 0.256997
0.007006 0.788875 0.259896
0.010883 0.789776 0.260076
0.016385 0.777850 0.256707
0.021233 0.770282 0.254551
0.025290 0.768813 0.254087
0.028772 0.772285 0.254995
0.031700 0.781203 0.257412
0.035687 0.780549 0.257184
0.040215 0.774233 0.255395
0.044324 0.771730 0.254663
0.047662 0.777693 0.256275
0.051378 0.779738 0.256808
0.055525 0.776475 0.255876
0.059350 0.777131 0.256031
0.063275 0.776375 0.255798
0.067184 0.775719 0.255596
0.071102 0.774761 0.255314
0.074780 0.778018 0.256199
0.078136 0.788386 0.259050
0.081942 0.790865 0.259725
0.086045 0.786464 0.258503
0.090427 0.772907 0.254755
0.094104 0.778249 0.256228
0.097955 0.778805 0.256383
0.101808 0.779481 0.256572
0.105588 0.785102 0.258130
0.109501 0.783742 0.257762
0.113391 0.783815 0.257792
0.117278 0.786909 0.258659
0.121181 0.785400 0.258257
0.125023 0.777874 0.256194
0.128930 0.781087 0.257100
0.132887 0.785291 0.258282
0.136722 0.782151 0.257436
0.140621 0.782440 0.257540
0.144935 0.795614 0.261207
0.148799 0.793008 0.260515
0.152361 0.783643 0.257956
0.156250 0.783273 0.257885
0.160317 0.786383 0.258778
0.164480 0.790657 0.259996
0.168675 0.794728 0.261158
0.172565 0.793486 0.260853
0.176072 0.786936 0.259081
0.179691 0.782658 0.257938
0.183744 0.784307 0.258438
0.187571 0.783051 0.258134
0.191423 0.782166 0.257935
0.196202 0.791157 0.260473
0.200067 0.790032 0.260211
0.203965 0.789284 0.260054
0.207579 0.785955 0.259184
0.211473 0.785338 0.259066
0.215397 0.784995 0.259027
0.219491 0.786010 0.259365
0.223481 0.786110 0.259451
0.228221 0.791793 0.261088
0.231985 0.789980 0.260646
0.236208 0.791460 0.261120
0.240663 0.794384 0.261997
0.244984 0.796204 0.262569
0.248380 0.792015 0.261473
0.252995 0.795540 0.262523
0.256942 0.794841 0.262400
0.260713 0.793126 0.261997
0.264097 0.789293 0.261005
0.268812 0.792938 0.262096
0.273425 0.795808 0.262973
0.276655 0.791306 0.261799
0.279996 0.787564 0.260838
0.285813 0.796216 0.263333
0.291138 0.802042 0.265044
0.293746 0.794761 0.263102
0.296039 0.786331 0.260839
0.300794 0.789328 0.261767
0.305318 0.791145 0.262368
0.309533 0.791519 0.262569
0.313015 0.788754 0.261894
0.319243 0.797401 0.264412
0.323238 0.796638 0.264303
0.326503 0.792976 0.263384
0.329942 0.790103 0.262687
0.334406 0.791207 0.263107
0.339074 0.792999 0.263722
0.343135 0.792464 0.263688
0.351334 0.806801 0.267830
0.356063 0.808323 0.268381
0.358966 0.803418 0.267130
0.361386 0.797001 0.265456
0.364472 0.793000 0.264462
0.370416 0.798507 0.266146
0.378157 0.809610 0.269410
0.380755 0.803932 0.267954
0.382915 0.797028 0.266154
0.388203 0.799942 0.267125
0.392285 0.799069 0.267032
0.394412 0.792347 0.265290
0.401180 0.799426 0.267450
0.409016 0.809332 0.270416
0.413007 0.807946 0.270195
0.414294 0.798970 0.267827
0.416602 0.793035 0.266322
0.423098 0.798634 0.268091
0.427402 0.798146 0.268139
0.430565 0.794606 0.267324
0.442634 0.814339 0.273131
0.444156 0.806357 0.271064
0.445820 0.798908 0.269150
0.449552 0.796784 0.268756
0.454836 0.798493 0.269459
0.459503 0.798606 0.269713
0.466777 0.804918 0.271746
0.472165 0.806545 0.272446
0.479189 0.811898 0.274221
0.478858 0.800097 0.271085
0.479131 0.789922 0.268415
0.484628 0.791687 0.269177
0.494349 0.802721 0.272612
0.498681 0.801617 0.272565
0.503230 0.800952 0.272649
0.508574 0.801943 0.273218
0.516059 0.807363 0.275075
0.523961 0.813458 0.277137
0.528227 0.811864 0.276982
0.528486 0.802111 0.274465
0.535127 0.805336 0.275718
0.540187 0.805290 0.276028
0.545555 0.805786 0.276503
0.551182 0.806712 0.277110
0.557536 0.808942 0.278105
0.564928 0.813021 0.279650
0.569561 0.811789 0.279647
0.572409 0.807233 0.278675
0.577341 0.806523 0.278834
0.585118 0.810901 0.280496
0.587169 0.804915 0.279111
0.590912 0.801991 0.278629
0.596444 0.802198 0.279075
0.603417 0.804828 0.280242
0.606993 0.801567 0.279667
0.619605 0.813553 0.283621
0.627376 0.817165 0.285096
0.634062 0.818870 0.286007
0.638746 0.817239 0.285923
0.641677 0.812784 0.284992
0.653747 0.822974 0.288440
0.656756 0.818626 0.287534
0.660673 0.815773 0.287068
0.666170 0.815408 0.287342
0.672614 0.816493 0.288045
0.678442 0.816625 0.288453
0.683810 0.816076 0.288644
0.691111 0.818418 0.289698
0.697639 0.819601 0.290390
0.702084 0.817763 0.290151
0.705245 0.814147 0.289355
0.712747 0.816836 0.290455
0.719721 0.818777 0.291310
0.725980 0.819739 0.291848
0.732121 0.820583 0.292329
0.736374 0.818885 0.292012
0.741463 0.818431 0.292051
0.751114 0.824231 0.293975
0.753640 0.820468 0.292954
0.758277 0.819663 0.292811
-0.224053 0.748008 0.251881
-0.221113 0.749521 0.252376
-0.218442 0.751825 0.253075
-0.215283 0.753172 0.253487
-0.211316 0.752760 0.253385
-0.207256 0.752242 0.253235
-0.205026 0.756283 0.254350
-0.201143 0.756471 0.254364
-0.196944 0.755988 0.254172
-0.192930 0.756064 0.254121
-0.189403 0.757482 0.254433
-0.185357 0.757685 0.254389
-0.181245 0.757800 0.254307
-0.177119 0.757954 0.254223
-0.172902 0.757931 0.254078
-0.169410 0.759949 0.254496
-0.166859 0.764696 0.255668
-0.163434 0.767156 0.256190
-0.158980 0.766767 0.255907
-0.153221 0.762581 0.254556
-0.148290 0.760725 0.253854
-0.144161 0.761229 0.253806
-0.140443 0.763008 0.254111
-0.137684 0.767825 0.255259
-0.135388 0.774255 0.256852
-0.130526 0.772620 0.256198
-0.125388 0.769993 0.255270
-0.120087 0.766695 0.254157
-0.115217 0.764703 0.253409
-0.109605 0.760027 0.251921
-0.106048 0.762381 0.252382
-0.102200 0.763728 0.252567
-0.098362 0.765111 0.252763
-0.094263 0.765523 0.252694
-0.090075 0.765551 0.252523
-0.086825 0.769171 0.253346
-0.082607 0.769037 0.253137
-0.078527 0.769393 0.253066
-0.075140 0.772574 0.253778
-0.070181 0.769172 0.252682
-0.065615 0.767251 0.252000
-0.061196 0.765831 0.251460
-0.057075 0.765630 0.251260
-0.052567 0.763556 0.250551
-0.048874 0.765182 0.250861
-0.046219 0.771878 0.252563
-0.041719 0.769639 0.251823
-0.037901 0.770706 0.251992
-0.034507 0.773990 0.252772
-0.029366 0.767968 0.251013
-0.025613 0.769234 0.251250
-0.021989 0.771249 0.251696
-0.018382 0.773411 0.252186
-0.015505 0.780053 0.253901
-0.011503 0.780034 0.253804
-0.006651 0.774490 0.252206
-0.003319 0.778608 0.253245
-0.000010 0.783097 0.254388
0.005106 0.775019 0.252114
0.008549 0.778600 0.253017
0.012507 0.778461 0.252912
0.016624 0.776993 0.252450
0.021561 0.768610 0.250112
0.025475 0.768250 0.249959
0.028314 0.777410 0.252397
0.031958 0.779819 0.253003
0.035885 0.779642 0.252910
0.040306 0.774322 0.251423
0.044298 0.773030 0.251035
0.047909 0.775895 0.251778
0.051042 0.784807 0.254165
0.055539 0.777325 0.252105
0.059341 0.778278 0.252338
0.063237 0.777967 0.252231
0.067259 0.775591 0.251567
0.071096 0.775921 0.251639
0.074928 0.776362 0.251744
0.078449 0.783155 0.253575
0.081979 0.791148 0.255734
0.086126 0.785580 0.254217
0.090472 0.772765 0.250738
0.094244 0.774871 0.251307
0.097998 0.778410 0.252268
0.101856 0.778552 0.252309
0.105644 0.783204 0.253576
0.109537 0.782426 0.253373
0.113429 0.780665 0.252905
0.117298 0.783561 0.253702
0.121165 0.777038 0.251946
0.125047 0.780102 0.252793
0.128909 0.779201 0.252567
0.132868 0.784244 0.253955
0.136732 0.782785 0.253580
0.140699 0.785611 0.254370
0.144639 0.786658 0.254680
0.148469 0.784392 0.254092
0.152439 0.785970 0.254548
0.156429 0.787605 0.255023
0.160453 0.789532 0.255578
0.164347 0.788768 0.255404
0.168472 0.791900 0.256290
0.172412 0.791679 0.256267
0.176003 0.786489 0.254895
0.179906 0.786066 0.254820
0.183537 0.782264 0.253828
0.187375 0.781295 0.253607
0.191505 0.783643 0.254290
0.195665 0.786042 0.254988
0.200002 0.789945 0.256097
0.203938 0.789605 0.256053
0.207591 0.786647 0.255299
0.211433 0.785570 0.255057
0.215398 0.785583 0.255113
0.219375 0.785665 0.255190
0.223485 0.786731 0.255536
0.227747 0.788835 0.256167
0.232029 0.790897 0.256788
0.236365 0.793163 0.257466
0.240726 0.795416 0.258143
0.244621 0.794441 0.257941
0.248388 0.792679 0.257526
0.251622 0.787708 0.256236
0.256115 0.790520 0.257071
0.260731 0.793851 0.258051
0.264636 0.792954 0.257878
0.268120 0.789762 0.257079
0.270182 0.779108 0.254240
0.274778 0.782165 0.255152
0.280338 0.789924 0.257352
0.285646 0.796022 0.259101
0.290191 0.798115 0.259757
0.293212 0.792883 0.258408
0.297061 0.791679 0.258165
0.301197 0.791787 0.258282
0.305526 0.792706 0.258624
0.309612 0.792507 0.258662
0.312147 0.785743 0.256900
0.317833 0.792240 0.258779
0.322569 0.794595 0.259525
0.326688 0.794374 0.259565
0.330146 0.791562 0.258896
0.334087 0.790665 0.258755
0.338465 0.791401 0.259066
0.343046 0.792816 0.259566
0.347760 0.794627 0.260179
0.354516 0.803554 0.262757
0.358674 0.803109 0.262755
0.359418 0.790992 0.259536
0.365629 0.797584 0.261481
0.370710 0.800191 0.262330
0.374495 0.798473 0.261988
0.379039 0.799193 0.262324
0.379477 0.786983 0.259084
0.387614 0.798866 0.262516
0.393510 0.803529 0.263954
0.394172 0.792373 0.261012
0.399555 0.795405 0.262006
0.409995 0.812938 0.267031
0.413291 0.809531 0.266249
0.414165 0.799379 0.263596
0.417407 0.796036 0.262836
0.421833 0.795975 0.262993
0.426173 0.795638 0.263078
0.429808 0.793398 0.262636
0.438761 0.805053 0.266076
0.444098 0.807028 0.266823
0.446713 0.801995 0.265616
0.449273 0.796912 0.264398
0.454398 0.798249 0.264980
0.459484 0.799403 0.265517
0.465384 0.802430 0.266585
0.473485 0.810540 0.269089
0.478014 0.810029 0.269178
0.476555 0.795656 0.265372
0.481047 0.795159 0.265473
0.490690 0.806201 0.268833
0.495539 0.806264 0.269107
0.502399 0.810673 0.270615
0.507038 0.810108 0.270724
0.508081 0.801813 0.268650
0.514552 0.805119 0.269867
0.524739 0.816030 0.273252
0.530469 0.817438 0.273950
0.535279 0.816878 0.274095
0.534324 0.804687 0.270930
0.539425 0.804749 0.271260
0.544248 0.804202 0.271423
0.549803 0.805023 0.271983
0.557521 0.809905 0.273714
0.562978 0.810334 0.274177
0.566554 0.807173 0.273615
0.569846 0.803502 0.272909
0.577450 0.807730 0.274483
0.580617 0.803792 0.273708
0.585158 0.802336 0.273652
0.587554 0.797074 0.272498
0.593187 0.797524 0.273000
0.595661 0.792463 0.271905
0.606062 0.800986 0.274760
0.620707 0.816430 0.279642
0.625031 0.814273 0.279403
0.625683 0.806063 0.277395
0.634728 0.811689 0.279429
0.645103 0.819307 0.282052
0.646005 0.811608 0.280182
0.654724 0.816394 0.281974
0.660313 0.816171 0.282290
0.666415 0.816732 0.282833
0.672545 0.817317 0.283376
0.678312 0.817339 0.283745
0.681289 0.813185 0.282866
0.686491 0.812429 0.282982
0.694023 0.815133 0.284112
0.701806 0.818176 0.285332
0.703310 0.812145 0.283835
0.705387 0.807089 0.282609
0.706646 0.793352 0.279008
0.736246 0.826976 0.289281
0.735664 0.818539 0.286961
0.734489 0.809516 0.284439
0.737575 0.806489 0.283687
0.744736 0.809058 0.284588
0.740900 0.797047 0.281092
-0.225319 0.751130 0.248811
-0.221195 0.749995 0.248558
-0.218038 0.751217 0.248938
-0.214904 0.752655 0.249360
-0.210879 0.752136 0.249223
-0.207007 0.752103 0.249203
-0.203532 0.753152 0.249465
-0.200534 0.755516 0.250073
-0.197007 0.756729 0.250347
-0.193416 0.757917 0.250598
-0.189808 0.759186 0.250857
-0.185647 0.759141 0.250740
-0.180493 0.756564 0.249911
-0.176547 0.757204 0.249959
-0.172501 0.757652 0.249943
-0.168151 0.757334 0.249706
-0.166165 0.763640 0.251282
-0.161383 0.762259 0.250736
-0.156421 0.760344 0.250038
-0.153382 0.764001 0.250863
-0.147904 0.760551 0.249734
-0.143405 0.759941 0.249381
-0.140318 0.763635 0.250204
-0.138677 0.771953 0.252286
-0.134822 0.773514 0.252518
-0.130635 0.774037 0.252466
-0.126179 0.773664 0.252169
-0.120776 0.770075 0.250996
-0.114177 0.762245 0.248673
-0.109014 0.759060 0.247618
-0.105781 0.762525 0.248374
-0.102583 0.766203 0.249189
-0.096873 0.760745 0.247526
-0.094193 0.766361 0.248871
-0.091001 0.770187 0.249733
-0.087171 0.771627 0.249950
-0.083314 0.772955 0.250141
-0.078948 0.772208 0.249775
-0.074646 0.771631 0.249459
-0.070930 0.773447 0.249793
-0.064626 0.764060 0.247111
-0.060912 0.765664 0.247398
-0.057281 0.767646 0.247791
-0.053139 0.767289 0.247558
-0.049133 0.767490 0.247480
-0.045924 0.771522 0.248436
-0.041144 0.767841 0.247324
-0.037911 0.771829 0.248276
-0.034151 0.773190 0.248527
-0.029175 0.767992 0.247023
-0.025553 0.769956 0.247444
-0.021713 0.770723 0.247549
-0.017908 0.771676 0.247707
-0.014989 0.777980 0.249302
-0.011282 0.779698 0.249673
-0.007959 0.783933 0.250721
-0.004200 0.785488 0.251056
0.000429 0.781114 0.249809
0.004340 0.781478 0.249834
0.009047 0.775949 0.248288
0.012700 0.777998 0.248771
0.016801 0.776597 0.248336
0.021009 0.774156 0.247627
0.024978 0.773503 0.247399
0.028154 0.779839 0.249039
0.031321 0.786775 0.250842
0.036412 0.775470 0.247784
0.040591 0.772375 0.246919
0.043964 0.777628 0.248283
0.047297 0.783862 0.249910
0.051053 0.785672 0.250362
0.055515 0.778611 0.248453
0.059502 0.777081 0.248020
0.063393 0.776683 0.247892
0.067212 0.777315 0.248041
0.071096 0.776921 0.247920
0.074888 0.778112 0.248223
0.078365 0.785893 0.250284
0.082293 0.785178 0.250085
0.086234 0.783949 0.249752
0.090280 0.779346 0.248522
0.094182 0.778060 0.248178
0.098048 0.777634 0.248065
0.101900 0.777738 0.248096
0.105655 0.783986 0.249765
0.109518 0.785838 0.250265
0.113431 0.782826 0.249472
0.117312 0.782547 0.249409
0.121201 0.785872 0.250308
0.125038 0.778357 0.248322
0.128916 0.779580 0.248664
0.132808 0.780938 0.249045
0.136765 0.784533 0.250023
0.140753 0.787941 0.250954
0.144630 0.786770 0.250666
0.148458 0.784519 0.250092
0.152382 0.785052 0.250262
0.156625 0.792315 0.252227
0.160593 0.792798 0.252387
0.164484 0.791743 0.252138
0.168366 0.790674 0.251887
0.172052 0.786710 0.250865
0.175608 0.781404 0.249486
0.179714 0.784060 0.250233
0.183578 0.783335 0.250079
0.187425 0.782435 0.249879
0.191231 0.781144 0.249577
0.195513 0.785005 0.250652
0.199539 0.785856 0.250924
0.203625 0.787174 0.251323
0.207490 0.786298 0.251137
0.211320 0.785158 0.250881
0.215152 0.784099 0.250649
0.219322 0.785820 0.251161
0.223305 0.785924 0.251243
0.226568 0.780569 0.249865
0.232697 0.796336 0.254140
0.236792 0.796752 0.254310
0.240769 0.796310 0.254251
0.245327 0.799668 0.255212
0.248643 0.794900 0.253997
0.252357 0.792836 0.253509
0.256352 0.792544 0.253496
0.261130 0.796782 0.254699
0.265553 0.798743 0.255294
0.268114 0.790342 0.253111
0.270649 0.782213 0.251001
0.274041 0.778939 0.250194
0.279305 0.785302 0.251977
0.285021 0.793557 0.254270
0.289964 0.797650 0.255449
0.293979 0.797134 0.255392
0.296544 0.789925 0.253535
0.300665 0.790022 0.253645
0.305571 0.793545 0.254680
0.309636 0.793256 0.254690
0.313655 0.792749 0.254644
0.318962 0.797557 0.256032
0.323138 0.797554 0.256126
0.326312 0.793543 0.255141
0.329653 0.790304 0.254367
0.333765 0.790097 0.254412
0.338222 0.791159 0.254802
0.342896 0.792938 0.255389
0.347751 0.795272 0.256130
0.352809 0.798204 0.257035
0.354215 0.788303 0.254470
0.361021 0.797152 0.256983
0.365130 0.796609 0.256957
0.370319 0.799610 0.257894
0.373795 0.796916 0.257291
0.375167 0.787563 0.254883
0.379607 0.788102 0.255161
0.384355 0.789535 0.255686
0.390179 0.794148 0.257079
0.395845 0.798105 0.258299
0.402228 0.804009 0.260054
0.407110 0.805340 0.260569
0.410947 0.803606 0.260253
0.413755 0.798991 0.259154
0.417025 0.795744 0.258431
0.421274 0.795219 0.258455
0.425417 0.794383 0.258398
0.429680 0.793840 0.258425
0.439423 0.807582 0.262368
0.441795 0.801906 0.261000
0.445350 0.799343 0.260488
0.449961 0.799449 0.260712
0.454517 0.799363 0.260889
0.459822 0.801057 0.261561
0.465265 0.802985 0.262303
0.471546 0.806797 0.263570
0.472951 0.799039 0.261654
0.476514 0.796418 0.261157
0.479660 0.792858 0.260405
0.493562 0.813547 0.266365
0.500723 0.818674 0.268033
0.502861 0.812589 0.266602
0.508196 0.813525 0.267122
0.510945 0.808848 0.266089
0.514720 0.806392 0.265678
0.517786 0.802460 0.264859
0.522116 0.801168 0.264781
0.530532 0.808167 0.267023
0.532976 0.802922 0.265853
0.539104 0.805063 0.266754
0.543280 0.803260 0.266556
0.547387 0.801303 0.266321
0.557418 0.810686 0.269277
0.562700 0.810791 0.269635
0.566721 0.808472 0.269317
0.569463 0.803778 0.268332
0.577221 0.808305 0.269955
0.582496 0.808180 0.270271
0.586473 0.805680 0.269918
0.589090 0.800777 0.268885
0.590665 0.794110 0.267351
0.599857 0.800694 0.269588
0.604221 0.798835 0.269427
0.613679 0.805572 0.271722
0.623727 0.813098 0.274251
0.624597 0.805259 0.272384
0.629780 0.804596 0.272571
0.637282 0.807660 0.273828
0.644980 0.810942 0.275150
0.652375 0.813647 0.276305
0.656954 0.811870 0.276164
0.665145 0.815707 0.277641
0.671928 0.817297 0.278465
0.677413 0.816883 0.278700
0.677943 0.809046 0.276770
0.682793 0.807795 0.276740
0.692278 0.813406 0.278695
0.701138 0.818020 0.280351
0.700354 0.808666 0.277917
0.700970 0.801531 0.276109
0.696985 0.780488 0.270444
0.713278 0.795743 0.275132
0.730120 0.811544 0.279968
0.725245 0.797498 0.276025
0.729638 0.796312 0.275832
0.734702 0.796126 0.275910
0.707148 0.752628 0.263225
-0.225327 0.751409 0.244939
-0.221027 0.749910 0.244585
-0.217846 0.751115 0.244947
-0.214549 0.752204 0.245259
-0.210775 0.752316 0.245289
-0.206843 0.752173 0.245233
-0.203262 0.753002 0.245423
-0.199860 0.754406 0.245754
-0.196638 0.756401 0.246229
-0.193471 0.758686 0.246768
-0.189130 0.758117 0.246519
-0.184071 0.755755 0.245771
-0.180122 0.756326 0.245806
-0.175994 0.756500 0.245723
-0.171911 0.756861 0.245679
-0.167933 0.757571 0.245721
-0.164563 0.760038 0.246229
-0.160730 0.761302 0.246405
-0.155959 0.759930 0.245863
-0.151702 0.760033 0.245715
-0.147771 0.761113 0.245825
-0.143537 0.761314 0.245695
-0.139045 0.760723 0.245350
-0.137802 0.770242 0.247716
-0.134012 0.771980 0.247991
-0.129516 0.771468 0.247663
-0.125885 0.773752 0.248083
-0.120148 0.769033 0.246631
-0.113600 0.761334 0.244386
-0.108897 0.759712 0.243769
-0.105263 0.761760 0.244134
-0.101035 0.761696 0.243937
-0.095999 0.758602 0.242938
-0.092667 0.761720 0.243594
-0.089874 0.766962 0.244818
-0.087733 0.774905 0.246761
-0.084225 0.777667 0.247329
-0.079556 0.775764 0.246664
-0.074609 0.772556 0.245658
-0.070726 0.773660 0.245798
-0.064454 0.764378 0.243195
-0.060692 0.765746 0.243416
-0.057045 0.767634 0.243778
-0.053156 0.768421 0.243853
-0.049034 0.768069 0.243632
-0.045820 0.772066 0.244563
-0.041447 0.770396 0.244002
-0.037046 0.768428 0.243369
-0.033792 0.772336 0.244287
-0.029404 0.770256 0.243633
-0.025276 0.769437 0.243316
-0.020859 0.766859 0.242540
-0.017563 0.770659 0.243446
-0.014018 0.773114 0.244001
-0.010677 0.776935 0.244920
-0.006896 0.778100 0.245143
-0.003205 0.779880 0.245533
0.000642 0.780652 0.245661
0.005457 0.774528 0.243985
0.008463 0.781233 0.245676
0.012671 0.779204 0.245082
0.016478 0.780137 0.245267
0.020617 0.778351 0.244744
0.024800 0.775986 0.244072
0.028136 0.780965 0.245328
0.032190 0.779606 0.244926
0.036632 0.774266 0.243487
0.040902 0.770120 0.242364
0.044821 0.769300 0.242114
0.047175 0.786213 0.246505
0.051226 0.784548 0.246040
0.055905 0.774564 0.243402
0.059721 0.775029 0.243500
0.063381 0.777815 0.244207
0.067404 0.775253 0.243519
0.071198 0.776156 0.243739
0.074927 0.778362 0.244303
0.078470 0.784748 0.245961
0.082151 0.789374 0.247161
0.086308 0.783112 0.245519
0.090316 0.779353 0.244532
0.094219 0.777892 0.244149
0.098099 0.776768 0.243856
0.101941 0.776968 0.243911
0.105694 0.782834 0.245449
0.109550 0.784569 0.245909
0.113410 0.788393 0.246918
0.117314 0.787331 0.246651
0.121195 0.781470 0.245132
0.125058 0.780385 0.244863
0.128898 0.778196 0.244307
0.132802 0.780747 0.244992
0.136713 0.782499 0.245469
0.140741 0.787852 0.246891
0.144583 0.785719 0.246356
0.148367 0.782487 0.245536
0.152472 0.787702 0.246926
0.156750 0.795545 0.249006
0.160665 0.794728 0.248822
0.164535 0.793189 0.248450
0.168524 0.793826 0.248650
0.172347 0.791783 0.248149
0.175620 0.782115 0.245653
0.179722 0.784722 0.246372
0.183584 0.783971 0.246213
0.187433 0.783106 0.246026
0.191349 0.783032 0.246047
0.195159 0.781815 0.245770
0.199223 0.783241 0.246187
0.203341 0.785016 0.246696
0.207455 0.786563 0.247148
0.211084 0.783665 0.246435
0.214933 0.782834 0.246266
0.219097 0.784584 0.246774
0.223076 0.784718 0.246861
0.227195 0.785870 0.247216
0.231262 0.786526 0.247442
0.235496 0.788273 0.247956
0.240137 0.792633 0.249158
0.245181 0.799317 0.250973
0.249157 0.798771 0.250889
0.251982 0.791130 0.248942
0.256770 0.795652 0.250194
0.261651 0.800419 0.251512
0.265047 0.796498 0.250546
0.268148 0.791142 0.249204
0.271576 0.787783 0.248387
0.275310 0.786157 0.248029
0.278927 0.783994 0.247530
0.284093 0.789580 0.249075
0.290006 0.798477 0.251496
0.294043 0.798067 0.251465
0.296001 0.788047 0.248900
0.300576 0.790249 0.249562
0.305107 0.792133 0.250141
0.309337 0.792597 0.250348
0.313091 0.791005 0.250013
0.319689 0.801208 0.252799
0.323559 0.799909 0.252547
0.326640 0.795494 0.251472
0.329374 0.789869 0.250078
0.333203 0.788607 0.249840
0.337879 0.790533 0.250449
0.342393 0.791755 0.250875
0.347917 0.796540 0.252249
0.351265 0.793415 0.251526
0.355318 0.792814 0.251477
0.358266 0.788421 0.250422
0.365678 0.799136 0.253384
0.370575 0.801150 0.254039
0.374707 0.800571 0.254007
0.376996 0.794095 0.252408
0.380043 0.790170 0.251489
0.385042 0.792362 0.252204
0.389569 0.793011 0.252510
0.395388 0.797464 0.253836
0.400622 0.800014 0.254658
0.403934 0.796873 0.253964
0.406960 0.792969 0.253069
0.413936 0.800248 0.255169
0.416581 0.795266 0.253992
0.420680 0.794357 0.253908
0.425154 0.794437 0.254094
0.429400 0.793868 0.254110
0.434759 0.796176 0.254902
0.440079 0.798272 0.255643
0.444771 0.798666 0.255932
0.449286 0.798557 0.256090
0.453254 0.797049 0.255876
0.457431 0.796042 0.255801
0.464493 0.801953 0.257599
0.469221 0.802113 0.257850
0.473096 0.800217 0.257551
0.470656 0.783711 0.253301
0.480358 0.795296 0.256660
0.488207 0.802356 0.258803
0.499307 0.816410 0.262855
0.504469 0.817008 0.263263
0.510914 0.820315 0.264415
0.512965 0.814072 0.262973
0.511316 0.800098 0.259425
0.510971 0.789132 0.256695
0.519834 0.797373 0.259215
0.525124 0.798071 0.259683
0.533254 0.804410 0.261702
0.538264 0.804330 0.261971
0.542630 0.802925 0.261882
0.547203 0.801892 0.261900
0.554825 0.806673 0.263526
0.562523 0.811425 0.265153
0.567064 0.810084 0.265106
0.570578 0.806812 0.264530
0.575331 0.805823 0.264590
0.581879 0.808046 0.265545
0.588452 0.810203 0.266489
0.589916 0.803216 0.264894
0.594077 0.801049 0.264641
0.601195 0.803988 0.265816
0.610536 0.810609 0.268026
0.612033 0.803773 0.266477
0.621555 0.810456 0.268715
0.624565 0.806181 0.267883
0.626025 0.799425 0.266349
0.633649 0.802751 0.267651
0.641235 0.805911 0.268907
0.650539 0.811696 0.270906
0.657819 0.814166 0.271968
0.663872 0.814666 0.272470
0.670644 0.816246 0.273273
0.675876 0.815452 0.273396
0.675682 0.806524 0.271194
0.683036 0.809011 0.272230
0.694427 0.817408 0.274944
0.700328 0.817657 0.275323
0.701126 0.810565 0.273587
0.696799 0.796318 0.269782
0.706537 0.802306 0.271754
0.696394 0.780335 0.265686
0.702688 0.781677 0.266287
0.718440 0.788802 0.268711
0.719924 0.783724 0.267404
0.725034 0.783678 0.267525
0.736572 0.792274 0.270115
-0.223596 0.747747 0.240017
-0.220457 0.748914 0.240372
-0.217580 0.750851 0.240915
-0.214248 0.751892 0.241203
-0.210367 0.751779 0.241166
-0.206810 0.752568 0.241352
-0.203342 0.753713 0.241617
-0.199827 0.754879 0.241873
-0.196024 0.755463 0.241958
-0.192139 0.755952 0.242004
-0.188746 0.757804 0.242398
-0.184819 0.758403 0.242447
-0.180083 0.756961 0.241942
-0.176119 0.757603 0.241981
-0.171894 0.757615 0.241842
-0.167994 0.758569 0.241945
-0.164578 0.760938 0.242414
-0.161719 0.764993 0.243322
-0.158257 0.767457 0.243803
-0.153063 0.764943 0.242962
-0.148002 0.762747 0.242204
-0.143220 0.761319 0.241645
-0.139235 0.762286 0.241716
-0.136779 0.768046 0.243047
-0.132453 0.768038 0.242858
-0.128092 0.767887 0.242632
-0.124654 0.770736 0.243193
-0.119793 0.768882 0.242521
-0.113893 0.763368 0.240893
-0.108365 0.758900 0.239542
-0.105484 0.763584 0.240591
-0.100556 0.761009 0.239742
-0.095935 0.759408 0.239153
-0.091774 0.759413 0.238986
-0.088773 0.763802 0.239966
-0.086556 0.771370 0.241776
-0.084413 0.779483 0.243728
-0.078657 0.773163 0.241927
-0.074725 0.774093 0.242018
-0.070269 0.772770 0.241527
-0.064182 0.764233 0.239168
-0.060405 0.765507 0.239362
-0.056684 0.767028 0.239623
-0.052821 0.767889 0.239718
-0.048553 0.766799 0.239311
-0.045938 0.773664 0.240968
-0.041924 0.773800 0.240887
-0.037350 0.771002 0.240051
-0.033370 0.771118 0.239974
-0.029064 0.769411 0.239430
-0.025031 0.769068 0.239243
-0.021067 0.769034 0.239139
-0.016822 0.767276 0.238596
-0.013776 0.772628 0.239889
-0.010268 0.775356 0.240509
-0.006418 0.775991 0.240594
-0.001703 0.770856 0.239196
0.003590 0.761334 0.236675
0.007045 0.764175 0.237339
0.010642 0.766126 0.237778
0.013215 0.775988 0.240254
0.016968 0.777189 0.240506
0.020111 0.783471 0.242067
0.023750 0.785957 0.242655
0.028356 0.779918 0.241056
0.032891 0.773956 0.239481
0.036692 0.774598 0.239606
0.041150 0.768475 0.237997
0.045060 0.767611 0.237741
0.047210 0.786744 0.242620
0.050962 0.788660 0.243083
0.055900 0.775543 0.239691
0.059831 0.774445 0.239386
0.063687 0.774240 0.239313
0.067503 0.774615 0.239392
0.071280 0.775671 0.239647
0.075024 0.777493 0.240101
0.078314 0.788861 0.243006
0.082690 0.778211 0.240267
0.086235 0.785902 0.242233
0.090374 0.778686 0.240379
0.094280 0.776885 0.239916
0.098140 0.776221 0.239746
0.101970 0.776690 0.239869
0.105696 0.783976 0.241742
0.109602 0.781356 0.241076
0.113466 0.781571 0.241140
0.117327 0.784711 0.241955
0.121199 0.781125 0.241048
0.125049 0.778951 0.240504
0.128956 0.782884 0.241529
0.132866 0.784686 0.242008
0.136749 0.784459 0.241969
0.140620 0.783808 0.241822
0.144420 0.781040 0.241134
0.148372 0.783101 0.241687
0.152315 0.784405 0.242046
0.156423 0.788980 0.243247
0.160439 0.790820 0.243748
0.164542 0.793873 0.244561
0.168611 0.795818 0.245092
0.172327 0.792025 0.244151
0.175681 0.783545 0.242006
0.179572 0.783287 0.241975
0.183574 0.784408 0.242299
0.187375 0.782986 0.241971
0.191204 0.781990 0.241753
0.195211 0.782938 0.242037
0.199269 0.784286 0.242425
0.203530 0.787421 0.243274
0.207378 0.786437 0.243065
0.211050 0.783946 0.242469
0.214917 0.783277 0.242342
0.218928 0.783798 0.242524
0.223017 0.784844 0.242842
0.227826 0.791208 0.244531
0.231148 0.786288 0.243315
0.233981 0.778247 0.241296
0.238435 0.781692 0.242237
0.244569 0.795904 0.245956
0.248388 0.794489 0.245649
0.251812 0.790685 0.244726
0.256373 0.793879 0.245610
0.261591 0.800677 0.247425
0.264626 0.794726 0.245952
0.266801 0.784339 0.243333
0.271533 0.788157 0.244384
0.275922 0.789956 0.244916
0.279314 0.786565 0.244108
0.284328 0.791357 0.245416
0.289903 0.798598 0.247361
0.293724 0.797178 0.247067
0.296226 0.789700 0.245207
0.300183 0.789097 0.245127
0.304772 0.791278 0.245770
0.308991 0.791735 0.245969
0.313128 0.791791 0.246066
0.320331 0.804508 0.249448
0.323246 0.799280 0.248179
0.325768 0.792670 0.246553
0.328966 0.788921 0.245670
0.333195 0.789221 0.245840
0.337740 0.790661 0.246309
0.342703 0.793549 0.247157
0.349089 0.801435 0.249308
0.352288 0.797701 0.248439
0.354824 0.791762 0.246998
0.360860 0.797961 0.248720
0.365918 0.800624 0.249525
0.370629 0.802012 0.250001
0.374305 0.799959 0.249582
0.377275 0.795677 0.248584
0.381848 0.796533 0.248929
0.385302 0.793866 0.248358
0.389739 0.794232 0.248581
0.394357 0.795092 0.248938
0.398980 0.795896 0.249283
0.402255 0.792725 0.248591
0.406298 0.791803 0.248491
0.411864 0.795152 0.249515
0.416632 0.796147 0.249925
0.420793 0.795410 0.249885
0.424836 0.794332 0.249760
0.429054 0.793706 0.249756
0.434336 0.795835 0.250483
0.441324 0.802258 0.252345
0.444837 0.799616 0.251825
0.448480 0.797322 0.251399
0.452796 0.796708 0.251421
0.457167 0.796195 0.251474
0.461404 0.795321 0.251437
0.467771 0.799484 0.252737
0.473781 0.802646 0.253780
0.478850 0.803496 0.254216
0.481383 0.798472 0.253098
0.486311 0.798926 0.253439
0.495308 0.808373 0.256179
0.504281 0.817472 0.258837
0.512804 0.825308 0.261170
0.513146 0.815349 0.258761
0.506736 0.791282 0.252580
0.511530 0.791176 0.252804
0.519247 0.797053 0.254636
0.527269 0.803347 0.256591
0.532028 0.802854 0.256732
0.535693 0.800130 0.256279
0.542052 0.802711 0.257259
0.547436 0.803274 0.257702
0.554988 0.807928 0.259256
0.560098 0.807773 0.259520
0.564652 0.806515 0.259490
0.570185 0.807040 0.259949
0.575359 0.806835 0.260216
0.580780 0.807021 0.260594
0.588136 0.810610 0.261903
0.591999 0.807873 0.261495
0.596498 0.806252 0.261395
0.603317 0.808630 0.262390
0.609954 0.810591 0.263277
0.621213 0.820278 0.266289
0.617474 0.804599 0.262340
0.623157 0.804817 0.262755
0.629320 0.805772 0.263375
0.634186 0.804570 0.263400
0.639045 0.803348 0.263418
0.649029 0.810246 0.265682
0.656143 0.812474 0.266653
0.663630 0.815214 0.267765
0.670087 0.816303 0.268415
0.674107 0.813660 0.268020
0.677308 0.809837 0.267286
0.685979 0.814245 0.268839
0.693692 0.817164 0.269969
0.698073 0.815183 0.269718
0.701016 0.811192 0.268888
0.702799 0.805652 0.267606
0.709548 0.807301 0.268326
0.711024 0.801561 0.266951
0.703497 0.783454 0.262073
0.708103 0.782468 0.261992
0.709564 0.777267 0.260702
0.723699 0.782416 0.262447
-0.221155 0.742482 0.234716
-0.221636 0.751950 0.237225
-0.217459 0.750932 0.236980
-0.213790 0.751218 0.237058
-0.210328 0.752131 0.237283
-0.206707 0.752802 0.237430
-0.203319 0.754178 0.237745
-0.199486 0.754597 0.237794
-0.194953 0.753384 0.237404
-0.191394 0.754699 0.237660
-0.188373 0.757519 0.238295
-0.184653 0.758677 0.238484
-0.180214 0.758040 0.238195
-0.176199 0.758586 0.238204
-0.172087 0.758933 0.238152
-0.167482 0.757980 0.237754
-0.164773 0.762336 0.238728
-0.162986 0.769468 0.240415
-0.159129 0.770874 0.240609
-0.152308 0.763649 0.238563
-0.146758 0.759974 0.237435
-0.142051 0.758729 0.236935
-0.138322 0.760438 0.237196
-0.136724 0.768857 0.239188
-0.132213 0.768268 0.238852
-0.128300 0.769565 0.239003
-0.125269 0.773778 0.239905
-0.119056 0.767427 0.238090
-0.113349 0.762527 0.236651
-0.110127 0.766046 0.237379
-0.105500 0.764664 0.236850
-0.102165 0.767847 0.237495
-0.097260 0.765312 0.236677
-0.091981 0.761211 0.235463
-0.088396 0.763381 0.235857
-0.086105 0.770637 0.237554
-0.078555 0.757134 0.233952
-0.078313 0.772793 0.237799
-0.074597 0.774589 0.238109
-0.070260 0.773754 0.237754
-0.063876 0.763909 0.235109
-0.060084 0.765082 0.235274
-0.056551 0.767425 0.235741
-0.052727 0.768452 0.235877
-0.048860 0.769259 0.235962
-0.045943 0.774686 0.237222
-0.041970 0.775023 0.237195
-0.037839 0.774499 0.236953
-0.033700 0.773836 0.236681
-0.028910 0.769547 0.235494
-0.024744 0.768432 0.235117
-0.020661 0.767667 0.234832
-0.017042 0.769524 0.235214
-0.013308 0.770740 0.235438
-0.009836 0.773600 0.236081
-0.005819 0.773071 0.235871
-0.001366 0.769539 0.234906
0.003329 0.764048 0.233452
0.007761 0.759984 0.232362
0.011219 0.762774 0.233005
0.014981 0.763385 0.233101
0.019381 0.758914 0.231920
0.021368 0.773990 0.235669
0.023844 0.786056 0.238662
0.027749 0.786273 0.238670
0.033017 0.773667 0.235452
0.037341 0.769102 0.234264
0.040708 0.773911 0.235439
0.044912 0.770089 0.234443
0.047178 0.787997 0.238921
0.050969 0.789466 0.239263
0.055989 0.775270 0.235664
0.059819 0.775476 0.235694
0.063709 0.774792 0.235502
0.067546 0.774804 0.235488
0.071340 0.775523 0.235654
0.075110 0.776773 0.235955
0.078544 0.785081 0.238035
0.082512 0.783119 0.237533
0.086490 0.780388 0.236840
0.090434 0.777899 0.236211
0.094315 0.776681 0.235903
0.098153 0.776692 0.235906
0.101975 0.777459 0.236101
0.105716 0.783821 0.237705
0.109645 0.778741 0.236434
0.113515 0.775587 0.235648
0.117346 0.777966 0.236256
0.121199 0.779816 0.236733
0.125085 0.783520 0.237678
0.128973 0.784406 0.237916
0.132858 0.784565 0.237972
0.136721 0.783627 0.237754
0.140538 0.781197 0.237162
0.144424 0.781650 0.237297
0.148378 0.783762 0.237851
0.152341 0.785571 0.238331
0.156151 0.783602 0.237860
0.160353 0.789674 0.239416
0.164543 0.794442 0.240645
0.168156 0.788854 0.239267
0.172186 0.790440 0.239698
0.175677 0.784065 0.238124
0.179522 0.783197 0.237938
0.183400 0.782802 0.237873
0.187314 0.782834 0.237916
0.191365 0.784366 0.238340
0.195389 0.785408 0.238641
0.199565 0.787856 0.239297
0.203724 0.789868 0.239846
0.207421 0.787417 0.239269
0.211096 0.784934 0.238685
0.215035 0.784858 0.238710
0.219011 0.785056 0.238806
0.222978 0.785127 0.238870
0.227734 0.791103 0.240427
0.230083 0.779142 0.237454
0.233991 0.778897 0.237442
0.238086 0.779905 0.237748
0.245280 0.801170 0.243177
0.248402 0.795174 0.241715
0.251505 0.789382 0.240305
0.256296 0.794016 0.241535
0.260474 0.794784 0.241787
0.262392 0.782693 0.238785
0.265215 0.776204 0.237202
0.270802 0.784839 0.239451
0.276045 0.791201 0.241126
0.280250 0.791932 0.241377
0.285109 0.795840 0.242434
0.289455 0.797042 0.242808
0.293343 0.795994 0.242612
0.296496 0.791561 0.241559
0.300265 0.790082 0.241256
0.304176 0.789264 0.241123
0.308714 0.791158 0.241680
0.312613 0.790234 0.241524
0.318924 0.799313 0.243913
0.323699 0.801757 0.244617
0.326248 0.795213 0.243037
0.328972 0.789576 0.241688
0.333290 0.790219 0.241940
0.337867 0.791779 0.242428
0.342242 0.792498 0.242704
0.350241 0.806253 0.246307
0.353601 0.803016 0.245580
0.356543 0.798406 0.244505
0.361098 0.799442 0.244872
0.365929 0.801333 0.245461
0.368649 0.796147 0.244244
0.371940 0.792949 0.243537
0.378136 0.799110 0.245227
0.381865 0.797274 0.244874
0.386693 0.798857 0.245400
0.389427 0.793977 0.244271
0.395458 0.799092 0.245709
0.399413 0.797882 0.245528
0.402927 0.795384 0.245020
0.406465 0.792994 0.244541
0.411172 0.793924 0.244919
0.417046 0.798025 0.246118
0.420903 0.796446 0.245858
0.424618 0.794484 0.245504
0.428749 0.793639 0.245440
0.433819 0.795231 0.246010
0.442161 0.805186 0.248744
0.445965 0.803257 0.248415
0.448125 0.797203 0.247022
0.452523 0.796810 0.247096
0.457052 0.796700 0.247249
0.461378 0.796050 0.247266
0.466741 0.797836 0.247920
0.475962 0.808581 0.250908
0.479894 0.806734 0.250631
0.483026 0.803052 0.249880
0.487559 0.802574 0.249968
0.492411 0.802761 0.250234
0.500760 0.810586 0.252501
0.508071 0.815900 0.254120
0.511193 0.812033 0.253346
0.506390 0.791404 0.248185
0.509817 0.788453 0.247654
0.521496 0.802579 0.251609
0.527903 0.805532 0.252643
0.531157 0.801993 0.251976
0.535095 0.799838 0.251677
0.542494 0.804492 0.253179
0.547279 0.803884 0.253299
0.552189 0.803470 0.253477
0.558153 0.805007 0.254177
0.563511 0.805306 0.254555
0.568993 0.805768 0.254982
0.574408 0.806036 0.255364
0.580343 0.807177 0.255983
0.587365 0.810183 0.257106
0.590989 0.807037 0.256593
0.594453 0.803623 0.256010
0.601186 0.805897 0.256951
0.611807 0.814729 0.259658
0.619929 0.819077 0.261171
0.621371 0.812082 0.259637
0.622164 0.804121 0.257838
0.631450 0.810212 0.259828
0.633940 0.805112 0.258798
0.638064 0.802707 0.258492
0.649139 0.811353 0.261181
0.655996 0.813169 0.262019
0.662112 0.813772 0.262525
0.669004 0.815543 0.263346
0.674734 0.815499 0.263667
0.680105 0.814915 0.263833
0.688711 0.819168 0.265314
0.693024 0.817013 0.265033
0.697919 0.815770 0.264990
0.700990 0.811939 0.264223
0.691876 0.790761 0.258671
0.704804 0.801301 0.261821
0.709232 0.799741 0.261627
0.709282 0.792168 0.259757
0.706691 0.781147 0.256914
0.703189 0.769143 0.253775
0.709165 0.770270 0.254242
0.720225 0.778285 0.256595
