ply
format ascii 1.0
comment ---
element vertex 1677
property float x
property float y
property float z
element face 0
property list uchar uint vertex_indices
end_header
0.011091 0.764006 -0.327112
0.014992 0.765064 -0.327498
0.018908 0.764723 -0.327372
0.022822 0.764896 -0.327441
0.026742 0.765742 -0.327763
0.030666 0.766103 -0.327910
0.034587 0.766063 -0.327915
0.038506 0.765910 -0.327882
0.042478 0.767826 -0.328617
0.046428 0.768349 -0.328844
0.050366 0.768390 -0.328898
0.054284 0.767851 -0.328742
0.058208 0.767533 -0.328674
0.062192 0.768416 -0.329053
0.066134 0.768349 -0.329087
0.070097 0.768580 -0.329237
0.074029 0.768266 -0.329190
0.077979 0.768198 -0.329239
0.081926 0.768068 -0.329272
0.085898 0.768205 -0.329408
0.089791 0.767352 -0.329183
0.093761 0.767407 -0.329300
0.097854 0.768710 -0.329884
0.101862 0.768975 -0.330090
0.105896 0.769422 -0.330369
0.109843 0.768978 -0.330325
0.113875 0.769269 -0.330558
0.117940 0.769768 -0.330875
0.121524 0.766292 -0.329723
0.125707 0.767681 -0.330382
0.130131 0.770712 -0.331657
0.134524 0.773252 -0.332758
0.137861 0.768228 -0.331054
0.142257 0.770599 -0.332105
0.146699 0.773060 -0.333196
0.150639 0.772160 -0.333044
0.154586 0.771300 -0.332913
0.158692 0.771384 -0.333140
0.162771 0.771251 -0.333293
0.166850 0.771069 -0.333434
0.171827 0.775727 -0.335389
0.175994 0.775794 -0.335638
0.179781 0.773851 -0.335141
0.183748 0.772858 -0.335005
0.187878 0.772659 -0.335172
0.191869 0.771752 -0.335081
0.196212 0.772469 -0.335605
0.201364 0.776782 -0.337486
0.207649 0.785874 -0.341174
0.210815 0.780969 -0.339605
0.214154 0.776963 -0.338378
0.220133 0.784040 -0.341332
0.224240 0.783164 -0.341295
0.229095 0.785245 -0.342380
0.233519 0.785519 -0.342787
0.236700 0.780991 -0.341381
0.239559 0.775391 -0.339570
0.244803 0.778723 -0.341145
0.250263 0.782664 -0.342957
0.256351 0.788635 -0.345546
0.258478 0.780622 -0.342821
0.259173 0.767993 -0.338333
0.267692 0.781940 -0.343966
0.272924 0.784573 -0.345292
0.274721 0.776014 -0.342344
0.279743 0.777954 -0.343401
0.284491 0.778956 -0.344097
0.288752 0.778424 -0.344202
0.293234 0.778569 -0.344560
0.297709 0.778686 -0.344900
0.306293 0.790803 -0.349844
0.311006 0.791418 -0.350364
0.310012 0.775875 -0.344654
0.315446 0.778742 -0.346014
0.319589 0.777999 -0.345971
0.323672 0.777144 -0.345871
0.329603 0.781280 -0.347680
0.331769 0.775431 -0.345618
0.334249 0.770606 -0.343931
0.340069 0.774509 -0.345597
0.346845 0.780780 -0.348160
0.352337 0.783744 -0.349424
0.355322 0.780532 -0.348274
0.359143 0.779500 -0.347944
0.359313 0.769804 -0.344235
0.359725 0.760996 -0.340843
0.368588 0.772279 -0.345206
0.375132 0.778012 -0.347392
0.377127 0.773286 -0.345502
0.375400 0.760332 -0.340401
0.382208 0.766864 -0.342815
0.382494 0.758901 -0.339594
0.392828 0.773232 -0.344966
0.402901 0.786799 -0.350009
0.405602 0.784355 -0.348837
0.411073 0.787952 -0.349969
0.414880 0.788076 -0.349732
0.420799 0.792708 -0.351205
0.425706 0.795264 -0.351849
0.421398 0.778978 -0.345228
-0.445976 0.723608 -0.338049
-0.442952 0.724764 -0.338771
-0.440575 0.727093 -0.339940
-0.436313 0.726378 -0.339854
-0.430766 0.723554 -0.338889
-0.426810 0.723472 -0.339002
-0.424684 0.726617 -0.340390
-0.422024 0.728965 -0.341428
-0.418081 0.729180 -0.341576
-0.413013 0.727482 -0.340922
-0.410193 0.729838 -0.341878
-0.406955 0.731555 -0.342548
-0.399653 0.725966 -0.340236
-0.397074 0.729021 -0.341391
-0.394548 0.732297 -0.342608
-0.391017 0.733812 -0.343085
-0.386788 0.734085 -0.343036
-0.381658 0.732685 -0.342287
-0.376843 0.731910 -0.341768
-0.372576 0.732237 -0.341670
-0.368568 0.733122 -0.341775
-0.364519 0.733979 -0.341849
-0.360347 0.734634 -0.341822
-0.356743 0.736497 -0.342261
-0.353266 0.738688 -0.342815
-0.347589 0.736311 -0.341522
-0.343340 0.736932 -0.341418
-0.338715 0.736763 -0.340985
-0.334025 0.736447 -0.340483
-0.329977 0.737544 -0.340535
-0.325505 0.737710 -0.340208
-0.321108 0.738041 -0.339939
-0.316390 0.737624 -0.339367
-0.312201 0.738416 -0.339271
-0.307788 0.738675 -0.338959
-0.303005 0.738029 -0.338287
-0.299419 0.740252 -0.338747
-0.295192 0.740923 -0.338593
-0.291021 0.741721 -0.338488
-0.285899 0.740090 -0.337429
-0.281346 0.739839 -0.336915
-0.277799 0.742177 -0.337419
-0.273122 0.741539 -0.336759
-0.268527 0.741060 -0.336165
-0.264531 0.742162 -0.336193
-0.260434 0.742975 -0.336112
-0.255955 0.742683 -0.335606
-0.252408 0.745013 -0.336125
-0.248132 0.745241 -0.335831
-0.243724 0.745038 -0.335375
-0.239419 0.745086 -0.335023
-0.235543 0.746401 -0.335168
-0.231585 0.747454 -0.335217
-0.227165 0.747028 -0.334701
-0.222766 0.746602 -0.334191
-0.218740 0.747335 -0.334136
-0.214480 0.747259 -0.333776
-0.210391 0.747713 -0.333627
-0.206359 0.748328 -0.333547
-0.202042 0.747908 -0.333076
-0.198195 0.749114 -0.333236
-0.194259 0.749988 -0.333275
-0.190046 0.749809 -0.332917
-0.185884 0.749767 -0.332620
-0.181960 0.750599 -0.332663
-0.177836 0.750618 -0.332402
-0.173422 0.749412 -0.331681
-0.169286 0.749258 -0.331368
-0.165667 0.751242 -0.331876
-0.161310 0.750062 -0.331187
-0.157340 0.750498 -0.331119
-0.153488 0.751439 -0.331249
-0.149469 0.751602 -0.331089
-0.145586 0.752373 -0.331167
-0.141667 0.752956 -0.331179
-0.137676 0.753168 -0.331057
-0.133693 0.753382 -0.330942
-0.129842 0.754254 -0.331081
-0.125913 0.754705 -0.331067
-0.121606 0.753040 -0.330259
-0.117560 0.752724 -0.329967
-0.114002 0.755216 -0.330741
-0.110090 0.755662 -0.330748
-0.106015 0.755081 -0.330373
-0.102109 0.755504 -0.330383
-0.098130 0.755424 -0.330208
-0.094204 0.755665 -0.330159
-0.090417 0.756867 -0.330478
-0.086538 0.757437 -0.330563
-0.082575 0.757360 -0.330410
-0.078566 0.756872 -0.330108
-0.074618 0.756804 -0.329969
-0.070581 0.755910 -0.329525
-0.066804 0.757259 -0.329929
-0.062937 0.757834 -0.330046
-0.059067 0.758392 -0.330162
-0.055200 0.758991 -0.330298
-0.051326 0.759552 -0.330424
-0.047406 0.759585 -0.330357
-0.043469 0.759379 -0.330206
-0.039513 0.758850 -0.329938
-0.035709 0.760350 -0.330435
-0.031804 0.760495 -0.330429
-0.028047 0.763034 -0.331324
-0.024107 0.762736 -0.331162
-0.020231 0.763578 -0.331430
-0.016189 0.761001 -0.330424
-0.012286 0.761105 -0.330426
-0.008378 0.761065 -0.330379
-0.004494 0.761707 -0.330592
-0.000642 0.763708 -0.331317
0.003284 0.763266 -0.331134
0.007204 0.762853 -0.330966
0.011109 0.763200 -0.331086
0.015027 0.762429 -0.330794
0.018931 0.763506 -0.331198
0.022845 0.764225 -0.331472
0.026772 0.765655 -0.332017
0.030698 0.765868 -0.332112
0.034627 0.766054 -0.332201
0.038534 0.765096 -0.331868
0.042442 0.764459 -0.331659
0.046454 0.767370 -0.332784
0.050398 0.767507 -0.332875
0.054319 0.767039 -0.332745
0.058267 0.767201 -0.332855
0.062188 0.766753 -0.332743
0.066217 0.768296 -0.333382
0.070150 0.767931 -0.333311
0.074071 0.767407 -0.333187
0.078032 0.767474 -0.333288
0.081948 0.766886 -0.333151
0.085746 0.764852 -0.332476
0.089646 0.764203 -0.332326
0.093732 0.765653 -0.332969
0.097840 0.767128 -0.333627
0.101989 0.768829 -0.334377
0.105965 0.768663 -0.334432
0.109995 0.768958 -0.334666
0.114034 0.769248 -0.334904
0.118034 0.769142 -0.334999
0.121637 0.765800 -0.333883
0.125291 0.763056 -0.332997
0.130283 0.770431 -0.335928
0.134180 0.769365 -0.335687
0.138636 0.772198 -0.336923
0.143341 0.776457 -0.338704
0.147400 0.776195 -0.338786
0.151248 0.774570 -0.338361
0.155584 0.775965 -0.339082
0.159741 0.776164 -0.339359
0.163257 0.772620 -0.338225
0.167422 0.772843 -0.338524
0.171752 0.773893 -0.339142
0.175769 0.773186 -0.339101
0.179440 0.770678 -0.338383
0.183516 0.770278 -0.338470
0.188128 0.772456 -0.339545
0.193549 0.778328 -0.342032
0.197883 0.778817 -0.342479
0.202544 0.780714 -0.343470
0.207450 0.783560 -0.344830
0.210660 0.778874 -0.343321
0.213168 0.771375 -0.340739
0.217490 0.771670 -0.341140
0.222357 0.774116 -0.342369
0.228184 0.780224 -0.345008
0.233937 0.785750 -0.347433
0.239406 0.789927 -0.349347
0.241971 0.783047 -0.347018
0.244912 0.777772 -0.345305
0.249632 0.779054 -0.346115
0.256216 0.786823 -0.349429
0.259641 0.783341 -0.348408
0.259187 0.766779 -0.342330
0.264055 0.768538 -0.343326
0.269978 0.773671 -0.345627
0.273202 0.769916 -0.344485
0.276937 0.767888 -0.344008
0.284253 0.777064 -0.347875
0.288812 0.777492 -0.348343
0.293183 0.777333 -0.348578
0.297352 0.776583 -0.348574
0.304284 0.783923 -0.351714
0.306725 0.778148 -0.349733
0.312145 0.780992 -0.351101
0.315946 0.779264 -0.350673
0.319389 0.776629 -0.349874
0.322950 0.774422 -0.349226
0.326002 0.770959 -0.348070
0.332707 0.777238 -0.350709
0.336637 0.776199 -0.350464
0.339264 0.771904 -0.348922
0.350156 0.788648 -0.355608
0.348841 0.774604 -0.350198
0.352474 0.773157 -0.349704
0.356593 0.772999 -0.349692
0.361945 0.775879 -0.350847
0.357843 0.746988 -0.339481
0.375490 0.778784 -0.351905
0.379398 0.778492 -0.351708
0.379705 0.770143 -0.348325
0.381055 0.764404 -0.345940
0.383846 0.762076 -0.344865
0.388998 0.765069 -0.345848
0.401502 0.784060 -0.353061
0.406562 0.786770 -0.353871
0.410433 0.786995 -0.353682
0.414572 0.787884 -0.353724
0.419430 0.790358 -0.354357
0.424168 0.792637 -0.354886
-0.441155 0.716089 -0.338878
-0.439556 0.719494 -0.340540
-0.437566 0.722381 -0.341966
-0.436130 0.726322 -0.343798
-0.430457 0.723236 -0.342731
-0.426900 0.723787 -0.343122
-0.423035 0.723891 -0.343302
-0.420933 0.727135 -0.344740
-0.417360 0.727932 -0.345148
-0.412673 0.726847 -0.344756
-0.409397 0.728331 -0.345388
-0.406232 0.730115 -0.346115
-0.401917 0.729904 -0.345996
-0.397738 0.730004 -0.345976
-0.393779 0.730576 -0.346122
-0.390215 0.731961 -0.346575
-0.386366 0.732889 -0.346813
-0.381021 0.731017 -0.345882
-0.375937 0.729659 -0.345138
-0.372961 0.732451 -0.346065
-0.369267 0.733920 -0.346429
-0.364298 0.732900 -0.345756
-0.359681 0.732601 -0.345358
-0.355711 0.733650 -0.345490
-0.350873 0.732942 -0.344891
-0.346647 0.733523 -0.344799
-0.342404 0.734094 -0.344689
-0.337764 0.733833 -0.344228
-0.333649 0.734715 -0.344218
-0.329274 0.735045 -0.343974
-0.325888 0.737598 -0.344618
-0.319824 0.734124 -0.342821
-0.316030 0.735773 -0.343085
-0.312243 0.737468 -0.343360
-0.307804 0.737647 -0.343020
-0.303340 0.737747 -0.342646
-0.298979 0.738077 -0.342361
-0.295227 0.739892 -0.342669
-0.291178 0.740981 -0.342684
-0.286680 0.740929 -0.342244
-0.281527 0.739153 -0.341118
-0.277690 0.740729 -0.341330
-0.273959 0.742592 -0.341657
-0.269261 0.741864 -0.340957
-0.264902 0.741998 -0.340603
-0.260382 0.741645 -0.340062
-0.256322 0.742534 -0.340015
-0.252292 0.743488 -0.339999
-0.248367 0.744734 -0.340103
-0.243711 0.743809 -0.339356
-0.239494 0.744121 -0.339102
-0.235616 0.745434 -0.339248
-0.231578 0.746243 -0.339202
-0.226801 0.744690 -0.338235
-0.222932 0.745957 -0.338381
-0.219093 0.747317 -0.338569
-0.214668 0.746714 -0.337996
-0.211070 0.748855 -0.338501
-0.206553 0.747836 -0.337780
-0.202295 0.747646 -0.337389
-0.198184 0.747925 -0.337188
-0.194185 0.748571 -0.337137
-0.190159 0.749093 -0.337045
-0.186030 0.749190 -0.336794
-0.181701 0.748465 -0.336232
-0.177909 0.749788 -0.336470
-0.174608 0.753109 -0.337488
-0.171520 0.757407 -0.338888
-0.168084 0.760369 -0.339776
-0.161257 0.748743 -0.335039
-0.157370 0.749547 -0.335109
-0.153340 0.749693 -0.334932
-0.149506 0.750703 -0.335095
-0.145578 0.751273 -0.335094
-0.141748 0.752298 -0.335274
-0.137799 0.752732 -0.335233
-0.133328 0.750471 -0.334163
-0.129472 0.751275 -0.334276
-0.125693 0.752494 -0.334555
-0.121691 0.752496 -0.334373
-0.118158 0.755127 -0.335203
-0.114097 0.754772 -0.334895
-0.110034 0.754331 -0.334561
-0.105991 0.753947 -0.334254
-0.102052 0.754157 -0.334180
-0.098029 0.753789 -0.333891
-0.094255 0.755056 -0.334232
-0.090373 0.755601 -0.334302
-0.086466 0.755960 -0.334306
-0.082580 0.756467 -0.334373
-0.078750 0.757412 -0.334611
-0.074712 0.756663 -0.334209
-0.070825 0.757120 -0.334271
-0.066869 0.756954 -0.334102
-0.062926 0.756844 -0.333959
-0.059121 0.758060 -0.334325
-0.055200 0.758134 -0.334262
-0.051202 0.757335 -0.333872
-0.047344 0.758033 -0.334056
-0.043449 0.758322 -0.334090
-0.039347 0.755878 -0.333090
-0.035493 0.756537 -0.333274
-0.032195 0.765638 -0.336670
-0.027960 0.760890 -0.334809
-0.024020 0.760507 -0.334611
-0.019978 0.758034 -0.333625
-0.016105 0.758617 -0.333804
-0.012236 0.759371 -0.334052
-0.008353 0.759915 -0.334226
-0.004470 0.760598 -0.334457
-0.000624 0.762795 -0.335267
0.003242 0.765061 -0.336109
0.007218 0.762257 -0.335031
0.011144 0.761164 -0.334607
0.015052 0.761099 -0.334579
0.018963 0.759455 -0.333955
0.022870 0.763891 -0.335644
0.026809 0.766587 -0.336678
0.030765 0.768497 -0.337419
0.034701 0.767967 -0.337239
0.038656 0.768567 -0.337492
0.042513 0.765121 -0.336216
0.046480 0.766280 -0.336692
0.050428 0.766545 -0.336834
0.054349 0.766036 -0.336687
0.058274 0.765664 -0.336598
0.062233 0.766008 -0.336785
0.066521 0.772162 -0.339186
0.070990 0.780277 -0.342339
0.074823 0.777369 -0.341308
0.078241 0.768926 -0.338178
0.082144 0.767985 -0.337906
0.086034 0.766956 -0.337605
0.089915 0.765886 -0.337295
0.094334 0.770877 -0.339296
0.098376 0.771317 -0.339573
0.102509 0.772585 -0.340170
0.106530 0.772608 -0.340300
0.110126 0.768692 -0.338935
0.114541 0.772226 -0.340415
0.118922 0.775123 -0.341660
0.122491 0.771223 -0.340317
0.126279 0.769258 -0.339719
0.130377 0.769692 -0.340043
0.134275 0.768605 -0.339792
0.138102 0.767051 -0.339368
0.143496 0.776037 -0.342985
0.147829 0.777520 -0.343739
0.151505 0.774734 -0.342864
0.155687 0.775139 -0.343218
0.159585 0.773794 -0.342907
0.163281 0.771312 -0.342166
0.167353 0.771010 -0.342268
0.171260 0.769783 -0.342021
0.175308 0.769311 -0.342069
0.179750 0.770829 -0.342891
0.183364 0.768079 -0.342075
0.187503 0.767973 -0.342284
0.192220 0.770566 -0.343541
0.197573 0.775930 -0.345876
0.202305 0.778184 -0.347018
0.206096 0.776121 -0.346496
0.209408 0.772024 -0.345191
0.213019 0.769329 -0.344432
0.215804 0.763281 -0.342374
0.220070 0.763444 -0.342730
0.225861 0.769605 -0.345422
0.233658 0.783262 -0.351040
0.239272 0.788014 -0.353202
0.244454 0.790933 -0.354657
0.243697 0.771976 -0.347577
0.248291 0.772903 -0.348254
0.252564 0.772635 -0.348465
0.256109 0.769831 -0.347683
0.259268 0.765793 -0.346416
0.262559 0.762314 -0.345363
0.267546 0.764492 -0.346527
0.273140 0.768528 -0.348420
0.279873 0.776017 -0.351670
0.284382 0.776332 -0.352096
0.288959 0.776842 -0.352592
0.293231 0.776417 -0.352713
0.296946 0.774361 -0.352181
0.299862 0.770052 -0.350748
0.304882 0.771927 -0.351746
0.310057 0.774203 -0.352892
0.315492 0.777160 -0.354295
0.320053 0.777662 -0.354712
0.325907 0.781681 -0.356508
0.330868 0.783247 -0.357315
0.329199 0.767398 -0.351189
0.332189 0.764107 -0.350026
0.343708 0.782764 -0.357561
0.342329 0.768450 -0.351975
0.350854 0.779235 -0.356341
0.354597 0.778058 -0.355927
0.357042 0.773831 -0.354277
0.356566 0.762781 -0.349887
0.372527 0.771912 -0.353372
0.381218 0.782710 -0.357560
0.378113 0.757980 -0.347450
0.382544 0.759412 -0.347836
0.388104 0.763388 -0.349202
0.401281 0.783922 -0.357101
0.406031 0.786025 -0.357662
0.410063 0.786656 -0.357612
0.412949 0.784958 -0.356615
0.417136 0.786111 -0.356719
-0.437159 0.715903 -0.342930
-0.436104 0.720274 -0.345002
-0.433232 0.721745 -0.345851
-0.431457 0.725171 -0.347484
-0.425914 0.722300 -0.346481
-0.422380 0.722912 -0.346893
-0.419791 0.725254 -0.347994
-0.417254 0.727803 -0.349153
-0.413086 0.727582 -0.349135
-0.409212 0.727956 -0.349336
-0.405540 0.728770 -0.349690
-0.401489 0.728977 -0.349764
-0.396422 0.727383 -0.349062
-0.393579 0.729952 -0.350060
-0.390359 0.731927 -0.350784
-0.385660 0.731193 -0.350359
-0.380364 0.729351 -0.349448
-0.376089 0.729499 -0.349338
-0.372559 0.731156 -0.349828
-0.369363 0.733554 -0.350602
-0.364966 0.733636 -0.350394
-0.359523 0.731631 -0.349304
-0.355052 0.731603 -0.349013
-0.350818 0.732092 -0.348916
-0.346087 0.731569 -0.348385
-0.341628 0.731627 -0.348079
-0.338083 0.733668 -0.348573
-0.333950 0.734485 -0.348551
-0.330244 0.736270 -0.348913
-0.325745 0.736324 -0.348555
-0.320277 0.734175 -0.347287
-0.315782 0.734197 -0.346900
-0.312473 0.736970 -0.347629
-0.307818 0.736625 -0.347081
-0.302760 0.735283 -0.346122
-0.298803 0.736554 -0.346224
-0.294759 0.737623 -0.346241
-0.290767 0.738825 -0.346310
-0.286822 0.740147 -0.346426
-0.281550 0.738060 -0.345163
-0.277868 0.740027 -0.345540
-0.274027 0.741595 -0.345757
-0.269591 0.741570 -0.345333
-0.265608 0.742740 -0.345393
-0.261431 0.743364 -0.345237
-0.255841 0.739983 -0.343478
-0.252260 0.742199 -0.343969
-0.248103 0.742764 -0.343803
-0.243643 0.742404 -0.343272
-0.239529 0.743024 -0.343138
-0.235680 0.744427 -0.343322
-0.231544 0.744936 -0.343155
-0.226863 0.743688 -0.342295
-0.222569 0.743592 -0.341901
-0.219210 0.746504 -0.342707
-0.215544 0.748448 -0.343133
-0.211038 0.747559 -0.342443
-0.206909 0.747888 -0.342243
-0.202506 0.747212 -0.341653
-0.198364 0.747398 -0.341411
-0.194313 0.747872 -0.341289
-0.190348 0.748639 -0.341289
-0.186230 0.748797 -0.341057
-0.182057 0.748703 -0.340732
-0.177740 0.747980 -0.340168
-0.174966 0.753420 -0.342029
-0.171283 0.755289 -0.342494
-0.164435 0.743815 -0.337737
-0.162730 0.753995 -0.341471
-0.158281 0.752469 -0.340627
-0.154088 0.751977 -0.340195
-0.150049 0.752129 -0.340021
-0.146064 0.752496 -0.339938
-0.142124 0.753048 -0.339933
-0.138025 0.752788 -0.339618
-0.133117 0.748334 -0.337676
-0.128777 0.746578 -0.336793
-0.124867 0.746996 -0.336763
-0.122188 0.754215 -0.339382
-0.118681 0.757080 -0.340312
-0.114383 0.755429 -0.339494
-0.109913 0.752587 -0.338221
-0.105554 0.750218 -0.337138
-0.102018 0.752944 -0.338037
-0.098459 0.755657 -0.338935
-0.095153 0.760256 -0.340569
-0.090903 0.758410 -0.339712
-0.086601 0.755997 -0.338641
-0.082836 0.757475 -0.339082
-0.078940 0.757982 -0.339153
-0.075101 0.758959 -0.339410
-0.070922 0.757042 -0.338555
-0.066945 0.756728 -0.338324
-0.063063 0.757246 -0.338420
-0.059114 0.757099 -0.338265
-0.055087 0.756089 -0.337781
-0.051101 0.755376 -0.337418
-0.047095 0.754307 -0.336922
-0.043481 0.757894 -0.338227
-0.039955 0.763054 -0.340143
-0.036723 0.773006 -0.343909
-0.032411 0.768135 -0.341968
-0.028275 0.765294 -0.340814
-0.023725 0.754614 -0.336647
-0.019927 0.756399 -0.337286
-0.016475 0.765909 -0.340904
-0.012641 0.768472 -0.341852
-0.008706 0.768976 -0.342012
-0.004693 0.767135 -0.341274
-0.000719 0.766057 -0.340835
0.003190 0.767344 -0.341311
0.007089 0.769871 -0.342270
0.011084 0.766744 -0.341058
0.015047 0.763693 -0.339880
0.018977 0.762115 -0.339274
0.022895 0.762638 -0.339482
0.026860 0.769227 -0.342028
0.030805 0.768563 -0.341789
0.034737 0.767444 -0.341381
0.038628 0.764887 -0.340423
0.042534 0.763825 -0.340047
0.046483 0.764396 -0.340304
0.050460 0.765549 -0.340791
0.054383 0.765059 -0.340650
0.058320 0.764940 -0.340658
0.062404 0.767695 -0.341778
0.066500 0.770117 -0.342777
0.070856 0.776403 -0.345270
0.074636 0.772907 -0.343999
0.078445 0.770247 -0.343056
0.082256 0.767925 -0.342248
0.086074 0.765918 -0.341567
0.089707 0.761927 -0.340126
0.093924 0.764801 -0.341340
0.098370 0.769741 -0.343359
0.102210 0.768076 -0.342833
0.105931 0.765390 -0.341919
0.110227 0.768130 -0.343108
0.114419 0.769668 -0.343839
0.119602 0.779315 -0.347715
0.123534 0.778102 -0.347396
0.127100 0.774105 -0.346005
0.132201 0.781758 -0.349134
0.136338 0.781900 -0.349361
0.139434 0.774792 -0.346781
0.142591 0.768508 -0.344524
0.147738 0.775446 -0.347407
0.151227 0.771510 -0.346074
0.155409 0.771972 -0.346456
0.159181 0.769937 -0.345873
0.162938 0.767876 -0.345285
0.167257 0.769006 -0.345947
0.171340 0.768745 -0.346073
0.175336 0.767989 -0.346013
0.179485 0.768004 -0.346259
0.183218 0.765892 -0.345681
0.186871 0.763445 -0.344976
0.191176 0.764156 -0.345513
0.196914 0.771416 -0.348622
0.201130 0.771411 -0.348893
0.205246 0.770910 -0.348974
0.209566 0.771267 -0.349398
0.212925 0.767503 -0.348206
0.214758 0.757553 -0.344581
0.217876 0.753178 -0.343149
0.224707 0.763638 -0.347569
0.229848 0.767078 -0.349229
0.237692 0.780608 -0.354881
0.236989 0.761736 -0.347731
0.242792 0.767321 -0.350251
0.246682 0.765810 -0.349965
0.251205 0.766549 -0.350569
0.254552 0.763176 -0.349542
0.260322 0.768110 -0.351813
0.263931 0.765658 -0.351147
0.268648 0.766899 -0.351947
0.273879 0.769732 -0.353379
0.280693 0.777457 -0.356760
0.284684 0.776155 -0.356536
0.289234 0.776604 -0.357003
0.293387 0.775847 -0.356981
0.297303 0.774423 -0.356681
0.299058 0.766769 -0.353873
0.304097 0.768781 -0.354924
0.311531 0.777511 -0.358659
0.316025 0.777837 -0.359009
0.320944 0.779351 -0.359821
0.326069 0.781419 -0.360840
0.331441 0.784128 -0.362098
0.327947 0.763538 -0.353963
0.332455 0.764282 -0.354389
0.340286 0.773556 -0.358227
0.345654 0.776439 -0.359471
0.346027 0.766880 -0.355679
0.355225 0.779326 -0.360727
0.355729 0.770432 -0.357153
0.345636 0.736420 -0.343434
0.374252 0.785333 -0.363023
0.379289 0.787609 -0.363840
0.381700 0.783913 -0.362225
0.378380 0.767408 -0.355432
0.374695 0.750532 -0.348468
0.376751 0.746834 -0.346780
0.391067 0.770216 -0.355940
0.401253 0.784247 -0.361306
0.406296 0.787035 -0.362130
0.409828 0.786650 -0.361655
0.413391 0.786433 -0.361221
0.414941 0.782108 -0.359120
-0.436371 0.721082 -0.349218
-0.433817 0.723048 -0.350303
-0.430222 0.723360 -0.350668
-0.426344 0.723269 -0.350837
-0.421709 0.721947 -0.350461
-0.419881 0.725552 -0.352125
-0.417333 0.728035 -0.353292
-0.412972 0.727426 -0.353131
-0.408908 0.727408 -0.353189
-0.405863 0.729296 -0.354020
-0.400299 0.726702 -0.352939
-0.395999 0.726445 -0.352812
-0.392678 0.728067 -0.353447
-0.389928 0.730853 -0.354543
-0.385472 0.730520 -0.354302
-0.380064 0.728409 -0.353287
-0.375920 0.728753 -0.353279
-0.372338 0.730252 -0.353731
-0.368993 0.732299 -0.354388
-0.364986 0.733107 -0.354502
-0.360609 0.733218 -0.354303
-0.355320 0.731494 -0.353316
-0.351080 0.731933 -0.353216
-0.345947 0.730528 -0.352327
-0.342009 0.731651 -0.352477
-0.338109 0.732896 -0.352663
-0.334378 0.734555 -0.353006
-0.330273 0.735434 -0.353011
-0.325989 0.735938 -0.352848
-0.321675 0.736382 -0.352651
-0.317244 0.736566 -0.352336
-0.312217 0.735355 -0.351437
-0.308087 0.736215 -0.351389
-0.303318 0.735555 -0.350708
-0.298086 0.733730 -0.349544
-0.295262 0.737755 -0.350786
-0.290603 0.737292 -0.350178
-0.286106 0.737194 -0.349719
-0.282023 0.738126 -0.349683
-0.277708 0.738447 -0.349397
-0.273730 0.739632 -0.349464
-0.269522 0.740201 -0.349281
-0.265782 0.742020 -0.349611
-0.262027 0.743815 -0.349932
-0.257317 0.742936 -0.349167
-0.252715 0.742291 -0.348503
-0.248153 0.741698 -0.347865
-0.243912 0.741988 -0.347591
-0.239746 0.742463 -0.347397
-0.235653 0.743130 -0.347286
-0.231363 0.743162 -0.346924
-0.226842 0.742413 -0.346253
-0.222571 0.742393 -0.345883
-0.219036 0.744728 -0.346468
-0.215299 0.746422 -0.346800
-0.211378 0.747507 -0.346892
-0.206966 0.746886 -0.346306
-0.202689 0.746663 -0.345888
-0.198791 0.747742 -0.345998
-0.195794 0.752103 -0.347426
-0.190536 0.748159 -0.345540
-0.186407 0.748297 -0.345295
-0.182188 0.748044 -0.344900
-0.178066 0.748111 -0.344639
-0.173090 0.744679 -0.342994
-0.167790 0.739712 -0.340747
-0.164558 0.743202 -0.341871
-0.162004 0.749728 -0.344205
-0.158781 0.753546 -0.345468
-0.154691 0.753579 -0.345234
-0.150807 0.754520 -0.345367
-0.147085 0.756224 -0.345809
-0.142715 0.754818 -0.345026
-0.138599 0.754553 -0.344702
-0.133400 0.748707 -0.342179
-0.128069 0.741800 -0.339248
-0.124257 0.742654 -0.339388
-0.121322 0.748362 -0.341447
-0.118238 0.753503 -0.343287
-0.114529 0.755236 -0.343788
-0.109857 0.751212 -0.342029
-0.105791 0.750668 -0.341647
-0.102496 0.755003 -0.343189
-0.099908 0.764274 -0.346675
-0.095813 0.763787 -0.346330
-0.091487 0.761568 -0.345312
-0.087288 0.760081 -0.344587
-0.082969 0.757522 -0.343449
-0.079325 0.760086 -0.344325
-0.075301 0.759666 -0.344037
-0.071103 0.757659 -0.343132
-0.066942 0.755773 -0.342281
-0.063218 0.757789 -0.342964
-0.059220 0.757247 -0.342650
-0.055052 0.754831 -0.341608
-0.051251 0.756152 -0.342034
-0.047241 0.755150 -0.341557
-0.043607 0.758606 -0.342827
-0.040928 0.774989 -0.349155
-0.036669 0.771448 -0.347700
-0.032596 0.770140 -0.347123
-0.028136 0.762288 -0.343995
-0.023704 0.753542 -0.340524
-0.019820 0.753690 -0.340533
-0.016406 0.763828 -0.344447
-0.012488 0.764283 -0.344584
-0.008601 0.765683 -0.345096
-0.004721 0.767645 -0.345832
-0.000791 0.768464 -0.346127
0.003131 0.769949 -0.346688
0.006964 0.777304 -0.349543
0.010905 0.781739 -0.351265
0.014995 0.772593 -0.347692
0.018992 0.764588 -0.344570
0.022928 0.764941 -0.344715
0.026896 0.769468 -0.346493
0.030900 0.773239 -0.347982
0.034818 0.769577 -0.346576
0.038680 0.764880 -0.344771
0.042561 0.762629 -0.343925
0.046532 0.763912 -0.344465
0.050508 0.764943 -0.344912
0.054460 0.765089 -0.345019
0.058500 0.767064 -0.345845
0.062544 0.768687 -0.346541
0.066658 0.771253 -0.347610
0.070519 0.769172 -0.346870
0.074377 0.767303 -0.346217
0.078258 0.765979 -0.345784
0.082568 0.770465 -0.347629
0.086106 0.764741 -0.345486
0.089517 0.758130 -0.343000
0.093287 0.756183 -0.342345
0.097835 0.762570 -0.344959
0.100736 0.751814 -0.340865
0.105104 0.755989 -0.342626
0.110320 0.767441 -0.347248
0.115243 0.775311 -0.350475
0.119411 0.776181 -0.350963
0.124211 0.781986 -0.353397
0.127994 0.779467 -0.352569
0.131696 0.776482 -0.351564
0.137005 0.785135 -0.355141
0.140240 0.778834 -0.352844
0.142747 0.768044 -0.348784
0.146202 0.764018 -0.347390
0.150850 0.767652 -0.349020
0.155254 0.769528 -0.349966
0.159417 0.769824 -0.350295
0.163221 0.767997 -0.349793
0.167590 0.769358 -0.350556
0.171719 0.769299 -0.350765
0.175552 0.767635 -0.350345
0.179404 0.766107 -0.349984
0.183241 0.764530 -0.349610
0.187288 0.763998 -0.349655
0.192412 0.768540 -0.351720
0.197153 0.771048 -0.352986
0.201093 0.769776 -0.352756
0.205396 0.770113 -0.353170
0.209889 0.771204 -0.353891
0.212905 0.765982 -0.352099
0.215064 0.757403 -0.348967
0.218463 0.754153 -0.347963
0.223039 0.755649 -0.348857
0.229173 0.763074 -0.352129
0.230025 0.750131 -0.347249
0.234049 0.749460 -0.347282
0.241979 0.763017 -0.353028
0.246656 0.764400 -0.353892
0.249981 0.760958 -0.352817
0.254798 0.762760 -0.353850
0.260742 0.768285 -0.356383
0.268935 0.781065 -0.361843
0.273573 0.781782 -0.362440
0.277492 0.780160 -0.362086
0.280404 0.775412 -0.360462
0.285166 0.776556 -0.361212
0.289218 0.775501 -0.361064
0.293538 0.775289 -0.361249
0.297495 0.774027 -0.360996
0.299844 0.768145 -0.358854
0.304921 0.770276 -0.359953
0.312204 0.778586 -0.363551
0.315832 0.776533 -0.362921
0.320406 0.777164 -0.363366
0.325419 0.779005 -0.364286
0.327966 0.774282 -0.362512
0.329460 0.766978 -0.359665
0.335099 0.770656 -0.361272
0.345403 0.786210 -0.367702
0.345542 0.775804 -0.363520
0.345544 0.765393 -0.359310
0.355451 0.779655 -0.365143
0.345972 0.737132 -0.347741
0.371491 0.778891 -0.364619
0.374783 0.777262 -0.363834
0.378005 0.775599 -0.363008
0.383535 0.779293 -0.364337
0.401239 0.784651 -0.365529
0.404768 0.784233 -0.365044
0.409608 0.786716 -0.365708
0.412894 0.785967 -0.365036
-0.432556 0.721288 -0.353449
-0.429540 0.722522 -0.354226
-0.426393 0.723624 -0.354922
-0.423421 0.725124 -0.355759
-0.421648 0.728805 -0.357497
-0.417744 0.728890 -0.357678
-0.411116 0.724226 -0.355811
-0.408510 0.726732 -0.356965
-0.405637 0.728873 -0.357935
-0.401489 0.728801 -0.357935
-0.395557 0.725514 -0.356538
-0.391794 0.726253 -0.356827
-0.389185 0.729235 -0.358043
-0.386352 0.731913 -0.359102
-0.380410 0.728745 -0.357646
-0.375800 0.728141 -0.357257
-0.372294 0.729737 -0.357777
-0.368313 0.730471 -0.357906
-0.364974 0.732551 -0.358583
-0.360268 0.731948 -0.358099
-0.354834 0.729871 -0.356970
-0.350207 0.729449 -0.356523
-0.346531 0.731040 -0.356909
-0.342432 0.731793 -0.356922
-0.338967 0.733945 -0.357510
-0.334802 0.734639 -0.357466
-0.330585 0.735246 -0.357372
-0.326339 0.735807 -0.357246
-0.322395 0.737070 -0.357403
-0.317838 0.736955 -0.356971
-0.312416 0.734816 -0.355682
-0.308187 0.735422 -0.355538
-0.303703 0.735422 -0.355134
-0.299567 0.736246 -0.355070
-0.294929 0.735840 -0.354488
-0.290937 0.737008 -0.354560
-0.286738 0.737660 -0.354414
-0.282089 0.737148 -0.353782
-0.277929 0.737862 -0.353661
-0.273895 0.738894 -0.353671
-0.269558 0.739110 -0.353344
-0.265361 0.739676 -0.353164
-0.261680 0.741649 -0.353567
-0.257645 0.742647 -0.353570
-0.253647 0.743739 -0.353614
-0.249625 0.744751 -0.353628
-0.245521 0.745510 -0.353542
-0.240348 0.743046 -0.352138
-0.235290 0.740800 -0.350831
-0.231274 0.741661 -0.350805
-0.227289 0.742599 -0.350815
-0.222985 0.742500 -0.350407
-0.218823 0.742809 -0.350172
-0.215403 0.745546 -0.350933
-0.211433 0.746474 -0.350962
-0.207221 0.746548 -0.350650
-0.202933 0.746309 -0.350217
-0.199161 0.747859 -0.350518
-0.195332 0.749207 -0.350743
-0.191141 0.749214 -0.350431
-0.186458 0.747302 -0.349349
-0.182308 0.747321 -0.349056
-0.177828 0.745990 -0.348226
-0.173619 0.745648 -0.347802
-0.168459 0.741315 -0.345777
-0.164500 0.741809 -0.345707
-0.161095 0.744659 -0.346591
-0.158442 0.750903 -0.348847
-0.154927 0.753503 -0.349640
-0.151449 0.756346 -0.350537
-0.147782 0.758387 -0.351117
-0.143590 0.757932 -0.350701
-0.138892 0.754897 -0.349258
-0.133917 0.750241 -0.347175
-0.128611 0.743556 -0.344288
-0.124381 0.742249 -0.343563
-0.121102 0.746070 -0.344895
-0.118041 0.751309 -0.346797
-0.114034 0.751276 -0.346599
-0.109913 0.750498 -0.346110
-0.105699 0.749057 -0.345362
-0.102812 0.755994 -0.347961
-0.099299 0.759194 -0.349074
-0.095680 0.761838 -0.349971
-0.090982 0.756964 -0.347880
-0.086216 0.751181 -0.345435
-0.082838 0.755528 -0.347027
-0.079759 0.762549 -0.349686
-0.075446 0.759895 -0.348503
-0.071063 0.756355 -0.346976
-0.067293 0.757991 -0.347510
-0.063357 0.758168 -0.347470
-0.059292 0.757043 -0.346919
-0.055190 0.755370 -0.346157
-0.051138 0.754026 -0.345531
-0.047257 0.754467 -0.345618
-0.043709 0.759012 -0.347337
-0.040044 0.762568 -0.348669
-0.036578 0.769355 -0.351285
-0.032405 0.766477 -0.350078
-0.027993 0.759232 -0.347146
-0.023782 0.754217 -0.345104
-0.019942 0.755378 -0.345513
-0.015889 0.752207 -0.344213
-0.012127 0.755165 -0.345343
-0.008364 0.758833 -0.346760
-0.004652 0.765177 -0.349240
-0.000783 0.768005 -0.350334
0.003116 0.770668 -0.351368
0.006993 0.776013 -0.353468
0.010908 0.782510 -0.356030
0.014981 0.776718 -0.353735
0.019021 0.762977 -0.348300
0.022953 0.762195 -0.347998
0.026925 0.768383 -0.350459
0.030917 0.771051 -0.351533
0.034935 0.773667 -0.352591
0.038755 0.765864 -0.349533
0.042620 0.762618 -0.348283
0.046613 0.764380 -0.349020
0.050634 0.766423 -0.349875
0.054505 0.764268 -0.349073
0.058481 0.764807 -0.349343
0.062555 0.767111 -0.350319
0.066758 0.771267 -0.352034
0.070605 0.768850 -0.351152
0.074176 0.762550 -0.348735
0.078495 0.767665 -0.350850
0.082483 0.767683 -0.350949
0.086275 0.765215 -0.350069
0.090186 0.764372 -0.349840
0.093640 0.758516 -0.347626
0.097003 0.752262 -0.345258
0.101044 0.753340 -0.345808
0.104925 0.752736 -0.345696
0.110397 0.766580 -0.351334
0.116260 0.782568 -0.357837
0.121258 0.789977 -0.360937
0.124536 0.783007 -0.358323
0.127758 0.776083 -0.355731
0.131455 0.773140 -0.354729
0.135952 0.776056 -0.356069
0.139404 0.771522 -0.354444
0.142768 0.766654 -0.352691
0.146230 0.762676 -0.351298
0.150081 0.761325 -0.350959
0.154856 0.765593 -0.352874
0.159308 0.767654 -0.353915
0.163870 0.770176 -0.355148
0.167922 0.769678 -0.355178
0.172053 0.769581 -0.355375
0.176265 0.769859 -0.355730
0.179975 0.767516 -0.355037
0.183504 0.764337 -0.354014
0.188211 0.766980 -0.355336
0.192979 0.769726 -0.356708
0.197532 0.771307 -0.357618
0.201435 0.769832 -0.357301
0.205851 0.770640 -0.357910
0.209798 0.769348 -0.357676
0.213888 0.768670 -0.357694
0.218756 0.771181 -0.359006
0.224667 0.777745 -0.361966
0.227144 0.770454 -0.359315
0.227540 0.755380 -0.353502
0.231147 0.753034 -0.352851
0.237680 0.761607 -0.356639
0.242817 0.764740 -0.358221
0.245707 0.759705 -0.356477
0.250481 0.761430 -0.357486
0.258323 0.773626 -0.362767
0.263688 0.776997 -0.364451
0.271215 0.787405 -0.369011
0.276550 0.790294 -0.370496
0.278678 0.782806 -0.367726
0.280418 0.774347 -0.364547
0.284117 0.772239 -0.363960
0.288821 0.773266 -0.364650
0.294003 0.775703 -0.365910
0.299977 0.780416 -0.368096
0.298736 0.764052 -0.361597
0.304078 0.767038 -0.363045
0.310684 0.773522 -0.365920
0.315788 0.775683 -0.367000
0.319976 0.775319 -0.367021
0.324269 0.775293 -0.367162
0.326460 0.769729 -0.364997
0.332173 0.773607 -0.366709
0.339728 0.782203 -0.370349
0.347291 0.790659 -0.373910
0.340613 0.763083 -0.362555
0.342351 0.757215 -0.360147
0.355626 0.779909 -0.369517
0.361141 0.783294 -0.370880
0.366982 0.787464 -0.372541
0.370628 0.786419 -0.372019
0.364326 0.762183 -0.361894
0.379445 0.779094 -0.368560
0.389909 0.793996 -0.374505
0.396317 0.774423 -0.365367
0.403614 0.782278 -0.368258
0.407912 0.783678 -0.368469
-0.429422 0.716415 -0.355221
-0.427764 0.719864 -0.356974
-0.426791 0.724616 -0.359264
-0.424974 0.728067 -0.360970
-0.421166 0.728189 -0.361217
-0.416709 0.727249 -0.360979
-0.412351 0.726538 -0.360811
-0.407384 0.724796 -0.360171
-0.404732 0.727267 -0.361317
-0.400798 0.727519 -0.361478
-0.394753 0.723960 -0.359968
-0.391184 0.724993 -0.360409
-0.390238 0.731030 -0.362979
-0.385762 0.730561 -0.362718
-0.380422 0.728481 -0.361736
-0.375641 0.727495 -0.361198
-0.371279 0.727359 -0.361002
-0.368003 0.729416 -0.361725
-0.363524 0.729156 -0.361426
-0.359701 0.730258 -0.361690
-0.354748 0.729106 -0.360964
-0.350174 0.728747 -0.360558
-0.346130 0.729518 -0.360617
-0.342977 0.732224 -0.361487
-0.339223 0.733726 -0.361823
-0.335951 0.736330 -0.362612
-0.331621 0.736680 -0.362422
-0.327021 0.736443 -0.361968
-0.320640 0.732177 -0.359786
-0.316988 0.734051 -0.360211
-0.312242 0.733432 -0.359565
-0.307754 0.733392 -0.359157
-0.303666 0.734296 -0.359143
-0.299520 0.735071 -0.359068
-0.295324 0.735726 -0.358937
-0.291310 0.736832 -0.358992
-0.287060 0.737349 -0.358795
-0.282086 0.735998 -0.357809
-0.278033 0.736976 -0.357803
-0.274050 0.738133 -0.357873
-0.269673 0.738235 -0.357498
-0.265452 0.738731 -0.357291
-0.261370 0.739587 -0.357236
-0.258053 0.742576 -0.358076
-0.254059 0.743691 -0.358133
-0.249638 0.743559 -0.357672
-0.245316 0.743674 -0.357319
-0.239400 0.738976 -0.354967
-0.235626 0.740591 -0.355250
-0.231615 0.741483 -0.355237
-0.227604 0.742357 -0.355221
-0.223526 0.742996 -0.355113
-0.219406 0.743477 -0.354945
-0.215375 0.744220 -0.354892
-0.211675 0.746056 -0.355296
-0.207491 0.746246 -0.355026
-0.203078 0.745593 -0.354415
-0.198952 0.745886 -0.354202
-0.195255 0.747704 -0.354622
-0.191189 0.748174 -0.354494
-0.186947 0.747946 -0.354087
-0.182208 0.745732 -0.352872
-0.178756 0.748459 -0.353691
-0.175357 0.751463 -0.354628
-0.170840 0.749945 -0.353721
-0.165433 0.744564 -0.351244
-0.161162 0.743780 -0.350654
-0.157482 0.745507 -0.351097
-0.154477 0.750308 -0.352798
-0.151217 0.754112 -0.354097
-0.147313 0.755013 -0.354219
-0.143965 0.758601 -0.355440
-0.139082 0.754703 -0.353624
-0.133508 0.747036 -0.350286
-0.129817 0.748756 -0.350769
-0.126318 0.751550 -0.351694
-0.122609 0.753299 -0.352199
-0.117912 0.749488 -0.350458
-0.113747 0.748511 -0.349873
-0.109515 0.747034 -0.349093
-0.106369 0.752155 -0.350987
-0.102172 0.750829 -0.350280
-0.099402 0.758821 -0.353343
-0.095216 0.757608 -0.352693
-0.089789 0.747463 -0.348445
-0.085932 0.748071 -0.348544
-0.082699 0.753453 -0.350574
-0.079686 0.760963 -0.353465
-0.075121 0.756211 -0.351420
-0.071099 0.755690 -0.351086
-0.067249 0.756635 -0.351348
-0.063408 0.757695 -0.351662
-0.059464 0.757809 -0.351601
-0.055293 0.755524 -0.350580
-0.051251 0.754365 -0.350018
-0.047677 0.758445 -0.351568
-0.044034 0.762136 -0.352966
-0.039857 0.759276 -0.351738
-0.035964 0.759950 -0.351934
-0.031806 0.756696 -0.350559
-0.027794 0.755246 -0.349914
-0.024721 0.770052 -0.355800
-0.019908 0.754063 -0.349330
-0.015815 0.750023 -0.347663
-0.012057 0.752979 -0.348808
-0.008391 0.759123 -0.351237
-0.004667 0.765306 -0.353686
-0.000904 0.772222 -0.356435
0.003142 0.769549 -0.355343
0.007144 0.767852 -0.354648
0.011105 0.768031 -0.354711
0.015170 0.754957 -0.349464
0.019081 0.750775 -0.347789
0.022976 0.758472 -0.350883
0.026961 0.768088 -0.354753
0.030950 0.770163 -0.355604
0.034933 0.770536 -0.355778
0.038830 0.766749 -0.354289
0.042723 0.764146 -0.353281
0.046630 0.762734 -0.352756
0.050640 0.764498 -0.353511
0.054610 0.764840 -0.353701
0.058411 0.761379 -0.352371
0.062466 0.763519 -0.353294
0.066633 0.767231 -0.354856
0.070644 0.767725 -0.355131
0.074408 0.764353 -0.353859
0.078268 0.762752 -0.353305
0.082363 0.764406 -0.354064
0.086355 0.764545 -0.354222
0.090339 0.764514 -0.354316
0.094142 0.762432 -0.353592
0.097795 0.758951 -0.352311
0.101091 0.752215 -0.349723
0.105388 0.755551 -0.351198
0.110719 0.767898 -0.356313
0.116469 0.782751 -0.362449
0.121159 0.787522 -0.364530
0.124357 0.779966 -0.361644
0.126594 0.765569 -0.355998
0.130069 0.761319 -0.354454
0.133132 0.754394 -0.351832
0.138183 0.761557 -0.354913
0.142706 0.764681 -0.356370
0.146596 0.763481 -0.356083
0.149866 0.758443 -0.354247
0.154238 0.760318 -0.355218
0.158774 0.762982 -0.356517
0.163584 0.766997 -0.358372
0.168020 0.768672 -0.359285
0.172472 0.770288 -0.360182
0.177022 0.772280 -0.361239
0.181570 0.774105 -0.362236
0.185140 0.770935 -0.361203
0.188301 0.765899 -0.359413
0.192935 0.768011 -0.360544
0.197656 0.770372 -0.361783
0.201762 0.769812 -0.361835
0.205950 0.769591 -0.362029
0.210747 0.771953 -0.363286
0.216272 0.777223 -0.365741
0.221772 0.782122 -0.368051
0.228302 0.790916 -0.371968
0.230998 0.784212 -0.369522
0.232436 0.772892 -0.365174
0.234940 0.766020 -0.362651
0.240117 0.769296 -0.364307
0.244249 0.768619 -0.364335
0.244628 0.754564 -0.358836
0.251726 0.764517 -0.363249
0.258625 0.773404 -0.367227
0.272904 0.791782 -0.375441
0.270632 0.769854 -0.366641
0.278592 0.781397 -0.371716
0.280102 0.772273 -0.368204
0.284226 0.771540 -0.368166
0.289211 0.773459 -0.369222
0.295666 0.779732 -0.372081
0.299619 0.778457 -0.371785
0.297614 0.759964 -0.364294
0.301672 0.759378 -0.364252
0.310608 0.772570 -0.369946
0.316012 0.775623 -0.371392
0.320658 0.776557 -0.371936
0.323031 0.771392 -0.369911
0.326487 0.769302 -0.369149
0.333648 0.777032 -0.372473
0.344311 0.793673 -0.379504
0.339408 0.770225 -0.369737
0.339407 0.759798 -0.365393
0.345880 0.765808 -0.367902
0.354510 0.777042 -0.372572
0.367125 0.797755 -0.381179
0.369352 0.793150 -0.379166
0.359433 0.742022 -0.357379
0.376732 0.773125 -0.370178
0.386412 0.786379 -0.375487
0.358900 0.708262 -0.342408
0.369172 0.723341 -0.348406
0.392923 0.767554 -0.366482
0.401976 0.779320 -0.371017
0.406219 0.780686 -0.371200
-0.425691 0.716739 -0.359472
-0.425332 0.722471 -0.362231
-0.424184 0.727012 -0.364450
-0.420185 0.726746 -0.364551
-0.416090 0.726379 -0.364579
-0.413521 0.728777 -0.365784
-0.408489 0.726889 -0.365093
-0.403269 0.724697 -0.364241
-0.400035 0.726148 -0.364949
-0.396163 0.726519 -0.365157
-0.391231 0.724995 -0.364511
-0.388785 0.728168 -0.365885
-0.384455 0.727893 -0.365728
-0.379737 0.726927 -0.365243
-0.375471 0.726872 -0.365127
-0.372284 0.728979 -0.365929
-0.366491 0.726026 -0.364500
-0.363201 0.728060 -0.365219
-0.359251 0.728845 -0.365371
-0.355120 0.729320 -0.365365
-0.350155 0.728111 -0.364605
-0.345668 0.727906 -0.364262
-0.342129 0.729734 -0.364781
-0.339641 0.733888 -0.366291
-0.335760 0.735134 -0.366521
-0.332191 0.737113 -0.367052
-0.324704 0.730417 -0.363815
-0.320937 0.731958 -0.364130
-0.316280 0.731503 -0.363571
-0.311561 0.730892 -0.362935
-0.309954 0.737576 -0.365430
-0.304054 0.734203 -0.363587
-0.299875 0.734882 -0.363482
-0.295733 0.735659 -0.363411
-0.291078 0.735161 -0.362790
-0.286039 0.733660 -0.361736
-0.283065 0.737371 -0.362910
-0.278715 0.737597 -0.362589
-0.274542 0.738261 -0.362456
-0.270328 0.738807 -0.362271
-0.265565 0.737844 -0.361445
-0.261441 0.738579 -0.361343
-0.257538 0.739915 -0.361498
-0.254072 0.742499 -0.362183
-0.249414 0.741678 -0.361428
-0.244157 0.739030 -0.359905
-0.239813 0.738977 -0.359485
-0.236046 0.740628 -0.359789
-0.231828 0.740898 -0.359515
-0.227901 0.742043 -0.359613
-0.223913 0.742989 -0.359633
-0.219688 0.743148 -0.359328
-0.215591 0.743687 -0.359188
-0.211558 0.744414 -0.359132
-0.207288 0.744305 -0.358734
-0.203034 0.744198 -0.358343
-0.199027 0.744918 -0.358304
-0.195725 0.748179 -0.359331
-0.191209 0.747017 -0.358520
-0.186891 0.746506 -0.357987
-0.182941 0.747345 -0.358024
-0.179054 0.748416 -0.358164
-0.176456 0.754671 -0.360461
-0.171656 0.752091 -0.359098
-0.166670 0.748566 -0.357352
-0.161307 0.743218 -0.354862
-0.157746 0.745487 -0.355532
-0.154869 0.750893 -0.357505
-0.150116 0.747868 -0.355999
-0.147285 0.753710 -0.358162
-0.143523 0.755295 -0.358572
-0.138759 0.751947 -0.356956
-0.133297 0.744825 -0.353795
-0.130208 0.749663 -0.355566
-0.127347 0.755942 -0.357933
-0.123161 0.755218 -0.357427
-0.118580 0.752168 -0.355971
-0.113690 0.747082 -0.353689
-0.110515 0.751960 -0.355502
-0.106590 0.752441 -0.355517
-0.103618 0.759017 -0.358036
-0.098741 0.753373 -0.355554
-0.094625 0.752502 -0.355034
-0.090636 0.752421 -0.354844
-0.085696 0.745306 -0.351783
-0.082354 0.749796 -0.353475
-0.079342 0.757205 -0.356364
-0.075124 0.755229 -0.355423
-0.071056 0.754325 -0.354927
-0.067233 0.755504 -0.355287
-0.063532 0.757893 -0.356146
-0.059546 0.757665 -0.355943
-0.055444 0.756157 -0.355224
-0.051579 0.757044 -0.355487
-0.048347 0.765304 -0.358760
-0.044631 0.768592 -0.360011
-0.039820 0.757941 -0.355591
-0.035767 0.756377 -0.354879
-0.032029 0.759254 -0.355980
-0.027853 0.755445 -0.354365
-0.024290 0.761749 -0.356871
-0.020137 0.757816 -0.355218
-0.016231 0.758273 -0.355356
-0.012185 0.755477 -0.354177
-0.008301 0.756261 -0.354459
-0.004625 0.763698 -0.357452
-0.000675 0.763701 -0.357427
0.003339 0.760871 -0.356256
0.007351 0.756480 -0.354457
0.011311 0.752863 -0.352978
0.015276 0.743802 -0.349291
0.019124 0.744864 -0.349725
0.023004 0.756183 -0.354334
0.026978 0.764997 -0.357931
0.030941 0.765528 -0.358167
0.034869 0.763595 -0.357406
0.038699 0.758009 -0.355166
0.042692 0.760556 -0.356238
0.046673 0.761873 -0.356816
0.050710 0.764292 -0.357849
0.054677 0.764431 -0.357960
0.058582 0.763122 -0.357488
0.062483 0.761961 -0.357082
0.066364 0.760579 -0.356592
0.070375 0.761508 -0.357049
0.074615 0.765707 -0.358844
0.078607 0.765788 -0.358968
0.082418 0.763408 -0.358096
0.086532 0.765025 -0.358859
0.090595 0.765807 -0.359288
0.094672 0.766610 -0.359732
0.099216 0.772146 -0.362115
0.101728 0.756919 -0.356029
0.105304 0.753130 -0.354616
0.110809 0.767072 -0.360454
0.116199 0.778759 -0.365381
0.119864 0.775128 -0.364055
0.122759 0.765611 -0.360325
0.128741 0.749946 -0.354254
0.132439 0.747896 -0.353593
0.137268 0.753698 -0.356158
0.142753 0.763407 -0.360335
0.147169 0.765577 -0.361429
0.150837 0.762914 -0.360545
0.153364 0.753490 -0.356886
0.158541 0.760055 -0.359806
0.163563 0.765315 -0.362199
0.168044 0.767238 -0.363227
0.172692 0.769907 -0.364570
0.177255 0.771936 -0.365656
0.182306 0.776284 -0.367707
0.187008 0.778641 -0.368944
0.189712 0.771185 -0.366131
0.192684 0.765306 -0.363970
0.197649 0.768820 -0.365701
0.201811 0.768527 -0.365861
0.206319 0.769718 -0.366641
0.212330 0.777254 -0.370061
0.216435 0.776428 -0.370014
0.220926 0.777181 -0.370627
0.225203 0.777007 -0.370857
0.231167 0.783434 -0.373840
0.234629 0.779934 -0.372689
0.236975 0.772333 -0.369823
0.240564 0.769601 -0.368987
0.250387 0.773789 -0.371345
0.252246 0.765074 -0.367996
0.256461 0.764743 -0.368152
0.262680 0.771160 -0.371135
0.271566 0.786159 -0.377724
0.275043 0.783059 -0.376707
0.279077 0.781845 -0.376474
0.280906 0.773749 -0.373333
0.285282 0.773800 -0.373611
0.290717 0.777075 -0.375238
0.294625 0.775704 -0.374893
0.298781 0.775126 -0.374869
0.296524 0.756012 -0.366999
0.300401 0.755014 -0.366762
0.311386 0.774065 -0.374988
0.317660 0.779552 -0.377463
0.318998 0.771449 -0.374169
0.323851 0.773088 -0.374976
0.328193 0.773382 -0.375193
0.334565 0.779044 -0.377661
0.340197 0.782707 -0.379259
0.344976 0.784166 -0.379900
0.347836 0.780830 -0.378484
0.351989 0.780868 -0.378471
0.355075 0.778361 -0.377353
0.359455 0.779137 -0.377600
0.362329 0.776368 -0.376319
0.364775 0.772733 -0.374644
0.367041 0.768847 -0.372837
0.367592 0.761160 -0.369398
0.370087 0.758188 -0.367927
0.375704 0.762451 -0.369486
0.372639 0.747226 -0.362794
0.389690 0.761074 -0.367675
0.400798 0.777398 -0.374162
-0.423397 0.719548 -0.364813
-0.421710 0.723090 -0.366635
-0.418472 0.724067 -0.367303
-0.415153 0.724990 -0.367919
-0.411839 0.726008 -0.368550
-0.407170 0.724694 -0.368125
-0.402632 0.723660 -0.367794
-0.400113 0.726353 -0.369081
-0.396782 0.727670 -0.369732
-0.391175 0.724851 -0.368528
-0.386678 0.724121 -0.368219
-0.383305 0.725568 -0.368843
-0.380060 0.727348 -0.369587
-0.376504 0.728621 -0.370080
-0.371894 0.727912 -0.369672
-0.368816 0.730270 -0.370591
-0.363496 0.728242 -0.369550
-0.359512 0.728915 -0.369676
-0.354812 0.728180 -0.369158
-0.349803 0.726826 -0.368347
-0.345032 0.725969 -0.367734
-0.341315 0.727358 -0.368089
-0.338391 0.730505 -0.369196
-0.335074 0.732899 -0.369953
-0.328998 0.729301 -0.368065
-0.324793 0.729792 -0.367956
-0.321270 0.731847 -0.368517
-0.317643 0.733723 -0.368985
-0.313772 0.735083 -0.369215
-0.307249 0.730253 -0.366733
-0.304068 0.733239 -0.367653
-0.300475 0.735304 -0.368162
-0.296283 0.735949 -0.368045
-0.290640 0.732997 -0.366360
-0.286826 0.734543 -0.366625
-0.283199 0.736590 -0.367101
-0.279283 0.737925 -0.367265
-0.274697 0.737511 -0.366671
-0.270313 0.737593 -0.366291
-0.266051 0.737976 -0.366041
-0.261310 0.737017 -0.365214
-0.257433 0.738410 -0.365400
-0.253140 0.738625 -0.365082
-0.248482 0.737756 -0.364301
-0.243945 0.737171 -0.363647
-0.240055 0.738456 -0.363797
-0.236209 0.739876 -0.364009
-0.232275 0.741024 -0.364107
-0.227932 0.740885 -0.363661
-0.224281 0.742906 -0.364140
-0.220386 0.744159 -0.364296
-0.216118 0.744174 -0.363932
-0.211392 0.742597 -0.362897
-0.206984 0.742007 -0.362289
-0.202961 0.742688 -0.362227
-0.199153 0.744112 -0.362485
-0.194923 0.744011 -0.362104
-0.191867 0.748202 -0.363543
-0.186965 0.745543 -0.362096
-0.182976 0.746239 -0.362071
-0.178825 0.746279 -0.361778
-0.174953 0.747392 -0.361942
-0.171879 0.751775 -0.363488
-0.166682 0.747401 -0.361360
-0.161736 0.743851 -0.359588
-0.158296 0.746700 -0.360508
-0.154749 0.749149 -0.361267
-0.150272 0.747392 -0.360270
-0.146387 0.748291 -0.360392
-0.143246 0.752771 -0.362017
-0.138989 0.751908 -0.361416
-0.134251 0.748514 -0.359765
-0.130055 0.747713 -0.359205
-0.127613 0.756208 -0.362527
-0.122987 0.753113 -0.361023
-0.117674 0.745904 -0.357816
-0.114279 0.749401 -0.359072
-0.110956 0.753491 -0.360580
-0.107804 0.758859 -0.362623
-0.103759 0.758811 -0.362422
-0.099413 0.756719 -0.361378
-0.095844 0.759754 -0.362469
-0.091116 0.754752 -0.360232
-0.087081 0.754428 -0.359943
-0.082593 0.750573 -0.358197
-0.079370 0.756391 -0.360464
-0.075238 0.755143 -0.359811
-0.071121 0.753874 -0.359155
-0.067260 0.754751 -0.359394
-0.063438 0.756030 -0.359804
-0.059643 0.757649 -0.360361
-0.055780 0.758698 -0.360687
-0.052339 0.764420 -0.362950
-0.048742 0.768949 -0.364724
-0.044627 0.767641 -0.364094
-0.039793 0.756727 -0.359505
-0.035965 0.758305 -0.360078
-0.031802 0.755048 -0.358663
-0.027984 0.756801 -0.359320
-0.024157 0.758679 -0.360034
-0.020389 0.761994 -0.361347
-0.016542 0.764285 -0.362242
-0.012765 0.768732 -0.364032
-0.008505 0.761323 -0.360940
-0.004555 0.761222 -0.360866
-0.000549 0.758975 -0.359914
0.003544 0.751844 -0.356955
0.007436 0.752159 -0.357071
0.011333 0.752255 -0.357101
0.015268 0.747606 -0.355183
0.019126 0.753956 -0.357801
0.023040 0.756693 -0.358938
0.027029 0.766360 -0.362936
0.031009 0.767206 -0.363305
0.034910 0.762882 -0.361548
0.038668 0.753855 -0.357860
0.042689 0.757950 -0.359586
0.046791 0.763283 -0.361828
0.050778 0.763974 -0.362163
0.054747 0.764013 -0.362235
0.058701 0.763688 -0.362163
0.062575 0.761803 -0.361454
0.066395 0.759242 -0.360472
0.070393 0.759950 -0.360844
0.074509 0.762280 -0.361894
0.078762 0.766168 -0.363592
0.082758 0.766110 -0.363669
0.086831 0.766970 -0.364131
0.090805 0.766515 -0.364056
0.095024 0.768757 -0.365103
0.099173 0.769988 -0.365738
0.102838 0.766247 -0.364324
0.105476 0.753106 -0.359023
0.109731 0.755675 -0.360231
0.115333 0.769604 -0.366153
0.118804 0.764691 -0.364277
0.127974 0.772867 -0.368008
0.130912 0.764308 -0.364636
0.133429 0.753327 -0.360260
0.136843 0.749192 -0.358731
0.142852 0.762449 -0.364441
0.147677 0.767218 -0.366631
