ply
format ascii 1.0
comment ---
element vertex 1738
property float x
property float y
property float z
element face 0
property list uchar uint vertex_indices
end_header
0.146960 0.783098 0.353612
0.151314 0.784215 0.354169
0.155544 0.784415 0.354344
0.159557 0.783219 0.353934
0.163529 0.781792 0.353432
0.167726 0.781706 0.353506
0.172048 0.782279 0.353865
0.176518 0.783576 0.354538
0.181035 0.785007 0.355274
0.185351 0.785267 0.355520
0.189877 0.786521 0.356194
0.194583 0.788552 0.357204
0.199127 0.789658 0.357827
0.203280 0.788829 0.357632
0.207269 0.787251 0.357122
0.211966 0.788855 0.357972
0.216583 0.789996 0.358630
0.220811 0.789390 0.358546
0.225135 0.789166 0.358629
0.229287 0.788220 0.358406
0.233481 0.787439 0.358255
0.237762 0.787005 0.358254
0.242008 0.786419 0.358188
0.246261 0.785857 0.358133
0.250888 0.786669 0.358665
0.255496 0.787358 0.359143
0.260015 0.787692 0.359467
0.264249 0.787007 0.359351
0.269024 0.788179 0.360027
0.273666 0.788860 0.360489
0.278000 0.788502 0.360498
0.282782 0.789603 0.361126
0.287664 0.790992 0.361870
0.292393 0.791867 0.362384
0.296656 0.791300 0.362267
0.300577 0.789736 0.361710
0.304831 0.789238 0.361597
0.310082 0.791707 0.362746
0.314533 0.791829 0.362870
0.318919 0.791803 0.362914
0.323021 0.791031 0.362618
0.327403 0.791103 0.362666
0.331917 0.791584 0.362870
0.337656 0.795399 0.364487
0.342195 0.796002 0.364699
0.345581 0.793649 0.363616
0.350087 0.794314 0.363808
0.354812 0.795597 0.364240
0.360507 0.799363 0.365713
0.365720 0.801924 0.366642
0.368598 0.798793 0.365098
0.372742 0.798891 0.364914
0.377006 0.799365 0.364864
0.382103 0.801891 0.365666
0.387664 0.805545 0.366922
0.390441 0.802776 0.365399
0.392959 0.799574 0.363667
0.395664 0.796963 0.362163
0.399107 0.796158 0.361405
0.403838 0.798329 0.361888
0.407760 0.798781 0.361612
0.412923 0.802024 0.362496
-0.448779 0.739514 0.368479
-0.443711 0.737598 0.367742
-0.440245 0.738397 0.368242
-0.436419 0.738675 0.368469
-0.433426 0.740448 0.369363
-0.430179 0.741888 0.370072
-0.426353 0.742427 0.370328
-0.422473 0.742951 0.370547
-0.418769 0.743867 0.370917
-0.414207 0.743342 0.370583
-0.409649 0.742879 0.370248
-0.405019 0.742341 0.369847
-0.401177 0.743296 0.370112
-0.397996 0.745553 0.370953
-0.392826 0.744195 0.370081
-0.390057 0.747397 0.371304
-0.384148 0.744720 0.369763
-0.379893 0.745224 0.369675
-0.375960 0.746412 0.369880
-0.371255 0.746138 0.369381
-0.366474 0.745739 0.368801
-0.363604 0.749230 0.370000
-0.359076 0.749433 0.369655
-0.354405 0.749367 0.369167
-0.349562 0.748956 0.368502
-0.344197 0.747440 0.367313
-0.340104 0.748628 0.367355
-0.336137 0.750128 0.367524
-0.330778 0.748592 0.366288
-0.326684 0.749842 0.366319
-0.322813 0.751624 0.366582
-0.318866 0.753266 0.366771
-0.312647 0.749650 0.364557
-0.307825 0.749212 0.363788
-0.304017 0.751165 0.364101
-0.299943 0.752505 0.364131
-0.296056 0.754318 0.364371
-0.290699 0.752476 0.362956
-0.286201 0.752728 0.362489
-0.281540 0.752530 0.361820
-0.277144 0.752981 0.361445
-0.272465 0.752655 0.360723
-0.267874 0.752516 0.360088
-0.264848 0.756608 0.361351
-0.259831 0.755256 0.360180
-0.255178 0.754838 0.359434
-0.252097 0.758871 0.360675
-0.246214 0.754818 0.358321
-0.241834 0.755038 0.357876
-0.237769 0.756165 0.357839
-0.233660 0.757142 0.357742
-0.229210 0.757041 0.357173
-0.224540 0.756182 0.356278
-0.220264 0.756519 0.355918
-0.217231 0.760896 0.357343
-0.213033 0.761484 0.357106
-0.208794 0.761902 0.356801
-0.204860 0.763339 0.356950
-0.199578 0.760007 0.355018
-0.195487 0.760791 0.354897
-0.191632 0.762420 0.355152
-0.187370 0.762533 0.354752
-0.183202 0.762958 0.354496
-0.178807 0.762462 0.353848
-0.174468 0.762115 0.353272
-0.169859 0.760599 0.352198
-0.165942 0.761846 0.352330
-0.161924 0.762670 0.352286
-0.157702 0.762587 0.351856
-0.153155 0.761001 0.350786
-0.149254 0.762237 0.350941
-0.145356 0.763502 0.351116
-0.141734 0.766097 0.351869
-0.137495 0.765738 0.351357
-0.133239 0.765226 0.350787
-0.129094 0.765215 0.350440
-0.124864 0.764699 0.349884
-0.121027 0.766253 0.350221
-0.117228 0.768061 0.350673
-0.112951 0.767156 0.349971
-0.108617 0.765806 0.349086
-0.104338 0.764666 0.348299
-0.100406 0.765606 0.348406
-0.096337 0.765663 0.348142
-0.092430 0.766776 0.348335
-0.088477 0.767596 0.348409
-0.084503 0.768271 0.348427
-0.080375 0.767787 0.347958
-0.076404 0.768451 0.347983
-0.072503 0.769704 0.348264
-0.068552 0.770581 0.348391
-0.064350 0.769252 0.347589
-0.060506 0.771099 0.348138
-0.056522 0.771703 0.348166
-0.052517 0.772111 0.348118
-0.048466 0.772014 0.347861
-0.044394 0.771608 0.347480
-0.040402 0.772092 0.347480
-0.036432 0.772869 0.347610
-0.032362 0.772335 0.347192
-0.028243 0.770924 0.346411
-0.024232 0.770985 0.346256
-0.020314 0.772637 0.346776
-0.016268 0.772100 0.346381
-0.012155 0.769998 0.345333
-0.008265 0.772622 0.346277
-0.004307 0.774046 0.346722
-0.000296 0.774239 0.346656
0.003706 0.774775 0.346738
0.007678 0.776825 0.347462
0.011720 0.776003 0.346986
0.015733 0.776751 0.347174
0.019781 0.773927 0.345872
0.023795 0.773162 0.345438
0.027805 0.774090 0.345718
0.031858 0.780068 0.348118
0.035888 0.778989 0.347569
0.039904 0.777655 0.346920
0.043909 0.776377 0.346300
0.047937 0.776405 0.346233
0.052008 0.777774 0.346731
0.056166 0.781089 0.348049
0.060167 0.779770 0.347436
0.064194 0.779258 0.347166
0.068275 0.779831 0.347355
0.072263 0.778633 0.346811
0.076277 0.777980 0.346501
0.080335 0.778052 0.346500
0.084440 0.778721 0.346754
0.088762 0.782110 0.348150
0.092833 0.781937 0.348065
0.096893 0.781608 0.347921
0.100741 0.778939 0.346808
0.104744 0.778105 0.346466
0.109001 0.779816 0.347194
0.113186 0.780640 0.347557
0.117529 0.782755 0.348467
0.121748 0.783571 0.348841
0.125763 0.782583 0.348468
0.129716 0.781130 0.347907
0.134042 0.782576 0.348565
0.138387 0.784013 0.349225
0.142244 0.781829 0.348379
0.146879 0.785067 0.349805
0.150598 0.781978 0.348594
0.155042 0.783674 0.349390
0.159313 0.784143 0.349680
0.163396 0.783397 0.349468
0.167592 0.783301 0.349535
0.171677 0.782536 0.349327
0.175955 0.782818 0.349565
0.180286 0.783319 0.349900
0.185178 0.786661 0.351433
0.189513 0.786952 0.351694
0.193947 0.787670 0.352140
0.198198 0.787423 0.352186
0.202478 0.787277 0.352280
0.206326 0.785110 0.351530
0.210548 0.784674 0.351512
0.215235 0.786246 0.352342
0.220380 0.789658 0.353951
0.224475 0.788493 0.353639
0.228794 0.788257 0.353721
0.233267 0.788605 0.354051
0.237252 0.786997 0.353559
0.241697 0.787185 0.353826
0.245466 0.784793 0.353004
0.250168 0.785904 0.353661
0.255068 0.787667 0.354592
0.259378 0.787249 0.354602
0.263973 0.787822 0.355028
0.268611 0.788504 0.355497
0.273558 0.790191 0.356388
0.278075 0.790393 0.356644
0.282951 0.791750 0.357385
0.287603 0.792349 0.357797
0.291996 0.792124 0.357851
0.295994 0.790706 0.357388
0.300101 0.789676 0.357080
0.305973 0.793965 0.359016
0.310330 0.793699 0.359006
0.314626 0.793300 0.358925
0.318573 0.791956 0.358425
0.322686 0.791161 0.358142
0.327341 0.791932 0.358506
0.331679 0.791872 0.358496
0.336033 0.791911 0.358509
0.340242 0.791630 0.358364
0.346281 0.796201 0.360257
0.350729 0.796621 0.360363
0.355384 0.797634 0.360697
0.359696 0.797839 0.360661
0.363243 0.796222 0.359827
0.367618 0.796761 0.359882
0.372121 0.797686 0.360072
0.376561 0.798528 0.360201
0.380569 0.798426 0.359902
0.385014 0.799443 0.360049
0.391316 0.804829 0.362014
0.394090 0.802127 0.360532
0.395881 0.797356 0.358153
0.400466 0.799047 0.358473
0.404194 0.798903 0.357993
0.408806 0.800806 0.358348
0.412425 0.800612 0.357795
0.417742 0.804185 0.358795
-0.451003 0.736332 0.362795
-0.446710 0.735649 0.362643
-0.445076 0.739422 0.364518
-0.440782 0.738901 0.364382
-0.437203 0.739647 0.364801
-0.433368 0.740046 0.365029
-0.430093 0.741483 0.365705
-0.426681 0.742784 0.366287
-0.422755 0.743283 0.366468
-0.416943 0.740541 0.365122
-0.413192 0.741476 0.365441
-0.408778 0.741306 0.365220
-0.404930 0.742219 0.365468
-0.401142 0.743323 0.365773
-0.396595 0.743103 0.365439
-0.393535 0.745713 0.366379
-0.388348 0.744410 0.365490
-0.383954 0.744642 0.365281
-0.380060 0.745890 0.365512
-0.375871 0.746629 0.365483
-0.370618 0.745315 0.364491
-0.365188 0.743651 0.363318
-0.361408 0.745313 0.363645
-0.357679 0.747145 0.364028
-0.353860 0.748850 0.364334
-0.349611 0.749711 0.364237
-0.344602 0.748987 0.363404
-0.340120 0.749385 0.363067
-0.335749 0.750037 0.362833
-0.330937 0.749731 0.362153
-0.326573 0.750409 0.361910
-0.322970 0.752823 0.362440
-0.316994 0.749831 0.360526
-0.312528 0.750260 0.360149
-0.308011 0.750558 0.359709
-0.303635 0.751178 0.359409
-0.299843 0.753207 0.359737
-0.294362 0.751098 0.358213
-0.289885 0.751409 0.357772
-0.285663 0.752341 0.357607
-0.280911 0.751895 0.356830
-0.276717 0.752857 0.356682
-0.272080 0.752632 0.356009
-0.268101 0.754129 0.356102
-0.263103 0.752837 0.354966
-0.258535 0.752655 0.354326
-0.254238 0.753188 0.354007
-0.250362 0.754897 0.354209
-0.246004 0.755205 0.353801
-0.241573 0.755261 0.353288
-0.237465 0.756238 0.353185
-0.233365 0.757222 0.353091
-0.228929 0.757141 0.352539
-0.224393 0.756687 0.351831
-0.220224 0.757348 0.351617
-0.216821 0.760504 0.352493
-0.212290 0.759941 0.351760
-0.208509 0.761863 0.352112
-0.204675 0.763621 0.352399
-0.199812 0.761746 0.351122
-0.195197 0.760639 0.350188
-0.190892 0.760577 0.349713
-0.186795 0.761242 0.349558
-0.182788 0.762229 0.349549
-0.178653 0.762699 0.349325
-0.174246 0.762051 0.348630
-0.170024 0.762077 0.348231
-0.165790 0.762000 0.347797
-0.161791 0.762872 0.347775
-0.157520 0.762549 0.347251
-0.153235 0.762092 0.346677
-0.149022 0.761891 0.346220
-0.145234 0.763623 0.346593
-0.141309 0.764733 0.346707
-0.137142 0.764657 0.346324
-0.133157 0.765445 0.346315
-0.129025 0.765463 0.345986
-0.125048 0.766261 0.345994
-0.121219 0.767861 0.346347
-0.116655 0.765366 0.344978
-0.112879 0.767242 0.345460
-0.108407 0.765030 0.344225
-0.104319 0.764991 0.343913
-0.100334 0.765561 0.343864
-0.096507 0.767162 0.344254
-0.092531 0.767810 0.344249
-0.088625 0.768946 0.344455
-0.084581 0.769110 0.344259
-0.080536 0.769239 0.344054
-0.076419 0.768754 0.343598
-0.072555 0.770268 0.343985
-0.068529 0.770468 0.343827
-0.064564 0.771190 0.343894
-0.060552 0.771495 0.343792
-0.056355 0.769966 0.342929
-0.052496 0.771717 0.343442
-0.048538 0.772536 0.343571
-0.044468 0.772115 0.343189
-0.040470 0.772477 0.343138
-0.036558 0.773954 0.343556
-0.032494 0.773478 0.343168
-0.028308 0.771070 0.341983
-0.024305 0.771164 0.341843
-0.020385 0.772671 0.342295
-0.016375 0.772713 0.342144
-0.012336 0.772093 0.341725
-0.008384 0.773334 0.342082
-0.004455 0.775454 0.342808
-0.000451 0.775868 0.342833
0.003563 0.776046 0.342765
0.007579 0.776139 0.342668
0.011568 0.777748 0.343203
0.015629 0.774942 0.341917
0.019643 0.774478 0.341606
0.023653 0.773700 0.341172
0.027658 0.774311 0.341316
0.031721 0.782699 0.344677
0.035749 0.780870 0.343824
0.039713 0.776238 0.341820
0.043732 0.776274 0.341749
0.047804 0.778225 0.342474
0.051898 0.780261 0.343239
0.055962 0.780845 0.343410
0.059966 0.779797 0.342915
0.063946 0.778412 0.342287
0.067947 0.777657 0.341925
0.072049 0.778798 0.342349
0.076091 0.778716 0.342276
0.080100 0.778095 0.341987
0.084134 0.777869 0.341866
0.088246 0.778653 0.342168
0.092345 0.779122 0.342346
0.096553 0.780775 0.343019
0.100447 0.778725 0.342172
0.104474 0.778227 0.341971
0.108705 0.779765 0.342615
0.112929 0.781030 0.343153
0.117313 0.783584 0.344228
0.121428 0.783536 0.344238
0.125272 0.781192 0.343309
0.129355 0.780883 0.343225
0.133703 0.782579 0.343973
0.137835 0.782502 0.343998
0.142067 0.783092 0.344304
0.145928 0.781045 0.343530
0.150276 0.782306 0.344127
0.154677 0.783768 0.344813
0.159018 0.784721 0.345296
0.163236 0.784817 0.345432
0.167360 0.784305 0.345324
0.171465 0.783663 0.345169
0.175660 0.783505 0.345220
0.180423 0.786341 0.346515
0.184490 0.785348 0.346234
0.188973 0.786467 0.346832
0.193249 0.786456 0.346969
0.197443 0.785997 0.346926
0.201373 0.784269 0.346363
0.205331 0.782704 0.345873
0.209825 0.783573 0.346395
0.214248 0.784042 0.346758
0.219163 0.786551 0.347971
0.223257 0.785469 0.347698
0.228496 0.789087 0.349382
0.232555 0.787774 0.349020
0.237035 0.788136 0.349357
0.241134 0.786982 0.349065
0.245424 0.786561 0.349079
0.249180 0.784152 0.348266
0.254476 0.787391 0.349806
0.259740 0.790365 0.351236
0.264127 0.790152 0.351336
0.268620 0.790289 0.351580
0.272894 0.789674 0.351506
0.278134 0.792260 0.352766
0.281967 0.790187 0.352072
0.286689 0.791018 0.352587
0.291249 0.791313 0.352869
0.295471 0.790570 0.352708
0.300259 0.791578 0.353271
0.305213 0.793065 0.354023
0.310290 0.794892 0.354906
0.314386 0.793854 0.354573
0.318300 0.792362 0.354035
0.323051 0.793302 0.354501
0.327664 0.793877 0.354796
0.331876 0.793393 0.354628
0.335932 0.792557 0.354293
0.340688 0.793660 0.354750
0.346274 0.796964 0.356108
0.351000 0.798032 0.356505
0.354811 0.796814 0.355919
0.358463 0.795307 0.355188
0.363102 0.796367 0.355508
0.366963 0.795580 0.355027
0.371264 0.795966 0.355011
0.375740 0.796848 0.355176
0.379474 0.796051 0.354611
0.384344 0.798023 0.355177
0.388240 0.797798 0.354795
0.393060 0.799788 0.355312
0.397601 0.801207 0.355561
0.400178 0.798296 0.353978
0.404935 0.800382 0.354450
0.408338 0.799555 0.353684
0.413113 0.801831 0.354179
0.416713 0.801634 0.353622
-0.453064 0.739204 0.360068
-0.447621 0.736704 0.359070
-0.444520 0.738107 0.359823
-0.441953 0.740498 0.360996
-0.437730 0.740225 0.360923
-0.433858 0.740615 0.361122
-0.430275 0.741580 0.361552
-0.426298 0.741953 0.361681
-0.421829 0.741548 0.361423
-0.418089 0.742488 0.361747
-0.413509 0.742019 0.361399
-0.409995 0.743521 0.361917
-0.405653 0.743613 0.361763
-0.400905 0.743022 0.361269
-0.396275 0.742695 0.360866
-0.391760 0.742627 0.360552
-0.387738 0.743541 0.360658
-0.383753 0.744591 0.360799
-0.380007 0.746170 0.361153
-0.376079 0.747465 0.361354
-0.371411 0.747360 0.360898
-0.366430 0.746655 0.360150
-0.361275 0.745604 0.359226
-0.357458 0.747295 0.359521
-0.353641 0.749040 0.359821
-0.349479 0.750116 0.359803
-0.344926 0.750393 0.359412
-0.339950 0.749769 0.358604
-0.334532 0.748162 0.357346
-0.330962 0.750594 0.357884
-0.326974 0.752144 0.358018
-0.320761 0.748669 0.355906
-0.316221 0.748935 0.355456
-0.312557 0.751231 0.355901
-0.308101 0.751691 0.355528
-0.303865 0.752665 0.355379
-0.299287 0.752805 0.354859
-0.294236 0.751749 0.353812
-0.289684 0.751878 0.353288
-0.285139 0.751988 0.352758
-0.280669 0.752258 0.352301
-0.276164 0.752403 0.351791
-0.271972 0.753339 0.351631
-0.267763 0.754215 0.351448
-0.263439 0.754757 0.351123
-0.258042 0.752280 0.349490
-0.253614 0.752417 0.349000
-0.249549 0.753554 0.348951
-0.245594 0.754999 0.349040
-0.241344 0.755563 0.348753
-0.237308 0.756743 0.348738
-0.233169 0.757594 0.348588
-0.228955 0.758186 0.348332
-0.224444 0.757804 0.347664
-0.220365 0.758751 0.347575
-0.215840 0.758211 0.346856
-0.211920 0.759628 0.346982
-0.207782 0.760296 0.346795
-0.203957 0.762030 0.347070
-0.200299 0.764366 0.347607
-0.195480 0.762539 0.346378
-0.190965 0.761711 0.345584
-0.186654 0.761563 0.345088
-0.182432 0.761697 0.344719
-0.178300 0.762136 0.344487
-0.174268 0.762942 0.344418
-0.169949 0.762555 0.343851
-0.165956 0.763462 0.343839
-0.161459 0.762208 0.342923
-0.157710 0.764111 0.343344
-0.153583 0.764362 0.343077
-0.148651 0.760888 0.341252
-0.144980 0.763109 0.341827
-0.141092 0.764346 0.341995
-0.137024 0.764707 0.341802
-0.132917 0.764845 0.341523
-0.128985 0.765844 0.341610
-0.125254 0.767923 0.342154
-0.120557 0.764773 0.340523
-0.116634 0.765761 0.340625
-0.112345 0.764633 0.339852
-0.108362 0.765220 0.339799
-0.104417 0.766026 0.339844
-0.100571 0.767469 0.340159
-0.096750 0.769123 0.340566
-0.092159 0.765605 0.338835
-0.088502 0.768375 0.339716
-0.084591 0.769437 0.339896
-0.080454 0.768831 0.339390
-0.076509 0.769635 0.339474
-0.072453 0.769547 0.339194
-0.068591 0.771072 0.339586
-0.064576 0.771313 0.339454
-0.060495 0.770913 0.339062
-0.056596 0.772215 0.339378
-0.052155 0.768022 0.337437
-0.048538 0.772279 0.338979
-0.044491 0.772027 0.338672
-0.040489 0.772260 0.338568
-0.036551 0.773296 0.338801
-0.032408 0.771593 0.337914
-0.028417 0.771856 0.337840
-0.024438 0.772307 0.337847
-0.020458 0.772758 0.337860
-0.016473 0.773165 0.337860
-0.012525 0.774361 0.338188
-0.008555 0.775301 0.338417
-0.004557 0.775687 0.338423
-0.000583 0.776856 0.338756
0.003468 0.775635 0.338116
0.007471 0.775919 0.338097
0.011494 0.775196 0.337672
0.015504 0.774910 0.337431
0.019508 0.774837 0.337282
0.023511 0.774905 0.337196
0.027514 0.774216 0.336807
0.031518 0.774851 0.336963
0.035528 0.775358 0.337072
0.039540 0.775694 0.337116
0.043554 0.775948 0.337134
0.047622 0.778075 0.337918
0.051723 0.780582 0.338862
0.055799 0.781668 0.339234
0.059804 0.780707 0.338779
0.063739 0.778368 0.337768
0.067753 0.778019 0.337573
0.071854 0.779235 0.338021
0.076007 0.781054 0.338719
0.079943 0.779252 0.337951
0.083884 0.777728 0.337302
0.087888 0.777196 0.337062
0.092035 0.778449 0.337554
0.096158 0.779235 0.337862
0.100271 0.779767 0.338074
0.104411 0.780486 0.338367
0.108437 0.779937 0.338151
0.112577 0.780475 0.338384
0.116603 0.779881 0.338163
0.121052 0.782966 0.339443
0.124894 0.780683 0.338548
0.128914 0.779959 0.338294
0.133387 0.782713 0.339459
0.137650 0.783657 0.339896
0.141650 0.782613 0.339531
0.145801 0.782620 0.339601
0.150021 0.783039 0.339844
0.154376 0.784238 0.340411
0.158613 0.784577 0.340636
0.162892 0.785097 0.340940
0.167115 0.785206 0.341085
0.171081 0.783788 0.340613
0.175302 0.783814 0.340736
0.180018 0.786437 0.341925
0.184172 0.785934 0.341846
0.188338 0.785469 0.341788
0.192554 0.785220 0.341825
0.196725 0.784713 0.341762
0.200620 0.782884 0.341164
0.204984 0.783250 0.341469
0.209325 0.783445 0.341709
0.213898 0.784604 0.342348
0.218507 0.785822 0.343018
0.222166 0.782950 0.342016
0.227018 0.785063 0.343061
0.231705 0.786380 0.343783
0.236496 0.788010 0.344638
0.240406 0.786140 0.344059
0.244940 0.786664 0.344465
0.249510 0.787274 0.344907
0.254555 0.789550 0.346036
0.259559 0.791568 0.347059
0.264220 0.792288 0.347549
0.268365 0.791191 0.347288
0.272586 0.790373 0.347140
0.276907 0.789898 0.347129
0.281396 0.789980 0.347343
0.285798 0.789777 0.347433
0.290561 0.790713 0.347987
0.294821 0.790067 0.347881
0.299425 0.790498 0.348209
0.305086 0.794089 0.349835
0.309518 0.793972 0.349916
0.313452 0.792439 0.349399
0.318105 0.793033 0.349747
0.323079 0.794546 0.350460
0.327958 0.795793 0.351047
0.331763 0.794121 0.350408
0.336061 0.793872 0.350338
0.340720 0.794644 0.350671
0.345676 0.796232 0.351321
0.350130 0.796550 0.351422
0.353871 0.795112 0.350773
0.358257 0.795411 0.350819
0.362821 0.796220 0.351051
0.367613 0.797652 0.351515
0.371598 0.797183 0.351166
0.375169 0.795822 0.350423
0.380055 0.797696 0.350989
0.383829 0.797023 0.350475
0.387872 0.797081 0.350235
0.392057 0.797563 0.350144
0.396202 0.798046 0.350024
0.400961 0.799996 0.350481
0.404624 0.799577 0.349936
0.408895 0.800605 0.349957
0.412334 0.799906 0.349244
0.417479 0.803000 0.350058
0.421601 0.803956 0.349969
-0.457795 0.740107 0.356253
-0.454412 0.740950 0.356783
-0.450470 0.740968 0.356913
-0.445729 0.739744 0.356452
-0.442225 0.740637 0.356915
-0.439299 0.742590 0.357825
-0.434729 0.741868 0.357497
-0.430809 0.742317 0.357667
-0.426193 0.741645 0.357300
-0.422167 0.742061 0.357391
-0.419145 0.744319 0.358282
-0.416045 0.746549 0.359128
-0.410900 0.745218 0.358341
-0.405806 0.744013 0.357580
-0.400753 0.742919 0.356841
-0.396390 0.743132 0.356662
-0.392017 0.743383 0.356471
-0.388051 0.744456 0.356623
-0.383827 0.745104 0.356559
-0.379658 0.745914 0.356541
-0.375323 0.746452 0.356379
-0.371177 0.747407 0.356381
-0.366764 0.747877 0.356145
-0.361679 0.747017 0.355298
-0.357573 0.748163 0.355327
-0.353894 0.750238 0.355750
-0.348855 0.749512 0.354915
-0.344423 0.750065 0.354635
-0.338371 0.747136 0.352803
-0.334242 0.748328 0.352785
-0.330521 0.750446 0.353164
-0.326382 0.751671 0.353139
-0.320750 0.749517 0.351624
-0.316238 0.749867 0.351205
-0.312257 0.751442 0.351319
-0.308390 0.753306 0.351554
-0.303860 0.753598 0.351100
-0.299022 0.753116 0.350308
-0.294358 0.753017 0.349684
-0.289809 0.753165 0.349169
-0.285318 0.753425 0.348705
-0.280676 0.753262 0.348060
-0.276204 0.753495 0.347591
-0.271957 0.754292 0.347368
-0.267876 0.755515 0.347333
-0.262759 0.753882 0.346075
-0.257984 0.753106 0.345192
-0.253245 0.752357 0.344328
-0.249261 0.753706 0.344369
-0.245301 0.755119 0.344442
-0.241291 0.756378 0.344454
-0.237187 0.757344 0.344348
-0.233028 0.758120 0.344167
-0.227934 0.755942 0.342739
-0.224200 0.757969 0.343104
-0.219742 0.757664 0.342487
-0.215674 0.758583 0.342395
-0.211344 0.758602 0.341931
-0.207217 0.759262 0.341745
-0.203443 0.761125 0.342072
-0.199329 0.761797 0.341905
-0.194733 0.760697 0.341001
-0.190959 0.762535 0.341338
-0.186716 0.762627 0.340949
-0.181593 0.759286 0.339134
-0.177707 0.760608 0.339277
-0.173773 0.761742 0.339348
-0.169718 0.762376 0.339217
-0.165486 0.762249 0.338777
-0.161662 0.763805 0.339043
-0.157334 0.763179 0.338410
-0.153423 0.764341 0.338526
-0.148745 0.761993 0.337194
-0.144848 0.763145 0.337320
-0.141043 0.764742 0.337636
-0.136939 0.764901 0.337364
-0.132938 0.765542 0.337298
-0.129065 0.766827 0.337503
-0.124461 0.764240 0.336119
-0.120488 0.764917 0.336087
-0.116399 0.764930 0.335788
-0.112381 0.765309 0.335646
-0.108392 0.765837 0.335571
-0.104555 0.767286 0.335880
-0.100679 0.768531 0.336110
-0.096637 0.768723 0.335915
-0.092472 0.768047 0.335370
-0.088340 0.767506 0.334887
-0.084324 0.767730 0.334722
-0.080079 0.766186 0.333842
-0.076343 0.768477 0.334533
-0.072348 0.768798 0.334424
-0.068450 0.769921 0.334648
-0.064518 0.770796 0.334776
-0.060565 0.771510 0.334844
-0.056491 0.771067 0.334446
-0.052356 0.769894 0.333758
-0.048357 0.770041 0.333612
-0.044539 0.772221 0.334294
-0.040589 0.773014 0.334420
-0.036419 0.771020 0.333421
-0.032570 0.773151 0.334098
-0.028500 0.772256 0.333556
-0.024505 0.772377 0.333429
-0.020547 0.773111 0.333556
-0.016560 0.773398 0.333507
-0.012581 0.773848 0.333529
-0.008641 0.775267 0.333947
-0.004585 0.773969 0.333273
-0.000594 0.774185 0.333216
0.003358 0.775815 0.333733
0.007376 0.775216 0.333357
0.011380 0.775038 0.333157
0.015384 0.774612 0.332861
0.019376 0.775174 0.332968
0.023375 0.775107 0.332828
0.027373 0.775011 0.332681
0.031366 0.774351 0.332312
0.035369 0.775092 0.332512
0.039401 0.777112 0.333231
0.043419 0.777481 0.333292
0.047457 0.778479 0.333611
0.051509 0.779545 0.333962
0.055595 0.781247 0.334574
0.059643 0.781545 0.334627
0.063609 0.779946 0.333925
0.067609 0.779296 0.333610
0.071699 0.780327 0.333974
0.075746 0.780430 0.333973
0.079740 0.779667 0.333629
0.083695 0.778401 0.333090
0.087683 0.777700 0.332783
0.091840 0.779145 0.333343
0.096007 0.780491 0.333868
0.100154 0.781415 0.334231
0.104103 0.780110 0.333706
0.108322 0.781590 0.334304
0.112530 0.782773 0.334789
0.116663 0.783117 0.334944
0.120374 0.779707 0.333601
0.124467 0.779720 0.333635
0.128630 0.780238 0.333879
0.133079 0.782863 0.334975
0.137302 0.783571 0.335308
0.141360 0.782992 0.335132
0.145559 0.783379 0.335349
0.149913 0.784715 0.335955
0.154070 0.784638 0.336000
0.158534 0.786437 0.336805
0.162651 0.785965 0.336704
0.166696 0.785049 0.336433
0.170813 0.784540 0.336331
0.174918 0.783947 0.336201
0.179298 0.784807 0.336662
0.183837 0.786407 0.337428
0.187841 0.785136 0.337045
0.191696 0.783137 0.336375
0.195979 0.783266 0.336567
0.200716 0.785479 0.337605
0.204828 0.784655 0.337425
0.209402 0.785897 0.338084
0.213937 0.786866 0.338639
0.218274 0.786892 0.338818
0.222405 0.786000 0.338631
0.227178 0.787750 0.339516
0.231484 0.787494 0.339594
0.235443 0.785842 0.339111
0.239946 0.786321 0.339493
0.244409 0.786589 0.339792
0.249706 0.789909 0.341330
0.254391 0.790836 0.341901
0.258529 0.789749 0.341656
0.263156 0.790388 0.342110
0.267598 0.790343 0.342286
0.272014 0.790190 0.342416
0.276590 0.790560 0.342756
0.281055 0.790539 0.342934
0.285564 0.790652 0.343162
0.290023 0.790602 0.343316
0.294682 0.791171 0.343717
0.299260 0.791480 0.344004
0.304415 0.793521 0.344987
0.309053 0.793986 0.345318
0.313498 0.793897 0.345411
0.317743 0.793267 0.345270
0.322219 0.793338 0.345400
0.327498 0.795667 0.346438
0.330949 0.792980 0.345409
0.335122 0.792358 0.345205
0.340417 0.794789 0.346230
0.344973 0.795274 0.346440
0.349343 0.795331 0.346452
0.353518 0.794957 0.346266
0.358062 0.795592 0.346469
0.362965 0.797182 0.347036
0.367494 0.797895 0.347221
0.371812 0.798165 0.347199
0.376295 0.798911 0.347344
0.380201 0.798367 0.346936
0.384003 0.797684 0.346444
0.388126 0.797857 0.346275
0.392011 0.797582 0.345895
0.396468 0.798707 0.346057
0.401015 0.800112 0.346305
0.405415 0.801265 0.346423
0.408855 0.800392 0.345690
0.413134 0.801463 0.345719
0.418143 0.804190 0.346391
0.422094 0.804714 0.346145
0.425543 0.804273 0.345483
-0.461819 0.739892 0.351924
-0.458659 0.741050 0.352598
-0.455404 0.742152 0.353219
-0.451253 0.741885 0.353199
-0.444792 0.737877 0.351483
-0.442476 0.740777 0.352814
-0.438454 0.740939 0.352893
-0.434789 0.741785 0.353246
-0.431282 0.742989 0.353727
-0.426499 0.742087 0.353238
-0.422226 0.742125 0.353137
-0.418284 0.742815 0.353296
-0.414596 0.744036 0.353659
-0.409733 0.743235 0.353094
-0.404647 0.742076 0.352340
-0.400582 0.742818 0.352402
-0.396618 0.743818 0.352550
-0.393196 0.745903 0.353152
-0.389132 0.746864 0.353228
-0.384037 0.745914 0.352434
-0.379068 0.745226 0.351733
-0.374012 0.744383 0.350943
-0.370908 0.747418 0.351842
-0.366586 0.748105 0.351685
-0.362110 0.748517 0.351388
-0.357157 0.747973 0.350655
-0.352667 0.748386 0.350328
-0.348300 0.749077 0.350109
-0.343528 0.748920 0.349507
-0.338480 0.748160 0.348632
-0.334337 0.749355 0.348600
-0.330635 0.751543 0.348991
-0.325756 0.751132 0.348245
-0.320835 0.750597 0.347441
-0.316687 0.751806 0.347389
-0.312579 0.753117 0.347376
-0.308088 0.753528 0.346972
-0.303471 0.753613 0.346428
-0.298518 0.752846 0.345517
-0.294094 0.753330 0.345146
-0.289489 0.753334 0.344571
-0.285018 0.753640 0.344128
-0.280571 0.753972 0.343699
-0.275981 0.753895 0.343100
-0.271638 0.754427 0.342765
-0.267575 0.755686 0.342743
-0.262968 0.755442 0.342089
-0.257351 0.752319 0.340222
-0.253585 0.754295 0.340521
-0.249358 0.754955 0.340268
-0.245223 0.755856 0.340124
-0.241026 0.756547 0.339897
-0.236849 0.757272 0.339691
-0.231978 0.755830 0.338583
-0.227765 0.756347 0.338305
-0.223779 0.757552 0.338321
-0.219474 0.757708 0.337906
-0.215298 0.758244 0.337658
-0.211238 0.759137 0.337565
-0.206854 0.758899 0.337009
-0.202804 0.759764 0.336919
-0.198517 0.759765 0.336479
-0.194297 0.759954 0.336124
-0.190066 0.760058 0.335741
-0.185873 0.760257 0.335406
-0.181396 0.759321 0.334610
-0.177467 0.760443 0.334670
-0.173688 0.762162 0.334982
-0.169584 0.762572 0.334763
-0.165433 0.762756 0.334458
-0.161086 0.762053 0.333796
-0.157215 0.763353 0.333963
-0.153150 0.763794 0.333785
-0.148935 0.763515 0.333319
-0.144877 0.763914 0.333137
-0.140802 0.764199 0.332915
-0.136965 0.765621 0.333163
-0.133087 0.766865 0.333344
-0.128553 0.764716 0.332151
-0.125044 0.767875 0.333123
-0.120617 0.766124 0.332106
-0.116316 0.764935 0.331325
-0.112347 0.765558 0.331285
-0.108460 0.766661 0.331445
-0.104557 0.767689 0.331580
-0.100638 0.768633 0.331686
-0.096689 0.769397 0.331725
-0.092484 0.768421 0.331068
-0.088296 0.767459 0.330422
-0.084210 0.767119 0.330034
-0.080365 0.768530 0.330356
-0.076330 0.768516 0.330110
-0.072065 0.766567 0.329091
-0.068599 0.771234 0.330737
-0.064554 0.771105 0.330460
-0.060097 0.767072 0.328623
-0.056490 0.770926 0.329954
-0.052565 0.771846 0.330114
-0.048474 0.771025 0.329581
-0.044388 0.770120 0.329021
-0.040419 0.770494 0.328977
-0.036606 0.772874 0.329741
-0.032647 0.773515 0.329813
-0.028547 0.772116 0.329076
-0.024589 0.772734 0.329149
-0.020805 0.776406 0.330445
-0.016633 0.773371 0.329071
-0.012637 0.773343 0.328902
-0.008668 0.773898 0.328969
-0.004655 0.773385 0.328617
-0.000705 0.774581 0.328949
0.003262 0.775508 0.329179
0.007236 0.776482 0.329432
0.011252 0.775683 0.328986
0.015248 0.775708 0.328872
0.019256 0.774227 0.328165
0.023240 0.775203 0.328439
0.027232 0.774408 0.328015
0.031214 0.773337 0.327487
0.035216 0.775052 0.328069
0.039266 0.778633 0.329395
0.043271 0.778331 0.329187
0.047286 0.778534 0.329184
0.051331 0.779575 0.329519
0.055311 0.778477 0.329012
0.059354 0.779153 0.329212
0.063397 0.779654 0.329349
0.067478 0.780750 0.329726
0.071452 0.779687 0.329255
0.075472 0.779507 0.329139
0.079525 0.779826 0.329225
0.083377 0.777169 0.328141
0.087633 0.780223 0.329321
0.091762 0.781244 0.329702
0.095853 0.781662 0.329851
0.099827 0.780687 0.329455
0.103921 0.781023 0.329583
0.108056 0.781693 0.329850
0.112275 0.783054 0.330396
0.116281 0.782290 0.330108
0.120423 0.782740 0.330306
0.124343 0.781238 0.329738
0.128380 0.780740 0.329574
0.132510 0.780953 0.329697
0.136742 0.781858 0.330101
0.140901 0.782120 0.330257
0.145258 0.783687 0.330935
0.149627 0.785170 0.331588
0.154103 0.787197 0.332462
0.158040 0.785666 0.331935
0.161977 0.784174 0.331429
0.166443 0.785836 0.332180
0.170531 0.785184 0.332020
0.174772 0.785367 0.332197
0.179078 0.785835 0.332494
0.183423 0.786431 0.332849
0.187426 0.785191 0.332482
0.191354 0.783591 0.331977
0.195538 0.783263 0.331984
0.200368 0.785960 0.333198
0.204787 0.786574 0.333591
0.208804 0.785292 0.333237
0.213568 0.787317 0.334203
0.217911 0.787387 0.334397
0.222356 0.787832 0.334745
0.226781 0.788132 0.335040
0.231202 0.788359 0.335311
0.235471 0.787929 0.335323
0.239689 0.787278 0.335251
0.244026 0.787064 0.335356
0.249091 0.789534 0.336536
0.253964 0.791168 0.337384
0.258309 0.790817 0.337441
0.262475 0.789822 0.337239
0.266833 0.789501 0.337307
0.270963 0.788396 0.337060
0.276284 0.791265 0.338404
0.280765 0.791278 0.338600
0.285152 0.790978 0.338667
0.290082 0.792392 0.339417
0.294674 0.792706 0.339719
0.299196 0.792799 0.339926
0.303947 0.793582 0.340402
0.308386 0.793431 0.340492
0.312946 0.793654 0.340723
0.317496 0.793864 0.340936
0.321425 0.792344 0.340438
0.325853 0.792290 0.340516
0.330313 0.792361 0.340628
0.334550 0.791874 0.340499
0.339544 0.793464 0.341188
0.344641 0.795334 0.341971
0.348935 0.795138 0.341900
0.353828 0.796541 0.342452
0.358059 0.796308 0.342321
0.362428 0.796502 0.342338
0.366746 0.796643 0.342309
0.370602 0.795745 0.341837
0.376387 0.799577 0.343244
0.380283 0.798937 0.342822
0.383939 0.797841 0.342190
0.387991 0.797786 0.341950
0.392693 0.799316 0.342319
0.396943 0.799890 0.342277
0.401418 0.801060 0.342445
0.405526 0.801495 0.342291
0.409298 0.801287 0.341852
0.413465 0.802046 0.341773
0.418107 0.803920 0.342112
0.422318 0.804945 0.342085
0.425761 0.804433 0.341418
0.430070 0.805849 0.341494
-0.462311 0.740225 0.347998
-0.458989 0.741169 0.348552
-0.454887 0.740942 0.348561
-0.450870 0.740929 0.348633
-0.444992 0.737923 0.347358
-0.439753 0.736006 0.346530
-0.436548 0.737546 0.347194
-0.434645 0.741395 0.348843
-0.429898 0.740524 0.348382
-0.426871 0.742680 0.349222
-0.422744 0.743030 0.349236
-0.417982 0.742334 0.348760
-0.414581 0.744112 0.349340
-0.409536 0.743035 0.348637
-0.404907 0.742748 0.348252
-0.401014 0.743861 0.348453
-0.397335 0.745447 0.348832
-0.393319 0.746483 0.348944
-0.389288 0.747558 0.349047
-0.383353 0.745049 0.347561
-0.379012 0.745605 0.347391
-0.374779 0.746417 0.347311
-0.370345 0.746874 0.347056
-0.366905 0.749358 0.347663
-0.361799 0.748536 0.346816
-0.356955 0.748244 0.346185
-0.352086 0.747898 0.345518
-0.348194 0.749605 0.345725
-0.343576 0.749805 0.345270
-0.338407 0.748812 0.344293
-0.334633 0.750836 0.344604
-0.330312 0.751686 0.344404
-0.325342 0.751081 0.343574
-0.320586 0.750927 0.342934
-0.316476 0.752233 0.342915
-0.312130 0.752996 0.342660
-0.307725 0.753607 0.342340
-0.302669 0.752634 0.341347
-0.297729 0.751880 0.340449
-0.293374 0.752513 0.340142
-0.289172 0.753509 0.339990
-0.284979 0.754516 0.339844
-0.280199 0.753987 0.339055
-0.275317 0.753129 0.338134
-0.270708 0.752925 0.337493
-0.267047 0.755233 0.337910
-0.263244 0.757176 0.338177
-0.257844 0.754663 0.336589
-0.253880 0.756096 0.336655
-0.249697 0.756891 0.336461
-0.245163 0.756630 0.335834
-0.240910 0.757148 0.335538
-0.236384 0.756798 0.334890
-0.231939 0.756635 0.334327
-0.228037 0.758115 0.334451
-0.223702 0.758211 0.334010
-0.218964 0.756947 0.333017
-0.215075 0.758391 0.333147
-0.211143 0.759689 0.333223
-0.206696 0.759217 0.332581
-0.202388 0.759155 0.332114
-0.198192 0.759440 0.331797
-0.194110 0.760095 0.331640
-0.189984 0.760558 0.331411
-0.185753 0.760593 0.331014
-0.181635 0.761013 0.330783
-0.177596 0.761708 0.330670
-0.173584 0.762488 0.330599
-0.169792 0.764153 0.330893
-0.165342 0.763082 0.330085
-0.161035 0.762522 0.329492
-0.156775 0.762097 0.328961
-0.152904 0.763342 0.329112
-0.149178 0.765265 0.329542
-0.144709 0.763735 0.328587
-0.140766 0.764619 0.328611
-0.137099 0.766856 0.329184
-0.132633 0.765121 0.328168
-0.129067 0.767918 0.328978
-0.124780 0.766969 0.328290
-0.120300 0.764864 0.327148
-0.116276 0.765164 0.326974
-0.112125 0.764698 0.326501
-0.108074 0.764753 0.326242
-0.104351 0.766794 0.326781
-0.100535 0.768324 0.327121
-0.096460 0.768199 0.326807
-0.092313 0.767542 0.326286
-0.088202 0.767039 0.325833
-0.084251 0.767620 0.325817
-0.080324 0.768386 0.325879
-0.076476 0.769790 0.326199
-0.071878 0.765107 0.324111
-0.068417 0.769708 0.325709
-0.064100 0.767027 0.324427
-0.060314 0.769011 0.324996
-0.056384 0.769735 0.325072
-0.052558 0.771562 0.325588
-0.048454 0.770518 0.324975
-0.044332 0.769107 0.324223
-0.040440 0.770277 0.324494
-0.036574 0.771886 0.324942
-0.032593 0.772074 0.324835
-0.028579 0.771763 0.324537
-0.024793 0.775002 0.325640
-0.020967 0.778045 0.326669
-0.016613 0.771612 0.323978
-0.012757 0.774213 0.324843
-0.008732 0.773418 0.324379
-0.004719 0.772692 0.323947
-0.000775 0.773782 0.324232
0.003139 0.776245 0.325060
0.007137 0.776073 0.324859
0.011121 0.776561 0.324922
0.015116 0.776562 0.324799
0.019105 0.777114 0.324896
0.023111 0.774463 0.323745
0.027093 0.774153 0.323515
0.031076 0.774269 0.323457
0.035065 0.774971 0.323633
0.039100 0.778070 0.324751
0.043120 0.778911 0.324991
0.047130 0.779037 0.324956
0.051103 0.777875 0.324423
0.055131 0.778542 0.324610
0.059128 0.778221 0.324416
0.063116 0.777743 0.324167
0.067058 0.776398 0.323584
0.071111 0.777255 0.323866
0.075207 0.778660 0.324368
0.079161 0.777615 0.323918
0.083329 0.779738 0.324711
0.087574 0.782575 0.325787
0.091559 0.781743 0.325438
0.095512 0.780578 0.324965
0.099609 0.781108 0.325158
0.103708 0.781556 0.325325
0.107869 0.782533 0.325705
0.111906 0.782186 0.325574
0.115979 0.782144 0.325569
0.120278 0.784038 0.326325
0.124174 0.782334 0.325683
0.128105 0.781010 0.325196
0.132190 0.780922 0.325197
0.136227 0.780432 0.325048
0.140522 0.781782 0.325623
0.144832 0.783089 0.326188
0.148995 0.783268 0.326319
0.153597 0.786232 0.327544
0.157441 0.784191 0.326821
0.161413 0.783005 0.326439
0.165806 0.784323 0.327042
0.170356 0.786406 0.327950
0.174419 0.785610 0.327740
0.178764 0.786326 0.328127
0.182946 0.786096 0.328152
0.187118 0.785766 0.328143
0.191159 0.784751 0.327872
0.195151 0.783491 0.327512
0.199568 0.784265 0.327954
0.204108 0.785516 0.328590
0.208314 0.785148 0.328597
0.212868 0.786281 0.329198
0.217342 0.786968 0.329631
0.221837 0.787668 0.330073
0.226044 0.787093 0.330020
0.230670 0.788194 0.330631
0.235120 0.788510 0.330937
0.239388 0.788057 0.330945
0.243846 0.788306 0.331233
0.247783 0.786562 0.330737
0.253178 0.790180 0.332359
0.257618 0.790198 0.332563
0.262209 0.790714 0.332964
0.266560 0.790354 0.333020
0.270889 0.789907 0.333042
0.275761 0.791259 0.333773
0.280317 0.791511 0.334068
0.284583 0.790810 0.333981
0.289103 0.790922 0.334213
0.294292 0.793101 0.335260
0.299153 0.794204 0.335874
0.302204 0.789835 0.334309
0.307030 0.790864 0.334877
0.311667 0.791322 0.335209
0.316096 0.791187 0.335294
0.321133 0.792798 0.336061
0.325570 0.792722 0.336144
0.330085 0.792896 0.336311
0.334573 0.793034 0.336448
0.339136 0.793415 0.336663
0.344067 0.794801 0.337260
0.348778 0.795637 0.337618
0.353452 0.796421 0.337934
0.357915 0.796719 0.338035
0.361495 0.794883 0.337263
0.365697 0.794699 0.337124
0.369865 0.794520 0.336963
0.374301 0.795072 0.337067
0.379611 0.797772 0.337998
0.383619 0.797450 0.337701
0.387807 0.797649 0.337585
0.392571 0.799261 0.338001
0.397166 0.800554 0.338263
0.401149 0.800551 0.337983
0.405246 0.800906 0.337817
0.409625 0.801975 0.337906
0.413975 0.803067 0.337976
0.417334 0.802110 0.337211
0.420736 0.801370 0.336505
0.426337 0.805393 0.337649
0.430566 0.806581 0.337649
-0.463871 0.736128 0.341979
-0.461308 0.738206 0.343029
-0.457873 0.738995 0.343489
-0.454262 0.739593 0.343837
-0.450057 0.739307 0.343770
-0.445301 0.738186 0.343309
-0.441135 0.738105 0.343269
-0.437144 0.738393 0.343358
-0.432660 0.737924 0.343087
-0.429945 0.740546 0.344128
-0.426686 0.742351 0.344783
-0.423028 0.743563 0.345148
-0.419461 0.745027 0.345593
-0.414175 0.743530 0.344721
-0.410038 0.744124 0.344729
-0.405656 0.744346 0.344546
-0.401785 0.745564 0.344766
-0.397447 0.745991 0.344617
-0.392892 0.746066 0.344291
-0.388125 0.745784 0.343786
-0.383755 0.746293 0.343599
-0.379025 0.746150 0.343110
-0.374317 0.746071 0.342629
-0.370481 0.747746 0.342882
-0.366215 0.748614 0.342769
-0.361805 0.749224 0.342531
-0.356686 0.748401 0.341664
-0.352002 0.748464 0.341165
-0.347973 0.749911 0.341245
-0.343937 0.751375 0.341319
-0.338798 0.750481 0.340383
-0.333746 0.749740 0.339507
-0.329441 0.750622 0.339313
-0.325083 0.751387 0.339064
-0.320659 0.751996 0.338745
-0.315959 0.751958 0.338151
-0.311721 0.752968 0.337998
-0.307042 0.752928 0.337402
-0.301749 0.751367 0.336172
-0.297409 0.752054 0.335884
-0.293216 0.753084 0.335742
-0.289207 0.754565 0.335790
-0.284898 0.755281 0.335521
-0.279099 0.752106 0.333642
-0.274905 0.753013 0.333464
-0.270588 0.753571 0.333145
-0.266471 0.754639 0.333043
-0.262105 0.755001 0.332655
-0.258561 0.757626 0.333204
-0.254122 0.757737 0.332723
-0.249501 0.757271 0.332013
-0.244809 0.756528 0.331198
-0.240472 0.756768 0.330794
-0.236264 0.757356 0.330538
-0.232216 0.758399 0.330476
-0.228098 0.759207 0.330324
-0.223335 0.757930 0.329332
-0.218561 0.756514 0.328293
-0.214589 0.757649 0.328298
-0.210898 0.759719 0.328687
-0.206687 0.760025 0.328370
-0.202411 0.760064 0.327952
-0.198284 0.760581 0.327735
-0.194167 0.761100 0.327526
-0.189927 0.761133 0.327128
-0.185972 0.762188 0.327149
-0.181842 0.762562 0.326903
-0.177527 0.762171 0.326358
-0.173986 0.764821 0.327038
-0.169160 0.762265 0.325641
-0.165384 0.763944 0.325946
-0.160938 0.762774 0.325119
-0.156816 0.762927 0.324828
-0.152835 0.763666 0.324777
-0.148913 0.764659 0.324833
-0.144746 0.764504 0.324439
-0.140700 0.764875 0.324260
-0.136843 0.766145 0.324445
-0.132910 0.767053 0.324491
-0.128328 0.764581 0.323206
-0.123916 0.762839 0.322217
-0.120448 0.766135 0.323225
-0.116286 0.765655 0.322748
-0.112279 0.766002 0.322603
-0.108184 0.765791 0.322243
-0.104212 0.766286 0.322167
-0.100317 0.767259 0.322285
-0.096357 0.767820 0.322246
-0.092204 0.767057 0.321692
-0.088367 0.768424 0.321980
-0.084305 0.768201 0.321649
-0.080380 0.768958 0.321707
-0.076333 0.768772 0.321401
-0.072496 0.770244 0.321749
-0.068627 0.771518 0.322024
-0.064483 0.770408 0.321372
-0.060385 0.769582 0.320837
-0.056449 0.770223 0.320880
-0.052444 0.770162 0.320653
-0.048387 0.769493 0.320195
-0.044396 0.769459 0.319989
-0.040465 0.770107 0.320053
-0.036566 0.771200 0.320294
-0.032588 0.771317 0.320161
-0.028629 0.771675 0.320126
-0.024710 0.772697 0.320354
-0.020660 0.771558 0.319747
-0.016881 0.775294 0.321036
-0.012830 0.774075 0.320407
-0.008798 0.772999 0.319839
-0.004814 0.772828 0.319627
-0.000889 0.774306 0.320057
0.003091 0.774366 0.319944
0.007067 0.774503 0.319864
0.011022 0.775800 0.320238
0.014980 0.777760 0.320872
0.018989 0.776127 0.320123
0.022975 0.776020 0.319968
0.026958 0.774772 0.319377
0.030940 0.775275 0.319468
0.034947 0.777728 0.320314
0.038953 0.778539 0.320533
0.042969 0.779390 0.320771
0.046929 0.777680 0.320027
0.050907 0.777075 0.319715
0.054935 0.778036 0.320010
0.058964 0.778752 0.320216
0.062945 0.778184 0.319933
0.066892 0.777004 0.319420
0.070888 0.776898 0.319325
0.075023 0.779104 0.320125
0.079065 0.779486 0.320229
0.083125 0.780029 0.320400
0.087214 0.780845 0.320681
0.091304 0.781531 0.320918
0.095314 0.781137 0.320745
0.099282 0.780256 0.320390
0.103535 0.782468 0.321231
0.107657 0.783080 0.321462
0.111601 0.781878 0.321001
0.115669 0.781867 0.321004
0.119690 0.781403 0.320840
0.123594 0.779937 0.320295
0.127868 0.781536 0.320936
0.131919 0.781223 0.320848
0.135978 0.780939 0.320776
0.140106 0.781125 0.320893
0.144402 0.782417 0.321441
0.148745 0.783882 0.322062
0.152491 0.781318 0.321138
0.156773 0.782237 0.321563
0.161083 0.783218 0.322017
0.165704 0.785928 0.323144
0.169234 0.782155 0.321781
0.173609 0.783262 0.322304
0.178130 0.785046 0.323094
0.182424 0.785480 0.323372
0.186563 0.785042 0.323319
0.190791 0.785020 0.323433
0.194896 0.784340 0.323299
0.199134 0.784277 0.323410
0.203615 0.785291 0.323943
0.208072 0.786100 0.324403
0.212363 0.786080 0.324549
0.216753 0.786440 0.324847
0.221034 0.786272 0.324947
0.225589 0.787199 0.325476
0.229860 0.786885 0.325528
0.234348 0.787400 0.325908
0.238924 0.788189 0.326398
0.243225 0.787858 0.326456
0.247502 0.787405 0.326471
0.251766 0.786884 0.326462
0.256672 0.788655 0.327347
0.261454 0.789885 0.328023
0.266300 0.791256 0.328756
0.270993 0.792033 0.329259
0.275273 0.791375 0.329201
0.279882 0.791795 0.329563
0.284131 0.791026 0.329458
0.288574 0.790881 0.329593
0.293780 0.793107 0.330651
0.297594 0.790994 0.330007
0.302186 0.791288 0.330298
0.306675 0.791274 0.330460
0.311089 0.791049 0.330531
0.315844 0.791826 0.330984
0.320542 0.792440 0.331362
0.325401 0.793507 0.331905
0.329769 0.793226 0.331906
0.334140 0.793000 0.331913
0.338853 0.793737 0.332280
0.343617 0.794633 0.332693
0.348901 0.796906 0.333627
0.353193 0.796643 0.333546
0.357431 0.796313 0.333416
0.361461 0.795547 0.333092
0.365517 0.794937 0.332806
0.369859 0.795116 0.332807
0.374465 0.796008 0.333061
0.379447 0.797858 0.333666
0.383654 0.797939 0.333550
0.388042 0.798533 0.333608
0.392349 0.799026 0.333599
0.396474 0.799193 0.333435
0.400254 0.798688 0.332981
0.405090 0.800638 0.333460
0.410195 0.803243 0.334165
0.414367 0.803876 0.334072
0.417304 0.801944 0.332952
0.420402 0.800501 0.331998
0.426383 0.805280 0.333437
0.430319 0.805800 0.333193
0.433050 0.803917 0.331992
-0.467317 0.735086 0.337309
-0.463178 0.734608 0.337259
-0.459218 0.734491 0.337335
-0.456918 0.737118 0.338559
-0.454429 0.739562 0.339676
-0.449930 0.738842 0.339403
-0.446176 0.739417 0.339655
-0.442517 0.740238 0.339982
-0.438416 0.740408 0.339999
-0.433954 0.740046 0.339755
-0.430237 0.741022 0.340055
-0.427034 0.742978 0.340743
-0.423393 0.744276 0.341118
-0.418788 0.743969 0.340775
-0.414460 0.744211 0.340638
-0.410076 0.744419 0.340457
-0.406112 0.745448 0.340599
-0.402013 0.746304 0.340640
-0.397105 0.745727 0.340043
-0.392216 0.745217 0.339450
-0.387810 0.745649 0.339236
-0.383992 0.747254 0.339498
-0.379517 0.747651 0.339225
-0.374570 0.747157 0.338555
-0.369686 0.746793 0.337923
-0.365807 0.748459 0.338133
-0.361594 0.749494 0.338061
-0.357468 0.750741 0.338064
-0.351289 0.747737 0.336266
-0.347130 0.748920 0.336220
-0.343636 0.751547 0.336770
-0.338602 0.750894 0.335936
-0.333527 0.750117 0.335046
-0.328841 0.750164 0.334496
-0.324994 0.752081 0.334722
-0.320861 0.753369 0.334681
-0.316107 0.753222 0.334043
-0.311434 0.753229 0.333468
-0.305526 0.750261 0.331665
-0.301109 0.750770 0.331303
-0.297138 0.752345 0.331381
-0.293057 0.753649 0.331350
-0.288586 0.753963 0.330914
-0.282981 0.751341 0.329280
-0.278713 0.752065 0.329023
-0.274459 0.752797 0.328774
-0.270447 0.754150 0.328783
-0.266420 0.755452 0.328776
-0.262537 0.757141 0.328931
-0.258251 0.757703 0.328634
-0.254068 0.758520 0.328447
-0.249374 0.757834 0.327658
-0.244046 0.755206 0.326093
-0.239559 0.754953 0.325497
-0.235851 0.757004 0.325837
-0.232246 0.759388 0.326316
-0.227864 0.759356 0.325830
-0.223052 0.757894 0.324779
-0.218553 0.757345 0.324103
-0.214559 0.758394 0.324074
-0.210846 0.760377 0.324425
-0.206767 0.761120 0.324288
-0.202512 0.761225 0.323903
-0.198280 0.761357 0.323537
-0.194293 0.762337 0.323516
-0.190027 0.762268 0.323085
-0.186036 0.763180 0.323050
-0.181920 0.763596 0.322826
-0.177944 0.764530 0.322814
-0.172721 0.760440 0.320825
-0.169128 0.762815 0.321396
-0.164974 0.762888 0.321065
-0.161235 0.764697 0.321424
-0.156680 0.762961 0.320396
-0.152788 0.764066 0.320491
-0.148698 0.764268 0.320238
-0.144631 0.764535 0.320017
-0.140461 0.764275 0.319595
-0.136307 0.764028 0.319186
-0.132488 0.765423 0.319424
-0.128405 0.765472 0.319142
-0.124433 0.766068 0.319080
-0.120335 0.765958 0.318748
-0.116470 0.767113 0.318915
-0.112458 0.767433 0.318762
-0.108403 0.767470 0.318504
-0.104284 0.767070 0.318083
-0.100318 0.767572 0.318017
-0.096434 0.768600 0.318160
-0.092602 0.770009 0.318455
-0.088489 0.769494 0.318011
-0.084369 0.768847 0.317521
-0.080470 0.769778 0.317647
-0.076651 0.771370 0.318032
-0.072572 0.770917 0.317632
-0.068475 0.770217 0.317143
-0.064448 0.770043 0.316862
-0.060480 0.770364 0.316776
-0.056457 0.770129 0.316481
-0.052413 0.769612 0.316082
-0.048499 0.770403 0.316191
-0.044527 0.770580 0.316068
-0.040551 0.770673 0.315918
-0.036626 0.771402 0.316017
-0.032671 0.771770 0.315981
-0.028665 0.771381 0.315660
-0.024696 0.771485 0.315532
-0.020823 0.773221 0.316033
-0.016898 0.774242 0.316265
-0.012938 0.774700 0.316286
-0.008915 0.773758 0.315776
-0.004955 0.774187 0.315795
-0.001003 0.774897 0.315925
0.002985 0.774549 0.315656
0.006978 0.773819 0.315246
0.010943 0.774109 0.315229
0.014887 0.776010 0.315831
0.018862 0.776530 0.315911
0.022855 0.773931 0.314808
0.026825 0.775343 0.315237
0.030806 0.776228 0.315469
0.034811 0.778676 0.316300
0.038790 0.777800 0.315873
0.042760 0.776836 0.315416
0.046807 0.779322 0.316275
0.050786 0.778670 0.315947
0.054746 0.777641 0.315480
0.058769 0.778397 0.315696
0.062825 0.779701 0.316125
0.066815 0.779372 0.315940
0.070827 0.779447 0.315913
0.074845 0.779595 0.315918
0.078919 0.780525 0.316225
0.082955 0.780747 0.316269
0.086979 0.780734 0.316230
0.091016 0.780836 0.316239
0.095045 0.780788 0.316197
0.099282 0.783040 0.317032
0.102970 0.779144 0.315542
0.107274 0.781843 0.316558
0.111418 0.782691 0.316878
0.115368 0.781632 0.316482
0.119381 0.781164 0.316314
0.123528 0.781816 0.316578
0.127609 0.781836 0.316608
0.131853 0.783075 0.317106
0.135883 0.782564 0.316946
0.140004 0.782691 0.317035
0.144236 0.783538 0.317404
0.148324 0.783306 0.317369
0.152469 0.783404 0.317466
0.156659 0.783729 0.317655
0.160892 0.784243 0.317923
0.164810 0.782803 0.317456
0.168886 0.782306 0.317352
0.173139 0.782772 0.317621
0.177682 0.784737 0.318466
0.182031 0.785516 0.318868
0.186173 0.785128 0.318832
0.190363 0.784953 0.318884
0.194513 0.784530 0.318847
0.198686 0.784189 0.318848
0.203108 0.784971 0.319283
0.207531 0.785667 0.319692
0.212008 0.786517 0.320165
0.216347 0.786679 0.320382
0.220686 0.786783 0.320583
0.224985 0.786664 0.320704
0.229574 0.787682 0.321264
0.233867 0.787428 0.321344
0.238239 0.787447 0.321532
0.243046 0.789082 0.322343
0.247578 0.789577 0.322721
0.251899 0.789239 0.322785
0.256333 0.789277 0.322994
0.260941 0.789895 0.323429
0.265567 0.790515 0.323866
0.270215 0.791161 0.324314
0.274605 0.790888 0.324409
0.278452 0.788815 0.323811
0.283728 0.791406 0.325006
0.288142 0.791158 0.325105
0.292976 0.792214 0.325704
0.297694 0.792868 0.326144
0.302111 0.792589 0.326218
0.306502 0.792242 0.326259
0.311197 0.792803 0.326643
0.315851 0.793235 0.326968
0.320583 0.793893 0.327369
0.324511 0.792312 0.326893
0.329105 0.792634 0.327140
0.333658 0.792869 0.327339
0.338204 0.793117 0.327527
0.344065 0.796865 0.329054
0.348109 0.795845 0.328716
0.352399 0.795537 0.328634
0.356783 0.795539 0.328652
0.362036 0.797774 0.329513
0.365478 0.795566 0.328629
0.369645 0.795253 0.328457
0.374628 0.796990 0.329053
0.379044 0.797424 0.329120
0.384754 0.800972 0.330365
0.388191 0.799264 0.329551
0.392105 0.798786 0.329185
0.396015 0.798409 0.328831
0.399832 0.797930 0.328411
