ply
format ascii 1.0
comment ---
element vertex 1675
property float x
property float y
property float z
element face 0
property list uchar uint vertex_indices
end_header
0.462618 0.826312 -0.080841
-0.479714 0.726211 -0.090515
-0.474173 0.724011 -0.090533
-0.471427 0.726296 -0.090424
-0.466852 0.725787 -0.090429
-0.462953 0.726448 -0.090418
-0.459156 0.727372 -0.090418
-0.456186 0.729751 -0.090392
-0.453579 0.732853 -0.090363
-0.446653 0.728866 -0.090585
-0.442117 0.728905 -0.090695
-0.438497 0.730570 -0.090770
-0.434856 0.732289 -0.090861
-0.430340 0.732572 -0.091015
-0.426207 0.733580 -0.091161
-0.421872 0.734288 -0.091331
-0.417746 0.735419 -0.091501
-0.413378 0.736160 -0.091696
-0.407483 0.734137 -0.091985
-0.403171 0.735017 -0.092195
-0.399544 0.737209 -0.092374
-0.395366 0.738404 -0.092590
-0.390619 0.738531 -0.092844
-0.385031 0.737016 -0.093151
-0.380240 0.737015 -0.093417
-0.375732 0.737555 -0.093669
-0.371566 0.738771 -0.093905
-0.367468 0.740124 -0.094139
-0.362980 0.740673 -0.094395
-0.358337 0.740875 -0.094661
-0.353786 0.741235 -0.094920
-0.348549 0.740097 -0.095218
-0.343794 0.739927 -0.095487
-0.339291 0.740255 -0.095740
-0.335107 0.741250 -0.095973
-0.330722 0.741770 -0.096215
-0.325850 0.741141 -0.096482
-0.321244 0.741054 -0.096730
-0.317109 0.742010 -0.096948
-0.313181 0.743428 -0.097151
-0.308947 0.744090 -0.097368
-0.304238 0.743564 -0.097608
-0.299212 0.742183 -0.097862
-0.295193 0.743221 -0.098054
-0.291095 0.744033 -0.098247
-0.286937 0.744655 -0.098439
-0.282828 0.745366 -0.098624
-0.277760 0.743508 -0.098860
-0.273905 0.744792 -0.099021
-0.270125 0.746258 -0.099174
-0.266164 0.747214 -0.099333
-0.260969 0.744693 -0.099560
-0.257042 0.745642 -0.099709
-0.253441 0.747502 -0.099834
-0.249355 0.747950 -0.099983
-0.245230 0.748243 -0.100131
-0.240889 0.747844 -0.100287
-0.236612 0.747576 -0.100436
-0.232877 0.748936 -0.100548
-0.229066 0.750048 -0.100660
-0.225116 0.750702 -0.100777
-0.220982 0.750731 -0.100901
-0.217009 0.751244 -0.101012
-0.212981 0.751544 -0.101123
-0.209236 0.752780 -0.101212
-0.205069 0.752538 -0.101324
-0.200810 0.751915 -0.101439
-0.196456 0.750881 -0.101558
-0.192435 0.750997 -0.101651
-0.189064 0.753513 -0.101697
-0.185031 0.753551 -0.101785
-0.180813 0.752823 -0.101883
-0.176537 0.751799 -0.101982
-0.172931 0.753409 -0.102031
-0.169249 0.754732 -0.102081
-0.164858 0.753072 -0.102181
-0.160351 0.750809 -0.102288
-0.156759 0.752436 -0.102324
-0.153349 0.754920 -0.102343
-0.149374 0.754874 -0.102402
-0.145153 0.753635 -0.102479
-0.140939 0.752338 -0.102554
-0.137310 0.753825 -0.102578
-0.133753 0.755709 -0.102594
-0.129661 0.754886 -0.102652
-0.125917 0.755832 -0.102678
-0.122060 0.756180 -0.102712
-0.118173 0.756343 -0.102747
-0.114350 0.756848 -0.102773
-0.110192 0.755381 -0.102830
-0.106226 0.754955 -0.102868
-0.102350 0.755034 -0.102895
-0.098550 0.755568 -0.102912
-0.094884 0.757002 -0.102912
-0.091130 0.757884 -0.102920
-0.086952 0.755800 -0.102974
-0.083091 0.755858 -0.102991
-0.079225 0.755854 -0.103007
-0.075548 0.757297 -0.102998
-0.071855 0.758692 -0.102987
-0.068207 0.760548 -0.102967
-0.064536 0.762318 -0.102947
-0.060647 0.762207 -0.102956
-0.056773 0.762192 -0.102962
-0.052909 0.762244 -0.102965
-0.049008 0.761882 -0.102973
-0.045118 0.761567 -0.102979
-0.041146 0.760223 -0.103000
-0.037329 0.760620 -0.102990
-0.033417 0.759771 -0.103000
-0.029604 0.760159 -0.102988
-0.025800 0.760712 -0.102971
-0.021999 0.761356 -0.102952
-0.018182 0.761779 -0.102934
-0.014351 0.761982 -0.102919
-0.010439 0.760505 -0.102930
-0.006589 0.760094 -0.102921
-0.002822 0.761655 -0.102879
0.001013 0.761611 -0.102861
0.004915 0.759262 -0.102880
0.008651 0.762603 -0.102803
0.012493 0.762241 -0.102786
0.016314 0.762854 -0.102751
0.020139 0.763605 -0.102713
0.023970 0.764210 -0.102675
0.027806 0.764836 -0.102634
0.031649 0.766018 -0.102583
0.035507 0.767851 -0.102519
0.039337 0.765949 -0.102516
0.043191 0.766625 -0.102468
0.047040 0.766735 -0.102427
0.050873 0.766194 -0.102396
0.054755 0.767441 -0.102333
0.058657 0.768908 -0.102263
0.062502 0.768579 -0.102222
0.066327 0.767861 -0.102186
0.070197 0.768195 -0.102130
0.074114 0.769307 -0.102058
0.077974 0.769255 -0.102004
0.081783 0.768384 -0.101962
0.085824 0.771052 -0.101856
0.089608 0.769780 -0.101816
0.093477 0.769744 -0.101753
0.098301 0.781476 -0.101478
0.101275 0.770311 -0.101606
0.105213 0.770942 -0.101523
0.109501 0.775177 -0.101372
0.113607 0.777144 -0.101259
0.117130 0.773321 -0.101247
0.120959 0.772603 -0.101177
0.125399 0.777289 -0.101005
0.129209 0.776239 -0.100934
0.133058 0.775556 -0.100854
0.137393 0.778691 -0.100699
0.141185 0.777469 -0.100623
0.145490 0.780032 -0.100471
0.149957 0.783532 -0.100298
0.153139 0.777983 -0.100293
0.157173 0.778382 -0.100172
0.162231 0.785295 -0.099920
0.167163 0.790972 -0.099686
0.169191 0.778688 -0.099802
0.172229 0.772994 -0.099786
0.176383 0.773952 -0.099634
0.180258 0.773260 -0.099511
0.184163 0.772721 -0.099382
0.188214 0.772927 -0.099232
0.193569 0.779815 -0.098939
0.198117 0.782248 -0.098733
0.204908 0.795553 -0.098291
0.207031 0.785755 -0.098332
0.211702 0.788315 -0.098106
0.216169 0.789772 -0.097898
0.219119 0.784295 -0.097837
0.223287 0.784352 -0.097650
0.228639 0.789445 -0.097346
0.232565 0.788261 -0.097176
0.235492 0.782945 -0.097095
0.239115 0.780597 -0.096944
0.244270 0.784361 -0.096645
0.247904 0.782005 -0.096484
0.253345 0.786576 -0.096153
0.258478 0.789761 -0.095848
0.264402 0.795674 -0.095469
0.269226 0.797347 -0.095187
0.273980 0.798649 -0.094907
0.278846 0.800237 -0.094614
0.278817 0.784977 -0.094746
0.285383 0.792341 -0.094297
0.288808 0.789022 -0.094118
0.290116 0.778886 -0.094117
0.294179 0.777829 -0.093875
0.298658 0.778062 -0.093595
0.303228 0.778515 -0.093304
0.308215 0.780174 -0.092976
0.314713 0.786260 -0.092520
0.318919 0.785355 -0.092256
0.324006 0.786995 -0.091917
0.329217 0.788899 -0.091567
0.332255 0.784599 -0.091399
0.336172 0.782833 -0.091157
0.341008 0.783604 -0.090841
0.345531 0.783490 -0.090553
0.347957 0.777798 -0.090439
0.351021 0.773926 -0.090275
0.357334 0.778544 -0.089850
0.363678 0.783117 -0.089429
0.368497 0.783747 -0.089138
0.375924 0.790840 -0.088644
0.377351 0.783102 -0.088641
0.382144 0.783718 -0.088376
0.385964 0.782041 -0.088199
0.391391 0.784234 -0.087904
0.397701 0.788481 -0.087552
0.401585 0.787117 -0.087404
0.404406 0.783442 -0.087352
0.409488 0.785004 -0.087137
0.415062 0.787702 -0.086900
0.419819 0.788638 -0.086743
0.422917 0.786054 -0.086728
0.430253 0.792720 -0.086409
0.436337 0.796693 -0.086205
0.439784 0.795153 -0.086215
0.440831 0.788763 -0.086419
0.430983 0.760158 -0.087425
-0.477000 0.721265 -0.094679
-0.474204 0.723377 -0.094573
-0.470273 0.723819 -0.094535
-0.467751 0.726609 -0.094453
-0.464367 0.728147 -0.094426
-0.460506 0.729024 -0.094439
-0.456781 0.730220 -0.094464
-0.452735 0.730982 -0.094520
-0.448414 0.731373 -0.094606
-0.442577 0.729281 -0.094778
-0.438310 0.729883 -0.094893
-0.434558 0.731441 -0.095000
-0.430135 0.731913 -0.095152
-0.425684 0.732387 -0.095319
-0.421672 0.733689 -0.095477
-0.417982 0.735625 -0.095632
-0.413609 0.736390 -0.095828
-0.408627 0.736069 -0.096063
-0.403734 0.735918 -0.096301
-0.399306 0.736639 -0.096526
-0.395895 0.739304 -0.096708
-0.390725 0.738648 -0.096979
-0.384936 0.736763 -0.097282
-0.380365 0.737207 -0.097533
-0.375865 0.737777 -0.097782
-0.371574 0.738756 -0.098024
-0.367101 0.739355 -0.098276
-0.362949 0.740596 -0.098513
-0.358490 0.741188 -0.098765
-0.353824 0.741316 -0.099025
-0.349234 0.741565 -0.099280
-0.344011 0.740405 -0.099562
-0.339222 0.740116 -0.099823
-0.334928 0.740867 -0.100058
-0.330714 0.741765 -0.100288
-0.325654 0.740708 -0.100552
-0.321223 0.741019 -0.100784
-0.317006 0.741783 -0.101003
-0.312685 0.742266 -0.101224
-0.308324 0.742607 -0.101442
-0.304254 0.743610 -0.101643
-0.300075 0.744311 -0.101844
-0.294757 0.742133 -0.102093
-0.290315 0.742055 -0.102297
-0.286830 0.744375 -0.102455
-0.282699 0.745021 -0.102637
-0.277684 0.743296 -0.102854
-0.273202 0.742890 -0.103043
-0.269842 0.745468 -0.103178
-0.265495 0.745346 -0.103352
-0.260873 0.744393 -0.103534
-0.256600 0.744352 -0.103696
-0.253070 0.746396 -0.103821
-0.249327 0.747825 -0.103951
-0.245095 0.747795 -0.104098
-0.240341 0.746139 -0.104265
-0.236647 0.747625 -0.104380
-0.233192 0.749854 -0.104480
-0.229236 0.750519 -0.104598
-0.225003 0.750271 -0.104726
-0.220864 0.750270 -0.104845
-0.216635 0.749926 -0.104965
-0.212844 0.750999 -0.105061
-0.208895 0.751521 -0.105160
-0.204894 0.751838 -0.105258
-0.200897 0.752134 -0.105353
-0.196761 0.751890 -0.105451
-0.193116 0.753408 -0.105521
-0.188809 0.752456 -0.105621
-0.184564 0.751660 -0.105715
-0.180748 0.752462 -0.105785
-0.176884 0.753068 -0.105853
-0.172859 0.753005 -0.105927
-0.169142 0.754174 -0.105982
-0.165325 0.754931 -0.106039
-0.160693 0.752169 -0.106138
-0.157148 0.754035 -0.106175
-0.153347 0.754793 -0.106223
-0.149480 0.755242 -0.106272
-0.145458 0.754952 -0.106328
-0.141441 0.754636 -0.106381
-0.137492 0.754598 -0.106428
-0.133667 0.755153 -0.106466
-0.129809 0.755536 -0.106502
-0.125837 0.755292 -0.106544
-0.122222 0.756947 -0.106561
-0.118355 0.757246 -0.106592
-0.114422 0.757155 -0.106625
-0.110683 0.758166 -0.106643
-0.106529 0.756685 -0.106688
-0.102724 0.757262 -0.106707
-0.098716 0.756540 -0.106739
-0.094966 0.757452 -0.106750
-0.091150 0.757936 -0.106764
-0.087304 0.758209 -0.106778
-0.083360 0.757753 -0.106799
-0.079510 0.757946 -0.106811
-0.075928 0.760227 -0.106796
-0.072490 0.763823 -0.106764
-0.067992 0.758685 -0.106834
-0.064400 0.761092 -0.106812
-0.060608 0.761837 -0.106809
-0.056663 0.761133 -0.106821
-0.052831 0.761473 -0.106819
-0.048994 0.761761 -0.106816
-0.045298 0.763615 -0.106793
-0.041284 0.761921 -0.106811
-0.037340 0.760853 -0.106819
-0.033557 0.761736 -0.106803
-0.029665 0.761169 -0.106803
-0.025830 0.761357 -0.106792
-0.022021 0.761937 -0.106775
-0.018242 0.763107 -0.106749
-0.014408 0.763391 -0.106733
-0.010537 0.762946 -0.106724
-0.006778 0.764897 -0.106684
-0.002924 0.764855 -0.106667
0.000973 0.763506 -0.106664
0.004805 0.763848 -0.106640
0.008630 0.764545 -0.106609
0.012479 0.764318 -0.106588
0.016336 0.763417 -0.106574
0.020166 0.764024 -0.106540
0.024000 0.764789 -0.106502
0.027842 0.764697 -0.106473
0.031687 0.766594 -0.106419
0.035532 0.766058 -0.106392
0.039387 0.766905 -0.106346
0.043229 0.766418 -0.106316
0.047066 0.765983 -0.106283
0.050913 0.766083 -0.106241
0.054850 0.769108 -0.106161
0.058637 0.767018 -0.106143
0.062574 0.769203 -0.106070
0.066460 0.769777 -0.106015
0.070337 0.770039 -0.105961
0.074150 0.769044 -0.105922
0.077937 0.767740 -0.105884
0.082060 0.771965 -0.105774
0.085794 0.769805 -0.105743
0.089696 0.770244 -0.105676
0.093540 0.769843 -0.105618
0.097381 0.769437 -0.105558
0.101225 0.769067 -0.105494
0.105211 0.770289 -0.105408
0.109030 0.769600 -0.105343
0.112872 0.769184 -0.105273
0.116841 0.769988 -0.105184
0.120768 0.770302 -0.105098
0.125035 0.773556 -0.104969
0.128890 0.773033 -0.104888
0.132716 0.772283 -0.104808
0.136581 0.771853 -0.104721
0.140550 0.772211 -0.104619
0.144338 0.771177 -0.104533
0.148137 0.770256 -0.104443
0.152321 0.771980 -0.104312
0.156701 0.774859 -0.104159
0.160761 0.775466 -0.104035
0.164582 0.774509 -0.103931
0.168174 0.772172 -0.103845
0.172285 0.772978 -0.103707
0.176536 0.774501 -0.103554
0.180427 0.773884 -0.103430
0.184259 0.772937 -0.103307
0.188444 0.773853 -0.103151
0.192533 0.774184 -0.102999
0.196517 0.773919 -0.102852
0.201196 0.777031 -0.102646
0.204883 0.775185 -0.102516
0.208848 0.774677 -0.102360
0.213983 0.779507 -0.102108
0.217328 0.776033 -0.101993
0.221488 0.776241 -0.101810
0.226854 0.781569 -0.101531
0.231240 0.782492 -0.101324
0.235411 0.782433 -0.101129
0.239787 0.783146 -0.100915
0.244694 0.785880 -0.100658
0.248843 0.785506 -0.100452
0.252989 0.785072 -0.100243
0.258747 0.790631 -0.099912
0.264613 0.796319 -0.099571
0.269342 0.797640 -0.099308
0.272504 0.793304 -0.099154
0.278747 0.799782 -0.098775
0.281909 0.795440 -0.098613
0.284971 0.790854 -0.098453
0.289083 0.789832 -0.098215
0.290273 0.779300 -0.098178
0.294429 0.778535 -0.097930
0.298857 0.778595 -0.097659
0.304195 0.781410 -0.097322
0.309355 0.783547 -0.096995
0.316568 0.791711 -0.096523
0.321648 0.793292 -0.096198
0.325613 0.791547 -0.095950
0.330430 0.792249 -0.095642
0.334319 0.790284 -0.095397
0.338466 0.789060 -0.095136
0.342740 0.788192 -0.094866
0.348825 0.792200 -0.094472
0.350486 0.784337 -0.094386
0.354402 0.782583 -0.094148
0.362202 0.790893 -0.093646
0.366819 0.790878 -0.093367
0.369856 0.786903 -0.093203
0.374079 0.785987 -0.092964
0.384107 0.799306 -0.092336
0.387364 0.795974 -0.092179
0.389235 0.789464 -0.092126
0.393134 0.787930 -0.091944
0.398829 0.790663 -0.091652
0.403125 0.790176 -0.091468
0.406218 0.787040 -0.091376
0.410312 0.786296 -0.091232
0.415722 0.788571 -0.091014
0.420214 0.788868 -0.090874
0.426056 0.792181 -0.090661
0.432259 0.796297 -0.090444
0.435948 0.795099 -0.090407
0.439415 0.793568 -0.090401
0.439413 0.784969 -0.090632
0.433744 0.764987 -0.091230
-0.474685 0.716961 -0.098790
-0.474029 0.722432 -0.098626
-0.471405 0.724974 -0.098549
-0.468524 0.727240 -0.098499
-0.466029 0.730256 -0.098453
-0.461868 0.730703 -0.098485
-0.457532 0.730951 -0.098542
-0.452068 0.729415 -0.098658
-0.447600 0.729584 -0.098755
-0.442503 0.728762 -0.098891
-0.438755 0.730281 -0.098992
-0.434774 0.731483 -0.099116
-0.430590 0.732403 -0.099262
-0.425573 0.731922 -0.099452
-0.421863 0.733785 -0.099605
-0.417505 0.734554 -0.099794
-0.411550 0.732464 -0.100051
-0.408610 0.735871 -0.100205
-0.404534 0.737256 -0.100410
-0.398667 0.735316 -0.100687
-0.394512 0.736574 -0.100907
-0.389156 0.735547 -0.101176
-0.386092 0.738929 -0.101365
-0.380331 0.737078 -0.101656
-0.376221 0.738434 -0.101889
-0.371669 0.738906 -0.102139
-0.366881 0.738877 -0.102398
-0.362459 0.739564 -0.102645
-0.358611 0.741423 -0.102871
-0.353783 0.741217 -0.103130
-0.349094 0.741257 -0.103383
-0.344693 0.741873 -0.103624
-0.339342 0.740376 -0.103895
-0.335065 0.741169 -0.104126
-0.330316 0.740871 -0.104370
-0.325392 0.740111 -0.104617
-0.321399 0.741425 -0.104829
-0.316792 0.741280 -0.105057
-0.312478 0.741771 -0.105272
-0.308220 0.742351 -0.105481
-0.304131 0.743302 -0.105680
-0.299630 0.743204 -0.105888
-0.294911 0.742505 -0.106098
-0.291331 0.744610 -0.106268
-0.287207 0.745320 -0.106450
-0.282616 0.744779 -0.106643
-0.277598 0.743040 -0.106845
-0.273462 0.743554 -0.107014
-0.269615 0.744814 -0.107169
-0.265619 0.745644 -0.107325
-0.261093 0.744963 -0.107493
-0.257252 0.746153 -0.107635
-0.253232 0.746807 -0.107778
-0.249056 0.746975 -0.107922
-0.245338 0.748455 -0.108047
-0.241110 0.748390 -0.108184
-0.236849 0.748173 -0.108318
-0.232955 0.749041 -0.108436
-0.229364 0.750844 -0.108541
-0.225055 0.750353 -0.108664
-0.221142 0.751091 -0.108771
-0.216790 0.750347 -0.108887
-0.212596 0.750065 -0.108995
-0.208827 0.751190 -0.109086
-0.204984 0.752048 -0.109176
-0.201107 0.752775 -0.109263
-0.197272 0.753632 -0.109346
-0.192854 0.752331 -0.109443
-0.188661 0.751783 -0.109530
-0.184786 0.752389 -0.109604
-0.181158 0.753942 -0.109667
-0.176942 0.753180 -0.109746
-0.172876 0.752953 -0.109816
-0.169040 0.753627 -0.109877
-0.165107 0.753883 -0.109938
-0.161126 0.753906 -0.109997
-0.157078 0.753597 -0.110056
-0.153242 0.754189 -0.110106
-0.149492 0.755167 -0.110149
-0.145673 0.755829 -0.110193
-0.141783 0.756146 -0.110236
-0.137828 0.756125 -0.110280
-0.133789 0.755642 -0.110324
-0.129823 0.755479 -0.110364
-0.125900 0.755498 -0.110400
-0.122081 0.756054 -0.110429
-0.118557 0.758250 -0.110444
-0.114787 0.759121 -0.110467
-0.110739 0.758375 -0.110500
-0.106749 0.757906 -0.110528
-0.102722 0.757144 -0.110557
-0.098876 0.757465 -0.110576
-0.094894 0.756877 -0.110599
-0.091172 0.757994 -0.110608
-0.087402 0.758815 -0.110618
-0.083511 0.758777 -0.110632
-0.079725 0.759500 -0.110638
-0.076148 0.761890 -0.110631
-0.072267 0.761949 -0.110639
-0.068314 0.761372 -0.110650
-0.064455 0.761550 -0.110654
-0.060516 0.760970 -0.110662
-0.056581 0.760343 -0.110668
-0.052721 0.760377 -0.110669
-0.048909 0.760892 -0.110664
-0.045083 0.761278 -0.110659
-0.041549 0.765087 -0.110628
-0.037579 0.763905 -0.110630
-0.033610 0.762560 -0.110633
-0.029692 0.761702 -0.110631
-0.025837 0.761643 -0.110621
-0.022065 0.762880 -0.110601
-0.018258 0.763664 -0.110583
-0.014450 0.764536 -0.110563
-0.010619 0.765042 -0.110543
-0.006762 0.765026 -0.110526
-0.002911 0.765115 -0.110507
0.000972 0.764240 -0.110494
0.004831 0.763860 -0.110475
0.008652 0.764766 -0.110446
0.012492 0.765152 -0.110419
0.016336 0.765351 -0.110392
0.020180 0.765660 -0.110362
0.024027 0.765815 -0.110332
0.027873 0.766718 -0.110295
0.031722 0.765890 -0.110270
0.035578 0.767041 -0.110227
0.039426 0.766771 -0.110194
0.043282 0.767145 -0.110155
0.047134 0.767129 -0.110116
0.050958 0.766087 -0.110084
0.054816 0.766465 -0.110039
0.058759 0.769168 -0.109974
0.062660 0.770163 -0.109921
0.066568 0.771092 -0.109866
0.070445 0.771206 -0.109815
0.074278 0.770455 -0.109769
0.078148 0.770455 -0.109716
0.082025 0.770535 -0.109659
0.085881 0.770283 -0.109603
0.089812 0.771074 -0.109537
0.093673 0.770836 -0.109476
0.097490 0.770057 -0.109418
0.101384 0.770244 -0.109350
0.105224 0.769777 -0.109284
0.109117 0.769883 -0.109211
0.112921 0.769061 -0.109144
0.116741 0.768436 -0.109072
0.120871 0.770682 -0.108972
0.124680 0.769880 -0.108897
0.128601 0.770059 -0.108810
0.132566 0.770548 -0.108717
0.136809 0.773146 -0.108601
0.140642 0.772427 -0.108513
0.144353 0.770823 -0.108430
0.148297 0.770936 -0.108328
0.152518 0.772896 -0.108204
0.156635 0.774002 -0.108085
0.160672 0.774494 -0.107968
0.164470 0.773422 -0.107863
0.168247 0.772240 -0.107757
0.172558 0.774221 -0.107613
0.176735 0.775287 -0.107475
0.180867 0.775995 -0.107336
0.184939 0.776300 -0.107198
0.188912 0.776014 -0.107062
0.192622 0.774340 -0.106938
0.196633 0.774209 -0.106792
0.200812 0.774860 -0.106632
0.204856 0.774785 -0.106477
0.208916 0.774736 -0.106317
0.213045 0.774950 -0.106149
0.217408 0.776156 -0.105963
0.221492 0.776030 -0.105789
0.225647 0.776157 -0.105608
0.230000 0.777057 -0.105411
0.233777 0.775487 -0.105242
0.237579 0.774027 -0.105066
0.242352 0.776412 -0.104834
0.248034 0.782183 -0.104547
0.251478 0.779140 -0.104379
0.255466 0.778191 -0.104176
0.259852 0.778678 -0.103948
0.264378 0.779593 -0.103708
0.268391 0.778599 -0.103491
0.272207 0.776893 -0.103281
0.276491 0.776793 -0.103042
0.281756 0.779930 -0.102745
0.286112 0.779903 -0.102494
0.289500 0.776676 -0.102292
0.294543 0.778786 -0.101996
0.299444 0.780327 -0.101704
0.303757 0.779946 -0.101442
0.309193 0.782943 -0.101116
0.316101 0.790199 -0.100705
0.321154 0.791719 -0.100394
0.324814 0.789108 -0.100159
0.331590 0.795433 -0.099750
0.335176 0.792558 -0.099517
0.338801 0.789843 -0.099282
0.346646 0.798701 -0.098812
0.351874 0.800236 -0.098489
0.352472 0.789424 -0.098428
0.356927 0.788990 -0.098153
0.363632 0.794363 -0.097755
0.368855 0.795817 -0.097444
0.371207 0.790035 -0.097301
0.376097 0.790699 -0.097020
0.382853 0.795927 -0.096642
0.388372 0.798064 -0.096341
0.390743 0.792684 -0.096227
0.395767 0.793720 -0.095974
0.401191 0.795709 -0.095709
0.404502 0.792863 -0.095575
0.407155 0.788657 -0.095490
0.411209 0.787763 -0.095340
0.415598 0.787708 -0.095187
0.420314 0.788462 -0.095030
0.426863 0.793258 -0.094790
0.433970 0.799248 -0.094537
0.434654 0.791600 -0.094651
0.439572 0.793102 -0.094552
0.443665 0.792975 -0.094516
0.438484 0.773888 -0.094987
-0.475671 0.717808 -0.102777
-0.475623 0.724273 -0.102630
-0.472436 0.725980 -0.102587
-0.468336 0.726348 -0.102588
-0.465690 0.729151 -0.102567
-0.463033 0.732069 -0.102563
-0.456154 0.728204 -0.102697
-0.451919 0.728715 -0.102773
-0.446819 0.727859 -0.102891
-0.442789 0.728857 -0.102994
-0.439049 0.730425 -0.103105
-0.435481 0.732372 -0.103224
-0.431392 0.733501 -0.103372
-0.427401 0.734866 -0.103530
-0.421859 0.733539 -0.103744
-0.415308 0.730398 -0.103996
-0.411974 0.733042 -0.104167
-0.408583 0.735651 -0.104348
-0.404898 0.737782 -0.104545
-0.399218 0.736218 -0.104804
-0.394078 0.735638 -0.105053
-0.390095 0.737251 -0.105275
-0.384713 0.736172 -0.105538
-0.380730 0.737789 -0.105766
-0.376276 0.738483 -0.106009
-0.371375 0.738265 -0.106264
-0.367137 0.739355 -0.106503
-0.362666 0.739955 -0.106747
-0.357723 0.739542 -0.107003
-0.354637 0.742994 -0.107211
-0.348790 0.740586 -0.107485
-0.343697 0.739702 -0.107738
-0.340669 0.743265 -0.107939
-0.335369 0.741829 -0.108191
-0.330799 0.741940 -0.108422
-0.325554 0.740465 -0.108664
-0.321614 0.741904 -0.108874
-0.317358 0.742586 -0.109086
-0.312461 0.741711 -0.109308
-0.308127 0.742107 -0.109514
-0.303090 0.740747 -0.109730
-0.298711 0.740915 -0.109927
-0.295132 0.743027 -0.110104
-0.291548 0.745126 -0.110276
-0.287693 0.746530 -0.110450
-0.282851 0.745349 -0.110638
-0.278203 0.744592 -0.110817
-0.273863 0.744580 -0.110986
-0.269657 0.744876 -0.111147
-0.265430 0.745067 -0.111305
-0.261450 0.745900 -0.111453
-0.257488 0.746756 -0.111596
-0.253390 0.747193 -0.111738
-0.249168 0.747226 -0.111877
-0.245139 0.747785 -0.112008
-0.241241 0.748703 -0.112133
-0.237115 0.748902 -0.112258
-0.233099 0.749398 -0.112376
-0.228913 0.749324 -0.112494
-0.225262 0.750919 -0.112598
-0.221460 0.752025 -0.112702
-0.216995 0.750923 -0.112811
-0.212817 0.750701 -0.112912
-0.209279 0.752630 -0.113000
-0.205398 0.753380 -0.113090
-0.201313 0.753387 -0.113179
-0.197351 0.753795 -0.113262
-0.192550 0.751084 -0.113355
-0.188609 0.751460 -0.113431
-0.185407 0.754636 -0.113494
-0.181039 0.753346 -0.113570
-0.176718 0.752153 -0.113642
-0.173125 0.753826 -0.113701
-0.169003 0.753334 -0.113765
-0.165141 0.753888 -0.113822
-0.161293 0.754485 -0.113876
-0.156788 0.752180 -0.113936
-0.152926 0.752625 -0.113985
-0.148972 0.752635 -0.114033
-0.145561 0.755164 -0.114070
-0.141598 0.755117 -0.114113
-0.137655 0.755131 -0.114153
-0.133782 0.755464 -0.114189
-0.129845 0.755450 -0.114225
-0.125868 0.755191 -0.114258
-0.121967 0.755301 -0.114289
-0.118443 0.757478 -0.114311
-0.114585 0.757835 -0.114337
-0.110021 0.754021 -0.114372
-0.106611 0.756944 -0.114386
-0.102823 0.757651 -0.114405
-0.098786 0.756771 -0.114426
-0.094870 0.756602 -0.114443
-0.090947 0.756347 -0.114458
-0.087248 0.757626 -0.114468
-0.083603 0.759360 -0.114475
-0.079987 0.761403 -0.114480
-0.076101 0.761445 -0.114488
-0.072232 0.761598 -0.114494
-0.068352 0.761643 -0.114499
-0.064436 0.761338 -0.114503
-0.060611 0.761815 -0.114504
-0.056544 0.759973 -0.114508
-0.052653 0.759694 -0.114508
-0.048834 0.760129 -0.114504
-0.045165 0.762228 -0.114495
-0.041490 0.764465 -0.114484
-0.037617 0.764468 -0.114477
-0.033646 0.763151 -0.114472
-0.029553 0.759907 -0.114471
-0.025817 0.761535 -0.114455
-0.022042 0.762738 -0.114440
-0.018251 0.763827 -0.114424
-0.014427 0.764422 -0.114407
-0.010575 0.764542 -0.114390
-0.006740 0.765011 -0.114371
-0.002934 0.766293 -0.114348
0.001023 0.763471 -0.114335
0.004869 0.763463 -0.114313
0.008713 0.763453 -0.114290
0.012551 0.763714 -0.114264
0.016349 0.766545 -0.114230
0.020202 0.766666 -0.114202
0.024057 0.766574 -0.114174
0.027909 0.767192 -0.114141
0.031764 0.767054 -0.114109
0.035608 0.765783 -0.114079
0.039458 0.765999 -0.114044
0.043309 0.766162 -0.114006
0.047201 0.768216 -0.113961
0.051039 0.767461 -0.113924
0.054894 0.767466 -0.113882
0.058799 0.768905 -0.113834
0.062707 0.770083 -0.113784
0.066593 0.770497 -0.113736
0.070497 0.771189 -0.113684
0.074336 0.770532 -0.113635
0.078123 0.769078 -0.113587
0.081951 0.768461 -0.113534
0.085826 0.768615 -0.113477
0.089833 0.770554 -0.113410
0.093722 0.770700 -0.113348
0.097562 0.770205 -0.113287
0.101435 0.770124 -0.113221
0.105334 0.770313 -0.113152
0.109213 0.770239 -0.113081
0.113152 0.770750 -0.113006
0.117109 0.771352 -0.112927
0.120896 0.770318 -0.112853
0.124714 0.769614 -0.112775
0.128487 0.768546 -0.112696
0.132771 0.771686 -0.112595
0.136650 0.771382 -0.112507
0.140862 0.773584 -0.112403
0.144775 0.773422 -0.112308
0.148524 0.772067 -0.112215
0.152479 0.772175 -0.112113
0.156601 0.773340 -0.112001
0.160615 0.773698 -0.111889
0.164565 0.773595 -0.111777
0.168455 0.773096 -0.111664
0.172653 0.774391 -0.111536
0.176790 0.775226 -0.111407
0.180940 0.776039 -0.111274
0.185056 0.776583 -0.111139
0.188861 0.775407 -0.111010
0.192674 0.774279 -0.110878
0.196724 0.774351 -0.110733
0.200956 0.775264 -0.110579
0.205248 0.776374 -0.110418
0.208883 0.774296 -0.110276
0.212926 0.774134 -0.110115
0.217588 0.776701 -0.109929
0.221690 0.776644 -0.109758
0.225807 0.776602 -0.109582
0.229761 0.775818 -0.109408
0.233658 0.774777 -0.109232
0.237789 0.774662 -0.109042
0.243664 0.781410 -0.108785
0.247332 0.779260 -0.108604
0.250836 0.776508 -0.108424
0.255477 0.778051 -0.108198
0.260211 0.779823 -0.107964
0.264314 0.779195 -0.107748
0.268356 0.778315 -0.107531
0.272233 0.776832 -0.107316
0.276442 0.776476 -0.107084
0.281600 0.779263 -0.106811
0.285513 0.777788 -0.106582
0.289997 0.778155 -0.106328
0.294331 0.777976 -0.106075
0.299442 0.780189 -0.105788
0.303830 0.780042 -0.105526
0.308056 0.779354 -0.105268
0.312502 0.779299 -0.104998
0.317123 0.779709 -0.104718
0.321593 0.779628 -0.104443
0.326520 0.780810 -0.104147
0.330868 0.780290 -0.103874
0.337218 0.785296 -0.103517
0.340356 0.781355 -0.103295
0.344713 0.780783 -0.103022
0.350141 0.783047 -0.102704
0.356265 0.787050 -0.102358
0.361219 0.787912 -0.102066
0.367718 0.792679 -0.101709
0.372283 0.792467 -0.101442
0.376380 0.791111 -0.101201
0.382096 0.793761 -0.100895
0.386042 0.792101 -0.100675
0.394025 0.800124 -0.100284
0.400098 0.803494 -0.099988
0.402508 0.798329 -0.099866
0.405709 0.795160 -0.099720
0.408333 0.790822 -0.099613
0.409893 0.784275 -0.099568
0.415566 0.787061 -0.099352
0.420702 0.788692 -0.099176
0.425026 0.788623 -0.099053
0.432847 0.796139 -0.098792
0.435190 0.791996 -0.098789
0.442083 0.797584 -0.098605
0.446811 0.798683 -0.098535
0.450822 0.798402 -0.098514
-0.481573 0.726299 -0.106688
-0.476326 0.724727 -0.106681
-0.472185 0.724967 -0.106671
-0.467949 0.725151 -0.106681
-0.463980 0.725852 -0.106705
-0.460859 0.728025 -0.106729
-0.456413 0.728148 -0.106798
-0.451788 0.728050 -0.106888
-0.447166 0.728024 -0.106994
-0.442687 0.728302 -0.107113
-0.439238 0.730394 -0.107226
-0.436062 0.733049 -0.107348
-0.432012 0.734285 -0.107501
-0.427346 0.734501 -0.107678
-0.422563 0.734545 -0.107869
-0.417419 0.733967 -0.108076
-0.412411 0.733641 -0.108290
-0.408787 0.735852 -0.108486
-0.404887 0.737607 -0.108694
-0.400794 0.739037 -0.108912
-0.394080 0.735523 -0.109182
-0.389726 0.736439 -0.109413
-0.385669 0.737934 -0.109643
-0.380538 0.737331 -0.109892
-0.376315 0.738490 -0.110129
-0.371479 0.738414 -0.110375
-0.367185 0.739398 -0.110614
-0.362835 0.740254 -0.110853
-0.358108 0.740302 -0.111096
-0.353311 0.740159 -0.111338
-0.348850 0.740680 -0.111573
-0.344540 0.741492 -0.111804
-0.339526 0.740731 -0.112040
-0.334877 0.740707 -0.112269
-0.329599 0.739215 -0.112501
-0.325688 0.740740 -0.112713
-0.321663 0.741985 -0.112923
-0.316873 0.741421 -0.113136
-0.312554 0.741897 -0.113341
-0.307859 0.741428 -0.113544
-0.303047 0.740605 -0.113743
-0.298918 0.741381 -0.113932
-0.295206 0.743165 -0.114113
-0.291669 0.745383 -0.114288
-0.287364 0.745633 -0.114465
-0.282984 0.745640 -0.114637
-0.278547 0.745438 -0.114804
-0.274167 0.745328 -0.114966
-0.269779 0.745136 -0.115123
-0.265417 0.744958 -0.115275
-0.261555 0.746118 -0.115421
-0.257623 0.747058 -0.115562
-0.253524 0.747494 -0.115699
-0.249318 0.747576 -0.115832
-0.245207 0.747892 -0.115961
-0.241015 0.747925 -0.116085
-0.237139 0.748874 -0.116204
-0.233384 0.750178 -0.116319
-0.228562 0.748105 -0.116430
-0.225052 0.750131 -0.116537
-0.221249 0.751219 -0.116640
-0.217462 0.752352 -0.116740
-0.213436 0.752671 -0.116835
-0.209676 0.753866 -0.116927
-0.204763 0.751032 -0.117013
-0.200949 0.751958 -0.117098
-0.197560 0.754416 -0.117180
-0.192735 0.751627 -0.117255
-0.188730 0.751772 -0.117329
-0.185275 0.753988 -0.117401
-0.181804 0.756184 -0.117471
-0.177336 0.754464 -0.117533
-0.173068 0.753446 -0.117592
-0.169570 0.755530 -0.117653
-0.164987 0.753087 -0.117705
-0.160331 0.750189 -0.117753
-0.156218 0.749520 -0.117801
-0.152445 0.750311 -0.117849
-0.149128 0.753202 -0.117897
-0.145127 0.752970 -0.117939
-0.141226 0.753175 -0.117978
-0.137327 0.753363 -0.118015
-0.133405 0.753413 -0.118050
-0.129843 0.755291 -0.118085
-0.126681 0.759346 -0.118123
-0.121959 0.755111 -0.118143
-0.117998 0.754855 -0.118168
-0.113853 0.753498 -0.118189
-0.110206 0.754971 -0.118214
-0.106945 0.758830 -0.118241
-0.102961 0.758386 -0.118259
-0.098867 0.757167 -0.118272
-0.094836 0.756262 -0.118285
-0.090721 0.754692 -0.118294
-0.086464 0.751984 -0.118299
-0.083283 0.756925 -0.118319
-0.079921 0.760815 -0.118335
-0.075280 0.754923 -0.118328
-0.072039 0.759959 -0.118344
-0.068214 0.760412 -0.118348
-0.064459 0.761490 -0.118352
-0.060436 0.760168 -0.118349
-0.056537 0.759882 -0.118347
-0.052660 0.759769 -0.118344
-0.048816 0.759952 -0.118340
-0.045131 0.761895 -0.118339
-0.041460 0.764176 -0.118337
-0.037613 0.764505 -0.118329
-0.033495 0.761269 -0.118312
-0.029536 0.759810 -0.118298
-0.025735 0.760494 -0.118288
-0.022058 0.763219 -0.118280
-0.018236 0.763838 -0.118266
-0.014388 0.764025 -0.118251
-0.010552 0.764466 -0.118234
-0.006693 0.764408 -0.118215
-0.002869 0.765223 -0.118197
0.000981 0.765424 -0.118176
0.004903 0.763207 -0.118149
0.008739 0.763551 -0.118125
0.012591 0.763240 -0.118100
0.016445 0.762509 -0.118072
0.020271 0.763583 -0.118045
0.024083 0.768128 -0.118024
0.027945 0.768049 -0.117993
0.031802 0.766838 -0.117958
0.035648 0.765602 -0.117922
0.039488 0.764955 -0.117886
0.043346 0.765773 -0.117851
0.047204 0.766207 -0.117813
0.051110 0.768379 -0.117776
0.054982 0.768771 -0.117735
0.058865 0.769377 -0.117692
0.062728 0.769309 -0.117647
0.066588 0.769189 -0.117600
0.070462 0.769377 -0.117551
0.074311 0.769043 -0.117500
0.078131 0.768234 -0.117447
0.081948 0.767502 -0.117392
0.085862 0.768281 -0.117336
0.089710 0.768025 -0.117278
0.093616 0.768529 -0.117218
0.097554 0.769350 -0.117156
0.101446 0.769519 -0.117091
0.105377 0.770081 -0.117024
0.109230 0.769733 -0.116954
0.113097 0.769539 -0.116882
0.117025 0.769919 -0.116808
0.120918 0.769913 -0.116731
0.124693 0.768838 -0.116651
0.128651 0.769358 -0.116569
0.132471 0.768690 -0.116484
0.136793 0.771963 -0.116396
0.140878 0.773179 -0.116304
0.144717 0.772488 -0.116211
0.148484 0.771297 -0.116114
0.152403 0.771177 -0.116014
0.156432 0.771759 -0.115910
0.160638 0.773398 -0.115802
0.164528 0.772933 -0.115692
0.168757 0.774501 -0.115577
0.172763 0.774629 -0.115459
0.176711 0.774378 -0.115338
0.180737 0.774524 -0.115213
0.184813 0.774888 -0.115084
0.188726 0.774332 -0.114952
0.192480 0.772928 -0.114818
0.196462 0.772697 -0.114679
0.200915 0.774738 -0.114529
0.205061 0.775163 -0.114379
0.209006 0.774573 -0.114227
0.212911 0.773770 -0.114071
0.216729 0.772562 -0.113913
0.221743 0.776606 -0.113733
0.225572 0.775330 -0.113565
0.229295 0.773603 -0.113395
0.233784 0.775052 -0.113209
0.237659 0.773902 -0.113028
0.242055 0.774805 -0.112833
0.246572 0.776087 -0.112632
0.251253 0.777886 -0.112422
0.255649 0.778491 -0.112213
0.259271 0.776176 -0.112014
0.264380 0.779246 -0.111780
0.267726 0.775904 -0.111578
0.272210 0.776580 -0.111349
0.277079 0.778486 -0.111106
0.281440 0.778561 -0.110869
0.286082 0.779504 -0.110622
0.290028 0.778101 -0.110386
0.294506 0.778382 -0.110134
0.298906 0.778355 -0.109881
0.303945 0.780246 -0.109607
0.308402 0.780256 -0.109344
0.312668 0.779644 -0.109084
0.316890 0.778873 -0.108822
0.321555 0.779363 -0.108546
0.326829 0.781532 -0.108251
0.331403 0.781630 -0.107974
0.335571 0.780561 -0.107707
0.340532 0.781657 -0.107417
0.344937 0.781195 -0.107144
0.349555 0.781290 -0.106866
0.354151 0.781304 -0.106589
0.358584 0.780886 -0.106321
0.363454 0.781587 -0.106042
0.368516 0.782746 -0.105762
0.373920 0.784730 -0.105475
0.377488 0.782191 -0.105253
0.381233 0.780168 -0.105034
0.385030 0.778348 -0.104821
0.392591 0.785454 -0.104493
0.396963 0.785030 -0.104281
0.401340 0.784679 -0.104079
0.405845 0.784690 -0.103886
0.410528 0.785165 -0.103700
0.416849 0.789328 -0.103473
0.421157 0.789080 -0.103329
0.425177 0.788302 -0.103210
0.430445 0.790308 -0.103066
0.434064 0.788883 -0.102995
0.436651 0.785434 -0.102975
0.441155 0.786141 -0.102909
0.443814 0.783159 -0.102923
-0.483105 0.728006 -0.110747
-0.476529 0.724407 -0.110752
-0.472050 0.724150 -0.110752
-0.468292 0.725126 -0.110762
-0.464443 0.726058 -0.110792
-0.460408 0.726789 -0.110842
-0.456669 0.728093 -0.110906
-0.451887 0.727772 -0.110999
-0.447225 0.727714 -0.111107
-0.442665 0.727886 -0.111230
-0.439690 0.730814 -0.111349
-0.436724 0.733866 -0.111483
-0.431401 0.732929 -0.111655
-0.427309 0.734170 -0.111826
-0.422786 0.734699 -0.112012
-0.417395 0.733706 -0.112217
-0.413188 0.734851 -0.112418
-0.408497 0.735144 -0.112632
-0.404080 0.735953 -0.112849
-0.400623 0.738574 -0.113065
-0.393050 0.733444 -0.113317
-0.389905 0.736669 -0.113539
-0.385310 0.737137 -0.113774
-0.380784 0.737725 -0.114010
-0.376279 0.738339 -0.114248
-0.371752 0.738891 -0.114486
-0.366866 0.738685 -0.114725
-0.362308 0.739110 -0.114962
-0.357480 0.738940 -0.115198
-0.353203 0.739880 -0.115430
-0.349057 0.741076 -0.115660
-0.344627 0.741636 -0.115888
-0.339408 0.740429 -0.116113
-0.334527 0.739887 -0.116333
-0.329717 0.739436 -0.116550
-0.325451 0.740156 -0.116762
-0.320775 0.739892 -0.116969
-0.317275 0.742311 -0.117174
-0.312296 0.741237 -0.117372
-0.307812 0.741262 -0.117566
-0.303317 0.741205 -0.117754
-0.299129 0.741843 -0.117939
-0.295477 0.743781 -0.118122
-0.290944 0.743483 -0.118296
-0.286805 0.744129 -0.118467
-0.282935 0.745440 -0.118635
-0.278865 0.746202 -0.118797
-0.274470 0.746059 -0.118952
-0.269618 0.744618 -0.119097
-0.265246 0.744399 -0.119242
-0.261744 0.746554 -0.119390
-0.257854 0.747617 -0.119530
-0.253618 0.747664 -0.119661
-0.249788 0.748845 -0.119793
-0.245047 0.747308 -0.119909
-0.241106 0.748086 -0.120031
-0.237073 0.748554 -0.120147
-0.232776 0.748166 -0.120255
-0.228845 0.748875 -0.120364
-0.224805 0.749211 -0.120467
-0.220932 0.750055 -0.120568
-0.217118 0.751075 -0.120667
-0.213703 0.753432 -0.120770
-0.209537 0.753248 -0.120855
-0.204576 0.750235 -0.120922
-0.200824 0.751369 -0.121007
-0.197027 0.752337 -0.121088
-0.192834 0.751844 -0.121158
-0.188960 0.752482 -0.121231
-0.185381 0.754235 -0.121307
-0.181495 0.754819 -0.121374
-0.177701 0.755753 -0.121439
-0.173592 0.755408 -0.121494
-0.170160 0.757808 -0.121563
-0.166777 0.760473 -0.121631
-0.164467 0.767837 -0.121725
-0.161386 0.772086 -0.121799
-0.156920 0.770257 -0.121831
-0.152288 0.767552 -0.121856
-0.148715 0.769660 -0.121908
-0.144746 0.769925 -0.121946
-0.140530 0.768959 -0.121974
-0.136312 0.767899 -0.121999
-0.132220 0.767404 -0.122026
-0.128127 0.766843 -0.122049
-0.124910 0.770978 -0.122102
-0.120587 0.769134 -0.122113
-0.116136 0.766426 -0.122117
-0.111760 0.763969 -0.122120
-0.108714 0.769403 -0.122174
-0.104898 0.770322 -0.122196
-0.101626 0.774756 -0.122240
-0.097450 0.773448 -0.122243
-0.092817 0.768903 -0.122223
-0.089390 0.772546 -0.122257
-0.084929 0.768844 -0.122239
-0.081594 0.773377 -0.122275
-0.077840 0.774922 -0.122290
-0.072776 0.765886 -0.122231
-0.068257 0.760711 -0.122197
-0.064314 0.760157 -0.122193
-0.060680 0.762375 -0.122206
-0.056521 0.759708 -0.122185
-0.052692 0.760082 -0.122183
-0.049606 0.768307 -0.122233
-0.045999 0.771565 -0.122248
-0.042388 0.775110 -0.122264
-0.038290 0.772973 -0.122240
-0.034648 0.776556 -0.122253
-0.030635 0.775364 -0.122233
-0.026848 0.777366 -0.122232
-0.022912 0.777218 -0.122216
-0.019039 0.778104 -0.122206
-0.014970 0.775404 -0.122171
-0.011113 0.776534 -0.122160
-0.007067 0.773523 -0.122120
-0.003112 0.772071 -0.122089
0.000793 0.771663 -0.122064
0.004718 0.770396 -0.122032
0.008587 0.770844 -0.122010
0.012490 0.769714 -0.121977
0.016311 0.773123 -0.121971
0.020219 0.771364 -0.121931
0.024073 0.775393 -0.121927
0.027973 0.773573 -0.121884
0.031856 0.771871 -0.121840
0.035745 0.773156 -0.121814
0.039567 0.767927 -0.121745
0.043462 0.769996 -0.121721
0.047296 0.768353 -0.121672
0.051128 0.767219 -0.121625
0.055021 0.768432 -0.121591
0.058950 0.770325 -0.121559
0.062754 0.768632 -0.121504
0.066633 0.768982 -0.121459
0.070490 0.768815 -0.121410
0.074351 0.768719 -0.121359
0.078206 0.768528 -0.121306
0.082125 0.769370 -0.121257
0.085906 0.768029 -0.121194
0.089741 0.767585 -0.121134
0.093664 0.768331 -0.121078
0.097602 0.769143 -0.121021
0.101549 0.769957 -0.120961
0.105255 0.768005 -0.120885
0.109169 0.768398 -0.120819
0.113085 0.768747 -0.120750
0.116906 0.768124 -0.120674
0.120690 0.767189 -0.120594
0.124768 0.768877 -0.120524
0.128771 0.769777 -0.120447
0.132686 0.769859 -0.120364
0.136453 0.768743 -0.120273
0.140719 0.771438 -0.120196
0.144634 0.771354 -0.120104
0.148237 0.769042 -0.119999
0.152308 0.770034 -0.119905
0.156408 0.771114 -0.119808
0.159728 0.767093 -0.119689
0.163963 0.768958 -0.119589
0.168635 0.773319 -0.119493
0.172840 0.774648 -0.119383
0.176849 0.774748 -0.119265
0.180722 0.774032 -0.119140
0.184667 0.773706 -0.119014
0.188714 0.773883 -0.118885
0.192453 0.772418 -0.118748
0.196110 0.770565 -0.118606
0.200924 0.774433 -0.118474
0.205432 0.776603 -0.118333
0.209251 0.775393 -0.118180
0.212914 0.773472 -0.118023
0.217003 0.773489 -0.117864
0.221299 0.774359 -0.117703
0.224997 0.772572 -0.117533
0.229324 0.773450 -0.117362
0.232969 0.771425 -0.117184
0.238283 0.776167 -0.117006
0.242646 0.776900 -0.116819
0.246349 0.774983 -0.116628
0.251028 0.776797 -0.116431
0.254449 0.773784 -0.116231
0.258848 0.774409 -0.116025
0.262743 0.773138 -0.115816
0.267138 0.773623 -0.115600
0.272008 0.775681 -0.115377
0.276951 0.777860 -0.115148
0.281151 0.777406 -0.114919
0.285586 0.777690 -0.114683
0.290154 0.778335 -0.114441
0.294472 0.778100 -0.114197
0.298932 0.778268 -0.113948
0.303818 0.779686 -0.113690
0.308429 0.780172 -0.113431
0.312700 0.779572 -0.113173
0.316516 0.777603 -0.112918
0.321570 0.779233 -0.112644
0.327171 0.782334 -0.112360
0.331351 0.781302 -0.112093
0.335851 0.781151 -0.111821
0.340353 0.780973 -0.111548
0.345044 0.781280 -0.111272
0.349495 0.780913 -0.111000
0.354101 0.780947 -0.110727
0.358742 0.781051 -0.110456
0.363626 0.781764 -0.110183
0.368317 0.781969 -0.109917
0.372987 0.782122 -0.109657
0.377855 0.782766 -0.109398
0.381501 0.780470 -0.109171
0.387354 0.783505 -0.108906
0.392475 0.784781 -0.108665
0.397263 0.785296 -0.108440
0.402137 0.786045 -0.108224
0.407643 0.788265 -0.108006
0.411424 0.786641 -0.107840
0.416173 0.787269 -0.107666
0.421309 0.788808 -0.107498
0.425855 0.789128 -0.107359
0.430227 0.789163 -0.107241
0.434712 0.789537 -0.107137
0.438639 0.788842 -0.107063
0.442002 0.787104 -0.107021
0.444269 0.783267 -0.107022
-0.483222 0.727525 -0.114838
-0.476668 0.723997 -0.114829
-0.472896 0.724889 -0.114830
-0.469581 0.726613 -0.114848
-0.465400 0.727064 -0.114888
-0.461846 0.728619 -0.114943
-0.458098 0.729962 -0.115017
-0.451959 0.727456 -0.115114
-0.447179 0.727232 -0.115224
-0.443655 0.729179 -0.115345
-0.439715 0.730509 -0.115482
-0.434957 0.730510 -0.115635
-0.431324 0.732503 -0.115798
-0.426941 0.733255 -0.115974
-0.421819 0.732741 -0.116161
-0.418227 0.734975 -0.116356
-0.412559 0.733511 -0.116561
-0.408164 0.734353 -0.116772
-0.404093 0.735812 -0.116989
-0.399553 0.736421 -0.117212
-0.395161 0.737311 -0.117438
-0.390255 0.737219 -0.117667
-0.385322 0.737050 -0.117898
-0.381085 0.738215 -0.118132
-0.376722 0.739128 -0.118367
-0.371206 0.737710 -0.118596
-0.366629 0.738127 -0.118829
-0.362152 0.738718 -0.119061
-0.357421 0.738749 -0.119290
-0.353093 0.739584 -0.119518
-0.348977 0.740843 -0.119747
-0.343300 0.738705 -0.119958
-0.339151 0.739806 -0.120179
-0.334923 0.740706 -0.120396
-0.330624 0.741415 -0.120608
-0.325015 0.739103 -0.120800
-0.321687 0.741933 -0.121016
-0.316617 0.740712 -0.121204
-0.312124 0.740766 -0.121396
-0.307759 0.741069 -0.121583
-0.303172 0.740782 -0.121763
-0.299192 0.741926 -0.121947
-0.294813 0.742045 -0.122120
-0.290268 0.741692 -0.122284
-0.286020 0.742034 -0.122448
-0.282707 0.744759 -0.122626
-0.278824 0.746003 -0.122788
-0.274265 0.745415 -0.122932
-0.269085 0.743070 -0.123057
-0.265205 0.744183 -0.123204
-0.261642 0.746163 -0.123355
-0.258182 0.748437 -0.123504
-0.254126 0.749012 -0.123634
-0.249008 0.746448 -0.123733
-0.246000 0.750014 -0.123881
-0.240893 0.747318 -0.123969
-0.236855 0.747758 -0.124081
-0.232942 0.748551 -0.124193
-0.228909 0.748942 -0.124297
-0.224791 0.749025 -0.124394
-0.220747 0.749307 -0.124489
-0.216401 0.748550 -0.124570
-0.213070 0.751147 -0.124681
-0.208993 0.751228 -0.124763
-0.204737 0.750641 -0.124835
-0.200971 0.751734 -0.124921
-0.197201 0.752807 -0.125003
-0.192978 0.752209 -0.125065
-0.189058 0.752685 -0.125135
-0.185178 0.753293 -0.125203
-0.181362 0.754130 -0.125271
-0.177406 0.754409 -0.125330
-0.173830 0.756200 -0.125402
-0.170125 0.757487 -0.125466
-0.167702 0.764201 -0.125587
-0.165044 0.770142 -0.125697
-0.162163 0.775321 -0.125797
-0.157049 0.770658 -0.125787
-0.152942 0.770374 -0.125822
-0.148901 0.770353 -0.125857
-0.144732 0.769681 -0.125883
-0.140318 0.767740 -0.125893
-0.135777 0.765030 -0.125891
-0.131299 0.762474 -0.125889
-0.127632 0.764051 -0.125931
-0.123385 0.762526 -0.125936
-0.119297 0.761776 -0.125948
-0.114771 0.758446 -0.125929
-0.110692 0.757530 -0.125935
-0.107713 0.763187 -0.126015
-0.104947 0.770477 -0.126111
-0.101163 0.771639 -0.126136
-0.096363 0.766113 -0.126083
-0.092214 0.764646 -0.126074
-0.088892 0.768901 -0.126129
-0.085375 0.771991 -0.126170
-0.081398 0.771786 -0.126171
-0.077632 0.773197 -0.126190
-0.072640 0.764690 -0.126093
-0.068391 0.761774 -0.126059
-0.064511 0.761838 -0.126057
-0.060445 0.760167 -0.126035
-0.056842 0.762765 -0.126060
-0.052800 0.761153 -0.126035
-0.049494 0.767129 -0.126097
-0.046058 0.772245 -0.126147
-0.042054 0.771241 -0.126125
-0.038003 0.769492 -0.126094
-0.034044 0.768721 -0.126073
-0.030129 0.768412 -0.126056
-0.026652 0.774607 -0.126112
-0.022889 0.777076 -0.126124
-0.018999 0.777691 -0.126114
-0.014756 0.771676 -0.126027
-0.010837 0.771217 -0.126002
-0.007040 0.773397 -0.126006
-0.003123 0.772989 -0.125980
0.000759 0.773413 -0.125961
0.004574 0.776207 -0.125968
0.008503 0.775379 -0.125933
0.012396 0.775892 -0.125912
0.016289 0.776690 -0.125893
0.020210 0.775408 -0.125849
0.024127 0.772732 -0.125789
0.028014 0.772288 -0.125752
0.031903 0.773925 -0.125737
0.035756 0.768857 -0.125647
0.039671 0.772891 -0.125655
0.043560 0.773145 -0.125620
0.047429 0.772363 -0.125573
0.051188 0.767646 -0.125482
0.055111 0.769680 -0.125462
0.058964 0.769219 -0.125414
0.062859 0.769908 -0.125376
0.066703 0.769303 -0.125324
0.070576 0.769407 -0.125277
0.075006 0.779826 -0.125335
0.078936 0.780021 -0.125285
0.082856 0.780014 -0.125231
0.087049 0.784021 -0.125216
0.090825 0.781723 -0.125134
0.094576 0.779352 -0.125051
0.098635 0.781011 -0.125006
0.102579 0.781138 -0.124943
0.106626 0.782360 -0.124889
0.110854 0.785336 -0.124849
0.114571 0.782893 -0.124755
0.118241 0.780194 -0.124656
0.121836 0.777017 -0.124551
0.125584 0.775400 -0.124458
0.130116 0.780497 -0.124425
0.133865 0.778816 -0.124327
0.137969 0.780002 -0.124252
0.142390 0.783468 -0.124195
0.145851 0.779665 -0.124070
0.151004 0.787986 -0.124049
0.154871 0.786980 -0.123942
0.158250 0.782775 -0.123806
0.161784 0.779770 -0.123677
0.167113 0.788065 -0.123639
0.168806 0.773885 -0.123413
0.172611 0.772850 -0.123292
0.176998 0.775158 -0.123195
0.180948 0.774861 -0.123073
0.184664 0.773273 -0.122938
0.188990 0.774939 -0.122824
0.194576 0.782964 -0.122752
0.199562 0.787544 -0.122649
0.203073 0.784614 -0.122488
0.206539 0.781552 -0.122323
0.210298 0.779951 -0.122165
0.214733 0.781472 -0.122023
0.217489 0.775339 -0.121829
0.221660 0.775627 -0.121671
0.225486 0.774367 -0.121500
0.229283 0.772981 -0.121324
0.233210 0.772133 -0.121147
0.238644 0.777346 -0.120998
0.242923 0.777727 -0.120817
0.245710 0.772238 -0.120603
0.249778 0.771783 -0.120410
0.254002 0.771868 -0.120215
0.258184 0.771738 -0.120015
0.262616 0.772451 -0.119812
0.266720 0.771919 -0.119600
0.271199 0.772655 -0.119388
0.276846 0.777288 -0.119183
0.280322 0.774421 -0.118950
0.285545 0.777353 -0.118728
0.290020 0.777701 -0.118494
0.294574 0.778233 -0.118256
0.299093 0.778583 -0.118013
0.303670 0.779042 -0.117766
0.307999 0.778679 -0.117514
0.311904 0.777007 -0.117257
0.316160 0.776368 -0.116999
0.321967 0.780196 -0.116739
0.325818 0.778281 -0.116475
0.330704 0.779287 -0.116209
0.334875 0.778244 -0.115941
0.339817 0.779300 -0.115671
0.344372 0.779253 -0.115402
0.348916 0.779153 -0.115133
0.354220 0.781016 -0.114860
0.359162 0.781880 -0.114591
0.363962 0.782347 -0.114325
0.367990 0.780865 -0.114067
0.372940 0.781703 -0.113807
0.377581 0.781772 -0.113555
0.382314 0.782079 -0.113309
0.386379 0.780815 -0.113076
0.392428 0.784269 -0.112832
0.397715 0.785914 -0.112604
0.402491 0.786395 -0.112392
0.407717 0.787939 -0.112186
0.411994 0.787390 -0.112004
0.415124 0.784391 -0.111849
0.421047 0.787640 -0.111676
0.426346 0.789555 -0.111525
0.430266 0.788576 -0.111408
0.435155 0.789765 -0.111295
0.439593 0.790092 -0.111206
0.443304 0.789019 -0.111144
0.448320 0.790753 -0.111084
-0.480316 0.722371 -0.118919
-0.477616 0.724861 -0.118915
-0.473636 0.725469 -0.118924
-0.470277 0.727164 -0.118955
-0.466926 0.728988 -0.119004
-0.462201 0.728700 -0.119065
-0.458741 0.730550 -0.119149
-0.453080 0.728876 -0.119238
-0.447760 0.727799 -0.119345
-0.443781 0.729017 -0.119474
-0.440987 0.732328 -0.119625
-0.435669 0.731414 -0.119774
-0.431727 0.732909 -0.119944
-0.425823 0.731025 -0.120110
-0.422228 0.733219 -0.120304
-0.417139 0.732800 -0.120494
-0.412599 0.733378 -0.120697
-0.408057 0.733968 -0.120907
-0.403981 0.735433 -0.121127
-0.399766 0.736664 -0.121351
-0.395180 0.737204 -0.121575
-0.390787 0.738108 -0.121804
-0.386355 0.738934 -0.122034
-0.380915 0.737772 -0.122252
-0.376312 0.738212 -0.122481
-0.370835 0.736869 -0.122697
-0.366004 0.736766 -0.122920
-0.361505 0.737302 -0.123146
-0.357081 0.737959 -0.123372
-0.352948 0.739200 -0.123601
-0.348510 0.739769 -0.123822
-0.343861 0.739844 -0.124034
-0.339195 0.739829 -0.124243
-0.335151 0.741139 -0.124461
-0.330352 0.740729 -0.124657
-0.326046 0.741375 -0.124861
-0.321482 0.741385 -0.125053
-0.316717 0.740868 -0.125236
-0.312787 0.742252 -0.125434
-0.307328 0.739951 -0.125587
-0.303264 0.740920 -0.125772
-0.299098 0.741604 -0.125949
-0.295128 0.742740 -0.126127
-0.289953 0.740800 -0.126263
-0.286059 0.742033 -0.126433
-0.282045 0.742934 -0.126595
-0.278167 0.744161 -0.126756
-0.273523 0.743319 -0.126886
-0.269632 0.744442 -0.127037
-0.265407 0.744622 -0.127172
-0.261575 0.745853 -0.127316
-0.258050 0.747937 -0.127467
-0.254293 0.749362 -0.127606
-0.249844 0.748758 -0.127713
-0.244815 0.746361 -0.127790
-0.240950 0.747350 -0.127911
-0.236900 0.747751 -0.128019
-0.232952 0.748433 -0.128127
-0.228872 0.748674 -0.128225
-0.224841 0.749031 -0.128321
-0.220852 0.749492 -0.128415
-0.216628 0.749141 -0.128494
-0.212841 0.750208 -0.128589
-0.208732 0.750164 -0.128665
-0.204590 0.749957 -0.128736
-0.201000 0.751662 -0.128831
-0.197254 0.752822 -0.128915
-0.193305 0.753237 -0.128985
-0.188949 0.752099 -0.129029
-0.185178 0.753113 -0.129102
-0.181352 0.753912 -0.129169
-0.177514 0.754656 -0.129232
-0.173403 0.754283 -0.129276
-0.170044 0.756967 -0.129364
-0.167622 0.763675 -0.129513
-0.165156 0.770436 -0.129661
-0.161182 0.770817 -0.129706
-0.158278 0.775989 -0.129825
-0.153299 0.771822 -0.129794
-0.148568 0.768601 -0.129775
-0.144058 0.766258 -0.129768
-0.139467 0.763368 -0.129750
-0.134523 0.758531 -0.129699
-0.130053 0.755862 -0.129680
-0.126319 0.756926 -0.129718
-0.122792 0.759131 -0.129773
-0.118887 0.759321 -0.129794
-0.114366 0.755959 -0.129756
-0.110416 0.755739 -0.129767
-0.107354 0.760852 -0.129861
-0.103859 0.763535 -0.129915
-0.099893 0.763330 -0.129921
-0.095629 0.761106 -0.129893
-0.091610 0.760383 -0.129887
-0.088320 0.764730 -0.129962
-0.085010 0.769197 -0.130037
-0.081279 0.770773 -0.130064
-0.076744 0.766118 -0.129989
-0.072662 0.764770 -0.129966
-0.068452 0.762203 -0.129922
-0.064412 0.760891 -0.129897
-0.060643 0.761929 -0.129909
-0.056666 0.761033 -0.129888
-0.052747 0.760596 -0.129874
-0.050042 0.772916 -0.130063
-0.045808 0.769492 -0.129998
