ply
format ascii 1.0
comment ---
element vertex 1708
property float x
property float y
property float z
element face 0
property list uchar uint vertex_indices
end_header
1.147564 0.832915 -0.132486
1.154222 0.831507 -0.133197
1.164675 0.833951 -0.134599
1.171368 0.832420 -0.135316
1.178024 0.830791 -0.136028
1.183973 0.828396 -0.136615
1.197875 0.833847 -0.138631
1.206167 0.833592 -0.139636
1.217924 0.836622 -0.141258
1.226934 0.836856 -0.142387
1.229159 0.830514 -0.142311
1.244019 0.836155 -0.144474
1.250283 0.833545 -0.145113
1.261275 0.835283 -0.146583
1.270820 0.835571 -0.147794
1.285746 0.840666 -0.149942
1.292145 0.837892 -0.150592
1.303421 0.839444 -0.152089
1.310070 0.836796 -0.152775
1.324637 0.841058 -0.154828
1.333145 0.839911 -0.155823
1.344186 0.840894 -0.157247
1.358409 0.844503 -0.159206
1.372337 0.847737 -0.161101
1.379368 0.845099 -0.161803
1.393707 0.848507 -0.163740
1.407218 0.851133 -0.165519
1.411657 0.846316 -0.165744
1.418594 0.843570 -0.166380
1.434667 0.848132 -0.168541
1.442776 0.846314 -0.169341
1.454294 0.847193 -0.170695
1.466937 0.848930 -0.172216
1.478461 0.849790 -0.173527
1.488588 0.849590 -0.174584
1.499518 0.850027 -0.175751
1.508852 0.849296 -0.176631
1.516106 0.847074 -0.177148
1.532551 0.851697 -0.179146
0.228727 0.765289 -0.056993
0.231772 0.766455 -0.057396
0.234888 0.767568 -0.057784
0.238018 0.769287 -0.058220
0.241213 0.771059 -0.058650
0.244578 0.771522 -0.058943
0.248034 0.771504 -0.059178
0.251531 0.771601 -0.059414
0.255002 0.772839 -0.059751
0.258526 0.774132 -0.060084
0.262147 0.774627 -0.060329
0.265838 0.774612 -0.060516
0.269559 0.774710 -0.060705
0.273354 0.773875 -0.060794
0.277092 0.775127 -0.061083
0.280932 0.774478 -0.061176
0.284801 0.773470 -0.061228
0.288616 0.775230 -0.061551
0.292487 0.775887 -0.061760
0.296359 0.777993 -0.062111
0.300283 0.778336 -0.062282
0.304231 0.776730 -0.062254
0.308174 0.777860 -0.062500
0.312129 0.777689 -0.062613
0.316095 0.778164 -0.062791
0.320063 0.778141 -0.062919
0.324057 0.779373 -0.063174
0.328071 0.780811 -0.063450
0.332043 0.780292 -0.063529
0.336031 0.780365 -0.063670
0.340008 0.780168 -0.063784
0.344002 0.780432 -0.063947
0.348001 0.780771 -0.064121
0.352004 0.781176 -0.064303
0.355957 0.780694 -0.064398
0.359961 0.781131 -0.064589
0.363970 0.781627 -0.064790
0.367946 0.781649 -0.064945
0.371858 0.780857 -0.065019
0.375744 0.779883 -0.065077
0.379777 0.780738 -0.065329
0.383745 0.780834 -0.065506
0.387845 0.782312 -0.065830
0.392037 0.784591 -0.066243
0.395774 0.782359 -0.066187
0.399628 0.781395 -0.066267
0.403497 0.780651 -0.066374
0.407441 0.780603 -0.066557
0.411757 0.783557 -0.067063
0.416038 0.786020 -0.067521
0.420014 0.786027 -0.067723
0.424344 0.788588 -0.068202
0.428648 0.790791 -0.068647
0.432743 0.791432 -0.068930
0.436513 0.789889 -0.068982
0.440642 0.790713 -0.069293
0.444724 0.791175 -0.069568
0.448805 0.791589 -0.069843
0.453460 0.795300 -0.070479
0.457069 0.792871 -0.070453
0.459824 0.785842 -0.069928
0.464023 0.786903 -0.070287
0.468056 0.787011 -0.070546
0.472023 0.786753 -0.070769
0.476422 0.788631 -0.071229
0.481232 0.792387 -0.071903
0.485659 0.794121 -0.072358
0.490330 0.796878 -0.072931
0.494908 0.799056 -0.073445
0.499644 0.801811 -0.074028
0.503884 0.802256 -0.074358
0.508411 0.803870 -0.074823
0.512678 0.804292 -0.075158
0.515222 0.797617 -0.074693
0.519007 0.796138 -0.074818
0.524396 0.800988 -0.075664
0.526332 0.792292 -0.074971
0.531560 0.796344 -0.075734
0.536761 0.800110 -0.076471
0.541870 0.803361 -0.077154
0.542905 0.791856 -0.076138
0.550427 0.803547 -0.077805
0.554727 0.803650 -0.078137
0.561454 0.811959 -0.079429
0.568630 0.821447 -0.080868
0.571217 0.815490 -0.080504
0.574010 0.810348 -0.080234
0.576064 0.802981 -0.079700
0.577682 0.794440 -0.079023
0.581568 0.793110 -0.079202
0.586112 0.793778 -0.079621
0.590219 0.793074 -0.079878
0.594121 0.791747 -0.080064
0.601315 0.799952 -0.081401
0.606710 0.802735 -0.082091
0.610759 0.801609 -0.082311
0.611757 0.792017 -0.081501
0.617477 0.795554 -0.082292
0.621242 0.793682 -0.082425
0.622974 0.786423 -0.081895
0.634043 0.803761 -0.084403
0.638484 0.803470 -0.084742
0.645076 0.808617 -0.085760
0.650962 0.811808 -0.086542
0.656510 0.814032 -0.087207
0.661402 0.814550 -0.087663
0.660927 0.802055 -0.086478
0.666006 0.803072 -0.086998
0.670258 0.802073 -0.087265
0.673861 0.799548 -0.087339
0.676144 0.794020 -0.087029
0.683938 0.801054 -0.088333
0.685753 0.794510 -0.087893
0.695588 0.805783 -0.089759
0.696562 0.797422 -0.089084
0.702481 0.799867 -0.089816
0.707473 0.800238 -0.090281
0.712639 0.800921 -0.090791
0.718160 0.802281 -0.091394
0.727220 0.810828 -0.092954
0.728833 0.804025 -0.092483
0.731772 0.799995 -0.092380
0.736912 0.800375 -0.092867
0.743549 0.803636 -0.093745
0.752858 0.811949 -0.095313
0.759672 0.815255 -0.096215
0.766912 0.819246 -0.097216
0.767086 0.809878 -0.096399
0.772947 0.811198 -0.097043
0.777987 0.810940 -0.097475
0.782794 0.810221 -0.097846
0.782722 0.800734 -0.097003
0.790934 0.806082 -0.098222
0.803532 0.818954 -0.100506
0.808754 0.818717 -0.100965
0.813195 0.817101 -0.101233
0.817910 0.815934 -0.101568
0.820772 0.811633 -0.101460
0.824448 0.808728 -0.101551
0.829493 0.808086 -0.101968
0.834815 0.807861 -0.102450
0.845815 0.816735 -0.104253
0.850037 0.814577 -0.104469
0.855566 0.814475 -0.104988
0.860860 0.813956 -0.105451
0.866499 0.813933 -0.105992
0.872420 0.814291 -0.106596
0.878222 0.814411 -0.107170
0.884271 0.814847 -0.107798
0.888960 0.813202 -0.108121
0.900870 0.822153 -0.110042
0.903734 0.817708 -0.109958
0.911626 0.820543 -0.110979
0.914463 0.816053 -0.110895
0.920147 0.815619 -0.111432
0.934988 0.827950 -0.113942
0.941364 0.828258 -0.114617
0.940784 0.818955 -0.113808
0.945701 0.817244 -0.114178
0.953033 0.818757 -0.115060
0.960060 0.819776 -0.115875
0.967375 0.821094 -0.116747
0.975269 0.823084 -0.117737
0.981195 0.822424 -0.118316
0.986723 0.821204 -0.118813
0.993852 0.821978 -0.119640
0.999606 0.820940 -0.120185
1.009081 0.824496 -0.121487
1.016741 0.825676 -0.122416
1.022759 0.824758 -0.123012
1.031316 0.826863 -0.124119
1.037611 0.826145 -0.124771
1.044141 0.825648 -0.125470
1.051271 0.825795 -0.126288
1.057929 0.825315 -0.127013
1.066829 0.827360 -0.128180
1.076041 0.829648 -0.129405
1.085649 0.832265 -0.130704
1.091848 0.830925 -0.131337
1.098547 0.830089 -0.132068
1.105421 0.829381 -0.132835
1.115703 0.832323 -0.134257
1.123132 0.832043 -0.135129
1.130180 0.831277 -0.135929
1.137576 0.830810 -0.136796
1.147944 0.833388 -0.138226
1.154916 0.832297 -0.139012
1.163649 0.832954 -0.140130
1.168957 0.830012 -0.140604
1.179442 0.832274 -0.142050
1.186438 0.830908 -0.142841
1.200805 0.836793 -0.145004
1.209147 0.836553 -0.146042
1.216329 0.835098 -0.146864
1.225063 0.835076 -0.147972
1.235290 0.836390 -0.149353
1.245034 0.837132 -0.150641
1.251129 0.834354 -0.151259
1.260106 0.834214 -0.152401
1.274294 0.838779 -0.154487
1.282980 0.838164 -0.155566
1.292629 0.838346 -0.156815
1.303013 0.839101 -0.158191
1.313339 0.839712 -0.159548
1.323847 0.840396 -0.160931
1.334410 0.841045 -0.162314
1.346727 0.843123 -0.164000
1.357582 0.843856 -0.165414
1.372519 0.847959 -0.167538
1.379126 0.844980 -0.168175
1.385907 0.842156 -0.168832
1.402926 0.847733 -0.171276
1.417275 0.851010 -0.173231
1.425398 0.849196 -0.174077
1.434184 0.847925 -0.175024
1.444360 0.847767 -0.176194
1.452495 0.846014 -0.176992
1.465468 0.848049 -0.178606
1.477362 0.849232 -0.180010
1.488086 0.849524 -0.181189
1.500839 0.851371 -0.182690
1.508898 0.849708 -0.183367
1.514683 0.846428 -0.183635
1.517617 0.841151 -0.183402
0.228790 0.764334 -0.060480
0.231640 0.767357 -0.061086
0.234835 0.767450 -0.061386
0.237920 0.769501 -0.061873
0.241093 0.771367 -0.062331
0.244422 0.772110 -0.062664
0.247887 0.771792 -0.062877
0.251372 0.771866 -0.063120
0.254885 0.772266 -0.063385
0.258387 0.773647 -0.063741
0.261931 0.775235 -0.064109
0.265578 0.775896 -0.064372
0.269392 0.773903 -0.064352
0.273155 0.773480 -0.064486
0.276958 0.772731 -0.064578
0.280768 0.772399 -0.064706
0.284537 0.774220 -0.065054
0.288355 0.775658 -0.065356
0.292219 0.776465 -0.065589
0.296114 0.776810 -0.065768
0.300069 0.772860 -0.065493
0.303962 0.776231 -0.065985
0.307899 0.776827 -0.066183
0.311857 0.779243 -0.066572
0.315812 0.777923 -0.066565
0.319782 0.778312 -0.066739
0.323834 0.782620 -0.067329
0.327895 0.785448 -0.067763
0.331842 0.783257 -0.067664
0.335727 0.779799 -0.067431
0.339713 0.779884 -0.067576
0.343732 0.780755 -0.067808
0.347695 0.780297 -0.067899
0.351662 0.780030 -0.068014
0.355671 0.780579 -0.068218
0.359944 0.785342 -0.068880
0.364271 0.790276 -0.069565
0.368211 0.789175 -0.069603
0.372310 0.790335 -0.069888
0.376613 0.793904 -0.070438
0.380880 0.796688 -0.070909
0.384966 0.797218 -0.071138
0.388463 0.791535 -0.070694
0.392070 0.787519 -0.070433
0.395963 0.786607 -0.070514
0.400143 0.788403 -0.070896
0.404333 0.790142 -0.071277
0.409337 0.798584 -0.072401
0.412807 0.794008 -0.072095
0.416744 0.793402 -0.072230
0.421402 0.798239 -0.072974
0.426035 0.802551 -0.073665
0.428592 0.792067 -0.072712
0.432782 0.793292 -0.073067
0.436780 0.793173 -0.073276
0.441094 0.795050 -0.073713
0.446134 0.801282 -0.074645
0.449808 0.798958 -0.074619
0.453033 0.794129 -0.074312
0.456745 0.792296 -0.074346
0.460063 0.788369 -0.074145
0.463883 0.787314 -0.074272
0.467888 0.787259 -0.074517
0.471747 0.786431 -0.074677
0.475701 0.786089 -0.074896
0.481051 0.792533 -0.075901
0.484971 0.791844 -0.076089
0.488945 0.791409 -0.076309
0.493971 0.795742 -0.077087
0.498337 0.796915 -0.077503
0.502369 0.796553 -0.077744
0.507719 0.801791 -0.078644
0.512093 0.802701 -0.079043
0.516598 0.804072 -0.079500
0.518390 0.794460 -0.078663
0.520303 0.785662 -0.077920
0.524334 0.785335 -0.078180
0.529269 0.788407 -0.078850
0.535358 0.795621 -0.080020
0.539830 0.796626 -0.080454
0.545736 0.802696 -0.081501
0.549506 0.800990 -0.081617
0.555226 0.806049 -0.082555
0.559013 0.804315 -0.082673
0.563623 0.805352 -0.083132
0.567802 0.804894 -0.083412
0.572266 0.805330 -0.083804
0.576432 0.804759 -0.084075
0.577481 0.794401 -0.083141
0.581354 0.793032 -0.083314
0.585712 0.793133 -0.083673
0.590236 0.793685 -0.084091
0.594489 0.793380 -0.084404
0.601219 0.800221 -0.085619
0.607478 0.805470 -0.086641
0.610550 0.801554 -0.086512
0.611254 0.791142 -0.085558
0.616608 0.793691 -0.086248
0.621244 0.794194 -0.086681
0.625061 0.792462 -0.086832
0.637446 0.813173 -0.089871
0.641004 0.810471 -0.089909
0.644703 0.808156 -0.089998
0.651650 0.814023 -0.091151
0.656890 0.815456 -0.091734
0.655574 0.800766 -0.090211
0.660122 0.800576 -0.090582
0.667475 0.807029 -0.091831
0.673659 0.810523 -0.092699
0.675974 0.804900 -0.092361
0.682730 0.809558 -0.093392
0.681932 0.796951 -0.092121
0.690299 0.805103 -0.093627
0.695403 0.805806 -0.094141
0.697333 0.799527 -0.093715
0.701681 0.798564 -0.094006
0.707454 0.800612 -0.094711
0.712459 0.800953 -0.095187
0.718569 0.803539 -0.095975
0.729310 0.815528 -0.098065
0.729918 0.806628 -0.097281
0.730979 0.798801 -0.096641
0.737347 0.801629 -0.097480
0.744513 0.805913 -0.098530
0.752490 0.811626 -0.099789
0.760553 0.817328 -0.101055
0.765446 0.816855 -0.101458
0.769655 0.815064 -0.101678
0.773690 0.812947 -0.101852
0.778419 0.812101 -0.102211
0.781906 0.808978 -0.102245
0.784902 0.804997 -0.102156
0.793978 0.811833 -0.103634
0.799159 0.811644 -0.104102
0.806008 0.814309 -0.104991
0.814943 0.820448 -0.106397
0.820970 0.821473 -0.107062
0.820447 0.811425 -0.106097
0.824331 0.808867 -0.106236
0.829462 0.808364 -0.106683
0.834625 0.807876 -0.107138
0.844235 0.814515 -0.108667
0.852327 0.818547 -0.109816
0.856226 0.815829 -0.109954
0.861780 0.815704 -0.110489
0.867231 0.815370 -0.110997
0.872382 0.814533 -0.111434
0.878950 0.815810 -0.112202
0.885083 0.816355 -0.112864
0.891679 0.817526 -0.113631
0.897967 0.818168 -0.114323
0.907809 0.823919 -0.115825
0.909123 0.817208 -0.115378
0.914483 0.816348 -0.115856
0.918891 0.814105 -0.116119
0.936964 0.830975 -0.119439
0.945639 0.834436 -0.120640
0.941133 0.819680 -0.118920
0.946376 0.818402 -0.119368
0.953219 0.819243 -0.120166
0.961507 0.821935 -0.121278
0.968218 0.822431 -0.122042
0.974348 0.822097 -0.122679
0.981123 0.822543 -0.123455
0.990557 0.826328 -0.124797
0.995706 0.824533 -0.125222
1.000710 0.822523 -0.125617
1.009762 0.825531 -0.126869
1.015335 0.824120 -0.127385
1.022143 0.824177 -0.128161
1.028699 0.823860 -0.128884
1.038641 0.827541 -0.130309
1.044570 0.826312 -0.130900
1.050828 0.825420 -0.131560
1.057252 0.824664 -0.132255
1.065112 0.825509 -0.133243
1.073087 0.826392 -0.134254
1.082529 0.828846 -0.135560
1.092087 0.831305 -0.136885
1.098548 0.830194 -0.137586
1.106356 0.830508 -0.138557
1.114866 0.831500 -0.139668
1.121416 0.830271 -0.140387
1.128042 0.829063 -0.141124
1.137731 0.831043 -0.142465
1.148455 0.833987 -0.144007
1.154585 0.832007 -0.144645
1.160605 0.829864 -0.145263
1.167704 0.828775 -0.146093
1.181741 0.834637 -0.148269
1.187194 0.831696 -0.148778
1.201574 0.837582 -0.151008
1.207389 0.834846 -0.151586
1.215553 0.834359 -0.152615
1.222737 0.832846 -0.153455
1.232089 0.833343 -0.154707
1.244391 0.836532 -0.156515
1.253207 0.836306 -0.157657
1.264252 0.838065 -0.159215
1.271672 0.836374 -0.160086
1.279541 0.835039 -0.161038
1.291353 0.837204 -0.162723
1.300932 0.837253 -0.163983
1.315298 0.841460 -0.166126
1.323739 0.840324 -0.167157
1.335319 0.841865 -0.168761
1.346770 0.843200 -0.170330
1.355918 0.842491 -0.171463
1.370867 0.846630 -0.173648
1.379017 0.844967 -0.174573
1.386259 0.842541 -0.175321
1.400910 0.846195 -0.177401
1.415724 0.849885 -0.179491
1.424714 0.848801 -0.180507
1.434591 0.848429 -0.181665
1.444082 0.847752 -0.182735
1.453781 0.847251 -0.183822
1.464355 0.847445 -0.185045
1.473666 0.846681 -0.186020
1.486969 0.848994 -0.187680
1.499536 0.850741 -0.189183
1.509258 0.850364 -0.190158
1.513975 0.846321 -0.190232
1.509945 0.835951 -0.188760
0.228163 0.770478 -0.064698
0.231419 0.769260 -0.064885
0.234647 0.768890 -0.065149
0.238067 0.766923 -0.065231
0.240916 0.772403 -0.066090
0.244341 0.771769 -0.066289
0.247702 0.772639 -0.066637
0.251118 0.773538 -0.066978
0.254569 0.774768 -0.067343
0.257889 0.779078 -0.068029
0.261448 0.780606 -0.068407
0.264832 0.786523 -0.069250
0.268706 0.784040 -0.069177
0.272574 0.781981 -0.069141
0.276389 0.781665 -0.069284
0.280427 0.775515 -0.068785
0.284176 0.778214 -0.069243
0.287843 0.786278 -0.070283
0.291537 0.797820 -0.071701
0.295655 0.789609 -0.070952
0.299601 0.792127 -0.071375
0.303657 0.781517 -0.070351
0.307610 0.787674 -0.071169
0.311606 0.787272 -0.071264
0.315582 0.784375 -0.071081
0.319593 0.785591 -0.071351
0.323584 0.784858 -0.071406
0.327651 0.787554 -0.071842
0.331692 0.788317 -0.072064
0.335579 0.784165 -0.071740
0.339478 0.781351 -0.071566
0.343390 0.779526 -0.071503
0.347378 0.779694 -0.071664
0.351349 0.779523 -0.071790
0.355345 0.779875 -0.071977
0.359782 0.787357 -0.072968
0.363960 0.789897 -0.073409
0.367930 0.789204 -0.073489
0.371910 0.788771 -0.073602
0.376113 0.791176 -0.074039
0.380361 0.793870 -0.074514
0.384342 0.793356 -0.074629
0.388291 0.792571 -0.074716
0.391925 0.788732 -0.074460
0.395778 0.787352 -0.074486
0.400014 0.789612 -0.074932
0.404608 0.794826 -0.075722
0.408574 0.794350 -0.075864
0.413300 0.800060 -0.076723
0.417074 0.797935 -0.076685
0.421533 0.801104 -0.077262
0.425701 0.801943 -0.077574
0.429689 0.801456 -0.077737
0.432802 0.795067 -0.077217
0.436607 0.793607 -0.077272
0.441366 0.798293 -0.078050
0.445960 0.801668 -0.078681
0.449350 0.797614 -0.078444
0.452185 0.790520 -0.077851
0.456133 0.790114 -0.078048
0.459860 0.788484 -0.078103
0.463781 0.787959 -0.078293
0.467662 0.787226 -0.078461
0.471446 0.786002 -0.078574
0.475378 0.785552 -0.078783
0.481511 0.795824 -0.080281
0.484509 0.790658 -0.079933
0.487280 0.784634 -0.079482
0.491743 0.786555 -0.079991
0.496071 0.787751 -0.080417
0.500388 0.788820 -0.080832
0.505019 0.791148 -0.081405
0.511936 0.802906 -0.083136
0.515741 0.801399 -0.083252
0.518724 0.796611 -0.082967
0.521165 0.789840 -0.082438
0.524244 0.785751 -0.082238
0.529635 0.790543 -0.083142
0.534249 0.792226 -0.083665
0.539408 0.795802 -0.084429
0.543586 0.795688 -0.084737
0.549743 0.802514 -0.085920
0.552878 0.798593 -0.085757
0.557188 0.798765 -0.086112
0.561120 0.797625 -0.086304
0.564218 0.793734 -0.086148
0.570184 0.799216 -0.087188
0.576712 0.806267 -0.088437
0.577427 0.794827 -0.087320
0.581230 0.793233 -0.087465
0.585825 0.794052 -0.087924
0.590034 0.793648 -0.088227
0.594597 0.794256 -0.088666
0.601064 0.800324 -0.089820
0.606665 0.803693 -0.090630
0.610720 0.802570 -0.090854
0.611037 0.791062 -0.089712
0.616165 0.792997 -0.090341
0.620972 0.793970 -0.090847
0.625237 0.793429 -0.091156
0.630286 0.794916 -0.091737
0.636365 0.798979 -0.092669
0.642553 0.803165 -0.093624
0.648503 0.806598 -0.094484
0.651915 0.803595 -0.094478
0.654453 0.798490 -0.094186
0.659892 0.800482 -0.094861
0.668033 0.808820 -0.096411
0.672742 0.808823 -0.096825
0.681063 0.817173 -0.098394
0.681340 0.806816 -0.097386
0.684735 0.803735 -0.097381
0.691181 0.807512 -0.098332
0.695670 0.806828 -0.098666
0.697680 0.800706 -0.098239
0.702383 0.800495 -0.098642
0.707055 0.800178 -0.099033
0.711504 0.799357 -0.099355
0.718031 0.802829 -0.100292
0.727477 0.812171 -0.102075
0.729687 0.806562 -0.101726
0.732149 0.801542 -0.101459
0.737441 0.802208 -0.102012
0.743202 0.803733 -0.102695
0.750635 0.808418 -0.103843
0.757158 0.811209 -0.104723
0.765940 0.818174 -0.106223
0.771518 0.818932 -0.106820
0.778205 0.821684 -0.107717
0.778599 0.812799 -0.106893
0.780862 0.807449 -0.106591
0.788119 0.811121 -0.107636
0.791453 0.807711 -0.107627
0.796562 0.807442 -0.108091
0.805235 0.813316 -0.109490
0.815375 0.821537 -0.111257
0.822682 0.824723 -0.112270
0.821218 0.813056 -0.111017
0.824514 0.809501 -0.111003
0.828971 0.807882 -0.111288
0.835520 0.809655 -0.112102
0.846655 0.818733 -0.114062
0.857867 0.827698 -0.116021
0.863993 0.828402 -0.116701
0.869456 0.828005 -0.117214
0.869799 0.819643 -0.116471
0.872796 0.815464 -0.116389
0.878171 0.814920 -0.116888
0.888848 0.822293 -0.118662
0.892617 0.819202 -0.118768
0.899260 0.820348 -0.119561
0.904510 0.819387 -0.120022
0.911441 0.820817 -0.120878
0.912494 0.813769 -0.120354
0.917266 0.812064 -0.120708
0.937335 0.831750 -0.124604
0.940530 0.827603 -0.124578
0.942084 0.821225 -0.124183
0.946571 0.818900 -0.124465
0.952732 0.818814 -0.125131
0.961608 0.822291 -0.126407
0.966877 0.820877 -0.126867
0.975124 0.823322 -0.127994
0.980599 0.822068 -0.128500
0.989987 0.825796 -0.129873
0.995639 0.824638 -0.130415
1.001648 0.823888 -0.131038
1.008299 0.823886 -0.131801
1.015189 0.824111 -0.132615
1.020819 0.822723 -0.133155
1.028577 0.823870 -0.134156
1.037355 0.826149 -0.135373
1.044031 0.825814 -0.136137
1.051458 0.826299 -0.137061
1.058204 0.825905 -0.137840
1.067652 0.828565 -0.139189
1.075366 0.829116 -0.140169
1.079315 0.825309 -0.140360
1.090192 0.829278 -0.142001
1.098855 0.830629 -0.143176
1.106293 0.830524 -0.144095
1.113858 0.830478 -0.145040
1.121487 0.830419 -0.145998
1.129232 0.830402 -0.146979
1.136572 0.829871 -0.147877
1.147943 0.833500 -0.149595
1.155409 0.832909 -0.150516
1.163871 0.833269 -0.151638
1.173254 0.834474 -0.152944
1.180852 0.833762 -0.153889
1.188075 0.832598 -0.154759
1.198744 0.834787 -0.156315
1.206252 0.833737 -0.157239
1.214951 0.833778 -0.158399
1.225255 0.835276 -0.159872
1.232698 0.833922 -0.160778
1.244800 0.836914 -0.162596
1.253089 0.836189 -0.163661
1.265282 0.839014 -0.165483
1.271512 0.836220 -0.166139
1.279531 0.835025 -0.167139
1.291519 0.837351 -0.168902
1.301786 0.838019 -0.170323
1.314687 0.840928 -0.172241
1.323455 0.840090 -0.173356
1.332827 0.839725 -0.174577
1.346338 0.842861 -0.176577
1.355071 0.841815 -0.177654
1.368908 0.845038 -0.179686
1.377441 0.843725 -0.180699
1.390615 0.846235 -0.182572
1.399983 0.845547 -0.183712
1.412533 0.847427 -0.185431
1.422350 0.847055 -0.186619
1.431072 0.845804 -0.187585
1.444076 0.847954 -0.189326
1.456128 0.849322 -0.190866
1.464606 0.847904 -0.191724
1.473302 0.846696 -0.192601
1.484205 0.847215 -0.193859
1.498220 0.850108 -0.195659
1.508374 0.850097 -0.196728
1.515860 0.848148 -0.197290
1.526618 0.848692 -0.198418
0.228622 0.765575 -0.067762
0.231463 0.768395 -0.068395
0.234592 0.768897 -0.068763
0.237546 0.772159 -0.069424
0.240051 0.781874 -0.070787
0.242919 0.788670 -0.071821
0.246538 0.786769 -0.071880
0.250587 0.779215 -0.071296
0.254201 0.778091 -0.071414
0.257621 0.780753 -0.071944
0.261055 0.784350 -0.072571
0.264693 0.785440 -0.072906
0.268601 0.781887 -0.072709
0.272362 0.781831 -0.072896
0.276359 0.776497 -0.072476
0.280224 0.774483 -0.072424
0.283931 0.778123 -0.073006
0.287677 0.782532 -0.073672
0.291509 0.785793 -0.074202
0.295284 0.795949 -0.075517
0.299357 0.788724 -0.074842
0.303357 0.784635 -0.074521
0.307325 0.785818 -0.074801
0.311316 0.787733 -0.075163
0.315310 0.786815 -0.075198
0.319269 0.783378 -0.074941
0.323139 0.776581 -0.074295
0.327295 0.785012 -0.075407
0.331419 0.789285 -0.076042
0.335295 0.784581 -0.075637
0.339149 0.780492 -0.075304
0.343079 0.779152 -0.075291
0.347026 0.778449 -0.075354
0.351035 0.779129 -0.075580
0.355043 0.779682 -0.075794
0.359373 0.785446 -0.076621
0.363624 0.789216 -0.077219
0.367496 0.787156 -0.077137
0.371397 0.785765 -0.077137
0.375415 0.786036 -0.077335
0.379611 0.788388 -0.077783
0.383796 0.790398 -0.078195
0.387759 0.789890 -0.078314
0.391433 0.786535 -0.078098
0.395167 0.784092 -0.077994
0.400210 0.793861 -0.079346
0.404398 0.795322 -0.079716
0.408077 0.792383 -0.079565
0.411255 0.785621 -0.078958
0.416439 0.795005 -0.080290
0.420611 0.796104 -0.080635
0.425022 0.798859 -0.081184
0.429160 0.799513 -0.081485
0.432646 0.795682 -0.081247
0.436220 0.792664 -0.081110
0.440225 0.792568 -0.081331
0.444620 0.794873 -0.081849
0.448288 0.792659 -0.081820
0.452001 0.790809 -0.081838
0.455829 0.789698 -0.081950
0.459576 0.788175 -0.082015
0.463494 0.787629 -0.082203
0.467328 0.786641 -0.082341
0.471033 0.785020 -0.082403
0.475385 0.786682 -0.082876
0.482144 0.799984 -0.084805
0.484733 0.792759 -0.084181
0.487605 0.787145 -0.083758
0.491484 0.786337 -0.083938
0.495523 0.786249 -0.084213
0.499985 0.787973 -0.084720
0.504336 0.789116 -0.085159
0.509870 0.795133 -0.086221
0.515186 0.799974 -0.087141
0.519497 0.800547 -0.087524
0.523382 0.799379 -0.087686
0.526238 0.794236 -0.087341
0.529828 0.792034 -0.087374
0.533987 0.791993 -0.087689
0.536785 0.786938 -0.087357
0.543572 0.796349 -0.088906
0.548345 0.798286 -0.089490
0.552247 0.797089 -0.089669
0.555447 0.793501 -0.089537
0.559403 0.792526 -0.089749
0.565724 0.799334 -0.090992
0.572756 0.808179 -0.092513
0.573765 0.797495 -0.091450
0.577821 0.796667 -0.091695
0.581379 0.794285 -0.091734
0.585114 0.792475 -0.091851
0.589792 0.793495 -0.092351
0.594538 0.794643 -0.092872
0.599761 0.797100 -0.093575
0.604843 0.799035 -0.094212
0.609848 0.800655 -0.094811
0.611873 0.793910 -0.094270
0.616611 0.794736 -0.094765
0.620968 0.794471 -0.095114
0.624649 0.792371 -0.095212
0.627393 0.787830 -0.094972
0.632813 0.790290 -0.095706
0.642793 0.804268 -0.098052
0.647976 0.805758 -0.098666
0.651166 0.802214 -0.098577
0.656672 0.804393 -0.099295
0.664104 0.811128 -0.100663
0.665679 0.803670 -0.100025
0.675337 0.815393 -0.102116
0.677778 0.809995 -0.101774
0.682086 0.808975 -0.102058
0.684987 0.804747 -0.101882
0.691175 0.807936 -0.102777
0.695411 0.806687 -0.103035
0.698417 0.802740 -0.102903
0.702298 0.800732 -0.103053
0.706761 0.799967 -0.103386
0.711254 0.799240 -0.103728
0.716219 0.799468 -0.104213
0.726375 0.810315 -0.106276
0.731598 0.810844 -0.106819
0.732380 0.802401 -0.106028
0.737181 0.802083 -0.106448
0.742875 0.803478 -0.107129
0.749042 0.805713 -0.107943
0.754789 0.807051 -0.108626
0.759356 0.806074 -0.108964
0.769750 0.815995 -0.110968
0.775462 0.816974 -0.111617
0.777189 0.810581 -0.111138
0.781610 0.809165 -0.111425
0.785016 0.805914 -0.111429
0.790512 0.806393 -0.112015
0.795488 0.805905 -0.112455
0.800705 0.805799 -0.112959
0.813546 0.818740 -0.115521
0.820652 0.821616 -0.116513
0.821320 0.813562 -0.115781
0.824359 0.809570 -0.115690
0.828850 0.808004 -0.115988
0.834361 0.808085 -0.116553
0.846966 0.819551 -0.118960
0.857540 0.827493 -0.120817
0.863853 0.828492 -0.121562
0.866772 0.824113 -0.121437
0.870098 0.820404 -0.121422
0.873071 0.816177 -0.121323
0.878958 0.816399 -0.121960
0.893757 0.829945 -0.124816
0.897980 0.827451 -0.125024
0.899595 0.821113 -0.124592
0.905921 0.821710 -0.125325
0.913033 0.823374 -0.126246
0.916735 0.820081 -0.126337
0.920912 0.817468 -0.126546
0.929216 0.820628 -0.127748
0.935946 0.821487 -0.128567
0.940937 0.819883 -0.128971
0.948459 0.821695 -0.129974
0.954373 0.821245 -0.130594
0.959020 0.819054 -0.130919
0.967963 0.822519 -0.132244
0.974676 0.822940 -0.133046
0.980918 0.822677 -0.133739
0.987619 0.822946 -0.134536
0.994316 0.823140 -0.135330
1.000868 0.823082 -0.136091
1.008929 0.824841 -0.137192
1.014795 0.823787 -0.137795
1.020560 0.822561 -0.138377
1.029389 0.825002 -0.139643
1.036611 0.825397 -0.140548
1.043035 0.824764 -0.141275
1.054249 0.829713 -0.143056
1.060263 0.828426 -0.143690
1.068411 0.829556 -0.144791
1.074384 0.828096 -0.145417
1.081865 0.828298 -0.146372
1.090336 0.829529 -0.147538
1.096278 0.827844 -0.148160
1.105482 0.829705 -0.149481
1.112593 0.829165 -0.150353
1.123420 0.832569 -0.152014
1.129837 0.831102 -0.152736
1.136346 0.829676 -0.153480
1.145507 0.830978 -0.154781
1.153045 0.830480 -0.155740
1.163969 0.833395 -0.157405
1.171716 0.832922 -0.158404
1.178279 0.831172 -0.159158
1.188530 0.833061 -0.160673
1.196494 0.832555 -0.161713
1.204691 0.832200 -0.162800
1.218837 0.837554 -0.165101
1.224558 0.834592 -0.165675
1.235033 0.836138 -0.167216
1.245331 0.837400 -0.168715
1.252527 0.835646 -0.169582
1.263657 0.837490 -0.171239
1.271880 0.836543 -0.172304
1.281821 0.837095 -0.173708
1.289929 0.835907 -0.174740
1.300061 0.836472 -0.176168
1.310931 0.837606 -0.177733
1.324763 0.841243 -0.179873
1.334193 0.840927 -0.181130
1.346008 0.842606 -0.182845
1.355914 0.842572 -0.184172
1.367362 0.843789 -0.185786
1.377544 0.843882 -0.187138
1.388709 0.844748 -0.188665
1.401090 0.846563 -0.190409
1.410605 0.845994 -0.191580
1.420852 0.846007 -0.192874
1.431762 0.846537 -0.194274
1.443302 0.847553 -0.195772
1.455625 0.849168 -0.197396
1.464303 0.847939 -0.198303
1.473729 0.847325 -0.199329
1.485552 0.848576 -0.200783
1.497035 0.849581 -0.202146
1.505070 0.848025 -0.202836
1.516788 0.849277 -0.204190
1.528123 0.850276 -0.205443
0.228521 0.766454 -0.071435
0.231438 0.768318 -0.071984
0.234700 0.767165 -0.072176
0.237238 0.774957 -0.073380
0.239653 0.785697 -0.074917
0.242993 0.786417 -0.075292
0.247028 0.778562 -0.074664
0.250260 0.781996 -0.075327
0.253715 0.783234 -0.075725
0.257218 0.784643 -0.076133
0.260897 0.783965 -0.076285
0.264784 0.780007 -0.076043
0.268382 0.782159 -0.076505
0.272141 0.781903 -0.076676
0.276213 0.774386 -0.075982
0.280009 0.773814 -0.076097
0.283651 0.779200 -0.076909
0.287460 0.780857 -0.077274
0.291304 0.782715 -0.077658
0.295247 0.780596 -0.077565
0.299136 0.783182 -0.078027
0.303086 0.782257 -0.078067
0.307041 0.780711 -0.078030
0.311018 0.786805 -0.078904
0.314996 0.784855 -0.078814
0.318902 0.778129 -0.078150
0.322944 0.782471 -0.078812
0.327003 0.785529 -0.079322
0.331042 0.786644 -0.079598
0.335110 0.788300 -0.079941
0.338808 0.779445 -0.079016
0.342821 0.780185 -0.079251
0.346798 0.780015 -0.079377
0.350813 0.780618 -0.079599
0.354799 0.780641 -0.079754
0.359058 0.785174 -0.080460
0.363180 0.786980 -0.080839
0.367141 0.786292 -0.080917
0.370882 0.782807 -0.080656
0.374849 0.782582 -0.080796
0.378870 0.783042 -0.081024
0.383249 0.787478 -0.081745
0.387130 0.786214 -0.081769
0.391113 0.786118 -0.081941
0.395425 0.789209 -0.082511
0.400174 0.796062 -0.083552
0.404176 0.795773 -0.083715
0.407729 0.791716 -0.083413
0.411262 0.787821 -0.083134
0.415250 0.787765 -0.083336
0.419679 0.791049 -0.083960
0.423650 0.790763 -0.084143
0.428381 0.795843 -0.085003
0.431962 0.792749 -0.084842
0.435662 0.790630 -0.084807
0.440232 0.794187 -0.085492
0.443866 0.791713 -0.085419
0.447589 0.789901 -0.085433
0.451826 0.791180 -0.085843
0.455737 0.790514 -0.086011
0.459149 0.787100 -0.085831
0.463136 0.786937 -0.086069
0.467260 0.787483 -0.086402
0.471106 0.786547 -0.086549
0.475537 0.788559 -0.087080
0.480122 0.791199 -0.087697
0.486330 0.801438 -0.089306
0.489864 0.798703 -0.089239
0.491463 0.787225 -0.088032
0.495488 0.787044 -0.088299
0.499671 0.787529 -0.088657
0.503620 0.786956 -0.088881
0.509144 0.792973 -0.089976
0.514329 0.797322 -0.090859
0.519285 0.800537 -0.091598
0.523240 0.799639 -0.091797
0.526435 0.795794 -0.091605
0.530201 0.794223 -0.091719
0.533650 0.791490 -0.091678
0.537910 0.791788 -0.092047
0.541044 0.787983 -0.091866
0.546401 0.792124 -0.092761
0.549712 0.788983 -0.092674
0.553604 0.787890 -0.092867
0.560009 0.795217 -0.094212
0.569006 0.810808 -0.096698
0.571538 0.804876 -0.096244
0.574958 0.801926 -0.096199
0.578470 0.799318 -0.096203
0.580580 0.792416 -0.095612
0.584737 0.791914 -0.095908
0.589031 0.791793 -0.096260
0.593652 0.792600 -0.096746
0.598649 0.794430 -0.097379
0.603632 0.796124 -0.097997
0.607100 0.793453 -0.098004
0.611891 0.794492 -0.098537
0.616536 0.795057 -0.099007
0.621008 0.795096 -0.099406
0.624136 0.791514 -0.099289
0.627215 0.787861 -0.099162
0.636137 0.799383 -0.101222
0.644586 0.809339 -0.103069
0.650332 0.812175 -0.103897
0.654496 0.810964 -0.104141
0.657345 0.806518 -0.103915
0.664051 0.811472 -0.105065
0.669413 0.813044 -0.105726
0.670992 0.805620 -0.105065
0.674614 0.803090 -0.105124
0.677242 0.798301 -0.104848
0.682506 0.799563 -0.105473
0.687277 0.799647 -0.105926
0.696461 0.809442 -0.107841
0.698205 0.802702 -0.107278
0.701984 0.800474 -0.107394
0.706550 0.799932 -0.107767
0.711828 0.800859 -0.108366
0.717484 0.802506 -0.109080
0.725574 0.809074 -0.110554
0.733465 0.815040 -0.111947
0.737987 0.814054 -0.112276
0.742058 0.812152 -0.112466
0.744410 0.806874 -0.112132
0.748351 0.804757 -0.112290
0.752398 0.802842 -0.112481
0.757718 0.803341 -0.113054
0.765841 0.809040 -0.114453
0.772296 0.811474 -0.115346
0.775844 0.808478 -0.115381
0.778457 0.803805 -0.115150
0.783819 0.804120 -0.115718
0.790362 0.806476 -0.116618
0.795920 0.807007 -0.117232
0.801493 0.807507 -0.117846
0.812039 0.816492 -0.119848
0.818147 0.817695 -0.120593
0.820811 0.813034 -0.120384
0.823910 0.809146 -0.120301
0.829134 0.808790 -0.120803
0.835547 0.810331 -0.121625
0.840745 0.809830 -0.122114
0.852428 0.819643 -0.124335
0.856240 0.816771 -0.124444
0.858533 0.811530 -0.124155
0.866039 0.814414 -0.125242
0.873911 0.817749 -0.126416
0.887176 0.829146 -0.128980
0.900656 0.840585 -0.131573
0.900192 0.831012 -0.130571
0.897113 0.817728 -0.128920
0.905909 0.821955 -0.130299
0.916527 0.828673 -0.132128
0.923323 0.829743 -0.132984
0.923067 0.820760 -0.132081
0.927442 0.818382 -0.132340
0.935515 0.821122 -0.133513
0.942205 0.821852 -0.134341
0.948101 0.821428 -0.134972
0.953777 0.820656 -0.135549
0.960328 0.821007 -0.136338
0.966524 0.820819 -0.137039
0.973625 0.821759 -0.137956
0.980212 0.821951 -0.138747
0.986821 0.822103 -0.139543
0.993120 0.821795 -0.140264
0.998593 0.820384 -0.140790
1.010364 0.826791 -0.142789
1.015193 0.824432 -0.143162
1.021604 0.823984 -0.143905
1.029393 0.825146 -0.144965
1.036116 0.824934 -0.145777
1.043047 0.824902 -0.146637
1.053971 0.829502 -0.148403
1.060992 0.829386 -0.149278
1.066269 0.827181 -0.149760
1.074761 0.828622 -0.150966
1.082646 0.829270 -0.152033
1.089090 0.828208 -0.152778
1.096654 0.828333 -0.153772
1.103904 0.828028 -0.154696
1.113115 0.829789 -0.156051
1.123479 0.832682 -0.157655
1.130196 0.831528 -0.158458
1.136668 0.830051 -0.159208
1.143107 0.828482 -0.159952
1.152388 0.829815 -0.161311
1.158001 0.827253 -0.161877
1.170607 0.831796 -0.163946
1.178964 0.831865 -0.165098
1.184396 0.828914 -0.165625
1.196905 0.832954 -0.167656
1.207199 0.834651 -0.169211
1.214257 0.833076 -0.170078
1.223638 0.833683 -0.171432
1.230801 0.832073 -0.172317
1.244421 0.836514 -0.174549
1.250691 0.833899 -0.175240
1.262169 0.836082 -0.177010
1.271258 0.835945 -0.178277
1.282763 0.837930 -0.180036
1.292532 0.838233 -0.181428
1.304643 0.840548 -0.183292
1.314123 0.840420 -0.184606
1.321376 0.838277 -0.185456
1.338997 0.845104 -0.188405
1.348891 0.845105 -0.189767
1.358895 0.845145 -0.191138
1.366122 0.842796 -0.191936
1.375562 0.842296 -0.193166
1.387877 0.844149 -0.194956
1.397157 0.843451 -0.196120
1.408815 0.844674 -0.197739
1.421747 0.846885 -0.199588
1.432825 0.847569 -0.201048
1.444274 0.848534 -0.202556
1.455674 0.849451 -0.204031
1.464426 0.848310 -0.204963
1.473378 0.847364 -0.205911
1.486538 0.849672 -0.207652
1.495908 0.849108 -0.208630
1.506854 0.849776 -0.209887
1.512474 0.846519 -0.210093
1.523534 0.847378 -0.211319
0.228839 0.763117 -0.074615
0.231430 0.768133 -0.075554
0.234571 0.768122 -0.075889
0.236876 0.778452 -0.077441
0.240330 0.776510 -0.077524
0.243893 0.773684 -0.077486
0.247257 0.773954 -0.077804
0.250260 0.780146 -0.078824
0.253606 0.782668 -0.079392
0.257078 0.784284 -0.079840
0.260911 0.780612 -0.079636
0.264895 0.774280 -0.079094
0.268577 0.773869 -0.079261
0.272113 0.777549 -0.079917
0.275783 0.779553 -0.080361
0.279547 0.780293 -0.080642
0.283316 0.782022 -0.081037
0.287149 0.782888 -0.081320
0.291032 0.782866 -0.081487
0.295002 0.778677 -0.081134
0.298910 0.778185 -0.081231
0.302762 0.787802 -0.082577
0.306736 0.787775 -0.082726
0.310709 0.783323 -0.082323
0.314688 0.784007 -0.082556
0.318651 0.782263 -0.082484
0.322613 0.781037 -0.082476
0.326643 0.783203 -0.082891
0.330769 0.788032 -0.083639
0.334721 0.785833 -0.083510
0.338490 0.779146 -0.082818
0.342505 0.779979 -0.083070
0.346574 0.781795 -0.083448
0.350542 0.781299 -0.083537
0.354562 0.781836 -0.083758
0.358702 0.784304 -0.084227
0.362822 0.786131 -0.084619
0.366491 0.781308 -0.084171
0.370489 0.781519 -0.084364
0.374460 0.781387 -0.084517
0.378342 0.780256 -0.084547
0.382148 0.778405 -0.084488
0.386558 0.783196 -0.085280
0.391002 0.787874 -0.086064
0.395588 0.793509 -0.086977
0.399496 0.792408 -0.087032
0.403632 0.793428 -0.087363
0.407300 0.790406 -0.087178
0.411231 0.789762 -0.087303
0.415090 0.788608 -0.087366
0.419042 0.788244 -0.087535
0.422856 0.786884 -0.087579
0.425866 0.779952 -0.086901
0.431253 0.789669 -0.088396
0.435812 0.793295 -0.089104
0.439509 0.791170 -0.089065
0.443172 0.788948 -0.089016
0.447010 0.787890 -0.089123
0.451412 0.790181 -0.089676
0.456096 0.793931 -0.090428
0.458917 0.787124 -0.089787
0.462896 0.786906 -0.090021
0.466934 0.786987 -0.090298
0.470998 0.787174 -0.090595
0.475997 0.792007 -0.091517
0.480405 0.793693 -0.092024
0.485012 0.796224 -0.092651
0.489630 0.798657 -0.093269
0.491497 0.788386 -0.092176
0.495708 0.789002 -0.092555
0.499599 0.788155 -0.092740
0.503151 0.785863 -0.092731
0.509295 0.794506 -0.094219
0.514024 0.796942 -0.094866
0.517723 0.795098 -0.094931
0.519769 0.786755 -0.094103
0.524468 0.788978 -0.094732
0.529239 0.791351 -0.095387
0.534549 0.795609 -0.096309
0.538847 0.795968 -0.096695
0.538491 0.779521 -0.094737
0.545084 0.788182 -0.096288
0.549186 0.787851 -0.096585
0.553359 0.787733 -0.096915
0.561712 0.801603 -0.099227
0.567135 0.805302 -0.100112
0.572461 0.808520 -0.100934
0.574771 0.801963 -0.100369
0.577613 0.797245 -0.100064
0.580488 0.792736 -0.099789
0.584344 0.791310 -0.099956
0.588627 0.791166 -0.100312
0.592686 0.790321 -0.100568
0.599840 0.798455 -0.102132
0.603223 0.795507 -0.102092
0.607167 0.794185 -0.102289
0.611727 0.794570 -0.102740
0.616219 0.794716 -0.103158
0.620568 0.794429 -0.103516
0.624702 0.793531 -0.103787
0.628000 0.790423 -0.103731
0.638408 0.805763 -0.106427
0.645947 0.813313 -0.107976
0.652120 0.817175 -0.108982
0.656775 0.817116 -0.109404
0.658431 0.809659 -0.108712
0.662421 0.808002 -0.108895
0.668862 0.812198 -0.109971
0.667522 0.797900 -0.108231
0.669265 0.791097 -0.107627
0.675023 0.793648 -0.108458
0.679125 0.792334 -0.108698
0.686208 0.797687 -0.109973
0.692872 0.801935 -0.111085
0.697517 0.801625 -0.111494
0.701555 0.799968 -0.111697
0.706738 0.800749 -0.112284
0.711922 0.801467 -0.112865
0.717974 0.803934 -0.113728
0.727122 0.812663 -0.115589
0.734283 0.817105 -0.116783
0.737476 0.813427 -0.116688
0.740298 0.809051 -0.116482
0.745078 0.808572 -0.116901
0.747262 0.803024 -0.116506
0.752423 0.803267 -0.117046
0.757882 0.804024 -0.117675
0.765121 0.808059 -0.118844
0.772677 0.812546 -0.120096
0.777267 0.811448 -0.120440
0.781033 0.808832 -0.120537
0.785782 0.807991 -0.120929
0.790741 0.807495 -0.121383
0.799053 0.812851 -0.122817
0.806090 0.815830 -0.123865
0.810491 0.814167 -0.124142
0.815240 0.813085 -0.124519
0.819359 0.810917 -0.124717
0.824287 0.810094 -0.125146
0.829258 0.809308 -0.125586
0.834726 0.809303 -0.126165
0.842037 0.812220 -0.127252
0.848008 0.812889 -0.127962
0.854562 0.814416 -0.128827
0.858522 0.811804 -0.128980
0.865790 0.814315 -0.130032
0.873824 0.817899 -0.131283
0.891111 0.835398 -0.135001
0.898280 0.837295 -0.135988
0.890679 0.817136 -0.133061
0.895892 0.816189 -0.133544
0.905293 0.821312 -0.135123
0.914177 0.825534 -0.136555
0.924530 0.831714 -0.138357
0.926399 0.825712 -0.137962
0.929553 0.821571 -0.137906
0.933222 0.818165 -0.137987
0.941932 0.821696 -0.139349
0.947389 0.820672 -0.139884
0.953645 0.820685 -0.140620
0.959119 0.819593 -0.141159
0.966121 0.820481 -0.142077
0.973362 0.821601 -0.143052
0.980458 0.822450 -0.143987
0.987349 0.822954 -0.144870
0.992432 0.821086 -0.145311
0.999140 0.821232 -0.146148
1.009790 0.826227 -0.147932
1.016137 0.825743 -0.148675
1.022515 0.825237 -0.149425
1.028232 0.823868 -0.150018
1.036089 0.825023 -0.151119
1.042760 0.824675 -0.151938
1.048412 0.823060 -0.152517
1.060784 0.829242 -0.154667
1.066893 0.827993 -0.155350
1.075393 0.829430 -0.156588
1.082659 0.829360 -0.157538
1.088627 0.827756 -0.158189
1.096776 0.828529 -0.159340
1.104912 0.829192 -0.160487
1.114318 0.831147 -0.161920
1.120976 0.830011 -0.162727
1.129956 0.831300 -0.164058
1.136913 0.830333 -0.164932
1.143642 0.829059 -0.165756
1.153072 0.830535 -0.167181
1.159608 0.828912 -0.167960
1.174048 0.835305 -0.170489
1.179504 0.832400 -0.171025
1.190789 0.835302 -0.172844
1.198401 0.834416 -0.173852
1.208127 0.835537 -0.175319
1.214519 0.833301 -0.176057
1.224878 0.834846 -0.177654
1.231759 0.832952 -0.178494
1.239077 0.831421 -0.179426
1.251728 0.834832 -0.181500
1.264805 0.838490 -0.183654
1.273264 0.837752 -0.184812
1.283357 0.838437 -0.186311
1.293155 0.838767 -0.187738
1.301199 0.837451 -0.188786
1.311616 0.838188 -0.190326
1.329215 0.845136 -0.193362
1.338730 0.844878 -0.194684
1.348775 0.845023 -0.196104
1.356483 0.843125 -0.197024
1.365819 0.842589 -0.198270
1.375026 0.841915 -0.199474
1.385462 0.842238 -0.200914
1.396575 0.843083 -0.202475
1.407751 0.843944 -0.204028
1.420963 0.846415 -0.205974
1.430891 0.846217 -0.207227
1.444831 0.849195 -0.209270
1.454660 0.848908 -0.210454
1.463752 0.848070 -0.211466
1.474106 0.848241 -0.212706
1.484673 0.848601 -0.213963
1.493978 0.848037 -0.214942
1.501195 0.845956 -0.215481
1.512346 0.846885 -0.216774
1.518012 0.843802 -0.216959
0.228545 0.766107 -0.078534
0.231505 0.767131 -0.079019
0.234533 0.768127 -0.079489
0.237508 0.770498 -0.080117
0.240608 0.772254 -0.080657
0.244034 0.770733 -0.080778
0.246710 0.779869 -0.082212
0.250658 0.772679 -0.081601
0.254318 0.769709 -0.081500
0.257890 0.768532 -0.081611
0.261326 0.770343 -0.082085
0.265000 0.768756 -0.082119
0.268537 0.770534 -0.082568
0.272087 0.773260 -0.083128
0.275572 0.779122 -0.084077
0.279423 0.776953 -0.083999
0.283147 0.779310 -0.084488
0.286868 0.783633 -0.085221
0.290791 0.781484 -0.085123
0.294740 0.777766 -0.084816
0.298588 0.781456 -0.085453
0.302466 0.788085 -0.086465
0.306437 0.788088 -0.086622
0.310407 0.783338 -0.086165
0.314355 0.780255 -0.085918
0.318326 0.780850 -0.086144
0.322298 0.780679 -0.086270
0.326336 0.783455 -0.086777
0.330462 0.788331 -0.087557
0.334749 0.796778 -0.088803
0.338191 0.779517 -0.086709
0.342158 0.779122 -0.086808
0.346215 0.780779 -0.087175
0.350253 0.781748 -0.087456
0.354251 0.781834 -0.087623
0.358322 0.783135 -0.087953
0.362072 0.779333 -0.087616
0.366141 0.780660 -0.087955
0.370151 0.781035 -0.088173
0.374131 0.781026 -0.088343
0.378233 0.782485 -0.088711
0.381843 0.778281 -0.088335
0.386127 0.781713 -0.088972
0.390740 0.788169 -0.090016
0.395269 0.793235 -0.090882
0.399430 0.794451 -0.091242
0.402572 0.786553 -0.090392
0.406549 0.786405 -0.090577
0.410701 0.787693 -0.090959
0.414777 0.788294 -0.091254
0.418593 0.786884 -0.091284
0.421800 0.781118 -0.090730
0.425622 0.780077 -0.090816
0.430594 0.786955 -0.091976
0.435386 0.792197 -0.092922
0.439138 0.790432 -0.092925
0.442659 0.787325 -0.092748
0.446295 0.785076 -0.092691
0.451491 0.792097 -0.093904
0.455546 0.792198 -0.094177
0.458646 0.786963 -0.093722
0.462513 0.786128 -0.093874
0.466572 0.786326 -0.094172
0.470587 0.786263 -0.094439
0.474717 0.786755 -0.094786
0.480157 0.793614 -0.096022
0.484634 0.795516 -0.096577
0.487923 0.791740 -0.096345
0.491279 0.788408 -0.096176
0.495418 0.788693 -0.096517
0.499605 0.789146 -0.096885
0.503712 0.789202 -0.097201
0.508401 0.791662 -0.097862
0.513307 0.794884 -0.098636
0.516259 0.790056 -0.098272
0.520069 0.788777 -0.098414
0.523969 0.787856 -0.098611
0.529346 0.792555 -0.099616
0.533245 0.791518 -0.099804
0.537798 0.792879 -0.100340
0.544600 0.802254 -0.102040
0.548587 0.801297 -0.102253
0.547819 0.783801 -0.100064
0.555385 0.795338 -0.102098
0.560514 0.798263 -0.102886
0.565569 0.800800 -0.103623
0.570209 0.801866 -0.104149
0.574521 0.801808 -0.104514
0.577679 0.798080 -0.104339
0.580402 0.793080 -0.103976
0.584266 0.791671 -0.104146
0.588593 0.791650 -0.104526
0.592799 0.791232 -0.104850
0.596162 0.788329 -0.104803
0.605595 0.802864 -0.107386
0.608765 0.799245 -0.107240
0.610418 0.791470 -0.106464
0.616194 0.795180 -0.107432
0.620090 0.793660 -0.107608
0.624323 0.793036 -0.107924
0.628779 0.792975 -0.108328
0.632335 0.790538 -0.108370
0.639718 0.797904 -0.109929
0.649811 0.811854 -0.112520
0.656249 0.816301 -0.113649
0.657382 0.807568 -0.112728
0.662166 0.807861 -0.113216
0.667705 0.809904 -0.113983
0.667880 0.799201 -0.112745
0.670396 0.794177 -0.112398
0.676030 0.796405 -0.113200
0.679930 0.794596 -0.113366
0.687301 0.800570 -0.114777
0.693368 0.803466 -0.115705
0.696663 0.800184 -0.115645
0.701070 0.799341 -0.115979
0.706663 0.801003 -0.116722
0.711529 0.801050 -0.117208
0.716933 0.802171 -0.117873
0.726108 0.810983 -0.119803
0.731513 0.811876 -0.120445
0.734350 0.807539 -0.120230
0.738431 0.805732 -0.120433
0.742660 0.804209 -0.120685
0.746193 0.801327 -0.120713
0.751935 0.802703 -0.121454
0.758207 0.805011 -0.122358
0.766450 0.810920 -0.123876
0.772745 0.813037 -0.124764
0.783696 0.823605 -0.127095
0.791187 0.827617 -0.128326
0.796388 0.827380 -0.128841
0.796614 0.818268 -0.127837
0.801047 0.816694 -0.128125
0.807346 0.818349 -0.128975
0.808768 0.811537 -0.128362
0.814487 0.812130 -0.129037
0.819712 0.811831 -0.129562
0.824918 0.811460 -0.130079
0.829638 0.810245 -0.130453
0.834723 0.809603 -0.130933
0.844134 0.815907 -0.132652
0.850709 0.817501 -0.133547
0.854947 0.815316 -0.133773
0.859573 0.813734 -0.134111
0.865305 0.813846 -0.134759
0.870819 0.813569 -0.135345
0.877080 0.814380 -0.136134
0.883475 0.815322 -0.136957
0.890668 0.817380 -0.137993
0.897503 0.818817 -0.138926
0.903483 0.818923 -0.139623
0.908520 0.817611 -0.140064
0.919322 0.824511 -0.142045
0.925111 0.824122 -0.142679
0.927655 0.819136 -0.142456
0.930492 0.814595 -0.142317
0.940333 0.819711 -0.144016
0.946635 0.819851 -0.144783
0.953961 0.821310 -0.145812
0.959729 0.820600 -0.146437
0.963870 0.817690 -0.146645
0.974041 0.822669 -0.148392
0.980716 0.822955 -0.149243
0.987095 0.822792 -0.150017
0.993233 0.822261 -0.150730
0.999695 0.822080 -0.151524
1.008258 0.824459 -0.152838
1.016018 0.825731 -0.153948
1.022293 0.825092 -0.154690
1.028185 0.823930 -0.155337
1.035342 0.824239 -0.156295
1.042945 0.825000 -0.157358
1.047985 0.822652 -0.157800
1.058905 0.827138 -0.159661
1.063665 0.824342 -0.160036
1.074252 0.828195 -0.161805
1.082255 0.828967 -0.162953
1.088825 0.828035 -0.163759
1.094373 0.825904 -0.164325
1.104774 0.829080 -0.166033
1.112826 0.829551 -0.167185
1.120188 0.829185 -0.168175
1.128515 0.829774 -0.169387
1.138734 0.832275 -0.171035
1.146165 0.831713 -0.172035
1.155066 0.832606 -0.173371
1.163539 0.832955 -0.174606
1.172832 0.834046 -0.176026
1.179574 0.832448 -0.176862
1.186287 0.830763 -0.177691
1.198618 0.834598 -0.179788
1.205698 0.833111 -0.180695
1.212907 0.831690 -0.181629
1.222954 0.832946 -0.183196
1.231490 0.832649 -0.184419
1.244990 0.836967 -0.186739
1.253032 0.836007 -0.187841
1.257804 0.831948 -0.188217
1.267978 0.832852 -0.189778
1.283440 0.838473 -0.192489
1.292506 0.838146 -0.193786
1.300877 0.837134 -0.194923
1.313645 0.839961 -0.197005
1.328546 0.844539 -0.199533
1.335638 0.842196 -0.200358
1.344628 0.841474 -0.201581
1.357248 0.843806 -0.203568
1.366887 0.843537 -0.204899
1.374179 0.841275 -0.205714
1.387985 0.844415 -0.207896
1.399870 0.845897 -0.209648
1.409451 0.845463 -0.210891
1.419381 0.845307 -0.212187
1.430801 0.846340 -0.213772
1.439459 0.845174 -0.214756
1.452456 0.847440 -0.216620
1.463125 0.847875 -0.217971
1.475073 0.849313 -0.219560
1.484098 0.848525 -0.220519
1.491617 0.846649 -0.221144
1.498347 0.844254 -0.221584
1.509183 0.845003 -0.222836
1.520116 0.845865 -0.224079
0.228352 0.768134 -0.082352
0.231494 0.767111 -0.082596
0.234651 0.766489 -0.082876
0.237568 0.769247 -0.083575
0.240647 0.770973 -0.084130
0.243102 0.781540 -0.085811
0.246800 0.777271 -0.085572
0.250705 0.770301 -0.084967
0.254195 0.769514 -0.085146
0.257680 0.769456 -0.085407
0.261183 0.769899 -0.085721
0.264569 0.773405 -0.086423
0.268135 0.774717 -0.086829
0.271464 0.782525 -0.088078
0.275579 0.773213 -0.087069
0.279385 0.771244 -0.087014
0.283033 0.774840 -0.087683
0.286665 0.781372 -0.088735
0.290546 0.780277 -0.088772
0.294507 0.775116 -0.088263
0.298339 0.778275 -0.088851
0.302180 0.786713 -0.090138
0.306136 0.787818 -0.090448
0.310089 0.777462 -0.089225
0.314022 0.776671 -0.089273
0.317996 0.779254 -0.089771
0.322053 0.784906 -0.090679
0.326093 0.786921 -0.091101
0.330300 0.794414 -0.092259
0.334446 0.797473 -0.092824
0.337858 0.779113 -0.090505
0.341843 0.779221 -0.090672
0.345921 0.781312 -0.091109
0.349883 0.780690 -0.091181
0.353855 0.780377 -0.091297
0.357829 0.780172 -0.091430
0.361713 0.778612 -0.091382
0.365761 0.779660 -0.091691
0.369923 0.782122 -0.092197
0.373961 0.782745 -0.092456
0.377831 0.781308 -0.092437
0.381828 0.781493 -0.092644
0.385979 0.783318 -0.093080
0.390445 0.788193 -0.093939
0.395058 0.794063 -0.094942
0.398939 0.792617 -0.094943
0.402052 0.784490 -0.094026
0.405941 0.783647 -0.094117
0.410238 0.786213 -0.094684
0.414284 0.786610 -0.094956
0.418223 0.786165 -0.095115
0.422109 0.785366 -0.095229
0.425714 0.782617 -0.095075
0.429589 0.781892 -0.095207
0.434088 0.785346 -0.095929
0.437699 0.782865 -0.095824
0.441428 0.781255 -0.095844
0.445821 0.783745 -0.096446
0.450263 0.786360 -0.097072
0.454758 0.789123 -0.097725
0.458291 0.786353 -0.097599
0.462102 0.785218 -0.097707
0.466211 0.785692 -0.098049
0.470289 0.785953 -0.098365
0.474606 0.787379 -0.098853
0.480077 0.794376 -0.100146
0.485162 0.799165 -0.101130
0.488039 0.793364 -0.100593
0.490877 0.787608 -0.100062
0.495049 0.788052 -0.100431
0.499241 0.788531 -0.100810
0.503495 0.789219 -0.101224
0.507273 0.787846 -0.101340
0.511791 0.789544 -0.101910
0.517256 0.794957 -0.103032
0.520897 0.792905 -0.103061
0.525104 0.793089 -0.103423
0.527608 0.786744 -0.102821
0.531986 0.787601 -0.103289
0.536037 0.787187 -0.103571
0.544532 0.802768 -0.106247
0.548872 0.803045 -0.106647
0.552786 0.801792 -0.106821
0.555329 0.795851 -0.106290
0.558742 0.792996 -0.106225
0.563217 0.793703 -0.106701
0.568289 0.796289 -0.107467
0.573089 0.797879 -0.108087
0.577401 0.797837 -0.108462
0.580268 0.793283 -0.108149
0.584341 0.792504 -0.108416
0.588810 0.792896 -0.108867
0.592685 0.791477 -0.109041
0.596914 0.791090 -0.109378
0.604133 0.799242 -0.111047
0.611447 0.807379 -0.112726
0.616248 0.808242 -0.113276
0.618016 0.800714 -0.112511
0.620804 0.796118 -0.112205
0.624629 0.794373 -0.112349
0.628743 0.793389 -0.112615
