ply
format ascii 1.0
comment ---
element vertex 1734
property float x
property float y
property float z
element face 0
property list uchar uint vertex_indices
end_header
-0.398247 0.795220 0.157649
-0.395315 0.796884 0.158199
-0.390865 0.795581 0.157957
-0.387011 0.795527 0.158014
-0.381307 0.791721 0.157076
-0.379452 0.795908 0.158178
-0.376696 0.798345 0.158804
-0.370780 0.794164 0.157697
-0.367683 0.796009 0.158123
-0.364647 0.798075 0.158582
-0.361312 0.799576 0.158874
-0.358178 0.801602 0.159279
-0.353874 0.801083 0.159006
-0.349596 0.800647 0.158735
-0.345905 0.801586 0.158799
-0.342255 0.802675 0.158883
-0.338313 0.803127 0.158785
-0.333255 0.800940 0.157995
-0.329030 0.800735 0.157698
-0.325200 0.801511 0.157639
-0.321295 0.802132 0.157527
-0.317474 0.802987 0.157463
-0.313620 0.803787 0.157373
-0.309445 0.803778 0.157068
-0.304955 0.802937 0.156543
-0.301072 0.803684 0.156414
-0.296785 0.803348 0.156004
-0.292509 0.803024 0.155592
-0.288408 0.803158 0.155292
-0.284564 0.804005 0.155168
-0.280949 0.805516 0.155207
-0.276772 0.805411 0.154838
-0.272672 0.805504 0.154517
-0.268365 0.804949 0.154035
-0.264350 0.805241 0.153764
-0.260412 0.805743 0.153547
-0.256187 0.805327 0.153103
-0.252293 0.805923 0.152912
-0.248890 0.808105 0.153117
-0.245426 0.810117 0.153282
-0.241203 0.809599 0.152823
-0.236601 0.807720 0.152033
-0.232378 0.807058 0.151548
-0.228419 0.807270 0.151284
-0.225106 0.809789 0.151590
-0.221492 0.811246 0.151640
-0.217289 0.810495 0.151153
-0.213117 0.809791 0.150684
-0.208895 0.808814 0.150155
-0.205242 0.810030 0.150166
-0.201549 0.811083 0.150144
-0.197129 0.809108 0.149391
-0.192956 0.808049 0.148867
-0.189064 0.808122 0.148625
-0.184992 0.807355 0.148186
-0.181626 0.809703 0.148506
-0.178720 0.814250 0.149362
-0.174994 0.815069 0.149323
-0.170548 0.812377 0.148445
-0.166473 0.811358 0.147977
-0.163280 0.814739 0.148573
-0.160629 0.821087 0.149885
-0.157410 0.824667 0.150537
-0.152978 0.821703 0.149627
-0.148068 0.815821 0.148027
-0.144877 0.819572 0.148738
-0.141305 0.821215 0.148950
-0.138202 0.825801 0.149869
-0.133722 0.821863 0.148762
-0.129780 0.821166 0.148434
-0.125473 0.817897 0.147501
-0.121805 0.818848 0.147578
-0.119872 0.832379 0.150648
-0.115131 0.825764 0.148939
-0.110096 0.816335 0.146571
-0.105789 0.812011 0.145422
-0.102054 0.812108 0.145326
-0.099256 0.820369 0.147169
-0.095783 0.823134 0.147715
-0.091377 0.817209 0.146212
-0.087464 0.815601 0.145736
-0.083774 0.816129 0.145770
-0.079811 0.813666 0.145104
-0.076121 0.814051 0.145116
-0.072514 0.815474 0.145378
-0.068850 0.816284 0.145501
-0.065131 0.816381 0.145461
-0.061308 0.814907 0.145056
-0.057915 0.820064 0.146220
-0.054512 0.825826 0.147530
-0.050267 0.816715 0.145343
-0.046787 0.821582 0.146453
-0.042970 0.819761 0.145994
-0.039263 0.820300 0.146096
-0.035496 0.819151 0.145806
-0.031682 0.816075 0.145068
-0.028011 0.817475 0.145389
-0.024256 0.815352 0.144885
-0.020522 0.813339 0.144414
-0.016693 0.800872 0.141487
-0.013112 0.809071 0.143429
-0.009462 0.821656 0.146409
-0.005714 0.827352 0.147773
-0.001946 0.828738 0.148129
0.001832 0.829869 0.148430
0.005592 0.829203 0.148313
0.009282 0.825539 0.147496
0.013039 0.825708 0.147587
0.016670 0.821678 0.146694
0.020457 0.823047 0.147079
0.024203 0.823059 0.147150
0.027966 0.823375 0.147298
0.031421 0.817389 0.145964
0.035422 0.822420 0.147236
0.039163 0.822222 0.147280
0.042832 0.820856 0.147054
0.046426 0.818554 0.146612
0.050263 0.819806 0.147016
0.054164 0.821696 0.147577
0.057955 0.821980 0.147764
0.061892 0.823865 0.148337
0.065213 0.818813 0.147271
0.069218 0.821270 0.147992
0.073572 0.826898 0.149473
0.077549 0.828420 0.149986
0.081637 0.830772 0.150704
0.084986 0.826486 0.149847
0.088656 0.825159 0.149700
0.092634 0.826349 0.150159
0.096160 0.823918 0.149760
0.099368 0.819263 0.148835
0.103147 0.818963 0.148956
0.108399 0.828829 0.151518
0.112668 0.831432 0.152350
0.117175 0.835363 0.153508
0.122515 0.844254 0.155866
0.124899 0.834517 0.153752
0.129407 0.837887 0.154797
0.133462 0.838412 0.155164
0.136261 0.831819 0.153817
0.138215 0.820918 0.151429
0.142317 0.821961 0.151933
0.147323 0.827585 0.153553
0.152238 0.832430 0.154993
0.156507 0.833814 0.155600
0.158485 0.824059 0.153499
0.162094 0.822389 0.153367
0.166674 0.825214 0.154336
0.170132 0.822836 0.154038
0.173963 0.822162 0.154159
0.178842 0.825989 0.155385
0.182580 0.824822 0.155390
0.188113 0.831066 0.157219
0.193389 0.835993 0.158729
0.196935 0.833847 0.158499
0.198632 0.824588 0.156509
0.201614 0.820551 0.155803
0.205957 0.821727 0.156385
0.210899 0.825043 0.157497
0.214160 0.822171 0.157071
0.217414 0.819368 0.156655
0.221703 0.820253 0.157151
0.226947 0.824359 0.158447
0.230733 0.823438 0.158482
0.233698 0.819844 0.157839
0.236222 0.814944 0.156859
0.240815 0.816817 0.157565
0.245903 0.820202 0.158640
0.250115 0.820792 0.159003
0.254084 0.820648 0.159168
0.259255 0.824143 0.160236
0.263261 0.824122 0.160404
0.266970 0.823275 0.160347
0.271838 0.825817 0.161128
0.275274 0.824282 0.160862
0.278402 0.821975 0.160382
0.282709 0.823031 0.160731
0.287184 0.824569 0.161181
0.290306 0.822501 0.160698
0.293235 0.820035 0.160093
0.296080 0.817476 0.159440
0.306513 0.834637 0.163754
0.304419 0.819504 0.159875
0.308851 0.821249 0.160241
0.311797 0.819327 0.159656
0.315443 0.819249 0.159514
0.320285 0.822160 0.160101
0.326864 0.829273 0.161722
0.330794 0.830001 0.161708
0.332333 0.825158 0.160266
0.334851 0.822782 0.159424
0.338292 0.822668 0.159127
0.342918 0.825348 0.159507
0.346892 0.826585 0.159501
-0.419998 0.787389 0.150710
-0.417714 0.789693 0.151559
-0.415337 0.791927 0.152369
-0.413915 0.796091 0.153643
-0.410231 0.796049 0.153832
-0.405293 0.793637 0.153396
-0.401982 0.794435 0.153747
-0.399457 0.796871 0.154489
-0.395940 0.797437 0.154731
-0.391047 0.795301 0.154264
-0.385533 0.791918 0.153455
-0.381364 0.791293 0.153321
-0.380019 0.796592 0.154665
-0.376353 0.797177 0.154789
-0.372785 0.798034 0.154958
-0.368781 0.798026 0.154885
-0.365354 0.799320 0.155119
-0.361824 0.800459 0.155292
-0.358101 0.801238 0.155352
-0.353417 0.799910 0.154858
-0.348863 0.798882 0.154422
-0.345913 0.801558 0.154903
-0.342843 0.804048 0.155318
-0.339036 0.804880 0.155297
-0.333991 0.802791 0.154527
-0.328913 0.800583 0.153714
-0.324948 0.801064 0.153563
-0.321492 0.802833 0.153723
-0.317817 0.804104 0.153746
-0.313968 0.804962 0.153656
-0.309439 0.804080 0.153123
-0.305081 0.803618 0.152687
-0.300646 0.802929 0.152189
-0.296996 0.804329 0.152205
-0.292649 0.803843 0.151748
-0.288407 0.803616 0.151352
-0.284688 0.804839 0.151311
-0.280720 0.805363 0.151095
-0.276143 0.804101 0.150438
-0.272267 0.804847 0.150275
-0.268550 0.806063 0.150228
-0.263784 0.804082 0.149398
-0.260406 0.806311 0.149599
-0.256421 0.806662 0.149344
-0.252219 0.806294 0.148916
-0.248205 0.806487 0.148627
-0.244139 0.806472 0.148292
-0.240227 0.806939 0.148077
-0.236374 0.807581 0.147908
-0.232370 0.807676 0.147612
-0.228701 0.808924 0.147598
-0.225167 0.810665 0.147707
-0.220754 0.809174 0.147045
-0.216795 0.809292 0.146774
-0.212536 0.808218 0.146224
-0.208849 0.809293 0.146194
-0.205269 0.810797 0.146272
-0.201503 0.811553 0.146177
-0.197359 0.810722 0.145710
-0.193016 0.808962 0.145029
-0.189128 0.809057 0.144796
-0.185467 0.810113 0.144796
-0.181118 0.808050 0.144065
-0.177571 0.809568 0.144187
-0.174648 0.814074 0.145019
-0.171352 0.816933 0.145467
-0.167189 0.815568 0.144926
-0.162483 0.811310 0.143712
-0.158491 0.810526 0.143323
-0.154331 0.808752 0.142708
-0.151284 0.812987 0.143508
-0.149216 0.822957 0.145654
-0.145593 0.824374 0.145802
-0.141736 0.824421 0.145636
-0.137489 0.822018 0.144904
-0.134376 0.826643 0.145818
-0.131122 0.830585 0.146577
-0.124558 0.812297 0.142167
-0.121836 0.819661 0.143735
-0.118411 0.822390 0.144230
-0.115554 0.829539 0.145756
-0.110827 0.822607 0.144017
-0.106085 0.814976 0.142125
-0.102324 0.814946 0.142002
-0.098689 0.815969 0.142129
-0.095440 0.820563 0.143088
-0.091449 0.818444 0.142498
-0.087780 0.819311 0.142605
-0.083814 0.817097 0.142005
-0.079938 0.815595 0.141575
-0.076080 0.814105 0.141154
-0.072488 0.815673 0.141444
-0.068807 0.816233 0.141507
-0.065078 0.816155 0.141429
-0.061453 0.817567 0.141699
-0.057972 0.821465 0.142547
-0.054252 0.821809 0.142581
-0.050584 0.823139 0.142848
-0.046680 0.819829 0.142050
-0.042821 0.816804 0.141323
-0.039079 0.815988 0.141111
-0.035328 0.814651 0.140785
-0.031682 0.816406 0.141175
-0.028068 0.820035 0.142003
-0.024400 0.822634 0.142598
-0.020536 0.814252 0.140670
-0.016905 0.819934 0.141985
-0.013187 0.820056 0.142026
-0.009477 0.826181 0.143455
-0.005728 0.826216 0.143486
-0.002000 0.823488 0.142887
0.001710 0.821228 0.142399
0.005444 0.821656 0.142537
0.009099 0.818120 0.141767
0.012952 0.823396 0.143033
0.016778 0.826110 0.143715
0.020428 0.823145 0.143092
0.024268 0.825533 0.143710
0.028095 0.827105 0.144145
0.031546 0.820741 0.142753
0.035386 0.822600 0.143266
0.039118 0.822279 0.143281
0.042833 0.821690 0.143239
0.046577 0.821567 0.143311
0.050369 0.822062 0.143531
0.054018 0.820610 0.143307
0.057713 0.819840 0.143246
0.061602 0.821330 0.143715
0.065961 0.827737 0.145332
0.069707 0.827123 0.145326
0.073266 0.824672 0.144898
0.076814 0.822289 0.144492
0.080656 0.822717 0.144745
0.084485 0.822942 0.144958
0.088482 0.824504 0.145488
0.092348 0.824845 0.145740
0.096250 0.825399 0.146049
0.099324 0.819707 0.144902
0.103528 0.822469 0.145739
0.107714 0.824871 0.146499
0.112168 0.828866 0.147640
0.116144 0.829454 0.147989
0.120381 0.831603 0.148711
0.122926 0.823240 0.146965
0.127207 0.825611 0.147751
0.131502 0.827882 0.148521
0.133793 0.818742 0.146600
0.135917 0.809121 0.144565
0.140149 0.811174 0.145297
0.145551 0.819150 0.147442
0.150820 0.826007 0.149332
0.155265 0.828425 0.150174
0.158421 0.824480 0.149505
0.161917 0.822271 0.149253
0.166827 0.826621 0.150571
0.170289 0.824233 0.150284
0.174412 0.824812 0.150709
0.179540 0.829659 0.152163
0.182767 0.826257 0.151639
0.186422 0.824727 0.151566
0.193561 0.837310 0.154899
0.196835 0.834051 0.154414
0.198787 0.825758 0.152709
0.203174 0.827035 0.153317
0.211265 0.842079 0.157266
0.214346 0.838175 0.156619
0.215438 0.827233 0.154254
0.218442 0.823432 0.153618
0.224533 0.830478 0.155624
0.230261 0.836035 0.157266
0.230163 0.821850 0.154071
0.237354 0.832188 0.156874
0.245760 0.846131 0.160560
0.250098 0.846649 0.160945
0.245828 0.820116 0.154662
0.247749 0.813579 0.153279
0.252587 0.816143 0.154126
0.258252 0.821136 0.155561
0.266227 0.832835 0.158643
0.269314 0.829994 0.158116
0.271806 0.825566 0.157178
0.274775 0.822655 0.156597
0.277779 0.819968 0.156052
0.281362 0.818995 0.155913
0.287502 0.825047 0.157496
0.290171 0.821694 0.156724
0.293503 0.820241 0.156403
0.300572 0.828650 0.158508
0.301958 0.822259 0.156914
0.310771 0.835015 0.160052
0.314740 0.835345 0.160080
0.316212 0.829527 0.158558
0.316906 0.822005 0.156590
0.322567 0.826814 0.157656
0.326082 0.826431 0.157409
0.331591 0.830885 0.158335
0.333723 0.827373 0.157266
0.337584 0.828047 0.157207
0.342016 0.830109 0.157466
0.345115 0.829167 0.156960
0.342804 0.816093 0.153449
-0.421552 0.789273 0.147745
-0.418353 0.789924 0.148157
-0.416089 0.792422 0.149003
-0.412758 0.793002 0.149350
-0.408899 0.792646 0.149440
-0.405926 0.794071 0.149948
-0.402755 0.795200 0.150357
-0.399731 0.796709 0.150836
-0.395725 0.796353 0.150827
-0.392073 0.796766 0.150983
-0.387249 0.794862 0.150537
-0.383786 0.795779 0.150769
-0.379463 0.794983 0.150551
-0.376077 0.796193 0.150807
-0.372850 0.797822 0.151145
-0.369485 0.799239 0.151406
-0.365514 0.799416 0.151337
-0.361665 0.799911 0.151325
-0.357564 0.799893 0.151165
-0.353355 0.799670 0.150935
-0.348986 0.799108 0.150602
-0.345504 0.800609 0.150762
-0.343232 0.804993 0.151617
-0.338948 0.804755 0.151313
-0.333427 0.801565 0.150268
-0.329489 0.802147 0.150139
-0.325408 0.802400 0.149917
-0.320656 0.800995 0.149278
-0.317670 0.804012 0.149713
-0.313145 0.803171 0.149193
-0.308844 0.802883 0.148801
-0.304936 0.803612 0.148651
-0.301090 0.804514 0.148537
-0.297144 0.805160 0.148355
-0.293067 0.805443 0.148081
-0.288688 0.804875 0.147598
-0.284179 0.803896 0.147015
-0.280137 0.804205 0.146742
-0.275870 0.803837 0.146305
-0.272397 0.805782 0.146425
-0.268128 0.805357 0.145976
-0.264435 0.806648 0.145939
-0.260057 0.805816 0.145397
-0.256250 0.806724 0.145273
-0.251906 0.805896 0.144738
-0.247991 0.806404 0.144525
-0.243681 0.805574 0.143999
-0.239557 0.805301 0.143609
-0.235810 0.806273 0.143518
-0.232378 0.808342 0.143690
-0.228842 0.810070 0.143786
-0.224509 0.808920 0.143209
-0.220852 0.810183 0.143205
-0.216403 0.808461 0.142506
-0.212443 0.808509 0.142229
-0.208616 0.809031 0.142068
-0.205070 0.810650 0.142169
-0.201453 0.811998 0.142212
-0.197559 0.812200 0.141994
-0.193381 0.811158 0.141493
-0.189520 0.811402 0.141297
-0.185345 0.810211 0.140776
-0.181166 0.808902 0.140234
-0.177380 0.809312 0.140096
-0.174182 0.812487 0.140603
-0.171556 0.818560 0.141782
-0.166655 0.813527 0.140408
-0.162416 0.811582 0.139752
-0.158427 0.810807 0.139373
-0.154713 0.811421 0.139319
-0.151203 0.813145 0.139526
-0.148662 0.820424 0.141009
-0.145262 0.823050 0.141432
-0.140976 0.820461 0.140667
-0.137119 0.820329 0.140471
-0.133898 0.824193 0.141192
-0.130002 0.823822 0.140953
-0.127068 0.829904 0.142189
-0.120623 0.811727 0.137909
-0.117058 0.813145 0.138097
-0.113435 0.814190 0.138205
-0.110660 0.821872 0.139825
-0.106491 0.818815 0.139012
-0.101748 0.810646 0.137047
-0.098877 0.818163 0.138643
-0.095136 0.818331 0.138579
-0.091234 0.816930 0.138165
-0.087689 0.818926 0.138526
-0.083624 0.815628 0.137694
-0.079963 0.816398 0.137788
-0.076175 0.815725 0.137561
-0.072438 0.815575 0.137458
-0.068708 0.815443 0.137364
-0.065038 0.816097 0.137452
-0.061450 0.818014 0.137831
-0.057835 0.819738 0.138171
-0.054067 0.819078 0.137978
-0.050317 0.818569 0.137824
-0.046661 0.819881 0.138086
-0.042810 0.816967 0.137401
-0.039050 0.815641 0.137079
-0.035342 0.815431 0.137014
-0.031659 0.815982 0.137125
-0.028001 0.817667 0.137497
-0.024312 0.818549 0.137692
-0.020639 0.820963 0.138238
-0.016925 0.821589 0.138387
-0.013216 0.824091 0.138963
-0.009485 0.826854 0.139604
-0.005757 0.819777 0.138031
-0.002108 0.810869 0.136051
0.001645 0.817219 0.137516
0.005293 0.813806 0.136784
0.008958 0.812592 0.136554
0.012803 0.818624 0.137963
0.016849 0.829300 0.140427
0.020571 0.828034 0.140202
0.024402 0.829700 0.140644
0.028085 0.827702 0.140263
0.031944 0.829576 0.140764
0.035589 0.827129 0.140292
0.039079 0.822400 0.139310
0.042698 0.820336 0.138935
0.046376 0.819389 0.138819
0.050200 0.820515 0.139178
0.053918 0.820085 0.139190
0.057552 0.818646 0.138979
0.061991 0.826558 0.140896
0.066130 0.830334 0.141881
0.069882 0.829689 0.141869
0.073013 0.822929 0.140471
0.076521 0.820280 0.140013
0.080398 0.821142 0.140360
0.084125 0.820586 0.140390
0.087978 0.821066 0.140662
0.092434 0.826296 0.142026
0.096078 0.824827 0.141866
0.099576 0.822334 0.141478
0.103059 0.819861 0.141098
0.107395 0.823416 0.142107
0.110606 0.819142 0.141325
0.114117 0.817037 0.141046
0.117722 0.815605 0.140927
0.122158 0.819296 0.141994
0.125273 0.814871 0.141196
0.129455 0.816816 0.141874
0.131611 0.807226 0.139889
0.135032 0.805013 0.139614
0.141058 0.816747 0.142578
0.145496 0.819597 0.143491
0.149157 0.818325 0.143452
0.154014 0.822978 0.144799
0.158326 0.824738 0.145478
0.162071 0.823705 0.145511
0.166516 0.825895 0.146301
0.170350 0.825196 0.146421
0.173171 0.820032 0.145496
0.177838 0.823003 0.146483
0.181090 0.819843 0.146032
0.186009 0.823660 0.147226
0.190992 0.827551 0.148442
0.195408 0.829005 0.149087
0.198492 0.825195 0.148488
0.203583 0.829154 0.149729
0.210105 0.838291 0.152203
0.214282 0.838459 0.152549
0.214508 0.824367 0.149493
0.218977 0.825779 0.150127
0.224617 0.831193 0.151715
0.225753 0.821030 0.149572
0.230185 0.822273 0.150153
0.236010 0.828068 0.151822
0.245059 0.844140 0.155959
0.246272 0.834671 0.153947
0.243056 0.811594 0.148638
0.246850 0.810940 0.148719
0.250305 0.809289 0.148548
0.254552 0.810088 0.148956
0.263994 0.826234 0.153069
0.271609 0.836619 0.155779
0.273799 0.831174 0.154635
0.274733 0.822372 0.152656
0.278430 0.821566 0.152599
0.282807 0.822696 0.152995
0.286840 0.822915 0.153150
0.290625 0.822518 0.153134
0.294052 0.821244 0.152883
0.300203 0.827174 0.154366
0.305981 0.832062 0.155572
0.306169 0.822663 0.153273
0.312281 0.828466 0.154655
0.320443 0.839302 0.157238
0.321976 0.833671 0.155785
0.317390 0.813379 0.150742
0.314755 0.798301 0.146949
0.323452 0.810571 0.149780
0.329176 0.815665 0.150841
0.329795 0.808853 0.148989
0.338943 0.821912 0.151928
0.348609 0.835974 0.155078
-0.427870 0.793423 0.145030
-0.423197 0.791353 0.144785
-0.420002 0.792079 0.145194
-0.416040 0.791443 0.145248
-0.412883 0.792395 0.145663
-0.410481 0.794885 0.146429
-0.406998 0.795393 0.146687
-0.403960 0.796850 0.147151
-0.400503 0.797573 0.147411
-0.397071 0.798427 0.147678
-0.393205 0.798485 0.147725
-0.389231 0.798386 0.147709
-0.384096 0.795955 0.147099
-0.380547 0.796827 0.147272
-0.376729 0.797205 0.147300
-0.373410 0.798704 0.147578
-0.369851 0.799767 0.147726
-0.366145 0.800581 0.147793
-0.361550 0.799500 0.147377
-0.357733 0.800160 0.147364
-0.353593 0.800145 0.147169
-0.350586 0.802738 0.147588
-0.347298 0.804776 0.147854
-0.341446 0.800899 0.146672
-0.337379 0.801165 0.146478
-0.334304 0.803825 0.146849
-0.330750 0.805405 0.146945
-0.326028 0.804160 0.146350
-0.321524 0.803428 0.145868
-0.317325 0.803446 0.145558
-0.313024 0.803198 0.145176
-0.308802 0.803140 0.144833
-0.304892 0.803890 0.144677
-0.301035 0.804790 0.144552
-0.297134 0.805577 0.144395
-0.292935 0.805551 0.144042
-0.288427 0.804637 0.143477
-0.284117 0.804229 0.143031
-0.279700 0.803474 0.142503
-0.276176 0.805273 0.142577
-0.272653 0.807095 0.142656
-0.268947 0.808395 0.142613
-0.264256 0.806683 0.141866
-0.260491 0.807757 0.141774
-0.255858 0.806082 0.141044
-0.252125 0.807208 0.140970
-0.248257 0.807887 0.140796
-0.244000 0.807255 0.140321
-0.239706 0.806429 0.139807
-0.235916 0.807267 0.139683
-0.232507 0.809425 0.139868
-0.228750 0.810376 0.139779
-0.224926 0.811074 0.139636
-0.220326 0.808873 0.138834
-0.216533 0.809589 0.138707
-0.212526 0.809463 0.138394
-0.208614 0.809656 0.138159
-0.204883 0.810535 0.138087
-0.201340 0.812170 0.138193
-0.197530 0.812712 0.138056
-0.193607 0.812752 0.137811
-0.189625 0.812485 0.137502
-0.185827 0.812978 0.137372
-0.181361 0.810404 0.136555
-0.177796 0.811861 0.136656
-0.174978 0.816891 0.137569
-0.170835 0.815659 0.137074
-0.166525 0.813488 0.136375
-0.162225 0.811208 0.135659
-0.158585 0.812233 0.135693
-0.155039 0.813767 0.135846
-0.151620 0.816044 0.136172
-0.148337 0.819167 0.136691
-0.144201 0.817443 0.136132
-0.141262 0.822764 0.137154
-0.137758 0.824862 0.137459
-0.133560 0.822613 0.136801
-0.129423 0.820585 0.136198
-0.125149 0.817442 0.135354
-0.120760 0.813246 0.134282
-0.115895 0.805254 0.132373
-0.112917 0.810839 0.133489
-0.109679 0.814767 0.134241
-0.105801 0.813772 0.133906
-0.102042 0.813652 0.133769
-0.098179 0.812569 0.133425
-0.095823 0.825142 0.136111
-0.091952 0.824315 0.135834
-0.087717 0.819730 0.134730
-0.083738 0.817333 0.134116
-0.080191 0.819424 0.134500
-0.076343 0.818186 0.134154
-0.072433 0.816005 0.133604
-0.068613 0.814684 0.133250
-0.064880 0.814369 0.133123
-0.061292 0.816124 0.133458
-0.057795 0.819570 0.134171
-0.053815 0.815162 0.133156
-0.050088 0.814709 0.133019
-0.046576 0.818550 0.133833
-0.042830 0.817843 0.133650
-0.039076 0.816709 0.133378
-0.035370 0.816627 0.133342
-0.031709 0.817986 0.133629
-0.027895 0.813736 0.132685
-0.024296 0.817996 0.133621
-0.020624 0.820145 0.134097
-0.016893 0.818725 0.133791
-0.013187 0.818999 0.133864
-0.009470 0.814782 0.132952
-0.005789 0.811723 0.132300
-0.002142 0.807835 0.131470
0.001526 0.808600 0.131671
0.005237 0.811447 0.132336
0.008927 0.812049 0.132511
0.012862 0.821729 0.134695
0.016804 0.828686 0.136284
0.020386 0.823628 0.135226
0.024052 0.821786 0.134883
0.028145 0.829805 0.136724
0.031886 0.829155 0.136655
0.035524 0.826672 0.136186
0.038968 0.821253 0.135073
0.042672 0.820670 0.135035
0.046365 0.819965 0.134975
0.050054 0.819242 0.134916
0.053795 0.819233 0.135021
0.057603 0.819993 0.135302
0.061645 0.823307 0.136157
0.065633 0.825652 0.136802
0.069197 0.823323 0.136416
0.072711 0.820676 0.135963
0.076341 0.819304 0.135799
0.080061 0.818821 0.135839
0.083896 0.819323 0.136104
0.087770 0.820069 0.136430
0.092412 0.826851 0.138112
0.096170 0.826268 0.138155
0.098842 0.817605 0.136394
0.102709 0.818071 0.136682
0.106998 0.821389 0.137616
0.110077 0.816313 0.136672
0.113393 0.813051 0.136139
0.117377 0.814152 0.136593
0.121424 0.815527 0.137116
0.125041 0.814220 0.137041
0.127936 0.808762 0.136032
0.133166 0.816686 0.138054
0.137373 0.818539 0.138711
0.144595 0.836321 0.142990
0.147559 0.831031 0.142043
0.150613 0.826414 0.141251
0.155792 0.832481 0.142896
0.158705 0.827275 0.141978
0.162239 0.825195 0.141776
0.165636 0.822537 0.141445
0.169604 0.822528 0.141723
0.173810 0.823520 0.142237
0.178425 0.826196 0.143141
0.182492 0.826409 0.143484
0.186654 0.826965 0.143910
0.190997 0.828197 0.144494
0.194446 0.825798 0.144242
0.197876 0.823391 0.143987
0.202388 0.825171 0.144704
0.207228 0.828086 0.145687
0.210348 0.824547 0.145168
0.214638 0.825338 0.145656
0.216583 0.817778 0.144191
0.221147 0.819575 0.144908
0.223292 0.813032 0.143668
0.227852 0.814816 0.144374
0.233333 0.819576 0.145776
0.233360 0.806462 0.142966
0.234667 0.797870 0.141206
0.240160 0.802713 0.142605
0.243942 0.802121 0.142713
0.249429 0.806756 0.144048
0.253076 0.805749 0.144037
0.259311 0.812438 0.145839
0.269949 0.831774 0.150637
0.275774 0.836777 0.152020
0.276763 0.827995 0.150106
0.279823 0.825276 0.149617
0.283769 0.825114 0.149718
0.288009 0.825803 0.150003
0.291143 0.823564 0.149569
0.294943 0.823200 0.149561
0.300438 0.827326 0.150605
0.300903 0.818457 0.148521
0.301068 0.809108 0.146300
0.306617 0.813590 0.147360
0.319119 0.835309 0.152515
0.321462 0.831654 0.151582
0.318192 0.814532 0.147410
0.314668 0.797264 0.143183
0.322015 0.806262 0.145200
0.326787 0.809101 0.145722
0.325720 0.798386 0.142993
0.322057 0.782003 0.138898
0.340884 0.809432 0.144941
0.344466 0.809847 0.144765
0.343856 0.801063 0.142392
-0.431182 0.792035 0.140948
-0.428044 0.792766 0.141384
-0.425419 0.794530 0.142043
-0.421407 0.793808 0.142086
-0.418165 0.794596 0.142463
-0.415618 0.796787 0.143151
-0.411942 0.796925 0.143324
-0.408058 0.796730 0.143393
-0.404725 0.797677 0.143708
-0.401609 0.799136 0.144121
-0.397644 0.798997 0.144126
-0.393361 0.798277 0.143967
-0.388344 0.796110 0.143437
-0.385052 0.797503 0.143734
-0.381508 0.798457 0.143902
-0.378141 0.799855 0.144152
-0.374540 0.800838 0.144281
-0.370946 0.801903 0.144406
-0.366356 0.800871 0.144010
-0.362416 0.801285 0.143938
-0.358305 0.801362 0.143766
-0.354549 0.802272 0.143775
-0.349879 0.801151 0.143283
-0.346373 0.802711 0.143411
-0.341583 0.801327 0.142826
-0.337538 0.801691 0.142642
-0.334377 0.804191 0.142949
-0.330540 0.805122 0.142873
-0.326307 0.805110 0.142564
-0.321988 0.804880 0.142195
-0.317447 0.804082 0.141684
-0.313521 0.804830 0.141529
-0.308922 0.803838 0.140961
-0.304853 0.804201 0.140705
-0.300186 0.802960 0.140071
-0.296306 0.803795 0.139918
-0.292562 0.805005 0.139850
-0.288809 0.806202 0.139776
-0.284723 0.806463 0.139484
-0.279881 0.804525 0.138685
-0.275849 0.804864 0.138413
-0.272750 0.807947 0.138773
-0.268620 0.807980 0.138433
-0.264305 0.807414 0.137958
-0.260548 0.808525 0.137870
-0.256443 0.808534 0.137534
-0.252211 0.808088 0.137098
-0.248311 0.808675 0.136901
-0.244385 0.809148 0.136683
-0.240236 0.808841 0.136293
-0.236588 0.810203 0.136286
-0.232496 0.810011 0.135933
-0.228760 0.811039 0.135860
-0.224388 0.809741 0.135269
-0.220330 0.809512 0.134925
-0.216441 0.809866 0.134718
-0.212568 0.810247 0.134523
-0.208659 0.810453 0.134295
-0.204835 0.810964 0.134141
-0.201162 0.812063 0.134124
-0.197024 0.811219 0.133680
-0.193187 0.811572 0.133510
-0.189831 0.813994 0.133804
-0.185348 0.811451 0.133004
-0.181528 0.811766 0.132843
-0.178139 0.814057 0.133126
-0.175050 0.817835 0.133741
-0.171245 0.818255 0.133621
-0.165471 0.808809 0.131336
-0.162254 0.811940 0.131827
-0.158164 0.810601 0.131341
-0.154654 0.812267 0.131520
-0.151686 0.816977 0.132372
-0.146872 0.811413 0.130979
-0.143089 0.811506 0.130831
-0.140570 0.819168 0.132343
-0.136679 0.818741 0.132092
-0.132958 0.819326 0.132068
-0.128489 0.814985 0.130976
-0.123986 0.810081 0.129769
-0.119935 0.807987 0.129180
-0.117014 0.813912 0.130341
-0.112763 0.810205 0.129413
-0.109951 0.817409 0.130859
-0.105636 0.812955 0.129781
-0.102298 0.816325 0.130405
-0.098737 0.817978 0.130661
-0.094247 0.811226 0.129103
-0.091916 0.824476 0.131880
-0.087730 0.820359 0.130903
-0.084106 0.821695 0.131110
-0.080191 0.819912 0.130649
-0.076344 0.818676 0.130311
-0.072357 0.815536 0.129567
-0.068676 0.815985 0.129603
-0.064848 0.814388 0.129203
-0.061181 0.814932 0.129270
-0.057624 0.817280 0.129730
-0.054040 0.819502 0.130168
-0.050204 0.817317 0.129661
-0.046399 0.815319 0.129199
-0.042822 0.818066 0.129764
-0.039074 0.817069 0.129528
-0.035384 0.817412 0.129585
-0.031778 0.820680 0.130277
-0.028084 0.821592 0.130466
-0.024320 0.819443 0.130001
-0.020630 0.820677 0.130270
-0.016897 0.819057 0.129928
-0.013132 0.810024 0.127994
-0.009475 0.814644 0.129006
-0.005799 0.810714 0.128181
-0.002177 0.804471 0.126862
0.001446 0.803073 0.126592
0.005199 0.810079 0.128139
0.009027 0.817549 0.129792
0.012913 0.824509 0.131340
0.016628 0.823745 0.131227
0.020092 0.816107 0.129636
0.023729 0.814485 0.129348
0.027839 0.823715 0.131408
0.031672 0.825553 0.131878
0.035339 0.823976 0.131616
0.038986 0.822257 0.131328
0.042534 0.819197 0.130754
0.046351 0.820442 0.131118
0.050107 0.820648 0.131262
0.053890 0.821138 0.131473
0.057755 0.822527 0.131885
0.061701 0.824646 0.132461
0.065113 0.820678 0.131721
0.068700 0.818863 0.131454
0.072763 0.821879 0.132243
0.076147 0.818166 0.131574
0.079934 0.818366 0.131762
0.083822 0.819380 0.132134
0.087739 0.820505 0.132535
0.092022 0.824428 0.133555
0.095449 0.821416 0.133066
0.098582 0.816375 0.132137
0.102260 0.815546 0.132135
0.106797 0.820697 0.133451
0.110008 0.816556 0.132735
0.113029 0.811382 0.131795
0.116692 0.810530 0.131810
0.120935 0.813239 0.132616
0.125518 0.817762 0.133829
0.130012 0.821471 0.134871
0.132792 0.815285 0.133732
0.138817 0.827154 0.136596
0.144077 0.834279 0.138420
0.147841 0.833214 0.138434
0.151347 0.830845 0.138164
0.155554 0.832010 0.138685
0.158843 0.828642 0.138201
0.161731 0.823493 0.137322
0.166117 0.825440 0.138032
0.169806 0.824116 0.138016
0.174002 0.825039 0.138508
0.178881 0.828827 0.139649
0.184518 0.835617 0.141472
0.188594 0.835630 0.141775
0.191684 0.831609 0.141170
0.193136 0.821212 0.139121
0.197045 0.820750 0.139320
0.200856 0.819902 0.139431
0.204685 0.819126 0.139560
0.209373 0.821503 0.140407
0.212985 0.819888 0.140344
0.217687 0.822173 0.141171
0.220072 0.816295 0.140127
0.224492 0.817564 0.140717
0.228602 0.817734 0.141052
0.230065 0.809144 0.139366
0.232831 0.805070 0.138709
0.235413 0.800539 0.137938
0.239039 0.799440 0.137950
0.244522 0.804126 0.139292
0.250720 0.810855 0.141102
0.255980 0.814582 0.142208
0.259901 0.814259 0.142363
0.267290 0.824063 0.144862
0.275744 0.836669 0.148004
0.277455 0.829879 0.146615
0.279295 0.823678 0.145343
0.283806 0.825034 0.145816
0.288533 0.826985 0.146411
0.291961 0.825457 0.146173
0.294176 0.820823 0.145187
0.301804 0.830477 0.147524
0.302908 0.823155 0.145865
0.312516 0.827832 0.147004
0.312960 0.819371 0.145008
0.317968 0.822378 0.145674
0.323696 0.827137 0.146726
0.322511 0.815291 0.143866
0.323378 0.808652 0.142203
0.326386 0.807259 0.141743
0.325289 0.796449 0.139060
0.323525 0.784411 0.136072
0.325487 0.781173 0.135117
0.344953 0.817501 0.143349
0.343775 0.807165 0.140689
0.346248 0.805178 0.139951
0.347786 0.801265 0.138745
-0.434085 0.789947 0.136706
-0.431597 0.791811 0.137407
-0.428853 0.793309 0.138001
-0.424318 0.791594 0.137821
-0.421874 0.793823 0.138537
-0.419223 0.795771 0.139163
-0.416268 0.797250 0.139655
-0.413142 0.798498 0.140068
-0.408993 0.797860 0.140014
-0.405149 0.797876 0.140087
-0.401965 0.799258 0.140455
-0.397859 0.798895 0.140388
-0.392214 0.795490 0.139584
-0.388633 0.796271 0.139736
-0.385009 0.797037 0.139860
-0.381956 0.799059 0.140255
-0.378593 0.800526 0.140496
-0.374453 0.800425 0.140347
-0.370520 0.800811 0.140291
-0.367104 0.802368 0.140488
-0.363012 0.802513 0.140334
-0.358949 0.802761 0.140186
-0.354592 0.802382 0.139875
-0.349410 0.800140 0.139113
-0.345854 0.801612 0.139201
-0.342631 0.803918 0.139466
-0.338377 0.803854 0.139168
-0.333689 0.802760 0.138621
-0.329997 0.804058 0.138615
-0.326204 0.805144 0.138551
-0.321811 0.804761 0.138139
-0.317568 0.804740 0.137804
-0.312413 0.802370 0.136924
-0.309033 0.804531 0.137078
-0.304887 0.804720 0.136775
-0.300539 0.804354 0.136343
-0.296148 0.803839 0.135876
-0.292487 0.805290 0.135853
-0.288839 0.806794 0.135841
-0.284808 0.807230 0.135586
-0.280511 0.806876 0.135153
-0.275910 0.805592 0.134514
-0.271786 0.805644 0.134177
-0.268347 0.807730 0.134299
-0.264246 0.807812 0.133974
-0.260021 0.807471 0.133559
-0.256170 0.808263 0.133400
-0.251981 0.807947 0.132998
-0.248122 0.808660 0.132830
-0.244069 0.808705 0.132518
-0.239734 0.807748 0.131990
-0.235747 0.807913 0.131716
-0.232677 0.811259 0.132148
-0.228346 0.810173 0.131609
-0.224216 0.809729 0.131217
-0.220244 0.809803 0.130945
-0.216338 0.810086 0.130726
-0.212643 0.811146 0.130682
-0.208712 0.811271 0.130439
-0.204853 0.811643 0.130257
-0.200847 0.811376 0.129942
-0.196879 0.811213 0.129656
-0.192978 0.811280 0.129427
-0.189017 0.811038 0.129137
-0.185159 0.811200 0.128941
-0.180997 0.809935 0.128442
-0.177803 0.813073 0.128901
-0.174731 0.816893 0.129512
-0.170437 0.814887 0.128873
-0.166025 0.812147 0.128083
-0.162327 0.812876 0.128046
-0.157964 0.810104 0.127263
-0.154381 0.811354 0.127350
-0.151069 0.814120 0.127766
-0.147300 0.814388 0.127654
-0.143635 0.815243 0.127672
-0.140036 0.816497 0.127781
-0.136622 0.818927 0.128146
-0.132497 0.816916 0.127570
-0.127909 0.811690 0.126315
-0.123228 0.805449 0.124853
-0.120464 0.812215 0.126162
-0.117504 0.817985 0.127263
-0.114343 0.822607 0.128123
-0.109997 0.818278 0.127090
-0.106069 0.816960 0.126701
-0.102167 0.815713 0.126333
-0.098292 0.814566 0.125992
-0.095589 0.824007 0.127896
-0.090925 0.815486 0.126005
-0.087529 0.818824 0.126627
-0.084071 0.821802 0.127177
-0.080031 0.818608 0.126429
-0.076203 0.817498 0.126126
-0.072412 0.816684 0.125890
-0.068666 0.816309 0.125752
-0.065037 0.817482 0.125946
-0.061239 0.816240 0.125634
-0.057722 0.819306 0.126236
-0.054299 0.824431 0.127276
-0.050517 0.823663 0.127079
-0.046498 0.817787 0.125811
-0.042777 0.817456 0.125716
-0.039087 0.817788 0.125765
-0.035389 0.817944 0.125782
-0.031783 0.821185 0.126452
-0.028181 0.825776 0.127412
-0.024548 0.830897 0.128488
-0.020743 0.828095 0.127901
-0.016853 0.815162 0.125186
-0.013156 0.813609 0.124871
-0.009494 0.823230 0.126913
-0.005775 0.821366 0.126543
-0.002163 0.807597 0.123670
0.001418 0.801750 0.122469
0.005261 0.814597 0.125211
0.009115 0.822411 0.126898
0.012984 0.827952 0.128112
0.016630 0.824539 0.127444
0.020140 0.818128 0.126148
0.023848 0.818124 0.126208
0.027610 0.819277 0.126517
0.031437 0.821470 0.127051
0.035280 0.823547 0.127566
0.039053 0.824054 0.127755
0.042631 0.821370 0.127274
0.046246 0.819553 0.126982
0.050172 0.822201 0.127639
0.053981 0.822966 0.127904
0.057857 0.824415 0.128320
0.061735 0.825687 0.128704
0.064915 0.819165 0.127439
0.068577 0.818243 0.127368
0.072618 0.821104 0.128106
0.076206 0.819376 0.127874
0.079906 0.818768 0.127887
0.083831 0.820117 0.128321
0.087695 0.820808 0.128622
0.091793 0.823266 0.129306
0.095842 0.825120 0.129869
0.099206 0.821689 0.129307
0.102622 0.818827 0.128872
0.106640 0.820290 0.129368
0.110406 0.819908 0.129476
0.112983 0.811754 0.127919
0.116206 0.808135 0.127340
0.121535 0.817599 0.129583
0.126728 0.825658 0.131534
0.130676 0.826005 0.131830
0.133553 0.820254 0.130814
0.137031 0.818057 0.130571
0.142494 0.826526 0.132644
0.146275 0.825762 0.132724
0.151260 0.831097 0.134135
0.155006 0.829990 0.134153
0.158901 0.829611 0.134334
0.162248 0.826616 0.133949
0.165080 0.821333 0.133067
0.169612 0.823911 0.133909
0.173653 0.824163 0.134247
0.178672 0.828583 0.135506
0.184402 0.835779 0.137383
0.188848 0.837326 0.138023
0.191714 0.832361 0.137230
0.194218 0.826120 0.136154
0.197446 0.822911 0.135748
0.201034 0.821163 0.135666
0.204151 0.817683 0.135199
0.206740 0.812365 0.134321
0.214038 0.824212 0.137270
0.215587 0.815232 0.135571
0.222101 0.823830 0.137802
0.226170 0.823748 0.138089
0.228972 0.819395 0.137414
0.230931 0.812391 0.136136
0.235146 0.812944 0.136551
0.237717 0.808217 0.135769
0.241666 0.807977 0.135992
0.245109 0.806182 0.135855
0.252336 0.815981 0.138338
0.256673 0.816820 0.138783
0.260232 0.815350 0.138692
0.266417 0.821592 0.140344
0.272397 0.827085 0.141816
0.276568 0.827339 0.142081
0.279101 0.823051 0.141291
0.283060 0.822844 0.141416
0.287962 0.825242 0.142121
0.291290 0.823415 0.141839
0.294376 0.821046 0.141412
0.304934 0.838271 0.145460
0.307704 0.835077 0.144803
0.310678 0.832548 0.144276
0.305862 0.810590 0.139265
0.313510 0.820145 0.141465
0.318057 0.821946 0.141861
0.323232 0.825303 0.142589
0.325971 0.822826 0.141955
0.326467 0.815170 0.140108
0.328060 0.810331 0.138884
0.325464 0.795963 0.135454
0.325251 0.787445 0.133345
0.332104 0.795236 0.134944
0.337565 0.799823 0.135783
0.339473 0.796491 0.134791
0.340440 0.791230 0.133339
0.348286 0.801185 0.135326
-0.435466 0.791450 0.133563
-0.432491 0.792487 0.134050
-0.428736 0.792188 0.134208
-0.424820 0.791660 0.134289
-0.421378 0.792076 0.134561
-0.418579 0.793783 0.135103
-0.416403 0.796771 0.135915
-0.413241 0.797999 0.136298
-0.409820 0.798819 0.136562
-0.405332 0.797643 0.136342
-0.402013 0.798811 0.136635
-0.398657 0.799992 0.136906
-0.393457 0.797551 0.136319
-0.388887 0.796399 0.136005
-0.385704 0.798127 0.136327
-0.382219 0.799317 0.136503
-0.378022 0.799091 0.136331
-0.374136 0.799563 0.136297
-0.370550 0.800735 0.136402
-0.366965 0.801975 0.136503
-0.363341 0.803193 0.136578
-0.359300 0.803543 0.136437
-0.354586 0.802415 0.135942
-0.349740 0.800980 0.135363
-0.346688 0.803666 0.135706
-0.342901 0.804717 0.135663
-0.337979 0.803121 0.135008
-0.333327 0.802135 0.134481
-0.329800 0.803859 0.134556
-0.325492 0.803702 0.134198
-0.321309 0.803850 0.133902
-0.317199 0.804174 0.133638
-0.312872 0.803940 0.133244
-0.308754 0.804225 0.132962
-0.304941 0.805304 0.132854
-0.300716 0.805288 0.132499
-0.296553 0.805417 0.132174
-0.292387 0.805512 0.131842
-0.288496 0.806352 0.131674
-0.284632 0.807259 0.131521
-0.279606 0.804811 0.130629
-0.275518 0.804996 0.130321
-0.271914 0.806587 0.130324
-0.267875 0.806876 0.130043
-0.263797 0.807014 0.129733
-0.259552 0.806593 0.129304
-0.255479 0.806662 0.128988
-0.251775 0.807876 0.128924
-0.247468 0.807109 0.128435
-0.243342 0.806876 0.128068
-0.239237 0.806661 0.127709
-0.235625 0.808092 0.127712
-0.232321 0.810611 0.127954
-0.228237 0.810384 0.127609
-0.224025 0.809630 0.127158
-0.219852 0.808946 0.126729
-0.216411 0.810958 0.126883
-0.212550 0.811383 0.126702
-0.208615 0.811482 0.126459
-0.204678 0.811530 0.126211
-0.200650 0.811155 0.125880
-0.196656 0.810863 0.125573
-0.192670 0.810543 0.125266
-0.188981 0.811458 0.125227
-0.185098 0.811499 0.125010
-0.181393 0.812303 0.124960
-0.177538 0.812402 0.124767
-0.174255 0.815188 0.125145
-0.170404 0.815282 0.124963
-0.166587 0.815506 0.124814
-0.162314 0.813355 0.124173
-0.158055 0.811123 0.123522
-0.154313 0.811518 0.123428
-0.150843 0.813397 0.123650
-0.147190 0.814293 0.123671
-0.143908 0.817361 0.124151
-0.141346 0.824903 0.125569
-0.136246 0.817107 0.123795
-0.132241 0.815792 0.123377
-0.127422 0.808984 0.121824
-0.123571 0.808280 0.121547
-0.120700 0.814371 0.122685
-0.118106 0.822858 0.124324
-0.114221 0.822185 0.124067
-0.110310 0.821207 0.123753
-0.105736 0.814740 0.122308
-0.101836 0.813398 0.121929
-0.098875 0.820160 0.123232
-0.095707 0.825562 0.124257
-0.091383 0.820331 0.123090
-0.087103 0.815018 0.121912
-0.083484 0.816090 0.122057
-0.080083 0.819640 0.122718
-0.076192 0.817823 0.122276
-0.072409 0.817091 0.122064
-0.068652 0.816565 0.121898
-0.064942 0.816594 0.121852
-0.061324 0.817950 0.122083
-0.057735 0.819939 0.122450
-0.054289 0.824686 0.123388
-0.050488 0.823529 0.123116
-0.046378 0.815714 0.121479
-0.042744 0.817097 0.121739
-0.039054 0.817342 0.121769
-0.035317 0.816206 0.121521
-0.031656 0.817281 0.121731
-0.028224 0.827845 0.123896
-0.024600 0.833772 0.125113
-0.020786 0.831087 0.124564
-0.016857 0.815685 0.121405
-0.013227 0.824453 0.123220
-0.009490 0.819431 0.122203
-0.005789 0.818530 0.122040
-0.002085 0.818927 0.122147
0.001575 0.815441 0.121461
0.005238 0.814024 0.121204
0.009149 0.824698 0.123441
0.012986 0.828724 0.124315
0.016619 0.824834 0.123564
0.020330 0.824142 0.123477
0.023950 0.821284 0.122947
0.027692 0.821714 0.123101
0.031465 0.822662 0.123366
0.035290 0.824347 0.123788
0.038908 0.822209 0.123426
0.042540 0.820549 0.123168
0.046247 0.820187 0.123183
0.049855 0.818463 0.122922
0.053870 0.822154 0.123785
0.057813 0.824507 0.124379
0.061522 0.823857 0.124355
0.064949 0.820153 0.123704
0.068682 0.819952 0.123785
0.072638 0.821924 0.124321
0.076222 0.820155 0.124087
0.079969 0.819969 0.124187
0.083747 0.820027 0.124344
0.087347 0.818535 0.124183
0.091934 0.825044 0.125696
0.097518 0.838720 0.128714
0.100675 0.833290 0.127751
0.102256 0.816840 0.124487
0.107002 0.823459 0.126052
0.110461 0.820940 0.125710
0.113219 0.813947 0.124435
0.116892 0.813127 0.124459
0.122216 0.822437 0.126620
0.127364 0.830121 0.128449
0.130965 0.828354 0.128296
0.133814 0.822395 0.127262
0.136635 0.816550 0.126255
0.140792 0.818105 0.126817
0.145710 0.823495 0.128200
0.150064 0.825701 0.128916
0.154626 0.828782 0.129825
0.158442 0.828066 0.129933
0.161279 0.822704 0.129055
0.165111 0.822134 0.129203
0.168845 0.821104 0.129257
0.172649 0.820382 0.129381
0.177238 0.823040 0.130236
0.183302 0.831779 0.132405
0.188447 0.836305 0.133676
0.191518 0.832194 0.133091
0.194356 0.827283 0.132334
0.198088 0.826009 0.132363
0.201789 0.824630 0.132372
0.204722 0.820390 0.131759
0.209687 0.823754 0.132801
0.209462 0.808216 0.129723
0.214259 0.811027 0.130642
0.222765 0.826635 0.134365
0.227251 0.827915 0.134957
0.229193 0.820575 0.133654
0.232667 0.818537 0.133509
0.235438 0.814265 0.132866
0.239401 0.813943 0.133088
0.243226 0.813192 0.133209
0.249366 0.819633 0.134916
0.248930 0.805832 0.132128
0.255594 0.813772 0.134153
0.260675 0.816808 0.135082
0.264676 0.816625 0.135285
0.269961 0.820154 0.136303
0.276709 0.827743 0.138216
0.279182 0.823235 0.137414
0.283019 0.822634 0.137467
0.287521 0.823898 0.137922
0.291544 0.823888 0.138073
0.294557 0.821266 0.137619
0.306290 0.841481 0.142273
0.310257 0.841265 0.142320
0.307733 0.824632 0.138654
0.311349 0.823875 0.138533
0.314802 0.822805 0.138318
0.319304 0.824399 0.138679
0.323120 0.824372 0.138652
0.328407 0.827942 0.139408
0.328966 0.820323 0.137624
0.323402 0.798612 0.132652
0.323684 0.790992 0.130825
0.325190 0.786418 0.129659
0.345054 0.815644 0.135851
0.337099 0.790171 0.129939
0.340337 0.789927 0.129650
0.345417 0.793792 0.130255
0.351628 0.800115 0.131381
-0.440136 0.792534 0.130034
-0.436948 0.793161 0.130431
-0.433264 0.792976 0.130622
-0.429829 0.793315 0.130906
-0.425941 0.792899 0.130996
-0.422765 0.793874 0.131374
-0.419723 0.795191 0.131802
-0.415409 0.794193 0.131686
-0.413056 0.796997 0.132398
-0.409660 0.797909 0.132660
-0.405414 0.797251 0.132543
-0.402331 0.798935 0.132927
-0.399094 0.800409 0.133239
-0.393831 0.797904 0.132631
-0.390231 0.798780 0.132759
-0.386530 0.799522 0.132834
-0.381733 0.798059 0.132390
-0.378528 0.799951 0.132678
-0.374431 0.800038 0.132538
-0.370735 0.801029 0.132581
-0.366810 0.801581 0.132506
-0.363092 0.802636 0.132525
-0.359091 0.803113 0.132397
-0.354979 0.803377 0.132205
-0.350368 0.802528 0.131750
-0.346274 0.802869 0.131547
-0.342615 0.804246 0.131561
-0.338131 0.803713 0.131140
-0.334112 0.804284 0.130953
-0.329092 0.802436 0.130224
-0.324892 0.802555 0.129922
-0.320979 0.803384 0.129768
-0.316999 0.804052 0.129574
-0.312963 0.804581 0.129344
-0.309035 0.805387 0.129170
-0.305074 0.806107 0.128975
-0.301033 0.806607 0.128730
-0.296577 0.805970 0.128237
-0.292331 0.805861 0.127859
-0.288347 0.806450 0.127632
-0.283578 0.804794 0.126923
-0.279365 0.804655 0.126543
-0.275637 0.805892 0.126461
-0.272106 0.807715 0.126507
-0.268065 0.808015 0.126229
-0.263839 0.807714 0.125827
-0.259914 0.808299 0.125618
-0.255618 0.807682 0.125158
-0.250871 0.805542 0.124381
-0.247064 0.806371 0.124238
-0.243430 0.807757 0.124219
-0.239549 0.808306 0.124027
-0.235602 0.808601 0.123787
-0.232104 0.810437 0.123877
-0.228322 0.811274 0.123762
-0.223893 0.809732 0.123155
-0.219840 0.809484 0.122825
-0.216266 0.810993 0.122869
-0.212378 0.811297 0.122667
-0.208480 0.811525 0.122455
-0.204180 0.810099 0.121906
-0.200404 0.810716 0.121788
-0.196496 0.810757 0.121556
-0.192575 0.810697 0.121310
-0.188909 0.811700 0.121290
-0.185511 0.813893 0.121522
-0.181774 0.814588 0.121449
-0.177575 0.813117 0.120938
-0.174254 0.815722 0.121270
-0.170673 0.817133 0.121362
-0.166258 0.814391 0.120609
-0.162466 0.814661 0.120479
-0.158370 0.813299 0.120022
-0.154541 0.813262 0.119842
-0.150699 0.813110 0.119643
-0.146946 0.813409 0.119543
-0.143336 0.814520 0.119614
-0.140023 0.817437 0.120057
-0.136403 0.818579 0.120144
-0.132071 0.815196 0.119318
-0.127444 0.809611 0.118050
-0.123647 0.809272 0.117854
-0.120671 0.814640 0.118819
-0.117615 0.819761 0.119738
-0.113520 0.817374 0.119142
-0.109625 0.816322 0.118821
-0.105576 0.813904 0.118229
-0.101860 0.814059 0.118163
-0.098663 0.818756 0.119018
-0.095025 0.819765 0.119133
-0.091087 0.817948 0.118684
-0.087171 0.816147 0.118242
-0.083500 0.816705 0.118281
-0.079812 0.817088 0.118289
-0.076169 0.817996 0.118407
-0.072437 0.817877 0.118323
-0.068647 0.816928 0.118077
-0.064974 0.817462 0.118134
-0.061404 0.819562 0.118510
-0.057913 0.823222 0.119204
-0.054254 0.824498 0.119423
-0.050379 0.821892 0.118867
-0.046530 0.819279 0.118314
-0.042599 0.814172 0.117265
-0.038907 0.813942 0.117199
-0.035265 0.815095 0.117416
-0.031680 0.818459 0.118081
-0.028375 0.834253 0.121245
-0.024489 0.828640 0.120117
-0.020597 0.819332 0.118252
-0.016961 0.825263 0.119449
-0.013209 0.821751 0.118757
-0.009493 0.819669 0.118355
-0.005797 0.817159 0.117872
-0.002088 0.819425 0.118353
0.001611 0.819096 0.118316
0.005402 0.824415 0.119420
0.009212 0.828266 0.120233
0.012964 0.828484 0.120321
0.016762 0.830104 0.120696
0.020302 0.823949 0.119512
0.024067 0.824790 0.119740
0.028029 0.829845 0.120820
0.031972 0.833507 0.121626
0.035367 0.826343 0.120257
0.038799 0.820923 0.119243
0.042460 0.819857 0.119110
0.046327 0.821936 0.119618
0.049910 0.819793 0.119278
0.053531 0.818351 0.119085
0.057692 0.823615 0.120251
0.061247 0.821281 0.119888
0.065380 0.825458 0.120848
0.069314 0.827112 0.121303
0.072661 0.822743 0.120542
0.076383 0.822282 0.120579
0.079983 0.820695 0.120393
0.083617 0.819497 0.120291
0.087414 0.819703 0.120480
0.092420 0.829556 0.122639
0.096859 0.834254 0.123756
0.100003 0.828902 0.122832
0.103248 0.824607 0.122127
0.106951 0.823733 0.122126
0.110705 0.823210 0.122202
0.114872 0.825369 0.122833
0.118405 0.823335 0.122611
0.122826 0.826824 0.123529
0.126914 0.828083 0.123996
0.130183 0.824465 0.123466
0.133680 0.822287 0.123236
0.137011 0.819261 0.122837
0.141192 0.820892 0.123405
0.145828 0.824757 0.124442
0.150283 0.827467 0.125248
0.153895 0.825817 0.125156
0.157375 0.823552 0.124941
0.161240 0.823170 0.125123
0.165236 0.823358 0.125428
0.169169 0.823213 0.125670
0.172809 0.821729 0.125637
0.176780 0.821695 0.125912
0.185013 0.839654 0.129970
0.187764 0.834110 0.129101
0.189941 0.826414 0.127779
0.193714 0.825335 0.127852
0.197763 0.825340 0.128157
0.201591 0.824458 0.128277
0.205565 0.824118 0.128514
0.209399 0.823246 0.128640
0.210974 0.814206 0.127025
0.212463 0.805164 0.125405
0.221764 0.823644 0.129663
0.225024 0.820766 0.129359
0.225983 0.810221 0.127406
0.230700 0.812449 0.128189
0.235164 0.813766 0.128775
0.239166 0.813553 0.129027
0.243910 0.815672 0.129779
0.247009 0.812626 0.129408
0.250113 0.809693 0.129052
0.252012 0.803239 0.127921
0.257964 0.808969 0.129428
0.263770 0.814121 0.130802
0.269361 0.818522 0.132004
0.276052 0.825928 0.133852
0.279358 0.823719 0.133588
0.282867 0.822160 0.133449
0.287706 0.824289 0.134102
0.291425 0.823409 0.134078
0.295284 0.822966 0.134132
0.306082 0.840660 0.138152
0.305799 0.829469 0.135805
0.306304 0.820617 0.133947
0.310444 0.821164 0.134135
0.316132 0.825600 0.135157
0.319957 0.825440 0.135144
0.324084 0.826090 0.135285
0.327398 0.824855 0.134987
0.327943 0.817179 0.133246
0.327409 0.807229 0.130982
0.326267 0.796169 0.128451
0.335779 0.809819 0.131329
0.342902 0.817858 0.132945
0.355432 0.837949 0.137177
0.353231 0.825010 0.134138
0.342361 0.793342 0.126984
0.347591 0.797443 0.127640
0.353088 0.802132 0.128399
0.358113 0.805808 0.128911
-0.444852 0.793692 0.126498
-0.440783 0.792727 0.126551
-0.437359 0.792980 0.126845
-0.433817 0.793098 0.127086
-0.430487 0.793678 0.127404
-0.427840 0.795604 0.127992
-0.424476 0.796304 0.128286
-0.420491 0.795924 0.128318
-0.416813 0.796192 0.128466
-0.412656 0.795620 0.128403
-0.409630 0.797289 0.128808
-0.406300 0.798464 0.129079
-0.402009 0.797836 0.128928
-0.398387 0.798588 0.129055
-0.395589 0.801072 0.129539
-0.391261 0.800558 0.129340
-0.386075 0.798325 0.128740
-0.382339 0.799102 0.128778
-0.378945 0.800663 0.128967
-0.375524 0.802241 0.129138
-0.371224 0.802010 0.128893
-0.367363 0.802760 0.128844
-0.363240 0.802982 0.128661
-0.359030 0.803042 0.128427
-0.354750 0.802968 0.128148
-0.350560 0.803113 0.127903
-0.346665 0.803957 0.127797
-0.341923 0.802850 0.127256
-0.338235 0.804215 0.127240
-0.333913 0.804094 0.126894
-0.329457 0.803642 0.126468
-0.325254 0.803793 0.126166
-0.321159 0.804205 0.125914
-0.317134 0.804792 0.125694
-0.313182 0.805564 0.125509
-0.309148 0.806123 0.125276
-0.305248 0.807027 0.125114
-0.301208 0.807554 0.124871
-0.296316 0.805754 0.124134
-0.292252 0.806150 0.123863
-0.287741 0.805275 0.123326
-0.283444 0.804942 0.122905
-0.279531 0.805671 0.122710
-0.276008 0.807525 0.122753
-0.272378 0.809080 0.122736
-0.268302 0.809293 0.122441
-0.264367 0.809902 0.122233
-0.260381 0.810325 0.121990
-0.256392 0.810708 0.121744
-0.250317 0.804328 0.120103
-0.247345 0.807867 0.120521
-0.243805 0.809585 0.120567
-0.239886 0.810027 0.120354
-0.235924 0.810288 0.120111
-0.232236 0.811477 0.120063
-0.228596 0.812828 0.120054
-0.223768 0.809846 0.119165
-0.219659 0.809380 0.118797
-0.216015 0.810605 0.118781
-0.212290 0.811519 0.118707
-0.208260 0.811216 0.118391
-0.204257 0.810962 0.118092
-0.200096 0.810003 0.117658
-0.196377 0.810805 0.117585
-0.192625 0.811452 0.117488
-0.188870 0.812064 0.117389
-0.185390 0.813884 0.117539
-0.181998 0.816145 0.117783
-0.178266 0.816869 0.117724
-0.174871 0.819192 0.117991
-0.171159 0.820029 0.117966
-0.166413 0.815679 0.116909
-0.162103 0.813305 0.116254
-0.158383 0.813869 0.116193
-0.154694 0.814588 0.116168
-0.151105 0.815856 0.116258
-0.147248 0.815616 0.116052
-0.143387 0.815300 0.115838
-0.139608 0.815414 0.115714
-0.135973 0.816387 0.115767
-0.131743 0.813566 0.115072
-0.128027 0.813920 0.115013
-0.124002 0.812149 0.114538
-0.120871 0.816511 0.115281
-0.117143 0.816779 0.115219
-0.113120 0.814808 0.114720
-0.108731 0.809780 0.113624
-0.105416 0.813047 0.114169
-0.101820 0.814163 0.114294
-0.097902 0.812497 0.113876
-0.094570 0.816030 0.114487
-0.090918 0.816765 0.114551
-0.087287 0.817740 0.114666
-0.083269 0.814696 0.113997
-0.079681 0.816060 0.114198
-0.075952 0.815874 0.114099
-0.072486 0.818894 0.114634
-0.068686 0.817858 0.114377
-0.064962 0.817710 0.114299
-0.061446 0.820601 0.114822
-0.057953 0.824278 0.115502
-0.054166 0.823383 0.115291
-0.050198 0.818866 0.114374
-0.046410 0.817180 0.114017
-0.042677 0.816345 0.113830
-0.038951 0.815473 0.113641
-0.035338 0.817577 0.114039
