ply
format ascii 1.0
comment ---
element vertex 1737
property float x
property float y
property float z
element face 0
property list uchar uint vertex_indices
end_header
0.088207 0.786668 0.147690
0.092172 0.787797 0.147781
0.096137 0.788798 0.147852
0.100384 0.792679 0.148376
0.103994 0.789725 0.147827
0.107226 0.783365 0.146746
0.111547 0.787609 0.147329
0.115796 0.790846 0.147754
0.119527 0.789395 0.147446
0.123241 0.787889 0.147130
0.127070 0.787374 0.146971
0.131401 0.790688 0.147411
0.134304 0.783283 0.146178
0.137958 0.781657 0.145849
0.142415 0.785615 0.146392
0.147335 0.792364 0.147372
0.151688 0.795023 0.147713
0.155536 0.794336 0.147535
0.157940 0.784913 0.145998
0.161811 0.784617 0.145884
0.165805 0.785009 0.145879
0.169748 0.785063 0.145821
0.173806 0.785693 0.145855
0.178106 0.787537 0.146079
0.184369 0.799374 0.147854
0.189129 0.803028 0.148360
0.191142 0.792966 0.146741
0.193648 0.785699 0.145558
0.197897 0.786892 0.145688
0.201814 0.786463 0.145568
0.207745 0.795033 0.146842
0.211763 0.794797 0.146755
0.215543 0.793498 0.146505
0.219156 0.791499 0.146149
0.222434 0.788150 0.145586
0.226582 0.788393 0.145580
0.233184 0.798288 0.147067
0.235609 0.791534 0.145984
0.237789 0.784048 0.144791
0.241176 0.781297 0.144331
0.245901 0.783494 0.144636
0.252431 0.792052 0.145924
0.256977 0.793229 0.146075
0.263386 0.800769 0.147209
0.267749 0.801010 0.147220
0.270211 0.794810 0.146240
0.272471 0.788093 0.145183
0.276784 0.788188 0.145178
0.280081 0.784983 0.144666
0.286621 0.791979 0.145727
0.291575 0.793800 0.145994
0.295372 0.791990 0.145703
0.301710 0.797757 0.146580
0.306207 0.797874 0.146589
0.307846 0.789664 0.145319
0.312154 0.789243 0.145249
0.316995 0.790269 0.145403
0.322124 0.792005 0.145669
0.330104 0.801384 0.147111
0.335450 0.803379 0.147419
0.338403 0.798941 0.146738
0.342579 0.797765 0.146559
0.347679 0.798949 0.146745
0.352699 0.799855 0.146888
0.355571 0.795343 0.146197
0.357612 0.788876 0.145206
0.361157 0.786207 0.144798
0.366843 0.788714 0.145187
0.373362 0.793104 0.145864
0.377486 0.791787 0.145662
0.381260 0.789700 0.145339
0.386685 0.791420 0.145600
0.391257 0.791197 0.145559
0.399082 0.798201 0.146627
0.403749 0.798158 0.146607
0.409537 0.800578 0.146962
0.413690 0.799498 0.146773
0.417281 0.797318 0.146410
0.424983 0.803823 0.147377
0.425088 0.794597 0.145920
0.430883 0.797258 0.146284
0.436218 0.799023 0.146502
0.440320 0.798391 0.146346
-0.481662 0.728281 0.155574
-0.480442 0.733369 0.156322
-0.476622 0.734625 0.156371
-0.472943 0.736201 0.156468
-0.468853 0.737230 0.156457
-0.464301 0.737608 0.156321
-0.458825 0.736570 0.155924
-0.454710 0.737761 0.155918
-0.450321 0.738568 0.155837
-0.445163 0.738155 0.155533
-0.440108 0.737928 0.155257
-0.436976 0.740961 0.155553
-0.432316 0.741462 0.155398
-0.427042 0.740916 0.155054
-0.423063 0.742612 0.155103
-0.418478 0.743267 0.154967
-0.414168 0.744411 0.154915
-0.408080 0.742347 0.154300
-0.403889 0.743671 0.154279
-0.400247 0.746009 0.154433
-0.394822 0.745030 0.154010
-0.389958 0.745049 0.153762
-0.385638 0.746062 0.153687
-0.381428 0.747266 0.153647
-0.376592 0.747222 0.153393
-0.372139 0.747883 0.153262
-0.365258 0.743631 0.152289
-0.363166 0.748949 0.152964
-0.359061 0.750199 0.152941
-0.353660 0.748723 0.152454
-0.349258 0.749256 0.152314
-0.344971 0.749988 0.152211
-0.340064 0.749335 0.151875
-0.335620 0.749618 0.151701
-0.331342 0.750216 0.151584
-0.327221 0.751122 0.151522
-0.322503 0.750629 0.151226
-0.318082 0.750748 0.151037
-0.314126 0.751897 0.151024
-0.310208 0.753104 0.151024
-0.306052 0.753716 0.150927
-0.301415 0.753114 0.150628
-0.297012 0.753013 0.150417
-0.292875 0.753517 0.150310
-0.289068 0.754815 0.150338
-0.284777 0.754849 0.150158
-0.280276 0.754280 0.149880
-0.276182 0.754718 0.149772
-0.272251 0.755552 0.149734
-0.268355 0.756451 0.149708
-0.264397 0.757153 0.149651
-0.260094 0.756860 0.149433
-0.256302 0.757962 0.149447
-0.252213 0.758190 0.149319
-0.248511 0.759510 0.149374
-0.244484 0.759855 0.149270
-0.240113 0.759127 0.148991
-0.236062 0.759309 0.148865
-0.232156 0.759907 0.148808
-0.228509 0.761301 0.148884
-0.224618 0.761913 0.148834
-0.220626 0.762170 0.148727
-0.216567 0.762170 0.148580
-0.212483 0.762044 0.148414
-0.208459 0.762080 0.148277
-0.204551 0.762487 0.148202
-0.200461 0.762217 0.148018
-0.196614 0.762785 0.147972
-0.192815 0.763515 0.147954
-0.189023 0.764265 0.147940
-0.184951 0.763926 0.147752
-0.181058 0.764239 0.147670
-0.178806 0.771104 0.148648
-0.176092 0.776321 0.149360
-0.171015 0.771873 0.148512
-0.166625 0.770131 0.148103
-0.161586 0.765458 0.147224
-0.158002 0.767009 0.147349
-0.154476 0.768864 0.147523
-0.151705 0.774277 0.148269
-0.148262 0.776719 0.148538
-0.143508 0.772868 0.147799
-0.139720 0.773613 0.147798
-0.136073 0.775089 0.147914
-0.131646 0.772519 0.147385
-0.127492 0.771260 0.147066
-0.123548 0.771060 0.146918
-0.119635 0.771001 0.146793
-0.114926 0.766266 0.145924
-0.111494 0.768892 0.146228
-0.108651 0.775283 0.147131
-0.104896 0.776232 0.147169
-0.100825 0.775136 0.146882
-0.097419 0.778453 0.147296
-0.094016 0.781989 0.147745
-0.089781 0.779707 0.147273
-0.085125 0.774072 0.146272
-0.080790 0.770488 0.145597
-0.076902 0.770218 0.145446
-0.073167 0.771187 0.145492
-0.069426 0.772155 0.145537
-0.065596 0.772366 0.145464
-0.061637 0.771338 0.145196
-0.058262 0.776033 0.145829
-0.054723 0.779437 0.146258
-0.050895 0.779970 0.146236
-0.046211 0.770517 0.144650
-0.042433 0.771141 0.144644
-0.038738 0.772902 0.144817
-0.035007 0.774354 0.144941
-0.031523 0.779713 0.145676
-0.027624 0.779114 0.145480
-0.023836 0.780340 0.145569
-0.019896 0.778821 0.145231
-0.016093 0.779843 0.145289
-0.012267 0.780512 0.145292
-0.008475 0.782168 0.145449
-0.004575 0.781014 0.145170
-0.000694 0.780091 0.144927
0.003224 0.777169 0.144374
0.007006 0.779810 0.144685
0.010798 0.783353 0.145136
0.014692 0.779795 0.144487
0.018531 0.780038 0.144427
0.022370 0.784885 0.145079
0.026250 0.788994 0.145617
0.030110 0.786756 0.145175
0.033845 0.777159 0.143599
0.037705 0.779166 0.143814
0.041507 0.777923 0.143528
0.045368 0.779244 0.143638
0.049286 0.781931 0.143958
0.053069 0.780340 0.143621
0.056822 0.778418 0.143233
0.060975 0.785445 0.144220
0.064797 0.784750 0.144022
0.068381 0.779925 0.143192
0.071996 0.776360 0.142557
0.075956 0.778565 0.142805
0.079928 0.780640 0.143034
0.083897 0.782400 0.143216
0.088307 0.789483 0.144209
0.092403 0.792039 0.144512
0.096095 0.789781 0.144081
0.099703 0.786838 0.143547
0.103296 0.784005 0.143032
0.107350 0.785879 0.143233
0.111437 0.787880 0.143454
0.115283 0.787551 0.143323
0.118664 0.783268 0.142591
0.122593 0.783783 0.142590
0.126699 0.785624 0.142790
0.130326 0.783669 0.142416
0.134505 0.785878 0.142673
0.138629 0.787522 0.142846
0.142786 0.789251 0.143032
0.146678 0.789081 0.142932
0.150819 0.790499 0.143073
0.154609 0.789604 0.142866
0.158029 0.786483 0.142324
0.161682 0.784876 0.142013
0.165598 0.784832 0.141938
0.169596 0.785208 0.141928
0.173792 0.786607 0.142073
0.177687 0.786300 0.141963
0.183637 0.796580 0.143446
0.187531 0.795962 0.143290
0.191098 0.793718 0.142893
0.193419 0.785553 0.141607
0.197477 0.785866 0.141597
0.201600 0.786419 0.141624
0.205539 0.786076 0.141519
0.211115 0.792891 0.142488
0.215746 0.795304 0.142798
0.218348 0.789024 0.141807
0.220791 0.782292 0.140751
0.225727 0.785857 0.141239
0.230329 0.787904 0.141501
0.235482 0.791956 0.142064
0.238532 0.787783 0.141399
0.242047 0.785452 0.141011
0.247083 0.788733 0.141464
0.254716 0.801190 0.143289
0.259849 0.804294 0.143718
0.263821 0.803195 0.143522
0.266726 0.798428 0.142779
0.268615 0.790359 0.141547
0.271608 0.786141 0.140891
0.277231 0.790530 0.141521
0.281776 0.791274 0.141609
0.285826 0.790381 0.141455
0.290757 0.792172 0.141703
0.295136 0.792165 0.141684
0.301335 0.797533 0.142469
0.306039 0.798276 0.142566
0.310244 0.797489 0.142436
0.310174 0.784482 0.140487
0.316264 0.789099 0.141166
0.322022 0.792601 0.141680
0.327517 0.795228 0.142065
0.330339 0.790551 0.141363
0.334455 0.789383 0.141184
0.340748 0.793867 0.141849
0.348693 0.802422 0.143120
0.353748 0.803378 0.143260
0.356868 0.799435 0.142671
0.358681 0.792350 0.141613
0.361125 0.786962 0.140808
0.367756 0.791730 0.141515
0.372833 0.792677 0.141652
0.377777 0.793279 0.141736
0.380584 0.788946 0.141084
0.385671 0.789909 0.141218
0.392324 0.794370 0.141871
0.399136 0.799094 0.142560
0.404144 0.799782 0.142644
0.408521 0.799129 0.142525
0.412765 0.798256 0.142369
0.417441 0.798369 0.142355
0.420156 0.794453 0.141736
0.425380 0.795877 0.141907
0.429086 0.794252 0.141618
0.435777 0.798778 0.142236
0.439934 0.798245 0.142097
-0.487626 0.737564 0.153035
-0.481115 0.734663 0.152366
-0.477048 0.735560 0.152349
-0.471995 0.735015 0.152072
-0.468136 0.736404 0.152122
-0.463817 0.737153 0.152054
-0.459026 0.737214 0.151858
-0.454461 0.737690 0.151728
-0.450518 0.739231 0.151775
-0.445052 0.738318 0.151394
-0.440715 0.739297 0.151334
-0.436306 0.740192 0.151255
-0.431795 0.740938 0.151147
-0.426850 0.740955 0.150911
-0.422243 0.741557 0.150772
-0.417612 0.742117 0.150625
-0.412426 0.741681 0.150308
-0.408641 0.743743 0.150413
-0.403642 0.743605 0.150146
-0.399138 0.744343 0.150027
-0.394301 0.744440 0.149800
-0.389652 0.744852 0.149627
-0.385209 0.745624 0.149516
-0.380957 0.746735 0.149463
-0.376514 0.747446 0.149345
-0.370710 0.745421 0.148771
-0.367154 0.747808 0.148936
-0.361550 0.746032 0.148410
-0.357891 0.748156 0.148536
-0.353291 0.748314 0.148337
-0.348406 0.747814 0.148032
-0.344849 0.750078 0.148186
-0.340260 0.750106 0.147974
-0.336000 0.750793 0.147873
-0.331782 0.751529 0.147783
-0.327480 0.752034 0.147658
-0.323074 0.752253 0.147489
-0.318365 0.751719 0.147199
-0.313854 0.751573 0.146976
-0.309799 0.752443 0.146922
-0.305493 0.752675 0.146766
-0.301329 0.753199 0.146661
-0.296835 0.752865 0.146419
-0.292926 0.753927 0.146406
-0.289135 0.755260 0.146440
-0.285015 0.755732 0.146336
-0.280623 0.755449 0.146113
-0.276489 0.755788 0.145993
-0.272588 0.756706 0.145969
-0.268561 0.757257 0.145888
-0.263933 0.756111 0.145537
-0.259629 0.755790 0.145320
-0.256349 0.758320 0.145564
-0.252178 0.758308 0.145401
-0.248100 0.758515 0.145276
-0.243753 0.757883 0.145019
-0.239881 0.758623 0.144983
-0.235920 0.759063 0.144901
-0.232049 0.759757 0.144862
-0.228248 0.760651 0.144856
-0.224333 0.761160 0.144790
-0.220500 0.761915 0.144765
-0.216434 0.761878 0.144617
-0.212357 0.761760 0.144457
-0.208376 0.761932 0.144344
-0.204066 0.760914 0.144046
-0.200119 0.761118 0.143942
-0.196358 0.761969 0.143941
-0.192656 0.763031 0.143975
-0.188604 0.762778 0.143804
-0.184712 0.763092 0.143723
-0.181028 0.764202 0.143768
-0.178085 0.768287 0.144280
-0.175581 0.774298 0.145094
-0.172208 0.776899 0.145373
-0.165169 0.763976 0.143228
-0.161591 0.765508 0.143344
-0.157668 0.765546 0.143228
-0.153896 0.766241 0.143215
-0.151622 0.773892 0.144286
-0.148247 0.776634 0.144592
-0.144331 0.776847 0.144506
-0.139430 0.772131 0.143655
-0.135347 0.771332 0.143414
-0.131451 0.771438 0.143314
-0.127953 0.773663 0.143543
-0.123998 0.773454 0.143396
-0.119021 0.767418 0.142350
-0.114673 0.764679 0.141815
-0.111754 0.770314 0.142573
-0.109038 0.777515 0.143571
-0.105443 0.779541 0.143771
-0.101284 0.777959 0.143417
-0.097091 0.776023 0.143009
-0.093024 0.774806 0.142713
-0.089661 0.778584 0.143184
-0.085535 0.776878 0.142814
-0.081298 0.774150 0.142289
-0.076879 0.769708 0.141502
-0.073050 0.769847 0.141418
-0.069535 0.772723 0.141752
-0.065527 0.771316 0.141432
-0.061938 0.773754 0.141700
-0.058450 0.777412 0.142153
-0.055010 0.781914 0.142734
-0.050888 0.779300 0.142232
-0.046334 0.771302 0.140913
-0.042562 0.772035 0.140923
-0.038801 0.772957 0.140961
-0.035038 0.773937 0.141008
-0.031612 0.780106 0.141841
-0.027737 0.779888 0.141707
-0.023610 0.775193 0.140896
-0.020048 0.780426 0.141586
-0.016344 0.783637 0.141971
-0.012537 0.785118 0.142094
-0.008646 0.784725 0.141935
-0.004712 0.782848 0.141552
-0.000809 0.781389 0.141234
0.003117 0.778318 0.140674
0.006911 0.780515 0.140907
0.010697 0.784631 0.141427
0.014568 0.783786 0.141203
0.018433 0.782263 0.140878
0.022281 0.784784 0.141159
0.026150 0.786909 0.141381
0.029989 0.783715 0.140807
0.033727 0.775333 0.139460
0.037597 0.778499 0.139839
0.041439 0.779185 0.139848
0.045308 0.780669 0.139976
0.049124 0.780080 0.139795
0.052921 0.779165 0.139567
0.056756 0.779371 0.139506
0.060887 0.785874 0.140382
0.064974 0.790336 0.140953
0.068650 0.786724 0.140326
0.072058 0.779259 0.139129
0.075952 0.780268 0.139190
0.079814 0.780699 0.139166
0.083685 0.781186 0.139150
0.087917 0.786137 0.139795
0.091958 0.788264 0.140023
0.095848 0.788441 0.139963
0.099606 0.787187 0.139692
0.103569 0.788126 0.139746
0.107729 0.790866 0.140066
0.111254 0.787453 0.139480
0.114795 0.784450 0.138956
0.118342 0.781725 0.138474
0.122065 0.780629 0.138233
0.126385 0.784301 0.138693
0.130209 0.783914 0.138558
0.134506 0.786999 0.138932
0.139051 0.791610 0.139531
0.142912 0.791198 0.139395
0.146088 0.786223 0.138591
0.149710 0.784399 0.138251
0.153960 0.786579 0.138497
0.158096 0.787909 0.138619
0.161490 0.784749 0.138087
0.165215 0.783628 0.137855
0.169359 0.784871 0.137968
0.173531 0.786163 0.138089
0.177810 0.787920 0.138280
0.181829 0.788202 0.138256
0.186439 0.791412 0.138660
0.189920 0.788869 0.138227
0.192779 0.783412 0.137373
0.197352 0.786209 0.137721
0.201422 0.786526 0.137709
0.205390 0.786328 0.137624
0.212219 0.798666 0.139359
0.215869 0.796754 0.139027
0.218318 0.789805 0.137967
0.221186 0.784822 0.137194
0.225204 0.784637 0.137119
0.231156 0.792079 0.138149
0.235822 0.794178 0.138407
0.240301 0.795424 0.138542
0.243483 0.791712 0.137962
0.248120 0.793427 0.138169
0.254901 0.802756 0.139478
0.261013 0.809315 0.140388
0.264971 0.808091 0.140174
0.267979 0.803602 0.139491
0.270876 0.798831 0.138769
0.273749 0.794082 0.138052
0.277143 0.791121 0.137595
0.281754 0.792081 0.137706
0.285627 0.790629 0.137471
0.289919 0.790456 0.137422
0.294440 0.790922 0.137467
0.300840 0.796929 0.138312
0.306969 0.801888 0.139007
0.311941 0.803277 0.139190
0.310166 0.785318 0.136585
0.316532 0.790711 0.137348
0.321700 0.792574 0.137603
0.326905 0.794423 0.137857
0.329736 0.789788 0.137178
0.333059 0.786536 0.136699
0.340347 0.793671 0.137717
0.344687 0.792980 0.137609
0.350273 0.795419 0.137951
0.355124 0.795918 0.138015
0.358862 0.793624 0.137676
0.362337 0.790726 0.137251
0.368856 0.795182 0.137883
0.376409 0.801945 0.138846
0.374899 0.787361 0.136736
0.381980 0.792949 0.137528
0.388621 0.797393 0.138153
0.393510 0.797803 0.138195
0.398087 0.797530 0.138136
0.403073 0.798187 0.138208
0.407816 0.798341 0.138204
0.412793 0.799035 0.138273
0.417854 0.799947 0.138370
0.417143 0.788848 0.136736
0.419921 0.785276 0.136180
0.428794 0.794308 0.137427
0.435550 0.798957 0.138039
0.442394 0.803778 0.138669
-0.483877 0.732137 0.147916
-0.480672 0.734250 0.148112
-0.475501 0.733449 0.147808
-0.470737 0.733341 0.147612
-0.467723 0.736051 0.147882
-0.463891 0.737577 0.147945
-0.458308 0.736376 0.147543
-0.454691 0.738385 0.147673
-0.450405 0.739377 0.147627
-0.446201 0.740557 0.147606
-0.440695 0.739609 0.147227
-0.436418 0.740730 0.147188
-0.431955 0.741567 0.147099
-0.427582 0.742579 0.147036
-0.422455 0.742290 0.146755
-0.417540 0.742355 0.146532
-0.411774 0.740885 0.146055
-0.407457 0.741973 0.145999
-0.403412 0.743554 0.146023
-0.399327 0.745064 0.146036
-0.394505 0.745190 0.145822
-0.389569 0.745064 0.145568
-0.385103 0.745786 0.145454
-0.381014 0.747209 0.145455
-0.376684 0.748143 0.145378
-0.371557 0.747462 0.145041
-0.366974 0.747802 0.144872
-0.361938 0.747173 0.144548
-0.357565 0.747834 0.144436
-0.353586 0.749274 0.144451
-0.348862 0.749116 0.144211
-0.343866 0.748314 0.143871
-0.340526 0.751012 0.144094
-0.336126 0.751395 0.143949
-0.331813 0.751919 0.143829
-0.327628 0.752684 0.143750
-0.322980 0.752352 0.143499
-0.317791 0.750701 0.143042
-0.313953 0.752105 0.143073
-0.309218 0.751361 0.142766
-0.305067 0.751939 0.142671
-0.301022 0.752734 0.142613
-0.296843 0.753162 0.142499
-0.292720 0.753682 0.142402
-0.288815 0.754716 0.142388
-0.284649 0.755050 0.142267
-0.280558 0.755533 0.142171
-0.276388 0.755765 0.142039
-0.272576 0.756915 0.142052
-0.268535 0.757420 0.141966
-0.263565 0.755322 0.141478
-0.260047 0.757183 0.141608
-0.255853 0.757123 0.141441
-0.252013 0.758038 0.141427
-0.247948 0.758272 0.141310
-0.243864 0.758408 0.141180
-0.239862 0.758751 0.141084
-0.235957 0.759357 0.141030
-0.231845 0.759292 0.140874
-0.228200 0.760664 0.140942
-0.224547 0.762010 0.141006
-0.219996 0.760415 0.140620
-0.215902 0.760250 0.140456
-0.212173 0.761274 0.140476
-0.208254 0.761638 0.140396
-0.204177 0.761426 0.140229
-0.200007 0.760828 0.140005
-0.196319 0.761932 0.140043
-0.192512 0.762595 0.140014
-0.188549 0.762658 0.139895
-0.184552 0.762556 0.139752
-0.181400 0.765734 0.140109
-0.178499 0.770008 0.140633
-0.175524 0.774120 0.141132
-0.170287 0.768938 0.140223
-0.165221 0.764233 0.139388
-0.161469 0.765005 0.139385
-0.157651 0.765487 0.139338
-0.153991 0.766678 0.139399
-0.151536 0.773484 0.140308
-0.149750 0.783758 0.141738
-0.144677 0.778500 0.140828
-0.140048 0.775174 0.140212
-0.135371 0.771400 0.139529
-0.131626 0.772289 0.139549
-0.129287 0.780750 0.140704
-0.124379 0.775467 0.139799
-0.118811 0.766119 0.138288
-0.115687 0.770462 0.138827
-0.112721 0.775976 0.139541
-0.109214 0.778445 0.139800
-0.105235 0.778044 0.139630
-0.100980 0.775775 0.139183
-0.096552 0.772156 0.138536
-0.092572 0.771411 0.138318
-0.089103 0.774285 0.138639
-0.085509 0.776401 0.138847
-0.081036 0.771806 0.138059
-0.077001 0.770362 0.137740
-0.073480 0.773108 0.138042
-0.069347 0.770687 0.137580
-0.065584 0.771409 0.137584
-0.061878 0.772721 0.137675
-0.058619 0.778602 0.138440
-0.055256 0.783947 0.139125
-0.051258 0.782793 0.138852
-0.046510 0.772716 0.137266
-0.042673 0.772700 0.137163
-0.038888 0.773321 0.137153
-0.035109 0.774087 0.137166
-0.031720 0.780770 0.138046
-0.027674 0.777832 0.137515
-0.023897 0.779065 0.137596
-0.020120 0.780475 0.137703
-0.016555 0.786591 0.138498
-0.012589 0.784637 0.138113
-0.008507 0.779142 0.137212
-0.004672 0.779408 0.137153
-0.000797 0.778296 0.136893
0.003098 0.775852 0.136441
0.006931 0.775320 0.136267
0.010708 0.778133 0.136580
0.014502 0.781890 0.137030
0.018356 0.780448 0.136725
0.022195 0.778882 0.136402
0.026033 0.780733 0.136576
0.029864 0.779953 0.136368
0.033697 0.780006 0.136282
0.037519 0.779448 0.136108
0.041341 0.779190 0.135978
0.045192 0.780053 0.136010
0.049028 0.780241 0.135945
0.052831 0.779527 0.135750
0.056656 0.779480 0.135653
0.060698 0.784131 0.136231
0.064798 0.789051 0.136848
0.068752 0.790549 0.136973
0.072162 0.782830 0.135774
0.075922 0.781579 0.135506
0.079754 0.781515 0.135409
0.083591 0.781523 0.135323
0.087521 0.782692 0.135403
0.091869 0.788680 0.136173
0.095797 0.789302 0.136176
0.099680 0.789361 0.136099
0.103798 0.791791 0.136360
0.108046 0.795240 0.136768
0.111333 0.789448 0.135858
0.114874 0.786385 0.135340
0.118690 0.785892 0.135188
0.122583 0.786042 0.135128
0.126292 0.784710 0.134859
0.130315 0.785844 0.134941
0.133797 0.782890 0.134444
0.138706 0.790247 0.135410
0.142832 0.791718 0.135541
0.145889 0.785948 0.134648
0.149422 0.783574 0.134238
0.154155 0.788822 0.134906
0.158234 0.789758 0.134966
0.161423 0.785346 0.134271
0.165046 0.783637 0.133959
0.169575 0.787047 0.134371
0.173363 0.786208 0.134184
0.177462 0.787025 0.134232
0.182647 0.793382 0.135061
0.185804 0.789149 0.134400
0.189086 0.785690 0.133849
0.192990 0.785347 0.133738
0.197409 0.787395 0.133965
0.201487 0.787739 0.133953
0.205508 0.787760 0.133897
0.212160 0.799317 0.135462
0.215728 0.797050 0.135087
0.218067 0.789641 0.133993
0.221375 0.786487 0.133497
0.226321 0.790045 0.133944
0.232187 0.797056 0.134875
0.236376 0.797218 0.134848
0.239569 0.793511 0.134282
0.243623 0.793114 0.134180
0.248135 0.794358 0.134309
0.252330 0.794355 0.134265
0.258530 0.801399 0.135207
0.263330 0.803260 0.135427
0.267802 0.803872 0.135473
0.271919 0.803208 0.135343
0.274586 0.797712 0.134541
0.277483 0.793083 0.133861
0.280328 0.788384 0.133174
0.285355 0.790630 0.133457
0.289712 0.790670 0.133433
0.294041 0.790561 0.133391
0.300736 0.797474 0.134328
0.305681 0.798953 0.134509
0.308206 0.793305 0.133699
0.310911 0.788282 0.132978
0.315647 0.789066 0.133067
0.320446 0.789941 0.133170
0.326822 0.795036 0.133860
0.331050 0.794151 0.133720
0.335340 0.793407 0.133600
0.339229 0.791584 0.133331
0.343558 0.790899 0.133221
0.348165 0.790896 0.133206
0.353235 0.792012 0.133347
0.359242 0.795375 0.133800
0.362614 0.792204 0.133344
0.368783 0.795807 0.133830
0.373594 0.796079 0.133852
0.381011 0.802421 0.134716
0.386028 0.803059 0.134786
0.392850 0.807790 0.135423
0.393443 0.798412 0.134098
0.397615 0.797231 0.133910
0.402604 0.797895 0.133975
0.407864 0.799168 0.134120
0.413029 0.800251 0.134236
0.418437 0.801877 0.134424
0.417308 0.789865 0.132716
0.418905 0.783831 0.131833
0.428393 0.794134 0.133209
0.435253 0.798988 0.133824
0.441036 0.801682 0.134133
-0.486742 0.736727 0.144498
-0.480537 0.734302 0.143944
-0.474798 0.732633 0.143506
-0.471189 0.734324 0.143608
-0.467096 0.735354 0.143595
-0.460526 0.732529 0.142949
-0.459075 0.737914 0.143628
-0.454177 0.737866 0.143420
-0.450496 0.739849 0.143536
-0.446166 0.740828 0.143483
-0.441227 0.740832 0.143270
-0.436402 0.741044 0.143087
-0.432326 0.742546 0.143107
-0.428090 0.743805 0.143086
-0.423304 0.744125 0.142913
-0.416606 0.741058 0.142198
-0.412951 0.743340 0.142336
-0.407396 0.742216 0.141930
-0.403571 0.744199 0.142019
-0.399082 0.744965 0.141915
-0.394500 0.745535 0.141780
-0.389547 0.745375 0.141530
-0.385074 0.746082 0.141419
-0.380690 0.746931 0.141331
-0.376655 0.748434 0.141348
-0.372003 0.748693 0.141170
-0.367108 0.748412 0.140911
-0.362703 0.749068 0.140800
-0.357606 0.748253 0.140462
-0.353208 0.748815 0.140341
-0.348867 0.749452 0.140234
-0.344819 0.750671 0.140219
-0.340519 0.751315 0.140118
-0.335611 0.750578 0.139806
-0.331667 0.751904 0.139815
-0.327437 0.752557 0.139722
-0.322690 0.751987 0.139444
-0.317725 0.750840 0.139080
-0.313376 0.751041 0.138926
-0.309070 0.751292 0.138783
-0.304930 0.751886 0.138694
-0.300733 0.752301 0.138580
-0.296784 0.753279 0.138555
-0.292625 0.753703 0.138447
-0.288278 0.753604 0.138262
-0.283422 0.752139 0.137872
-0.280130 0.754657 0.138089
-0.276211 0.755533 0.138059
-0.272207 0.756152 0.137992
-0.267946 0.756038 0.137816
-0.263915 0.756506 0.137730
-0.259696 0.756407 0.137560
-0.255715 0.756935 0.137487
-0.251976 0.758128 0.137516
-0.248039 0.758728 0.137457
-0.244019 0.759053 0.137359
-0.240102 0.759656 0.137305
-0.235811 0.759079 0.137075
-0.231729 0.759093 0.136936
-0.228145 0.760646 0.137028
-0.224657 0.762515 0.137168
-0.219697 0.759579 0.136594
-0.215964 0.760590 0.136609
-0.212249 0.761661 0.136635
-0.208424 0.762347 0.136605
-0.204434 0.762440 0.136488
-0.200439 0.762482 0.136364
-0.196362 0.762186 0.136193
-0.192549 0.762821 0.136160
-0.188563 0.762793 0.136030
-0.184975 0.764259 0.136122
-0.181301 0.765411 0.136168
-0.179220 0.772951 0.137154
-0.176064 0.776371 0.137534
-0.172457 0.778022 0.137655
-0.165446 0.765220 0.135658
-0.161541 0.765338 0.135557
-0.157699 0.765708 0.135494
-0.153552 0.764683 0.135228
-0.151234 0.772071 0.136192
-0.148234 0.776536 0.136728
-0.145205 0.781036 0.137268
-0.140191 0.775840 0.136398
-0.135841 0.773744 0.135980
-0.132255 0.775512 0.136124
-0.128001 0.773759 0.135758
-0.124824 0.777820 0.136237
-0.120412 0.775080 0.135729
-0.116400 0.774486 0.135534
-0.113027 0.777666 0.135885
-0.109734 0.781497 0.136330
-0.105327 0.778453 0.135782
-0.100907 0.775101 0.135192
-0.096461 0.771329 0.134542
-0.092859 0.773183 0.134703
-0.089284 0.775334 0.134908
-0.085287 0.774451 0.134676
-0.081132 0.772244 0.134255
-0.077348 0.772837 0.134237
-0.073619 0.773911 0.134288
-0.069816 0.774407 0.134256
-0.065766 0.772656 0.133903
-0.061972 0.773160 0.133874
-0.058641 0.778317 0.134509
-0.055342 0.784306 0.135262
-0.051317 0.782850 0.134952
-0.046573 0.772801 0.133420
-0.042703 0.772363 0.133258
-0.038907 0.772795 0.133220
-0.035074 0.772737 0.133113
-0.031364 0.774481 0.133262
-0.027966 0.781495 0.134158
-0.024086 0.781212 0.134019
-0.020322 0.783028 0.134177
-0.016444 0.782792 0.134046
-0.012502 0.780957 0.133688
-0.008566 0.778753 0.133280
-0.004656 0.776677 0.132890
-0.000902 0.779250 0.133157
0.003046 0.774724 0.132423
0.006897 0.772946 0.132078
0.010650 0.776518 0.132485
0.014445 0.779144 0.132759
0.018298 0.775138 0.132102
0.022110 0.774995 0.131988
0.025932 0.777932 0.132307
0.029794 0.782422 0.132842
0.033630 0.781916 0.132678
0.037445 0.780595 0.132400
0.041249 0.779401 0.132141
0.045093 0.780063 0.132141
0.048918 0.779951 0.132034
0.052712 0.779079 0.131822
0.056573 0.779987 0.131857
0.060428 0.780602 0.131853
0.064492 0.785203 0.132403
0.068414 0.786486 0.132491
0.072071 0.783186 0.131944
0.075820 0.781770 0.131659
0.079643 0.781586 0.131546
0.083485 0.781693 0.131473
0.087431 0.783071 0.131577
0.092117 0.793113 0.132880
0.095974 0.792714 0.132738
0.099922 0.793321 0.132736
0.103721 0.792331 0.132514
0.107898 0.795101 0.132811
0.111605 0.793236 0.132470
0.115157 0.790122 0.131958
0.119303 0.792321 0.132178
0.123108 0.791520 0.131986
0.126904 0.790684 0.131791
0.129698 0.782245 0.130552
0.133859 0.784432 0.130774
0.137998 0.786284 0.130950
0.142056 0.787436 0.131030
0.145275 0.782886 0.130331
0.149679 0.786247 0.130715
0.154007 0.788903 0.131004
0.157873 0.788553 0.130882
0.161113 0.784487 0.130254
0.165142 0.785152 0.130273
0.169274 0.786322 0.130362
0.173360 0.787143 0.130404
0.177291 0.787058 0.130324
0.182226 0.792141 0.130948
0.185918 0.790650 0.130678
0.189045 0.786400 0.130035
0.193245 0.787479 0.130117
0.197097 0.786826 0.129965
0.201447 0.788449 0.130123
0.205635 0.789226 0.130167
0.211560 0.797571 0.131239
0.216059 0.799371 0.131423
0.215534 0.779823 0.128718
0.221716 0.788768 0.129873
0.227153 0.794285 0.130565
0.233542 0.803316 0.131732
0.236790 0.799700 0.131191
0.237984 0.788315 0.129601
0.240951 0.783950 0.128963
0.246422 0.788911 0.129585
0.250585 0.788905 0.129537
0.253093 0.782964 0.128691
0.255455 0.776669 0.127799
0.264611 0.793801 0.130066
0.270071 0.797844 0.130569
0.274384 0.797893 0.130536
0.277743 0.794773 0.130078
0.280447 0.789599 0.129345
0.284875 0.789957 0.129358
0.289363 0.790424 0.129387
0.293980 0.791208 0.129460
0.300749 0.798351 0.130389
0.303671 0.793863 0.129756
0.307482 0.792032 0.129481
0.310867 0.788979 0.129044
0.315542 0.789592 0.129100
0.320460 0.790799 0.129237
0.325139 0.791263 0.129276
0.331172 0.795301 0.129794
0.336000 0.795970 0.129862
0.339598 0.793358 0.129490
0.344605 0.794403 0.129609
0.349765 0.795761 0.129770
0.353431 0.793301 0.129420
0.358244 0.793706 0.129454
0.366036 0.801322 0.130454
0.369178 0.797540 0.129926
0.372254 0.793679 0.129387
0.381010 0.803193 0.130638
0.387822 0.807966 0.131253
0.393150 0.809235 0.131397
0.398941 0.811524 0.131675
0.396697 0.795925 0.129558
0.402754 0.798948 0.129930
0.407579 0.799263 0.129937
0.412697 0.800240 0.130029
0.418314 0.802305 0.130263
0.415118 0.785949 0.128032
0.419202 0.785090 0.127868
0.427970 0.793907 0.128990
0.433448 0.795966 0.129206
0.433928 0.788070 0.128089
-0.485293 0.734779 0.140001
-0.480801 0.734963 0.139875
-0.475515 0.734005 0.139562
-0.470461 0.733463 0.139308
-0.467398 0.736112 0.139549
-0.463103 0.736915 0.139493
-0.457748 0.736083 0.139174
-0.453823 0.737598 0.139218
-0.449827 0.739066 0.139249
-0.445175 0.739507 0.139116
-0.441267 0.741223 0.139176
-0.436341 0.741268 0.138974
-0.432333 0.742891 0.139014
-0.427106 0.742440 0.138729
-0.421768 0.741778 0.138412
-0.417415 0.742825 0.138357
-0.412191 0.742323 0.138062
-0.407793 0.743275 0.137992
-0.403154 0.743777 0.137852
-0.398932 0.745028 0.137826
-0.393497 0.743998 0.137453
-0.389800 0.746193 0.137573
-0.384683 0.745671 0.137280
-0.379874 0.745683 0.137070
-0.375827 0.747141 0.137081
-0.371685 0.748391 0.137061
-0.366960 0.748442 0.136862
-0.363076 0.750149 0.136915
-0.357459 0.748269 0.136429
-0.353037 0.748775 0.136305
-0.348731 0.749476 0.136213
-0.344706 0.750738 0.136207
-0.340589 0.751770 0.136168
-0.335420 0.750456 0.135781
-0.331320 0.751425 0.135738
-0.326821 0.751458 0.135558
-0.322540 0.751929 0.135445
-0.317578 0.750777 0.135093
-0.313060 0.750574 0.134885
-0.309120 0.751677 0.134873
-0.304917 0.752116 0.134765
-0.300406 0.751761 0.134543
-0.296384 0.752543 0.134490
-0.292747 0.754253 0.134576
-0.287871 0.752812 0.134200
-0.284222 0.754432 0.134276
-0.280048 0.754671 0.134152
-0.276077 0.755402 0.134102
-0.272151 0.756219 0.134066
-0.268163 0.756842 0.134003
-0.263874 0.756598 0.133816
-0.259845 0.757024 0.133729
-0.255970 0.757852 0.133702
-0.251599 0.757224 0.133465
-0.247830 0.758295 0.133476
-0.244387 0.760325 0.133628
-0.240012 0.759549 0.133375
-0.236090 0.760097 0.133316
-0.231867 0.759680 0.133118
-0.228084 0.760600 0.133115
-0.224304 0.761518 0.133113
-0.220520 0.762410 0.133108
-0.216063 0.761050 0.132782
-0.212486 0.762586 0.132872
-0.208543 0.762873 0.132785
-0.204655 0.763321 0.132721
-0.200686 0.763461 0.132615
-0.196578 0.763060 0.132433
-0.192605 0.763111 0.132317
-0.188892 0.764109 0.132337
-0.184933 0.764164 0.132223
-0.181734 0.767167 0.132530
-0.179129 0.772639 0.133188
-0.176003 0.776165 0.133570
-0.171225 0.772915 0.132990
-0.165654 0.766125 0.131910
-0.161692 0.766007 0.131778
-0.157630 0.765405 0.131578
-0.153650 0.765122 0.131425
-0.150537 0.768817 0.131834
-0.148261 0.776632 0.132823
-0.144327 0.776727 0.132724
-0.140362 0.776640 0.132600
-0.136225 0.775639 0.132348
-0.131651 0.772276 0.131766
-0.128323 0.775400 0.132095
-0.124113 0.773797 0.131762
-0.120502 0.775475 0.131889
-0.116057 0.772361 0.131346
-0.112680 0.775439 0.131669
-0.109719 0.781237 0.132373
-0.105413 0.778817 0.131929
-0.100529 0.772418 0.130931
-0.096437 0.770948 0.130622
-0.092966 0.773696 0.130901
-0.089630 0.777585 0.131338
-0.085859 0.778460 0.131356
-0.081084 0.771563 0.130296
-0.077244 0.771663 0.130208
-0.073668 0.773959 0.130425
-0.069778 0.773681 0.130285
-0.065667 0.771322 0.129858
-0.062103 0.773941 0.130120
-0.058454 0.775941 0.130296
-0.054116 0.770866 0.129496
-0.051673 0.786186 0.131508
-0.046626 0.772770 0.129561
-0.042810 0.772979 0.129491
-0.038978 0.772951 0.129389
-0.035115 0.772468 0.129225
-0.031829 0.780512 0.130231
-0.028272 0.785384 0.130801
-0.024104 0.780363 0.130015
-0.020189 0.779186 0.129757
-0.016520 0.782911 0.130169
-0.012545 0.780279 0.129713
-0.008615 0.778125 0.129323
-0.004806 0.778907 0.129333
-0.001166 0.785720 0.130166
0.003001 0.773356 0.128387
0.006849 0.771292 0.128013
0.010583 0.775527 0.128494
0.014371 0.778138 0.128755
0.018210 0.775732 0.128335
0.022024 0.773858 0.127988
0.025847 0.778883 0.128576
0.029703 0.782401 0.128959
0.033548 0.782770 0.128916
0.037354 0.780789 0.128556
0.041153 0.779388 0.128275
0.044976 0.779369 0.128181
0.048804 0.779532 0.128113
0.052648 0.780088 0.128097
0.056410 0.778565 0.127802
0.060370 0.781647 0.128127
0.064441 0.786335 0.128667
0.068321 0.786794 0.128639
0.071911 0.782380 0.127958
0.075707 0.781768 0.127788
0.079504 0.781250 0.127631
0.083341 0.781323 0.127554
0.087271 0.782568 0.127634
0.091702 0.789620 0.128490
0.095964 0.794014 0.128990
0.099389 0.788968 0.128231
0.103327 0.789631 0.128235
0.107546 0.792953 0.128592
0.111286 0.791509 0.128316
0.114877 0.788831 0.127877
0.118465 0.786323 0.127461
0.123168 0.793168 0.128288
0.126831 0.791233 0.127950
0.130284 0.787814 0.127417
0.134077 0.787115 0.127244
0.137707 0.785272 0.126922
0.141247 0.782897 0.126530
0.145211 0.783477 0.126530
0.149889 0.788612 0.127132
0.153788 0.788525 0.127045
0.157342 0.786302 0.126677
0.160886 0.784109 0.126314
0.165125 0.786010 0.126492
0.169190 0.786797 0.126523
0.173112 0.786724 0.126443
0.177326 0.788170 0.126562
0.181690 0.790280 0.126770
0.185653 0.790222 0.126694
0.189077 0.787463 0.126265
0.192748 0.785975 0.126003
0.196880 0.786690 0.126032
0.200831 0.786493 0.125942
0.205104 0.787709 0.126038
0.211458 0.798005 0.127323
0.214407 0.793115 0.126622
0.217555 0.789219 0.126053
0.221222 0.787580 0.125780
0.227282 0.795667 0.126778
0.233304 0.803235 0.127708
0.236039 0.797628 0.126921
0.237522 0.787390 0.125533
0.240118 0.781656 0.124734
0.244792 0.783738 0.124954
0.250399 0.789065 0.125597
0.253904 0.786672 0.125237
0.258853 0.789343 0.125537
0.265275 0.796908 0.126473
0.269824 0.797845 0.126550
0.274422 0.798848 0.126636
0.277035 0.793293 0.125872
0.279925 0.788746 0.125241
0.284540 0.789717 0.125327
0.289072 0.790337 0.125369
0.293284 0.789900 0.125275
0.298661 0.792908 0.125629
0.306778 0.803848 0.127010
0.306874 0.791074 0.125322
0.311335 0.791122 0.125296
0.316210 0.792276 0.125414
0.320265 0.791061 0.125226
0.324578 0.790529 0.125127
0.331066 0.795814 0.125782
0.334702 0.793323 0.125431
0.340375 0.796182 0.125773
0.345366 0.797154 0.125871
0.348018 0.792106 0.125193
0.350993 0.787970 0.124632
0.357750 0.793261 0.125289
0.363620 0.796212 0.125643
0.366657 0.792246 0.125104
0.367154 0.782339 0.123798
0.373870 0.787238 0.124402
0.383028 0.797647 0.125714
0.391480 0.806177 0.126782
0.394453 0.802162 0.126231
0.396838 0.796957 0.125526
0.401066 0.795953 0.125359
0.406488 0.797596 0.125531
0.411826 0.799063 0.125677
0.416358 0.798841 0.125602
0.415031 0.786419 0.123956
0.418727 0.784747 0.123688
0.427654 0.793892 0.124806
0.433768 0.797230 0.125173
0.441906 0.804646 0.126057
-0.484284 0.733493 0.135630
-0.479090 0.732597 0.135343
-0.474565 0.732798 0.135217
-0.471024 0.734609 0.135328
-0.466297 0.734655 0.135164
-0.463091 0.737179 0.135371
-0.457228 0.735538 0.134940
-0.453409 0.737223 0.135008
-0.448635 0.737415 0.134846
-0.444041 0.737936 0.134730
-0.439745 0.738988 0.134690
-0.436450 0.741769 0.134907
-0.431031 0.740982 0.134585
-0.425757 0.740429 0.134297
-0.421624 0.741849 0.134303
-0.416909 0.742258 0.134156
-0.412741 0.743633 0.134152
-0.407449 0.742979 0.133847
-0.403168 0.744129 0.133809
-0.398998 0.745477 0.133801
-0.394634 0.746452 0.133738
-0.389684 0.746296 0.133509
-0.384763 0.746145 0.133282
-0.380075 0.746394 0.133115
-0.375086 0.746003 0.132856
-0.371118 0.747578 0.132887
-0.367075 0.748985 0.132895
-0.362542 0.749370 0.132755
-0.357323 0.748292 0.132404
-0.352756 0.748489 0.132241
-0.348600 0.749498 0.132198
-0.344066 0.749661 0.132034
-0.339782 0.750309 0.131943
-0.335675 0.751300 0.131904
-0.330863 0.750688 0.131635
-0.326765 0.751608 0.131590
-0.321682 0.750241 0.131218
-0.317335 0.750480 0.131079
-0.313456 0.751761 0.131092
-0.309023 0.751702 0.130915
-0.304682 0.751802 0.130763
-0.299996 0.751006 0.130485
-0.296277 0.752518 0.130539
-0.292220 0.753169 0.130472
-0.288666 0.755059 0.130583
-0.284599 0.755624 0.130507
-0.280364 0.755711 0.130365
-0.276002 0.755413 0.130171
-0.272190 0.756530 0.130179
-0.268205 0.757155 0.130119
-0.264104 0.757426 0.130011
-0.259828 0.757165 0.129830
-0.255712 0.757302 0.129706
-0.251636 0.757509 0.129595
-0.248022 0.759029 0.129669
-0.244059 0.759512 0.129598
-0.240190 0.760247 0.129565
-0.236078 0.760213 0.129425
-0.232077 0.760479 0.129329
-0.227980 0.760410 0.129188
-0.224359 0.761826 0.129255
-0.220339 0.761944 0.129142
-0.216373 0.762200 0.129050
-0.212009 0.761077 0.128768
-0.208348 0.762302 0.128812
-0.204677 0.763495 0.128854
-0.200704 0.763616 0.128748
-0.196640 0.763369 0.128592
-0.192848 0.764090 0.128571
-0.188918 0.764275 0.128477
-0.185043 0.764649 0.128410
-0.181824 0.767574 0.128695
-0.178614 0.770618 0.128996
-0.175063 0.772358 0.129118
-0.170614 0.770394 0.128733
-0.165477 0.765387 0.127934
-0.161553 0.765411 0.127824
-0.157768 0.766015 0.127795
-0.153504 0.764447 0.127470
-0.152108 0.776091 0.128947
-0.148042 0.775559 0.128763
-0.143901 0.774607 0.128523
-0.139366 0.771620 0.128008
-0.135884 0.773831 0.128200
-0.132916 0.778817 0.128769
-0.127819 0.772597 0.127818
-0.124252 0.774458 0.127964
-0.119592 0.770199 0.127281
-0.115959 0.771655 0.127373
-0.112708 0.775456 0.127782
-0.109415 0.779193 0.128181
-0.105554 0.779528 0.128122
-0.101054 0.775662 0.127498
-0.097285 0.776464 0.127502
-0.093264 0.775537 0.127275
-0.089624 0.777271 0.127406
-0.085969 0.778995 0.127535
-0.081114 0.771488 0.126428
-0.077253 0.771396 0.126316
-0.073475 0.771971 0.126293
-0.069617 0.771867 0.126179
-0.065833 0.772402 0.126152
-0.061945 0.771964 0.125994
-0.058523 0.776120 0.126450
-0.055118 0.780838 0.126979
-0.051353 0.782042 0.127040
-0.046839 0.774604 0.125954
-0.042961 0.774132 0.125794
-0.039090 0.773641 0.125632
-0.035236 0.773311 0.125491
-0.031841 0.779755 0.126248
-0.027828 0.777179 0.125811
-0.023884 0.775356 0.125474
-0.020149 0.777132 0.125612
-0.016449 0.779964 0.125891
-0.012715 0.782565 0.126138
-0.008807 0.781216 0.125865
-0.005033 0.783413 0.126059
-0.001176 0.783404 0.125962
0.002895 0.774546 0.124704
0.006649 0.777463 0.124994
0.010421 0.780934 0.125356
0.014251 0.781736 0.125367
0.018097 0.780770 0.125147
0.021931 0.782262 0.125250
0.025754 0.777922 0.124590
0.029602 0.781240 0.124931
0.033438 0.781472 0.124870
0.037266 0.781122 0.124732
0.041060 0.779518 0.124433
0.044866 0.778919 0.124264
0.048699 0.779350 0.124230
0.052514 0.779200 0.124120
0.056452 0.782067 0.124403
0.060451 0.785665 0.124780
0.064523 0.790063 0.125260
0.068297 0.788333 0.124947
0.071853 0.783261 0.124202
0.075342 0.777877 0.123419
0.079349 0.780664 0.123692
0.083224 0.781325 0.123691
0.087112 0.782043 0.123697
0.091733 0.791448 0.124822
0.095318 0.788114 0.124307
0.098313 0.778750 0.123018
0.102921 0.786785 0.123966
0.107170 0.790559 0.124366
0.110833 0.788509 0.124020
0.114122 0.783272 0.123265
0.117902 0.782649 0.123103
0.122276 0.786960 0.123574
0.127151 0.794895 0.124507
0.130938 0.793906 0.124299
0.134436 0.790829 0.123826
0.137356 0.783812 0.122851
0.141395 0.784945 0.122917
0.145748 0.788075 0.123238
0.149910 0.789746 0.123374
0.153607 0.788367 0.123122
0.156977 0.785039 0.122623
0.160755 0.784283 0.122452
0.164801 0.785085 0.122480
0.168906 0.786134 0.122540
0.173375 0.789080 0.122841
0.177086 0.787805 0.122608
0.182003 0.792815 0.123171
0.185749 0.791608 0.122948
0.189152 0.788721 0.122514
0.192311 0.784741 0.121943
0.195888 0.782881 0.121641
0.200267 0.784755 0.121812
0.204846 0.787405 0.122081
0.210303 0.793771 0.122819
0.213341 0.789359 0.122200
0.218152 0.792592 0.122544
0.223996 0.799921 0.123405
0.227904 0.799037 0.123232
0.231307 0.796128 0.122807
0.235139 0.794950 0.122601
0.237803 0.789289 0.121833
0.240549 0.784093 0.121125
0.245343 0.786584 0.121383
0.249274 0.785805 0.121232
0.254939 0.791162 0.121851
0.260840 0.797094 0.122542
0.265909 0.799900 0.122842
0.270923 0.802365 0.123101
0.273333 0.796050 0.122263
0.276124 0.791130 0.121601
0.279815 0.789191 0.121313
0.284881 0.791591 0.121569
0.289043 0.791044 0.121457
0.293434 0.791154 0.121429
0.298362 0.792806 0.121593
0.303903 0.796156 0.121971
0.307112 0.792555 0.121483
0.311233 0.791619 0.121328
0.316052 0.792616 0.121415
0.320588 0.792741 0.121394
0.324572 0.791291 0.121178
0.329481 0.792324 0.121272
0.336719 0.799459 0.122125
0.340922 0.798391 0.121958
0.343965 0.794311 0.121418
0.344936 0.785030 0.120232
0.349970 0.786161 0.120340
0.358185 0.795093 0.121416
0.361136 0.790907 0.120864
0.359508 0.775784 0.118955
0.365765 0.779772 0.119416
0.371716 0.782921 0.119772
0.378057 0.786884 0.120228
0.385553 0.793379 0.120996
0.392591 0.798684 0.121615
0.397445 0.799013 0.121615
0.400464 0.795323 0.121116
0.405309 0.795722 0.121121
0.410700 0.797323 0.121272
0.415306 0.797274 0.121216
0.417737 0.792732 0.120602
0.423515 0.795292 0.120861
0.428564 0.796379 0.120935
0.433392 0.797081 0.120958
0.440805 0.803044 0.121624
-0.481660 0.729753 0.130917
-0.479419 0.733349 0.131300
-0.474889 0.733553 0.131177
-0.471130 0.735038 0.131235
-0.467476 0.736781 0.131325
-0.460440 0.733238 0.130636
-0.456830 0.735180 0.130745
-0.453130 0.737059 0.130839
-0.449560 0.739224 0.130970
-0.444345 0.738736 0.130712
-0.439743 0.739285 0.130601
-0.435454 0.740388 0.130568
-0.430376 0.740170 0.130341
-0.425659 0.740569 0.130202
-0.421455 0.741865 0.130191
-0.417482 0.743583 0.130239
-0.412193 0.742964 0.129951
-0.408382 0.744981 0.130041
-0.403364 0.744802 0.129816
-0.398939 0.745680 0.129742
-0.394361 0.746252 0.129626
-0.389498 0.746254 0.129429
-0.384986 0.746881 0.129322
-0.380512 0.747546 0.129222
-0.374781 0.745707 0.128769
-0.370864 0.747373 0.128814
-0.366506 0.748138 0.128732
-0.362333 0.749239 0.128700
-0.358229 0.750451 0.128684
-0.352491 0.748220 0.128188
-0.348192 0.748917 0.128104
-0.343714 0.749185 0.127963
-0.339449 0.749861 0.127880
-0.335222 0.750575 0.127805
-0.331203 0.751711 0.127790
-0.326291 0.750800 0.127493
-0.321850 0.750881 0.127336
-0.317706 0.751589 0.127268
-0.313459 0.752013 0.127163
-0.309933 0.754102 0.127289
-0.304138 0.750729 0.126664
-0.300014 0.751279 0.126583
-0.296220 0.752604 0.126609
-0.292607 0.754358 0.126697
-0.288379 0.754546 0.126571
-0.284601 0.755839 0.126597
-0.279981 0.754917 0.126323
-0.276045 0.755728 0.126288
-0.271805 0.755689 0.126138
-0.268133 0.757148 0.126194
-0.264194 0.757859 0.126149
-0.259785 0.757221 0.125923
-0.255626 0.757226 0.125786
-0.251822 0.758213 0.125783
-0.247934 0.758932 0.125746
-0.244484 0.760933 0.125883
-0.239943 0.759648 0.125577
-0.235767 0.759398 0.125413
-0.231884 0.760014 0.125367
-0.228188 0.761197 0.125399
-0.224383 0.762027 0.125384
-0.220551 0.762755 0.125356
-0.216145 0.761551 0.125071
-0.212175 0.761743 0.124974
-0.208205 0.761906 0.124874
-0.204538 0.763098 0.124913
-0.200546 0.763133 0.124798
-0.196615 0.763353 0.124709
-0.192635 0.763364 0.124593
-0.188640 0.763284 0.124466
-0.184688 0.763332 0.124357
-0.181004 0.764397 0.124384
-0.178164 0.768852 0.124861
-0.174718 0.770978 0.125029
-0.170172 0.768570 0.124598
-0.165229 0.764344 0.123928
-0.161324 0.764412 0.123827
-0.157812 0.766203 0.123954
-0.153512 0.764465 0.123616
-0.150918 0.770537 0.124307
-0.148217 0.776350 0.124962
-0.143187 0.771087 0.124164
-0.138793 0.768704 0.123745
-0.135681 0.772720 0.124165
-0.132574 0.776941 0.124612
-0.128706 0.777260 0.124548
-0.123495 0.770173 0.123517
-0.120023 0.772516 0.123719
-0.116187 0.772843 0.123659
-0.112704 0.775275 0.123872
-0.108815 0.775319 0.123775
-0.104719 0.774026 0.123505
-0.101513 0.778464 0.123980
-0.098002 0.781091 0.124219
-0.094018 0.780564 0.124049
-0.089429 0.775596 0.123305
-0.085501 0.775196 0.123153
-0.081373 0.773185 0.122794
-0.077347 0.771819 0.122519
-0.073510 0.771896 0.122430
-0.069718 0.772356 0.122391
-0.065824 0.771894 0.122234
-0.061938 0.771434 0.122078
-0.058801 0.778390 0.122874
-0.055152 0.780640 0.123066
-0.051281 0.780637 0.122968
-0.047164 0.777739 0.122499
-0.043115 0.775317 0.122093
-0.039170 0.773923 0.121819
-0.035319 0.773615 0.121684
-0.031513 0.773901 0.121625
-0.027629 0.772946 0.121409
-0.023787 0.772520 0.121260
-0.020191 0.776648 0.121691
-0.016500 0.779566 0.121968
-0.012671 0.779888 0.121915
-0.008953 0.783110 0.122229
-0.005056 0.781869 0.121978
-0.001152 0.779933 0.121639
0.002631 0.782142 0.121825
0.006499 0.781033 0.121591
0.010310 0.782865 0.121730
0.014144 0.784007 0.121781
0.018004 0.782182 0.121458
0.021847 0.778714 0.120929
0.025693 0.784992 0.121628
0.029502 0.780129 0.120925
0.033316 0.779179 0.120714
0.037213 0.783415 0.121156
0.040966 0.779565 0.120582
0.044772 0.779021 0.120424
0.048578 0.778645 0.120287
0.052433 0.779732 0.120334
0.056286 0.780528 0.120344
0.060462 0.788191 0.121213
0.064403 0.789810 0.121326
0.068189 0.788349 0.121055
0.071580 0.780548 0.119994
0.075403 0.780539 0.119906
0.079186 0.779955 0.119747
0.083047 0.780484 0.119726
0.087154 0.784074 0.120086
0.091305 0.787767 0.120458
0.095235 0.788553 0.120470
0.099357 0.791310 0.120726
0.103344 0.792409 0.120777
0.106131 0.781650 0.119362
0.110180 0.783620 0.119522
0.114027 0.783597 0.119436
0.117936 0.784093 0.119415
0.122162 0.787136 0.119709
0.126524 0.791023 0.120106
0.130578 0.792238 0.120174
0.134225 0.790331 0.119858
0.137299 0.784437 0.119054
0.141552 0.787041 0.119295
0.146311 0.792846 0.119928
0.150921 0.797293 0.120395
0.154986 0.798019 0.120406
0.157022 0.786267 0.118890
0.160597 0.784286 0.118572
0.164494 0.784240 0.118491
0.168726 0.786039 0.118637
0.172806 0.786878 0.118666
0.177159 0.789094 0.118863
0.181377 0.790458 0.118957
0.186178 0.794670 0.119398
0.189823 0.792916 0.119113
0.192741 0.787684 0.118407
0.196202 0.785217 0.118038
0.200225 0.785412 0.117994
0.205364 0.790592 0.118555
0.210338 0.794769 0.118995
0.213876 0.792511 0.118655
0.219004 0.797034 0.119138
0.224386 0.802377 0.119720
0.228358 0.801717 0.119576
0.230434 0.793472 0.118517
0.234502 0.793278 0.118432
0.237575 0.789222 0.117882
0.242009 0.790386 0.117964
0.244389 0.783862 0.117119
0.248278 0.782992 0.116957
0.254126 0.789067 0.117633
0.261330 0.799607 0.118847
0.265464 0.799172 0.118740
0.268030 0.793398 0.117992
0.272496 0.794065 0.118020
0.275279 0.789159 0.117380
0.279782 0.789867 0.117415
0.284443 0.790989 0.117500
0.289137 0.792115 0.117587
0.294095 0.793946 0.117760
0.298603 0.794306 0.117756
0.303818 0.796680 0.117995
0.307747 0.795176 0.117771
0.311754 0.793879 0.117572
0.315926 0.793026 0.117427
0.319860 0.791479 0.117200
0.325032 0.793312 0.117378
0.331900 0.799610 0.118089
0.335284 0.796405 0.117666
0.340580 0.798253 0.117847
0.342516 0.791320 0.116980
0.344886 0.785642 0.116264
0.352540 0.793352 0.117145
0.358715 0.797146 0.117558
0.361026 0.791370 0.116831
0.363974 0.787257 0.116301
0.368871 0.787865 0.116334
0.375128 0.791630 0.116742
0.378168 0.787846 0.116250
0.383700 0.789848 0.116446
0.391661 0.797286 0.117286
0.397124 0.798990 0.117443
0.400547 0.796187 0.117063
0.404559 0.794764 0.116844
0.409371 0.795134 0.116837
0.413256 0.793578 0.116598
0.419351 0.796753 0.116917
0.426466 0.802037 0.117483
0.427326 0.794459 0.116522
0.431089 0.793017 0.116285
0.438056 0.798127 0.116819
-0.484623 0.734483 0.127450
-0.479869 0.734281 0.127278
-0.476080 0.735643 0.127322
-0.471181 0.735373 0.127129
-0.466382 0.735321 0.126962
-0.461534 0.735246 0.126787
-0.456723 0.735282 0.126623
-0.453362 0.737714 0.126791
-0.449757 0.739831 0.126911
-0.444500 0.739281 0.126654
-0.439871 0.739790 0.126543
-0.435407 0.740601 0.126471
-0.430308 0.740347 0.126249
-0.425850 0.741195 0.126179
-0.421720 0.742626 0.126188
-0.416896 0.742845 0.126029
-0.412125 0.743142 0.125880
-0.407977 0.744547 0.125883
-0.403822 0.745938 0.125885
-0.398384 0.744950 0.125559
-0.393379 0.744707 0.125337
-0.389192 0.745967 0.125322
-0.384986 0.747173 0.125300
-0.379883 0.746614 0.125039
-0.375196 0.746809 0.124882
-0.370688 0.747307 0.124767
-0.366795 0.749001 0.124817
-0.362078 0.748997 0.124637
-0.357247 0.748701 0.124420
-0.352593 0.748705 0.124246
-0.348152 0.749099 0.124126
-0.344000 0.750062 0.124084
-0.339029 0.749210 0.123801
-0.335266 0.750927 0.123864
-0.330666 0.750768 0.123678
-0.326449 0.751404 0.123600
-0.322429 0.752444 0.123578
-0.317772 0.751981 0.123356
-0.314006 0.753528 0.123405
-0.308499 0.750928 0.122904
-0.304821 0.752595 0.122973
-0.300431 0.752514 0.122811
-0.296219 0.752814 0.122701
-0.292272 0.753730 0.122674
-0.288112 0.754071 0.122574
-0.283770 0.753901 0.122407
-0.279842 0.754748 0.122376
-0.275777 0.755207 0.122296
-0.271954 0.756274 0.122297
-0.267935 0.756787 0.122227
-0.264201 0.758051 0.122256
-0.260324 0.758901 0.122233
-0.255917 0.758217 0.122010
-0.251821 0.758364 0.121898
-0.248366 0.760349 0.122026
-0.243904 0.759349 0.121767
-0.239838 0.759468 0.121655
-0.235783 0.759580 0.121543
-0.231748 0.759715 0.121436
-0.227965 0.760610 0.121428
-0.224373 0.762112 0.121500
-0.220715 0.763401 0.121545
-0.216481 0.762775 0.121344
-0.211698 0.760219 0.120895
-0.208041 0.761428 0.120933
-0.204532 0.763157 0.121038
-0.200609 0.763432 0.120958
-0.196418 0.762706 0.120749
-0.192363 0.762418 0.120598
-0.188343 0.762217 0.120459
-0.184440 0.762420 0.120373
-0.180848 0.763824 0.120441
-0.177992 0.768194 0.120888
-0.174640 0.770681 0.121095
-0.170755 0.771018 0.121028
-0.165394 0.765048 0.120159
-0.161800 0.766477 0.120233
-0.157537 0.764966 0.119934
-0.153461 0.764207 0.119732
-0.151831 0.774739 0.120960
-0.147988 0.775218 0.120915
-0.143392 0.772031 0.120406
-0.138181 0.765593 0.119488
-0.135662 0.772547 0.120262
-0.133071 0.779448 0.121029
-0.128561 0.776380 0.120539
