ply
format ascii 1.0
comment ---
element vertex 1708
property float x
property float y
property float z
element face 0
property list uchar uint vertex_indices
end_header
1.001036 0.799153 -0.471127
1.006748 0.798737 -0.470724
1.013201 0.799403 -0.470737
1.018732 0.798592 -0.470196
1.026187 0.800630 -0.470737
1.031824 0.799852 -0.470219
1.037973 0.799780 -0.469973
1.044380 0.800022 -0.469850
1.050851 0.800285 -0.469740
1.057731 0.801063 -0.469829
1.063693 0.800459 -0.469402
1.070576 0.801090 -0.469444
1.077890 0.802242 -0.469686
1.084062 0.801736 -0.469309
1.091600 0.803031 -0.469612
1.097856 0.802510 -0.469236
1.104864 0.802936 -0.469219
1.112266 0.803811 -0.469373
1.118420 0.802975 -0.468887
1.126336 0.804374 -0.469240
1.134699 0.806258 -0.469775
1.141555 0.806137 -0.469559
1.148181 0.805673 -0.469215
1.154338 0.804584 -0.468635
1.162685 0.806162 -0.469051
1.170657 0.807206 -0.469262
1.175061 0.803877 -0.467837
1.182020 0.803629 -0.467556
1.194243 0.809590 -0.469583
1.193313 0.799967 -0.465795
1.205062 0.805246 -0.467548
1.214722 0.807999 -0.468349
1.221371 0.807252 -0.467835
1.228449 0.806995 -0.467489
1.236127 0.807416 -0.467379
1.242779 0.806693 -0.466828
1.250385 0.807043 -0.466657
1.257169 0.806511 -0.466140
1.269931 0.812478 -0.468004
1.278503 0.813880 -0.468155
1.282038 0.809942 -0.466311
1.286404 0.806990 -0.464808
1.292746 0.806203 -0.464079
1.302658 0.809189 -0.464710
1.309178 0.808697 -0.464035
1.313731 0.806271 -0.462623
1.316710 0.802361 -0.460641
1.327500 0.806438 -0.461552
1.330070 0.802330 -0.459445
1.335655 0.801352 -0.458453
1.348854 0.807962 -0.460188
1.358110 0.810714 -0.460486
0.199841 0.752854 -0.539673
0.204127 0.750030 -0.538173
0.207610 0.750370 -0.538161
0.210667 0.752581 -0.539016
0.214122 0.753540 -0.539236
0.217638 0.754517 -0.539433
0.222088 0.751989 -0.537919
0.225507 0.753831 -0.538466
0.229421 0.753890 -0.538127
0.233190 0.754797 -0.538162
0.237075 0.755448 -0.538043
0.241048 0.755943 -0.537820
0.245038 0.756588 -0.537639
0.249069 0.757270 -0.537448
0.253657 0.755512 -0.536071
0.257417 0.757899 -0.536635
0.261521 0.758848 -0.536493
0.265662 0.759813 -0.536335
0.270056 0.759638 -0.535616
0.274481 0.759422 -0.534860
0.278884 0.759438 -0.534197
0.283027 0.761062 -0.534273
0.287370 0.761696 -0.533869
0.291762 0.762149 -0.533366
0.296136 0.762817 -0.532954
0.300696 0.762363 -0.532008
0.305250 0.761964 -0.531081
0.309751 0.761939 -0.530323
0.314247 0.761963 -0.529583
0.318720 0.762165 -0.528923
0.323105 0.763074 -0.528586
0.327572 0.763359 -0.527959
0.331905 0.764791 -0.527860
0.336348 0.765326 -0.527347
0.340977 0.764095 -0.526026
0.345255 0.766173 -0.526223
0.349932 0.764205 -0.524573
0.354342 0.764885 -0.524137
0.358760 0.765457 -0.523656
0.363240 0.765223 -0.522812
0.367714 0.764904 -0.521936
0.372149 0.764987 -0.521248
0.376633 0.764162 -0.520156
0.381045 0.764263 -0.519489
0.385377 0.765701 -0.519430
0.389746 0.766514 -0.519094
0.394169 0.766058 -0.518195
0.398544 0.766496 -0.517704
0.402979 0.765033 -0.516371
0.407333 0.765618 -0.515960
0.411693 0.765855 -0.515400
0.416042 0.766414 -0.514990
0.420402 0.765997 -0.514153
0.424749 0.765742 -0.513396
0.429081 0.767730 -0.513637
0.433421 0.766874 -0.512627
0.437741 0.765262 -0.511293
0.442095 0.768223 -0.511979
0.446429 0.768566 -0.511518
0.450714 0.766786 -0.510132
0.455082 0.768819 -0.510424
0.459456 0.770568 -0.510595
0.463780 0.770591 -0.510017
0.468094 0.770421 -0.509362
0.472411 0.770437 -0.508793
0.476744 0.770781 -0.508372
0.481058 0.770762 -0.507800
0.485436 0.771823 -0.507701
0.489756 0.771854 -0.507160
0.493911 0.769628 -0.505651
0.498363 0.771524 -0.505926
0.502718 0.772026 -0.505603
0.506997 0.771586 -0.504881
0.511160 0.769931 -0.503642
0.515601 0.771296 -0.503705
0.520179 0.773868 -0.504286
0.524526 0.774022 -0.503836
0.528796 0.773457 -0.503083
0.533205 0.774104 -0.502852
0.537582 0.774423 -0.502484
0.541903 0.774248 -0.501910
0.546078 0.772957 -0.500866
0.550346 0.772414 -0.500144
0.554925 0.774076 -0.500360
0.559424 0.775053 -0.500288
0.563851 0.775460 -0.499978
0.568329 0.776146 -0.499789
0.572537 0.775084 -0.498865
0.577200 0.776787 -0.499109
0.581726 0.777560 -0.498964
0.586165 0.777769 -0.498584
0.590453 0.777102 -0.497839
0.594671 0.776071 -0.496947
0.599471 0.778084 -0.497329
0.604167 0.779437 -0.497437
0.608473 0.778761 -0.496700
0.612885 0.778599 -0.496180
0.617786 0.780707 -0.496608
0.622156 0.780246 -0.495968
0.626537 0.779823 -0.495346
0.631071 0.780059 -0.495001
0.635562 0.780061 -0.494560
0.640057 0.780049 -0.494116
0.644548 0.779985 -0.493653
0.648872 0.779220 -0.492902
0.653493 0.779621 -0.492636
0.658601 0.781851 -0.493122
0.662989 0.781235 -0.492439
0.667608 0.781466 -0.492106
0.672049 0.781005 -0.491492
0.676905 0.782013 -0.491481
0.681353 0.781513 -0.490854
0.685986 0.781638 -0.490485
0.690766 0.782219 -0.490304
0.695274 0.781841 -0.489733
0.700065 0.782366 -0.489532
0.705450 0.784744 -0.490085
0.710321 0.785384 -0.489933
0.714927 0.785148 -0.489426
0.719322 0.784239 -0.488649
0.723949 0.784021 -0.488154
0.728913 0.784770 -0.488052
0.733486 0.784323 -0.487468
0.738095 0.783955 -0.486919
0.743271 0.785165 -0.487007
0.748353 0.786041 -0.486962
0.753016 0.785706 -0.486432
0.758193 0.786734 -0.486451
0.763736 0.788665 -0.486833
0.768306 0.787956 -0.486158
0.773150 0.787938 -0.485762
0.778460 0.789070 -0.485828
0.782957 0.788089 -0.485052
0.788034 0.788535 -0.484848
0.793072 0.788835 -0.484588
0.798386 0.789756 -0.484577
0.803566 0.790292 -0.484415
0.808688 0.790639 -0.484180
0.813942 0.791245 -0.484050
0.819233 0.791878 -0.483933
0.823784 0.790783 -0.483134
0.828508 0.790065 -0.482487
0.833283 0.789433 -0.481878
0.838602 0.789956 -0.481729
0.844250 0.791131 -0.481839
0.849411 0.791204 -0.481517
0.854824 0.791759 -0.481387
0.860727 0.793270 -0.481637
0.866297 0.794020 -0.481590
0.871425 0.793815 -0.481171
0.876501 0.793466 -0.480700
0.881815 0.793549 -0.480401
0.887197 0.793715 -0.480139
0.892299 0.793290 -0.479649
0.898464 0.794853 -0.479940
0.903655 0.794498 -0.479485
0.908567 0.793583 -0.478817
0.915070 0.795565 -0.479282
0.919735 0.794108 -0.478411
0.925439 0.794502 -0.478265
0.932729 0.797660 -0.479197
0.937090 0.795537 -0.478083
0.942436 0.795123 -0.477637
0.948763 0.796352 -0.477833
0.954966 0.797290 -0.477919
0.960042 0.796252 -0.477246
0.965156 0.795242 -0.476590
0.971357 0.795990 -0.476618
0.978001 0.797387 -0.476901
0.984144 0.797887 -0.476843
0.990250 0.798256 -0.476740
0.996194 0.798303 -0.476517
1.002607 0.799019 -0.476557
1.010193 0.801476 -0.477273
1.015776 0.800751 -0.476768
1.020777 0.799093 -0.475912
1.026527 0.798531 -0.475482
1.032604 0.798401 -0.475224
1.039670 0.799664 -0.475505
1.046328 0.800240 -0.475528
1.053481 0.801454 -0.475799
1.059266 0.800625 -0.475293
1.065817 0.800830 -0.475188
1.072865 0.801659 -0.475326
1.079400 0.801695 -0.475165
1.085404 0.800938 -0.474705
1.092599 0.801746 -0.474847
1.100408 0.803296 -0.475275
1.106494 0.802463 -0.474796
1.113329 0.802569 -0.474678
1.120850 0.803505 -0.474878
1.129482 0.805796 -0.475596
1.135978 0.805255 -0.475234
1.143294 0.805706 -0.475251
1.149310 0.804466 -0.474623
1.156210 0.804294 -0.474400
1.163570 0.804644 -0.474372
1.170328 0.804210 -0.474043
1.179389 0.806519 -0.474750
1.189841 0.810404 -0.476048
1.193668 0.806356 -0.474328
1.202367 0.808059 -0.474781
1.209922 0.808381 -0.474700
1.216522 0.807585 -0.474183
1.223187 0.806865 -0.473682
1.229664 0.805941 -0.473090
1.239357 0.808631 -0.473847
1.246572 0.808534 -0.473533
1.252601 0.807151 -0.472715
1.259965 0.807267 -0.472441
1.267030 0.807085 -0.472032
1.278983 0.812169 -0.473581
1.284848 0.810751 -0.472658
1.286408 0.804874 -0.470037
1.294103 0.805547 -0.469849
1.301235 0.805683 -0.469432
1.309182 0.806717 -0.469322
1.314350 0.804973 -0.468144
1.321268 0.805096 -0.467635
1.327293 0.804398 -0.466790
1.332073 0.802550 -0.465490
1.341260 0.805169 -0.465816
1.352091 0.809450 -0.466723
1.352557 0.803653 -0.463877
0.200302 0.753106 -0.544155
0.204096 0.752046 -0.543517
0.207989 0.750805 -0.542760
0.211589 0.750870 -0.542605
0.214897 0.752306 -0.543083
0.218420 0.753164 -0.543247
0.221695 0.755286 -0.543991
0.225973 0.753575 -0.542847
0.229723 0.754248 -0.542824
0.233427 0.755363 -0.542982
0.237228 0.756317 -0.543031
0.241110 0.757169 -0.543000
0.245271 0.756987 -0.542440
0.248864 0.759654 -0.543222
0.253208 0.759044 -0.542400
0.257612 0.758302 -0.541490
0.261936 0.758093 -0.540811
0.266047 0.759140 -0.540710
0.270318 0.759543 -0.540279
0.275032 0.757704 -0.538759
0.279121 0.759383 -0.538898
0.283298 0.760773 -0.538880
0.287700 0.761014 -0.538300
0.291917 0.762493 -0.538294
0.296471 0.762008 -0.537345
0.300916 0.762274 -0.536741
0.305408 0.762286 -0.536010
0.310004 0.761597 -0.534943
0.314495 0.761655 -0.534221
0.318737 0.763613 -0.534386
0.323123 0.764597 -0.534089
0.327793 0.763302 -0.532725
0.332197 0.764167 -0.532370
0.336661 0.764526 -0.531778
0.341204 0.764121 -0.530833
0.345745 0.763632 -0.529851
0.349974 0.766312 -0.530338
0.354549 0.765361 -0.529150
0.359017 0.765464 -0.528452
0.363508 0.765173 -0.527578
0.367963 0.765234 -0.526872
0.372488 0.764142 -0.525643
0.376998 0.762987 -0.524393
0.381373 0.763758 -0.524029
0.385685 0.765705 -0.524206
0.390046 0.766885 -0.524038
0.394456 0.766976 -0.523381
0.398872 0.766709 -0.522569
0.403262 0.766909 -0.521975
0.407661 0.766566 -0.521143
0.412050 0.766183 -0.520301
0.416434 0.765390 -0.519282
0.420795 0.765248 -0.518564
0.425152 0.764565 -0.517610
0.429493 0.764583 -0.516979
0.433828 0.764592 -0.516350
0.438184 0.768023 -0.517254
0.442535 0.768761 -0.516961
0.446869 0.768437 -0.516202
0.451191 0.767937 -0.515372
0.455533 0.768472 -0.515008
0.459907 0.769951 -0.515067
0.464247 0.770224 -0.514598
0.468537 0.769333 -0.513621
0.472862 0.769420 -0.513082
0.477239 0.770535 -0.513001
0.481587 0.770984 -0.512632
0.485930 0.771291 -0.512206
0.490261 0.771408 -0.511702
0.494562 0.771099 -0.511018
0.498902 0.771357 -0.510586
0.503209 0.771165 -0.509963
0.507519 0.771036 -0.509373
0.511876 0.771422 -0.509012
0.516168 0.771097 -0.508347
0.520706 0.773184 -0.508732
0.525039 0.773162 -0.508206
0.529408 0.773436 -0.507813
0.533751 0.773455 -0.507314
0.538123 0.773691 -0.506912
0.542374 0.772931 -0.506086
0.546749 0.773148 -0.505684
0.551435 0.775576 -0.506236
0.556001 0.776970 -0.506345
0.560172 0.775572 -0.505261
0.564480 0.775130 -0.504590
0.568746 0.774423 -0.503811
0.573380 0.775995 -0.504007
0.577934 0.776963 -0.503948
0.582443 0.777587 -0.503745
0.586870 0.777679 -0.503318
0.591254 0.777502 -0.502780
0.595502 0.776582 -0.501929
0.600002 0.776982 -0.501642
0.604755 0.778603 -0.501873
0.609450 0.779829 -0.501939
0.614033 0.780422 -0.501739
0.618649 0.781109 -0.501580
0.623090 0.780931 -0.501059
0.626917 0.777983 -0.499377
0.631453 0.778232 -0.499042
0.636462 0.780455 -0.499537
0.641003 0.780594 -0.499159
0.645432 0.780234 -0.498574
0.650117 0.780883 -0.498414
0.654565 0.780537 -0.497840
0.659511 0.782091 -0.498060
0.663969 0.781708 -0.497474
0.668040 0.779870 -0.496286
0.672989 0.781256 -0.496441
0.677541 0.781145 -0.495976
0.682208 0.781401 -0.495664
0.687019 0.782111 -0.495542
0.691806 0.782678 -0.495363
0.696584 0.783161 -0.495150
0.701073 0.782649 -0.494528
0.706595 0.785427 -0.495265
0.711269 0.785411 -0.494850
0.715590 0.784265 -0.493973
0.720061 0.783577 -0.493287
0.724868 0.783884 -0.493013
0.730098 0.785391 -0.493231
0.734899 0.785572 -0.492908
0.740067 0.786759 -0.492997
0.744547 0.785940 -0.492268
0.748853 0.784623 -0.491340
0.753803 0.785071 -0.491133
0.759041 0.786242 -0.491223
0.764181 0.787083 -0.491180
0.768928 0.786836 -0.490696
0.773577 0.786304 -0.490099
0.778939 0.787562 -0.490230
0.784345 0.788858 -0.490378
0.789403 0.789220 -0.490150
0.794317 0.789184 -0.489763
0.799399 0.789513 -0.489526
0.804302 0.789368 -0.489100
0.809158 0.789079 -0.488619
0.814727 0.790404 -0.488790
0.820076 0.791155 -0.488733
0.825033 0.790962 -0.488298
0.829282 0.789160 -0.487221
0.834537 0.789569 -0.487035
0.840027 0.790434 -0.487034
0.845478 0.791154 -0.486978
0.851352 0.792705 -0.487257
0.856720 0.793120 -0.487084
0.861907 0.793107 -0.486743
0.867137 0.793137 -0.486423
0.871931 0.792244 -0.485740
0.877054 0.791982 -0.485311
0.882733 0.792771 -0.485305
0.888187 0.793059 -0.485103
0.893931 0.793850 -0.485104
0.899570 0.794375 -0.485003
0.905025 0.794495 -0.484746
0.910227 0.794092 -0.484286
0.915527 0.793827 -0.483885
0.921427 0.794606 -0.483902
0.927687 0.795964 -0.484151
0.933370 0.796214 -0.483967
0.938860 0.796068 -0.483631
0.944778 0.796612 -0.483572
0.951187 0.797934 -0.483824
0.955363 0.795380 -0.482556
0.961053 0.795366 -0.482293
0.966889 0.795541 -0.482109
0.972203 0.794795 -0.481569
0.978929 0.796303 -0.481919
0.984645 0.796095 -0.481601
0.991116 0.797035 -0.481738
0.997265 0.797386 -0.481649
1.004186 0.798874 -0.482011
1.011114 0.800277 -0.482344
1.017087 0.800131 -0.482077
1.022204 0.798630 -0.481287
1.027477 0.797330 -0.480581
1.035819 0.800539 -0.481639
1.041826 0.800192 -0.481316
1.048618 0.800927 -0.481420
1.055257 0.801362 -0.481412
1.061923 0.801760 -0.481394
1.070427 0.804673 -0.482359
1.073370 0.799712 -0.480268
1.079338 0.798959 -0.479816
1.087495 0.801143 -0.480511
1.094767 0.802023 -0.480701
1.101278 0.801804 -0.480469
1.109107 0.803272 -0.480893
1.115420 0.802660 -0.480513
1.124962 0.806195 -0.481743
1.129433 0.803078 -0.480395
1.137846 0.804987 -0.480994
1.143674 0.803543 -0.480295
1.152315 0.805587 -0.480945
1.158260 0.804209 -0.480268
1.165249 0.804091 -0.480075
1.172215 0.803904 -0.479851
1.180952 0.805808 -0.480429
1.189883 0.807874 -0.481062
1.196232 0.806827 -0.480485
1.202322 0.805472 -0.479780
1.211189 0.807336 -0.480305
1.217971 0.806762 -0.479877
1.224190 0.805551 -0.479190
1.232208 0.806383 -0.479274
1.238428 0.805200 -0.478566
1.246600 0.806206 -0.478680
1.253203 0.805493 -0.478113
1.260732 0.805821 -0.477924
1.267481 0.805333 -0.477400
1.274411 0.805084 -0.476942
1.281781 0.805346 -0.476654
1.291375 0.807987 -0.477248
1.294078 0.803466 -0.475079
1.303058 0.805559 -0.475406
1.309186 0.804762 -0.474601
1.316687 0.805441 -0.474329
1.323348 0.805337 -0.473728
1.328438 0.803738 -0.472531
1.338791 0.807475 -0.473320
1.347649 0.809765 -0.473529
1.355912 0.811526 -0.473504
1.358739 0.808060 -0.471484
0.199844 0.756783 -0.550316
0.204633 0.752001 -0.547867
0.208359 0.751318 -0.547399
0.212905 0.747684 -0.545451
0.215960 0.749988 -0.546383
0.218333 0.755314 -0.548761
0.221520 0.757761 -0.549695
0.226013 0.755130 -0.548111
0.230392 0.753106 -0.546793
0.234111 0.754060 -0.546899
0.237810 0.755359 -0.547141
0.241554 0.756731 -0.547385
0.245353 0.758120 -0.547607
0.249261 0.759268 -0.547681
0.253468 0.759237 -0.547153
0.257978 0.757902 -0.545967
0.262156 0.758352 -0.545620
0.266404 0.758638 -0.545170
0.270760 0.758525 -0.544505
0.275012 0.759117 -0.544159
0.279082 0.760896 -0.544364
0.282960 0.764016 -0.545194
0.287624 0.762762 -0.543904
0.292159 0.762312 -0.542988
0.296731 0.761687 -0.541976
0.301197 0.761785 -0.541300
0.305697 0.761714 -0.540534
0.310231 0.761438 -0.539663
0.314565 0.762641 -0.539489
0.319010 0.763109 -0.538959
0.323481 0.763417 -0.538350
0.328048 0.762952 -0.537373
0.332493 0.763477 -0.536863
0.336938 0.764018 -0.536359
0.341412 0.764297 -0.535732
0.345785 0.765552 -0.535563
0.350313 0.765252 -0.534668
0.354911 0.764056 -0.533359
0.359368 0.764291 -0.532722
0.363757 0.765332 -0.532464
0.368265 0.764779 -0.531470
0.372642 0.765933 -0.531272
0.377026 0.767032 -0.531054
0.381488 0.766837 -0.530242
0.385972 0.766035 -0.529156
0.390382 0.766407 -0.528620
0.394746 0.767745 -0.528532
0.399169 0.767653 -0.527794
0.403612 0.766667 -0.526655
0.408024 0.766126 -0.525727
0.412443 0.764707 -0.524407
0.416809 0.765101 -0.523921
0.421162 0.766281 -0.523800
0.425530 0.766103 -0.523067
0.429891 0.764568 -0.521728
0.434248 0.768359 -0.522806
0.438608 0.768571 -0.522270
0.442965 0.768832 -0.521763
0.447295 0.767731 -0.520649
0.451620 0.767110 -0.519759
0.455965 0.767559 -0.519357
0.460326 0.768482 -0.519173
0.464660 0.768534 -0.518605
0.468979 0.768308 -0.517919
0.473334 0.768933 -0.517619
0.477716 0.769999 -0.517521
0.482059 0.770246 -0.517063
0.486380 0.770121 -0.516446
0.490716 0.770261 -0.515952
0.495095 0.770980 -0.515720
0.499398 0.770651 -0.515029
0.503743 0.770860 -0.514581
0.508076 0.770906 -0.514067
0.512475 0.771661 -0.513869
0.516926 0.772842 -0.513863
0.521292 0.773090 -0.513451
0.525657 0.773285 -0.513020
0.530041 0.773614 -0.512652
0.534506 0.774583 -0.512568
0.538542 0.771984 -0.510929
0.542941 0.772384 -0.510605
0.547336 0.772701 -0.510249
0.551865 0.773945 -0.510300
0.556463 0.775557 -0.510513
0.560763 0.775026 -0.509798
0.564851 0.773117 -0.508491
0.569248 0.773254 -0.508075
0.573905 0.774946 -0.508333
0.578669 0.777137 -0.508809
0.583056 0.777006 -0.508285
0.587478 0.777042 -0.507836
0.591913 0.777122 -0.507410
0.596299 0.776900 -0.506856
0.600685 0.776663 -0.506300
0.605229 0.777198 -0.506077
0.610045 0.779006 -0.506401
0.614637 0.779622 -0.506217
0.619166 0.779887 -0.505885
0.623718 0.780206 -0.505578
0.628232 0.780309 -0.505182
0.632860 0.780872 -0.504983
0.637296 0.780560 -0.504415
0.641742 0.780263 -0.503856
0.646527 0.781334 -0.503880
0.650963 0.780928 -0.503279
0.655611 0.781338 -0.503026
0.660092 0.781055 -0.502483
0.664628 0.780957 -0.502019
0.669293 0.781300 -0.501744
0.673775 0.780938 -0.501174
0.678570 0.781663 -0.501064
0.683111 0.781443 -0.500558
0.687976 0.782307 -0.500509
0.692926 0.783386 -0.500552
0.697629 0.783581 -0.500226
0.702468 0.784173 -0.500068
0.707599 0.785643 -0.500278
0.712077 0.784978 -0.499598
0.716376 0.783751 -0.498686
0.720893 0.783188 -0.498054
0.725803 0.783780 -0.497905
0.730824 0.784645 -0.497871
0.735995 0.785881 -0.497992
0.741021 0.786631 -0.497913
0.745694 0.786327 -0.497400
0.749930 0.784793 -0.496379
0.754952 0.785406 -0.496250
0.760052 0.786174 -0.496186
0.764755 0.785833 -0.495667
0.769355 0.785196 -0.495028
0.774498 0.785934 -0.494959
0.779715 0.786800 -0.494944
0.785081 0.787977 -0.495058
0.790329 0.788792 -0.495025
0.795337 0.788963 -0.494730
0.800180 0.788697 -0.494259
0.804802 0.787874 -0.493564
0.810133 0.788688 -0.493540
0.815260 0.788971 -0.493302
0.821017 0.790638 -0.493632
0.826518 0.791647 -0.493694
0.831504 0.791449 -0.493269
0.836377 0.790965 -0.492729
0.841249 0.790451 -0.492182
0.847066 0.791921 -0.492443
0.853021 0.793604 -0.492794
0.857997 0.793164 -0.492286
0.863384 0.793535 -0.492111
0.867987 0.792259 -0.491273
0.872721 0.791233 -0.490540
0.878132 0.791526 -0.490345
0.883576 0.791830 -0.490159
0.889578 0.793163 -0.490391
0.894721 0.792772 -0.489931
0.901412 0.795271 -0.490640
0.906413 0.794502 -0.490037
0.911298 0.793484 -0.489339
0.916581 0.793169 -0.488928
0.922972 0.794814 -0.489309
0.928355 0.794565 -0.488934
0.934405 0.795451 -0.489019
0.940179 0.795780 -0.488885
0.946782 0.797484 -0.489306
0.951922 0.796590 -0.488694
0.956827 0.795262 -0.487913
0.962026 0.794399 -0.487325
0.969247 0.796847 -0.488062
0.973891 0.794962 -0.487077
0.978990 0.793795 -0.486385
0.986950 0.797185 -0.487512
0.993839 0.798743 -0.487915
0.999625 0.798474 -0.487596
1.006326 0.799573 -0.487827
1.012333 0.799519 -0.487605
1.018028 0.798926 -0.487175
1.024699 0.799755 -0.487315
1.031427 0.800587 -0.487462
1.037155 0.799861 -0.486997
1.043227 0.799588 -0.486717
1.050797 0.801421 -0.487276
1.056495 0.800474 -0.486739
1.063342 0.801107 -0.486833
1.071905 0.804070 -0.487853
1.077962 0.803428 -0.487452
1.084195 0.802976 -0.487130
1.090925 0.803143 -0.487058
1.097364 0.802852 -0.486808
1.103420 0.801992 -0.486337
1.112214 0.804704 -0.487277
1.117836 0.803152 -0.486538
1.123617 0.801779 -0.485871
1.132815 0.804755 -0.486919
1.139389 0.804286 -0.486610
1.146794 0.804818 -0.486693
1.151722 0.802205 -0.485537
1.161073 0.805049 -0.486526
1.166832 0.803407 -0.485746
1.173114 0.802389 -0.485207
1.183623 0.806418 -0.486644
1.191192 0.806849 -0.486660
1.197127 0.805325 -0.485899
1.204541 0.805529 -0.485806
1.213616 0.807628 -0.486444
1.221049 0.807801 -0.486312
1.227577 0.806940 -0.485761
1.233724 0.805669 -0.485032
1.242756 0.807635 -0.485552
1.249813 0.807403 -0.485191
1.260843 0.811535 -0.486515
1.265279 0.808481 -0.485007
1.268192 0.803876 -0.482873
1.272547 0.800924 -0.481361
1.286067 0.807742 -0.483625
1.292488 0.807063 -0.482943
1.296748 0.804208 -0.481388
1.305297 0.805880 -0.481560
1.315837 0.809626 -0.482503
1.322806 0.809762 -0.482015
1.323462 0.803615 -0.479073
1.330698 0.804214 -0.478705
1.337681 0.804633 -0.478236
1.348834 0.809238 -0.479341
1.355982 0.809945 -0.478916
1.367488 0.814967 -0.480107
0.203538 0.745243 -0.548967
0.204903 0.753004 -0.552733
0.208853 0.751416 -0.551834
0.213070 0.748972 -0.550479
0.215997 0.751734 -0.551671
0.218674 0.755814 -0.553481
0.222263 0.756564 -0.553609
0.226436 0.755152 -0.552634
0.230770 0.753234 -0.551379
0.234729 0.753081 -0.550963
0.238431 0.754274 -0.551179
0.241928 0.756651 -0.551946
0.245671 0.758218 -0.552281
0.249655 0.758939 -0.552169
0.253952 0.758392 -0.551405
0.258200 0.758254 -0.550814
0.262447 0.758296 -0.550286
0.266458 0.759737 -0.550416
0.270974 0.758741 -0.549332
0.275247 0.759167 -0.548920
0.279259 0.761227 -0.549284
0.283442 0.762549 -0.549267
0.287968 0.762032 -0.548338
0.292517 0.761442 -0.547360
0.297058 0.760951 -0.546418
0.301459 0.761429 -0.545933
0.305861 0.761993 -0.545478
0.310550 0.760632 -0.544088
0.314806 0.762375 -0.544184
0.319035 0.764487 -0.544449
0.323927 0.761522 -0.542276
0.328173 0.763658 -0.542542
0.332749 0.763109 -0.541522
0.337081 0.764695 -0.541519
0.341558 0.765027 -0.540918
0.346048 0.765221 -0.540252
0.350638 0.764307 -0.539063
0.355032 0.765405 -0.538830
0.359697 0.763345 -0.537109
0.364061 0.764723 -0.537014
0.368473 0.765551 -0.536663
0.372924 0.765802 -0.536045
0.377338 0.766554 -0.535667
0.381786 0.766711 -0.535015
0.386282 0.765822 -0.533882
0.390700 0.766209 -0.533351
0.395108 0.766726 -0.532886
0.399532 0.766707 -0.532179
0.403966 0.766133 -0.531221
0.408381 0.765776 -0.530372
0.412800 0.764642 -0.529172
0.417171 0.765305 -0.528809
0.421528 0.767095 -0.528971
0.425905 0.767532 -0.528516
0.430281 0.768077 -0.528117
0.434658 0.769560 -0.528154
0.439035 0.769859 -0.527654
0.443409 0.770173 -0.527169
0.447738 0.768175 -0.525636
0.452063 0.767043 -0.524507
0.456400 0.766875 -0.523824
0.460766 0.767770 -0.523631
0.465107 0.767850 -0.523074
0.469445 0.767930 -0.522523
0.473823 0.768866 -0.522364
0.478209 0.769808 -0.522214
0.482515 0.769291 -0.521412
0.486838 0.769136 -0.520779
0.491193 0.769485 -0.520379
0.495577 0.770198 -0.520146
0.499961 0.770830 -0.519883
0.504254 0.770305 -0.519107
0.508646 0.770942 -0.518856
0.513125 0.772447 -0.518995
0.517526 0.772997 -0.518714
0.521822 0.772474 -0.517959
0.526173 0.772491 -0.517450
0.530645 0.773549 -0.517407
0.535110 0.774445 -0.517296
0.539451 0.774242 -0.516702
0.543598 0.772547 -0.515454
0.547966 0.772595 -0.514982
0.552443 0.773399 -0.514845
0.556897 0.773965 -0.514608
0.561325 0.774289 -0.514268
0.565552 0.773266 -0.513340
0.569964 0.773442 -0.512942
0.574774 0.775996 -0.513588
0.579320 0.776813 -0.513477
0.583576 0.775893 -0.512609
0.587890 0.775318 -0.511896
0.592580 0.776778 -0.512073
0.597155 0.777525 -0.511942
0.601656 0.777820 -0.511617
0.606117 0.777871 -0.511188
0.610077 0.775443 -0.509688
0.615171 0.778490 -0.510564
0.619749 0.778970 -0.510330
0.624360 0.779543 -0.510137
0.629146 0.780831 -0.510256
0.633677 0.780924 -0.509861
0.637941 0.779848 -0.508965
0.642632 0.780554 -0.508839
0.647189 0.780653 -0.508454
0.651705 0.780552 -0.507985
0.656119 0.780023 -0.507336
0.660592 0.779705 -0.506781
0.665508 0.781027 -0.506928
0.670363 0.782035 -0.506943
0.675166 0.782788 -0.506850
0.679514 0.781865 -0.506045
0.684244 0.782272 -0.505810
0.689189 0.783358 -0.505864
0.693697 0.782909 -0.505268
0.698133 0.782204 -0.504566
0.702913 0.782602 -0.504334
0.708187 0.784518 -0.504747
0.712880 0.784522 -0.504352
0.717192 0.783319 -0.503449
0.721973 0.783537 -0.503149
0.727001 0.784446 -0.503143
0.731533 0.783837 -0.502498
0.736901 0.785625 -0.502865
0.741967 0.786460 -0.502832
0.746845 0.786711 -0.502556
0.751707 0.786874 -0.502245
0.756572 0.787000 -0.501920
0.760964 0.785825 -0.501054
0.765766 0.785725 -0.500640
0.771445 0.787867 -0.501166
0.776451 0.788188 -0.500932
0.781034 0.787394 -0.500236
0.786182 0.787991 -0.500123
0.791150 0.788090 -0.499805
0.796143 0.788208 -0.499497
0.801304 0.788685 -0.499341
0.806574 0.789368 -0.499273
0.811361 0.788869 -0.498718
0.816630 0.789449 -0.498613
0.821707 0.789536 -0.498307
0.827372 0.790898 -0.498530
0.832446 0.790876 -0.498185
0.837209 0.790137 -0.497547
0.842326 0.790134 -0.497217
0.848112 0.791511 -0.497458
0.853550 0.792080 -0.497370
0.859940 0.794567 -0.498073
0.864483 0.793162 -0.497180
0.869052 0.791799 -0.496309
0.873996 0.791173 -0.495745
0.879909 0.792433 -0.495958
0.885418 0.792826 -0.495820
0.890582 0.792495 -0.495390
0.896569 0.793695 -0.495590
0.902094 0.793949 -0.495407
0.907461 0.793850 -0.495085
0.912300 0.792731 -0.494352
0.917561 0.792353 -0.493926
0.924297 0.794597 -0.494572
0.929464 0.793937 -0.494042
0.935896 0.795473 -0.494408
0.942116 0.796549 -0.494593
0.947426 0.795977 -0.494113
0.952986 0.795790 -0.493796
0.958589 0.795622 -0.493491
0.965148 0.797000 -0.493819
0.971359 0.797715 -0.493883
0.975242 0.794550 -0.492382
0.983164 0.797926 -0.493534
0.988382 0.796844 -0.492888
0.994727 0.797510 -0.492955
1.001835 0.799296 -0.493479
1.008111 0.799691 -0.493448
1.013953 0.799352 -0.493126
1.020100 0.799420 -0.492973
1.027403 0.801159 -0.493501
1.033289 0.800691 -0.493145
1.038683 0.799444 -0.492481
1.045248 0.799863 -0.492493
1.052372 0.801017 -0.492807
1.058084 0.800064 -0.492278
1.063985 0.799335 -0.491845
1.073207 0.803200 -0.493263
1.079428 0.802768 -0.492958
1.085496 0.802068 -0.492551
1.092224 0.802214 -0.492487
1.098979 0.802332 -0.492415
1.106007 0.802748 -0.492466
1.114020 0.804390 -0.493011
1.119195 0.802242 -0.492038
1.125771 0.801884 -0.491784
1.134594 0.804351 -0.492662
1.141853 0.804736 -0.492706
1.148153 0.803859 -0.492243
1.154021 0.802415 -0.491551
1.162782 0.804509 -0.492272
1.168549 0.802876 -0.491497
1.177878 0.805531 -0.492431
1.185225 0.805734 -0.492377
1.191940 0.805156 -0.492002
1.198807 0.804742 -0.491684
1.206875 0.805711 -0.491906
1.214204 0.805797 -0.491763
1.223230 0.807809 -0.492372
1.232848 0.810449 -0.493215
1.236370 0.806222 -0.491305
1.244811 0.807538 -0.491582
1.252574 0.808101 -0.491539
1.261102 0.809510 -0.491809
1.267077 0.808166 -0.490961
1.270771 0.804437 -0.489142
1.276421 0.802889 -0.488165
1.283358 0.802769 -0.487725
1.293685 0.806246 -0.488679
1.301196 0.806805 -0.488448
1.312537 0.811357 -0.489760
1.318466 0.810385 -0.488861
1.320832 0.805892 -0.486547
1.328606 0.806975 -0.486396
1.332578 0.804329 -0.484750
1.337876 0.803116 -0.483636
1.346586 0.805358 -0.483841
1.357590 0.809895 -0.484905
1.375568 0.821223 -0.488570
0.201208 0.755921 -0.558625
0.205139 0.754187 -0.557696
0.209213 0.752075 -0.556548
0.212755 0.752173 -0.556474
0.216220 0.752808 -0.556637
0.219561 0.754183 -0.557137
0.223099 0.755035 -0.557342
0.227042 0.754469 -0.556805
0.230818 0.754811 -0.556688
0.234927 0.753961 -0.555944
0.238757 0.754528 -0.555875
0.242433 0.756033 -0.556240
0.246172 0.757529 -0.556568
0.249903 0.759341 -0.557021
0.254158 0.758928 -0.556338
0.258391 0.758799 -0.555768
0.262456 0.759702 -0.555681
0.266934 0.758694 -0.554623
0.271044 0.759762 -0.554568
0.275328 0.760101 -0.554128
0.279596 0.760693 -0.553792
0.284030 0.760501 -0.553049
0.288520 0.760082 -0.552178
0.292798 0.761056 -0.551974
0.297196 0.761434 -0.551463
0.301709 0.761159 -0.550620
0.306056 0.762076 -0.550347
0.310555 0.762048 -0.549603
0.315037 0.762177 -0.548928
0.319319 0.763887 -0.549013
0.323761 0.764486 -0.548552
0.328293 0.764397 -0.547754
0.332920 0.763457 -0.546544
0.337445 0.763357 -0.545738
0.341814 0.764691 -0.545621
0.346342 0.764531 -0.544786
0.350787 0.765183 -0.544342
0.355276 0.765350 -0.543668
0.359727 0.765910 -0.543184
0.364293 0.764987 -0.541996
0.368785 0.764845 -0.541186
0.373254 0.764910 -0.540479
0.377704 0.765156 -0.539863
0.382127 0.765762 -0.539423
0.386605 0.765302 -0.538484
0.391076 0.764681 -0.537477
0.395482 0.765295 -0.537059
0.399890 0.765762 -0.536577
0.404331 0.765117 -0.535581
0.408734 0.765343 -0.534999
0.413122 0.766015 -0.534634
0.417542 0.764747 -0.533369
0.421890 0.768001 -0.534220
0.426282 0.768415 -0.533752
0.430672 0.768640 -0.533203
0.435059 0.769131 -0.532785
0.439449 0.770013 -0.532553
0.443823 0.769564 -0.531714
0.448188 0.769131 -0.530889
0.452541 0.768584 -0.530020
0.456903 0.768696 -0.529461
0.461260 0.768735 -0.528875
0.465599 0.768398 -0.528124
0.469971 0.768970 -0.527796
0.474357 0.769751 -0.527569
0.478686 0.769391 -0.526827
0.483088 0.770357 -0.526695
0.487602 0.772945 -0.527307
0.491695 0.769124 -0.525009
0.496073 0.769643 -0.524692
0.500472 0.770384 -0.524480
0.504794 0.770120 -0.523817
0.509163 0.770412 -0.523413
0.513654 0.771953 -0.523577
0.518104 0.772927 -0.523488
0.522376 0.772104 -0.522595
0.526687 0.771692 -0.521893
0.531124 0.772398 -0.521698
0.535594 0.773307 -0.521598
0.540044 0.773959 -0.521386
0.544361 0.773521 -0.520691
0.548744 0.773581 -0.520223
0.553097 0.773403 -0.519653
0.557504 0.773580 -0.519246
0.561980 0.774184 -0.519033
0.566385 0.774263 -0.518590
0.570778 0.774236 -0.518103
0.575373 0.775400 -0.518148
0.579815 0.775577 -0.517759
0.584047 0.774514 -0.516825
0.588531 0.774876 -0.516525
0.593247 0.776438 -0.516757
0.597941 0.777767 -0.516888
0.602492 0.778269 -0.516657
0.607090 0.778950 -0.516508
0.611560 0.778938 -0.516057
0.616241 0.779898 -0.516034
0.620756 0.780013 -0.515644
0.625137 0.779483 -0.514975
0.629725 0.779859 -0.514705
0.634342 0.780308 -0.514469
0.638903 0.780470 -0.514110
0.643152 0.779302 -0.513175
0.647814 0.779819 -0.512976
0.652312 0.779632 -0.512474
0.656616 0.778665 -0.511635
0.661752 0.780864 -0.512174
0.666449 0.781311 -0.511953
0.671407 0.782659 -0.512124
0.676035 0.782737 -0.511748
0.680612 0.782597 -0.511280
0.685799 0.784539 -0.511713
0.690066 0.783249 -0.510753
0.694359 0.782058 -0.509840
0.698881 0.781626 -0.509256
0.703668 0.782026 -0.509033
0.709008 0.784127 -0.509541
0.713623 0.783865 -0.509038
0.718238 0.783579 -0.508526
0.723571 0.785427 -0.508930
0.728199 0.785090 -0.508401
0.732756 0.784520 -0.507776
0.738065 0.786095 -0.508067
0.743087 0.786769 -0.507976
0.747635 0.786068 -0.507303
0.753157 0.788025 -0.507762
0.757596 0.786958 -0.506937
0.762074 0.785987 -0.506158
0.767641 0.787868 -0.506590
0.772381 0.787515 -0.506077
0.777656 0.788500 -0.506133
0.782528 0.788406 -0.505736
0.787364 0.788188 -0.505289
0.792500 0.788667 -0.505139
0.797591 0.788989 -0.504926
0.802427 0.788654 -0.504438
0.807549 0.788960 -0.504224
0.812716 0.789322 -0.504036
0.817611 0.789012 -0.503569
0.823041 0.789876 -0.503598
0.827906 0.789418 -0.503076
0.833281 0.790052 -0.503014
0.838152 0.789532 -0.502473
0.843112 0.789173 -0.502004
0.849009 0.790766 -0.502353
0.854778 0.792009 -0.502560
0.860697 0.793487 -0.502867
0.865880 0.793380 -0.502517
0.870436 0.791964 -0.501626
0.875679 0.791907 -0.501305
0.881415 0.792777 -0.501374
0.886666 0.792633 -0.501026
0.891847 0.792310 -0.500609
0.897231 0.792332 -0.500338
0.902847 0.792742 -0.500234
0.908404 0.792983 -0.500064
0.913730 0.792744 -0.499700
0.918903 0.792178 -0.499206
0.925457 0.794060 -0.499729
0.930515 0.793185 -0.499118
0.936850 0.794523 -0.499426
0.943005 0.795464 -0.499574
0.948751 0.795626 -0.499407
0.954323 0.795433 -0.499099
0.960560 0.796307 -0.499236
0.966442 0.796514 -0.499104
0.972464 0.796890 -0.499047
0.978784 0.797684 -0.499168
0.984684 0.797726 -0.498985
0.990297 0.797249 -0.498596
0.997017 0.798470 -0.498909
1.002960 0.798389 -0.498694
1.008979 0.798365 -0.498508
1.015694 0.799344 -0.498740
1.022394 0.800217 -0.498933
1.028567 0.800219 -0.498776
1.034686 0.800077 -0.498566
1.041245 0.800520 -0.498601
1.046984 0.799697 -0.498124
1.053984 0.800639 -0.498375
1.059529 0.799428 -0.497751
1.066208 0.799772 -0.497768
1.073648 0.801108 -0.498194
1.081002 0.802233 -0.498538
1.087074 0.801520 -0.498137
1.094442 0.802511 -0.498435
1.101335 0.802783 -0.498442
1.107395 0.801885 -0.497976
1.113817 0.801418 -0.497688
1.121556 0.802615 -0.498079
1.130141 0.804822 -0.498882
1.136201 0.803711 -0.498334
1.142517 0.802892 -0.497904
1.150959 0.804697 -0.498541
1.157490 0.804054 -0.498178
1.164021 0.803381 -0.497799
1.172553 0.805110 -0.498392
1.180183 0.805685 -0.498509
1.186537 0.804698 -0.497983
1.192899 0.803712 -0.497449
1.200899 0.804636 -0.497679
1.208284 0.804815 -0.497595
1.215860 0.805199 -0.497579
1.221876 0.803797 -0.496824
1.234155 0.809474 -0.498921
1.239052 0.806816 -0.497621
1.245615 0.806062 -0.497072
1.253691 0.806999 -0.497185
1.262231 0.808449 -0.497481
1.268320 0.807264 -0.496687
1.273727 0.805408 -0.495598
1.283655 0.808417 -0.496442
1.288201 0.805770 -0.494979
1.296255 0.806878 -0.494997
1.302470 0.806125 -0.494237
1.312960 0.809835 -0.495235
1.319489 0.809523 -0.494587
1.323640 0.806887 -0.492978
1.330450 0.807032 -0.492450
1.335217 0.805222 -0.491110
1.340864 0.804387 -0.490128
1.349521 0.806604 -0.490326
1.358813 0.809494 -0.490756
1.361271 0.805815 -0.488553
0.201292 0.757775 -0.563922
0.205670 0.754319 -0.562135
0.209495 0.753083 -0.561442
0.213541 0.751174 -0.560376
0.216789 0.752572 -0.560950
0.220312 0.753144 -0.561074
0.223939 0.753536 -0.561073
0.227542 0.754274 -0.561214
0.231328 0.754495 -0.561059
0.235174 0.754690 -0.560859
0.239159 0.754506 -0.560435
0.242807 0.756056 -0.560851
0.246387 0.758201 -0.561534
0.250521 0.758059 -0.561035
0.254703 0.757883 -0.560487
0.258799 0.758326 -0.560222
0.262812 0.759408 -0.560248
0.266973 0.759960 -0.559981
0.271513 0.758707 -0.558786
0.275669 0.759644 -0.558662
0.279813 0.760864 -0.558655
0.284422 0.759604 -0.557393
0.288812 0.759709 -0.556791
0.293084 0.760669 -0.556596
0.297415 0.761420 -0.556282
0.301823 0.761810 -0.555773
0.306217 0.762404 -0.555353
0.310811 0.761692 -0.554278
0.315219 0.762353 -0.553870
0.319664 0.762823 -0.553361
0.324041 0.763901 -0.553143
0.328605 0.763530 -0.552209
0.333120 0.763552 -0.551466
0.337588 0.763999 -0.550928
0.342126 0.763798 -0.550072
0.346502 0.765177 -0.549984
0.351041 0.764921 -0.549103
0.355607 0.764266 -0.548031
0.359992 0.765636 -0.547940
0.364397 0.766845 -0.547773
0.369051 0.764727 -0.546008
0.373568 0.764178 -0.545004
0.378012 0.764596 -0.544470
0.382473 0.764653 -0.543768
0.386941 0.764425 -0.542935
0.391404 0.764087 -0.542057
0.395816 0.764688 -0.541633
0.400203 0.765932 -0.541520
0.404577 0.767734 -0.541677
0.409083 0.764917 -0.539650
0.413422 0.768271 -0.540553
0.417859 0.767275 -0.539404
0.422276 0.766348 -0.538297
0.426665 0.767652 -0.538249
0.431061 0.768176 -0.537839
0.435456 0.768760 -0.537463
0.439847 0.768795 -0.536838
0.444243 0.769611 -0.536584
0.448620 0.769288 -0.535805
0.452987 0.768901 -0.535004
0.457372 0.769394 -0.534619
0.461750 0.769650 -0.534132
0.466165 0.770879 -0.534102
0.470546 0.771120 -0.533619
0.474938 0.771613 -0.533259
0.479259 0.770772 -0.532289
0.483737 0.772735 -0.532620
0.488096 0.772574 -0.531976
0.492313 0.770437 -0.530430
0.496639 0.770059 -0.529701
0.500972 0.769825 -0.529044
0.505402 0.770754 -0.528926
0.509707 0.770204 -0.528136
0.514437 0.774163 -0.529411
0.518722 0.773286 -0.528482
0.522965 0.772079 -0.527408
0.527309 0.771891 -0.526805
0.531659 0.771752 -0.526229
0.536067 0.772096 -0.525877
0.540570 0.773150 -0.525852
0.545179 0.774915 -0.526152
0.549615 0.775245 -0.525805
0.554032 0.775398 -0.525384
0.558215 0.773914 -0.524227
0.562566 0.773619 -0.523613
0.567062 0.774243 -0.523416
0.571451 0.774140 -0.522896
0.575881 0.774261 -0.522481
0.580274 0.774134 -0.521958
0.584880 0.775190 -0.521969
0.589552 0.776521 -0.522105
0.594149 0.777353 -0.522020
0.598561 0.777135 -0.521470
0.603156 0.777835 -0.521332
0.608095 0.780172 -0.521926
0.612502 0.779786 -0.521310
0.616839 0.779060 -0.520546
0.621260 0.778723 -0.519959
0.625644 0.778205 -0.519295
0.630150 0.778209 -0.518866
0.635117 0.780163 -0.519301
0.639527 0.779654 -0.518650
0.644183 0.780152 -0.518447
0.648629 0.779744 -0.517846
0.652741 0.778005 -0.516663
0.657851 0.780157 -0.517195
0.662816 0.781639 -0.517434
0.667648 0.782539 -0.517418
0.672233 0.782468 -0.516978
0.676771 0.782196 -0.516453
0.681449 0.782395 -0.516137
0.685944 0.781918 -0.515528
0.690839 0.782775 -0.515504
0.695545 0.782941 -0.515181
0.700247 0.783053 -0.514836
0.705235 0.784045 -0.514877
0.709826 0.783712 -0.514344
0.714333 0.783095 -0.513690
0.719339 0.783989 -0.513694
0.724599 0.785578 -0.514002
0.729208 0.785155 -0.513439
0.734002 0.785251 -0.513104
0.739157 0.786338 -0.513200
0.743825 0.785984 -0.512675
0.748615 0.785942 -0.512288
0.754062 0.787659 -0.512662
0.758929 0.787728 -0.512327
0.763224 0.786238 -0.511325
0.768534 0.787408 -0.511469
0.773341 0.787212 -0.511029
0.778748 0.788507 -0.511232
0.784026 0.789403 -0.511265
0.788655 0.788633 -0.510588
0.794095 0.789821 -0.510752
0.799149 0.790009 -0.510490
0.803762 0.789106 -0.509766
0.808767 0.789102 -0.509430
0.813543 0.788533 -0.508856
0.819211 0.789968 -0.509139
0.824244 0.789897 -0.508783
0.829305 0.789849 -0.508442
0.834934 0.791007 -0.508615
0.839557 0.789911 -0.507836
0.844590 0.789677 -0.507426
0.850217 0.790661 -0.507537
0.855408 0.790667 -0.507237
0.861509 0.792504 -0.507715
0.866907 0.792820 -0.507554
0.871988 0.792444 -0.507104
0.877259 0.792407 -0.506802
0.882690 0.792640 -0.506619
0.887991 0.792569 -0.506311
0.892942 0.791776 -0.505705
0.898538 0.792179 -0.505607
0.904216 0.792676 -0.505553
0.909938 0.793194 -0.505513
0.916272 0.794772 -0.505923
0.921885 0.794955 -0.505751
0.927456 0.795006 -0.505530
0.932138 0.793426 -0.504631
0.937572 0.793147 -0.504282
0.944052 0.794633 -0.504678
0.950167 0.795407 -0.504781
0.955799 0.795288 -0.504517
0.962439 0.796806 -0.504942
0.967586 0.795757 -0.504301
0.973696 0.796252 -0.504310
0.979901 0.796833 -0.504361
0.985880 0.796980 -0.504238
0.991754 0.796895 -0.504023
0.998149 0.797573 -0.504133
1.004162 0.797579 -0.503969
1.009972 0.797211 -0.503655
1.016761 0.798281 -0.503947
1.023842 0.799706 -0.504391
1.029527 0.798954 -0.503936
1.036080 0.799434 -0.504000
1.042597 0.799791 -0.504018
1.050493 0.802073 -0.504841
1.056108 0.800972 -0.504265
1.061225 0.799123 -0.503385
1.067301 0.798594 -0.503058
1.076635 0.802542 -0.504592
1.082014 0.800903 -0.503814
1.090090 0.802909 -0.504551
1.097720 0.804210 -0.504999
1.103710 0.803233 -0.504507
1.108918 0.801182 -0.503572
1.115063 0.800339 -0.503140
1.124088 0.803188 -0.504238
1.131380 0.803702 -0.504370
1.139183 0.804801 -0.504743
1.145410 0.803846 -0.504265
1.151257 0.802387 -0.503576
1.158938 0.803175 -0.503814
1.166495 0.803755 -0.503960
1.173747 0.803917 -0.503927
1.181938 0.805168 -0.504338
1.188262 0.804149 -0.503802
1.195284 0.803946 -0.503593
1.202762 0.804259 -0.503585
1.210835 0.805240 -0.503839
1.218669 0.805920 -0.503954
1.226628 0.806727 -0.504104
1.237202 0.810460 -0.505440
1.241259 0.806881 -0.503745
1.246955 0.805190 -0.502807
1.254361 0.805420 -0.502636
1.262017 0.805945 -0.502561
1.270745 0.807647 -0.502944
1.277336 0.807084 -0.502368
1.285782 0.808536 -0.502590
1.291226 0.806868 -0.501503
1.298959 0.807664 -0.501395
1.306090 0.807887 -0.501021
1.314207 0.809183 -0.501051
1.319613 0.807773 -0.499947
1.325426 0.806870 -0.499016
1.332046 0.806864 -0.498418
1.339952 0.808216 -0.498336
1.345103 0.806912 -0.497146
1.352001 0.807422 -0.496657
1.359641 0.808733 -0.496457
1.368044 0.810851 -0.496549
0.202429 0.755782 -0.567266
0.206247 0.754331 -0.566509
0.210437 0.751627 -0.565081
0.213896 0.751902 -0.565144
0.217380 0.752307 -0.565241
0.221042 0.752239 -0.565064
0.224468 0.753363 -0.565462
0.228162 0.753636 -0.565391
0.231935 0.753817 -0.565241
0.236011 0.752920 -0.564508
0.239022 0.756921 -0.566236
0.242992 0.756983 -0.565924
0.246972 0.757228 -0.565673
0.251003 0.757464 -0.565385
0.255284 0.756714 -0.564566
0.259466 0.756622 -0.564051
0.263364 0.758162 -0.564334
0.267519 0.758645 -0.564053
0.271854 0.758372 -0.563363
0.276079 0.758854 -0.563031
0.280214 0.760039 -0.563028
0.284378 0.761278 -0.563030
0.288716 0.761691 -0.562594
0.293309 0.760679 -0.561426
0.297636 0.761418 -0.561119
0.302013 0.761983 -0.560709
0.306485 0.762023 -0.560024
0.310887 0.762635 -0.559612
0.315470 0.762029 -0.558584
0.319899 0.762597 -0.558131
0.324381 0.762827 -0.557504
0.328801 0.763625 -0.557151
0.333301 0.763807 -0.556489
0.337793 0.764071 -0.555864
0.342235 0.764834 -0.555483
0.346796 0.764445 -0.554534
0.351464 0.762825 -0.552983
0.355793 0.764794 -0.553193
0.360253 0.765379 -0.552726
0.364697 0.766160 -0.552356
0.369180 0.766431 -0.551740
0.373737 0.765548 -0.550567
0.378234 0.765352 -0.549733
0.382710 0.765359 -0.549004
0.387199 0.764980 -0.548094
0.391598 0.766258 -0.547990
0.396014 0.767266 -0.547761
0.400510 0.766127 -0.546503
0.404950 0.766192 -0.545833
0.409344 0.767724 -0.545872
0.413768 0.768212 -0.545417
0.418207 0.767645 -0.544464
0.422637 0.766592 -0.543287
0.427043 0.766882 -0.542759
0.431446 0.767500 -0.542394
0.435846 0.767762 -0.541866
0.440241 0.767712 -0.541198
0.444638 0.768255 -0.540817
0.449030 0.768548 -0.540325
0.453435 0.769424 -0.540115
0.457850 0.770462 -0.539987
0.462242 0.770677 -0.539477
0.466635 0.770967 -0.539009
0.471017 0.771024 -0.538439
0.475376 0.770668 -0.537682
0.479758 0.770856 -0.537186
0.484127 0.770813 -0.536590
0.488523 0.771236 -0.536216
0.492918 0.771596 -0.535819
0.497355 0.772472 -0.535668
0.501717 0.772336 -0.535052
0.505955 0.770762 -0.533776
0.510374 0.771369 -0.533517
0.514743 0.771375 -0.532985
0.519245 0.772703 -0.533069
0.523688 0.773335 -0.532836
0.527969 0.772440 -0.531904
0.532314 0.772162 -0.531263
0.536770 0.772809 -0.531052
0.541282 0.773826 -0.531014
0.545621 0.773432 -0.530334
0.550321 0.775689 -0.530872
0.554583 0.774666 -0.529914
0.558876 0.773908 -0.529082
0.563208 0.773428 -0.528381
0.567662 0.773738 -0.528046
0.572148 0.774195 -0.527781
0.576427 0.773359 -0.526932
0.581335 0.776203 -0.527758
0.585751 0.776075 -0.527238
0.590198 0.776094 -0.526789
0.594764 0.776717 -0.526616
0.599167 0.776432 -0.526036
0.603655 0.776562 -0.525647
0.608629 0.779051 -0.526325
0.613126 0.779089 -0.525900
0.617541 0.778709 -0.525290
0.621708 0.777178 -0.524168
0.625956 0.776048 -0.523230
0.631286 0.779674 -0.524427
0.635710 0.779230 -0.523802
0.640647 0.780915 -0.524133
0.646019 0.784281 -0.525216
0.649172 0.778566 -0.522246
0.654430 0.781329 -0.523064
0.658921 0.780991 -0.522502
0.663791 0.782061 -0.522569
0.668653 0.783029 -0.522592
0.673122 0.782494 -0.521949
0.678078 0.783683 -0.522075
0.682037 0.781305 -0.520622
0.686617 0.781112 -0.520141
0.691406 0.781598 -0.519963
0.696568 0.783265 -0.520308
0.701713 0.784783 -0.520590
0.706428 0.784839 -0.520228
0.710751 0.783624 -0.519309
0.715390 0.783390 -0.518825
0.721183 0.786641 -0.519876
0.725558 0.785504 -0.519000
0.730230 0.785243 -0.518512
0.735175 0.785745 -0.518362
0.740183 0.786376 -0.518270
0.744762 0.785743 -0.517628
0.749674 0.786014 -0.517383
0.755375 0.788393 -0.518062
0.760055 0.787921 -0.517498
0.764890 0.787835 -0.517106
0.769521 0.787180 -0.516469
0.774400 0.787145 -0.516106
0.779935 0.788735 -0.516451
0.785129 0.789387 -0.516391
0.790391 0.790152 -0.516383
0.795283 0.789957 -0.515962
0.800176 0.789730 -0.515530
0.805167 0.789698 -0.515186
0.809769 0.788722 -0.514437
0.814975 0.789121 -0.514286
0.820358 0.789870 -0.514290
0.825374 0.789734 -0.513915
0.830447 0.789687 -0.513583
0.835778 0.790162 -0.513479
0.841130 0.790629 -0.513375
0.846319 0.790692 -0.513101
0.851295 0.790261 -0.512619
0.856639 0.790561 -0.512456
0.862085 0.791018 -0.512363
0.867941 0.792254 -0.512609
0.873376 0.792567 -0.512463
0.878562 0.792333 -0.512087
0.883777 0.792114 -0.511723
0.888863 0.791600 -0.511238
0.895120 0.793294 -0.511700
0.900871 0.793941 -0.511720
0.905644 0.792695 -0.510937
0.911400 0.793245 -0.510926
0.917610 0.794560 -0.511245
0.923313 0.794876 -0.511144
0.928806 0.794759 -0.510864
0.933941 0.793958 -0.510299
0.939242 0.793409 -0.509848
0.945893 0.795155 -0.510376
0.952050 0.795960 -0.510511
0.958508 0.797202 -0.510836
0.963691 0.796226 -0.510227
0.969002 0.795425 -0.509699
0.975081 0.795842 -0.509693
0.981305 0.796424 -0.509762
0.987419 0.796759 -0.509734
0.992723 0.795742 -0.509140
0.999039 0.796274 -0.509207
1.005558 0.797048 -0.509383
1.011734 0.797217 -0.509310
1.019656 0.799975 -0.510336
1.025404 0.799343 -0.509937
1.031239 0.798787 -0.509576
1.037734 0.799153 -0.509610
1.044832 0.800327 -0.509991
1.051981 0.801487 -0.510373
1.057527 0.800268 -0.509756
1.063471 0.799572 -0.509366
1.070127 0.799824 -0.509380
1.077594 0.801131 -0.509843
1.085102 0.802405 -0.510297
1.091316 0.801833 -0.509977
1.100226 0.804837 -0.511167
1.106029 0.803584 -0.510567
1.110653 0.800741 -0.509301
1.117097 0.800273 -0.509036
1.126041 0.802988 -0.510111
1.133976 0.804306 -0.510598
1.141803 0.805409 -0.510993
1.147275 0.803487 -0.510115
1.152430 0.801163 -0.509066
1.161502 0.803659 -0.510038
1.167941 0.802861 -0.509621
1.176617 0.804742 -0.510322
1.183663 0.804608 -0.510168
1.190678 0.804414 -0.509980
1.197996 0.804557 -0.509922
1.208330 0.808185 -0.511314
1.213133 0.805367 -0.509986
1.220621 0.805660 -0.509947
1.227918 0.805731 -0.509798
1.238818 0.809841 -0.511321
1.244299 0.807876 -0.510277
1.247737 0.803716 -0.508294
1.255106 0.803941 -0.508123
1.265365 0.807318 -0.509241
1.273249 0.808127 -0.509258
1.279094 0.806797 -0.508354
1.284013 0.804561 -0.507045
1.292556 0.806204 -0.507320
1.299756 0.806486 -0.506997
1.310075 0.810037 -0.507997
1.315516 0.808616 -0.506901
1.321226 0.807563 -0.505924
1.326199 0.805856 -0.504645
1.336452 0.809526 -0.505553
1.344115 0.810655 -0.505376
1.348823 0.808941 -0.503995
1.351948 0.805785 -0.501992
1.360839 0.808360 -0.502307
1.367208 0.808553 -0.501613
0.203801 0.752959 -0.570154
0.206706 0.754839 -0.571133
0.211229 0.750794 -0.569022
0.214602 0.751316 -0.569237
0.217978 0.752071 -0.569540
0.221553 0.752272 -0.569524
0.225123 0.752727 -0.569606
0.228700 0.753396 -0.569765
0.232592 0.752983 -0.569332
0.236047 0.754679 -0.569953
0.239844 0.755156 -0.569911
0.243656 0.755814 -0.569928
0.247411 0.756984 -0.570176
0.251344 0.757586 -0.570099
0.255623 0.756764 -0.569259
0.259694 0.757141 -0.569004
0.263865 0.757233 -0.568573
0.267887 0.758300 -0.568612
0.272094 0.758622 -0.568242
0.276408 0.758553 -0.567647
0.280530 0.759739 -0.567668
0.284704 0.760847 -0.567624
0.288948 0.761751 -0.567454
0.293162 0.763034 -0.567456
0.297897 0.761198 -0.565859
0.302207 0.762153 -0.565660
0.306668 0.762241 -0.565008
0.311159 0.762203 -0.564280
0.315530 0.763120 -0.564022
0.320216 0.761755 -0.562607
0.324636 0.762449 -0.562219
0.329089 0.762954 -0.561729
0.333495 0.763939 -0.561473
0.337966 0.764429 -0.560965
0.342494 0.764411 -0.560201
0.347165 0.762920 -0.558704
0.351620 0.763548 -0.558260
0.355986 0.765217 -0.558332
0.360413 0.766300 -0.558113
0.365065 0.764553 -0.556498
0.369605 0.764024 -0.555490
0.374056 0.764626 -0.555043
0.378539 0.764725 -0.554352
0.382982 0.765400 -0.553948
0.387473 0.765149 -0.553096
0.391867 0.766763 -0.553160
0.396401 0.765178 -0.551668
0.400862 0.764984 -0.550863
0.405308 0.764938 -0.550136
0.409728 0.765624 -0.549772
0.414146 0.766389 -0.549452
0.418570 0.766799 -0.548966
0.422997 0.766560 -0.548173
0.427409 0.767670 -0.548039
0.431826 0.767781 -0.547429
0.436231 0.766685 -0.546247
0.440635 0.767141 -0.545818
0.445035 0.767382 -0.545293
0.449431 0.767555 -0.544742
0.453855 0.768935 -0.544775
0.458262 0.769489 -0.544419
0.462678 0.770223 -0.544156
0.467075 0.770416 -0.543641
0.471432 0.769765 -0.542733
0.475778 0.769107 -0.541828
0.480166 0.769336 -0.541352
0.484552 0.769558 -0.540879
0.488918 0.769454 -0.540258
0.493374 0.770661 -0.540261
0.497826 0.771667 -0.540175
0.502168 0.771211 -0.539406
0.506497 0.770666 -0.538602
0.510974 0.771804 -0.538594
0.515387 0.772146 -0.538218
0.519787 0.772332 -0.537774
0.524257 0.773146 -0.537629
0.528611 0.772833 -0.536963
0.533196 0.774511 -0.537229
0.537762 0.775884 -0.537357
0.541784 0.772843 -0.535439
0.546591 0.775962 -0.536386
0.550761 0.774185 -0.535067
0.555196 0.774378 -0.534666
0.559518 0.773768 -0.533898
0.564044 0.774516 -0.533762
0.568416 0.774211 -0.533145
0.572736 0.773577 -0.532381
0.577391 0.774953 -0.532546
