ply
format ascii 1.0
comment ---
element vertex 1759
property float x
property float y
property float z
element face 0
property list uchar uint vertex_indices
end_header
0.462810 0.798212 0.180305
0.467397 0.798642 0.180470
0.471633 0.798131 0.180467
0.475875 0.797610 0.180465
0.481351 0.800106 0.181007
0.486439 0.801552 0.181363
0.490604 0.800696 0.181307
0.493570 0.796973 0.180737
0.498348 0.797550 0.180944
0.503112 0.798034 0.181136
0.508211 0.799225 0.181458
0.513439 0.800634 0.181822
0.518161 0.800832 0.181971
0.522709 0.800595 0.182044
0.527298 0.800406 0.182128
0.533306 0.803214 0.182758
0.538214 0.803575 0.182948
0.543149 0.803933 0.183141
0.548447 0.804979 0.183461
0.553235 0.804905 0.183582
0.557766 0.804262 0.183603
0.562563 0.804107 0.183715
0.567739 0.804650 0.183958
0.572711 0.804726 0.184120
0.577310 0.804022 0.184142
0.582515 0.804433 0.184372
0.587944 0.805195 0.184670
0.593393 0.805920 0.184965
0.599194 0.807216 0.185369
0.604867 0.808188 0.185717
0.609593 0.807368 0.185741
0.614336 0.806534 0.185766
0.619149 0.805780 0.185809
0.625135 0.807021 0.186223
0.630054 0.806331 0.186286
0.635608 0.806673 0.186543
0.642168 0.808640 0.187105
0.648604 0.810291 0.187613
0.654197 0.810451 0.187849
0.659952 0.810807 0.188125
0.666976 0.813137 0.188773
0.673298 0.814232 0.189195
0.679313 0.814755 0.189515
0.684228 0.813486 0.189503
0.689590 0.812872 0.189617
0.695403 0.812903 0.189853
0.702304 0.814521 0.190390
0.708737 0.815350 0.190782
0.714957 0.815793 0.191104
0.721841 0.817151 0.191600
0.726729 0.815535 0.191536
0.732474 0.815144 0.191703
0.743865 0.822754 0.193385
0.750331 0.823241 0.193719
0.756547 0.823342 0.193979
0.759383 0.818756 0.193346
0.765579 0.818835 0.193595
0.772642 0.820077 0.194063
0.781277 0.823397 0.194923
0.788030 0.824163 0.195291
0.794180 0.824135 0.195501
0.799493 0.823036 0.195499
0.802553 0.819082 0.194939
0.807408 0.817531 0.194830
0.821711 0.828015 0.197027
0.825545 0.825224 0.196659
0.842422 0.831329 0.198142
-0.154306 0.752439 0.168346
-0.151545 0.754902 0.168774
-0.149231 0.758756 0.169435
-0.145657 0.759454 0.169537
-0.141547 0.758836 0.169402
-0.136381 0.755398 0.168768
-0.132883 0.756652 0.168944
-0.128747 0.756228 0.168821
-0.126126 0.760256 0.169467
-0.121860 0.759665 0.169302
-0.117758 0.759616 0.169227
-0.113813 0.760100 0.169240
-0.109742 0.760263 0.169192
-0.106186 0.762081 0.169429
-0.102504 0.763589 0.169608
-0.098634 0.764564 0.169692
-0.093360 0.760970 0.168982
-0.090957 0.766849 0.169912
-0.086621 0.766359 0.169737
-0.082043 0.764995 0.169411
-0.077845 0.764905 0.169304
-0.073731 0.765083 0.169245
-0.069670 0.765433 0.169215
-0.066276 0.768249 0.169611
-0.062167 0.768404 0.169548
-0.058218 0.769145 0.169588
-0.053786 0.767942 0.169295
-0.049700 0.768036 0.169226
-0.045607 0.768047 0.169145
-0.041397 0.767497 0.168969
-0.037451 0.768004 0.168977
-0.033690 0.769283 0.169120
-0.029796 0.769950 0.169159
-0.026066 0.771336 0.169324
-0.022063 0.771430 0.169269
-0.018065 0.771475 0.169209
-0.014542 0.773812 0.169543
-0.010705 0.774597 0.169613
-0.006192 0.771812 0.169076
-0.002462 0.773005 0.169221
0.001347 0.773758 0.169293
0.005121 0.774676 0.169396
0.009105 0.774349 0.169289
0.013217 0.773163 0.169037
0.016886 0.774577 0.169231
0.020464 0.776578 0.169528
0.024100 0.778259 0.169772
0.028725 0.773261 0.168880
0.032416 0.774412 0.169039
0.036077 0.775796 0.169239
0.040161 0.774027 0.168905
0.043059 0.781329 0.170117
0.047360 0.777741 0.169477
0.051304 0.776816 0.169292
0.054787 0.779802 0.169776
0.058579 0.780150 0.169812
0.062838 0.775992 0.169083
0.066372 0.778670 0.169520
0.070167 0.778798 0.169524
0.074143 0.776870 0.169181
0.077805 0.778360 0.169421
0.081537 0.779101 0.169535
0.084948 0.784108 0.170376
0.088831 0.783115 0.170199
0.092715 0.781895 0.169984
0.096526 0.781634 0.169935
0.100427 0.779722 0.169606
0.104227 0.779338 0.169538
0.108073 0.777907 0.169294
0.111742 0.780214 0.169687
0.115458 0.781825 0.169963
0.119314 0.779718 0.169608
0.123023 0.781986 0.169999
0.126850 0.780253 0.169710
0.130644 0.779368 0.169567
0.134368 0.782663 0.170136
0.138174 0.781026 0.169867
0.141954 0.781304 0.169925
0.145738 0.781068 0.169897
0.149527 0.782202 0.170103
0.153327 0.783165 0.170281
0.157134 0.783895 0.170420
0.160938 0.784005 0.170455
0.164763 0.784847 0.170616
0.168446 0.780142 0.169833
0.172338 0.783263 0.170383
0.176136 0.782952 0.170350
0.180063 0.785772 0.170851
0.183784 0.783452 0.170478
0.187728 0.785917 0.170920
0.191564 0.785944 0.170948
0.195391 0.785760 0.170941
0.199192 0.785149 0.170861
0.203062 0.785543 0.170954
0.207010 0.786897 0.171211
0.210901 0.787310 0.171308
0.214669 0.786170 0.171142
0.218569 0.786588 0.171241
0.222317 0.785285 0.171048
0.226297 0.786431 0.171273
0.230226 0.786924 0.171387
0.233999 0.785879 0.171239
0.238110 0.787888 0.171614
0.241787 0.785992 0.171322
0.246058 0.789069 0.171880
0.249785 0.787581 0.171659
0.253560 0.786531 0.171513
0.257422 0.786148 0.171481
0.261617 0.788117 0.171853
0.265679 0.789005 0.172040
0.269676 0.789363 0.172137
0.273560 0.788943 0.172102
0.277503 0.788873 0.172127
0.281429 0.788672 0.172130
0.285365 0.788507 0.172139
0.289911 0.791803 0.172742
0.293926 0.791928 0.172803
0.297852 0.791540 0.172776
0.301868 0.791605 0.172828
0.305772 0.791061 0.172775
0.309752 0.790895 0.172788
0.313874 0.791394 0.172916
0.318028 0.791992 0.173061
0.322056 0.791947 0.173097
0.326064 0.791773 0.173111
0.330306 0.792625 0.173302
0.334859 0.794763 0.173714
0.338763 0.794009 0.173631
0.343047 0.794840 0.173820
0.346861 0.793683 0.173669
0.350538 0.791992 0.173426
0.354400 0.791066 0.173315
0.358730 0.791948 0.173517
0.363427 0.794155 0.173947
0.367425 0.793652 0.173912
0.371439 0.793196 0.173886
0.375687 0.793563 0.174002
0.379610 0.792742 0.173914
0.383781 0.792772 0.173974
0.388479 0.794563 0.174340
0.392988 0.795628 0.174581
0.396854 0.794516 0.174447
0.400887 0.793949 0.174408
0.405132 0.794038 0.174484
0.409969 0.795941 0.174875
0.413688 0.794316 0.174656
0.418578 0.796248 0.175055
0.422741 0.795923 0.175064
0.427040 0.795971 0.175139
0.431742 0.797148 0.175412
0.436488 0.798382 0.175696
0.440371 0.797121 0.175548
0.445305 0.798765 0.175907
0.449417 0.798089 0.175864
0.453742 0.797965 0.175918
0.457691 0.796810 0.175795
0.462258 0.797265 0.175954
0.467062 0.798276 0.176211
0.471148 0.797398 0.176142
0.475274 0.796605 0.176089
0.479749 0.796654 0.176184
0.486345 0.801833 0.177178
0.490436 0.800806 0.177090
0.494557 0.799835 0.177014
0.498840 0.799222 0.177003
0.503225 0.798819 0.177031
0.506375 0.795556 0.176560
0.512999 0.800172 0.177472
0.518191 0.801435 0.177799
0.522774 0.801280 0.177880
0.527024 0.800352 0.177828
0.532136 0.801252 0.178100
0.537421 0.802448 0.178427
0.542441 0.803008 0.178645
0.547439 0.803455 0.178846
0.552552 0.804076 0.179082
0.557139 0.803566 0.179120
0.562596 0.804751 0.179462
0.567295 0.804354 0.179527
0.572045 0.804011 0.179604
0.576893 0.803808 0.179710
0.581724 0.803517 0.179804
0.587601 0.805151 0.180242
0.593333 0.806414 0.180619
0.598541 0.806623 0.180813
0.603318 0.805979 0.180858
0.609401 0.807643 0.181318
0.614641 0.807703 0.181496
0.619777 0.807517 0.181634
0.624261 0.806132 0.181561
0.629835 0.806592 0.181822
0.634944 0.806185 0.181931
0.641877 0.808797 0.182586
0.648467 0.810717 0.183122
0.653659 0.810220 0.183227
0.659861 0.811320 0.183623
0.665462 0.811359 0.183832
0.672530 0.813676 0.184456
0.678446 0.814060 0.184734
0.684730 0.814947 0.185108
0.690201 0.814495 0.185241
0.696670 0.815521 0.185646
0.702292 0.815184 0.185805
0.708295 0.815370 0.186062
0.714515 0.815820 0.186369
0.721968 0.818021 0.186998
0.727999 0.818063 0.187234
0.733801 0.817731 0.187401
0.741102 0.819501 0.187955
0.748604 0.821486 0.188548
0.753284 0.819464 0.188403
0.759017 0.818914 0.188527
0.764908 0.818576 0.188686
0.771251 0.818844 0.188955
0.780197 0.822595 0.189864
0.787646 0.824289 0.190388
0.793030 0.823247 0.190399
0.799226 0.823301 0.190607
0.805184 0.823075 0.190755
0.810238 0.821732 0.190686
0.817459 0.823203 0.191132
0.824304 0.824225 0.191484
0.829477 0.823204 0.191444
0.836629 0.824709 0.191865
-0.160669 0.769289 0.167401
-0.156148 0.767361 0.167070
-0.153091 0.769419 0.167406
-0.148621 0.767862 0.167122
-0.144657 0.767771 0.167078
-0.138749 0.762418 0.166135
-0.130278 0.749829 0.163961
-0.128141 0.755010 0.164790
-0.126345 0.761418 0.165819
-0.126896 0.774987 0.168052
-0.118264 0.761689 0.165739
-0.114110 0.761582 0.165651
-0.110170 0.762179 0.165678
-0.108724 0.770626 0.167026
-0.104809 0.771540 0.167100
-0.099653 0.768496 0.166504
-0.096277 0.771209 0.166876
-0.091492 0.769304 0.166469
-0.088441 0.773228 0.167042
-0.085022 0.776005 0.167421
-0.080393 0.774589 0.167095
-0.076719 0.776530 0.167333
-0.071591 0.773174 0.166682
-0.066696 0.770520 0.166150
-0.062417 0.770064 0.165988
-0.057521 0.767136 0.165414
-0.053445 0.767295 0.165358
-0.049412 0.767578 0.165324
-0.045234 0.767208 0.165183
-0.041304 0.767814 0.165206
-0.037798 0.770213 0.165531
-0.034948 0.775557 0.166348
-0.031521 0.778464 0.166761
-0.026901 0.775913 0.166265
-0.022922 0.776207 0.166246
-0.019339 0.778368 0.166540
-0.015142 0.777508 0.166333
-0.010902 0.776309 0.166072
-0.006381 0.773499 0.165546
-0.002441 0.773591 0.165505
0.001072 0.775975 0.165847
0.004606 0.778295 0.166181
0.008428 0.778995 0.166247
0.012339 0.779128 0.166221
0.016019 0.780632 0.166426
0.019829 0.781322 0.166497
0.024007 0.779557 0.166163
0.028020 0.778732 0.165988
0.031519 0.781396 0.166393
0.035766 0.778739 0.165918
0.039153 0.782301 0.166476
0.043503 0.778531 0.165821
0.047325 0.778696 0.165820
0.050754 0.782131 0.166363
0.054246 0.785233 0.166851
0.058394 0.782519 0.166380
0.062738 0.777614 0.165548
0.066657 0.776457 0.165338
0.070514 0.775793 0.165211
0.074245 0.776388 0.165294
0.077946 0.777365 0.165442
0.081451 0.780833 0.166003
0.084722 0.787754 0.167137
0.088549 0.787742 0.167126
0.092545 0.785120 0.166686
0.096276 0.786356 0.166884
0.099995 0.787956 0.167144
0.103962 0.785070 0.166664
0.107681 0.786785 0.166947
0.111611 0.783932 0.166475
0.115470 0.782211 0.166192
0.119241 0.782618 0.166262
0.122947 0.785329 0.166714
0.126652 0.789159 0.167352
0.130426 0.791310 0.167713
0.134299 0.788197 0.167206
0.138094 0.789823 0.167484
0.141912 0.790264 0.167566
0.145738 0.788395 0.167268
0.149557 0.789267 0.167424
0.153362 0.787260 0.167105
0.157205 0.789456 0.167481
0.160985 0.786835 0.167062
0.164753 0.784696 0.166724
0.168638 0.787504 0.167205
0.172560 0.790555 0.167727
0.176491 0.793005 0.168151
0.180169 0.788702 0.167458
0.183743 0.782936 0.166523
0.187657 0.784901 0.166869
0.191543 0.785953 0.167064
0.195252 0.783851 0.166738
0.199136 0.784692 0.166900
0.203150 0.787219 0.167342
0.207364 0.792081 0.168171
0.211555 0.796005 0.168847
0.215309 0.794223 0.168577
0.219037 0.792285 0.168282
0.223241 0.795603 0.168858
0.227336 0.797445 0.169191
0.230903 0.793927 0.168636
0.234629 0.792159 0.168371
0.238133 0.788520 0.167796
0.242171 0.789697 0.168021
0.246081 0.789686 0.168049
0.249960 0.789389 0.168030
0.254187 0.791723 0.168448
0.258427 0.793945 0.168849
0.262813 0.797014 0.169391
0.266465 0.794810 0.169058
0.270453 0.794943 0.169113
0.274435 0.794986 0.169154
0.277929 0.791956 0.168684
0.281992 0.792507 0.168810
0.286608 0.796237 0.169466
0.290621 0.796282 0.169509
0.294551 0.795834 0.169471
0.298328 0.794542 0.169293
0.301893 0.792163 0.168934
0.305787 0.791566 0.168872
0.309763 0.791378 0.168879
0.313785 0.791389 0.168919
0.317921 0.791913 0.169046
0.322069 0.792436 0.169173
0.326661 0.794928 0.169629
0.331562 0.798660 0.170294
0.335584 0.798361 0.170286
0.339851 0.799090 0.170450
0.343633 0.797725 0.170265
0.347654 0.797370 0.170250
0.353647 0.804912 0.171556
0.354410 0.791539 0.169365
0.359185 0.794141 0.169846
0.364086 0.797090 0.170386
0.368001 0.796232 0.170290
0.371855 0.795156 0.170158
0.376111 0.795524 0.170269
0.379998 0.794548 0.170156
0.384121 0.794394 0.170181
0.388502 0.795089 0.170349
0.393001 0.796120 0.170575
0.397361 0.796630 0.170715
0.401089 0.795051 0.170504
0.405513 0.795702 0.170670
0.409660 0.795432 0.170681
0.413606 0.794521 0.170587
0.418879 0.797622 0.171168
0.423508 0.798672 0.171405
0.427066 0.796512 0.171104
0.431365 0.796527 0.171170
0.435962 0.797352 0.171373
0.441036 0.799459 0.171795
0.444920 0.798176 0.171646
0.450112 0.800461 0.172101
0.453427 0.797599 0.171689
0.457524 0.796850 0.171634
0.461997 0.797069 0.171745
0.465737 0.795352 0.171531
0.469161 0.792841 0.171183
0.475450 0.797540 0.172057
0.480627 0.799324 0.172441
0.485103 0.799306 0.172521
0.489677 0.799484 0.172636
0.492074 0.794440 0.171868
0.498588 0.799144 0.172755
0.501437 0.795193 0.172175
0.508055 0.799917 0.173072
0.512487 0.799539 0.173104
0.518432 0.802500 0.173706
0.522748 0.801753 0.173680
0.525845 0.798322 0.173199
0.531543 0.800518 0.173679
0.535588 0.799100 0.173546
0.541953 0.802531 0.174244
0.546698 0.802473 0.174348
0.551587 0.802658 0.174497
0.556742 0.803322 0.174731
0.561260 0.802644 0.174738
0.566234 0.802828 0.174895
0.571534 0.803587 0.175155
0.576346 0.803329 0.175243
0.580638 0.802027 0.175154
0.586259 0.803204 0.175496
0.593160 0.806685 0.176238
0.597698 0.805665 0.176208
0.602229 0.804595 0.176173
0.606292 0.802642 0.175988
0.614536 0.808128 0.177094
0.619458 0.807569 0.177157
0.624858 0.807792 0.177360
0.629379 0.806429 0.177290
0.634630 0.806277 0.177435
0.642439 0.810381 0.178324
0.647723 0.810113 0.178456
0.653917 0.811291 0.178844
0.659284 0.811024 0.178983
0.665885 0.812693 0.179464
0.670674 0.811365 0.179425
0.676931 0.812322 0.179788
0.684587 0.815386 0.180526
0.690606 0.815788 0.180799
0.695815 0.814879 0.180844
0.702366 0.815964 0.181243
0.708241 0.815958 0.181452
0.714242 0.816085 0.181686
0.721563 0.818096 0.182256
0.727678 0.818265 0.182500
0.733231 0.817578 0.182594
0.739274 0.817564 0.182806
0.745519 0.817799 0.183063
0.751936 0.818240 0.183355
0.757506 0.817480 0.183431
0.763978 0.817950 0.183724
0.771632 0.820001 0.184298
0.780113 0.823117 0.185061
0.786320 0.823155 0.185266
0.792062 0.822589 0.185358
0.797822 0.822077 0.185452
0.805339 0.823869 0.185955
0.812321 0.824978 0.186327
0.818276 0.824806 0.186460
0.822862 0.822966 0.186280
0.828175 0.822121 0.186270
0.840913 0.830523 0.187926
-0.157960 0.762621 0.162425
-0.156820 0.769508 0.163552
-0.154198 0.772768 0.164074
-0.144734 0.757811 0.161591
-0.140307 0.756334 0.161319
-0.135274 0.753257 0.160777
-0.132711 0.757137 0.161373
-0.128993 0.757934 0.161456
-0.128431 0.767969 0.163050
-0.122565 0.762818 0.162145
-0.119633 0.766324 0.162656
-0.113734 0.761010 0.161717
-0.109764 0.761510 0.161727
-0.107176 0.766386 0.162452
-0.104032 0.769684 0.162915
-0.098334 0.764852 0.162044
-0.095311 0.768666 0.162587
-0.091343 0.769448 0.162632
-0.085812 0.764920 0.161809
-0.084826 0.775987 0.163532
-0.081423 0.778901 0.163923
-0.077772 0.780997 0.164180
-0.072272 0.776351 0.163338
-0.067506 0.774228 0.162909
-0.062360 0.770526 0.162224
-0.057208 0.766598 0.161505
-0.053187 0.766952 0.161484
-0.049334 0.767944 0.161567
-0.045015 0.766983 0.161335
-0.041071 0.767509 0.161346
-0.037860 0.771167 0.161867
-0.035086 0.776859 0.162718
-0.031539 0.779240 0.163035
-0.027527 0.779503 0.163010
-0.023709 0.780631 0.163127
-0.020241 0.783440 0.163518
-0.015855 0.781745 0.163183
-0.010933 0.777146 0.162381
-0.005803 0.771147 0.161355
-0.002372 0.773893 0.161745
0.001732 0.773000 0.161549
0.005205 0.775566 0.161913
0.008122 0.781454 0.162815
0.011969 0.782024 0.162861
0.015745 0.782990 0.162973
0.019750 0.782488 0.162851
0.024090 0.779673 0.162358
0.028248 0.777839 0.162025
0.031812 0.779994 0.162337
0.034543 0.788294 0.163639
0.039810 0.777993 0.161951
0.043540 0.778884 0.162065
0.046963 0.782283 0.162584
0.050526 0.784699 0.162947
0.053800 0.789808 0.163744
0.058306 0.783962 0.162782
0.062799 0.777656 0.161749
0.066796 0.775684 0.161413
0.070556 0.775972 0.161443
0.074306 0.776334 0.161486
0.077941 0.778040 0.161746
0.081488 0.780987 0.162208
0.084542 0.790763 0.163767
0.088261 0.792421 0.164024
0.092334 0.788923 0.163455
0.096134 0.789282 0.163506
0.099921 0.789894 0.163599
0.103613 0.792374 0.163994
0.107584 0.789468 0.163525
0.111596 0.784921 0.162795
0.115547 0.780863 0.162144
0.119222 0.783823 0.162620
0.122884 0.788207 0.163327
0.126716 0.787248 0.163177
0.130583 0.784025 0.162665
0.134355 0.785203 0.162860
0.138091 0.791039 0.163804
0.141909 0.792038 0.163973
0.145743 0.787261 0.163215
0.149539 0.783916 0.162688
0.153391 0.790759 0.163798
0.157137 0.784478 0.162801
0.160909 0.782861 0.162555
0.164826 0.788271 0.163438
0.168633 0.787670 0.163356
0.172476 0.788301 0.163472
0.176476 0.792996 0.164243
0.180284 0.791889 0.164082
0.183756 0.783628 0.162772
0.187591 0.784011 0.162852
0.191390 0.783610 0.162807
0.195194 0.783294 0.162776
0.199023 0.783367 0.162808
0.202993 0.785382 0.163153
0.207311 0.791796 0.164207
0.211504 0.795790 0.164872
0.215339 0.795010 0.164770
0.218985 0.792135 0.164331
0.222842 0.791755 0.164294
0.226970 0.794140 0.164703
0.231153 0.796792 0.165155
0.234668 0.792948 0.164562
0.238435 0.791634 0.164376
0.242014 0.788782 0.163944
0.246065 0.789982 0.164164
0.250379 0.793121 0.164698
0.254802 0.796826 0.165324
0.259104 0.799344 0.165759
0.263224 0.800353 0.165951
0.267521 0.802480 0.166325
0.271469 0.802113 0.166296
0.275215 0.800429 0.166055
0.278191 0.794013 0.165050
0.281615 0.790650 0.164539
0.286241 0.794508 0.165194
0.290663 0.796950 0.165622
0.294987 0.798683 0.165935
0.299061 0.798936 0.166010
0.302204 0.794231 0.165283
0.305503 0.790534 0.164719
0.309644 0.791209 0.164863
0.313752 0.791654 0.164971
0.317527 0.790458 0.164813
0.322044 0.792749 0.165221
0.327889 0.800963 0.166588
0.332731 0.804310 0.167169
0.337683 0.807958 0.167799
0.341650 0.807211 0.167717
0.345858 0.807474 0.167800
0.350120 0.807914 0.167912
0.354023 0.806863 0.167783
0.357346 0.803536 0.167285
0.359682 0.796495 0.166185
0.363918 0.796891 0.166292
0.366933 0.792699 0.165654
0.371300 0.793566 0.165840
0.377214 0.799915 0.166917
0.381435 0.800049 0.166985
0.384321 0.795525 0.166296
0.389386 0.798535 0.166834
0.395050 0.803410 0.167677
0.399355 0.803627 0.167762
0.403132 0.802100 0.167564
0.407528 0.802555 0.167690
0.410931 0.799857 0.167304
0.415336 0.800296 0.167429
0.419421 0.799718 0.167390
0.422381 0.795770 0.166802
0.426822 0.796256 0.166938
0.431313 0.796839 0.167092
0.435936 0.797744 0.167299
0.440439 0.798251 0.167444
0.445993 0.801617 0.168057
0.451466 0.804624 0.168613
0.457719 0.809611 0.169496
0.462044 0.809307 0.169514
0.465375 0.806375 0.169103
0.468571 0.803137 0.168642
0.473414 0.804137 0.168879
0.478052 0.804554 0.169021
0.481392 0.801707 0.168629
0.485261 0.800186 0.168456
0.489789 0.800253 0.168546
0.493823 0.799099 0.168437
0.496465 0.794663 0.167790
0.502377 0.797877 0.168404
0.508062 0.800444 0.168914
0.511521 0.797872 0.168579
0.516685 0.799121 0.168876
0.523057 0.802957 0.169604
0.527941 0.803411 0.169775
0.531773 0.801543 0.169565
0.536380 0.801315 0.169628
0.541053 0.801181 0.169710
0.546494 0.802593 0.170050
0.551324 0.802666 0.170171
0.557312 0.805028 0.170675
0.562263 0.805207 0.170819
0.565753 0.802435 0.170476
0.571584 0.804248 0.170898
0.576816 0.804806 0.171115
0.580722 0.802758 0.170899
0.585887 0.803077 0.171082
0.591606 0.804365 0.171430
0.597825 0.806486 0.171920
0.600965 0.802876 0.171455
0.606506 0.803621 0.171722
0.612098 0.804375 0.171994
0.618366 0.806246 0.172458
0.623908 0.806742 0.172694
0.628549 0.805607 0.172659
0.637002 0.810945 0.173718
0.641520 0.809450 0.173629
0.646840 0.809263 0.173764
0.653643 0.811468 0.174307
0.658516 0.810401 0.174300
0.664710 0.811430 0.174652
0.670172 0.811200 0.174793
0.676581 0.812411 0.175182
0.684538 0.815957 0.175972
0.689305 0.814422 0.175899
0.695319 0.814769 0.176151
0.700822 0.814275 0.176260
0.707869 0.816055 0.176761
0.714034 0.816430 0.177024
0.720274 0.816858 0.177297
0.726523 0.817240 0.177564
0.731992 0.816446 0.177629
0.738052 0.816473 0.177835
0.745282 0.818113 0.178319
0.751312 0.818014 0.178503
0.759119 0.820350 0.179106
0.763930 0.818518 0.178986
0.771908 0.821005 0.179611
0.779845 0.823382 0.180216
0.785654 0.822885 0.180316
0.791147 0.821991 0.180343
0.797984 0.822885 0.180674
0.804358 0.823189 0.180897
0.811382 0.824351 0.181262
0.818249 0.825334 0.181588
0.823881 0.824794 0.181639
0.828819 0.823457 0.181540
0.830877 0.818646 0.180822
-0.147152 0.734931 0.154160
-0.156157 0.768144 0.159457
-0.146053 0.751495 0.156782
-0.144082 0.756467 0.157553
-0.139627 0.754910 0.157275
-0.136636 0.757480 0.157650
-0.137267 0.770410 0.159670
-0.132185 0.767524 0.159162
-0.122743 0.752023 0.156637
-0.124522 0.769091 0.159300
-0.118205 0.762606 0.158205
-0.113932 0.762163 0.158068
-0.109153 0.760194 0.157686
-0.105078 0.760400 0.157647
-0.102029 0.763906 0.158131
-0.099749 0.770036 0.159028
-0.094610 0.766968 0.158463
-0.090184 0.766183 0.158259
-0.086806 0.768937 0.158616
-0.083108 0.770660 0.158809
-0.080625 0.776724 0.159688
-0.076639 0.777568 0.159741
-0.072407 0.777503 0.159650
-0.067133 0.773489 0.158936
-0.063391 0.775121 0.159115
-0.056983 0.766373 0.157657
-0.053151 0.767463 0.157754
-0.049131 0.767777 0.157729
-0.044899 0.767161 0.157560
-0.040228 0.764595 0.157085
-0.037567 0.770559 0.157955
-0.034567 0.775220 0.158620
-0.031455 0.779522 0.159230
-0.027790 0.781389 0.159459
-0.022727 0.776630 0.158649
-0.019976 0.782815 0.159560
-0.015485 0.780559 0.159148
-0.010393 0.775037 0.158225
-0.006291 0.774350 0.158064
-0.002196 0.773592 0.157893
0.001937 0.772510 0.157674
0.006001 0.771683 0.157497
0.009175 0.775938 0.158118
0.011894 0.783112 0.159197
0.015694 0.783948 0.159285
0.019996 0.781548 0.158870
0.024625 0.776769 0.158085
0.028732 0.775165 0.157799
0.030632 0.788924 0.159915
0.036211 0.776763 0.157983
0.040065 0.776687 0.157941
0.043478 0.779988 0.158428
0.047003 0.782566 0.158804
0.050460 0.785867 0.159294
0.054566 0.783661 0.158926
0.058518 0.782620 0.158742
0.062912 0.777173 0.157873
0.066796 0.776286 0.157716
0.070532 0.776820 0.157783
0.074242 0.777648 0.157897
0.078355 0.773769 0.157279
0.081909 0.776351 0.157669
0.084735 0.788810 0.159600
0.088391 0.791184 0.159961
0.092333 0.789541 0.159697
0.096377 0.785947 0.159130
0.100239 0.784900 0.158961
0.103795 0.789489 0.159672
0.107678 0.788087 0.159451
0.111657 0.784112 0.158830
0.115507 0.782501 0.158579
0.119210 0.784796 0.158937
0.122947 0.786638 0.159225
0.126854 0.782209 0.158538
0.130603 0.783669 0.158770
0.134415 0.781896 0.158498
0.138153 0.785738 0.159103
0.141934 0.788666 0.159566
0.145750 0.783545 0.158776
0.149542 0.784347 0.158909
0.153353 0.786453 0.159247
0.157135 0.784637 0.158974
0.160950 0.785512 0.159122
0.164806 0.787754 0.159483
0.168488 0.782707 0.158709
0.172271 0.782271 0.158655
0.176260 0.787498 0.159484
0.180134 0.788666 0.159682
0.183714 0.783141 0.158836
0.187537 0.783365 0.158887
0.191406 0.784318 0.159053
0.195152 0.783032 0.158870
0.198939 0.782497 0.158804
0.202761 0.782474 0.158819
0.206963 0.787529 0.159628
0.211196 0.792322 0.160396
0.214932 0.790581 0.160145
0.218501 0.787094 0.159622
0.222508 0.788606 0.159880
0.226822 0.793069 0.160599
0.230937 0.795126 0.160943
0.234403 0.790921 0.160309
0.238126 0.789315 0.160082
0.242657 0.794706 0.160949
0.245835 0.788523 0.160007
0.250423 0.793900 0.160873
0.255036 0.799036 0.161702
0.258876 0.798099 0.161582
0.262744 0.797382 0.161496
0.267502 0.802783 0.162369
0.271631 0.803622 0.162528
0.275024 0.799631 0.161931
0.277870 0.792439 0.160833
0.281510 0.790441 0.160548
0.285166 0.788614 0.160291
0.290582 0.796920 0.161622
0.295482 0.801866 0.162428
0.299548 0.802003 0.162480
0.303013 0.798929 0.162029
0.305190 0.789350 0.160558
0.309060 0.788701 0.160487
0.313531 0.790998 0.160880
0.317693 0.791674 0.161019
0.322426 0.794956 0.161568
0.327150 0.798018 0.162082
0.332497 0.803697 0.163009
0.337036 0.805567 0.163339
0.342118 0.809650 0.164016
0.346378 0.810085 0.164122
0.348711 0.802569 0.162976
0.351531 0.797281 0.162182
0.357098 0.802996 0.163119
0.360010 0.798197 0.162402
0.362660 0.792553 0.161553
0.368316 0.798276 0.162494
0.372953 0.800039 0.162812
0.377704 0.802112 0.163181
0.379079 0.792189 0.161658
0.383046 0.791553 0.161601
0.389637 0.799832 0.162950
0.394684 0.802632 0.163437
0.399976 0.806115 0.164033
0.405308 0.809581 0.164627
0.409413 0.808999 0.164583
0.413003 0.806789 0.164283
0.416315 0.803763 0.163854
0.419451 0.800262 0.163351
0.421746 0.794326 0.162463
0.426522 0.795829 0.162753
0.431485 0.797794 0.163118
0.435949 0.798241 0.163244
0.440254 0.798194 0.163293
0.445739 0.801379 0.163855
0.452412 0.807677 0.164914
0.458447 0.812042 0.165667
0.463402 0.813384 0.165943
0.467552 0.812547 0.165874
0.471376 0.810851 0.165670
0.475320 0.809466 0.165517
0.478056 0.805048 0.164882
0.481519 0.802508 0.164548
0.484634 0.799142 0.164083
0.488155 0.796804 0.163783
0.492157 0.795628 0.163669
0.496333 0.794847 0.163621
0.501099 0.795412 0.163789
0.507070 0.798675 0.164390
0.512779 0.801220 0.164879
0.516010 0.798123 0.164468
0.523107 0.803582 0.165429
0.529373 0.807048 0.166073
0.533904 0.806649 0.166101
0.535793 0.800590 0.165223
0.539466 0.798374 0.164963
0.545853 0.801794 0.165610
0.551474 0.803509 0.165987
0.556515 0.803953 0.166162
0.563963 0.809156 0.167105
0.573292 0.817906 0.168625
0.577269 0.815924 0.168419
0.579987 0.811495 0.167820
0.582531 0.806776 0.167176
0.586882 0.805522 0.167093
0.593392 0.808272 0.167662
0.599950 0.810986 0.168228
0.604461 0.809840 0.168172
0.607795 0.806529 0.167768
0.613008 0.806586 0.167912
0.618007 0.806201 0.167989
0.621508 0.803142 0.167632
0.627566 0.804504 0.167999
0.635228 0.808515 0.168801
0.644980 0.815910 0.170161
0.651400 0.817503 0.170577
0.655200 0.814661 0.170272
0.659353 0.812390 0.170062
0.663618 0.810285 0.169881
0.669734 0.811124 0.170186
0.675371 0.811123 0.170357
0.683399 0.814806 0.171136
0.688972 0.814541 0.171269
0.694160 0.813627 0.171297
0.701211 0.815505 0.171788
0.707202 0.815692 0.172002
0.713233 0.815880 0.172218
0.719619 0.816534 0.172513
0.725518 0.816417 0.172681
0.730963 0.815603 0.172734
0.735709 0.813767 0.172616
0.743976 0.816905 0.173327
0.755635 0.824692 0.174816
0.760237 0.822528 0.174641
0.764687 0.820180 0.174433
0.772048 0.821814 0.174889
0.779307 0.823274 0.175313
0.786084 0.824064 0.175622
0.790889 0.822249 0.175487
0.797541 0.822895 0.175761
0.804392 0.823811 0.176074
0.809318 0.822275 0.175967
0.814581 0.821234 0.175936
0.823282 0.824585 0.176639
0.830036 0.825504 0.176922
0.833795 0.822767 0.176576
-0.150699 0.744477 0.151934
-0.151155 0.755370 0.153611
-0.147936 0.756893 0.153830
-0.144066 0.756830 0.153797
-0.141564 0.760630 0.154355
-0.137769 0.761066 0.154387
-0.134351 0.762678 0.154595
-0.130977 0.764558 0.154838
-0.124616 0.757934 0.153763
-0.118557 0.752072 0.152801
-0.115698 0.755647 0.153294
-0.112095 0.757131 0.153460
-0.109434 0.761607 0.154085
-0.105247 0.761489 0.153998
-0.100068 0.758231 0.153425
-0.099419 0.769552 0.155095
-0.095818 0.771543 0.155327
-0.090810 0.768881 0.154841
-0.086364 0.768033 0.154635
-0.083858 0.773883 0.155456
-0.080632 0.777371 0.155915
-0.077112 0.779903 0.156226
-0.071624 0.775253 0.155436
-0.067464 0.775360 0.155377
-0.063163 0.774884 0.155229
-0.056767 0.766159 0.153820
-0.052937 0.767240 0.153914
-0.048956 0.767695 0.153913
-0.044232 0.765021 0.153435
-0.040280 0.765442 0.153432
-0.037465 0.770749 0.154176
-0.034859 0.777150 0.155088
-0.030840 0.777368 0.155058
-0.025148 0.769762 0.153838
-0.020663 0.767452 0.153428
-0.016716 0.767579 0.153391
-0.012728 0.767432 0.153314
-0.009751 0.772377 0.154013
-0.006044 0.773676 0.154159
-0.002348 0.775032 0.154316
0.002478 0.770131 0.153524
0.006840 0.767520 0.153082
0.009882 0.772415 0.153782
0.014122 0.770308 0.153420
0.015809 0.783844 0.155434
0.021089 0.775163 0.154079
0.025435 0.772028 0.153568
0.028972 0.774128 0.153852
0.033023 0.772676 0.153599
0.036570 0.774740 0.153881
0.040291 0.775565 0.153977
0.043649 0.779235 0.154505
0.047218 0.781404 0.154808
0.051216 0.780049 0.154578
0.054799 0.782185 0.154879
0.058714 0.781392 0.154738
0.062845 0.778385 0.154263
0.066692 0.777895 0.154171
0.070453 0.778215 0.154203
0.074261 0.777992 0.154154
0.078283 0.775179 0.153716
0.082010 0.775646 0.153774
0.085073 0.784904 0.155162
0.088479 0.790508 0.155999
0.092616 0.785823 0.155283
0.096965 0.776948 0.153935
0.100688 0.777577 0.154024
0.104361 0.779231 0.154269
0.108051 0.780803 0.154503
0.111778 0.781837 0.154656
0.115492 0.783437 0.154897
0.119221 0.785023 0.155136
0.122958 0.786831 0.155410
0.126722 0.788211 0.155620
0.130651 0.781821 0.154657
0.134432 0.781371 0.154593
0.138179 0.783899 0.154979
0.141965 0.783872 0.154981
0.145751 0.783947 0.154998
0.149538 0.783606 0.154954
0.153366 0.788284 0.155669
0.157179 0.788352 0.155688
0.160916 0.784014 0.155042
0.164623 0.780036 0.154451
0.168493 0.783331 0.154960
0.172346 0.785050 0.155231
0.176146 0.784800 0.155206
0.180064 0.787419 0.155615
0.183712 0.783537 0.155041
0.187572 0.784488 0.155200
0.191380 0.784301 0.155186
0.195307 0.786043 0.155465
0.198962 0.783282 0.155064
0.202785 0.783265 0.155078
0.206989 0.788319 0.155859
0.210929 0.789383 0.156038
0.214651 0.787665 0.155796
0.218313 0.785399 0.155472
0.222180 0.785527 0.155511
0.226233 0.787489 0.155827
0.230284 0.789206 0.156108
0.234569 0.792898 0.156688
0.237968 0.788336 0.156017
0.242125 0.790591 0.156381
0.246605 0.795277 0.157113
0.250599 0.795726 0.157204
0.254715 0.797029 0.157424
0.257799 0.790625 0.156476
0.261429 0.788485 0.156175
0.266356 0.795353 0.157241
0.270143 0.794170 0.157086
0.273524 0.790411 0.156540
0.279098 0.800528 0.158102
0.281856 0.792962 0.156979
0.285767 0.792576 0.156946
0.290317 0.795827 0.157466
0.296493 0.807927 0.159332
0.299855 0.804097 0.158778
0.301440 0.791050 0.156822
0.304951 0.788542 0.156469
0.309252 0.790087 0.156732
0.313717 0.792332 0.157103
0.317696 0.792111 0.157098
0.321693 0.791958 0.157105
0.326514 0.795540 0.157681
0.331106 0.797911 0.158073
0.335874 0.800920 0.158563
0.339146 0.797363 0.158053
0.343609 0.798918 0.158322
0.348142 0.800667 0.158622
0.351740 0.798549 0.158333
0.356264 0.800139 0.158610
0.359483 0.796590 0.158103
0.362645 0.792928 0.157580
0.366977 0.793725 0.157737
0.372294 0.798065 0.158437
0.375795 0.795697 0.158112
0.375118 0.778661 0.155548
0.382116 0.788764 0.157130
0.388854 0.797603 0.158520
0.393943 0.800596 0.159018
0.398975 0.803270 0.159469
0.404821 0.808452 0.160304
0.410443 0.812723 0.161001
0.414091 0.810644 0.160728
0.416683 0.805343 0.159961
0.419767 0.801667 0.159444
0.421996 0.795521 0.158549
0.426541 0.796335 0.158721
0.431191 0.797394 0.158933
0.435685 0.797940 0.159066
0.440169 0.798411 0.159190
0.445065 0.799970 0.159482
0.451061 0.804454 0.160224
0.457169 0.809073 0.160990
0.460653 0.806564 0.160661
0.465982 0.808915 0.161080
0.471913 0.812714 0.161725
0.475166 0.809554 0.161300
0.477494 0.804117 0.160525
0.480140 0.799572 0.159888
0.485530 0.801814 0.160298
0.487351 0.795345 0.159367
0.490420 0.791973 0.158914
0.496739 0.796287 0.159650
0.502629 0.799449 0.160211
0.507695 0.800603 0.160463
0.512743 0.801638 0.160698
0.522079 0.812184 0.162409
0.525667 0.809739 0.162111
0.531248 0.811647 0.162489
0.534928 0.809367 0.162220
0.536210 0.801992 0.161162
0.538742 0.797371 0.160532
0.545545 0.801677 0.161292
0.550703 0.802453 0.161505
0.555556 0.802539 0.161613
0.565997 0.813770 0.163461
0.572667 0.817216 0.164100
0.574913 0.811860 0.163368
0.577794 0.807801 0.162841
0.584287 0.810688 0.163400
0.589378 0.810797 0.163529
0.594596 0.811082 0.163688
0.600677 0.812898 0.164090
0.606302 0.813775 0.164348
0.610712 0.812373 0.164251
0.615955 0.812431 0.164386
0.620047 0.810385 0.164193
0.622651 0.805720 0.163590
0.624303 0.799445 0.162735
0.631152 0.802134 0.163295
0.643055 0.813251 0.165190
0.650545 0.816674 0.165876
0.655231 0.815317 0.165808
0.658234 0.811164 0.165301
0.663146 0.810128 0.165289
0.668728 0.810124 0.165443
0.677700 0.815431 0.166444
0.682745 0.814400 0.166441
0.689894 0.816592 0.166954
0.698321 0.820642 0.167767
0.705013 0.821909 0.168139
0.708564 0.818367 0.167743
0.712654 0.815646 0.167479
0.723388 0.822713 0.168786
0.727085 0.819329 0.168417
0.728847 0.813176 0.167603
0.735795 0.814513 0.167992
0.742801 0.815866 0.168385
0.753808 0.822761 0.169672
0.756966 0.818617 0.169176
0.760584 0.815166 0.168789
0.768200 0.817198 0.169286
0.778516 0.822815 0.170364
0.785103 0.823355 0.170615
0.791117 0.823137 0.170739
0.796680 0.822351 0.170765
0.802947 0.822512 0.170939
0.806256 0.818909 0.170493
0.809883 0.815814 0.170122
0.817600 0.817971 0.170601
0.829304 0.825118 0.171888
0.839860 0.830783 0.172926
-0.150024 0.743066 0.147976
-0.151156 0.755736 0.149865
-0.151373 0.766429 0.151451
-0.143467 0.755612 0.149805
-0.139603 0.755683 0.149785
-0.135589 0.755454 0.149716
-0.133419 0.760509 0.150432
-0.131157 0.765541 0.151140
-0.123913 0.756379 0.149718
-0.119307 0.754768 0.149423
-0.115021 0.754127 0.149270
-0.111776 0.756680 0.149591
-0.108390 0.758922 0.149863
-0.105460 0.762699 0.150361
-0.101537 0.763463 0.150407
-0.096647 0.761129 0.149989
-0.094871 0.768994 0.151091
-0.089929 0.766503 0.150647
-0.085468 0.765556 0.150434
-0.082828 0.770891 0.151155
-0.080828 0.778664 0.152237
-0.076935 0.779867 0.152342
-0.071661 0.775995 0.151694
-0.067059 0.774446 0.151392
-0.062906 0.774507 0.151330
-0.056505 0.765738 0.149961
-0.052629 0.766620 0.150023
-0.048424 0.766134 0.149884
-0.044318 0.765982 0.149796
-0.040307 0.766162 0.149759
-0.037449 0.771284 0.150454
-0.034311 0.775332 0.150990
-0.030112 0.774676 0.150834
-0.025222 0.770707 0.150190
-0.020931 0.769326 0.149930
-0.016648 0.767842 0.149657
-0.012682 0.767795 0.149598
-0.008857 0.768399 0.149637
-0.005746 0.772707 0.150223
-0.001658 0.771900 0.150057
0.003034 0.767632 0.149384
0.007344 0.765232 0.148988
0.011531 0.763341 0.148668
0.015504 0.762558 0.148514
0.019517 0.761405 0.148307
0.022539 0.766460 0.149013
0.025672 0.771026 0.149650
0.029052 0.774147 0.150075
0.033035 0.773157 0.149898
0.036993 0.772210 0.149730
0.040292 0.776117 0.150275
0.043645 0.779819 0.150791
0.047745 0.777666 0.150450
0.051549 0.777782 0.150444
0.055033 0.780669 0.150845
0.058780 0.781334 0.150921
0.062797 0.779388 0.150617
0.066669 0.778667 0.150494
0.070413 0.779180 0.150552
0.074313 0.777949 0.150357
0.078143 0.777346 0.150255
0.081833 0.778377 0.150393
0.085026 0.786056 0.151506
0.088798 0.786538 0.151567
0.092733 0.784581 0.151271
0.096854 0.779263 0.150485
0.100720 0.777528 0.150225
0.104459 0.777849 0.150266
0.108113 0.780016 0.150579
0.111895 0.779627 0.150519
0.115618 0.780654 0.150667
0.119254 0.784554 0.151236
0.122964 0.787129 0.151612
0.126796 0.785626 0.151393
0.130647 0.782496 0.150936
0.134468 0.779468 0.150495
0.138209 0.781446 0.150788
0.141975 0.782476 0.150943
0.145753 0.782897 0.151009
0.149539 0.784230 0.151210
0.153352 0.787068 0.151632
0.157146 0.786276 0.151523
0.160886 0.782760 0.151016
0.164658 0.782041 0.150919
0.168497 0.783950 0.151208
0.172482 0.789792 0.152073
0.176408 0.792442 0.152471
0.180320 0.794080 0.152722
0.183551 0.780470 0.150741
0.187479 0.783103 0.151139
0.191459 0.786169 0.151600
0.195276 0.785981 0.151586
0.199093 0.785757 0.151567
0.202924 0.785704 0.151574
0.206909 0.787688 0.151880
0.210834 0.788619 0.152031
0.214605 0.787552 0.151891
0.218152 0.784020 0.151389
0.222066 0.784741 0.151511
0.226019 0.785740 0.151675
0.230022 0.787081 0.151889
0.234274 0.790587 0.152422
0.238356 0.792234 0.152682
0.242412 0.793476 0.152883
0.246593 0.795617 0.153217
0.250572 0.795943 0.153285
0.253160 0.785615 0.151788
0.256684 0.782861 0.151404
0.260544 0.782630 0.151391
0.264729 0.784618 0.151704
0.268931 0.786544 0.152008
0.272841 0.786442 0.152015
0.279558 0.803834 0.154594
0.283779 0.805042 0.154794
0.286528 0.797478 0.153705
0.290280 0.796043 0.153518
0.294753 0.798667 0.153928
0.300478 0.807906 0.155311
0.301408 0.791304 0.152893
0.305391 0.791228 0.152907
0.309191 0.790202 0.152781
0.313592 0.792142 0.153092
0.317534 0.791760 0.153062
0.321448 0.791233 0.153011
0.326078 0.793971 0.153442
0.330783 0.796895 0.153900
0.334628 0.795894 0.153781
0.337975 0.792779 0.153350
0.341602 0.790934 0.153106
0.346549 0.794550 0.153669
0.351364 0.797465 0.154129
0.358914 0.811022 0.156161
0.360969 0.802765 0.154974
0.363994 0.798473 0.154372
0.367269 0.795238 0.153926
0.371015 0.793816 0.153749
0.373601 0.788252 0.152960
0.378107 0.789623 0.153196
0.382313 0.789876 0.153268
0.388889 0.798158 0.154528
0.391956 0.794382 0.154006
0.395843 0.793403 0.153898
0.402655 0.801885 0.155192
0.408679 0.807553 0.156070
0.413222 0.808367 0.156230
0.416082 0.803937 0.155615
0.415791 0.790051 0.153598
0.421531 0.794574 0.154310
0.426188 0.795740 0.154526
0.430909 0.797024 0.154761
0.435179 0.796946 0.154794
0.439296 0.796407 0.154760
0.444530 0.798941 0.155184
0.450314 0.802872 0.155817
0.454591 0.802596 0.155826
0.457560 0.798817 0.155315
0.461385 0.797345 0.155148
0.466439 0.799051 0.155455
0.476022 0.812205 0.157469
0.477391 0.804329 0.156352
0.479820 0.799250 0.155653
0.484487 0.799737 0.155785
0.489925 0.802033 0.156188
0.495669 0.804955 0.156687
0.498605 0.801155 0.156183
0.504187 0.803551 0.156607
0.509410 0.805021 0.156894
0.513945 0.804851 0.156938
0.519613 0.807171 0.157356
0.530302 0.820473 0.159422
0.530452 0.810416 0.157991
0.534151 0.808201 0.157736
0.536331 0.802756 0.156997
0.539946 0.800410 0.156726
0.545687 0.802484 0.157120
0.550416 0.802379 0.157189
0.555106 0.802146 0.157241
0.561386 0.805054 0.157768
0.569785 0.812037 0.158912
0.571437 0.805586 0.158034
0.574716 0.802376 0.157646
0.583657 0.810024 0.158900
0.589957 0.812439 0.159368
0.593491 0.809565 0.159038
0.597093 0.806818 0.158729
0.602141 0.806720 0.158824
0.608598 0.809109 0.159298
0.613732 0.809018 0.159400
0.618739 0.808639 0.159460
0.623420 0.807633 0.159428
0.626775 0.804291 0.159042
0.628073 0.797434 0.158122
0.634192 0.798826 0.158462
0.644671 0.807426 0.159906
0.649498 0.806409 0.159884
0.656168 0.808370 0.160321
0.662796 0.810155 0.160734
0.668262 0.809972 0.160849
0.674234 0.810533 0.161080
0.683240 0.815782 0.162035
0.689941 0.817274 0.162415
0.699021 0.822331 0.163348
0.704373 0.821551 0.163383
0.705876 0.814935 0.162519
0.712257 0.815666 0.162790
0.721339 0.820312 0.163669
0.725978 0.818330 0.163523
0.727555 0.811920 0.162690
0.726445 0.801760 0.161271
0.740727 0.813541 0.163263
0.744401 0.810199 0.162902
0.748357 0.807288 0.162607
0.755948 0.809402 0.163093
0.768122 0.817687 0.164543
0.777060 0.821448 0.165286
0.784629 0.823311 0.165728
0.790346 0.822700 0.165780
0.796446 0.822615 0.165909
0.801585 0.821311 0.165841
0.794235 0.804037 0.163254
0.804778 0.809862 0.164294
0.815078 0.815323 0.165271
0.821923 0.816423 0.165554
0.794332 0.774939 0.159104
-0.142020 0.722607 0.141270
-0.150926 0.755489 0.146030
-0.150713 0.765051 0.147399
-0.144504 0.758805 0.146468
-0.140065 0.757355 0.146228
-0.135903 0.756746 0.146104
-0.132830 0.759291 0.146433
-0.130890 0.765236 0.147250
-0.126778 0.765149 0.147189
-0.121719 0.762343 0.146730
-0.117144 0.760962 0.146475
-0.112570 0.759590 0.146218
-0.110970 0.767391 0.147285
-0.106887 0.767697 0.147265
-0.100819 0.761704 0.146335
-0.096257 0.760404 0.146081
-0.092336 0.761176 0.146125
-0.089081 0.764210 0.146495
-0.084209 0.761811 0.146080
-0.081066 0.765323 0.146517
-0.078636 0.771468 0.147332
-0.075629 0.775729 0.147876
-0.069459 0.768466 0.146763
-0.066366 0.772425 0.147264
-0.063170 0.776102 0.147724
-0.056410 0.765948 0.146201
-0.052508 0.766713 0.146247
-0.048485 0.766962 0.146219
-0.044272 0.766369 0.146072
-0.040374 0.767023 0.146105
-0.037666 0.772808 0.146873
-0.033710 0.773245 0.146877
-0.030147 0.775414 0.147131
-0.025185 0.771110 0.146461
-0.021067 0.770544 0.146327
-0.016867 0.769480 0.146124
-0.012212 0.766014 0.145579
-0.009573 0.772630 0.146475
-0.005930 0.774240 0.146658
-0.001899 0.773763 0.146545
0.002360 0.771926 0.146240
0.006725 0.769312 0.145827
0.011303 0.765226 0.145206
0.015678 0.762052 0.144716
0.019570 0.761615 0.144618
0.022906 0.764646 0.145015
0.025792 0.770778 0.145853
0.029012 0.774959 0.146416
0.032720 0.775918 0.146522
0.037087 0.772058 0.145945
0.040792 0.772864 0.146032
0.043351 0.782658 0.147397
0.047786 0.777855 0.146690
0.051651 0.777444 0.146609
0.055003 0.781464 0.147158
0.058635 0.783190 0.147382
0.063096 0.777020 0.146488
0.066750 0.778360 0.146661
0.070553 0.778202 0.146622
0.074296 0.778633 0.146668
0.078100 0.778353 0.146614
0.081592 0.781874 0.147100
0.085268 0.783345 0.147297
0.088836 0.786494 0.147733
0.092799 0.784081 0.147382
0.096856 0.779722 0.146756
0.100667 0.778934 0.146637
0.104584 0.775940 0.146207
0.108315 0.776220 0.146241
0.112016 0.777257 0.146384
0.115782 0.776825 0.146319
0.119542 0.776420 0.146259
0.123189 0.779764 0.146731
0.126873 0.782890 0.147173
0.130691 0.780659 0.146858
0.134469 0.779767 0.146732
0.138228 0.779976 0.146763
0.141975 0.782742 0.147158
0.145751 0.784258 0.147376
0.149544 0.786458 0.147691
0.153328 0.784806 0.147462
0.157081 0.781836 0.147047
0.160875 0.782640 0.147167
0.164738 0.786085 0.147661
0.168608 0.788511 0.148012
0.172447 0.789188 0.148116
0.176488 0.795120 0.148965
0.180152 0.790475 0.148316
0.183565 0.781249 0.147018
0.187498 0.783958 0.147412
0.191308 0.783904 0.147415
0.195148 0.784298 0.147482
0.199096 0.786256 0.147771
0.203106 0.788794 0.148143
0.206762 0.786169 0.147784
0.210669 0.786982 0.147912
0.214642 0.788453 0.148134
0.218203 0.785044 0.147664
0.222070 0.785221 0.147704
0.225974 0.785718 0.147789
0.229795 0.785308 0.147746
0.234355 0.791781 0.148680
0.238447 0.793481 0.148937
0.242681 0.796222 0.149343
0.246665 0.796647 0.149420
0.248848 0.782743 0.147462
0.252705 0.782579 0.147456
0.256793 0.784085 0.147687
0.260805 0.784913 0.147823
0.264884 0.786103 0.148010
0.269081 0.787967 0.148294
0.273528 0.791292 0.148785
0.278113 0.795237 0.149365
0.282831 0.799727 0.150024
0.286734 0.799118 0.149957
0.289785 0.793633 0.149198
0.293625 0.792809 0.149101
0.297671 0.793111 0.149165
0.301594 0.792712 0.149130
0.305402 0.791706 0.149008
0.309384 0.791593 0.149014
0.313413 0.791683 0.149050
0.317248 0.790809 0.148948
0.321360 0.791243 0.149033
0.326100 0.794493 0.149520
0.330187 0.794651 0.149567
0.334140 0.794184 0.149525
0.337641 0.791770 0.149205
0.341789 0.792138 0.149283
0.345925 0.792409 0.149348
0.350695 0.795193 0.149771
0.357558 0.806103 0.151355
0.362689 0.809851 0.151918
0.365553 0.804819 0.151228
0.369092 0.802460 0.150920
0.371942 0.797634 0.150259
0.374752 0.792807 0.149599
0.378873 0.792748 0.149621
0.385494 0.801327 0.150878
0.388765 0.798167 0.150458
0.390916 0.791331 0.149512
0.394162 0.788299 0.149111
0.401723 0.799306 0.150720
0.406676 0.801613 0.151084
0.412843 0.807623 0.151980
0.414091 0.798236 0.150672
0.418832 0.799716 0.150921
0.421398 0.794613 0.150227
0.425847 0.795177 0.150346
0.430305 0.795714 0.150463
0.434496 0.795440 0.150463
0.438374 0.794257 0.150335
0.444770 0.800055 0.151210
0.450132 0.802828 0.151651
0.453554 0.800256 0.151326
0.456762 0.797150 0.150926
0.460663 0.795910 0.150794
0.465483 0.797040 0.151004
0.473011 0.805000 0.152199
0.478174 0.806763 0.152504
0.479032 0.797759 0.151259
0.483327 0.797366 0.151255
0.491069 0.805267 0.152449
0.497563 0.809944 0.153180
0.501361 0.808115 0.152974
0.502596 0.800334 0.151910
0.505275 0.796017 0.151347
0.515301 0.808406 0.153200
0.520707 0.799774 0.152081
0.527862 0.805261 0.152943
0.533961 0.808290 0.153451
0.537185 0.805073 0.153056
0.540807 0.802720 0.152788
0.545533 0.802668 0.152856
0.549799 0.801619 0.152780
0.554979 0.802399 0.152972
0.559845 0.802476 0.153065
0.568409 0.809830 0.154218
0.572100 0.807408 0.153951
0.573086 0.799741 0.152922
0.578219 0.800135 0.153069
0.585035 0.803654 0.153674
0.593969 0.810997 0.154841
0.596905 0.807011 0.154356
0.596844 0.797564 0.153074
0.601957 0.797634 0.153185
0.608462 0.800133 0.153655
0.611774 0.796859 0.153281
0.623280 0.807945 0.155017
0.628725 0.808227 0.155171
0.630816 0.802691 0.154472
0.633414 0.798069 0.153908
0.640396 0.800830 0.154434
0.648446 0.805236 0.155205
0.654903 0.806871 0.155571
0.662763 0.810682 0.156262
0.668275 0.810576 0.156376
0.673942 0.810654 0.156521
0.682598 0.815363 0.157354
0.689002 0.816408 0.157647
0.694856 0.816523 0.157804
0.701429 0.817670 0.158116
0.707601 0.818130 0.158329
0.710738 0.814001 0.157858
0.719301 0.817907 0.158587
0.721592 0.812526 0.157930
0.723118 0.806104 0.157116
0.730506 0.808154 0.157570
0.735096 0.806164 0.157418
0.741889 0.807268 0.157729
0.750728 0.811160 0.158459
0.762048 0.818360 0.159687
0.767488 0.817409 0.159687
0.776874 0.821778 0.160487
0.783055 0.821787 0.160627
0.789618 0.822308 0.160841
0.796652 0.823447 0.161144
0.806281 0.827949 0.161952
0.811706 0.826999 0.161930
0.814725 0.815399 0.160393
0.819028 0.813318 0.160178
0.795336 0.776659 0.154695
-0.155086 0.756896 0.142447
-0.153686 0.763108 0.143305
-0.150509 0.764881 0.143534
-0.145405 0.761626 0.143053
-0.139390 0.755905 0.142221
-0.135369 0.755678 0.142154
-0.132174 0.757870 0.142423
-0.130314 0.764034 0.143243
-0.126101 0.763640 0.143141
-0.121124 0.761059 0.142729
-0.117482 0.762447 0.142870
-0.115263 0.768256 0.143626
-0.112715 0.773278 0.144269
-0.107967 0.771594 0.143973
-0.102450 0.767420 0.143328
-0.095536 0.758580 0.142032
-0.091297 0.758270 0.141925
-0.087581 0.759699 0.142060
-0.084423 0.763078 0.142466
-0.080787 0.764893 0.142654
-0.077860 0.769263 0.143196
-0.073592 0.768915 0.143083
-0.069600 0.769533 0.143104
-0.065415 0.769405 0.143022
-0.062613 0.774525 0.143669
-0.056521 0.766932 0.142553
-0.052497 0.767224 0.142533
-0.048481 0.767498 0.142511
-0.044382 0.767382 0.142436
-0.040380 0.767601 0.142409
-0.040228 0.784498 0.144690
-0.033552 0.773095 0.143058
-0.030328 0.776791 0.143515
-0.024887 0.770273 0.142562
-0.020866 0.770133 0.142493
-0.016800 0.769698 0.142384
-0.012449 0.767740 0.142067
-0.009247 0.771502 0.142540
-0.005917 0.774709 0.142938
-0.001837 0.773968 0.142793
0.002205 0.773322 0.142663
0.005998 0.773987 0.142715
0.010123 0.772665 0.142495
0.014615 0.768987 0.141952
0.018591 0.768218 0.141812
0.022131 0.770133 0.142042
0.025284 0.774652 0.142631
0.028294 0.780380 0.143387
0.032497 0.778000 0.143031
0.036843 0.774347 0.142502
0.040806 0.773257 0.142326
0.044002 0.778053 0.142959
0.047584 0.780007 0.143203
0.051582 0.778525 0.142978
0.055015 0.781847 0.143412
0.058546 0.784502 0.143756
0.063124 0.777240 0.142741
0.066989 0.776431 0.142613
0.070536 0.778858 0.142929
0.074328 0.778750 0.142899
0.078242 0.777149 0.142666
0.082035 0.776815 0.142607
0.085274 0.783729 0.143542
0.088937 0.785526 0.143778
0.092974 0.781885 0.143269
0.096996 0.777891 0.142713
0.100810 0.776854 0.142563
0.104578 0.776484 0.142505
0.108410 0.774663 0.142250
0.111838 0.781824 0.143225
0.115838 0.775754 0.142390
0.119565 0.776117 0.142436
0.123250 0.778039 0.142696
0.126863 0.783662 0.143464
0.130643 0.783463 0.143436
0.134427 0.782917 0.143361
0.138186 0.784256 0.143545
0.141968 0.784136 0.143529
0.145745 0.788056 0.144068
0.149537 0.785455 0.143714
0.153319 0.784440 0.143578
0.157044 0.779675 0.142929
0.160797 0.778835 0.142818
0.164781 0.788574 0.144157
0.168645 0.790425 0.144416
0.172444 0.789613 0.144310
0.176206 0.787909 0.144084
0.180109 0.789938 0.144369
0.183603 0.782571 0.143367
0.187418 0.782844 0.143412
0.191257 0.783465 0.143506
0.195080 0.783646 0.143540
0.198871 0.783243 0.143494
0.202977 0.787399 0.144073
0.206859 0.787938 0.144157
0.210769 0.788707 0.144273
0.214535 0.787620 0.144135
0.218278 0.786338 0.143971
0.222137 0.786386 0.143989
0.225910 0.785508 0.143881
0.229728 0.785096 0.143837
0.234346 0.792144 0.144817
0.238524 0.794615 0.145169
0.241918 0.790130 0.144567
0.245720 0.789307 0.144468
0.249175 0.785766 0.143996
0.252894 0.784447 0.143830
0.257704 0.791214 0.144774
0.261555 0.790669 0.144714
0.264953 0.787009 0.144227
0.269197 0.789166 0.144539
0.273164 0.789376 0.144584
0.277219 0.790078 0.144697
0.281594 0.792649 0.145067
0.286492 0.798126 0.145836
0.290030 0.795463 0.145488
0.292711 0.788135 0.144498
0.296632 0.787895 0.144483
0.301605 0.793193 0.145230
0.305395 0.792089 0.145097
0.309157 0.790872 0.144948
0.313074 0.790444 0.144908
0.317175 0.790881 0.144988
0.321488 0.792258 0.145198
0.325747 0.793299 0.145361
0.329548 0.792211 0.145232
