ply
format ascii 1.0
comment ---
element vertex 1677
property float x
property float y
property float z
element face 0
property list uchar uint vertex_indices
end_header
-0.066992 0.805558 -0.274571
-0.063140 0.806079 -0.274696
-0.059210 0.805537 -0.274474
-0.055245 0.804316 -0.274032
-0.051527 0.806992 -0.274869
-0.048039 0.814231 -0.277204
-0.044279 0.817465 -0.278227
-0.040304 0.816631 -0.277916
-0.036263 0.813921 -0.276992
-0.032396 0.815320 -0.277417
-0.028413 0.813317 -0.276728
-0.024483 0.812601 -0.276462
-0.020616 0.814409 -0.277025
-0.016638 0.810533 -0.275727
-0.012740 0.810124 -0.275566
-0.008819 0.805749 -0.274108
-0.004948 0.804568 -0.273698
-0.001079 0.806628 -0.274351
0.002836 0.812090 -0.276120
0.006734 0.812031 -0.276082
0.010635 0.812187 -0.276116
0.014568 0.813716 -0.276601
0.018596 0.818188 -0.278051
0.022393 0.814109 -0.276703
0.026273 0.813344 -0.276442
0.030045 0.810179 -0.275396
0.033943 0.810341 -0.275442
0.037967 0.812903 -0.276276
0.041958 0.814420 -0.276769
0.045669 0.811124 -0.275688
0.049265 0.806556 -0.274192
0.053140 0.806505 -0.274178
0.057323 0.810501 -0.275490
0.061007 0.807833 -0.274623
0.064958 0.808548 -0.274865
0.069449 0.815124 -0.277030
0.073246 0.813735 -0.276588
0.077380 0.815814 -0.277284
0.081661 0.819068 -0.278367
0.085991 0.822450 -0.279495
0.089379 0.817336 -0.277843
0.092993 0.814488 -0.276934
0.096990 0.814900 -0.277097
0.100963 0.815066 -0.277182
0.105351 0.818267 -0.278264
0.108378 0.811460 -0.276069
0.113257 0.817902 -0.278219
0.117158 0.817341 -0.278077
0.120603 0.813823 -0.276969
0.124641 0.814211 -0.277144
0.129235 0.817920 -0.278412
0.132975 0.816329 -0.277944
0.136363 0.812769 -0.276834
0.141147 0.817160 -0.278337
0.145880 0.820993 -0.279661
0.149614 0.819304 -0.279175
0.153028 0.816007 -0.278164
0.157227 0.816774 -0.278493
0.161194 0.816326 -0.278426
0.165156 0.815825 -0.278345
0.168442 0.812152 -0.277225
0.172263 0.811036 -0.276950
0.176510 0.811821 -0.277305
0.180759 0.812533 -0.277640
0.184941 0.812881 -0.277860
0.190195 0.817628 -0.279534
0.193176 0.812852 -0.278074
0.197385 0.813124 -0.278283
0.201321 0.812264 -0.278123
0.205649 0.812893 -0.278458
0.210909 0.816946 -0.279931
0.216182 0.820839 -0.281357
0.220095 0.819603 -0.281093
0.223337 0.815972 -0.280041
0.228123 0.817801 -0.280800
0.233088 0.820118 -0.281728
0.236684 0.817690 -0.281088
0.241102 0.818007 -0.281363
0.244566 0.815154 -0.280592
0.247648 0.811124 -0.279433
0.250263 0.805704 -0.277816
0.257092 0.813405 -0.280565
0.260341 0.809934 -0.279605
0.265589 0.812481 -0.280652
0.272582 0.820009 -0.283365
0.275960 0.816802 -0.282506
0.281500 0.819782 -0.283715
0.284847 0.816480 -0.282832
0.287594 0.811576 -0.281414
0.292176 0.811744 -0.281695
0.296489 0.811137 -0.281720
0.300561 0.809866 -0.281525
0.307336 0.815595 -0.283681
0.308612 0.807070 -0.281054
0.317164 0.817067 -0.284650
0.319843 0.812169 -0.283242
0.323909 0.810772 -0.283010
0.327561 0.808387 -0.282443
0.334408 0.813648 -0.284453
0.338881 0.813177 -0.284529
0.343434 0.812893 -0.284664
0.348169 0.813027 -0.284936
0.352683 0.812659 -0.285033
0.357772 0.813587 -0.285563
0.362721 0.814201 -0.285979
0.366902 0.813154 -0.285823
0.371757 0.813605 -0.286166
0.375724 0.812205 -0.285869
0.381149 0.813931 -0.286621
0.385045 0.812508 -0.286290
0.390531 0.814426 -0.287081
0.394971 0.814255 -0.287146
0.400762 0.816858 -0.288138
0.404766 0.815958 -0.287920
0.408898 0.815415 -0.287805
0.413152 0.815211 -0.287786
0.417860 0.815979 -0.288079
0.422743 0.817166 -0.288494
0.426241 0.815840 -0.288031
0.429097 0.813458 -0.287187
-0.504773 0.776649 -0.287579
-0.503431 0.781043 -0.289150
-0.500281 0.782798 -0.289754
-0.496275 0.783338 -0.289900
-0.491623 0.782958 -0.289693
-0.488098 0.784463 -0.290138
-0.484919 0.786641 -0.290801
-0.479607 0.785467 -0.290244
-0.474682 0.784986 -0.289914
-0.470387 0.785614 -0.289960
-0.466089 0.786313 -0.290012
-0.462518 0.788321 -0.290512
-0.458092 0.788958 -0.290506
-0.453452 0.789284 -0.290374
-0.448152 0.788500 -0.289833
-0.443601 0.789057 -0.289755
-0.439413 0.790301 -0.289909
-0.435065 0.791304 -0.289966
-0.429526 0.790158 -0.289254
-0.424457 0.789861 -0.288835
-0.420298 0.791263 -0.289009
-0.415120 0.790757 -0.288504
-0.410018 0.790370 -0.288037
-0.405748 0.791574 -0.288127
-0.401570 0.792963 -0.288280
-0.396430 0.792442 -0.287760
-0.391786 0.792876 -0.287574
-0.387223 0.793449 -0.287438
-0.382492 0.793648 -0.287173
-0.377296 0.792837 -0.286556
-0.372499 0.792805 -0.286215
-0.368319 0.794049 -0.286321
-0.364047 0.795076 -0.286354
-0.358850 0.794036 -0.285672
-0.353922 0.793514 -0.285175
-0.349198 0.793385 -0.284820
-0.345037 0.794492 -0.284898
-0.340436 0.794545 -0.284616
-0.335392 0.793495 -0.283958
-0.330931 0.793753 -0.283758
-0.326173 0.793241 -0.283297
-0.322059 0.794238 -0.283363
-0.317491 0.794072 -0.283033
-0.312857 0.793674 -0.282630
-0.308563 0.794081 -0.282510
-0.304020 0.793792 -0.282156
-0.299628 0.793834 -0.281922
-0.295360 0.794153 -0.281788
-0.291184 0.794676 -0.281730
-0.286878 0.794800 -0.281541
-0.282714 0.795269 -0.281475
-0.278645 0.795969 -0.281493
-0.274327 0.795912 -0.281259
-0.270480 0.797189 -0.281485
-0.266395 0.797741 -0.281468
-0.262110 0.797646 -0.281237
-0.257826 0.797501 -0.280993
-0.253727 0.797884 -0.280935
-0.249487 0.797773 -0.280713
-0.245061 0.797005 -0.280274
-0.240971 0.797275 -0.280191
-0.237218 0.798642 -0.280485
-0.233350 0.799618 -0.280650
-0.229586 0.800946 -0.280939
-0.225442 0.800920 -0.280773
-0.220863 0.799271 -0.280064
-0.217043 0.800319 -0.280270
-0.213130 0.801019 -0.280362
-0.209086 0.801193 -0.280281
-0.205110 0.801602 -0.280283
-0.200616 0.799910 -0.279580
-0.196651 0.800267 -0.279572
-0.192982 0.801836 -0.279976
-0.188842 0.801425 -0.279716
-0.184906 0.801847 -0.279739
-0.180833 0.801633 -0.279553
-0.176859 0.801827 -0.279506
-0.172639 0.800840 -0.279066
-0.168364 0.799508 -0.278514
-0.166368 0.809257 -0.281685
-0.162940 0.812256 -0.282591
-0.159308 0.814326 -0.283188
-0.155060 0.813199 -0.282714
-0.149790 0.806410 -0.280346
-0.145804 0.806399 -0.280253
-0.142131 0.808153 -0.280754
-0.138907 0.812640 -0.282173
-0.134883 0.812476 -0.282035
-0.130640 0.810891 -0.281425
-0.126206 0.807928 -0.280356
-0.121942 0.805876 -0.279595
-0.118026 0.806079 -0.279590
-0.114163 0.806638 -0.279707
-0.110448 0.808311 -0.280197
-0.107099 0.812921 -0.281671
-0.103344 0.814591 -0.282164
-0.099287 0.813832 -0.281848
-0.094572 0.807213 -0.279576
-0.091211 0.812356 -0.281234
-0.087541 0.814994 -0.282058
-0.083475 0.813882 -0.281631
-0.079245 0.810878 -0.280574
-0.074951 0.806804 -0.279163
-0.070863 0.804665 -0.278400
-0.067009 0.805153 -0.278514
-0.063170 0.805878 -0.278709
-0.059238 0.805338 -0.278484
-0.055237 0.803621 -0.277868
-0.051822 0.811329 -0.280395
-0.048194 0.816491 -0.282074
-0.044329 0.817939 -0.282517
-0.040301 0.816080 -0.281860
-0.036309 0.814625 -0.281339
-0.032417 0.815515 -0.281600
-0.028488 0.815445 -0.281544
-0.024440 0.810739 -0.279946
-0.020550 0.811244 -0.280083
-0.016683 0.813393 -0.280771
-0.012745 0.811147 -0.279996
-0.008836 0.809776 -0.279514
-0.004934 0.804518 -0.277741
-0.001056 0.808139 -0.278924
0.002848 0.810691 -0.279753
0.006798 0.814875 -0.281126
0.010709 0.814644 -0.281031
0.014618 0.814396 -0.280933
0.018526 0.814172 -0.280845
0.022519 0.816653 -0.281658
0.026382 0.815007 -0.281100
0.030187 0.812326 -0.280200
0.034063 0.811703 -0.279986
0.037999 0.812350 -0.280196
0.042013 0.814238 -0.280821
0.045730 0.810972 -0.279734
0.049469 0.808510 -0.278916
0.053538 0.810995 -0.279746
0.057318 0.809342 -0.279201
0.061216 0.809330 -0.279204
0.064889 0.806665 -0.278328
0.069450 0.814052 -0.280796
0.073461 0.814910 -0.281096
0.077293 0.813871 -0.280767
0.082327 0.824310 -0.284259
0.086236 0.823596 -0.284043
0.089775 0.819702 -0.282772
0.092991 0.813400 -0.280702
0.097426 0.817321 -0.282036
0.101123 0.815230 -0.281372
0.104511 0.810965 -0.279988
0.108721 0.812851 -0.280654
0.112989 0.814975 -0.281402
0.117091 0.815812 -0.281725
0.120593 0.812680 -0.280729
0.124544 0.812521 -0.280726
0.129008 0.815453 -0.281757
0.133111 0.816041 -0.282010
0.136866 0.814565 -0.281580
0.141041 0.815466 -0.281944
0.146784 0.824782 -0.285120
0.151531 0.828308 -0.286369
0.152773 0.813582 -0.281532
0.157020 0.814617 -0.281957
0.161155 0.815005 -0.282170
0.164997 0.813935 -0.281900
0.168448 0.811048 -0.281028
0.172389 0.810474 -0.280932
0.176650 0.811304 -0.281310
0.180833 0.811706 -0.281549
0.184842 0.811300 -0.281523
0.190429 0.817434 -0.283691
0.194001 0.815043 -0.283009
0.197669 0.813081 -0.282476
0.201536 0.811928 -0.282218
0.206345 0.814371 -0.283171
0.210495 0.814191 -0.283249
0.215510 0.817149 -0.284386
0.219703 0.816969 -0.284475
0.223213 0.814312 -0.283737
0.227763 0.815319 -0.284235
0.232094 0.815483 -0.284455
0.236782 0.816781 -0.285063
0.240500 0.814775 -0.284563
0.244276 0.812968 -0.284134
0.247952 0.810846 -0.283604
0.251766 0.809171 -0.283228
0.256483 0.810272 -0.283796
0.261386 0.811841 -0.284527
0.265329 0.810444 -0.284259
0.270118 0.811512 -0.284831
0.274528 0.811398 -0.285008
0.279482 0.812776 -0.285695
0.283404 0.811172 -0.285374
0.287869 0.811060 -0.285564
0.292816 0.812205 -0.286184
0.297081 0.811449 -0.286161
0.302606 0.813975 -0.287259
0.307261 0.814135 -0.287554
0.311879 0.814154 -0.287803
0.315753 0.812263 -0.287400
0.320089 0.811538 -0.287396
0.324182 0.810208 -0.287184
0.330125 0.813347 -0.288501
0.335057 0.813980 -0.288959
0.339497 0.813426 -0.289007
0.343889 0.812765 -0.289014
0.348806 0.813317 -0.289434
0.353112 0.812484 -0.289372
0.358048 0.813083 -0.289795
0.363133 0.814009 -0.290323
0.368215 0.814930 -0.290841
0.372490 0.814133 -0.290755
0.378523 0.817112 -0.291962
0.383025 0.816869 -0.292043
0.386944 0.815484 -0.291716
0.391040 0.814555 -0.291530
0.395916 0.815288 -0.291903
0.399748 0.813999 -0.291559
0.404878 0.815381 -0.292121
0.409058 0.814968 -0.292042
0.413539 0.815241 -0.292181
0.419093 0.817659 -0.293042
0.423511 0.817982 -0.293157
0.425365 0.813601 -0.291621
0.430994 0.816425 -0.292558
-0.507387 0.780180 -0.293196
-0.504426 0.782073 -0.293892
-0.500574 0.782713 -0.294109
-0.496601 0.783271 -0.294272
-0.492606 0.783900 -0.294437
-0.488171 0.783928 -0.294361
-0.484994 0.786072 -0.295029
-0.479919 0.785253 -0.294600
-0.475334 0.785299 -0.294463
-0.470950 0.785754 -0.294454
-0.466613 0.786365 -0.294481
-0.462566 0.787541 -0.294693
-0.458190 0.788233 -0.294713
-0.453708 0.788805 -0.294672
-0.448910 0.788878 -0.294436
-0.443694 0.788247 -0.293932
-0.439357 0.789201 -0.293988
-0.435090 0.790326 -0.294093
-0.430196 0.790341 -0.293788
-0.425143 0.790071 -0.293374
-0.421024 0.791543 -0.293576
-0.416386 0.792061 -0.293430
-0.411496 0.792100 -0.293108
-0.406655 0.792216 -0.292810
-0.401487 0.791669 -0.292273
-0.397402 0.793239 -0.292489
-0.391953 0.792068 -0.291727
-0.387235 0.792325 -0.291475
-0.382694 0.792913 -0.291341
-0.378196 0.793565 -0.291231
-0.373454 0.793674 -0.290931
-0.368509 0.793300 -0.290463
-0.364052 0.793928 -0.290353
-0.359123 0.793484 -0.289867
-0.354774 0.794266 -0.289819
-0.349528 0.792985 -0.289049
-0.345353 0.794071 -0.289117
-0.341047 0.794826 -0.289073
-0.335838 0.793413 -0.288273
-0.331222 0.793323 -0.287943
-0.326631 0.793230 -0.287619
-0.322214 0.793504 -0.287429
-0.318804 0.796238 -0.288103
-0.312858 0.792576 -0.286549
-0.308855 0.793737 -0.286686
-0.304966 0.795168 -0.286922
-0.300730 0.795668 -0.286839
-0.296215 0.795377 -0.286487
-0.291389 0.794172 -0.285823
-0.287285 0.794869 -0.285826
-0.284177 0.798329 -0.286792
-0.280174 0.799288 -0.286896
-0.274537 0.795488 -0.285357
-0.270550 0.796369 -0.285446
-0.266609 0.797363 -0.285578
-0.262473 0.797742 -0.285503
-0.258403 0.798285 -0.285490
-0.253793 0.797097 -0.284885
-0.249814 0.797836 -0.284949
-0.245472 0.797369 -0.284603
-0.241420 0.797794 -0.284569
-0.237241 0.797759 -0.284382
-0.233450 0.799009 -0.284641
-0.229543 0.799847 -0.284762
-0.225095 0.798745 -0.284222
-0.221163 0.799431 -0.284300
-0.217076 0.799522 -0.284178
-0.213145 0.800157 -0.284247
-0.209240 0.800878 -0.284350
-0.205125 0.800758 -0.284167
-0.201165 0.801217 -0.284187
-0.196667 0.799448 -0.283449
-0.192952 0.800835 -0.283794
-0.189216 0.802149 -0.284117
-0.185102 0.801836 -0.283888
-0.181069 0.801831 -0.283767
-0.176935 0.801326 -0.283479
-0.172795 0.800731 -0.283164
-0.168405 0.798868 -0.282420
-0.165887 0.806062 -0.284767
-0.161456 0.803962 -0.283948
-0.157792 0.805677 -0.284431
-0.153573 0.804505 -0.283934
-0.149590 0.804517 -0.283844
-0.145907 0.806173 -0.284315
-0.141981 0.806496 -0.284336
-0.137876 0.805742 -0.283992
-0.134058 0.806657 -0.284219
-0.130048 0.806389 -0.284045
-0.126012 0.805906 -0.283802
-0.122242 0.807138 -0.284143
-0.118386 0.807823 -0.284300
-0.114430 0.807812 -0.284223
-0.110671 0.809234 -0.284635
-0.106247 0.805579 -0.283326
-0.102739 0.808990 -0.284417
-0.098304 0.804860 -0.282951
-0.094582 0.806596 -0.283477
-0.090950 0.809272 -0.284324
-0.087329 0.812273 -0.285282
-0.083480 0.813249 -0.285555
-0.079282 0.810598 -0.284601
-0.075336 0.810439 -0.284494
-0.070872 0.804127 -0.282304
-0.067008 0.804511 -0.282384
-0.063137 0.804818 -0.282440
-0.059221 0.804498 -0.282285
-0.055304 0.804067 -0.282095
-0.052054 0.814601 -0.285616
-0.048237 0.816730 -0.286295
-0.044035 0.811606 -0.284521
-0.040109 0.811401 -0.284413
-0.036193 0.811349 -0.284358
-0.032254 0.810587 -0.284065
-0.028327 0.809951 -0.283816
-0.024429 0.810121 -0.283842
-0.020522 0.809847 -0.283718
-0.016643 0.811110 -0.284117
-0.012749 0.812079 -0.284417
-0.008828 0.810248 -0.283772
-0.004927 0.808991 -0.283324
-0.001038 0.807780 -0.282892
0.002862 0.809560 -0.283473
0.006778 0.811204 -0.284009
0.010723 0.813609 -0.284804
0.014582 0.811198 -0.283975
0.018440 0.809569 -0.283411
0.022387 0.811205 -0.283951
0.026303 0.811543 -0.284055
0.030221 0.811865 -0.284156
0.034101 0.811274 -0.283951
0.037967 0.810525 -0.283693
0.041880 0.810706 -0.283752
0.045744 0.810040 -0.283527
0.049566 0.808839 -0.283123
0.053405 0.808001 -0.282844
0.057367 0.808873 -0.283145
0.061278 0.808988 -0.283192
0.065300 0.810351 -0.283663
0.069313 0.811446 -0.284046
0.073203 0.811119 -0.283951
0.077097 0.810836 -0.283873
0.080945 0.810116 -0.283651
0.085070 0.811935 -0.284288
0.089026 0.812108 -0.284372
0.093335 0.815177 -0.285438
0.097203 0.814447 -0.285223
0.101035 0.813462 -0.284924
0.104492 0.809738 -0.283703
0.108440 0.809754 -0.283748
0.112504 0.810535 -0.284055
0.116316 0.809544 -0.283767
0.120467 0.810772 -0.284232
0.124882 0.813535 -0.285219
0.128743 0.812732 -0.285004
0.132859 0.813441 -0.285304
0.136574 0.811779 -0.284806
0.140136 0.809310 -0.284037
0.144012 0.808637 -0.283880
0.148246 0.809840 -0.284362
0.152244 0.809731 -0.284404
0.156210 0.809422 -0.284382
0.160323 0.809799 -0.284597
0.164431 0.810087 -0.284786
0.168454 0.809925 -0.284827
0.172587 0.810220 -0.285027
0.176758 0.810619 -0.285267
0.180785 0.810325 -0.285276
0.184970 0.810670 -0.285507
0.189345 0.811735 -0.285988
0.193318 0.811070 -0.285885
0.196983 0.809151 -0.285360
0.201136 0.809161 -0.285497
0.205421 0.809622 -0.285792
0.209955 0.810948 -0.286387
0.213707 0.809284 -0.285969
0.218055 0.809781 -0.286292
0.222491 0.810515 -0.286702
0.226534 0.809801 -0.286622
0.230846 0.809971 -0.286850
0.235202 0.810223 -0.287112
0.239735 0.810994 -0.287556
0.244658 0.812939 -0.288409
0.248247 0.810518 -0.287771
0.252919 0.811505 -0.288306
0.257837 0.813159 -0.289076
0.262092 0.812696 -0.289124
0.266314 0.812091 -0.289128
0.270728 0.812009 -0.289317
0.275645 0.813325 -0.289992
0.279394 0.811233 -0.289498
0.283904 0.811276 -0.289743
0.287960 0.810021 -0.289543
0.292648 0.810462 -0.289933
0.298515 0.813979 -0.291389
0.302939 0.813563 -0.291489
0.307211 0.812724 -0.291445
0.311823 0.812733 -0.291695
0.316550 0.812996 -0.292035
0.321265 0.813190 -0.292351
0.325983 0.813357 -0.292657
0.331004 0.814226 -0.293207
0.335634 0.814125 -0.293417
0.339997 0.813389 -0.293402
0.344406 0.812773 -0.293425
0.349023 0.812645 -0.293613
0.353725 0.812716 -0.293864
0.357943 0.811728 -0.293736
0.364282 0.815428 -0.295241
0.368645 0.814790 -0.295218
0.372330 0.812752 -0.294693
0.378591 0.816244 -0.296093
0.382561 0.814923 -0.295793
0.387451 0.815588 -0.296175
0.392311 0.816239 -0.296536
0.396068 0.814727 -0.296120
0.400020 0.813714 -0.295860
0.404079 0.813018 -0.295694
0.410102 0.816256 -0.296890
0.415281 0.817895 -0.297504
0.418937 0.816694 -0.297098
0.422303 0.815071 -0.296522
0.427008 0.816099 -0.296856
0.429110 0.812389 -0.295502
-0.510337 0.784234 -0.299048
-0.505850 0.783777 -0.298897
-0.501200 0.783159 -0.298661
-0.496913 0.783195 -0.298643
-0.492752 0.783527 -0.298711
-0.489403 0.785254 -0.299268
-0.485234 0.785780 -0.299358
-0.481411 0.786964 -0.299669
-0.475995 0.785635 -0.299030
-0.471550 0.785964 -0.298981
-0.467045 0.786269 -0.298903
-0.462097 0.785893 -0.298555
-0.457907 0.786861 -0.298683
-0.453476 0.787485 -0.298666
-0.449579 0.789099 -0.298997
-0.444836 0.789290 -0.298790
-0.439339 0.788168 -0.298090
-0.435328 0.789729 -0.298360
-0.430953 0.790677 -0.298394
-0.425862 0.790334 -0.297948
-0.421391 0.791143 -0.297914
-0.416906 0.791944 -0.297870
-0.412173 0.792280 -0.297650
-0.406867 0.791497 -0.297021
-0.401703 0.790956 -0.296477
-0.397139 0.791566 -0.296349
-0.392732 0.792480 -0.296328
-0.388128 0.792982 -0.296159
-0.383030 0.792440 -0.295613
-0.378518 0.793069 -0.295491
-0.373955 0.793562 -0.295322
-0.368578 0.792276 -0.294516
-0.363844 0.792305 -0.294186
-0.360217 0.794719 -0.294715
-0.355669 0.795092 -0.294516
-0.350889 0.794898 -0.294118
-0.345261 0.792698 -0.293008
-0.340685 0.792827 -0.292737
-0.336189 0.793089 -0.292518
-0.332115 0.794307 -0.292646
-0.327702 0.794682 -0.292478
-0.322763 0.793717 -0.291840
-0.316821 0.790168 -0.290291
-0.312775 0.791248 -0.290392
-0.309367 0.793935 -0.291068
-0.305136 0.794504 -0.290998
-0.300899 0.795014 -0.290913
-0.297185 0.796884 -0.291315
-0.292796 0.796916 -0.291073
-0.287846 0.795342 -0.290270
-0.284314 0.797642 -0.290839
-0.280454 0.799023 -0.291089
-0.276087 0.798924 -0.290824
-0.270772 0.795979 -0.289565
-0.266635 0.796403 -0.289496
-0.262642 0.797229 -0.289572
-0.258498 0.797558 -0.289481
-0.254263 0.797565 -0.289281
-0.249945 0.797254 -0.288975
-0.246045 0.798239 -0.289129
-0.241718 0.797794 -0.288787
-0.237777 0.798587 -0.288882
-0.233932 0.799689 -0.289090
-0.229140 0.797477 -0.288146
-0.225317 0.798582 -0.288364
-0.221437 0.799475 -0.288513
-0.217186 0.798990 -0.288185
-0.213278 0.799729 -0.288288
-0.209667 0.801595 -0.288788
-0.205537 0.801458 -0.288594
-0.201367 0.801116 -0.288333
-0.197396 0.801526 -0.288338
-0.193350 0.801603 -0.288230
-0.189161 0.801030 -0.287901
-0.185379 0.802166 -0.288168
-0.181105 0.801121 -0.287683
-0.176966 0.800602 -0.287383
-0.172852 0.800140 -0.287107
-0.168780 0.799816 -0.286882
-0.164717 0.799480 -0.286656
-0.160958 0.800622 -0.286945
-0.156990 0.800708 -0.286871
-0.153283 0.802144 -0.287267
-0.149623 0.803882 -0.287770
-0.145423 0.802661 -0.287252
-0.141636 0.803707 -0.287522
-0.137575 0.803164 -0.287244
-0.133478 0.802332 -0.286870
-0.129533 0.802366 -0.286797
-0.125839 0.804005 -0.287280
-0.121965 0.804505 -0.287373
-0.117931 0.803904 -0.287088
-0.113820 0.802673 -0.286588
-0.109717 0.801370 -0.286067
-0.105868 0.801910 -0.286182
-0.102061 0.802793 -0.286418
-0.098118 0.802580 -0.286278
-0.094240 0.802887 -0.286319
-0.090356 0.803130 -0.286340
-0.086526 0.803880 -0.286538
-0.082818 0.805908 -0.287177
-0.078662 0.803366 -0.286246
-0.074636 0.801972 -0.285712
-0.070859 0.803316 -0.286121
-0.067087 0.804860 -0.286600
-0.063162 0.804530 -0.286437
-0.059220 0.803872 -0.286163
-0.055437 0.805513 -0.286681
-0.051543 0.805557 -0.286652
-0.047633 0.805278 -0.286514
-0.043762 0.805687 -0.286613
-0.039953 0.807491 -0.287193
-0.035952 0.804992 -0.286298
-0.032104 0.806033 -0.286619
-0.028234 0.806628 -0.286789
-0.024356 0.807096 -0.286917
-0.020469 0.807310 -0.286959
-0.016592 0.808190 -0.287232
-0.012699 0.808344 -0.287257
-0.008812 0.809607 -0.287665
-0.004907 0.806706 -0.286646
-0.001020 0.807094 -0.286756
0.002862 0.806466 -0.286520
0.006738 0.805858 -0.286293
0.010592 0.804373 -0.285766
0.014485 0.805251 -0.286052
0.018388 0.806165 -0.286352
0.022291 0.806815 -0.286564
0.026200 0.807435 -0.286767
0.030101 0.807705 -0.286851
0.033998 0.807832 -0.286889
0.037926 0.808511 -0.287118
0.041855 0.809062 -0.287306
0.045755 0.809041 -0.287299
0.049583 0.807925 -0.286919
0.053441 0.807358 -0.286730
0.057354 0.807560 -0.286807
0.061358 0.808840 -0.287255
0.065305 0.809276 -0.287416
0.069232 0.809430 -0.287483
0.073122 0.809156 -0.287406
0.077073 0.809480 -0.287537
0.080915 0.808726 -0.287300
0.084845 0.808794 -0.287348
0.088840 0.809393 -0.287581
0.092854 0.810069 -0.287844
0.096827 0.810338 -0.287969
0.100865 0.811048 -0.288249
0.104676 0.809996 -0.287927
0.108383 0.808239 -0.287367
0.112359 0.808420 -0.287475
0.116240 0.807924 -0.287353
0.120171 0.807740 -0.287342
0.124644 0.810925 -0.288492
0.128345 0.809198 -0.287958
0.132134 0.808045 -0.287624
0.136283 0.808983 -0.288013
0.140269 0.808914 -0.288060
0.144288 0.808990 -0.288161
0.148400 0.809507 -0.288417
0.152212 0.808418 -0.288124
0.156001 0.807223 -0.287799
0.160259 0.808324 -0.288269
0.164493 0.809217 -0.288672
0.168604 0.809449 -0.288851
0.172728 0.809677 -0.289034
0.176823 0.809724 -0.289159
0.180961 0.809901 -0.289334
0.185040 0.809769 -0.289406
0.189256 0.810161 -0.289665
0.193093 0.808944 -0.289373
0.197119 0.808476 -0.289344
0.201522 0.809443 -0.289817
0.205962 0.810462 -0.290313
0.210316 0.811061 -0.290669
0.214056 0.809326 -0.290222
0.218464 0.810009 -0.290618
0.222658 0.809853 -0.290729
0.226833 0.809578 -0.290804
0.230909 0.808917 -0.290750
0.235388 0.809574 -0.291159
0.239887 0.810215 -0.291569
0.244795 0.812094 -0.292415
0.249028 0.811710 -0.292479
0.253575 0.812260 -0.292874
0.257998 0.812353 -0.293115
0.262809 0.813554 -0.293748
0.266962 0.812708 -0.293672
0.271550 0.813102 -0.294034
0.275853 0.812609 -0.294090
0.280597 0.813328 -0.294574
0.284866 0.812645 -0.294572
0.289011 0.811596 -0.294445
0.294388 0.813853 -0.295480
0.298902 0.813699 -0.295674
0.303029 0.812496 -0.295501
0.307093 0.811122 -0.295269
0.311168 0.809779 -0.295048
0.316874 0.812527 -0.296270
0.321750 0.813115 -0.296731
0.326469 0.813279 -0.297041
0.331303 0.813695 -0.297439
0.335850 0.813402 -0.297584
0.340033 0.812256 -0.297424
0.344571 0.811957 -0.297558
0.349197 0.811866 -0.297759
0.353790 0.811711 -0.297932
0.360411 0.816070 -0.299699
0.364132 0.813998 -0.299173
0.368656 0.813741 -0.299281
0.373762 0.814770 -0.299835
0.378016 0.814021 -0.299743
0.382351 0.813512 -0.299722
0.386241 0.812160 -0.299384
0.391589 0.813871 -0.300122
0.397001 0.815746 -0.300901
0.400910 0.814667 -0.300608
0.404598 0.813264 -0.300178
0.411549 0.818338 -0.302042
0.414469 0.815634 -0.301106
0.417549 0.813391 -0.300313
0.422642 0.815104 -0.300911
0.426737 0.815024 -0.300845
0.429955 0.813432 -0.300218
-0.512058 0.786421 -0.304247
-0.505834 0.783276 -0.303096
-0.501264 0.782745 -0.302899
-0.497148 0.783013 -0.302977
-0.493599 0.784278 -0.303404
-0.489662 0.785040 -0.303617
-0.485881 0.786155 -0.303939
-0.481366 0.786186 -0.303831
-0.476615 0.785910 -0.303585
-0.472263 0.786367 -0.303591
-0.467550 0.786299 -0.303380
-0.462426 0.785601 -0.302913
-0.458181 0.786447 -0.303003
-0.454823 0.788896 -0.303673
-0.449785 0.788513 -0.303270
-0.445731 0.789894 -0.303508
-0.440515 0.789267 -0.302985
-0.436174 0.790229 -0.303040
-0.431594 0.790796 -0.302936
-0.426825 0.791040 -0.302703
-0.421715 0.790658 -0.302229
-0.417016 0.791042 -0.302032
-0.412479 0.791740 -0.301944
-0.408120 0.792786 -0.301979
-0.402716 0.791792 -0.301259
-0.398078 0.792272 -0.301080
-0.393534 0.792922 -0.300962
-0.388262 0.792079 -0.300294
-0.383224 0.791662 -0.299784
-0.378825 0.792524 -0.299744
-0.374607 0.793753 -0.299839
-0.370400 0.794990 -0.299938
-0.365695 0.795133 -0.299641
-0.360475 0.794097 -0.298918
-0.355969 0.794574 -0.298750
-0.350659 0.793194 -0.297912
-0.346035 0.793291 -0.297615
-0.341105 0.792626 -0.297048
-0.336863 0.793505 -0.297046
-0.332362 0.793731 -0.296812
-0.328343 0.795071 -0.296987
-0.323056 0.793284 -0.296037
-0.318777 0.793892 -0.295959
-0.314100 0.793454 -0.295510
-0.309443 0.792999 -0.295061
-0.305783 0.795058 -0.295522
-0.301449 0.795347 -0.295352
-0.297155 0.795691 -0.295209
-0.292522 0.795069 -0.294724
-0.288484 0.796010 -0.294806
-0.284232 0.796324 -0.294670
-0.279920 0.796422 -0.294461
-0.275644 0.796569 -0.294277
-0.271366 0.796664 -0.294079
-0.266922 0.796209 -0.293692
-0.262690 0.796328 -0.293515
-0.258509 0.796556 -0.293382
-0.254437 0.797080 -0.293360
-0.250340 0.797493 -0.293303
-0.246080 0.797338 -0.293050
-0.241977 0.797647 -0.292967
-0.237857 0.797862 -0.292856
-0.233675 0.797822 -0.292659
-0.229422 0.797485 -0.292361
-0.225560 0.798476 -0.292540
-0.221878 0.800110 -0.292950
-0.217435 0.798953 -0.292376
-0.213699 0.800364 -0.292716
-0.209995 0.801911 -0.293107
-0.205903 0.801957 -0.292972
-0.201717 0.801587 -0.292694
-0.197486 0.800978 -0.292336
-0.193756 0.802382 -0.292692
-0.189026 0.799554 -0.291561
-0.185656 0.802477 -0.292459
-0.181845 0.803527 -0.292701
-0.177088 0.800279 -0.291434
-0.173264 0.801191 -0.291635
-0.169054 0.800262 -0.291191
-0.164933 0.799687 -0.290875
-0.161024 0.800108 -0.290913
-0.157181 0.800850 -0.291066
-0.153347 0.801650 -0.291243
-0.149294 0.801265 -0.291007
-0.145508 0.802309 -0.291275
-0.141575 0.802544 -0.291261
-0.137553 0.802220 -0.291055
-0.133456 0.801391 -0.290675
-0.129423 0.800880 -0.290408
-0.125695 0.802277 -0.290813
-0.121825 0.802786 -0.290908
-0.117916 0.803023 -0.290911
-0.113936 0.802742 -0.290735
-0.109731 0.800723 -0.289954
-0.106205 0.803765 -0.290944
-0.102216 0.803296 -0.290709
-0.098207 0.802591 -0.290394
-0.094201 0.801822 -0.290059
-0.090552 0.804201 -0.290826
-0.086517 0.803092 -0.290376
-0.082834 0.805369 -0.291111
-0.078839 0.804554 -0.290768
-0.074852 0.803701 -0.290413
-0.071068 0.805119 -0.290853
-0.067207 0.805707 -0.291006
-0.063253 0.805101 -0.290743
-0.059319 0.804669 -0.290543
-0.055429 0.804799 -0.290542
-0.051588 0.805728 -0.290820
-0.047691 0.805782 -0.290795
-0.043790 0.805717 -0.290730
-0.039882 0.805455 -0.290599
-0.035997 0.805653 -0.290629
-0.032170 0.807484 -0.291231
-0.028247 0.806746 -0.290938
-0.024328 0.805820 -0.290583
-0.020447 0.806239 -0.290697
-0.016561 0.806491 -0.290755
-0.012678 0.807186 -0.290969
-0.008783 0.806956 -0.290863
-0.004890 0.806372 -0.290635
-0.001005 0.805477 -0.290301
0.002882 0.805876 -0.290419
0.006762 0.805508 -0.290272
0.010646 0.805571 -0.290277
0.014530 0.805568 -0.290261
0.018414 0.805573 -0.290249
0.022309 0.805930 -0.290363
0.026227 0.806773 -0.290647
0.030118 0.806792 -0.290646
0.034006 0.806719 -0.290616
0.037926 0.807253 -0.290799
0.041909 0.808786 -0.291332
0.045834 0.809110 -0.291446
0.049725 0.808862 -0.291363
0.053662 0.809278 -0.291514
0.057560 0.809098 -0.291460
0.061399 0.808188 -0.291153
0.065394 0.809161 -0.291506
0.069441 0.810584 -0.292017
0.073405 0.810962 -0.292166
0.077214 0.809749 -0.291765
0.081098 0.809324 -0.291641
0.085005 0.809109 -0.291593
0.088858 0.808419 -0.291382
0.092865 0.809034 -0.291628
0.096868 0.809532 -0.291837
0.100506 0.807165 -0.291051
0.104374 0.806629 -0.290906
0.108476 0.807770 -0.291348
0.112414 0.807665 -0.291359
0.116384 0.807748 -0.291440
0.121004 0.811975 -0.292968
0.124857 0.811110 -0.292726
0.128535 0.809198 -0.292121
0.132373 0.808303 -0.291875
0.136475 0.808923 -0.292161
0.140508 0.809083 -0.292290
0.144607 0.809548 -0.292531
0.148616 0.809477 -0.292588
0.152671 0.809599 -0.292716
0.157044 0.811256 -0.293386
0.161147 0.811467 -0.293555
0.164828 0.809620 -0.293008
0.168897 0.809613 -0.293110
0.172979 0.809614 -0.293218
0.177261 0.810453 -0.293626
0.180888 0.808369 -0.293014
0.185524 0.810598 -0.293918
0.189301 0.809119 -0.293528
0.193277 0.808459 -0.293429
0.197676 0.809454 -0.293916
0.202007 0.810088 -0.294283
0.206274 0.810400 -0.294541
0.210520 0.810563 -0.294753
0.214947 0.811333 -0.295184
0.219214 0.811436 -0.295386
0.223357 0.811045 -0.295419
0.227588 0.810911 -0.295548
0.231622 0.810058 -0.295430
0.235899 0.809987 -0.295592
0.240237 0.810063 -0.295812
0.244956 0.811306 -0.296449
0.249281 0.811199 -0.296616
0.253753 0.811495 -0.296930
0.258336 0.812065 -0.297347
0.262568 0.811502 -0.297368
0.267055 0.811655 -0.297647
0.271424 0.811404 -0.297788
0.276073 0.811910 -0.298202
0.280903 0.812859 -0.298779
0.285421 0.812856 -0.299021
0.289971 0.812893 -0.299281
0.294278 0.812226 -0.299294
0.298809 0.812127 -0.299511
0.303366 0.812058 -0.299742
0.306961 0.809472 -0.299074
0.310871 0.807724 -0.298706
0.317466 0.812711 -0.300749
0.321715 0.811745 -0.300660
0.326714 0.812602 -0.301224
0.331486 0.812874 -0.301577
0.335993 0.812497 -0.301693
0.340160 0.811333 -0.301522
0.344226 0.809963 -0.301270
0.349649 0.811714 -0.302136
0.353686 0.810326 -0.301864
0.360046 0.814131 -0.303456
0.365080 0.814968 -0.303967
0.369003 0.813419 -0.303606
0.373260 0.812660 -0.303518
0.377974 0.812930 -0.303787
0.382188 0.812207 -0.303682
0.386660 0.812093 -0.303781
0.391167 0.812122 -0.303915
0.398323 0.817551 -0.305986
0.402048 0.816122 -0.305553
0.406235 0.815719 -0.305472
0.408958 0.812569 -0.304374
0.413675 0.813423 -0.304705
0.417821 0.813275 -0.304651
0.424730 0.818452 -0.306505
0.427211 0.815358 -0.305337
0.425321 0.804340 -0.301273
-0.510168 0.783113 -0.307381
-0.504904 0.781384 -0.306761
-0.500734 0.781425 -0.306789
-0.497495 0.783020 -0.307383
-0.493895 0.784170 -0.307782
-0.489930 0.784852 -0.307978
-0.485394 0.784719 -0.307839
-0.480451 0.784008 -0.307457
-0.476682 0.785289 -0.307808
-0.472884 0.786626 -0.308157
-0.468439 0.786981 -0.308111
-0.462772 0.785346 -0.307289
-0.459310 0.787499 -0.307883
-0.455574 0.789280 -0.308317
-0.451150 0.789950 -0.308311
-0.445629 0.788741 -0.307580
-0.441023 0.789172 -0.307453
-0.436467 0.789730 -0.307361
-0.432036 0.790549 -0.307354
-0.427457 0.791129 -0.307247
-0.422570 0.791158 -0.306923
-0.416923 0.789754 -0.306053
-0.412659 0.790953 -0.306154
-0.408345 0.792075 -0.306219
-0.403926 0.793001 -0.306207
-0.398506 0.791949 -0.305452
-0.394088 0.792854 -0.305426
-0.389580 0.793570 -0.305328
-0.383869 0.791798 -0.304303
-0.379113 0.791929 -0.303989
-0.374837 0.793036 -0.304038
-0.370471 0.793937 -0.304013
-0.365882 0.794332 -0.303802
-0.360562 0.793084 -0.302987
-0.355921 0.793263 -0.302703
-0.350866 0.792462 -0.302063
-0.346404 0.792940 -0.301899
-0.342356 0.794331 -0.302076
-0.336821 0.792216 -0.300969
-0.332909 0.793851 -0.301246
-0.328676 0.794696 -0.301237
-0.324572 0.795824 -0.301338
-0.319099 0.793525 -0.300189
-0.314814 0.794096 -0.300098
-0.310349 0.794164 -0.299829
-0.305991 0.794453 -0.299647
-0.301801 0.795134 -0.299614
-0.297087 0.794379 -0.299063
-0.292840 0.794809 -0.298951
-0.288376 0.794596 -0.298611
-0.284104 0.794858 -0.298449
-0.279977 0.795486 -0.298427
-0.275959 0.796389 -0.298510
-0.271408 0.795705 -0.298023
-0.267113 0.795705 -0.297790
-0.262690 0.795263 -0.297404
-0.258577 0.795712 -0.297345
-0.254679 0.796793 -0.297521
-0.250702 0.797609 -0.297605
-0.246370 0.797251 -0.297271
-0.242096 0.797020 -0.296989
-0.237953 0.797172 -0.296850
-0.233844 0.797394 -0.296741
-0.229875 0.798064 -0.296799
-0.225890 0.798657 -0.296833
-0.222242 0.800444 -0.297300
-0.217916 0.799752 -0.296882
-0.213800 0.799778 -0.296726
-0.209860 0.800436 -0.296802
-0.205909 0.801032 -0.296859
-0.201551 0.799984 -0.296332
-0.197609 0.800545 -0.296385
-0.193692 0.801191 -0.296473
-0.189915 0.802420 -0.296772
-0.185781 0.802106 -0.296524
-0.181489 0.801038 -0.296011
-0.177481 0.801175 -0.295931
-0.173517 0.801481 -0.295916
-0.169464 0.801338 -0.295744
-0.165354 0.800873 -0.295460
-0.161160 0.799924 -0.295007
-0.157324 0.800728 -0.295183
-0.153488 0.801543 -0.295366
-0.149418 0.801093 -0.295101
-0.145536 0.801629 -0.295190
-0.141664 0.802222 -0.295302
-0.137616 0.801773 -0.295046
-0.133685 0.801973 -0.295024
-0.129918 0.803181 -0.295363
-0.126226 0.804922 -0.295894
-0.121876 0.802338 -0.294890
-0.117896 0.802103 -0.294724
-0.113907 0.801754 -0.294520
-0.110095 0.802658 -0.294763
-0.106296 0.803710 -0.295061
-0.102404 0.804059 -0.295112
-0.098325 0.802836 -0.294607
-0.094329 0.802205 -0.294314
-0.090385 0.801957 -0.294160
-0.086846 0.805517 -0.295358
-0.082821 0.804525 -0.294943
-0.078832 0.803784 -0.294620
-0.074923 0.803807 -0.294570
-0.071147 0.805368 -0.295067
-0.067271 0.805843 -0.295181
-0.063345 0.805677 -0.295069
-0.059348 0.804446 -0.294583
-0.055480 0.804971 -0.294720
-0.051596 0.805271 -0.294780
-0.047709 0.805545 -0.294832
-0.043787 0.805140 -0.294645
-0.039887 0.805078 -0.294582
-0.036032 0.806070 -0.294894
-0.032163 0.806925 -0.295158
-0.028262 0.806943 -0.295129
-0.024350 0.806507 -0.294941
-0.020448 0.806254 -0.294820
-0.016552 0.806183 -0.294764
-0.012668 0.807030 -0.295035
-0.008774 0.807435 -0.295152
-0.004873 0.806339 -0.294740
-0.000983 0.805606 -0.294458
0.002905 0.805567 -0.294424
0.006796 0.805806 -0.294489
0.010693 0.806233 -0.294623
0.014598 0.806854 -0.294828
0.018477 0.806306 -0.294621
0.022373 0.806409 -0.294647
0.026281 0.806815 -0.294781
0.030185 0.807015 -0.294846
0.034076 0.806885 -0.294795
0.038019 0.807750 -0.295099
0.041993 0.809010 -0.295544
0.045918 0.809249 -0.295630
0.049796 0.808713 -0.295446
0.053722 0.808906 -0.295521
0.057619 0.808673 -0.295448
0.061570 0.809108 -0.295614
0.065657 0.811038 -0.296310
0.069569 0.810815 -0.296248
0.073401 0.809759 -0.295895
0.077286 0.809298 -0.295755
0.081197 0.809102 -0.295712
0.085084 0.808671 -0.295587
0.089070 0.809102 -0.295771
0.092956 0.808635 -0.295640
0.096882 0.808492 -0.295627
0.100835 0.808531 -0.295682
0.104598 0.807140 -0.295234
0.108873 0.809441 -0.296095
0.112583 0.807673 -0.295520
0.116662 0.808440 -0.295846
0.120930 0.810335 -0.296574
0.124859 0.809957 -0.296502
0.128526 0.807980 -0.295867
0.132471 0.807709 -0.295841
0.136629 0.808625 -0.296238
0.140743 0.809207 -0.296521
0.144795 0.809380 -0.296664
0.148860 0.809565 -0.296815
0.153090 0.810546 -0.297253
0.157292 0.811287 -0.297610
0.161169 0.810367 -0.297383
0.165687 0.812485 -0.298239
0.169485 0.811119 -0.297862
0.173414 0.810357 -0.297705
0.177400 0.809835 -0.297637
0.181727 0.810762 -0.298090
0.185650 0.809886 -0.297906
0.189344 0.808051 -0.297386
0.193252 0.807103 -0.297187
0.198011 0.809520 -0.298191
0.202389 0.810303 -0.298619
0.206487 0.809935 -0.298642
0.210874 0.810605 -0.299041
0.215065 0.810471 -0.299159
0.219384 0.810748 -0.299429
0.223698 0.810943 -0.299676
0.227939 0.810818 -0.299814
0.232007 0.810054 -0.299728
0.235826 0.808427 -0.299339
0.240845 0.810731 -0.300364
0.244884 0.809745 -0.300215
0.249465 0.810447 -0.300677
0.254351 0.812018 -0.301458
0.259013 0.812792 -0.301958
0.262841 0.810977 -0.301532
0.266886 0.809808 -0.301342
0.271467 0.810181 -0.301712
0.276243 0.811046 -0.302265
0.281035 0.811879 -0.302811
0.285738 0.812387 -0.303244
0.290193 0.812152 -0.303412
0.294582 0.811701 -0.303504
0.298924 0.811094 -0.303543
0.303653 0.811473 -0.303941
0.308619 0.812412 -0.304544
0.313623 0.813387 -0.305161
0.319147 0.815600 -0.306229
0.325416 0.819559 -0.307932
0.332721 0.825900 -0.310505
0.337861 0.826864 -0.311119
0.338461 0.817075 -0.307806
0.344002 0.819051 -0.308779
0.346088 0.813038 -0.306827
0.348524 0.807981 -0.305215
0.352980 0.807592 -0.305300
0.359246 0.811232 -0.306851
0.367482 0.819106 -0.309945
0.372562 0.820020 -0.310478
0.372648 0.810327 -0.307106
0.380751 0.817772 -0.310008
0.388411 0.824180 -0.312516
0.392228 0.822611 -0.312077
0.394346 0.817698 -0.310389
0.394824 0.809683 -0.307539
0.399271 0.809807 -0.307662
0.405201 0.812932 -0.308869
0.409823 0.813544 -0.309129
0.414487 0.814321 -0.309429
0.419153 0.815192 -0.309739
0.420724 0.810314 -0.307911
0.425503 0.811633 -0.308339
0.420805 0.795493 -0.302322
-0.506573 0.777223 -0.309482
-0.504981 0.781060 -0.311012
-0.501521 0.782166 -0.311461
-0.497953 0.783217 -0.311864
-0.494063 0.783875 -0.312090
-0.489994 0.784354 -0.312220
-0.484852 0.783209 -0.311699
-0.480260 0.783020 -0.311522
-0.476678 0.784565 -0.311990
-0.473041 0.786129 -0.312440
-0.469182 0.787426 -0.312765
-0.465292 0.788766 -0.313084
-0.459152 0.786361 -0.311941
-0.455200 0.787732 -0.312231
-0.450455 0.787802 -0.312002
-0.446245 0.788858 -0.312135
-0.441261 0.788598 -0.311747
-0.436553 0.788859 -0.311545
-0.432165 0.789732 -0.311564
-0.427628 0.790368 -0.311480
-0.423209 0.791250 -0.311480
-0.417679 0.790062 -0.310681
-0.412538 0.789588 -0.310149
-0.408819 0.791837 -0.310646
-0.404516 0.792987 -0.310719
-0.399749 0.793230 -0.310444
-0.394399 0.792287 -0.309717
-0.389730 0.792675 -0.309493
-0.384628 0.792152 -0.308924
-0.379567 0.791664 -0.308369
-0.374955 0.792070 -0.308153
-0.370618 0.793032 -0.308149
-0.366069 0.793516 -0.307966
-0.361300 0.793483 -0.307592
-0.357009 0.794461 -0.307601
-0.351939 0.793660 -0.306947
-0.347360 0.793906 -0.306690
-0.343110 0.794863 -0.306704
-0.338345 0.794586 -0.306262
-0.333357 0.793712 -0.305602
-0.329295 0.794989 -0.305751
-0.324744 0.795051 -0.305453
-0.320368 0.795489 -0.305300
-0.315502 0.794649 -0.304678
-0.310717 0.793934 -0.304111
-0.306107 0.793589 -0.303687
-0.301741 0.793821 -0.303483
-0.297539 0.794438 -0.303428
-0.292979 0.794045 -0.303005
-0.288680 0.794302 -0.302830
-0.284255 0.794158 -0.302513
-0.280084 0.794674 -0.302445
-0.276107 0.795709 -0.302574
-0.272424 0.797582 -0.303016
-0.267857 0.796831 -0.302500
-0.262788 0.794482 -0.301403
-0.258712 0.795052 -0.301384
-0.255077 0.796973 -0.301867
-0.251216 0.798188 -0.302095
-0.247099 0.798563 -0.302020
-0.242791 0.798269 -0.301707
-0.238454 0.797820 -0.301342
-0.234334 0.798045 -0.301229
-0.230103 0.797844 -0.300966
-0.226319 0.799173 -0.301266
-0.222054 0.798766 -0.300937
-0.218087 0.799394 -0.300991
-0.213924 0.799262 -0.300772
-0.209615 0.798524 -0.300338
-0.205439 0.798229 -0.300069
-0.201607 0.799252 -0.300284
-0.197564 0.799411 -0.300190
-0.193620 0.799948 -0.300236
-0.189724 0.800670 -0.300354
-0.185832 0.801402 -0.300479
-0.181610 0.800660 -0.300073
-0.177892 0.802129 -0.300474
-0.173654 0.801217 -0.300014
-0.169629 0.801231 -0.299894
-0.165683 0.801590 -0.299902
-0.161369 0.800094 -0.299242
-0.157483 0.800675 -0.299338
-0.153613 0.801337 -0.299466
-0.149710 0.801816 -0.299530
-0.145821 0.802371 -0.299625
-0.141673 0.801432 -0.299184
-0.137803 0.802041 -0.299305
-0.133770 0.801661 -0.299071
-0.129924 0.802399 -0.299244
-0.126047 0.802946 -0.299350
-0.121965 0.802124 -0.298966
-0.117919 0.801462 -0.298641
-0.113935 0.801160 -0.298450
-0.110079 0.801761 -0.298586
-0.106471 0.804278 -0.299415
-0.102555 0.804501 -0.299419
-0.098533 0.803817 -0.299100
-0.094637 0.804143 -0.299146
-0.090654 0.803661 -0.298904
-0.086693 0.803319 -0.298714
-0.082842 0.804018 -0.298901
-0.078817 0.802909 -0.298441
-0.074911 0.802985 -0.298408
-0.071054 0.803594 -0.298569
-0.067206 0.804367 -0.298791
-0.063303 0.804477 -0.298776
-0.059435 0.805051 -0.298930
-0.055533 0.805166 -0.298922
-0.051624 0.805155 -0.298870
-0.047667 0.804227 -0.298491
-0.043769 0.804249 -0.298455
-0.039887 0.804590 -0.298535
-0.036038 0.805797 -0.298928
-0.032148 0.806128 -0.299008
-0.028222 0.805341 -0.298689
-0.024322 0.805223 -0.298613
-0.020428 0.805293 -0.298605
-0.016548 0.806205 -0.298901
-0.012665 0.807507 -0.299340
-0.008764 0.808001 -0.299490
-0.004857 0.806759 -0.299020
-0.000963 0.805038 -0.298380
0.002924 0.804677 -0.298230
0.006828 0.805936 -0.298662
0.010741 0.806952 -0.299010
0.014629 0.806468 -0.298822
0.018522 0.806301 -0.298749
0.022432 0.806734 -0.298894
0.026355 0.807355 -0.299108
0.030241 0.806959 -0.298960
0.034155 0.807220 -0.299050
0.038085 0.807713 -0.299225
0.042011 0.808036 -0.299342
0.045890 0.807519 -0.299160
0.049884 0.808796 -0.299623
0.053764 0.808273 -0.299444
0.057683 0.808294 -0.299462
0.061643 0.808801 -0.299657
0.065686 0.810175 -0.300165
0.069601 0.809979 -0.300114
0.073312 0.807654 -0.299302
0.077173 0.807004 -0.299093
0.081223 0.808165 -0.299537
0.085135 0.807955 -0.299492
0.089035 0.807623 -0.299406
0.092985 0.807706 -0.299472
0.096945 0.807821 -0.299553
0.100779 0.806930 -0.299277
0.104787 0.807353 -0.299475
0.108772 0.807552 -0.299596
0.112985 0.809255 -0.300260
0.116720 0.807645 -0.299740
0.120757 0.808034 -0.299940
0.124728 0.807953 -0.299975
0.128707 0.807880 -0.300018
0.132739 0.808084 -0.300163
0.136696 0.807810 -0.300141
0.140855 0.808625 -0.300515
0.144945 0.808976 -0.300726
0.149095 0.809582 -0.301033
0.153142 0.809590 -0.301130
0.157415 0.810668 -0.301617
0.161189 0.809230 -0.301202
0.165639 0.811014 -0.301953
0.169784 0.811255 -0.302152
0.173674 0.810284 -0.301920
0.177720 0.809995 -0.301939
0.181739 0.809550 -0.301906
0.185675 0.808725 -0.301741
0.189247 0.806379 -0.301031
0.193042 0.804977 -0.300667
0.198467 0.810042 -0.302647
0.202620 0.809907 -0.302753
0.207379 0.812026 -0.303680
0.211158 0.810355 -0.303241
0.215798 0.811838 -0.303950
0.219180 0.808698 -0.302988
0.224267 0.811618 -0.304230
0.228148 0.810207 -0.303907
0.231921 0.808425 -0.303454
0.237131 0.811433 -0.304747
0.241734 0.812292 -0.305266
0.247037 0.815315 -0.306578
0.250065 0.810987 -0.305219
0.254338 0.810617 -0.305307
0.258973 0.811305 -0.305786
0.263998 0.813086 -0.306669
0.269778 0.816983 -0.308333
0.273372 0.814349 -0.307614
0.279375 0.818631 -0.309430
0.283746 0.818135 -0.309502
0.285759 0.811075 -0.307169
0.290295 0.811064 -0.307424
0.295330 0.812346 -0.308157
0.299587 0.811493 -0.308107
0.304139 0.811391 -0.308335
0.310074 0.814805 -0.309860
0.316596 0.819574 -0.311887
0.322987 0.823848 -0.313734
0.326485 0.820869 -0.312904
0.332111 0.823107 -0.313998
0.326594 0.798644 -0.305209
0.336300 0.810719 -0.309935
0.342141 0.813479 -0.311208
0.344782 0.808829 -0.309729
0.348901 0.807655 -0.309529
0.352630 0.805658 -0.309014
0.354942 0.800611 -0.307354
0.366575 0.816022 -0.313293
0.372306 0.818394 -0.314371
0.374624 0.813501 -0.312729
0.379170 0.813455 -0.312876
0.389703 0.825895 -0.317664
0.393818 0.824951 -0.317444
0.391792 0.811644 -0.312590
0.391013 0.801215 -0.308787
0.396165 0.802865 -0.309473
0.404813 0.811434 -0.312721
0.410079 0.813347 -0.313463
0.415009 0.814677 -0.313963
0.419265 0.814800 -0.313989
0.423201 0.814427 -0.313806
0.424037 0.808383 -0.311481
0.425423 0.803579 -0.309597
-0.513924 0.788047 -0.318062
-0.506136 0.782412 -0.315915
-0.500957 0.780828 -0.315328
-0.497442 0.781916 -0.315762
-0.493721 0.782793 -0.316087
-0.489923 0.783657 -0.316381
-0.485060 0.782919 -0.316022
-0.480899 0.783393 -0.316112
-0.477053 0.784474 -0.316415
-0.473521 0.786176 -0.316936
-0.469833 0.787727 -0.317374
-0.465611 0.788480 -0.317477
-0.461090 0.788802 -0.317390
-0.455608 0.787538 -0.316664
-0.450864 0.787583 -0.316430
-0.446342 0.788066 -0.316348
-0.441422 0.787890 -0.315994
-0.437152 0.788912 -0.316090
-0.433492 0.791092 -0.316622
-0.427547 0.789142 -0.315537
-0.423007 0.789773 -0.315444
-0.419243 0.791884 -0.315914
-0.413591 0.790454 -0.315005
-0.409057 0.791137 -0.314907
-0.404605 0.791985 -0.314866
-0.400236 0.793003 -0.314886
-0.395553 0.793397 -0.314663
-0.389853 0.791715 -0.313640
-0.385327 0.792369 -0.313513
-0.379876 0.791086 -0.312644
-0.375759 0.792535 -0.312823
-0.371376 0.793417 -0.312785
-0.366551 0.793323 -0.312377
-0.361861 0.793475 -0.312065
-0.357262 0.793786 -0.311818
-0.352350 0.793352 -0.311290
-0.347706 0.793462 -0.310975
-0.343297 0.794065 -0.310852
-0.338535 0.793805 -0.310406
-0.334549 0.795322 -0.310639
-0.330216 0.795991 -0.310555
-0.324979 0.794414 -0.309628
-0.320341 0.794218 -0.309231
-0.315721 0.794001 -0.308832
-0.311815 0.795541 -0.309100
-0.306547 0.793545 -0.308044
-0.301714 0.792575 -0.307382
-0.297700 0.793699 -0.307512
-0.293643 0.794683 -0.307596
-0.289145 0.794429 -0.307222
-0.284663 0.794154 -0.306846
-0.280256 0.794025 -0.306532
-0.276330 0.795223 -0.306721
-0.272885 0.797809 -0.307432
-0.268496 0.797620 -0.307113
-0.264017 0.797096 -0.306676
-0.259168 0.795363 -0.305795
-0.255379 0.796834 -0.306113
-0.251591 0.798301 -0.306435
-0.247232 0.797925 -0.306076
-0.243145 0.798375 -0.306031
-0.238917 0.798322 -0.305804
-0.234622 0.797989 -0.305479
-0.230370 0.797742 -0.305191
-0.226307 0.798104 -0.305134
-0.222479 0.799280 -0.305383
-0.218092 0.798405 -0.304878
-0.214304 0.799686 -0.305176
-0.210115 0.799445 -0.304915
-0.205778 0.798572 -0.304426
-0.201637 0.798395 -0.304199
-0.197695 0.798977 -0.304256
-0.193551 0.798704 -0.304002
-0.189678 0.799526 -0.304156
-0.185727 0.800003 -0.304186
-0.181946 0.801215 -0.304491
-0.177961 0.801517 -0.304465
-0.174153 0.802614 -0.304735
-0.169814 0.801198 -0.304085
-0.165655 0.800553 -0.303722
-0.161767 0.801190 -0.303833
-0.158165 0.803286 -0.304484
-0.154541 0.805342 -0.305123
-0.150114 0.803132 -0.304199
-0.145966 0.802310 -0.303789
-0.142064 0.802810 -0.303866
-0.138141 0.803180 -0.303899
-0.134012 0.802288 -0.303473
-0.129827 0.800956 -0.302888
-0.125854 0.800873 -0.302764
-0.122024 0.801700 -0.302976
-0.117987 0.801124 -0.302677
-0.114075 0.801360 -0.302678
-0.110024 0.800554 -0.302300
-0.106522 0.803885 -0.303437
-0.102878 0.806307 -0.304244
-0.098635 0.803894 -0.303286
-0.094675 0.803711 -0.303146
-0.090696 0.803298 -0.302924
-0.086820 0.803798 -0.303038
-0.083002 0.804891 -0.303371
-0.078898 0.803046 -0.302634
-0.074888 0.802018 -0.302197
-0.071024 0.802553 -0.302333
-0.067121 0.802627 -0.302302
-0.063278 0.803483 -0.302559
-0.059441 0.804503 -0.302877
-0.055667 0.806602 -0.303591
-0.051623 0.804541 -0.302790
-0.047701 0.804272 -0.302646
-0.043740 0.803156 -0.302194
-0.040034 0.807313 -0.303665
-0.036124 0.807437 -0.303668
-0.032137 0.805435 -0.302900
-0.028195 0.804182 -0.302407
-0.024270 0.803063 -0.301965
-0.020429 0.805344 -0.302762
-0.016526 0.805098 -0.302641
-0.012645 0.806522 -0.303130
-0.008749 0.807661 -0.303517
-0.004837 0.805996 -0.302887
-0.000944 0.803988 -0.302134
0.002955 0.805158 -0.302538
0.006858 0.805780 -0.302746
0.010769 0.806488 -0.302987
0.014669 0.806427 -0.302950
0.018558 0.805983 -0.302776
0.022501 0.807303 -0.303246
0.026415 0.807491 -0.303307
0.030322 0.807446 -0.303285
0.034222 0.807265 -0.303216
0.038105 0.806769 -0.303035
0.042037 0.807188 -0.303189
0.046096 0.809559 -0.304055
0.049957 0.808610 -0.303717
0.053851 0.808223 -0.303586
0.057816 0.808792 -0.303805
0.061734 0.808675 -0.303777
0.065631 0.808317 -0.303664
0.069514 0.807811 -0.303500
0.073265 0.805955 -0.302848
0.077108 0.805160 -0.302585
0.081293 0.807627 -0.303512
0.085203 0.807368 -0.303450
0.089077 0.806793 -0.303276
0.093079 0.807283 -0.303493
0.096952 0.806678 -0.303315
0.100756 0.805565 -0.302955
0.104766 0.806001 -0.303163
0.109223 0.809546 -0.304506
0.113216 0.809637 -0.304595
0.116888 0.807556 -0.303897
0.120651 0.806147 -0.303448
0.125052 0.808757 -0.304466
0.129046 0.808711 -0.304521
0.133098 0.808967 -0.304691
0.137079 0.808765 -0.304697
0.140925 0.807782 -0.304423
0.145168 0.808944 -0.304935
0.150177 0.814006 -0.306877
0.153861 0.812008 -0.306245
0.158013 0.812390 -0.306488
0.161883 0.811340 -0.306212
0.165720 0.810133 -0.305883
0.169812 0.810116 -0.305994
0.173887 0.809970 -0.306063
0.177965 0.809796 -0.306127
0.181871 0.808835 -0.305908
0.185897 0.808370 -0.305875
0.190545 0.810442 -0.306778
0.194185 0.808300 -0.306141
0.201236 0.819682 -0.310472
0.204743 0.816814 -0.309581
0.209040 0.817007 -0.309819
0.213110 0.816292 -0.309730
0.217169 0.815504 -0.309618
0.221243 0.814745 -0.309523
0.224985 0.812790 -0.308993
0.229325 0.812913 -0.309234
0.233446 0.812233 -0.309184
0.238127 0.813381 -0.309815
0.242621 0.813818 -0.310189
0.247162 0.814332 -0.310598
0.251317 0.813558 -0.310536
0.255357 0.812393 -0.310335
0.259608 0.811854 -0.310370
0.265030 0.814789 -0.311698
0.269414 0.814510 -0.311840
0.273924 0.814555 -0.312107
0.279401 0.817306 -0.313384
0.284293 0.818274 -0.314003
0.285604 0.809261 -0.310911
0.290578 0.810453 -0.311619
0.296062 0.812931 -0.312811
0.300469 0.812451 -0.312901
0.305469 0.813486 -0.313559
0.310641 0.814900 -0.314360
0.315524 0.815511 -0.314862
0.320625 0.816618 -0.315549
0.327709 0.822539 -0.318041
0.326220 0.807538 -0.312681
0.329308 0.803859 -0.311561
0.333837 0.803665 -0.311744
0.342196 0.812366 -0.315268
0.346043 0.810509 -0.314814
0.348358 0.805249 -0.313069
0.352211 0.803575 -0.312663
0.354513 0.798554 -0.310983
0.362241 0.805496 -0.313806
0.370309 0.813039 -0.316845
0.372750 0.808501 -0.315306
0.374074 0.801785 -0.312924
0.383736 0.812570 -0.317147
