ply
format ascii 1.0
comment ---
element vertex 1759
property float x
property float y
property float z
element face 0
property list uchar uint vertex_indices
end_header
0.286868 0.793102 0.166011
0.291573 0.789802 0.165294
0.296262 0.789327 0.165266
0.300998 0.793792 0.166440
0.305691 0.792603 0.166249
0.310385 0.791942 0.166190
0.315047 0.790220 0.165879
0.319690 0.788379 0.165544
0.324584 0.794407 0.167123
0.329181 0.791230 0.166472
0.333794 0.789069 0.166073
0.338428 0.787741 0.165881
0.343062 0.786600 0.165738
0.347728 0.786159 0.165771
0.352419 0.786156 0.165914
0.357251 0.788209 0.166564
0.362162 0.791063 0.167414
0.366724 0.788935 0.167055
0.371221 0.786215 0.166555
0.375885 0.785697 0.166598
0.380759 0.787516 0.167217
0.385724 0.790060 0.168019
0.390503 0.790462 0.168303
0.395254 0.790518 0.168507
0.400003 0.790504 0.168700
0.404900 0.791734 0.169203
0.409643 0.791533 0.169360
0.414129 0.789217 0.169003
0.418889 0.789168 0.169209
0.423704 0.789484 0.169510
0.429018 0.793346 0.170691
0.433424 0.790547 0.170236
0.438388 0.791658 0.170751
0.443265 0.792079 0.171103
0.448056 0.791878 0.171306
0.452933 0.792175 0.171640
0.457743 0.791999 0.171862
0.462606 0.792092 0.172158
0.467638 0.793089 0.172685
0.472703 0.794160 0.173237
0.477583 0.794131 0.173523
0.482736 0.795482 0.174160
0.487751 0.796004 0.174598
0.492502 0.795134 0.174695
0.497566 0.795775 0.175177
0.502864 0.797441 0.175924
0.507900 0.797758 0.176341
0.513014 0.798363 0.176838
0.517749 0.797203 0.176899
0.522387 0.795614 0.176859
0.527187 0.794723 0.177001
0.532473 0.795832 0.177657
0.537570 0.796065 0.178100
0.542606 0.795990 0.178474
0.547724 0.796177 0.178922
0.553449 0.798628 0.179955
0.558431 0.798127 0.180246
0.563935 0.799509 0.181026
0.569292 0.800247 0.181651
0.574652 0.800911 0.182267
0.579485 0.799642 0.182396
0.584347 0.798459 0.182555
0.589179 0.797152 0.182689
0.594099 0.796119 0.182902
0.600391 0.799529 0.184271
0.606379 0.801785 0.185354
0.611396 0.800845 0.185618
0.616552 0.800306 0.185993
0.622182 0.801165 0.186741
0.627540 0.801121 0.187262
0.633867 0.803875 0.188523
0.639555 0.804625 0.189270
0.645707 0.806619 0.190352
0.652699 0.810860 0.192034
0.664056 0.827029 0.196874
0.663851 0.811052 0.193241
0.670229 0.813219 0.194403
0.677858 0.818590 0.196423
0.683313 0.818066 0.196884
0.687771 0.814934 0.196654
0.693856 0.815981 0.197539
0.698869 0.814268 0.197689
0.704469 0.814009 0.198228
0.709114 0.811391 0.198132
0.717074 0.816785 0.200191
0.718214 0.805815 0.197833
0.721684 0.800564 0.197006
0.732529 0.812482 0.200829
0.741605 0.820035 0.203471
0.744215 0.812817 0.202088
0.746952 0.806055 0.200811
0.753763 0.808413 0.202011
0.756177 0.801171 0.200568
0.763716 0.805105 0.202172
0.780046 0.827584 0.208868
0.778406 0.811937 0.205056
0.780382 0.804162 0.203382
0.784674 0.801339 0.203049
0.785514 0.791637 0.200785
0.788298 0.786086 0.199639
0.787083 0.772798 0.196313
0.798182 0.783948 0.199747
0.864163 0.856828 0.221331
0.860473 0.810624 0.208809
0.869172 0.816905 0.210572
0.874071 0.816492 0.210427
0.877354 0.813372 0.209488
0.881916 0.812618 0.209175
0.886182 0.811472 0.208717
0.891324 0.811939 0.208675
0.894933 0.809916 0.207904
0.894566 0.801374 0.205283
-0.194338 0.776843 0.164566
-0.183559 0.763377 0.161697
-0.189342 0.784061 0.167167
-0.185764 0.785700 0.167944
-0.184288 0.791927 0.169822
-0.180285 0.793017 0.170409
-0.148349 0.743703 0.158779
-0.147386 0.751375 0.160889
-0.145853 0.758059 0.162728
-0.149639 0.776912 0.167551
-0.148399 0.784912 0.169661
-0.137897 0.771995 0.166563
-0.129843 0.764559 0.164790
-0.126094 0.767138 0.165470
-0.123728 0.773153 0.166974
-0.118283 0.772017 0.166678
-0.110920 0.766281 0.165217
-0.104587 0.763017 0.164343
-0.098209 0.759629 0.163416
-0.093949 0.761565 0.163784
-0.089437 0.762971 0.164000
-0.085363 0.765602 0.164498
-0.081027 0.767667 0.164837
-0.076906 0.770403 0.165325
-0.073368 0.774828 0.166212
-0.068031 0.774472 0.165905
-0.063839 0.777313 0.166373
-0.057438 0.774013 0.165318
-0.052784 0.775630 0.165463
-0.046601 0.772844 0.164519
-0.041276 0.772505 0.164170
-0.034985 0.769240 0.163098
-0.030971 0.772803 0.163694
-0.027606 0.778480 0.164801
-0.025241 0.787470 0.166712
-0.021243 0.791497 0.167406
-0.014695 0.787302 0.166097
-0.008543 0.784236 0.165066
-0.000736 0.775428 0.162643
0.006119 0.769531 0.160934
0.010870 0.770736 0.160952
0.015565 0.772137 0.161020
0.019960 0.774628 0.161356
0.025167 0.774148 0.160977
0.030765 0.772116 0.160229
0.035775 0.772207 0.159999
0.040424 0.773658 0.160103
0.044172 0.778721 0.161080
0.048429 0.781844 0.161595
0.052746 0.784788 0.162073
0.057237 0.787047 0.162392
0.062417 0.786337 0.162006
0.067362 0.786573 0.161853
0.071805 0.789044 0.162243
0.076740 0.789263 0.162100
0.081874 0.788475 0.161724
0.086418 0.790471 0.162021
0.091234 0.791132 0.162005
0.097676 0.783390 0.159996
0.102656 0.782900 0.159723
0.107126 0.785076 0.160091
0.111416 0.788305 0.160717
0.116995 0.784274 0.159623
0.121707 0.785049 0.159680
0.127242 0.780818 0.158555
0.131894 0.781777 0.158670
0.136464 0.783255 0.158915
0.141800 0.779680 0.157968
0.146513 0.780076 0.157970
0.151266 0.780149 0.157902
0.155674 0.782706 0.158430
0.159713 0.788189 0.159656
0.163741 0.794119 0.160994
0.169438 0.786738 0.159188
0.174397 0.785005 0.158725
0.179060 0.785706 0.158844
0.183595 0.787592 0.159250
0.188330 0.787646 0.159229
0.193440 0.783825 0.158297
0.198189 0.783417 0.158179
0.202693 0.785686 0.158699
0.207088 0.789460 0.159581
0.211945 0.787766 0.159175
0.216990 0.783271 0.158114
0.221025 0.792639 0.160335
0.225630 0.794529 0.160793
0.231410 0.777083 0.156686
0.235436 0.788296 0.159360
0.239543 0.799927 0.162138
0.244295 0.799870 0.162158
0.249266 0.794424 0.160908
0.253990 0.794273 0.160916
0.258783 0.791841 0.160389
0.263708 0.783642 0.158502
0.268345 0.784818 0.158839
0.273007 0.785121 0.158973
0.277645 0.787436 0.159589
0.282284 0.792006 0.160745
0.286980 0.792939 0.161044
0.291685 0.794835 0.161576
0.296401 0.795403 0.161798
0.301167 0.800305 0.163054
0.305879 0.798566 0.162738
0.310502 0.793091 0.161541
0.314984 0.783932 0.159471
0.319745 0.787258 0.160371
0.324549 0.790865 0.161344
0.329444 0.795931 0.162669
0.334156 0.795627 0.162722
0.338654 0.790887 0.161723
0.343206 0.787957 0.161159
0.347869 0.787421 0.161169
0.353159 0.797009 0.163600
0.358015 0.798703 0.164153
0.361884 0.786345 0.161355
0.367554 0.799087 0.164558
0.371952 0.794586 0.163645
0.376213 0.788952 0.162465
0.380863 0.788155 0.162446
0.385680 0.789152 0.162862
0.390320 0.788240 0.162825
0.394969 0.787453 0.162823
0.399952 0.789744 0.163566
0.405089 0.793139 0.164580
0.410329 0.797094 0.165735
0.415395 0.799286 0.166473
0.419811 0.796210 0.165947
0.424856 0.798030 0.166607
0.428959 0.792854 0.165583
0.433539 0.791313 0.165442
0.438292 0.790998 0.165602
0.443616 0.794400 0.166669
0.448544 0.795027 0.167070
0.453344 0.794781 0.167266
0.457760 0.792197 0.166899
0.462422 0.791138 0.166909
0.467513 0.792522 0.167519
0.472795 0.794832 0.168363
0.477748 0.795206 0.168741
0.482224 0.793008 0.168498
0.487657 0.795753 0.169470
0.492471 0.795228 0.169650
0.497615 0.796281 0.170223
0.502542 0.796197 0.170525
0.507615 0.796745 0.170990
0.512984 0.798552 0.171773
0.517863 0.798050 0.171995
0.522304 0.795614 0.171746
0.527002 0.794312 0.171784
0.532131 0.794803 0.172274
0.537292 0.795342 0.172784
0.542331 0.795319 0.173162
0.547552 0.795949 0.173711
0.552814 0.796648 0.174287
0.558290 0.798067 0.175051
0.563384 0.797962 0.175444
0.568746 0.798774 0.176075
0.573799 0.798389 0.176415
0.578857 0.797979 0.176757
0.583826 0.797214 0.177018
0.588703 0.796100 0.177199
0.594231 0.797123 0.177928
0.599887 0.798462 0.178747
0.605467 0.799451 0.179487
0.610957 0.800062 0.180140
0.616280 0.800071 0.180650
0.621372 0.799313 0.180972
0.627375 0.801248 0.181991
0.634012 0.804934 0.183468
0.639671 0.805598 0.184182
0.644030 0.802460 0.183925
0.649985 0.803857 0.184842
0.654352 0.800744 0.184602
0.659090 0.798676 0.184635
0.667909 0.807616 0.187530
0.675688 0.813475 0.189640
0.680710 0.811896 0.189821
0.686652 0.812684 0.190624
0.693238 0.815038 0.191841
0.700112 0.818000 0.193223
0.705745 0.817771 0.193771
0.711057 0.816720 0.194103
0.715537 0.813658 0.193901
0.715854 0.800755 0.191088
0.724028 0.806580 0.193228
0.732444 0.812787 0.195473
0.739967 0.816774 0.197128
0.740066 0.803908 0.194276
0.746829 0.806189 0.195458
0.752381 0.805748 0.195900
0.756890 0.803053 0.195725
0.764305 0.806662 0.197232
0.776397 0.807932 0.198599
0.781767 0.807181 0.198880
0.786098 0.804353 0.198576
0.789444 0.799635 0.197733
0.791649 0.792781 0.196281
0.798166 0.794659 0.197178
0.798407 0.784270 0.194701
0.847649 0.836078 0.210024
0.846596 0.823741 0.206853
0.861611 0.811988 0.204106
0.872209 0.821552 0.206764
0.873876 0.815356 0.205055
0.878961 0.815323 0.205003
0.881967 0.811803 0.203958
0.886500 0.811064 0.203640
0.891798 0.811736 0.203676
0.897166 0.812622 0.203735
0.901898 0.812536 0.203493
-0.200943 0.780897 0.160531
-0.190685 0.768590 0.158018
-0.183635 0.762766 0.157025
-0.183999 0.772288 0.159691
-0.183154 0.779589 0.161800
-0.182597 0.787757 0.164093
-0.179037 0.789820 0.164887
-0.159291 0.757283 0.157282
-0.147350 0.741148 0.153602
-0.153619 0.785633 0.164886
-0.147538 0.782840 0.164319
-0.140189 0.777196 0.163028
-0.130710 0.766591 0.160503
-0.133598 0.784815 0.164951
-0.129625 0.787304 0.165550
-0.119945 0.776247 0.162832
-0.111263 0.767425 0.160632
-0.104048 0.762065 0.159250
-0.098340 0.760396 0.158741
-0.094125 0.762517 0.159129
-0.089788 0.764440 0.159450
-0.084892 0.765017 0.159424
-0.080846 0.767886 0.159936
-0.075663 0.767842 0.159726
-0.070135 0.766894 0.159284
-0.068062 0.775423 0.161116
-0.063487 0.777249 0.161317
-0.057726 0.775789 0.160716
-0.052399 0.775531 0.160396
-0.046322 0.773075 0.159541
-0.041479 0.774186 0.159537
-0.035848 0.772950 0.158965
-0.032233 0.777813 0.159851
-0.027508 0.779364 0.159940
-0.024640 0.786801 0.161432
-0.021307 0.792960 0.162615
-0.017133 0.796545 0.163182
-0.008273 0.784634 0.160060
-0.001153 0.778143 0.158236
0.006009 0.771224 0.156316
0.010982 0.771676 0.156152
0.015715 0.772951 0.156186
0.020170 0.775228 0.156462
0.025189 0.775446 0.156255
0.030600 0.774128 0.155690
0.036095 0.772373 0.155029
0.039193 0.779911 0.156564
0.043459 0.783009 0.157056
0.050108 0.776405 0.155273
0.054459 0.779069 0.155677
0.057540 0.787212 0.157372
0.062720 0.786476 0.156989
0.068071 0.784877 0.156411
0.072850 0.785748 0.156419
0.078721 0.781490 0.155235
0.083917 0.780191 0.154751
0.087614 0.786107 0.155960
0.091258 0.792518 0.157290
0.096339 0.791781 0.156958
0.102506 0.785199 0.155272
0.108288 0.780291 0.153985
0.112886 0.781642 0.154164
0.118215 0.778818 0.153378
0.123183 0.777897 0.153042
0.128049 0.777471 0.152829
0.132435 0.779951 0.153298
0.137385 0.778896 0.152952
0.141972 0.780114 0.153141
0.146800 0.779696 0.152957
0.151681 0.778816 0.152672
0.155914 0.782570 0.153469
0.160023 0.787495 0.154543
0.164062 0.793277 0.155822
0.169029 0.791818 0.155428
0.175248 0.779448 0.152514
0.180103 0.778159 0.152173
0.184692 0.779169 0.152371
0.189340 0.779634 0.152448
0.194058 0.779377 0.152365
0.198876 0.777954 0.152016
0.202994 0.784263 0.153464
0.207456 0.787104 0.154114
0.212054 0.788502 0.154435
0.216849 0.787367 0.154176
0.220995 0.795371 0.156037
0.225513 0.798736 0.156831
0.230614 0.792849 0.155488
0.235754 0.785193 0.153740
0.239936 0.795029 0.156047
0.244802 0.791882 0.155354
0.249748 0.786018 0.154035
0.254273 0.790155 0.155038
0.258907 0.791999 0.155515
0.263800 0.784880 0.153920
0.268439 0.786034 0.154247
0.273125 0.785163 0.154109
0.277807 0.783831 0.153868
0.282439 0.786942 0.154663
0.287092 0.792238 0.155970
0.291792 0.794980 0.156690
0.296494 0.793704 0.156481
0.301241 0.797745 0.157512
0.305919 0.794792 0.156923
0.310543 0.790433 0.156010
0.314985 0.780335 0.153766
0.319629 0.780315 0.153871
0.324597 0.789811 0.156195
0.329520 0.795783 0.157706
0.334415 0.799769 0.158759
0.338980 0.796093 0.158031
0.343308 0.788528 0.156398
0.348367 0.794884 0.158020
0.353285 0.797956 0.158880
0.357557 0.790906 0.157379
0.361807 0.784441 0.156017
0.367455 0.797031 0.159119
0.372579 0.801657 0.160364
0.376662 0.793603 0.158643
0.381138 0.790681 0.158127
0.385673 0.788625 0.157819
0.390367 0.788311 0.157924
0.395077 0.788133 0.158067
0.399763 0.787701 0.158154
0.404966 0.791794 0.159312
0.410863 0.801354 0.161765
0.416162 0.805295 0.162902
0.421090 0.806011 0.163284
0.425807 0.805048 0.163275
0.429940 0.799866 0.162273
0.433948 0.794120 0.161141
0.439417 0.798585 0.162432
0.445295 0.805415 0.164292
0.450037 0.804549 0.164333
0.455249 0.806589 0.165071
0.459398 0.802086 0.164259
0.463964 0.800218 0.164078
0.469867 0.805977 0.165722
0.474735 0.805670 0.165927
0.479328 0.803852 0.165776
0.484813 0.806739 0.166758
0.490397 0.809936 0.167823
0.492867 0.797427 0.165127
0.497143 0.794233 0.164669
0.502292 0.795277 0.165235
0.507468 0.796342 0.165814
0.513005 0.798946 0.166773
0.517977 0.798872 0.167094
0.522460 0.796622 0.166896
0.527202 0.795513 0.166981
0.532065 0.794894 0.167191
0.537373 0.796058 0.167842
0.542306 0.795619 0.168112
0.547872 0.797617 0.168984
0.553303 0.798958 0.169705
0.558365 0.798798 0.170069
0.563271 0.798010 0.170287
0.568429 0.798100 0.170728
0.573658 0.798380 0.171225
0.578670 0.797830 0.171526
0.583691 0.797267 0.171832
0.589714 0.800041 0.172972
0.594658 0.799079 0.173197
0.599725 0.798490 0.173523
0.604995 0.798506 0.174007
0.610365 0.798772 0.174563
0.615625 0.798625 0.175024
0.621058 0.798949 0.175612
0.626840 0.800246 0.176452
0.633615 0.804374 0.178013
0.638897 0.803967 0.178445
0.643525 0.801637 0.178400
0.649200 0.802270 0.179108
0.654412 0.801539 0.179479
0.660325 0.802687 0.180333
0.665399 0.801481 0.180596
0.671979 0.804255 0.181879
0.677633 0.804467 0.182515
0.683151 0.804272 0.183052
0.689280 0.805584 0.183980
0.694216 0.803816 0.184120
0.701805 0.808622 0.185956
0.710186 0.815183 0.188253
0.714009 0.810550 0.187658
0.718689 0.808041 0.187608
0.725774 0.811206 0.189030
0.733800 0.816437 0.190992
0.737761 0.812224 0.190486
0.740870 0.806176 0.189489
0.744486 0.801396 0.188811
0.751821 0.804906 0.190299
0.757898 0.805595 0.191036
0.767260 0.813317 0.193619
0.773724 0.814718 0.194523
0.785224 0.826651 0.198204
0.786630 0.817430 0.196260
0.788031 0.808441 0.194349
0.792758 0.806417 0.194265
0.797110 0.803731 0.193979
0.802590 0.803383 0.194291
0.811819 0.810427 0.196556
0.813010 0.801821 0.194602
0.826590 0.817186 0.199048
0.842637 0.826342 0.202068
0.841632 0.814131 0.199012
0.837307 0.796141 0.194360
0.842423 0.795780 0.194420
0.853934 0.807052 0.197582
0.865904 0.819030 0.200902
0.869579 0.816196 0.200190
0.877523 0.821007 0.201504
0.880258 0.816771 0.200341
0.883486 0.813564 0.199420
0.887784 0.812344 0.199000
0.894343 0.815088 0.199612
0.899462 0.815468 0.199553
0.903478 0.814108 0.198990
0.907475 0.812842 0.198420
-0.206740 0.783308 0.156064
-0.202447 0.783078 0.156457
-0.188060 0.762480 0.152032
-0.182711 0.760150 0.151866
-0.179642 0.762614 0.152800
-0.174710 0.761361 0.152830
-0.171143 0.763081 0.153533
-0.163876 0.757094 0.152382
-0.161383 0.761360 0.153629
-0.148738 0.743813 0.149672
-0.146976 0.749871 0.151284
-0.146772 0.759623 0.153747
-0.145369 0.767014 0.155621
-0.141403 0.768877 0.156153
-0.138622 0.773604 0.157337
-0.135286 0.777258 0.158237
-0.130628 0.777998 0.158417
-0.125358 0.777397 0.158250
-0.118769 0.773703 0.157322
-0.110869 0.766814 0.155610
-0.106984 0.769704 0.156199
-0.099060 0.762668 0.154408
-0.095101 0.765526 0.154947
-0.090383 0.766569 0.155036
-0.085217 0.766522 0.154848
-0.080081 0.766596 0.154672
-0.075674 0.768650 0.154950
-0.070706 0.769266 0.154874
-0.065407 0.769011 0.154580
-0.062156 0.774473 0.155624
-0.056032 0.771971 0.154780
-0.050987 0.772491 0.154640
-0.044972 0.770189 0.153831
-0.040435 0.772182 0.154027
-0.036230 0.775223 0.154464
-0.032894 0.780994 0.155536
-0.026518 0.777472 0.154428
-0.020996 0.776500 0.153918
-0.017051 0.780529 0.154576
-0.012275 0.781935 0.154622
-0.007099 0.782014 0.154359
-0.000783 0.778188 0.153192
0.006202 0.771861 0.151448
0.010753 0.773801 0.151630
0.015590 0.774732 0.151582
0.020134 0.776712 0.151781
0.025533 0.775530 0.151253
0.030707 0.775090 0.150903
0.035819 0.774814 0.150596
0.038780 0.782932 0.152231
0.044304 0.781018 0.151559
0.050579 0.775874 0.150151
0.056245 0.772998 0.149274
0.060895 0.774282 0.149360
0.065367 0.776334 0.149628
0.068573 0.784070 0.151206
0.074581 0.779276 0.149919
0.080326 0.775421 0.148855
0.084621 0.778262 0.149332
0.087541 0.787928 0.151374
0.090316 0.798730 0.153680
0.096101 0.794490 0.152557
0.102619 0.786080 0.150492
0.108439 0.780947 0.149184
0.112878 0.783173 0.149561
0.117878 0.782241 0.149225
0.122607 0.782795 0.149234
0.127279 0.783653 0.149320
0.132026 0.784035 0.149303
0.136881 0.783678 0.149126
0.142220 0.780009 0.148204
0.147123 0.779036 0.147900
0.151852 0.779170 0.147855
0.156707 0.778325 0.147594
0.160576 0.784887 0.149020
0.164205 0.793794 0.150983
0.169223 0.791896 0.150501
0.175451 0.779388 0.147621
0.180396 0.777245 0.147096
0.185183 0.776324 0.146855
0.189800 0.776926 0.146965
0.194211 0.779629 0.147556
0.198668 0.782073 0.148094
0.203124 0.784722 0.148684
0.207867 0.784167 0.148554
0.212550 0.784262 0.148577
0.216486 0.794428 0.150886
0.220714 0.801699 0.152544
0.225819 0.796372 0.151354
0.230941 0.789864 0.149901
0.235552 0.791462 0.150290
0.240250 0.791583 0.150350
0.245129 0.787729 0.149513
0.250038 0.782174 0.148295
0.254836 0.778206 0.147441
0.259215 0.786276 0.149322
0.263875 0.786658 0.149464
0.268591 0.784577 0.149052
0.273248 0.784772 0.149161
0.277918 0.783980 0.149050
0.282572 0.784181 0.149169
0.287202 0.791673 0.150949
0.291898 0.795677 0.151943
0.296552 0.786249 0.149887
0.301198 0.784329 0.149542
0.305849 0.783906 0.149541
0.310578 0.787528 0.150465
0.315264 0.788024 0.150683
0.319920 0.787297 0.150626
0.324861 0.795094 0.152517
0.329657 0.797217 0.153121
0.334469 0.799203 0.153697
0.339093 0.796855 0.153288
0.343741 0.795349 0.153076
0.347958 0.786562 0.151204
0.352996 0.792238 0.152642
0.357037 0.782186 0.150485
0.362470 0.792838 0.153073
0.367572 0.797804 0.154365
0.372510 0.800135 0.155058
0.376950 0.796352 0.154354
0.381416 0.793210 0.153801
0.385877 0.790286 0.153301
0.390550 0.789709 0.153344
0.395219 0.789111 0.153388
0.399865 0.788309 0.153389
0.404877 0.790730 0.154138
0.410485 0.797925 0.155994
0.416189 0.805300 0.157901
0.421128 0.806132 0.158302
0.426551 0.810487 0.159525
0.429963 0.799922 0.157298
0.433961 0.794128 0.156179
0.439544 0.799394 0.157629
0.445493 0.806689 0.159559
0.449420 0.800623 0.158391
0.453010 0.792794 0.156815
0.458568 0.797162 0.158084
0.464166 0.801470 0.159347
0.469369 0.803251 0.160028
0.475728 0.811261 0.162172
0.480594 0.810789 0.162342
0.485929 0.812744 0.163087
0.490140 0.808811 0.162458
0.493443 0.800495 0.160803
0.497235 0.794896 0.159790
0.502187 0.795016 0.160127
0.507113 0.794955 0.160428
0.512501 0.796933 0.161219
0.517901 0.798828 0.161998
0.522986 0.799215 0.162429
0.528227 0.800198 0.163009
0.534129 0.803828 0.164226
0.539440 0.804843 0.164832
0.545817 0.810018 0.166437
0.551996 0.814156 0.167808
0.555108 0.806297 0.166321
0.559125 0.802086 0.165710
0.563896 0.800757 0.165795
0.569197 0.801340 0.166347
0.574279 0.801059 0.166700
0.579563 0.801434 0.167220
0.584730 0.801333 0.167634
0.590346 0.802686 0.168408
0.595819 0.803453 0.169050
0.599718 0.798998 0.168433
0.604657 0.797963 0.168653
0.610090 0.798461 0.169255
0.615261 0.798062 0.169647
0.621142 0.799778 0.170565
0.627154 0.801773 0.171561
0.632816 0.802604 0.172282
0.638231 0.802630 0.172814
0.643420 0.801941 0.173177
0.648546 0.801034 0.173494
0.654403 0.802127 0.174313
0.659609 0.801343 0.174673
0.664697 0.800204 0.174952
0.670023 0.799673 0.175387
0.677323 0.804271 0.177111
0.683436 0.805622 0.178031
0.688722 0.804773 0.178404
0.694353 0.804763 0.178991
0.700239 0.805336 0.179729
0.706394 0.806507 0.180622
0.712049 0.806397 0.181191
0.717525 0.805829 0.181644
0.723528 0.806474 0.182405
0.729567 0.807156 0.183174
0.736435 0.809687 0.184413
0.738898 0.802191 0.183078
0.745321 0.803691 0.184040
0.751069 0.803657 0.184602
0.758983 0.808322 0.186367
0.766364 0.811730 0.187801
0.771463 0.810221 0.187949
0.784983 0.826402 0.192679
0.789020 0.822588 0.192202
0.786953 0.806397 0.188473
0.794193 0.809432 0.189733
0.798772 0.807115 0.189573
0.804670 0.807502 0.190096
0.810149 0.807109 0.190389
0.820068 0.815373 0.192931
0.826858 0.817533 0.193843
0.838816 0.829508 0.197313
0.843779 0.828193 0.197252
0.844516 0.819138 0.195113
0.844864 0.809631 0.192817
0.846714 0.803129 0.191278
0.868803 0.823615 0.196955
0.873793 0.823002 0.196868
0.877972 0.821079 0.196398
0.881494 0.818150 0.195625
0.884620 0.814695 0.194677
0.889386 0.814206 0.194478
0.894858 0.815029 0.194591
0.900539 0.816295 0.194786
0.903581 0.813247 0.193806
0.907119 0.811174 0.193051
-0.204526 0.778034 0.150255
-0.198931 0.775200 0.150028
-0.188462 0.762557 0.147509
-0.181951 0.757915 0.146800
-0.177930 0.758452 0.147257
-0.174047 0.759415 0.147784
-0.168171 0.756324 0.147343
-0.158875 0.746031 0.145200
-0.156342 0.750167 0.146374
-0.153541 0.753925 0.147432
-0.146530 0.748659 0.146362
-0.140758 0.746135 0.145901
-0.143567 0.762877 0.149896
-0.138459 0.762181 0.149802
-0.135226 0.765867 0.150702
-0.134147 0.774729 0.152779
-0.129895 0.776460 0.153168
-0.123880 0.774142 0.152588
-0.119439 0.775631 0.152869
-0.115446 0.778327 0.153407
-0.109539 0.776447 0.152857
-0.099421 0.764080 0.149847
-0.094838 0.765433 0.150010
-0.090693 0.767995 0.150434
-0.085634 0.768298 0.150316
-0.080987 0.769727 0.150445
-0.077174 0.773456 0.151091
-0.071694 0.772793 0.150707
-0.065962 0.771433 0.150151
-0.060196 0.769948 0.149558
-0.054638 0.769005 0.149083
-0.050588 0.772366 0.149593
-0.044480 0.769810 0.148734
-0.040149 0.772426 0.149061
-0.036166 0.776154 0.149639
-0.031732 0.778595 0.149918
-0.025934 0.776836 0.149233
-0.018527 0.769887 0.147362
-0.012629 0.767520 0.146543
-0.008387 0.770452 0.146935
-0.005852 0.779133 0.148638
-0.001095 0.780530 0.148682
0.005660 0.775026 0.147161
0.011185 0.773588 0.146569
0.015564 0.776146 0.146890
0.020954 0.775052 0.146387
0.026097 0.774771 0.146074
0.031433 0.773687 0.145586
0.036227 0.774592 0.145553
0.039802 0.780276 0.146604
0.044367 0.782139 0.146798
0.050412 0.777936 0.145634
0.056283 0.774215 0.144586
0.061396 0.773516 0.144226
0.066385 0.773264 0.143973
0.069474 0.781443 0.145618
0.074514 0.780986 0.145333
0.079960 0.778537 0.144609
0.084303 0.781203 0.145037
0.087998 0.787108 0.146196
0.092925 0.787039 0.146026
0.099082 0.780540 0.144428
0.103449 0.783126 0.144865
0.108039 0.784564 0.145053
0.113058 0.783624 0.144718
0.118186 0.781934 0.144224
0.123040 0.781699 0.144060
0.126903 0.787418 0.145228
0.131142 0.791064 0.145940
0.136541 0.787373 0.145028
0.142454 0.779951 0.143295
0.147331 0.779117 0.143032
0.152190 0.778296 0.142778
0.156828 0.778979 0.142865
0.161168 0.781939 0.143463
0.164958 0.789434 0.145073
0.169660 0.789926 0.145135
0.175448 0.781064 0.143129
0.180453 0.778400 0.142503
0.185226 0.777621 0.142302
0.189578 0.780835 0.142991
0.193823 0.785399 0.143984
0.198279 0.788096 0.144570
0.202959 0.788491 0.144650
0.207914 0.785551 0.143997
0.212719 0.784134 0.143686
0.217247 0.786219 0.144157
0.221319 0.795150 0.146151
0.226477 0.788448 0.144684
0.231342 0.785557 0.144067
0.235941 0.786941 0.144402
0.240469 0.789975 0.145109
0.245140 0.790418 0.145245
0.249978 0.786816 0.144489
0.254707 0.785272 0.144194
0.259371 0.785250 0.144241
0.264007 0.786231 0.144516
0.268695 0.785209 0.144350
0.273349 0.785543 0.144490
0.278000 0.786214 0.144708
0.282682 0.783867 0.144261
0.287319 0.788413 0.145350
0.291998 0.792791 0.146407
0.296648 0.785538 0.144881
0.301305 0.785330 0.144926
0.305971 0.785704 0.145105
0.310652 0.786680 0.145422
0.315436 0.791375 0.146573
0.320450 0.802356 0.149130
0.325021 0.797298 0.148116
0.329657 0.795111 0.147746
0.334437 0.796659 0.148213
0.339206 0.797632 0.148557
0.343792 0.794947 0.148087
0.347970 0.785552 0.146120
0.352040 0.775815 0.144077
0.357388 0.786479 0.146607
0.362651 0.794507 0.148553
0.367554 0.796806 0.149221
0.372435 0.798508 0.149759
0.376987 0.796162 0.149394
0.381450 0.793035 0.148856
0.386037 0.791470 0.148673
0.390653 0.790303 0.148585
0.395323 0.789712 0.148630
0.399969 0.788913 0.148632
0.405223 0.793457 0.149845
0.410599 0.798620 0.151205
0.415222 0.797255 0.151095
0.419331 0.791951 0.150099
0.424359 0.793879 0.150743
0.429046 0.793155 0.150792
0.434196 0.795671 0.151581
0.439655 0.800075 0.152806
0.445113 0.804151 0.153963
0.449729 0.802572 0.153841
0.452536 0.789875 0.151190
0.458073 0.794227 0.152427
0.463372 0.796894 0.153288
0.469512 0.804136 0.155203
0.475748 0.811473 0.157148
0.481145 0.813868 0.157971
0.485336 0.809778 0.157315
0.489463 0.805515 0.156622
0.493697 0.801936 0.156091
0.498121 0.799397 0.155805
0.502253 0.795543 0.155220
0.507250 0.795820 0.155593
0.512246 0.796029 0.155958
0.517707 0.798238 0.156793
0.523000 0.799566 0.157433
0.529069 0.804078 0.158821
0.535405 0.809458 0.160420
0.541190 0.812319 0.161445
0.547037 0.815252 0.162496
0.553036 0.818605 0.163656
0.557634 0.816388 0.163523
0.559939 0.805554 0.161377
0.563547 0.799882 0.160442
0.570008 0.804713 0.161982
0.577606 0.813359 0.164433
0.582985 0.813869 0.164979
0.587135 0.810073 0.164516
0.592200 0.809433 0.164806
0.597242 0.808678 0.165078
0.601379 0.804929 0.164645
0.605472 0.801102 0.164200
0.610252 0.799504 0.164291
0.615848 0.800427 0.164993
0.621490 0.801396 0.165715
0.627410 0.803107 0.166625
0.632534 0.802343 0.166950
0.637759 0.801837 0.167345
0.643142 0.801731 0.167844
0.648201 0.800654 0.168115
0.653960 0.801493 0.168859
0.659531 0.801729 0.169464
0.664351 0.799871 0.169566
0.670096 0.800469 0.170272
0.677545 0.805461 0.172062
0.683553 0.806529 0.172900
0.689135 0.806426 0.173456
0.694668 0.806148 0.173973
0.699741 0.804691 0.174202
0.705780 0.805585 0.175015
0.711249 0.805036 0.175472
0.716011 0.802778 0.175504
0.722062 0.803570 0.176294
0.728245 0.804610 0.177147
0.734447 0.805638 0.177994
0.740190 0.805579 0.178566
0.745790 0.805183 0.179047
0.753420 0.809247 0.180647
0.759414 0.809646 0.181316
0.765152 0.809481 0.181831
0.770082 0.807607 0.181901
0.774570 0.804862 0.181733
0.780744 0.805686 0.182457
0.788526 0.809802 0.184006
0.794078 0.809339 0.184368
0.801849 0.813359 0.185858
0.808078 0.814279 0.186532
0.810701 0.808172 0.185374
0.815745 0.806935 0.185441
0.822623 0.809293 0.186406
0.830291 0.813165 0.187736
0.835655 0.812708 0.187918
0.851593 0.831961 0.193172
0.851185 0.820877 0.190538
0.847307 0.803782 0.186306
0.856021 0.809797 0.188033
0.870462 0.826020 0.192378
0.878175 0.830137 0.193545
0.876511 0.817842 0.190412
0.881281 0.817050 0.190230
0.885573 0.815551 0.189829
0.890663 0.815547 0.189781
0.895324 0.814924 0.189536
0.900159 0.814711 0.189363
0.905252 0.815038 0.189295
0.907270 0.810384 0.187902
0.912110 0.810540 0.187723
-0.203786 0.767557 0.142878
-0.202941 0.774058 0.144768
-0.198143 0.772852 0.144900
-0.187821 0.760559 0.142499
-0.182206 0.757796 0.142216
-0.179321 0.760743 0.143197
-0.176111 0.763192 0.144038
-0.167095 0.753603 0.142117
-0.159078 0.746071 0.140630
-0.155847 0.748775 0.141439
-0.153698 0.754002 0.142794
-0.143056 0.740853 0.139935
-0.137330 0.738418 0.139486
-0.144226 0.764292 0.145462
-0.139742 0.765094 0.145696
-0.132670 0.760094 0.144579
-0.131216 0.768088 0.146397
-0.131093 0.779487 0.148966
-0.125058 0.777224 0.148393
-0.120597 0.778769 0.148664
-0.117445 0.783610 0.149663
-0.110722 0.779849 0.148680
-0.099191 0.764047 0.144938
-0.094168 0.764339 0.144841
-0.090068 0.767054 0.145277
-0.085768 0.769361 0.145603
-0.081712 0.772407 0.146082
-0.078489 0.777792 0.147076
-0.072672 0.776316 0.146505
-0.064890 0.769395 0.144693
-0.060309 0.771214 0.144849
-0.054093 0.768448 0.143964
-0.049897 0.771406 0.144363
-0.044453 0.770790 0.143953
-0.039980 0.773017 0.144178
-0.035069 0.773969 0.144113
-0.029764 0.773714 0.143776
-0.023061 0.769056 0.142454
-0.018052 0.769571 0.142292
-0.010433 0.761647 0.140247
-0.006624 0.765899 0.140923
-0.005018 0.777604 0.143259
-0.001117 0.781876 0.143939
0.005852 0.775639 0.142287
0.012105 0.771638 0.141139
0.016683 0.773435 0.141283
0.021653 0.773808 0.141116
0.026508 0.774560 0.141038
0.031677 0.774085 0.140696
0.036644 0.774308 0.140514
0.040426 0.779155 0.141357
0.044675 0.782253 0.141820
0.049961 0.781144 0.141363
0.056631 0.774105 0.139610
0.061935 0.772560 0.139074
0.067148 0.771275 0.138602
0.070467 0.778363 0.139973
0.074296 0.783362 0.140891
0.078588 0.786358 0.141377
0.084067 0.783718 0.140636
0.088487 0.786100 0.141001
0.095681 0.774535 0.138327
0.099768 0.778388 0.139028
0.103610 0.783674 0.140047
0.107977 0.786318 0.140496
0.113566 0.782197 0.139479
0.118510 0.781487 0.139211
0.123121 0.782648 0.139358
0.126564 0.790932 0.141060
0.131429 0.790726 0.140922
0.136810 0.787098 0.140047
0.142834 0.778880 0.138181
0.147744 0.777743 0.137862
0.152324 0.778827 0.138030
0.156913 0.779863 0.138194
0.161305 0.782428 0.138696
0.165507 0.786628 0.139559
0.170228 0.786817 0.139557
0.175529 0.781970 0.138469
0.180539 0.779261 0.137850
0.185174 0.779773 0.137936
0.189313 0.785138 0.139079
0.193440 0.791092 0.140354
0.197793 0.795158 0.141226
0.202593 0.794511 0.141082
0.207437 0.793212 0.140801
0.212374 0.790500 0.140220
0.217583 0.783710 0.138759
0.223348 0.767856 0.135339
0.227402 0.776287 0.137187
0.231819 0.779888 0.137994
0.236563 0.778103 0.137637
0.240881 0.784422 0.139042
0.245205 0.791877 0.140699
0.249756 0.795398 0.141508
0.254480 0.795021 0.141475
0.259407 0.787951 0.139994
0.264177 0.784279 0.139255
0.268806 0.785364 0.139552
0.273449 0.786218 0.139804
0.278140 0.783807 0.139351
0.282782 0.784750 0.139630
0.287419 0.789788 0.140805
0.292095 0.789751 0.140880
0.296754 0.786872 0.140341
0.301401 0.785286 0.140087
0.306068 0.785960 0.140329
0.310746 0.786824 0.140617
0.315546 0.792271 0.141908
0.320378 0.796998 0.143048
0.325043 0.795515 0.142837
0.329395 0.786314 0.140944
0.334305 0.791843 0.142272
0.339143 0.794766 0.143036
0.343741 0.792597 0.142690
0.348006 0.784972 0.141154
0.352671 0.784871 0.141268
0.357682 0.789904 0.142511
0.362888 0.796936 0.144198
0.367500 0.795308 0.143991
0.372309 0.796250 0.144352
0.376994 0.795605 0.144369
0.381377 0.791656 0.143663
0.386042 0.791018 0.143689
0.390882 0.792135 0.144106
0.395403 0.790076 0.143828
0.400197 0.790634 0.144131
0.405549 0.795991 0.145498
0.410480 0.797335 0.145985
0.414757 0.793255 0.145278
0.419487 0.792956 0.145411
0.424229 0.792725 0.145564
0.428993 0.792618 0.145749
0.434914 0.800574 0.147729
0.440156 0.803375 0.148573
0.445382 0.805845 0.149349
0.450949 0.810285 0.150570
0.455452 0.807855 0.150268
0.458587 0.797314 0.148160
0.465020 0.806523 0.150465
0.469835 0.806018 0.150607
0.475454 0.809923 0.151743
0.480777 0.811983 0.152474
0.484233 0.804120 0.150984
0.488569 0.801085 0.150581
0.493832 0.802762 0.151243
0.499034 0.804009 0.151816
0.502906 0.798833 0.150947
0.507448 0.796950 0.150825
0.512560 0.797682 0.151301
0.517795 0.798873 0.151889
0.523187 0.800638 0.152614
0.529387 0.805709 0.154099
0.535621 0.810657 0.155567
0.540805 0.811065 0.156011
0.545319 0.808717 0.155834
0.550507 0.809046 0.156275
0.555884 0.810031 0.156875
0.558540 0.800657 0.155108
0.562904 0.797894 0.154860
0.570471 0.806803 0.157304
0.579590 0.820859 0.160950
0.584128 0.818312 0.160782
0.588204 0.814200 0.160259
0.592085 0.809512 0.159608
0.597622 0.810418 0.160260
0.601469 0.805713 0.159616
0.605948 0.803129 0.159471
0.611145 0.802836 0.159868
0.616216 0.802093 0.160168
0.621895 0.803169 0.160902
0.626854 0.801979 0.161114
0.632412 0.802536 0.161744
0.637437 0.801458 0.161998
0.642560 0.800632 0.162318
0.648712 0.802672 0.163325
0.654823 0.804475 0.164286
0.660427 0.804772 0.164898
0.665416 0.803338 0.165104
0.671204 0.804010 0.165820
0.677411 0.805704 0.166788
0.683692 0.807481 0.167784
0.689646 0.808318 0.168561
0.694808 0.807087 0.168844
0.700037 0.806004 0.169167
0.705319 0.805029 0.169518
0.710823 0.804570 0.169995
0.716219 0.803823 0.170404
0.722189 0.804403 0.171136
0.728156 0.804922 0.171854
0.734109 0.805367 0.172552
0.740533 0.806833 0.173499
0.746269 0.806704 0.174050
0.752483 0.807613 0.174851
0.759715 0.810701 0.176186
0.765205 0.809963 0.176565
0.770492 0.808809 0.176829
0.775628 0.807372 0.177009
0.781596 0.807703 0.177615
0.787657 0.808231 0.178254
0.793714 0.808765 0.178877
0.800246 0.810267 0.179725
0.805241 0.808732 0.179787
0.809812 0.806444 0.179636
0.814652 0.804777 0.179614
0.819468 0.803156 0.179576
0.827639 0.807987 0.181143
0.833443 0.808347 0.181549
0.838613 0.807599 0.181644
0.843645 0.806690 0.181666
0.848341 0.805272 0.181525
0.853907 0.805537 0.181778
0.861358 0.809252 0.182875
0.867839 0.811279 0.183509
0.876197 0.816658 0.184961
0.880880 0.815661 0.184753
0.886157 0.815809 0.184801
0.890906 0.815158 0.184609
0.895384 0.814168 0.184296
0.900661 0.814644 0.184320
0.905434 0.814381 0.184122
0.911054 0.815632 0.184275
0.913780 0.812229 0.183210
-0.198893 0.757077 0.136030
-0.197993 0.763432 0.137835
-0.195320 0.766462 0.138883
-0.186746 0.757722 0.137304
-0.182973 0.758762 0.137857
-0.180229 0.762071 0.138885
-0.176663 0.763857 0.139547
-0.169379 0.757987 0.138480
-0.161871 0.751649 0.137277
-0.160218 0.757863 0.138836
-0.158590 0.764380 0.140436
-0.146973 0.749277 0.137188
-0.141771 0.748161 0.137028
-0.144545 0.764984 0.140842
-0.143892 0.774537 0.143006
-0.138499 0.773557 0.142793
-0.134831 0.776650 0.143463
-0.129433 0.775851 0.143238
-0.117273 0.759068 0.139424
-0.120301 0.778445 0.143649
-0.119851 0.789923 0.146088
-0.112708 0.785261 0.144910
-0.099291 0.764863 0.140214
-0.094406 0.765567 0.140196
-0.089576 0.766472 0.140207
-0.085156 0.768504 0.140453
-0.081244 0.771961 0.141000
-0.078638 0.779032 0.142334
-0.073045 0.778211 0.141909
-0.064275 0.768622 0.139538
-0.058987 0.768478 0.139249
-0.053719 0.768382 0.138964
-0.050652 0.774614 0.140067
-0.046233 0.777061 0.140331
-0.041470 0.778543 0.140380
-0.033233 0.769544 0.138127
-0.028787 0.771859 0.138357
-0.023690 0.772179 0.138150
-0.016325 0.765272 0.136365
-0.011195 0.765296 0.136098
-0.004846 0.761272 0.134952
-0.003147 0.772591 0.137150
-0.000646 0.781531 0.138828
0.005192 0.779187 0.138057
0.012372 0.771961 0.136234
0.017579 0.771495 0.135884
0.021944 0.774029 0.136189
0.026694 0.775157 0.136194
0.031751 0.775100 0.135949
0.037400 0.772683 0.135202
0.041858 0.774808 0.135441
0.045288 0.781103 0.136583
0.050432 0.780530 0.136253
0.056934 0.774155 0.134685
0.062122 0.773079 0.134263
0.067100 0.772813 0.134022
0.071253 0.776170 0.134564
0.074053 0.785828 0.136461
0.078478 0.788228 0.136810
0.084227 0.784302 0.135813
0.089437 0.782779 0.135338
0.093921 0.784775 0.135622
0.098777 0.784880 0.135508
0.103512 0.785567 0.135526
0.108104 0.787001 0.135710
0.113276 0.785200 0.135212
0.118376 0.783646 0.134773
0.122855 0.785624 0.135093
0.127492 0.786686 0.135224
0.132656 0.784435 0.134657
0.137876 0.781619 0.133978
0.143100 0.778534 0.133248
0.147972 0.777608 0.132983
0.152642 0.778013 0.133007
0.157179 0.779368 0.133238
0.161686 0.780996 0.133533
0.166021 0.784058 0.134138
0.170770 0.783875 0.134060
0.175789 0.781292 0.133479
0.180638 0.779956 0.133168
0.185130 0.781809 0.133539
0.189371 0.786236 0.134460
0.193453 0.792679 0.135813
0.197549 0.799569 0.137267
0.202314 0.799514 0.137254
0.207087 0.799313 0.137215
0.212073 0.796296 0.136585
0.217505 0.786766 0.134579
0.223342 0.769998 0.131044
0.227621 0.775037 0.132135
0.231999 0.779150 0.133035
0.236451 0.782571 0.133792
0.241060 0.783462 0.134018
0.245335 0.791838 0.135836
0.249779 0.797945 0.137177
0.254568 0.795989 0.136813
0.259486 0.789231 0.135433
0.264292 0.784300 0.134446
0.268935 0.784665 0.134586
0.273595 0.784149 0.134543
0.278278 0.781377 0.134025
0.282858 0.788416 0.135596
0.287507 0.794266 0.136920
0.292197 0.790459 0.136194
0.296830 0.783439 0.134787
0.301502 0.785866 0.135395
0.306150 0.785301 0.135370
0.310831 0.786592 0.135744
0.315592 0.790587 0.136699
0.320302 0.791517 0.137005
0.324792 0.785774 0.135890
0.329360 0.783352 0.135488
0.334160 0.786732 0.136329
0.339103 0.792379 0.137659
0.343821 0.792724 0.137860
0.348301 0.788863 0.137164
0.353205 0.792341 0.138044
0.357886 0.791961 0.138102
0.362867 0.795771 0.139063
0.367711 0.797278 0.139534
0.372737 0.800813 0.140445
0.377347 0.799069 0.140227
0.381591 0.793445 0.139179
0.386172 0.791853 0.139000
0.391000 0.792845 0.139382
0.395634 0.791853 0.139341
0.400310 0.791286 0.139396
0.405986 0.799472 0.141345
0.410623 0.798237 0.141265
0.414846 0.793706 0.140477
0.419424 0.792235 0.140354
0.424215 0.792419 0.140594
0.429029 0.792707 0.140861
0.434852 0.800002 0.142655
0.440122 0.803027 0.143529
0.446556 0.813460 0.146021
0.451952 0.816604 0.146936
0.455691 0.809289 0.145577
0.461786 0.816467 0.147383
0.465354 0.808478 0.145885
0.470279 0.808561 0.146154
0.476052 0.813273 0.147442
0.481341 0.815086 0.148103
0.484368 0.804919 0.146142
0.487335 0.794896 0.144212
0.492254 0.795034 0.144520
0.498415 0.801153 0.146152
0.503167 0.800239 0.146242
0.507860 0.799044 0.146276
0.512734 0.798670 0.146497
0.517970 0.799870 0.147074
0.523135 0.800652 0.147566
0.528980 0.804237 0.148688
0.534310 0.805472 0.149297
0.537597 0.798270 0.148034
0.542442 0.797524 0.148214
0.548427 0.801219 0.149395
0.553691 0.801940 0.149919
0.560500 0.808400 0.151740
0.566211 0.810500 0.152593
0.570568 0.807539 0.152318
0.575093 0.805225 0.152194
0.582650 0.813554 0.154481
0.586336 0.808206 0.153688
0.590568 0.804825 0.153345
0.596320 0.806548 0.154167
0.600928 0.804413 0.154122
0.605263 0.801408 0.153885
0.610201 0.800341 0.154096
0.615975 0.801846 0.154905
0.621451 0.802324 0.155487
0.627108 0.803266 0.156185
0.631898 0.801548 0.156281
0.637242 0.801429 0.156752
0.643185 0.802974 0.157616
0.649707 0.806044 0.158844
0.658198 0.814439 0.161320
0.664579 0.816734 0.162392
0.669339 0.814514 0.162421
0.673581 0.810918 0.162133
0.680750 0.815049 0.163659
0.686967 0.816536 0.164576
0.690537 0.811172 0.163886
0.695916 0.810451 0.164292
0.700685 0.808184 0.164335
0.706091 0.807484 0.164752
0.711213 0.806068 0.165001
0.717241 0.806802 0.165763
0.723119 0.807122 0.166429
0.728987 0.807370 0.167078
0.734514 0.806795 0.167528
0.740310 0.806813 0.168119
0.746448 0.807565 0.168883
0.751545 0.805984 0.169079
0.758445 0.808347 0.170222
0.765185 0.810299 0.171261
0.770821 0.809852 0.171708
0.775574 0.807568 0.171694
0.781052 0.806845 0.172047
0.787083 0.807287 0.172670
0.793232 0.807976 0.173337
0.798764 0.807443 0.173685
0.803740 0.805854 0.173752
0.809395 0.805669 0.174143
0.814983 0.805406 0.174490
0.820406 0.804885 0.174748
0.827148 0.806933 0.175615
0.833281 0.807863 0.176178
0.839854 0.809662 0.176927
0.845263 0.809366 0.177124
0.849704 0.807397 0.176872
0.854791 0.806714 0.176907
0.860435 0.807132 0.177182
0.868409 0.811752 0.178473
0.874723 0.813482 0.179007
0.881358 0.815836 0.179662
0.886199 0.815170 0.179526
0.891137 0.814787 0.179426
0.895750 0.813967 0.179181
0.900756 0.813931 0.179096
0.906702 0.815567 0.179394
0.912328 0.816760 0.179547
0.916586 0.815806 0.179130
-0.206345 0.762944 0.132367
-0.196781 0.752135 0.130454
-0.192455 0.751686 0.130741
-0.189864 0.754837 0.131778
-0.188015 0.759672 0.133155
-0.182459 0.757149 0.132912
-0.178824 0.758669 0.133517
-0.175741 0.761491 0.134376
-0.169609 0.758090 0.133855
-0.162925 0.763415 0.135361
-0.159533 0.766237 0.136106
-0.152268 0.760755 0.135013
-0.153145 0.773291 0.137819
-0.145817 0.767849 0.136676
-0.144636 0.776307 0.138538
-0.140614 0.778556 0.139019
-0.140330 0.789616 0.141395
-0.130693 0.779094 0.139038
-0.120820 0.767839 0.136499
-0.116891 0.770667 0.137008
-0.120764 0.792631 0.141661
-0.113429 0.787586 0.140411
-0.100035 0.767316 0.135835
-0.094302 0.765950 0.135354
-0.089538 0.767075 0.135400
-0.084851 0.768463 0.135488
-0.080968 0.772036 0.136037
-0.079118 0.781172 0.137776
-0.074022 0.781762 0.137656
-0.064084 0.769021 0.134649
-0.059041 0.769593 0.134512
-0.053961 0.770067 0.134348
-0.051740 0.778788 0.135954
-0.047158 0.780842 0.136119
-0.042761 0.783483 0.136408
-0.036236 0.779736 0.135326
-0.029680 0.775737 0.134193
-0.024076 0.774542 0.133662
-0.017560 0.770359 0.132496
-0.010314 0.763629 0.130791
-0.006276 0.767161 0.131278
-0.002656 0.772165 0.132079
0.001592 0.775151 0.132453
0.006378 0.776321 0.132446
0.013153 0.770451 0.130952
0.017646 0.772506 0.131143
0.022263 0.774121 0.131246
0.027105 0.774894 0.131176
0.032297 0.774299 0.130824
0.038073 0.771348 0.129983
0.042670 0.772878 0.130093
0.046943 0.775710 0.130482
0.051746 0.776409 0.130429
0.057112 0.774697 0.129878
0.062206 0.774009 0.129548
0.066958 0.774732 0.129522
0.071287 0.777317 0.129891
0.075137 0.782161 0.130740
0.078389 0.789973 0.132213
0.083881 0.787294 0.131503
0.089172 0.785409 0.130965
0.093855 0.786437 0.131042
0.098979 0.785163 0.130647
0.103824 0.785243 0.130540
0.108220 0.787715 0.130938
0.113007 0.788060 0.130901
0.117825 0.788179 0.130822
0.122801 0.787308 0.130545
0.128088 0.784417 0.129855
0.133633 0.779663 0.128785
0.138584 0.778407 0.128448
0.143353 0.778228 0.128341
0.148128 0.777936 0.128217
0.152742 0.778716 0.128320
0.157463 0.778704 0.128266
0.162009 0.779972 0.128482
0.166306 0.783268 0.129124
0.170876 0.784499 0.129344
0.176158 0.779632 0.128306
0.180918 0.778994 0.128150
0.185387 0.780972 0.128541
0.189628 0.785326 0.129429
0.193562 0.793226 0.131056
0.197988 0.796547 0.131740
0.202747 0.796352 0.131701
0.207383 0.797577 0.131961
0.212370 0.794397 0.131314
0.217584 0.787658 0.129935
0.222558 0.783444 0.129083
0.227093 0.785417 0.129517
0.231196 0.794967 0.131525
0.236222 0.789165 0.130358
0.240746 0.792306 0.131047
0.245567 0.789487 0.130506
0.250280 0.788602 0.130370
0.254830 0.792028 0.131132
0.259525 0.791760 0.131132
0.264361 0.785991 0.129996
0.269052 0.784389 0.129727
0.273711 0.783690 0.129649
0.278370 0.782431 0.129460
0.282919 0.793991 0.131937
0.287604 0.796072 0.132449
0.292303 0.795062 0.132323
0.296949 0.787010 0.130737
0.301583 0.784762 0.130360
0.306250 0.785916 0.130695
0.310949 0.788043 0.131237
0.315771 0.794255 0.132634
0.320561 0.797391 0.133395
0.325148 0.793731 0.132743
0.329635 0.788359 0.131736
0.334321 0.788637 0.131912
0.339070 0.790129 0.132346
0.343844 0.791782 0.132817
0.348680 0.794200 0.133453
0.353250 0.791970 0.133120
0.358193 0.795554 0.134008
0.363134 0.798587 0.134786
0.368270 0.803765 0.136018
0.373209 0.805886 0.136615
0.377306 0.797939 0.135101
0.381628 0.793252 0.134274
0.386300 0.792657 0.134310
0.391060 0.792955 0.134538
0.395701 0.792054 0.134518
0.400716 0.794594 0.135228
0.405912 0.798468 0.136225
0.410886 0.800121 0.136758
0.414760 0.792732 0.135384
0.419587 0.793253 0.135686
0.424304 0.792869 0.135801
0.429078 0.792879 0.136005
0.434061 0.794301 0.136512
0.440242 0.803705 0.138721
0.446463 0.812738 0.140860
0.451018 0.810579 0.140626
0.455564 0.808442 0.140400
0.459581 0.803216 0.139520
0.463552 0.797967 0.138638
0.468825 0.800333 0.139386
0.474849 0.806668 0.140992
0.480339 0.809751 0.141909
0.484476 0.805553 0.141271
0.487493 0.795788 0.139441
0.492254 0.795141 0.139574
0.498562 0.801990 0.141326
0.502783 0.798560 0.140872
0.507819 0.799020 0.141262
0.512800 0.799150 0.141588
0.518017 0.800273 0.142136
0.523721 0.803409 0.143128
0.529542 0.806860 0.144197
0.534093 0.804816 0.144080
0.537433 0.797862 0.142899
0.542060 0.796275 0.142893
0.548164 0.800483 0.144158
0.554249 0.804398 0.145371
0.564527 0.823922 0.150015
0.570130 0.825350 0.150708
0.570176 0.806477 0.146945
0.574422 0.803205 0.146613
0.579434 0.802677 0.146893
0.586330 0.808587 0.148604
0.587888 0.796178 0.146270
0.594387 0.800552 0.147659
0.602517 0.810049 0.150200
0.607224 0.808164 0.150221
0.612576 0.808315 0.150705
0.618819 0.811165 0.151800
0.622327 0.805494 0.150997
0.627209 0.804070 0.151152
0.631945 0.802197 0.151213
0.637247 0.801966 0.151650
0.644169 0.806330 0.153135
0.651695 0.812204 0.154975
0.658094 0.814701 0.156062
0.664755 0.817775 0.157292
0.669473 0.815438 0.157297
0.673342 0.810846 0.156792
0.680038 0.813746 0.158007
0.685119 0.812323 0.158238
0.691339 0.813789 0.159140
0.697785 0.815723 0.160157
0.703802 0.816484 0.160910
0.707595 0.811723 0.160387
0.712565 0.809882 0.160541
0.719591 0.812942 0.161839
0.723256 0.807974 0.161266
0.728682 0.807178 0.161667
0.734245 0.806680 0.162135
0.740102 0.806825 0.162754
0.745801 0.806584 0.163279
0.750411 0.803925 0.163227
0.759341 0.810714 0.165408
0.765270 0.810870 0.166012
0.770688 0.809929 0.166347
0.775321 0.807360 0.166282
0.780156 0.805275 0.166318
0.787502 0.808393 0.167585
0.793147 0.808009 0.167999
0.798351 0.806776 0.168191
0.802579 0.803671 0.167910
0.810045 0.807008 0.169163
0.816505 0.808366 0.169917
0.821691 0.807307 0.170061
0.827120 0.806789 0.170309
0.833718 0.808536 0.171081
0.839575 0.808941 0.171498
0.845686 0.809878 0.172014
0.850566 0.808641 0.171969
0.855204 0.807079 0.171811
0.862252 0.809933 0.172698
0.869080 0.812438 0.173467
0.874955 0.813329 0.173807
0.880136 0.813101 0.173838
0.885700 0.813639 0.174021
0.891263 0.814272 0.174192
0.896060 0.813709 0.174034
0.901496 0.814334 0.174132
0.906656 0.814602 0.174108
0.910958 0.813562 0.173730
0.913271 0.809396 0.172553
-0.205532 0.760559 0.127327
-0.197426 0.752668 0.126060
-0.190504 0.747122 0.125256
-0.187285 0.749030 0.125996
-0.187185 0.757408 0.128079
-0.182008 0.755704 0.128003
-0.178074 0.756656 0.128461
-0.174976 0.759493 0.129291
-0.170598 0.759824 0.129561
-0.161982 0.751293 0.127915
-0.159879 0.756671 0.129200
-0.159958 0.767008 0.131514
-0.151223 0.758383 0.129760
-0.148911 0.763901 0.130992
-0.144984 0.777216 0.133860
-0.138596 0.774120 0.133174
-0.133849 0.774850 0.133279
-0.127797 0.772620 0.132729
-0.118236 0.762081 0.130386
-0.115539 0.767857 0.131497
-0.116019 0.781587 0.134278
-0.114518 0.790844 0.136084
-0.099118 0.765637 0.130551
-0.094415 0.766906 0.130629
-0.089249 0.767051 0.130454
-0.084781 0.769048 0.130658
-0.080712 0.772176 0.131089
-0.077946 0.778897 0.132267
-0.072549 0.778663 0.131967
-0.064374 0.770756 0.130042
-0.058851 0.770030 0.129627
-0.054154 0.771617 0.129694
-0.050735 0.776924 0.130537
-0.045395 0.776735 0.130223
-0.041475 0.780743 0.130787
-0.038177 0.786729 0.131762
-0.029577 0.776549 0.129359
-0.022582 0.771011 0.127931
-0.016580 0.768398 0.127118
-0.010962 0.766888 0.126538
-0.007998 0.774010 0.127755
-0.004007 0.777887 0.128300
0.000303 0.780758 0.128639
0.007024 0.775301 0.127258
0.012233 0.774925 0.126935
0.016821 0.776707 0.127064
0.022168 0.775712 0.126625
0.027922 0.773087 0.125857
0.032744 0.773844 0.125793
0.037498 0.774830 0.125782
0.042572 0.774520 0.125511
0.047744 0.773729 0.125149
0.052493 0.774589 0.125133
0.056930 0.776725 0.125384
0.062190 0.775345 0.124922
0.066681 0.777221 0.125133
0.071440 0.777906 0.125108
0.075540 0.781585 0.125700
0.080316 0.782186 0.125671
0.084758 0.784355 0.125969
0.089940 0.782906 0.125535
0.094902 0.782434 0.125308
0.100410 0.779030 0.124492
0.104768 0.781519 0.124881
0.109176 0.783796 0.125233
0.113799 0.784928 0.125359
0.119631 0.779069 0.124073
0.124424 0.778988 0.123966
0.129141 0.779306 0.123947
0.134139 0.777809 0.123565
0.139032 0.776835 0.123297
0.143591 0.777986 0.123464
0.148236 0.778555 0.123520
0.152879 0.779113 0.123579
0.157516 0.779707 0.123651
0.162092 0.780749 0.123820
0.166360 0.784279 0.124497
0.171022 0.784755 0.124562
0.176281 0.780048 0.123584
0.181155 0.778367 0.123223
0.185794 0.778685 0.123272
0.190153 0.781737 0.123879
0.194108 0.789223 0.125387
0.198591 0.791682 0.125883
0.203570 0.788668 0.125278
0.207841 0.793832 0.126331
0.212094 0.799798 0.127552
0.217206 0.794739 0.126547
0.222323 0.788867 0.125383
0.226836 0.791544 0.125952
0.231197 0.797182 0.127124
0.235915 0.797176 0.127159
0.240664 0.796502 0.127063
0.245607 0.791324 0.126060
0.250440 0.787624 0.125360
0.255104 0.787646 0.125417
0.259625 0.792240 0.126405
0.264496 0.785096 0.125018
0.269147 0.785036 0.125070
0.273816 0.783795 0.124887
0.278468 0.782986 0.124795
0.283061 0.788804 0.126052
0.287703 0.796386 0.127671
0.292396 0.792287 0.126923
0.297039 0.786273 0.125789
0.301678 0.784951 0.125611
0.306347 0.786328 0.125986
0.311061 0.789184 0.126665
0.316000 0.799931 0.128955
