ply
format ascii 1.0
comment ---
element vertex 1771
property float x
property float y
property float z
element face 0
property list uchar uint vertex_indices
end_header
0.855669 0.808542 0.317150
0.861831 0.809121 0.318787
0.867813 0.809341 0.320290
0.873536 0.809091 0.321610
0.880333 0.810438 0.323629
0.886022 0.810004 0.324903
0.893434 0.812117 0.327291
0.899950 0.812784 0.329075
0.905697 0.812239 0.330351
0.911820 0.812190 0.331857
0.919159 0.813839 0.334122
0.924592 0.812663 0.335164
0.931790 0.813949 0.337305
0.938316 0.814205 0.339007
0.945257 0.814972 0.340950
0.954677 0.819065 0.344398
0.961805 0.819901 0.346409
0.969002 0.820755 0.348442
0.977139 0.822785 0.351021
0.983516 0.822399 0.352515
0.987756 0.819179 0.352720
0.992656 0.816825 0.353316
0.999354 0.816765 0.354965
1.007713 0.818762 0.357570
1.015534 0.819998 0.359829
1.022568 0.820192 0.361605
1.030805 0.821818 0.364052
1.040013 0.824558 0.367025
1.045817 0.823107 0.368020
1.051556 0.821576 0.368963
1.059579 0.822746 0.371177
1.066745 0.822866 0.372878
1.074452 0.823589 0.374855
1.080179 0.822008 0.375705
1.089010 0.823975 0.378247
1.099719 0.828013 0.381778
1.105184 0.826114 0.382404
1.110368 0.823935 0.382859
1.118977 0.825556 0.385144
1.126559 0.826037 0.386840
1.129373 0.821382 0.385964
1.136180 0.821086 0.387200
1.148481 0.826627 0.391303
1.154462 0.825459 0.392035
1.161118 0.825038 0.393097
1.165935 0.822752 0.393179
1.168764 0.818497 0.392221
1.185611 0.828575 0.398442
1.194688 0.830699 0.400620
1.203386 0.832447 0.402566
1.208628 0.830782 0.402735
1.212247 0.827586 0.402073
1.215789 0.824406 0.401365
1.219880 0.821849 0.400923
1.238072 0.832935 0.407421
1.244559 0.832731 0.408096
0.200943 0.764698 0.191645
0.203858 0.764449 0.192377
0.205366 0.774039 0.195956
0.210964 0.755935 0.191456
0.213632 0.758147 0.192854
0.215820 0.764328 0.195407
0.218756 0.765537 0.196490
0.221791 0.766390 0.197454
0.224950 0.766649 0.198226
0.228261 0.766019 0.198717
0.231525 0.766105 0.199403
0.234727 0.767115 0.200348
0.238213 0.765953 0.200627
0.241713 0.764937 0.200930
0.244330 0.773086 0.203974
0.246322 0.788890 0.209323
0.249453 0.794101 0.211472
0.255725 0.764021 0.202914
0.258570 0.772759 0.206092
0.261839 0.777461 0.208038
0.265985 0.771205 0.206632
0.269550 0.772963 0.207653
0.273387 0.771170 0.207575
0.277190 0.770094 0.207703
0.280566 0.777027 0.210278
0.284389 0.776789 0.210642
0.288272 0.775658 0.210720
0.292111 0.775792 0.211177
0.295948 0.776467 0.211793
0.299788 0.777780 0.212600
0.303620 0.780390 0.213803
0.307452 0.784686 0.215526
0.311441 0.783026 0.215394
0.315462 0.778328 0.214309
0.319411 0.778367 0.214695
0.323374 0.776519 0.214487
0.327336 0.779442 0.215770
0.331326 0.781432 0.216760
0.335356 0.784746 0.218168
0.339221 0.775720 0.215698
0.343160 0.774086 0.215548
0.347212 0.777277 0.216920
0.351132 0.775068 0.216590
0.355014 0.772338 0.216095
0.358977 0.772186 0.216417
0.363611 0.786787 0.221420
0.367251 0.778780 0.219259
0.371104 0.776016 0.218763
0.375049 0.775195 0.218887
0.379127 0.776533 0.219703
0.383108 0.776281 0.220017
0.386848 0.772810 0.219305
0.390899 0.773666 0.219982
0.394995 0.774926 0.220795
0.399171 0.776938 0.221856
0.403758 0.783090 0.224258
0.407718 0.782288 0.224429
0.412126 0.785850 0.226015
0.417089 0.794179 0.229154
0.420631 0.789278 0.228020
0.423554 0.779537 0.225316
0.428067 0.783422 0.227038
0.432102 0.783272 0.227457
0.436128 0.783039 0.227856
0.440376 0.784403 0.228783
0.444634 0.785722 0.229704
0.449728 0.792572 0.232447
0.453729 0.791811 0.232704
0.457675 0.790722 0.232859
0.460681 0.783898 0.231128
0.464039 0.779543 0.230211
0.467919 0.778425 0.230367
0.472254 0.779904 0.231391
0.476501 0.780795 0.232228
0.481367 0.784898 0.234144
0.486631 0.790831 0.236683
0.489505 0.784329 0.235077
0.493138 0.781857 0.234820
0.497443 0.782711 0.235685
0.501000 0.779971 0.235347
0.504972 0.779231 0.235688
0.508992 0.778700 0.236105
0.512797 0.777215 0.236205
0.517644 0.780232 0.237839
0.521465 0.778772 0.237961
0.524394 0.773660 0.236842
0.530519 0.781612 0.240188
0.536416 0.788306 0.243123
0.542041 0.793644 0.245610
0.546186 0.793110 0.246091
0.549634 0.789958 0.245677
0.556859 0.800699 0.250068
0.559943 0.796137 0.249180
0.564220 0.795903 0.249796
0.566740 0.789554 0.248290
0.572851 0.795598 0.251107
0.577514 0.796554 0.252161
0.581421 0.794955 0.252328
0.584071 0.789307 0.251076
0.588841 0.790535 0.252247
0.593568 0.791544 0.253350
0.597381 0.789672 0.253441
0.600191 0.784787 0.252467
0.614605 0.801089 0.259828
0.615553 0.790759 0.256925
0.618754 0.787092 0.256404
0.623299 0.787249 0.257260
0.630090 0.793545 0.260342
0.634893 0.794214 0.261407
0.638604 0.791900 0.261400
0.641438 0.787297 0.260564
0.643901 0.781817 0.259407
0.660349 0.800271 0.267884
0.659434 0.786291 0.263623
0.659708 0.775568 0.260544
0.664218 0.775351 0.261341
0.666380 0.769484 0.260049
0.689278 0.801288 0.273718
0.696442 0.806656 0.276674
0.703279 0.811096 0.279305
0.703962 0.801603 0.276704
0.707000 0.797505 0.276133
0.712482 0.798790 0.277604
0.717979 0.800025 0.279070
0.723055 0.800284 0.280179
0.725943 0.795889 0.279518
0.730885 0.795812 0.280516
0.738201 0.800550 0.283381
0.744559 0.803183 0.285456
0.749890 0.803645 0.286709
0.755327 0.804252 0.288032
0.760152 0.803596 0.288876
0.765948 0.804776 0.290451
0.770342 0.803199 0.290959
0.775374 0.802807 0.291943
0.781050 0.803568 0.293396
0.786969 0.804704 0.295015
0.792528 0.805100 0.296355
0.798243 0.805712 0.297798
0.804491 0.807200 0.299608
0.810800 0.808705 0.301445
0.815283 0.806940 0.301980
0.820587 0.806568 0.303089
0.825677 0.805781 0.304044
0.831845 0.806764 0.305736
0.838093 0.807799 0.307468
0.843590 0.807514 0.308675
0.849757 0.808264 0.310326
0.855704 0.808583 0.311816
0.861602 0.808753 0.313262
0.867657 0.809106 0.314801
0.874570 0.810725 0.316889
0.881326 0.812005 0.318856
0.887876 0.812879 0.320672
0.894284 0.813458 0.322381
0.900803 0.814125 0.324147
0.906986 0.814219 0.325686
0.913301 0.814441 0.327296
0.919321 0.814167 0.328708
0.924810 0.813076 0.329780
0.930886 0.812775 0.331206
0.938330 0.814337 0.333462
0.944822 0.814483 0.335114
0.953557 0.817645 0.338111
0.961177 0.819167 0.340405
0.968410 0.820078 0.342445
0.975801 0.821122 0.344558
0.982878 0.821674 0.346464
0.987977 0.819579 0.347188
0.993153 0.817571 0.347950
1.000117 0.817836 0.349744
1.007389 0.818437 0.351695
1.015047 0.819463 0.353847
1.022566 0.820250 0.355893
1.031719 0.822987 0.358843
1.039798 0.824323 0.361151
1.045908 0.823223 0.362323
1.052234 0.822370 0.363599
1.061136 0.824547 0.366286
1.070439 0.827123 0.369159
1.076801 0.826218 0.370378
1.083084 0.825220 0.371532
1.089518 0.824396 0.372748
1.098006 0.825890 0.375051
1.103424 0.823922 0.375669
1.109313 0.822505 0.376521
1.117946 0.824123 0.378811
1.127385 0.826592 0.381490
1.131787 0.823599 0.381479
1.135730 0.820181 0.381215
1.146907 0.824492 0.384702
1.154550 0.825040 0.386309
1.161546 0.824927 0.387551
1.166699 0.822940 0.387823
1.174312 0.823532 0.389329
1.184018 0.826267 0.391861
1.192985 0.828247 0.393978
1.200816 0.829098 0.395489
1.209813 0.831129 0.397549
1.215194 0.829616 0.397782
1.218471 0.826116 0.396962
1.224737 0.825606 0.397600
1.239786 0.833585 0.402488
1.245923 0.832996 0.402997
0.200234 0.768733 0.189341
0.204109 0.762357 0.188308
0.209012 0.748989 0.185245
0.209759 0.764194 0.190357
0.210890 0.777782 0.195015
0.214115 0.777057 0.195540
0.218429 0.768392 0.193743
0.221911 0.766035 0.193750
0.225057 0.766581 0.194583
0.228378 0.766060 0.195088
0.231559 0.767067 0.196023
0.234728 0.768630 0.197106
0.238081 0.768985 0.197817
0.241911 0.765139 0.197269
0.244695 0.771864 0.199833
0.246361 0.791350 0.206181
0.249224 0.799906 0.209282
0.254824 0.778034 0.203298
0.258598 0.776489 0.203349
0.261906 0.781196 0.205256
0.265653 0.780875 0.205645
0.270271 0.768166 0.202292
0.273930 0.769092 0.203022
0.277658 0.769398 0.203553
0.281349 0.770844 0.204418
0.285216 0.769456 0.204415
0.289090 0.768061 0.204398
0.292679 0.773789 0.206537
0.296549 0.773653 0.206887
0.300286 0.778222 0.208665
0.304160 0.779700 0.209496
0.308120 0.778444 0.209488
0.311986 0.782706 0.211163
0.316026 0.776670 0.209679
0.319956 0.778978 0.210750
0.323925 0.777576 0.210680
0.327896 0.780178 0.211840
0.331889 0.781450 0.212591
0.335740 0.769699 0.209320
0.339743 0.773283 0.210782
0.343653 0.770878 0.210394
0.347665 0.773060 0.211427
0.351645 0.773480 0.211917
0.355614 0.773394 0.212252
0.359628 0.774401 0.212931
0.363984 0.782573 0.215848
0.367815 0.778855 0.215063
0.371488 0.772944 0.213591
0.375541 0.774209 0.214367
0.379757 0.777764 0.215867
0.383535 0.774592 0.215261
0.387640 0.776159 0.216148
0.392067 0.781534 0.218243
0.396042 0.780964 0.218472
0.399749 0.777473 0.217781
0.403742 0.777336 0.218156
0.407867 0.778521 0.218956
0.411822 0.777948 0.219204
0.415819 0.777803 0.219594
0.419589 0.775663 0.219354
0.423373 0.773795 0.219205
0.427711 0.776523 0.220531
0.432975 0.786191 0.224091
0.436781 0.784253 0.223941
0.441212 0.786921 0.225278
0.445415 0.787805 0.226050
0.450123 0.791995 0.227897
0.455442 0.799875 0.230949
0.458370 0.792146 0.228959
0.461025 0.783184 0.226566
0.464736 0.780991 0.226371
0.468609 0.779827 0.226516
0.472487 0.778724 0.226686
0.476005 0.775690 0.226229
0.481982 0.785850 0.230102
0.487326 0.792177 0.232736
0.491795 0.793740 0.233816
0.494953 0.788728 0.232737
0.497765 0.782260 0.231176
0.501780 0.781712 0.231574
0.505513 0.779854 0.231544
0.511674 0.788934 0.235158
0.516634 0.792308 0.236889
0.518804 0.783532 0.234571
0.521786 0.778497 0.233500
0.524941 0.774348 0.232726
0.528796 0.773149 0.232946
0.534625 0.779752 0.235802
0.541024 0.788260 0.239319
0.545991 0.790965 0.240891
0.549648 0.788653 0.240771
0.552482 0.783382 0.239646
0.563004 0.805823 0.247976
0.565161 0.797967 0.245988
0.568942 0.795968 0.246002
0.574201 0.799013 0.247754
0.577936 0.796824 0.247715
0.580618 0.791219 0.246499
0.584088 0.788300 0.246212
0.588663 0.788937 0.247162
0.593018 0.788827 0.247861
0.595792 0.783827 0.246860
0.605277 0.799202 0.252988
0.605178 0.785577 0.248978
0.614771 0.800675 0.255053
0.616668 0.793104 0.253171
0.619727 0.789017 0.252514
0.623384 0.786679 0.252478
0.629715 0.791722 0.255069
0.633638 0.790045 0.255283
0.636939 0.786711 0.254910
0.643388 0.791715 0.257528
0.644858 0.783613 0.255453
0.653721 0.794608 0.260255
0.659326 0.797031 0.261989
0.666036 0.802088 0.264692
0.664722 0.787272 0.260191
0.658724 0.761475 0.251664
0.663846 0.762877 0.253037
0.676530 0.782014 0.260927
0.687002 0.795458 0.266774
0.693155 0.798593 0.268857
0.698201 0.799090 0.269982
0.702613 0.798107 0.270568
0.706599 0.796161 0.270804
0.711732 0.796714 0.271979
0.717965 0.799572 0.274031
0.724775 0.803533 0.276515
0.732231 0.808703 0.279475
0.734514 0.802968 0.278335
0.737464 0.798689 0.277745
0.744998 0.803733 0.280706
0.750477 0.804498 0.282058
0.755900 0.805081 0.283354
0.762326 0.807555 0.285391
0.766053 0.804709 0.285395
0.770993 0.804189 0.286305
0.775887 0.803539 0.287177
0.781861 0.804859 0.288829
0.787845 0.806112 0.290471
0.793338 0.806387 0.291747
0.798894 0.806711 0.293058
0.804841 0.807668 0.294634
0.809750 0.806718 0.295471
0.815031 0.806378 0.296563
0.820355 0.806060 0.297678
0.826397 0.806912 0.299277
0.832590 0.807937 0.300964
0.838508 0.808424 0.302452
0.843968 0.808086 0.303623
0.849261 0.807421 0.304675
0.855246 0.807823 0.306178
0.861251 0.808185 0.307682
0.867562 0.808960 0.309374
0.874294 0.810311 0.311322
0.881564 0.812400 0.313598
0.886558 0.810909 0.314406
0.893129 0.811766 0.316207
0.900101 0.813139 0.318245
0.907723 0.815380 0.320670
0.914305 0.815989 0.322428
0.919557 0.814599 0.323352
0.925281 0.813847 0.324561
0.931489 0.813734 0.326056
0.938241 0.814322 0.327868
0.945280 0.815234 0.329836
0.952175 0.815867 0.331700
0.961110 0.819199 0.334758
0.967427 0.818878 0.336240
0.974967 0.820135 0.338426
0.981727 0.820278 0.340135
0.988282 0.820094 0.341710
0.993960 0.818725 0.342763
1.001045 0.819130 0.344612
1.007305 0.818429 0.345971
1.013820 0.818012 0.347460
1.023997 0.822101 0.350993
1.029462 0.820274 0.351847
1.037390 0.821438 0.354062
1.045711 0.823013 0.356467
1.050259 0.820020 0.356764
1.060265 0.823500 0.360042
1.062028 0.817238 0.358790
1.077165 0.826571 0.364788
1.082483 0.824433 0.365426
1.088968 0.823643 0.366674
1.098175 0.825920 0.369349
1.104017 0.824389 0.370203
1.108140 0.820978 0.370132
1.116580 0.822358 0.372313
1.125340 0.824062 0.374626
1.130822 0.822214 0.375202
1.140266 0.824634 0.377802
1.147234 0.824407 0.379090
1.153968 0.823955 0.380232
1.161655 0.824521 0.381830
1.168685 0.824426 0.383065
1.176712 0.825377 0.384772
1.185363 0.826976 0.386757
1.191128 0.825681 0.387274
1.195728 0.823279 0.387194
1.210718 0.831235 0.392201
1.217746 0.831289 0.393250
1.220615 0.827333 0.392254
1.227348 0.827217 0.393120
1.238480 0.831370 0.396074
1.244553 0.830689 0.396566
1.248381 0.827944 0.395972
0.194324 0.787402 0.190288
0.199537 0.772795 0.186994
0.205308 0.754101 0.182508
0.210783 0.736795 0.178364
0.211591 0.751414 0.183213
0.211721 0.771990 0.189766
0.214273 0.776228 0.191683
0.218738 0.766571 0.189619
0.221813 0.767521 0.190562
0.225077 0.767358 0.191170
0.228407 0.766993 0.191702
0.232040 0.764351 0.191558
0.234599 0.771483 0.194224
0.238300 0.768934 0.194072
0.242357 0.763103 0.192943
0.244940 0.772035 0.196098
0.247205 0.785513 0.200577
0.250525 0.789012 0.202132
0.254603 0.784449 0.201308
0.259094 0.774716 0.198940
0.262311 0.780790 0.201208
0.266098 0.780154 0.201486
0.270408 0.772121 0.199561
0.274345 0.769207 0.199132
0.278067 0.769902 0.199761
0.281772 0.771438 0.200630
0.285559 0.772000 0.201199
0.289510 0.769398 0.200816
0.293387 0.768467 0.200921
0.297151 0.770919 0.202032
0.301123 0.767744 0.201450
0.304972 0.768663 0.202089
0.308898 0.766803 0.201888
0.312639 0.776001 0.205014
0.316589 0.775135 0.205107
0.320548 0.772923 0.204790
0.324482 0.776692 0.206280
0.328449 0.777636 0.206915
0.332382 0.772627 0.205745
0.336399 0.777541 0.207585
0.340288 0.772368 0.206362
0.344229 0.771582 0.206472
0.348217 0.772731 0.207173
0.352202 0.773358 0.207718
0.356193 0.773944 0.208254
0.360295 0.777001 0.209551
0.364402 0.779497 0.210681
0.368567 0.782634 0.212015
0.372463 0.780463 0.211722
0.375987 0.772560 0.209665
0.380199 0.776188 0.211165
0.384346 0.778386 0.212231
0.388383 0.778861 0.212771
0.392909 0.785302 0.215167
0.396973 0.785624 0.215674
0.400511 0.780075 0.214360
0.404178 0.776449 0.213646
0.408180 0.776483 0.214077
0.412271 0.777362 0.214778
0.416374 0.778244 0.215487
0.420228 0.776866 0.215494
0.423903 0.774095 0.215069
0.428138 0.776008 0.216121
0.432762 0.780755 0.218076
0.436669 0.779811 0.218244
0.440594 0.779035 0.218471
0.444541 0.778440 0.218762
0.450407 0.790720 0.223148
0.454779 0.792493 0.224212
0.457895 0.786234 0.222723
0.461245 0.781753 0.221801
0.465057 0.780237 0.221830
0.469218 0.780784 0.222525
0.473112 0.779776 0.222728
0.476911 0.778275 0.222778
0.481079 0.778775 0.223479
0.486456 0.785464 0.226187
0.491047 0.787825 0.227510
0.494861 0.786219 0.227554
0.498893 0.785702 0.227957
0.502160 0.781592 0.227195
0.505881 0.779706 0.227160
0.508877 0.774631 0.226085
0.513603 0.777310 0.227555
0.518195 0.779262 0.228797
0.521571 0.776000 0.228329
0.526729 0.780146 0.230311
0.530706 0.779340 0.230666
0.534703 0.778605 0.231050
0.540963 0.786599 0.234345
0.546252 0.790570 0.236317
0.549484 0.786705 0.235683
0.555903 0.794565 0.238979
0.560024 0.793873 0.239422
0.565643 0.798428 0.241637
0.571512 0.803641 0.244090
0.576663 0.806194 0.245658
0.578981 0.799179 0.243993
0.579495 0.786453 0.240380
0.584137 0.787403 0.241417
0.588558 0.787584 0.242199
0.592821 0.787219 0.242802
0.596584 0.785295 0.242876
0.599976 0.782273 0.242576
0.605981 0.787055 0.244973
0.614651 0.799429 0.250015
0.616926 0.792988 0.248556
0.620332 0.789901 0.248261
0.624578 0.789205 0.248802
0.628822 0.788481 0.249341
0.633611 0.789212 0.250397
0.638637 0.790509 0.251661
0.645227 0.795836 0.254359
0.650922 0.798649 0.256186
0.657525 0.803656 0.258806
0.664338 0.809008 0.261568
0.669613 0.810342 0.262915
0.668779 0.796613 0.258883
0.667090 0.781141 0.254206
0.669904 0.776780 0.253506
0.680912 0.791787 0.259800
0.690348 0.802697 0.264652
0.694879 0.802026 0.265331
0.698229 0.798652 0.265033
0.702552 0.797490 0.265546
0.706909 0.796382 0.266087
0.711517 0.795801 0.266829
0.717566 0.798284 0.268712
0.727253 0.808385 0.273430
0.734787 0.813666 0.276393
0.740593 0.815187 0.277981
0.742491 0.808620 0.276561
0.747594 0.808640 0.277607
0.751177 0.805571 0.277503
0.755726 0.804428 0.278131
0.761275 0.805209 0.279496
0.769051 0.810213 0.282481
0.773507 0.808718 0.283014
0.777209 0.805785 0.283006
0.782647 0.806096 0.284249
0.789572 0.809079 0.286536
0.794807 0.808864 0.287609
0.799727 0.808029 0.288454
0.804779 0.807393 0.289389
0.809839 0.806726 0.290325
0.815254 0.806632 0.291498
0.820902 0.806882 0.292822
0.827510 0.808701 0.294781
0.833096 0.808700 0.296039
0.838560 0.808437 0.297209
0.844024 0.808118 0.298371
0.849566 0.807872 0.299578
0.855071 0.807510 0.300753
0.861407 0.808416 0.302455
0.867393 0.808689 0.303921
0.873890 0.809690 0.305700
0.880149 0.810240 0.307314
0.886306 0.810558 0.308852
0.892074 0.810219 0.310136
0.900706 0.814099 0.313182
0.906286 0.813323 0.314323
0.911444 0.811884 0.315201
0.919673 0.814851 0.317936
0.923810 0.811835 0.318180
0.932662 0.815498 0.321252
0.938642 0.814992 0.322583
0.944769 0.814638 0.323991
0.951908 0.815618 0.325984
0.960655 0.818702 0.328899
0.967428 0.819004 0.330637
0.974110 0.819119 0.332307
0.982065 0.820849 0.334693
0.987394 0.819058 0.335556
0.994428 0.819449 0.337379
1.001823 0.820239 0.339389
1.007871 0.819252 0.340620
1.014396 0.818833 0.342106
1.022831 0.820742 0.344635
1.029448 0.820332 0.346132
1.034917 0.818489 0.346982
1.044028 0.821030 0.349807
1.051154 0.821112 0.351521
1.054732 0.816967 0.351298
1.065918 0.821772 0.355156
1.071648 0.820134 0.356055
1.079349 0.820764 0.357983
1.087315 0.821663 0.360024
1.098962 0.826675 0.363967
1.105030 0.825355 0.364945
1.110535 0.823427 0.365610
1.117718 0.823369 0.367125
1.124238 0.822592 0.368272
1.133217 0.824478 0.370651
1.139431 0.823388 0.371586
1.147476 0.824265 0.373425
1.158116 0.827863 0.376535
1.162253 0.824660 0.376345
1.170308 0.825571 0.378092
1.178473 0.826605 0.379860
1.189098 0.830143 0.382805
1.193313 0.827215 0.382565
1.195267 0.822117 0.381211
1.215947 0.835650 0.388925
1.218143 0.830880 0.387639
1.219954 0.825852 0.386166
1.226931 0.825934 0.387156
1.232482 0.824694 0.387444
1.244550 0.829720 0.390786
1.249265 0.827776 0.390631
1.255605 0.827433 0.391222
0.192011 0.783115 0.184753
0.195319 0.780633 0.184864
0.200049 0.769141 0.182467
0.204675 0.758095 0.180158
0.208164 0.754524 0.179891
0.211275 0.753726 0.180375
0.212974 0.763301 0.183743
0.215104 0.770575 0.186465
0.218260 0.770847 0.187213
0.221915 0.767588 0.186947
0.225223 0.767271 0.187492
0.228572 0.766939 0.188014
0.231828 0.767762 0.188847
0.235258 0.767445 0.189339
0.238830 0.766156 0.189535
0.242218 0.766913 0.190299
0.245412 0.770075 0.191738
0.248324 0.776907 0.194220
0.252466 0.771099 0.193050
0.256136 0.770610 0.193394
0.259690 0.771865 0.194228
0.262865 0.778617 0.196644
0.266709 0.777299 0.196708
0.270771 0.772948 0.195875
0.274666 0.771013 0.195729
0.278466 0.770790 0.196072
0.282179 0.772514 0.196973
0.285984 0.773084 0.197528
0.289989 0.769630 0.196894
0.293856 0.769237 0.197149
0.297707 0.769608 0.197622
0.301560 0.770443 0.198227
0.305449 0.770602 0.198627
0.309366 0.769969 0.198789
0.313243 0.772067 0.199756
0.317140 0.774884 0.200935
0.321090 0.774498 0.201163
0.325038 0.777026 0.202257
0.329017 0.779779 0.203419
0.332984 0.777606 0.203114
0.336950 0.776744 0.203199
0.340892 0.774804 0.202962
0.344846 0.774122 0.203102
0.348847 0.775268 0.203793
0.352785 0.774122 0.203798
0.356859 0.776830 0.204965
0.360849 0.776935 0.205353
0.364895 0.778190 0.206092
0.369022 0.780734 0.207226
0.372998 0.780194 0.207433
0.376504 0.772161 0.205373
0.380604 0.774165 0.206357
0.384870 0.778197 0.207966
0.388991 0.779825 0.208851
0.393231 0.782706 0.210125
0.397544 0.786100 0.211565
0.401495 0.785152 0.211685
0.404718 0.776715 0.209514
0.408674 0.776331 0.209814
0.412658 0.776238 0.210209
0.416885 0.778332 0.211283
0.420853 0.777990 0.211614
0.424651 0.776247 0.211519
0.428542 0.775365 0.211694
0.432781 0.777201 0.212718
0.436976 0.778552 0.213600
0.440818 0.777265 0.213668
0.445709 0.783284 0.216020
0.449540 0.781805 0.216043
0.454590 0.788272 0.218559
0.458290 0.785860 0.218303
0.461540 0.780825 0.217227
0.465580 0.780712 0.217701
0.469709 0.781091 0.218338
0.473725 0.780787 0.218765
0.477780 0.780676 0.219260
0.481924 0.781012 0.219903
0.486160 0.781769 0.220687
0.490006 0.780498 0.220833
0.494656 0.783198 0.222252
0.498651 0.782598 0.222625
0.502584 0.781699 0.222908
0.506891 0.782514 0.223747
0.509933 0.777611 0.222752
0.512814 0.772178 0.221585
0.515489 0.766067 0.220197
0.521673 0.774849 0.223639
0.529214 0.788794 0.228780
0.533828 0.790385 0.229921
0.537414 0.787831 0.229718
0.542437 0.790880 0.231352
0.545693 0.787086 0.230752
0.549053 0.783785 0.230315
0.555189 0.790672 0.233240
0.559057 0.789162 0.233406
0.562345 0.785631 0.232908
0.571229 0.801469 0.238845
0.576159 0.803326 0.240159
0.578257 0.795650 0.238301
0.579635 0.785840 0.235723
0.584210 0.786596 0.236680
0.588638 0.786824 0.237469
0.592850 0.786326 0.238021
0.596837 0.785116 0.238338
0.602569 0.789157 0.240440
0.608823 0.794578 0.243027
0.614496 0.798089 0.244980
0.617415 0.793535 0.244190
0.620936 0.790780 0.244017
0.625039 0.789686 0.244417
0.630846 0.793260 0.246431
0.637360 0.798598 0.249070
0.642178 0.799213 0.250090
0.648960 0.804928 0.252892
0.652140 0.801104 0.252390
0.658647 0.805838 0.254879
0.664456 0.808639 0.256709
0.667462 0.804351 0.256063
0.671224 0.801988 0.256094
0.674176 0.797681 0.255444
0.678045 0.795632 0.255594
0.687799 0.807437 0.260674
0.697657 0.819125 0.265747
0.701974 0.817763 0.266187
0.702448 0.807693 0.263511
0.702674 0.797276 0.260698
0.706778 0.795627 0.261037
0.712720 0.797970 0.262827
0.718649 0.800179 0.264585
0.726845 0.807096 0.268074
0.736511 0.816876 0.272636
0.742633 0.819024 0.274435
0.744958 0.813299 0.273353
0.748226 0.809566 0.273005
0.750399 0.803683 0.271863
0.752238 0.797227 0.270506
0.755927 0.794479 0.270528
0.767876 0.807662 0.276513
0.777574 0.816196 0.280799
0.784162 0.818624 0.282821
0.789833 0.819232 0.284175
0.793226 0.815580 0.283929
0.797641 0.813812 0.284404
0.800931 0.810005 0.284110
0.806207 0.809757 0.285183
0.811249 0.809046 0.286092
0.816017 0.807815 0.286813
0.822024 0.808683 0.288358
0.827910 0.809268 0.289811
0.833575 0.809408 0.291107
0.838854 0.808843 0.292143
0.844728 0.809207 0.293559
0.850020 0.808556 0.294590
0.855992 0.808952 0.296051
0.862523 0.810166 0.297854
0.868240 0.810011 0.299131
0.873222 0.808649 0.299940
0.880437 0.810696 0.302133
0.886482 0.810851 0.303585
0.892371 0.810704 0.304932
0.900617 0.814015 0.307704
0.905671 0.812475 0.308518
0.910949 0.811229 0.309465
0.916444 0.810259 0.310538
0.925450 0.814271 0.313688
0.932086 0.814777 0.315410
0.938332 0.814662 0.316889
0.943742 0.813324 0.317870
0.949733 0.812747 0.319182
0.961121 0.819457 0.323591
0.966254 0.817549 0.324375
0.972190 0.816687 0.325610
0.981787 0.820610 0.328908
0.987674 0.819551 0.330085
0.993515 0.818393 0.331226
1.000652 0.818860 0.333078
1.010572 0.822788 0.336450
1.017551 0.822895 0.338169
1.021276 0.818910 0.338091
1.028764 0.819579 0.340059
1.036550 0.820551 0.342167
1.044175 0.821266 0.344163
1.052498 0.822759 0.346509
1.058350 0.821265 0.347511
1.063592 0.819052 0.348176
1.071626 0.820086 0.350298
1.079066 0.820391 0.352081
1.088688 0.823149 0.354974
1.096605 0.823914 0.356945
1.105708 0.825974 0.359498
1.111274 0.824074 0.360203
1.117007 0.822384 0.360975
1.127277 0.825649 0.364028
1.134245 0.825302 0.365372
1.140141 0.823825 0.366153
1.146747 0.823133 0.367266
1.159623 0.829035 0.371465
1.165034 0.827101 0.371922
1.167483 0.822171 0.370906
1.178706 0.826307 0.374170
1.184860 0.825269 0.374923
1.189045 0.822304 0.374702
1.202219 0.828373 0.378786
1.213461 0.832472 0.381888
1.218691 0.830655 0.382085
1.220834 0.825906 0.380806
1.223347 0.821632 0.379699
1.231979 0.823328 0.381450
1.237775 0.822350 0.381849
1.261073 0.837945 0.390322
1.257611 0.828303 0.386383
1.263881 0.827900 0.386924
0.195356 0.761948 0.175500
0.198406 0.760761 0.175934
0.200520 0.765868 0.178061
0.203433 0.766232 0.178889
0.206786 0.763949 0.178978
0.209676 0.765090 0.179986
0.212886 0.764334 0.180459
0.215427 0.768794 0.182353
0.218229 0.771878 0.183856
0.221861 0.769014 0.183696
0.225378 0.767249 0.183820
0.228635 0.767897 0.184597
0.231986 0.768136 0.185243
0.235367 0.768481 0.185903
0.238942 0.767417 0.186149
0.242591 0.765916 0.186254
0.245990 0.767198 0.187127
0.249242 0.770524 0.188564
0.253075 0.768075 0.188351
0.256610 0.769247 0.189150
0.260206 0.770160 0.189862
0.263667 0.773330 0.191205
0.266956 0.779683 0.193449
0.271061 0.775076 0.192548
0.275033 0.772287 0.192153
0.278947 0.770424 0.192010
0.282716 0.771357 0.192661
0.286571 0.771038 0.192943
0.290428 0.770969 0.193289
0.294374 0.768951 0.193065
0.298270 0.768232 0.193208
0.302059 0.771315 0.194449
0.305977 0.770760 0.194631
0.309929 0.768632 0.194352
0.313734 0.775639 0.196729
0.317685 0.775399 0.196995
0.321623 0.778409 0.198209
0.325594 0.784326 0.200276
0.329599 0.784436 0.200646
0.333568 0.780171 0.199733
0.337547 0.779262 0.199804
0.341474 0.776002 0.199184
0.345448 0.775954 0.199509
0.349432 0.776212 0.199927
0.353428 0.776733 0.200426
0.357360 0.775447 0.200395
0.361430 0.777592 0.201382
0.365400 0.777241 0.201635
0.369181 0.773375 0.200847
0.373295 0.775914 0.201966
0.377174 0.774310 0.201858
0.381427 0.778452 0.203468
0.385369 0.777754 0.203641
0.389602 0.780891 0.204966
0.393696 0.781971 0.205683
0.398143 0.786966 0.207583
0.402574 0.791259 0.209283
0.405900 0.783686 0.207416
0.409808 0.782545 0.207490
0.413427 0.778781 0.206776
0.417205 0.776767 0.206594
0.421265 0.777325 0.207196
0.425228 0.777027 0.207546
0.429016 0.775334 0.207476
0.433097 0.775994 0.208129
0.437259 0.777173 0.208948
0.441710 0.780312 0.210374
0.445155 0.776296 0.209616
0.450236 0.783399 0.212277
0.454271 0.783285 0.212730
0.458741 0.785869 0.214022
0.462004 0.780957 0.213007
0.466145 0.781470 0.213673
0.470247 0.781694 0.214256
0.474234 0.781237 0.214634
0.478365 0.781557 0.215260
0.483419 0.786693 0.217398
0.487662 0.787362 0.218150
0.491689 0.786884 0.218551
0.494823 0.782033 0.217583
0.499003 0.782362 0.218246
0.503231 0.782871 0.218974
0.507428 0.783175 0.219643
0.513340 0.791073 0.222728
0.517448 0.790721 0.223209
0.518363 0.776736 0.219354
0.524815 0.786416 0.223039
0.529515 0.788495 0.224313
0.534749 0.792588 0.226243
0.539967 0.796420 0.228102
0.544081 0.795810 0.228542
0.546199 0.787650 0.226550
0.548638 0.780946 0.225023
0.554369 0.786419 0.227444
0.557253 0.781491 0.226497
0.560887 0.779329 0.226451
0.567024 0.785816 0.229235
0.574744 0.797390 0.233704
0.578331 0.794790 0.233542
0.581488 0.790830 0.232935
0.584737 0.787257 0.232456
0.589228 0.787680 0.233301
0.593250 0.786593 0.233653
0.597533 0.786298 0.234273
0.604594 0.794325 0.237677
0.611360 0.801185 0.240712
0.615460 0.800016 0.241074
0.618221 0.794997 0.240146
0.621718 0.792163 0.239953
0.626113 0.791875 0.240624
0.633040 0.798497 0.243645
0.639800 0.804430 0.246452
0.646451 0.809853 0.249104
0.650242 0.807567 0.249139
0.657049 0.813109 0.251862
0.658198 0.804006 0.249569
0.668373 0.805968 0.251928
0.675554 0.811967 0.254864
0.679485 0.809906 0.255017
0.683785 0.808730 0.255485
0.689343 0.810499 0.256989
0.695544 0.813664 0.258996
0.703295 0.820251 0.262225
0.704701 0.812271 0.260333
0.703157 0.797864 0.256158
0.707466 0.796671 0.256656
0.711948 0.795835 0.257289
0.717704 0.797710 0.258899
0.726056 0.804997 0.262465
0.734024 0.811250 0.265687
0.738932 0.810966 0.266574
0.739909 0.802595 0.264543
0.744642 0.801965 0.265316
0.749027 0.800602 0.265833
0.749031 0.790578 0.263190
0.779009 0.818650 0.276664
0.785192 0.820299 0.278370
0.789997 0.819289 0.279105
0.793252 0.815396 0.278774
0.802202 0.821890 0.282337
0.806320 0.819494 0.282590
0.809647 0.815688 0.282318
0.812582 0.811221 0.281800
0.817872 0.810887 0.282855
0.822601 0.809537 0.283536
0.828789 0.810640 0.285167
0.833802 0.809683 0.286025
0.839316 0.809518 0.287201
0.845160 0.809839 0.288580
0.851036 0.810145 0.289970
0.856779 0.810169 0.291267
0.864439 0.813181 0.293750
0.869123 0.811379 0.294366
0.874068 0.809959 0.295144
0.880289 0.810472 0.296700
0.887211 0.811980 0.298670
0.893358 0.812223 0.300157
0.898912 0.811509 0.301277
0.906503 0.813756 0.303604
0.911487 0.812079 0.304368
0.917292 0.811559 0.305613
0.923934 0.812183 0.307340
0.931884 0.814583 0.309813
0.937840 0.814072 0.311112
0.943177 0.812646 0.312047
0.950063 0.813314 0.313862
0.956988 0.813955 0.315682
0.965474 0.816621 0.318368
0.971924 0.816459 0.319887
0.980741 0.819358 0.322712
0.987502 0.819453 0.324371
0.992878 0.817698 0.325252
0.999127 0.817035 0.326604
1.007296 0.818759 0.328990
1.012966 0.817261 0.329997
1.022873 0.820999 0.333277
1.030137 0.821364 0.335107
1.036943 0.821115 0.336672
1.046057 0.823606 0.339442
1.053618 0.824152 0.341361
1.059030 0.822107 0.342132
1.064688 0.820353 0.343019
1.072029 0.820551 0.344765
1.079828 0.821240 0.346724
1.089443 0.823955 0.349587
1.095403 0.822481 0.350548
1.104276 0.824266 0.352969
1.111571 0.824260 0.354560
1.118704 0.824066 0.356043
1.128361 0.826611 0.358761
1.135422 0.826317 0.360149
1.140909 0.824354 0.360733
1.147046 0.823120 0.361618
1.155219 0.824051 0.363477
1.164042 0.825656 0.365619
1.170334 0.824649 0.366500
1.176389 0.823442 0.367243
1.183537 0.823386 0.368487
1.191130 0.823809 0.369915
1.204934 0.830438 0.374254
1.212882 0.831217 0.375774
1.218450 0.829691 0.376146
1.220837 0.825142 0.375017
1.225451 0.822854 0.374917
1.231607 0.822121 0.375515
1.239165 0.822779 0.376734
1.250878 0.827390 0.379821
1.262118 0.831542 0.382646
1.267092 0.829866 0.382598
0.192816 0.759777 0.170712
0.195562 0.760295 0.171598
0.197857 0.763972 0.173314
0.200349 0.766848 0.174806
0.203407 0.766430 0.175405
0.206400 0.766755 0.176187
0.209967 0.763415 0.175964
0.212552 0.767250 0.177662
0.215583 0.768364 0.178610
0.218566 0.770254 0.179755
0.221558 0.772538 0.180992
0.225460 0.767965 0.180337
0.228897 0.767331 0.180741
0.232197 0.768195 0.181538
0.235456 0.769861 0.182541
0.238735 0.771842 0.183616
0.242424 0.770344 0.183712
0.245595 0.774373 0.185326
0.248923 0.777478 0.186672
0.252297 0.780748 0.188052
0.255821 0.782951 0.189124
0.260090 0.776483 0.187754
0.263780 0.777259 0.188397
0.267786 0.774049 0.187908
0.271398 0.776683 0.189050
0.275229 0.776525 0.189396
0.278970 0.778279 0.190273
0.282620 0.782430 0.191820
0.286593 0.780953 0.191767
0.290552 0.779855 0.191814
0.294541 0.778027 0.191645
0.298623 0.773224 0.190623
0.302592 0.771183 0.190380
0.306520 0.770430 0.190498
0.310369 0.773857 0.191809
0.314355 0.770453 0.191163
0.318248 0.774157 0.192552
0.322149 0.785061 0.196010
0.326156 0.785829 0.196562
0.330155 0.783022 0.196086
0.334165 0.783726 0.196621
0.338132 0.780970 0.196158
0.342043 0.776589 0.195226
0.345983 0.775119 0.195135
0.349952 0.775045 0.195451
0.353971 0.776448 0.196199
0.357913 0.775530 0.196277
0.361898 0.775786 0.196700
0.365739 0.773025 0.196247
0.369742 0.773799 0.196829
0.373859 0.776378 0.197944
0.377857 0.776686 0.198401
0.381755 0.775481 0.198420
0.385958 0.778614 0.199717
0.390247 0.782448 0.201230
0.394402 0.784214 0.202142
0.398770 0.788208 0.203719
0.402979 0.790065 0.204674
0.406807 0.787794 0.204414
0.410853 0.787869 0.204854
0.414256 0.781924 0.203511
0.418232 0.781588 0.203838
0.422344 0.782432 0.204523
0.426142 0.780611 0.204419
0.429442 0.774975 0.203176
0.433576 0.776082 0.203957
0.438418 0.782285 0.206277
0.443448 0.789374 0.208877
0.447899 0.791992 0.210143
0.451031 0.785671 0.208716
0.454758 0.783547 0.208560
0.458414 0.781075 0.208302
0.462606 0.781964 0.209069
0.466318 0.779950 0.208960
0.470963 0.783345 0.210505
0.474829 0.782199 0.210672
0.478580 0.780460 0.210663
0.484101 0.788091 0.213535
0.489438 0.794357 0.216004
0.492582 0.789319 0.215001
0.495217 0.782002 0.213293
0.499507 0.782877 0.214120
0.503849 0.783922 0.215007
0.507867 0.783408 0.215417
0.513591 0.790465 0.218193
0.517347 0.788616 0.218203
0.521633 0.789070 0.218938
0.524920 0.785299 0.218353
0.528628 0.783364 0.218347
0.532272 0.781215 0.218277
0.537223 0.784234 0.219845
0.541229 0.783462 0.220222
0.545766 0.784686 0.221238
0.550440 0.786327 0.222396
0.554932 0.787205 0.223319
0.561498 0.795404 0.226594
0.561487 0.780254 0.222397
0.567917 0.787736 0.225461
0.575124 0.797540 0.229293
0.579350 0.797073 0.229827
0.581694 0.790442 0.228370
0.585858 0.789826 0.228864
0.589871 0.788710 0.229200
0.593668 0.786922 0.229321
0.597337 0.784757 0.229323
0.604129 0.792003 0.232419
0.610488 0.797700 0.235024
0.615668 0.799743 0.236440
0.618598 0.795227 0.235696
0.622501 0.793552 0.235895
0.625778 0.790140 0.235520
0.633645 0.799369 0.239364
0.635797 0.792848 0.237964
0.640762 0.793960 0.239120
0.651174 0.809284 0.245067
0.654675 0.806255 0.244859
0.659660 0.807052 0.245948
0.660760 0.798009 0.243708
0.668354 0.805276 0.247009
0.676581 0.813848 0.250779
0.685123 0.822903 0.254740
0.684769 0.810485 0.251355
0.686475 0.803185 0.249717
0.693637 0.808685 0.252494
0.701319 0.815184 0.255638
0.701366 0.804217 0.252736
0.704011 0.799276 0.251919
0.707643 0.796585 0.251890
0.712588 0.796769 0.252872
0.717081 0.795929 0.253505
0.725711 0.803835 0.257233
0.732552 0.807749 0.259575
0.735878 0.804245 0.259302
0.740143 0.802694 0.259728
0.744261 0.800831 0.260050
0.748853 0.799909 0.260716
0.748635 0.789471 0.257967
0.766543 0.804501 0.265438
0.778725 0.817820 0.271329
0.783768 0.817344 0.272234
0.786866 0.813208 0.271809
0.787913 0.805339 0.270017
0.792887 0.804731 0.270894
0.799727 0.807434 0.273008
0.807347 0.811408 0.275614
0.816863 0.818565 0.279432
0.822732 0.819171 0.280833
0.823762 0.811387 0.279100
0.828939 0.810762 0.280059
0.833962 0.809833 0.280915
0.839369 0.809504 0.282012
0.846604 0.812127 0.284248
0.853233 0.813645 0.286085
0.858356 0.812647 0.286976
0.863720 0.811991 0.288012
0.869231 0.811517 0.289132
0.874320 0.810333 0.289991
0.880008 0.810033 0.291209
0.887441 0.812338 0.293462
0.893193 0.811993 0.294698
0.899275 0.812083 0.296120
0.905931 0.812954 0.297870
0.912600 0.813761 0.299613
0.917818 0.812386 0.300504
0.924211 0.812656 0.302067
0.932001 0.814834 0.304418
0.938017 0.814414 0.305740
0.944170 0.814126 0.307130
0.950903 0.814576 0.308837
0.958537 0.816176 0.311033
0.965030 0.816144 0.312576
0.974004 0.819355 0.315477
0.980246 0.818833 0.316850
0.986390 0.818131 0.318160
0.993483 0.818608 0.319973
0.999568 0.817726 0.321227
1.006260 0.817571 0.322795
1.013385 0.817906 0.324580
1.021361 0.819236 0.326798
1.030410 0.821805 0.329560
1.039506 0.824331 0.332316
1.046238 0.823908 0.333809
1.053021 0.823510 0.335312
1.060439 0.823827 0.337124
1.067370 0.823529 0.338664
1.072996 0.821688 0.339517
1.080029 0.821464 0.341072
1.088724 0.823107 0.343445
1.096917 0.824128 0.345535
1.104331 0.824241 0.347206
1.112431 0.825092 0.349192
1.120492 0.825875 0.351130
1.128332 0.826394 0.352928
1.136446 0.827196 0.354832
1.142934 0.826252 0.355912
1.147130 0.822911 0.355859
1.150288 0.818551 0.355293
1.165484 0.826771 0.360493
1.171650 0.825579 0.361317
1.178193 0.824815 0.362298
1.185683 0.825046 0.363700
1.193555 0.825685 0.365253
1.206369 0.831262 0.369082
1.215616 0.833265 0.371199
1.215902 0.826506 0.369138
1.220838 0.824410 0.369220
1.229098 0.825592 0.370806
1.236336 0.825824 0.371895
1.243923 0.826432 0.373116
1.251019 0.826617 0.374088
1.259389 0.828042 0.375605
1.271492 0.832961 0.378754
1.277214 0.831984 0.379030
0.188550 0.768037 0.168662
0.192411 0.761823 0.167796
0.195427 0.760841 0.168272
0.197943 0.763272 0.169627
0.200369 0.766707 0.171235
0.203431 0.766412 0.171849
0.207167 0.761834 0.171313
0.209528 0.766939 0.173324
0.212489 0.768355 0.174344
0.215793 0.767661 0.174786
0.218734 0.770035 0.176032
0.222327 0.767794 0.176023
0.225645 0.767982 0.176649
0.228990 0.768314 0.177297
0.232496 0.767632 0.177653
0.235888 0.768293 0.178356
0.238215 0.779372 0.181876
0.241877 0.778682 0.182186
0.245898 0.774616 0.181557
0.249095 0.779372 0.183323
0.252370 0.784100 0.185071
0.255766 0.788253 0.186652
0.259987 0.782880 0.185601
0.264062 0.779145 0.184984
0.268026 0.776858 0.184751
0.271951 0.775182 0.184674
0.275534 0.779204 0.186165
0.278939 0.787375 0.188802
0.282802 0.788520 0.189485
0.286765 0.788086 0.189720
0.290876 0.784381 0.189037
0.294983 0.780175 0.188204
0.299021 0.777189 0.187705
0.303008 0.775338 0.187517
0.306975 0.773961 0.187457
0.311012 0.768440 0.186229
0.314896 0.770739 0.187196
0.318770 0.777416 0.189397
0.322748 0.774669 0.188943
0.326710 0.778709 0.190406
0.330731 0.785636 0.192689
0.334739 0.784963 0.192825
0.338691 0.780989 0.192027
0.342599 0.776679 0.191132
0.346551 0.775758 0.191200
0.350511 0.775368 0.191423
0.354478 0.775263 0.191730
0.358453 0.775397 0.192109
0.362323 0.773159 0.191813
0.366279 0.773095 0.192143
0.370345 0.775058 0.193059
0.374468 0.777689 0.194174
0.378313 0.775562 0.193926
0.382307 0.775909 0.194395
0.386477 0.778598 0.195547
0.390793 0.782809 0.197146
0.394858 0.783515 0.197740
0.399304 0.788456 0.199569
0.403203 0.786999 0.199549
0.406905 0.783669 0.198988
0.410498 0.779574 0.198207
0.414988 0.784175 0.199969
0.419331 0.787057 0.201238
0.423401 0.787360 0.201761
0.427160 0.785071 0.201528
0.430123 0.776670 0.199501
0.433903 0.775067 0.199475
0.439619 0.787706 0.203661
0.444353 0.792527 0.205554
0.448280 0.791484 0.205720
0.451519 0.785949 0.204556
0.453960 0.775619 0.201965
0.458873 0.781228 0.204122
0.462934 0.781345 0.204651
0.467164 0.782417 0.205472
0.471584 0.784473 0.206597
0.475473 0.783454 0.206805
0.478382 0.777178 0.205435
0.482951 0.779904 0.206781
0.489800 0.794116 0.211613
0.494066 0.794706 0.212339
0.495634 0.782106 0.209062
0.499758 0.782212 0.209646
0.503720 0.781520 0.209992
0.508130 0.782863 0.210967
0.511731 0.780514 0.210817
0.516265 0.782281 0.211936
0.522344 0.790500 0.215051
0.525156 0.784749 0.213870
0.528852 0.782795 0.213863
0.533151 0.783291 0.214620
0.537415 0.783591 0.215322
0.541798 0.784295 0.216157
0.545966 0.784122 0.216725
0.550628 0.785741 0.217861
0.554201 0.783314 0.217736
0.557817 0.781087 0.217676
0.561728 0.779932 0.217957
0.570140 0.794226 0.223130
0.576771 0.801973 0.226256
0.580750 0.800624 0.226509
0.581678 0.789338 0.223599
0.586196 0.789886 0.224459
0.590016 0.788177 0.224604
0.593225 0.784587 0.224148
0.596991 0.782768 0.224264
0.602340 0.785717 0.225923
0.607604 0.788277 0.227468
0.615232 0.797596 0.231219
0.618467 0.794004 0.230790
0.621558 0.790068 0.230250
0.626383 0.791026 0.231312
0.631159 0.791778 0.232315
0.631588 0.780734 0.229445
0.633371 0.773568 0.227841
0.644053 0.789887 0.234006
0.653132 0.801562 0.238668
0.660628 0.808833 0.241893
0.664832 0.807581 0.242295
0.665024 0.796375 0.239370
0.678739 0.818489 0.247620
0.685144 0.822332 0.249769
0.687471 0.816320 0.248605
0.688980 0.808496 0.246825
0.693851 0.808624 0.247739
0.702323 0.816938 0.251453
0.704008 0.809664 0.249864
0.702803 0.796083 0.246106
0.707087 0.794881 0.246588
0.713181 0.797594 0.248427
0.718338 0.798179 0.249546
0.723752 0.799248 0.250844
0.731349 0.804811 0.253720
0.737370 0.806928 0.255415
0.739761 0.801528 0.254489
0.744360 0.800664 0.255158
0.748324 0.798502 0.255377
0.755149 0.801978 0.257600
0.764083 0.809431 0.261255
0.769623 0.810124 0.262529
0.776156 0.812635 0.264468
0.774242 0.799147 0.260682
0.780406 0.800931 0.262376
0.782630 0.795381 0.261436
0.791506 0.801991 0.264906
0.794642 0.798082 0.264577
0.804493 0.806135 0.268621
0.817193 0.818957 0.274450
0.826017 0.824704 0.277722
0.823286 0.810412 0.273622
0.828182 0.809335 0.274397
0.834077 0.809901 0.275796
0.839763 0.810047 0.277054
0.849185 0.816272 0.280608
0.856138 0.818287 0.282610
0.858831 0.813341 0.282003
0.863539 0.811646 0.282631
0.868518 0.810352 0.283423
0.874307 0.810285 0.284696
0.880412 0.810642 0.286148
0.886246 0.810514 0.287432
0.893362 0.812260 0.289456
0.900011 0.813206 0.291192
0.906388 0.813665 0.292758
0.913275 0.814795 0.294606
0.918870 0.813966 0.295702
0.924578 0.813249 0.296858
0.931978 0.814879 0.298959
0.938927 0.815777 0.300791
0.944978 0.815343 0.302109
0.952288 0.816582 0.304114
0.959493 0.817587 0.306045
0.966001 0.817568 0.307580
0.973106 0.818278 0.309427
0.980273 0.818993 0.311292
0.987408 0.819588 0.313124
0.994381 0.819898 0.314854
1.000964 0.819640 0.316361
1.006938 0.818558 0.317534
1.013055 0.817616 0.318773
1.020002 0.817668 0.320434
1.028099 0.819077 0.322675
1.039049 0.823879 0.326368
1.046135 0.823879 0.328036
1.052055 0.822439 0.329089
1.059417 0.822687 0.330864
1.068400 0.824785 0.333437
1.074538 0.823506 0.334548
1.081353 0.822995 0.335983
1.089363 0.823821 0.337994
1.097910 0.825209 0.340243
1.103044 0.822740 0.340781
1.113604 0.826295 0.343966
1.119692 0.824873 0.344928
1.127770 0.825626 0.346836
1.136354 0.826903 0.348960
1.143281 0.826391 0.350255
1.148676 0.824274 0.350793
1.153398 0.821499 0.350994
1.164218 0.825108 0.354062
1.169240 0.822710 0.354360
1.179461 0.825673 0.357072
1.187603 0.826508 0.358774
1.193569 0.825177 0.359437
1.202684 0.827030 0.361528
1.211250 0.828344 0.363330
1.221479 0.831303 0.365857
1.221633 0.824483 0.363776
1.234199 0.829758 0.367296
1.240318 0.828840 0.367873
1.245006 0.826629 0.367792
1.251843 0.826521 0.368650
1.260136 0.827825 0.370126
1.269608 0.830256 0.372090
1.280020 0.833570 0.374429
0.189173 0.763919 0.164131
0.191873 0.764758 0.165077
0.195050 0.762980 0.165337
0.197620 0.765261 0.166627
0.200433 0.766383 0.167605
0.203622 0.765385 0.168019
0.206926 0.763882 0.168284
0.209466 0.767955 0.169986
0.212491 0.769115 0.170914
0.215518 0.770672 0.171932
0.219217 0.767546 0.171701
0.222491 0.767916 0.172372
0.225728 0.768963 0.173205
0.229023 0.769947 0.174006
0.232766 0.767458 0.173867
0.236257 0.767423 0.174363
0.239507 0.770016 0.175545
0.242668 0.774056 0.177102
0.246395 0.773006 0.177281
0.250108 0.772363 0.177554
0.253838 0.771818 0.177838
0.257500 0.772371 0.178404
0.260943 0.776104 0.179819
0.264479 0.779384 0.181102
0.268831 0.771757 0.179416
0.272192 0.778578 0.181642
0.275839 0.782067 0.182957
0.279669 0.783151 0.183610
0.283426 0.786213 0.184796
0.287379 0.785970 0.185074
0.291399 0.784374 0.184975
0.295512 0.780147 0.184148
0.299506 0.778685 0.184072
0.303518 0.776332 0.183747
0.307360 0.780934 0.185334
0.311212 0.787819 0.187553
0.315222 0.787954 0.187911
0.319337 0.775501 0.184784
0.323307 0.772070 0.184148
0.327260 0.775798 0.185497
0.331305 0.787757 0.189138
0.335340 0.788661 0.189713
0.339219 0.779287 0.187426
0.343144 0.776388 0.186941
0.347125 0.776743 0.187367
0.351117 0.777298 0.187853
0.355092 0.777247 0.188173
0.358963 0.774659 0.187784
0.363205 0.780810 0.189855
0.367159 0.780034 0.189985
0.371162 0.780303 0.190414
0.375053 0.778667 0.190310
0.379021 0.778462 0.190615
0.383303 0.782800 0.192212
0.387722 0.788433 0.194186
0.391267 0.782328 0.192834
0.395168 0.781158 0.192888
0.399390 0.783729 0.194013
0.403309 0.782797 0.194146
0.407071 0.780346 0.193849
0.411073 0.780437 0.194284
0.416188 0.790798 0.197675
0.420314 0.791506 0.198306
0.424369 0.791531 0.198746
0.428707 0.793845 0.199854
0.431148 0.781101 0.196616
0.434749 0.778028 0.196172
0.439675 0.784790 0.198586
0.444840 0.792754 0.201364
0.447680 0.784356 0.199389
0.450430 0.775873 0.197386
0.454876 0.778715 0.198692
0.459482 0.782341 0.200238
0.463415 0.781685 0.200537
0.467596 0.782482 0.201269
0.471617 0.782298 0.201719
0.475440 0.781000 0.201845
0.479228 0.779547 0.201930
0.483769 0.782080 0.203203
0.489252 0.789256 0.205866
0.492816 0.786494 0.205582
0.496248 0.783191 0.205139
0.500172 0.782340 0.205433
0.503870 0.780447 0.205418
0.508080 0.780919 0.206118
0.513242 0.785548 0.208079
0.517990 0.788148 0.209439
0.522501 0.789594 0.210459
0.525065 0.782859 0.209004
0.529155 0.782564 0.209505
0.533771 0.784342 0.210644
0.538038 0.784644 0.211341
0.542213 0.784545 0.211921
0.546586 0.785152 0.212725
0.550752 0.784934 0.213281
0.555080 0.785272 0.214015
0.559083 0.784400 0.214381
0.562768 0.782411 0.214406
0.570154 0.793135 0.218389
0.575785 0.797536 0.220423
0.579693 0.796039 0.220626
0.582606 0.791314 0.219822
0.585906 0.787944 0.219442
0.589959 0.787010 0.219831
0.593082 0.783189 0.219313
0.597266 0.782678 0.219844
0.602139 0.784207 0.221028
0.607981 0.788507 0.223104
0.615582 0.797743 0.226771
0.618424 0.793038 0.225997
0.621534 0.789183 0.225494
0.625802 0.788618 0.226051
0.631970 0.793221 0.228283
0.635257 0.789883 0.227959
0.638781 0.787224 0.227857
0.643119 0.786730 0.228462
0.654001 0.803103 0.234581
0.660109 0.806821 0.236595
0.665299 0.808087 0.237819
0.669682 0.807271 0.238367
0.672246 0.801988 0.237446
0.678348 0.805330 0.239380
0.686070 0.812387 0.242564
0.689214 0.808469 0.242113
0.692955 0.805989 0.242143
0.700125 0.811365 0.244812
0.702555 0.805857 0.243839
0.703087 0.796215 0.241470
0.706871 0.793922 0.241576
0.713056 0.796853 0.243462
0.717655 0.796261 0.244163
0.724189 0.799736 0.246261
0.732691 0.807194 0.249743
0.739034 0.809959 0.251638
0.740869 0.803399 0.250332
0.744252 0.800070 0.250141
0.749072 0.799633 0.250957
0.763162 0.817424 0.258134
0.771651 0.823835 0.261386
0.772659 0.815649 0.259543
0.763219 0.787723 0.250745
0.767686 0.786534 0.251336
0.780159 0.800204 0.257201
0.788443 0.805812 0.260245
0.798616 0.814668 0.264476
0.801063 0.809394 0.263680
0.803132 0.803508 0.262664
0.812001 0.809641 0.265983
0.822646 0.818665 0.270378
0.823257 0.810196 0.268454
0.827819 0.808565 0.269016
0.833531 0.808846 0.270288
0.839826 0.810029 0.271907
0.849617 0.816873 0.275633
0.858548 0.822111 0.278799
0.865592 0.824140 0.280803
0.869425 0.820950 0.280880
0.873133 0.817568 0.280892
0.876047 0.812957 0.280448
0.880095 0.810128 0.280679
0.887999 0.813175 0.283147
0.894303 0.813680 0.284673
0.900732 0.814295 0.286260
0.908104 0.816227 0.288371
0.913544 0.815226 0.289374
0.919115 0.814369 0.290447
0.924865 0.813719 0.291614
0.931141 0.813763 0.293067
0.938873 0.815781 0.295312
0.944991 0.815451 0.296655
0.951773 0.815972 0.298350
0.959327 0.817466 0.300450
0.965948 0.817608 0.302031
0.972030 0.816961 0.303311
0.979281 0.817807 0.305206
0.986704 0.818794 0.307174
0.994550 0.820244 0.309349
1.001148 0.820006 0.310852
1.007999 0.820030 0.312473
1.014085 0.819034 0.313685
1.019950 0.817725 0.314773
1.028552 0.819752 0.317252
1.038325 0.823108 0.320300
1.043678 0.821018 0.321081
1.052659 0.823250 0.323680
1.058881 0.822131 0.324869
1.067047 0.823264 0.327013
1.075686 0.824884 0.329366
1.082766 0.824644 0.330923
1.089024 0.823441 0.332057
1.096404 0.823494 0.333720
1.103884 0.823633 0.335410
1.106221 0.818064 0.334593
1.119804 0.824893 0.339176
1.125932 0.823498 0.340143
1.135798 0.826137 0.342867
1.143895 0.826841 0.344717
1.149134 0.824517 0.345192
1.152608 0.820394 0.344824
1.159719 0.820125 0.346141
1.168221 0.821304 0.348076
1.180036 0.825856 0.351505
1.186404 0.824850 0.352387
1.193491 0.824609 0.353574
1.200890 0.824712 0.354875
1.211926 0.828430 0.357789
1.218048 0.827324 0.358452
1.227136 0.829150 0.360417
1.234128 0.828975 0.361416
1.241643 0.829348 0.362620
1.245863 0.826642 0.362348
1.252161 0.825980 0.362972
1.261106 0.827847 0.364726
1.274453 0.833815 0.368353
1.281153 0.833642 0.369065
1.287236 0.832964 0.369492
0.186376 0.763499 0.159824
0.188592 0.767016 0.161433
0.191656 0.765850 0.161856
0.194547 0.765996 0.162593
0.197556 0.765714 0.163207
0.200434 0.766574 0.164096
0.203647 0.765572 0.164495
0.206701 0.765933 0.165225
0.209651 0.767362 0.166214
0.212470 0.770161 0.167540
0.215754 0.770022 0.168095
0.219190 0.769059 0.168419
0.222604 0.768567 0.168846
0.225851 0.769747 0.169691
0.228983 0.772338 0.170889
0.232966 0.768029 0.170269
0.236282 0.769807 0.171223
0.239588 0.772178 0.172318
0.243275 0.771356 0.172560
0.246800 0.772468 0.173296
0.250518 0.771959 0.173591
0.254267 0.771385 0.173854
0.258146 0.769515 0.173759
0.261764 0.771096 0.174568
0.265801 0.767519 0.173993
0.269497 0.768718 0.174679
0.273157 0.770955 0.175633
0.276695 0.775889 0.177302
