ply
format ascii 1.0
comment ---
element vertex 1745
property float x
property float y
property float z
element face 0
property list uchar uint vertex_indices
end_header
0.902833 0.823810 -0.004743
0.910220 0.824541 -0.005311
0.917114 0.824591 -0.005849
0.923409 0.823855 -0.006350
0.932923 0.826919 -0.007059
0.939497 0.826387 -0.007579
0.946405 0.826201 -0.008121
0.956663 0.829859 -0.008878
0.962690 0.828534 -0.009360
0.968700 0.827174 -0.009839
0.975688 0.826907 -0.010378
0.985564 0.829841 -0.011101
0.993323 0.830350 -0.011682
1.000260 0.829932 -0.012204
1.009845 0.832386 -0.012892
1.018033 0.833286 -0.013481
1.030490 0.838726 -0.014342
1.034368 0.835008 -0.014632
1.039574 0.832764 -0.014998
1.047405 0.833312 -0.015525
1.053993 0.832602 -0.015958
1.060918 0.832289 -0.016401
1.069524 0.833730 -0.016940
1.078069 0.835138 -0.017461
0.003286 0.781503 0.032368
0.011406 0.763096 0.032383
0.017482 0.752539 0.032345
0.020201 0.755642 0.032197
0.023287 0.757526 0.032068
0.026924 0.757318 0.031966
0.029745 0.760848 0.031838
0.032674 0.764222 0.031717
0.036028 0.765970 0.031618
0.039478 0.767496 0.031528
0.042673 0.770449 0.031429
0.045924 0.773398 0.031336
0.050398 0.770504 0.031305
0.054583 0.769046 0.031264
0.058511 0.768943 0.031214
0.062037 0.771071 0.031145
0.065497 0.773736 0.031074
0.069429 0.773918 0.031029
0.074098 0.769841 0.031030
0.078016 0.770061 0.030989
0.081797 0.771145 0.030940
0.085980 0.769732 0.030917
0.089621 0.771780 0.030859
0.093383 0.773119 0.030808
0.096839 0.776677 0.030733
0.100371 0.779893 0.030661
0.104223 0.780866 0.030611
0.109284 0.772350 0.030661
0.113776 0.767742 0.030668
0.117418 0.769920 0.030602
0.121275 0.770287 0.030553
0.123678 0.784086 0.030357
0.128096 0.779529 0.030357
0.132272 0.776884 0.030335
0.136161 0.776940 0.030281
0.140056 0.776819 0.030226
0.143957 0.776503 0.030172
0.147294 0.783153 0.030037
0.151137 0.783733 0.029967
0.154950 0.784698 0.029890
0.159232 0.778437 0.029893
0.163263 0.775219 0.029860
0.167221 0.772621 0.029817
0.170752 0.777824 0.029681
0.174741 0.773956 0.029648
0.178513 0.774307 0.029564
0.182045 0.781137 0.029399
0.185561 0.790243 0.029202
0.189401 0.790363 0.029111
0.193364 0.784928 0.029086
0.197281 0.778935 0.029067
0.201074 0.777749 0.028986
0.204825 0.779508 0.028865
0.208599 0.778824 0.028773
0.212364 0.778256 0.028677
0.216198 0.792755 0.028382
0.219967 0.787152 0.028347
0.223840 0.792492 0.028165
0.227609 0.789867 0.028086
0.231169 0.779451 0.028112
0.234906 0.778773 0.028004
0.238655 0.778639 0.027887
0.242417 0.778921 0.027763
0.246538 0.787652 0.027515
0.250528 0.791856 0.027329
0.254230 0.789673 0.027231
0.257924 0.787665 0.027130
0.261935 0.791191 0.026945
0.265856 0.792806 0.026786
0.269483 0.789957 0.026692
0.272847 0.783878 0.026647
0.276375 0.780567 0.026559
0.279967 0.778347 0.026453
0.284186 0.783426 0.026231
0.288933 0.793640 0.025922
0.293269 0.798633 0.025693
0.296896 0.796192 0.025583
0.300589 0.794538 0.025458
0.304087 0.791230 0.025360
0.308133 0.792855 0.025179
0.312003 0.792864 0.025022
0.315715 0.791561 0.024887
0.318826 0.785697 0.024831
0.322664 0.785589 0.024674
0.326726 0.787047 0.024487
0.330684 0.787641 0.024314
0.334524 0.787366 0.024155
0.340461 0.800695 0.023743
0.344692 0.802429 0.023541
0.347601 0.795915 0.023494
0.350339 0.788711 0.023460
0.354272 0.788777 0.023288
0.357985 0.787557 0.023140
0.362029 0.788172 0.022955
0.369222 0.805539 0.022434
0.370280 0.790032 0.022567
0.375233 0.795038 0.022288
0.380238 0.800018 0.022006
0.383367 0.795636 0.021915
0.387491 0.796125 0.021723
0.392150 0.799023 0.021478
0.396506 0.800382 0.021263
0.400411 0.799648 0.021093
0.403917 0.797170 0.020960
0.405412 0.786224 0.021014
0.410107 0.788984 0.020765
0.415391 0.793998 0.020463
0.419881 0.795599 0.020236
0.423694 0.794453 0.020070
0.427662 0.793903 0.019890
0.431877 0.794269 0.019687
0.435551 0.792579 0.019532
0.439335 0.791313 0.019366
0.444603 0.795351 0.019071
0.448483 0.794341 0.018897
0.452142 0.792571 0.018740
0.457737 0.797376 0.018420
0.461863 0.797095 0.018223
0.465474 0.795101 0.018070
0.469713 0.795153 0.017864
0.474078 0.795569 0.017646
0.477973 0.794470 0.017468
0.481396 0.791922 0.017326
0.490086 0.805323 0.016759
0.492787 0.800467 0.016676
0.500576 0.810626 0.016185
0.502165 0.802554 0.016189
0.505279 0.799021 0.016069
0.509283 0.798048 0.015878
0.513613 0.797967 0.015661
0.518804 0.800193 0.015377
0.526126 0.808038 0.014928
0.527533 0.799981 0.014935
0.532625 0.801724 0.014658
0.537857 0.803744 0.014369
0.542598 0.804425 0.014118
0.545897 0.801442 0.013976
0.549733 0.799827 0.013791
0.553493 0.798034 0.013611
0.557697 0.797317 0.013396
0.562444 0.797873 0.013140
0.567200 0.798399 0.012883
0.572115 0.799240 0.012613
0.582454 0.812428 0.011943
0.587235 0.812697 0.011682
0.589168 0.806568 0.011629
0.590033 0.798199 0.011651
0.595838 0.800743 0.011311
0.601044 0.801899 0.011014
0.609195 0.809245 0.010503
0.614101 0.809565 0.010226
0.615279 0.802100 0.010216
0.619330 0.800660 0.009996
0.623932 0.800329 0.009736
0.628355 0.799605 0.009486
0.635524 0.804292 0.009040
0.640348 0.804240 0.008759
0.644228 0.802316 0.008543
0.648349 0.800854 0.008308
0.652068 0.798616 0.008099
0.661405 0.806903 0.007492
0.668520 0.810848 0.007040
0.674064 0.811781 0.006697
0.674842 0.804012 0.006687
0.680519 0.805142 0.006330
0.685919 0.805706 0.005991
0.691554 0.806622 0.005632
0.700465 0.813155 0.005042
0.704956 0.811906 0.004759
0.708178 0.808474 0.004561
0.712629 0.807129 0.004276
0.719758 0.810214 0.003800
0.726703 0.812876 0.003335
0.733364 0.814964 0.002886
0.735716 0.810003 0.002735
0.741576 0.810686 0.002337
0.747761 0.811809 0.001912
0.753296 0.811834 0.001530
0.760923 0.815036 0.000999
0.765553 0.813519 0.000673
0.772157 0.814965 0.000207
0.777065 0.813773 -0.000145
0.785848 0.818300 -0.000770
0.788440 0.813560 -0.000968
0.796295 0.816517 -0.001536
0.801419 0.815408 -0.001916
0.808028 0.816374 -0.002405
0.814933 0.817671 -0.002917
0.819379 0.815431 -0.003261
0.823853 0.813206 -0.003611
0.831583 0.815421 -0.004192
0.840449 0.819066 -0.004856
0.845509 0.817447 -0.005258
0.851734 0.817342 -0.005744
0.861946 0.822424 -0.006514
0.870469 0.825131 -0.007169
0.880103 0.829148 -0.007905
0.886660 0.829077 -0.008428
0.890540 0.825543 -0.008764
0.895130 0.822899 -0.009152
0.901478 0.822425 -0.009667
0.907679 0.821713 -0.010172
0.914991 0.822303 -0.010758
0.922657 0.823248 -0.011370
0.930905 0.824810 -0.012024
0.937535 0.824371 -0.012563
0.946386 0.826489 -0.013260
0.953935 0.827008 -0.013863
0.960805 0.826689 -0.014415
0.967394 0.826015 -0.014945
0.975626 0.827173 -0.015588
0.984331 0.828808 -0.016262
0.993860 0.831303 -0.016990
1.000213 0.830248 -0.017483
1.011247 0.834292 -0.018306
1.018385 0.834061 -0.018841
1.027821 0.836292 -0.019532
1.033706 0.834736 -0.019958
1.039340 0.832964 -0.020355
1.046496 0.832830 -0.020849
1.052154 0.831189 -0.021224
1.060191 0.832047 -0.021756
1.067654 0.832357 -0.022233
1.084725 0.842371 -0.023384
0.006008 0.770876 0.028795
0.009932 0.768931 0.028675
0.015401 0.760882 0.028645
0.020010 0.756299 0.028581
0.022795 0.759411 0.028423
0.025014 0.765262 0.028235
0.028889 0.764304 0.028148
0.031823 0.767678 0.028009
0.035032 0.770109 0.027889
0.038068 0.773610 0.027761
0.042352 0.771482 0.027719
0.045557 0.774636 0.027608
0.049564 0.774067 0.027555
0.054892 0.766830 0.027604
0.058894 0.766256 0.027561
0.062696 0.766799 0.027505
0.065288 0.774107 0.027354
0.068850 0.776368 0.027278
0.073677 0.771424 0.027311
0.077962 0.769469 0.027301
0.081702 0.770771 0.027245
0.085495 0.771820 0.027193
0.089480 0.771659 0.027159
0.093218 0.773150 0.027101
0.096409 0.778556 0.026983
0.100229 0.779728 0.026928
0.104186 0.779902 0.026887
0.109042 0.772971 0.026953
0.112968 0.773009 0.026912
0.117139 0.770908 0.026902
0.121017 0.771133 0.026854
0.123500 0.784210 0.026607
0.127889 0.779952 0.026625
0.131914 0.778878 0.026591
0.136055 0.776343 0.026578
0.140015 0.775481 0.026536
0.143923 0.775015 0.026486
0.147472 0.778910 0.026365
0.150927 0.784431 0.026215
0.155690 0.771831 0.026351
0.158629 0.785320 0.026067
0.162871 0.779163 0.026096
0.166769 0.778018 0.026041
0.170716 0.775540 0.026006
0.174567 0.774485 0.025945
0.178306 0.775730 0.025844
0.181838 0.782700 0.025645
0.185467 0.788490 0.025462
0.189284 0.789214 0.025360
0.193261 0.783029 0.025372
0.197174 0.776875 0.025382
0.200923 0.778278 0.025262
0.204707 0.776735 0.025190
0.208461 0.777903 0.025068
0.212223 0.778489 0.024954
0.216019 0.785445 0.024724
0.219804 0.784869 0.024625
0.223641 0.788446 0.024449
0.227442 0.788479 0.024333
0.231040 0.779875 0.024372
0.234764 0.778625 0.024277
0.238504 0.778248 0.024163
0.242286 0.779070 0.024025
0.246389 0.787402 0.023744
0.250429 0.792708 0.023515
0.254179 0.791375 0.023409
0.257988 0.791282 0.023278
0.261908 0.793021 0.023109
0.265666 0.791996 0.022991
0.269022 0.785303 0.022984
0.272671 0.783353 0.022883
0.276635 0.785597 0.022696
0.280307 0.784054 0.022583
0.284062 0.783579 0.022447
0.288386 0.789247 0.022183
0.292864 0.795919 0.021894
0.296695 0.795595 0.021747
0.300176 0.791981 0.021669
0.303645 0.788517 0.021587
0.307635 0.789775 0.021403
0.311783 0.792212 0.021192
0.315739 0.792887 0.021016
0.318749 0.786193 0.021002
0.322513 0.785524 0.020854
0.326409 0.785799 0.020684
0.330388 0.786590 0.020500
0.334262 0.786575 0.020333
0.340394 0.801223 0.019825
0.344716 0.803517 0.019598
0.348100 0.799885 0.019509
0.350511 0.790621 0.019554
0.354058 0.788402 0.019432
0.357872 0.787765 0.019271
0.361720 0.787307 0.019105
0.366457 0.791580 0.018822
0.370541 0.792198 0.018626
0.375437 0.796869 0.018326
0.379014 0.794728 0.018196
0.382454 0.791982 0.018082
0.386917 0.794163 0.017840
0.391437 0.796473 0.017592
0.396260 0.800012 0.017311
0.400577 0.801110 0.017090
0.403842 0.797565 0.016992
0.406138 0.790006 0.017003
0.410138 0.789806 0.016816
0.414426 0.790751 0.016597
0.419106 0.793186 0.016335
0.422605 0.790858 0.016203
0.427667 0.794589 0.015901
0.431636 0.794019 0.015718
0.435575 0.793321 0.015537
0.439575 0.792830 0.015350
0.443982 0.793776 0.015120
0.448549 0.795209 0.014874
0.452983 0.796098 0.014643
0.458305 0.799927 0.014322
0.462676 0.800425 0.014098
0.465759 0.796646 0.014002
0.469017 0.793520 0.013886
0.472999 0.792752 0.013699
0.478099 0.795460 0.013402
0.482610 0.796242 0.013163
0.487766 0.798908 0.012863
0.492308 0.799631 0.012622
0.494361 0.792999 0.012615
0.498299 0.791973 0.012429
0.502999 0.793110 0.012171
0.508592 0.796681 0.011831
0.512354 0.795052 0.011660
0.517070 0.796034 0.011401
0.520679 0.793981 0.011242
0.525563 0.795322 0.010967
0.529829 0.794979 0.010747
0.534539 0.795750 0.010488
0.541919 0.803247 0.009991
0.546272 0.802922 0.009764
0.549161 0.798947 0.009664
0.553749 0.799186 0.009413
0.557373 0.797062 0.009246
0.561665 0.796541 0.009019
0.566856 0.798108 0.008715
0.571133 0.797480 0.008488
0.581855 0.811576 0.007711
0.587151 0.813022 0.007398
0.589044 0.806799 0.007371
0.589662 0.797878 0.007449
0.595372 0.800224 0.007097
0.600943 0.802174 0.006755
0.607313 0.805738 0.006347
0.612630 0.806963 0.006026
0.618383 0.809024 0.005667
0.620026 0.802564 0.005646
0.623912 0.800758 0.005438
0.628994 0.801350 0.005130
0.634761 0.803245 0.004765
0.639156 0.802365 0.004510
0.644545 0.803385 0.004173
0.648410 0.801419 0.003958
0.655565 0.805685 0.003475
0.660602 0.805845 0.003161
0.667727 0.809820 0.002679
0.673448 0.811091 0.002307
0.674537 0.803888 0.002303
0.679485 0.803712 0.001988
0.687213 0.808423 0.001450
0.692916 0.809429 0.001071
0.697464 0.808358 0.000782
0.704589 0.811687 0.000286
0.709011 0.810296 0.000002
0.712960 0.808084 -0.000248
0.719158 0.809609 -0.000678
0.726299 0.812602 -0.001185
0.730023 0.809905 -0.001426
0.735304 0.809719 -0.001792
0.742642 0.812763 -0.002322
0.749418 0.814800 -0.002810
0.755248 0.815254 -0.003228
0.761358 0.816073 -0.003671
0.767596 0.817010 -0.004127
0.769221 0.810864 -0.004226
0.778466 0.816226 -0.004923
0.786585 0.819740 -0.005535
0.790195 0.816482 -0.005799
0.796096 0.816560 -0.006245
0.800557 0.814494 -0.006583
0.808013 0.816678 -0.007157
0.813539 0.816020 -0.007584
0.820616 0.817480 -0.008135
0.826570 0.817283 -0.008603
0.831483 0.815591 -0.008993
0.840055 0.818836 -0.009671
0.844496 0.816385 -0.010031
0.852313 0.818410 -0.010656
0.861259 0.821814 -0.011373
0.871481 0.826746 -0.012193
0.881763 0.831590 -0.013020
0.888127 0.831247 -0.013544
0.888692 0.823488 -0.013618
0.895289 0.823386 -0.014165
0.899181 0.819855 -0.014502
0.904318 0.817859 -0.014938
0.915003 0.822605 -0.015809
0.922297 0.823102 -0.016415
0.931329 0.825609 -0.017158
0.937417 0.824526 -0.017669
0.943781 0.823735 -0.018201
0.952077 0.825154 -0.018883
0.959497 0.825495 -0.019494
0.966506 0.825321 -0.020069
0.976982 0.829032 -0.020913
0.984489 0.829323 -0.021519
0.991473 0.829008 -0.022078
1.000826 0.831283 -0.022817
1.007990 0.831125 -0.023376
1.016171 0.832066 -0.024007
1.025397 0.834110 -0.024710
1.033084 0.834501 -0.025281
1.037836 0.831826 -0.025611
1.044109 0.830807 -0.026048
1.054425 0.834010 -0.026790
1.061531 0.833916 -0.027265
1.068301 0.833534 -0.027700
1.089749 0.847972 -0.029265
0.005380 0.773358 0.025093
0.009565 0.770363 0.024994
0.014854 0.763020 0.024983
0.018797 0.761170 0.024886
0.021165 0.766072 0.024676
0.024684 0.766433 0.024557
0.029155 0.762853 0.024519
0.031791 0.767477 0.024338
0.034728 0.771094 0.024182
0.037818 0.774322 0.024041
0.042478 0.770381 0.024041
0.046240 0.770758 0.023966
0.050148 0.770550 0.023908
0.053812 0.771681 0.023830
0.059885 0.760367 0.023994
0.060266 0.779080 0.023587
0.064713 0.776466 0.023592
0.068331 0.778452 0.023511
0.073600 0.770974 0.023616
0.078007 0.768256 0.023631
0.081730 0.769605 0.023568
0.085481 0.770869 0.023508
0.089408 0.771048 0.023469
0.093489 0.770174 0.023451
0.096459 0.777017 0.023281
0.099934 0.780638 0.023174
0.104220 0.778351 0.023182
0.108949 0.772371 0.023262
0.112732 0.773557 0.023199
0.116803 0.772323 0.023182
0.120833 0.771271 0.023160
0.123722 0.780580 0.022930
0.127521 0.781879 0.022857
0.132044 0.775848 0.022928
0.136031 0.774823 0.022897
0.140106 0.772597 0.022888
0.144074 0.771270 0.022859
0.147474 0.776819 0.022687
0.150982 0.781503 0.022530
0.154576 0.785466 0.022384
0.159281 0.772855 0.022576
0.162508 0.782547 0.022306
0.166531 0.779463 0.022297
0.170512 0.776496 0.022283
0.174483 0.772959 0.022279
0.178185 0.774942 0.022157
0.181747 0.781012 0.021945
0.185704 0.776434 0.021956
0.189325 0.782225 0.021743
0.193214 0.778542 0.021730
0.197061 0.774989 0.021712
0.200792 0.777093 0.021570
0.204547 0.778235 0.021445
0.208319 0.777249 0.021365
0.212078 0.778234 0.021238
0.215860 0.782641 0.021032
0.219652 0.784107 0.020889
0.223490 0.787995 0.020688
0.227365 0.792046 0.020480
0.230883 0.779212 0.020653
0.234636 0.779090 0.020536
0.238354 0.777935 0.020441
0.242102 0.777879 0.020318
0.246225 0.786852 0.019981
0.249851 0.783290 0.019935
0.253931 0.789267 0.019661
0.257706 0.788747 0.019539
0.261696 0.791849 0.019327
0.265505 0.791678 0.019192
0.268534 0.780282 0.019328
0.272929 0.788716 0.018979
0.277093 0.793190 0.018723
0.280658 0.789940 0.018656
0.284315 0.788040 0.018555
0.288081 0.787466 0.018418
0.292437 0.792976 0.018125
0.296311 0.793215 0.017964
0.300025 0.791892 0.017840
0.302988 0.783877 0.017890
0.307084 0.786252 0.017669
0.310958 0.786550 0.017500
0.315239 0.790042 0.017244
0.318582 0.786013 0.017187
0.322299 0.785001 0.017048
0.326577 0.788041 0.016798
0.330134 0.785832 0.016689
0.333956 0.785498 0.016527
0.339347 0.795374 0.016080
0.344285 0.801745 0.015726
0.347889 0.799514 0.015610
0.350216 0.789753 0.015709
0.353886 0.788279 0.015572
0.357670 0.787480 0.015416
0.361788 0.788513 0.015205
0.366535 0.792826 0.014895
0.370642 0.793534 0.014689
0.375243 0.796682 0.014409
0.377702 0.788992 0.014452
0.382450 0.792730 0.014151
0.386226 0.791647 0.013994
0.390580 0.793249 0.013753
0.395071 0.795362 0.013495
0.400151 0.799956 0.013157
0.403116 0.795131 0.013112
0.406531 0.792383 0.013002
0.410398 0.791585 0.012830
0.414286 0.790867 0.012655
0.418521 0.791529 0.012434
0.423657 0.795659 0.012098
0.428742 0.799393 0.011772
0.432187 0.796761 0.011653
0.435454 0.793527 0.011555
0.439304 0.792492 0.011384
0.443543 0.792847 0.011164
0.447724 0.792948 0.010952
0.451937 0.793119 0.010736
0.458343 0.800683 0.010263
0.464106 0.805814 0.009869
0.467127 0.801746 0.009795
0.468945 0.793893 0.009855
0.473063 0.793559 0.009650
0.477245 0.793394 0.009438
0.481643 0.793864 0.009202
0.487054 0.797346 0.008854
0.491606 0.798128 0.008601
0.494576 0.794208 0.008521
0.498139 0.792085 0.008375
0.503080 0.793909 0.008080
0.507887 0.795269 0.007799
0.512681 0.796519 0.007521
0.517034 0.796493 0.007289
0.521176 0.795868 0.007079
0.525166 0.794821 0.006884
0.529641 0.795031 0.006638
0.535496 0.798756 0.006251
0.542247 0.804623 0.005775
0.546865 0.804946 0.005516
0.550911 0.803808 0.005314
0.552577 0.796853 0.005347
0.557878 0.798799 0.005017
0.562342 0.798670 0.004770
0.567064 0.799111 0.004496
0.571590 0.799049 0.004241
0.580416 0.808795 0.003570
0.584858 0.808349 0.003323
0.586835 0.802370 0.003312
0.589838 0.798761 0.003199
0.594513 0.798844 0.002926
0.600254 0.801178 0.002550
0.605986 0.803401 0.002175
0.610873 0.803751 0.001880
0.615708 0.803947 0.001587
0.619574 0.802106 0.001384
0.624435 0.802286 0.001086
0.629150 0.802127 0.000801
0.633528 0.801258 0.000545
0.638470 0.801473 0.000236
0.643697 0.802191 -0.000101
0.649473 0.803901 -0.000489
0.653861 0.802898 -0.000753
0.660999 0.807026 -0.001266
0.674621 0.823038 -0.002363
0.672527 0.809834 -0.002049
0.674735 0.804670 -0.002125
0.679370 0.803924 -0.002421
0.686619 0.807784 -0.002951
0.692075 0.808364 -0.003324
0.698211 0.810062 -0.003759
0.703322 0.809911 -0.004105
0.709833 0.812089 -0.004577
0.716892 0.815093 -0.005099
0.722444 0.815468 -0.005491
0.724717 0.810377 -0.005599
0.730171 0.810522 -0.005988
0.736326 0.811740 -0.006441
0.745633 0.817911 -0.007171
0.752299 0.819719 -0.007673
0.758983 0.821459 -0.008179
0.765270 0.822487 -0.008654
0.767646 0.817435 -0.008794
0.769142 0.811085 -0.008862
0.779242 0.817730 -0.009675
0.785323 0.818197 -0.010144
0.793876 0.822230 -0.010830
0.797547 0.819000 -0.011099
0.801561 0.816260 -0.011401
0.807484 0.816236 -0.011870
0.814479 0.817660 -0.012434
0.819220 0.815830 -0.012809
0.825783 0.816492 -0.013343
0.831860 0.816406 -0.013838
0.837744 0.815987 -0.014320
0.845547 0.818089 -0.014970
0.851052 0.817015 -0.015426
0.859989 0.820422 -0.016178
0.872112 0.827854 -0.017205
0.879295 0.828677 -0.017812
0.883309 0.825355 -0.018151
0.890747 0.826372 -0.018785
0.892458 0.820105 -0.018931
0.897027 0.817448 -0.019323
0.904652 0.818544 -0.019977
0.915890 0.823963 -0.020940
0.922220 0.823287 -0.021484
0.930670 0.825103 -0.022210
0.938246 0.825792 -0.022859
0.944981 0.825431 -0.023436
0.953190 0.826742 -0.024136
0.960316 0.826739 -0.024741
0.967595 0.826872 -0.025355
0.974473 0.826518 -0.025931
0.983971 0.829074 -0.026725
0.990893 0.828706 -0.027293
0.998018 0.828553 -0.027871
1.007592 0.831062 -0.028650
1.013946 0.830051 -0.029145
1.019719 0.828445 -0.029581
1.028461 0.830025 -0.030259
1.037807 0.832233 -0.030976
1.043640 0.830776 -0.031382
1.053115 0.833137 -0.032083
1.064942 0.837907 -0.032969
1.070364 0.836149 -0.033296
1.066715 0.825349 -0.032845
0.004923 0.775179 0.021387
0.007686 0.777818 0.021170
0.014116 0.765934 0.021287
0.018292 0.763125 0.021214
0.021236 0.765590 0.021032
0.025919 0.760915 0.021022
0.029838 0.759581 0.020946
0.031648 0.767762 0.020659
0.034375 0.772293 0.020462
0.037281 0.776347 0.020284
0.042374 0.770360 0.020348
0.046273 0.770027 0.020286
0.049507 0.773110 0.020150
0.053682 0.771666 0.020126
0.057928 0.769869 0.020115
0.061100 0.773821 0.019972
0.063231 0.783783 0.019689
0.068471 0.776770 0.019814
0.073568 0.770236 0.019931
0.077497 0.770337 0.019891
0.081508 0.769954 0.019864
0.085524 0.769527 0.019839
0.089459 0.769594 0.019803
0.093137 0.771397 0.019725
0.096527 0.775315 0.019596
0.100043 0.778564 0.019482
0.104114 0.777827 0.019464
0.108668 0.773198 0.019539
0.112646 0.772827 0.019510
0.116427 0.774024 0.019441
0.120332 0.774155 0.019396
0.123779 0.778433 0.019247
0.128193 0.773697 0.019318
0.131899 0.775566 0.019223
0.135425 0.779448 0.019077
0.140325 0.768235 0.019301
0.143899 0.771346 0.019169
0.147097 0.779431 0.018909
0.150731 0.782608 0.018769
0.154617 0.782491 0.018707
0.158475 0.782662 0.018636
0.162423 0.781220 0.018603
0.166372 0.779398 0.018576
0.170373 0.776062 0.018586
0.174203 0.775554 0.018521
0.178051 0.774358 0.018471
0.181783 0.775805 0.018350
0.185199 0.787171 0.017970
0.189114 0.784231 0.017956
0.192967 0.782543 0.017907
0.196867 0.777237 0.017950
0.200618 0.778704 0.017814
0.204396 0.778304 0.017724
0.208165 0.778082 0.017627
0.211930 0.778403 0.017512
0.215715 0.783347 0.017271
0.219523 0.786064 0.017086
0.223318 0.786232 0.016967
0.227177 0.789871 0.016750
0.230733 0.778973 0.016928
0.234485 0.778837 0.016811
0.238239 0.778809 0.016688
0.241975 0.778307 0.016576
0.245999 0.784873 0.016264
0.249903 0.787494 0.016058
0.253545 0.784489 0.016009
0.257583 0.789092 0.015741
0.261311 0.787812 0.015639
0.265135 0.788171 0.015487
0.269002 0.789072 0.015318
0.273012 0.791764 0.015094
0.277006 0.793897 0.014883
0.280555 0.790411 0.014835
0.284033 0.786448 0.014801
0.287730 0.785209 0.014684
0.291878 0.788691 0.014425
0.295976 0.791333 0.014187
0.299295 0.786377 0.014178
0.303577 0.790464 0.013892
0.306674 0.783941 0.013930
0.311173 0.789534 0.013592
0.314969 0.789033 0.013441
0.318502 0.786506 0.013353
0.322301 0.786086 0.013196
0.326148 0.786003 0.013028
0.329969 0.785698 0.012865
0.334529 0.790347 0.012541
0.338745 0.792420 0.012297
0.343153 0.795537 0.012016
0.346699 0.793133 0.011914
0.349914 0.788851 0.011874
0.353610 0.787551 0.011735
0.357496 0.787353 0.011558
0.361507 0.787814 0.011358
0.366261 0.792185 0.011023
0.371405 0.798334 0.010623
0.374841 0.795439 0.010531
0.377980 0.791160 0.010487
0.381344 0.788132 0.010401
0.385651 0.789680 0.010153
0.390121 0.791872 0.009880
0.394192 0.792116 0.009675
0.397870 0.790566 0.009532
0.401643 0.789450 0.009373
0.405989 0.790784 0.009125
0.410006 0.790649 0.008928
0.414168 0.791077 0.008709
0.418161 0.790770 0.008516
0.425017 0.801676 0.007902
0.428687 0.799856 0.007761
0.431754 0.795789 0.007705
0.435143 0.793027 0.007600
0.439016 0.792089 0.007424
0.443437 0.793108 0.007173
0.447228 0.791839 0.007008
0.451615 0.792637 0.006762
0.458509 0.801877 0.006181
0.463942 0.805891 0.005801
0.467200 0.802604 0.005710
0.469235 0.795436 0.005775
0.473051 0.794121 0.005605
0.477146 0.793680 0.005400
0.481516 0.794065 0.005159
0.487080 0.798014 0.004768
0.491406 0.798117 0.004535
0.495043 0.796157 0.004386
0.498272 0.793039 0.004285
0.502956 0.794124 0.004006
0.508013 0.796186 0.003684
0.512652 0.796998 0.003412
0.517256 0.797655 0.003144
0.521486 0.797251 0.002921
0.525373 0.795916 0.002737
0.530986 0.799089 0.002352
0.535940 0.800443 0.002045
0.540537 0.800812 0.001779
0.546978 0.805764 0.001304
0.550493 0.803303 0.001160
0.552696 0.797665 0.001161
0.557790 0.799108 0.000838
0.562997 0.800743 0.000502
0.567486 0.800615 0.000245
0.571414 0.799148 0.000049
0.579042 0.806156 -0.000549
0.584191 0.807345 -0.000878
0.586002 0.801006 -0.000849
0.589878 0.799338 -0.001045
0.595542 0.801572 -0.001431
0.601517 0.804383 -0.001850
0.600960 0.793183 -0.001584
0.609752 0.801869 -0.002300
0.613535 0.799901 -0.002492
0.619510 0.802440 -0.002914
0.627083 0.808125 -0.003500
0.634282 0.812884 -0.004046
0.638262 0.811103 -0.004263
0.642576 0.809976 -0.004516
0.644253 0.803713 -0.004505
0.648770 0.802993 -0.004784
0.654306 0.804176 -0.005167
0.660616 0.806740 -0.005628
0.671797 0.818233 -0.006576
0.673051 0.811217 -0.006535
0.673496 0.802838 -0.006420
0.680239 0.805894 -0.006930
0.685236 0.805737 -0.007269
0.690611 0.806195 -0.007648
0.698834 0.811543 -0.008306
0.706389 0.815579 -0.008900
0.713180 0.818174 -0.009421
0.719826 0.820419 -0.009929
0.723024 0.816815 -0.010107
0.725249 0.811628 -0.010194
0.730879 0.812046 -0.010613
0.735817 0.811282 -0.010967
0.745260 0.817674 -0.011756
0.751568 0.818918 -0.012246
0.758823 0.821560 -0.012829
0.765260 0.822818 -0.013336
0.766079 0.815369 -0.013314
0.769723 0.812299 -0.013564
0.776681 0.814208 -0.014130
0.786513 0.820292 -0.014970
0.794255 0.823108 -0.015615
0.798225 0.820301 -0.015909
0.801219 0.816074 -0.016114
0.807244 0.816196 -0.016607
0.813640 0.816771 -0.017138
0.819831 0.816979 -0.017654
0.825082 0.815809 -0.018084
0.831798 0.816604 -0.018654
0.838386 0.817140 -0.019215
0.845568 0.818394 -0.019835
0.851071 0.817314 -0.020301
0.857129 0.816918 -0.020821
0.868935 0.823972 -0.021878
0.874165 0.822306 -0.022326
0.879567 0.820825 -0.022792
0.883939 0.817996 -0.023164
0.892158 0.819990 -0.023895
0.897929 0.818832 -0.024400
0.908577 0.823641 -0.025358
0.915477 0.823723 -0.025969
0.922010 0.823300 -0.026545
0.929988 0.824556 -0.027255
0.938630 0.826521 -0.028025
0.946348 0.827315 -0.028708
0.952954 0.826753 -0.029285
0.959959 0.826621 -0.029895
0.967992 0.827626 -0.030597
0.975154 0.827597 -0.031213
0.985153 0.830719 -0.032085
0.990089 0.828148 -0.032483
0.996212 0.826917 -0.032984
1.007238 0.831039 -0.033926
1.013999 0.830488 -0.034467
1.021503 0.830748 -0.035066
1.027173 0.829075 -0.035485
1.036734 0.831542 -0.036248
1.044023 0.831630 -0.036790
1.050044 0.830445 -0.037202
1.058084 0.831390 -0.037783
1.069131 0.835423 -0.038621
1.073558 0.832780 -0.038843
0.003541 0.780627 0.017571
0.005416 0.786834 0.017239
0.011897 0.774841 0.017406
0.011597 0.790577 0.016836
0.022238 0.761208 0.017502
0.025901 0.760754 0.017393
0.028090 0.766908 0.017113
0.030973 0.770410 0.016913
0.032705 0.779463 0.016567
0.036020 0.781730 0.016416
0.041089 0.775927 0.016499
0.045862 0.771438 0.016552
0.049346 0.773273 0.016435
0.052604 0.776459 0.016286
0.057008 0.773926 0.016303
0.061134 0.772838 0.016284
0.063185 0.783169 0.015944
0.067721 0.780099 0.015988
0.073191 0.771470 0.016195
0.077323 0.770374 0.016189
0.081166 0.771011 0.016135
0.085304 0.769819 0.016134
0.089328 0.769299 0.016115
0.092999 0.771124 0.016030
0.096598 0.773555 0.015926
0.100160 0.776399 0.015810
0.104041 0.777002 0.015758
0.108628 0.772090 0.015864
0.112380 0.773514 0.015785
0.116409 0.772642 0.015772
0.120474 0.771305 0.015770
0.123616 0.778266 0.015525
0.128066 0.773190 0.015628
0.131836 0.774399 0.015545
0.134836 0.783795 0.015220
0.139158 0.779321 0.015299
0.143316 0.776165 0.015337
0.146995 0.778512 0.015210
0.150622 0.781739 0.015054
0.154499 0.781711 0.014991
0.158276 0.783073 0.014884
0.162202 0.782060 0.014845
0.166382 0.776228 0.014947
0.170190 0.776393 0.014867
0.173927 0.777953 0.014743
0.177872 0.774743 0.014759
0.181615 0.775963 0.014638
0.185091 0.785501 0.014262
0.188876 0.786973 0.014126
0.192825 0.781823 0.014190
0.196660 0.779874 0.014154
0.200453 0.779338 0.014072
0.204238 0.778673 0.013992
0.208013 0.777958 0.013910
0.211777 0.779507 0.013755
0.215569 0.784914 0.013475
0.219383 0.787385 0.013284
0.223201 0.788739 0.013126
0.226972 0.786914 0.013065
0.230604 0.779799 0.013171
0.234371 0.780028 0.013040
0.238087 0.778631 0.012960
0.241886 0.779853 0.012793
0.245813 0.783913 0.012530
0.249713 0.786560 0.012310
0.253582 0.788092 0.012123
0.257464 0.789587 0.011935
0.261148 0.787511 0.011863
0.264613 0.782322 0.011893
0.268556 0.784712 0.011668
0.272335 0.784543 0.011527
0.275971 0.782542 0.011445
0.279810 0.783172 0.011273
0.283512 0.782141 0.011155
0.287216 0.781189 0.011032
0.291168 0.782852 0.010818
0.295029 0.783431 0.010638
0.298899 0.784007 0.010457
0.302635 0.783282 0.010319
0.307387 0.791365 0.009867
0.311711 0.795218 0.009561
0.314876 0.789462 0.009597
0.318279 0.785911 0.009554
0.322111 0.785768 0.009386
0.326160 0.787148 0.009161
0.329917 0.786362 0.009014
0.333776 0.786273 0.008839
0.338731 0.793305 0.008398
0.342353 0.791428 0.008286
0.346015 0.789863 0.008161
0.349598 0.787869 0.008052
0.353299 0.786631 0.007913
0.357252 0.786837 0.007718
0.361206 0.787002 0.007523
0.367096 0.797502 0.006925
0.371319 0.798713 0.006684
0.374664 0.795343 0.006620
0.377819 0.791145 0.006590
0.381317 0.788773 0.006487
0.385331 0.788918 0.006284
0.389698 0.790659 0.006014
0.393829 0.791208 0.005791
0.397727 0.790658 0.005611
0.401649 0.790196 0.005426
0.405742 0.790443 0.005211
0.409702 0.790084 0.005020
0.413970 0.790957 0.004776
0.418075 0.791105 0.004561
0.424195 0.799130 0.004012
0.428096 0.798253 0.003835
0.431559 0.795715 0.003728
0.435016 0.793209 0.003621
0.438912 0.792357 0.003441
0.443494 0.793954 0.003154
0.447927 0.794932 0.002892
0.452309 0.795664 0.002639
0.456651 0.796196 0.002393
0.463181 0.803976 0.001822
0.465786 0.798578 0.001836
0.469588 0.797182 0.001671
0.472874 0.794157 0.001580
0.476885 0.793460 0.001382
0.481409 0.794324 0.001112
0.487202 0.798970 0.000665
0.492667 0.802461 0.000267
0.494565 0.795330 0.000362
0.497989 0.792790 0.000244
0.502592 0.793653 -0.000035
0.507863 0.796329 -0.000404
0.512470 0.797054 -0.000681
0.516970 0.797429 -0.000945
0.521461 0.797735 -0.001207
0.525345 0.796386 -0.001390
0.529757 0.796416 -0.001642
0.535175 0.799007 -0.002023
0.539840 0.799575 -0.002307
0.543878 0.798515 -0.002512
0.548284 0.798360 -0.002764
0.552495 0.797695 -0.002992
0.557137 0.798047 -0.003274
0.562198 0.799354 -0.003608
0.566861 0.799654 -0.003893
0.571476 0.799795 -0.004172
0.578531 0.805488 -0.004745
0.584855 0.809347 -0.005227
0.588600 0.807303 -0.005402
0.588708 0.797242 -0.005151
0.595402 0.801751 -0.005678
0.600457 0.802577 -0.006013
0.602718 0.797395 -0.006024
0.609243 0.801270 -0.006530
0.614429 0.802224 -0.006882
0.622714 0.809486 -0.007587
0.626845 0.808099 -0.007818
0.633946 0.812666 -0.008387
0.639192 0.813402 -0.008746
0.640726 0.806790 -0.008691
0.643922 0.803509 -0.008826
0.648447 0.802806 -0.009111
0.654608 0.805178 -0.009579
0.659944 0.805903 -0.009956
0.671134 0.817430 -0.010975
0.672379 0.810401 -0.010907
0.672838 0.802051 -0.010759
0.679740 0.805403 -0.011312
0.684965 0.805655 -0.011686
0.691425 0.808020 -0.012194
0.698816 0.811904 -0.012802
0.707600 0.818050 -0.013559
0.713337 0.818827 -0.013992
0.717660 0.817150 -0.014278
0.721326 0.814357 -0.014498
0.724125 0.810137 -0.014630
0.730919 0.812471 -0.015185
0.738107 0.815335 -0.015782
0.742497 0.813607 -0.016090
0.748190 0.813919 -0.016536
0.753018 0.812808 -0.016896
0.758349 0.812439 -0.017310
0.763705 0.812054 -0.017730
0.770236 0.813400 -0.018274
0.776130 0.813697 -0.018755
0.786357 0.820374 -0.019683
0.794765 0.824169 -0.020426
0.797125 0.819000 -0.020554
0.800729 0.815663 -0.020812
0.806680 0.815680 -0.021314
0.813158 0.816375 -0.021871
0.820539 0.818252 -0.022524
0.825870 0.817179 -0.022971
0.829337 0.813496 -0.023232
0.838549 0.817630 -0.024078
0.843951 0.816481 -0.024541
0.852320 0.819241 -0.025306
0.856892 0.816863 -0.025690
0.863946 0.817707 -0.026327
0.870211 0.817442 -0.026887
0.875960 0.816453 -0.027396
0.883989 0.818310 -0.028136
0.892661 0.820871 -0.028941
0.904244 0.826941 -0.030038
0.909155 0.824605 -0.030467
0.914403 0.822665 -0.030931
0.920331 0.821524 -0.031462
0.929505 0.824236 -0.032316
0.937821 0.825826 -0.033082
0.945776 0.826912 -0.033811
0.951991 0.825908 -0.034362
0.959825 0.826749 -0.035072
0.968923 0.828981 -0.035901
0.975501 0.828292 -0.036475
0.983549 0.829238 -0.037189
0.989881 0.828245 -0.037725
0.996614 0.827700 -0.038294
1.006375 0.830458 -0.039151
1.015789 0.832794 -0.039964
1.022853 0.832585 -0.040534
1.028848 0.831262 -0.040987
1.033241 0.828305 -0.041271
1.042874 0.830887 -0.042054
1.050361 0.831248 -0.042613
1.059727 0.833573 -0.043339
1.066452 0.833228 -0.043792
1.080700 0.840526 -0.044957
0.016703 0.729186 0.015477
0.010588 0.766256 0.014156
0.012447 0.772556 0.013799
0.016222 0.771407 0.013687
0.022882 0.758330 0.013966
0.024305 0.767342 0.013552
0.027931 0.767306 0.013437
0.029803 0.775256 0.013073
0.032791 0.778648 0.012865
0.036072 0.781002 0.012698
0.040380 0.778748 0.012688
0.045525 0.772480 0.012818
0.049434 0.772182 0.012761
0.052807 0.774714 0.012616
0.056361 0.776533 0.012501
0.060023 0.777959 0.012402
0.064874 0.773010 0.012519
0.068497 0.774779 0.012417
0.072466 0.774696 0.012380
0.077111 0.770605 0.012478
0.081169 0.769906 0.012466
0.085162 0.769586 0.012443
0.089493 0.767038 0.012494
0.093069 0.769416 0.012383
0.095988 0.776525 0.012112
0.099984 0.776317 0.012086
0.103963 0.776177 0.012057
0.108530 0.771403 0.012182
0.112441 0.771503 0.012142
0.116347 0.771593 0.012102
0.120190 0.772167 0.012043
0.123482 0.777782 0.011812
0.126980 0.781850 0.011631
0.130995 0.781010 0.011612
0.135063 0.779428 0.011617
0.138934 0.779777 0.011554
0.143049 0.777174 0.011588
0.146875 0.777769 0.011511
0.150780 0.777261 0.011468
0.154501 0.779153 0.011341
0.158311 0.779852 0.011251
0.162087 0.781087 0.011140
0.166232 0.775823 0.011250
0.170122 0.774393 0.011225
0.173940 0.774070 0.011158
0.177748 0.773726 0.011090
0.181329 0.779130 0.010818
0.184993 0.783386 0.010582
0.188770 0.784860 0.010440
0.192637 0.782873 0.010416
0.196513 0.779111 0.010453
0.200287 0.779765 0.010331
0.204070 0.779612 0.010234
0.207860 0.777089 0.010220
0.211622 0.776488 0.010134
0.215419 0.786278 0.009671
0.219255 0.790520 0.009404
0.223110 0.793509 0.009178
0.226872 0.789850 0.009190
0.230480 0.780991 0.009391
0.234232 0.780466 0.009286
0.237951 0.779045 0.009211
0.241642 0.777264 0.009148
0.245669 0.784038 0.008765
0.249558 0.786422 0.008540
0.253357 0.786564 0.008397
0.257043 0.784628 0.008329
0.260560 0.780124 0.008357
0.264404 0.781347 0.008167
0.268149 0.780927 0.008036
0.271985 0.781770 0.007855
0.275872 0.783132 0.007651
0.279655 0.783062 0.007500
0.283312 0.781513 0.007405
0.287079 0.781277 0.007257
0.290989 0.782507 0.007049
0.294825 0.782860 0.006873
0.298624 0.782782 0.006712
0.303840 0.795485 0.006039
0.307722 0.795547 0.005866
0.311564 0.795234 0.005706
0.315123 0.792627 0.005638
0.318111 0.785749 0.005743
0.321866 0.785040 0.005596
0.325950 0.786706 0.005350
0.329756 0.786281 0.005188
0.333478 0.785269 0.005049
0.338015 0.789612 0.004684
0.342439 0.792937 0.004359
0.345619 0.788358 0.004365
0.349357 0.787340 0.004220
0.353237 0.787158 0.004038
0.357154 0.787159 0.003847
0.361068 0.787096 0.003657
0.367496 0.800493 0.002880
0.370842 0.797044 0.002832
0.374028 0.792907 0.002814
0.377492 0.790312 0.002729
0.381323 0.789578 0.002561
0.385314 0.789606 0.002357
0.389476 0.790382 0.002119
0.393704 0.791385 0.001868
0.397624 0.790933 0.001682
0.401573 0.790587 0.001490
0.405553 0.790348 0.001291
0.409816 0.791261 0.001038
0.413725 0.790651 0.000854
0.417984 0.791428 0.000604
0.422844 0.794497 0.000244
0.427496 0.796611 -0.000073
0.431800 0.797293 -0.000325
0.435280 0.794845 -0.000429
0.438702 0.792239 -0.000526
0.442944 0.792625 -0.000767
0.446841 0.791745 -0.000948
0.451386 0.793100 -0.001240
0.456472 0.796210 -0.001620
0.460848 0.796808 -0.001879
0.465405 0.797942 -0.002166
0.469324 0.796938 -0.002349
0.472548 0.793723 -0.002421
0.476601 0.793164 -0.002628
0.481192 0.794245 -0.002919
0.488681 0.804041 -0.003658
0.492946 0.803878 -0.003892
0.494575 0.795933 -0.003726
0.497248 0.791215 -0.003725
0.502991 0.795354 -0.004185
0.507665 0.796333 -0.004484
0.512251 0.797004 -0.004769
0.516418 0.796475 -0.004992
0.520277 0.795097 -0.005171
0.525631 0.797687 -0.005566
0.529808 0.797089 -0.005791
0.534807 0.798593 -0.006132
0.539163 0.798381 -0.006383
0.543269 0.797512 -0.006599
0.545146 0.791103 -0.006511
0.550854 0.794197 -0.006949
0.556368 0.796704 -0.007360
0.562124 0.799686 -0.007801
0.566494 0.799294 -0.008055
0.570529 0.798095 -0.008266
0.578125 0.805056 -0.008947
0.585964 0.812355 -0.009654
0.588777 0.808192 -0.009705
0.585971 0.791675 -0.009034
0.590548 0.791634 -0.009323
0.600016 0.802102 -0.010235
0.602930 0.798315 -0.010311
0.607252 0.797540 -0.010567
0.614014 0.801822 -0.011131
0.623612 0.811793 -0.012046
0.623908 0.802584 -0.011803
0.631832 0.808869 -0.012507
0.638572 0.812617 -0.013063
0.640378 0.806545 -0.013016
0.644733 0.805516 -0.013284
0.647941 0.802262 -0.013416
0.653463 0.803427 -0.013828
0.659927 0.806288 -0.014354
0.673917 0.823016 -0.015776
0.672811 0.811604 -0.015401
0.672973 0.802697 -0.015184
0.679311 0.805028 -0.015699
0.685016 0.806137 -0.016140
0.690118 0.806109 -0.016513
0.700501 0.815220 -0.017500
0.709859 0.822319 -0.018366
0.712859 0.818388 -0.018499
0.710165 0.804888 -0.017982
0.716032 0.805891 -0.018453
0.725800 0.813257 -0.019370
0.736142 0.821352 -0.020352
0.740054 0.818829 -0.020604
0.741555 0.812440 -0.020588
0.746629 0.811781 -0.020979
0.752607 0.812492 -0.021474
0.757891 0.812051 -0.021895
0.763685 0.812340 -0.022375
0.770282 0.813781 -0.022947
0.775748 0.813427 -0.023395
0.785438 0.819307 -0.024315
0.792301 0.820835 -0.024923
0.795839 0.817414 -0.025166
0.800357 0.815409 -0.025522
0.806533 0.815750 -0.026063
0.812714 0.816021 -0.026607
0.823784 0.823073 -0.027688
0.830684 0.824127 -0.028315
0.829725 0.814288 -0.028089
0.839361 0.818992 -0.029019
0.852492 0.828241 -0.030331
0.855524 0.823765 -0.030548
0.859669 0.820777 -0.030888
0.862701 0.816321 -0.031112
0.869196 0.816369 -0.031711
0.876671 0.817604 -0.032418
0.885928 0.821009 -0.033318
0.896051 0.825371 -0.034310
0.903704 0.826509 -0.035038
0.909471 0.825236 -0.035563
0.914543 0.823077 -0.036013
0.920885 0.822438 -0.036599
0.929514 0.824495 -0.037428
0.936771 0.824833 -0.038108
0.944133 0.825242 -0.038796
0.951285 0.825354 -0.039459
0.959383 0.826515 -0.040218
0.968545 0.828834 -0.041084
0.975445 0.828524 -0.041704
0.982083 0.827904 -0.042290
0.990571 0.829332 -0.043064
0.997443 0.828947 -0.043658
1.004199 0.828440 -0.044230
1.013811 0.831030 -0.045092
1.023185 0.833331 -0.045916
1.029343 0.832199 -0.046391
1.035091 0.830681 -0.046809
1.041297 0.829698 -0.047262
1.049912 0.831262 -0.047950
1.058328 0.832642 -0.048602
1.065786 0.833079 -0.049137
1.075801 0.836145 -0.049919
0.012186 0.746915 0.011390
0.012111 0.760201 0.010742
0.013555 0.768017 0.010297
0.018334 0.762594 0.010340
0.022414 0.760118 0.010288
0.026722 0.756779 0.010280
0.029236 0.761323 0.009993
0.032203 0.764229 0.009776
0.035565 0.765638 0.009622
0.039184 0.766090 0.009513
0.043003 0.765776 0.009440
0.046324 0.768003 0.009281
0.050512 0.766166 0.009280
0.054664 0.764549 0.009278
0.058072 0.766832 0.009135
0.060640 0.773814 0.008821
0.064410 0.774654 0.008742
0.068086 0.776139 0.008642
0.072175 0.775368 0.008631
0.077324 0.768274 0.008861
0.081003 0.769814 0.008768
0.085021 0.769312 0.008753
0.088906 0.769660 0.008707
0.093297 0.766599 0.008791
0.096051 0.774752 0.008450
0.099925 0.775352 0.008394
0.103823 0.775778 0.008345
0.107826 0.775382 0.008326
0.112350 0.770679 0.008470
0.116090 0.772132 0.008378
0.119892 0.773100 0.008303
0.122252 0.787282 0.007719
0.127729 0.772816 0.008230
0.131170 0.777325 0.008012
0.135144 0.776565 0.007993
0.139380 0.772717 0.008091
0.143162 0.773658 0.008002
0.146877 0.775429 0.007878
0.150602 0.777168 0.007752
0.154512 0.776419 0.007719
0.158386 0.775968 0.007671
0.162232 0.775780 0.007611
0.166144 0.774245 0.007600
0.169960 0.774141 0.007530
0.173807 0.773188 0.007490
0.177571 0.773822 0.007385
0.181143 0.779522 0.007077
0.184793 0.784261 0.006802
0.188593 0.785115 0.006678
0.192496 0.781719 0.006719
0.196368 0.778035 0.006769
0.200135 0.778890 0.006636
0.203902 0.780080 0.006486
0.207706 0.775723 0.006556
0.211462 0.775549 0.006455
0.215243 0.782593 0.006058
0.219101 0.791246 0.005591
0.222976 0.795411 0.005302
0.226840 0.796922 0.005118
0.230294 0.779610 0.005705
0.234059 0.779742 0.005574
0.237843 0.780463 0.005416
0.241386 0.774401 0.005537
0.245478 0.783092 0.005041
0.249376 0.785756 0.004793
0.253130 0.785072 0.004682
0.256745 0.781937 0.004673
0.260397 0.779895 0.004615
0.264413 0.783805 0.004302
0.268215 0.784040 0.004143
0.271875 0.782289 0.004067
0.275769 0.783716 0.003852
0.279563 0.783734 0.003695
0.283273 0.782750 0.003579
0.287051 0.782571 0.003427
0.290909 0.783206 0.003237
0.294866 0.784715 0.003005
0.298526 0.783250 0.002903
0.303548 0.794195 0.002246
0.307450 0.794488 0.002060
0.311181 0.793286 0.001939
0.314690 0.790351 0.001895
0.317906 0.785321 0.001945
0.321810 0.785738 0.001747
0.325692 0.785925 0.001558
0.329421 0.784991 0.001418
0.333203 0.784433 0.001260
0.338953 0.796751 0.000500
0.341999 0.791114 0.000574
0.345516 0.788667 0.000498
0.349389 0.788448 0.000316
0.353269 0.788242 0.000132
0.357177 0.788163 -0.000059
0.361271 0.789073 -0.000300
0.366419 0.795561 -0.000811
0.370625 0.796743 -0.001070
0.374212 0.794664 -0.001172
0.377447 0.790885 -0.001192
0.381048 0.789023 -0.001306
0.385213 0.789895 -0.001555
0.389338 0.790497 -0.001793
0.393428 0.790876 -0.002022
0.397618 0.791642 -0.002271
0.401475 0.790884 -0.002446
0.405680 0.791604 -0.002696
0.409652 0.791279 -0.002896
0.413748 0.791438 -0.003121
0.417863 0.791627 -0.003349
0.424096 0.800108 -0.004008
0.428094 0.799595 -0.004205
0.432210 0.799509 -0.004426
0.435044 0.794627 -0.004396
0.438514 0.792200 -0.004495
0.442321 0.791032 -0.004660
0.446859 0.792444 -0.004964
0.450948 0.792214 -0.005183
0.456372 0.796497 -0.005646
0.461111 0.798305 -0.005979
0.465489 0.798829 -0.006244
0.468401 0.794559 -0.006249
0.472186 0.793169 -0.006411
0.476592 0.793729 -0.006683
0.480561 0.792890 -0.006878
0.489902 0.808336 -0.007986
0.493385 0.805773 -0.008092
0.495090 0.798022 -0.007904
0.497359 0.792100 -0.007818
0.501552 0.791810 -0.008051
0.507499 0.796424 -0.008569
0.512107 0.797160 -0.008867
0.517353 0.799579 -0.009265
0.520593 0.796491 -0.009345
0.525541 0.797990 -0.009695
0.529572 0.797006 -0.009901
0.533540 0.795852 -0.010098
0.538644 0.797588 -0.010470
0.546414 0.805939 -0.011242
0.544990 0.791231 -0.010630
0.551471 0.796217 -0.011206
0.555675 0.795538 -0.011442
0.561965 0.799812 -0.011984
0.566725 0.800337 -0.012301
0.571413 0.800645 -0.012607
0.578055 0.805390 -0.013192
0.584324 0.809133 -0.013722
0.586943 0.804572 -0.013733
0.589405 0.799738 -0.013726
0.594811 0.801412 -0.014134
0.600063 0.802671 -0.014520
0.603516 0.800025 -0.014659
0.607241 0.797974 -0.014837
0.613031 0.800229 -0.015299
0.624769 0.814628 -0.016563
0.627164 0.809651 -0.016563
0.630778 0.807194 -0.016730
0.639985 0.815864 -0.017642
0.642932 0.811995 -0.017723
0.647526 0.811368 -0.018024
0.654053 0.814420 -0.018580
0.656993 0.810546 -0.018668
0.666601 0.819236 -0.019623
0.672031 0.819926 -0.020036
0.676747 0.819240 -0.020358
0.672770 0.802721 -0.019573
0.679475 0.805713 -0.020157
0.684421 0.805463 -0.020519
0.689833 0.805986 -0.020941
0.701519 0.817367 -0.022151
0.708553 0.820445 -0.022776
0.709482 0.813001 -0.022642
0.710286 0.805448 -0.022498
0.717110 0.808040 -0.023104
0.725510 0.813126 -0.023904
0.738488 0.825529 -0.025265
0.740446 0.819800 -0.025276
0.741853 0.813247 -0.025226
0.746951 0.812615 -0.025629
0.752417 0.812512 -0.026079
0.757683 0.812041 -0.026507
0.764337 0.813648 -0.027105
0.770595 0.814557 -0.027658
0.775230 0.812944 -0.028019
0.782828 0.815711 -0.028736
0.789510 0.817005 -0.029346
0.794785 0.816155 -0.029791
0.800697 0.816175 -0.030315
0.806573 0.816074 -0.030837
0.812360 0.815782 -0.031352
0.820643 0.818928 -0.032161
0.827415 0.819844 -0.032796
0.832466 0.818305 -0.033231
0.841000 0.821468 -0.034076
0.852697 0.828761 -0.035289
0.859563 0.829394 -0.035942
0.863625 0.826239 -0.036271
0.864967 0.819516 -0.036289
0.870731 0.818585 -0.036821
0.877644 0.819078 -0.037486
0.886242 0.821635 -0.038347
0.895285 0.824636 -0.039258
0.902956 0.825805 -0.040011
0.910011 0.826130 -0.040694
0.916051 0.825150 -0.041259
0.921986 0.824002 -0.041812
0.928925 0.824028 -0.042477
0.936297 0.824515 -0.043189
0.943039 0.824206 -0.043827
0.951208 0.825521 -0.044622
0.959984 0.827473 -0.045481
0.968136 0.828644 -0.046263
0.974810 0.828095 -0.046872
0.980902 0.826882 -0.047407
0.992700 0.832012 -0.048577
0.997450 0.829287 -0.048944
1.006559 0.831361 -0.049791
1.015013 0.832698 -0.050552
1.022182 0.832647 -0.051157
1.029752 0.833042 -0.051793
1.035605 0.831653 -0.052225
1.040933 0.829773 -0.052585
1.048841 0.830634 -0.053215
1.056774 0.831554 -0.053831
1.064581 0.832384 -0.054417
1.068211 0.829047 -0.054527
0.010334 0.754234 0.007564
0.010613 0.766176 0.006902
0.014238 0.765212 0.006770
0.018163 0.763193 0.006692
0.021820 0.762445 0.006575
0.025537 0.761613 0.006473
0.028747 0.763162 0.006283
0.031973 0.764894 0.006096
0.035431 0.765830 0.005952
0.039140 0.765811 0.005856
0.042696 0.766683 0.005732
0.045959 0.769161 0.005549
0.050485 0.765633 0.005625
0.054342 0.765454 0.005567
0.057747 0.767731 0.005413
0.061068 0.770671 0.005236
0.064234 0.774699 0.005017
0.067694 0.777369 0.004859
0.071298 0.779411 0.004732
0.076830 0.770133 0.005087
0.080921 0.769177 0.005092
0.084620 0.770652 0.004995
0.088614 0.770313 0.004977
0.092561 0.770260 0.004948
0.096416 0.770834 0.004892
0.099695 0.775580 0.004658
0.103751 0.774833 0.004658
0.107499 0.776367 0.004559
0.112049 0.771506 0.004733
0.115949 0.771653 0.004691
0.119776 0.772382 0.004622
0.123013 0.778490 0.004321
0.127098 0.776974 0.004344
0.131143 0.775627 0.004357
0.134941 0.776645 0.004267
0.139258 0.771923 0.004421
0.142937 0.774041 0.004278
0.146631 0.776105 0.004133
0.150488 0.776174 0.004072
0.154417 0.775107 0.004057
0.158273 0.774862 0.004004
0.161991 0.776704 0.003856
0.165795 0.777169 0.003765
0.169778 0.774163 0.003823
0.173554 0.774762 0.003720
0.177340 0.775085 0.003625
0.180813 0.783535 0.003170
0.184574 0.785550 0.002994
0.188369 0.786828 0.002846
0.192244 0.785013 0.002832
0.196193 0.778291 0.003034
0.199975 0.778269 0.002935
0.203731 0.780479 0.002734
0.207513 0.780752 0.002615
0.211299 0.775364 0.002749
0.215081 0.783012 0.002292
0.218940 0.791660 0.001785
0.222763 0.791639 0.001666
0.226601 0.792592 0.001499
0.230129 0.779335 0.001980
0.233923 0.780569 0.001796
0.237692 0.780645 0.001663
0.241425 0.779741 0.001572
0.245440 0.785959 0.001149
0.249224 0.785832 0.001016
0.253065 0.786843 0.000828
0.256725 0.784362 0.000800
0.260343 0.781542 0.000786
0.264205 0.782923 0.000572
0.268076 0.784224 0.000360
0.271886 0.784503 0.000193
0.275685 0.784571 0.000033
0.279498 0.784775 -0.000135
0.283255 0.784264 -0.000272
0.287018 0.783850 -0.000415
0.290953 0.785215 -0.000646
0.294740 0.784952 -0.000801
0.298503 0.784446 -0.000946
0.302900 0.789694 -0.001376
0.306901 0.791031 -0.001618
0.310648 0.790100 -0.001749
0.314308 0.788495 -0.001848
0.317837 0.785954 -0.001901
0.321580 0.785149 -0.002043
0.325531 0.785856 -0.002263
0.329365 0.785655 -0.002439
0.333014 0.784180 -0.002551
0.338272 0.793300 -0.003208
0.341512 0.788996 -0.003179
0.345394 0.788866 -0.003367
0.349319 0.788959 -0.003567
0.353141 0.788404 -0.003736
0.356986 0.787967 -0.003912
0.361377 0.790527 -0.004247
0.365969 0.793995 -0.004634
0.370502 0.796937 -0.004995
0.374522 0.797071 -0.005210
0.378293 0.795909 -0.005357
0.380767 0.788442 -0.005165
0.384596 0.787728 -0.005337
0.389100 0.790150 -0.005680
0.393221 0.790683 -0.005923
0.397424 0.791514 -0.006184
0.401661 0.792421 -0.006452
0.405472 0.791431 -0.006616
0.409464 0.791202 -0.006823
0.413463 0.790969 -0.007032
0.417657 0.791488 -0.007285
0.423149 0.797065 -0.007825
0.427646 0.798542 -0.008136
0.431725 0.798341 -0.008355
0.434916 0.794808 -0.008383
0.437763 0.790105 -0.008344
0.442589 0.792634 -0.008723
0.446981 0.793507 -0.009008
0.451259 0.793917 -0.009268
0.455435 0.793930 -0.009507
0.461749 0.801060 -0.010167
0.466550 0.802933 -0.010522
0.468256 0.794696 -0.010275
0.471630 0.791995 -0.010358
0.475896 0.792141 -0.010612
0.480174 0.792282 -0.010868
0.487580 0.801879 -0.011701
0.492482 0.803657 -0.012064
0.495632 0.800190 -0.012107
0.498312 0.795427 -0.012070
0.502051 0.793795 -0.012226
0.506787 0.794977 -0.012558
0.512989 0.800159 -0.013145
0.516338 0.797354 -0.013233
0.521068 0.798313 -0.013560
0.524846 0.796681 -0.013724
0.528986 0.796003 -0.013951
0.533144 0.795357 -0.014182
0.538099 0.796721 -0.014545
0.543665 0.799550 -0.015006
0.548295 0.799942 -0.015312
0.552699 0.799733 -0.015581
0.556435 0.797878 -0.015745
0.561511 0.799232 -0.016122
0.566535 0.800389 -0.016491
0.571558 0.801475 -0.016858
0.577050 0.803572 -0.017297
0.582471 0.805418 -0.017723
0.585522 0.801870 -0.017786
0.587987 0.797075 -0.017765
0.593199 0.798359 -0.018162
0.600357 0.803770 -0.018849
0.604420 0.802412 -0.019072
0.608690 0.801481 -0.019328
0.616457 0.807814 -0.020098
0.621663 0.808686 -0.020490
