ply
format ascii 1.0
comment ---
element vertex 1703
property float x
property float y
property float z
element face 0
property list uchar uint vertex_indices
end_header
0.701287 0.820202 -0.306744
0.706960 0.820560 -0.307081
0.712916 0.821577 -0.307565
0.718773 0.822272 -0.307981
0.724679 0.823015 -0.308412
0.730146 0.822621 -0.308596
0.736158 0.823496 -0.309062
0.741401 0.822468 -0.309114
0.746778 0.821729 -0.309232
0.754159 0.825586 -0.310364
0.760030 0.825844 -0.310709
0.765642 0.825455 -0.310915
0.771309 0.825142 -0.311141
0.776649 0.824059 -0.311200
0.783833 0.826944 -0.312142
0.789426 0.826290 -0.312304
0.795350 0.826291 -0.312615
0.800884 0.825414 -0.312735
0.807035 0.825768 -0.313133
0.813015 0.825701 -0.313442
0.819794 0.827181 -0.314101
0.825772 0.826965 -0.314386
0.834180 0.831472 -0.315734
0.839359 0.829517 -0.315639
0.844267 0.827016 -0.315426
0.850104 0.826269 -0.315611
0.857178 0.827792 -0.316312
0.864495 0.829659 -0.317097
0.871488 0.830815 -0.317729
0.877809 0.830647 -0.318066
0.884814 0.831634 -0.318672
0.890500 0.830178 -0.318728
0.897278 0.830596 -0.319216
0.901547 0.826562 -0.318695
0.911662 0.832587 -0.320474
0.918355 0.832582 -0.320885
0.925348 0.832998 -0.321398
0.931857 0.832516 -0.321711
0.938308 0.831869 -0.321991
0.944409 0.830583 -0.322130
0.950357 0.828994 -0.322205
0.959058 0.831742 -0.323287
0.966071 0.831689 -0.323728
0.972927 0.831311 -0.324099
0.981073 0.832850 -0.324921
0.988416 0.833052 -0.325438
0.995772 0.833188 -0.325946
1.004027 0.834591 -0.326755
1.011708 0.835040 -0.327346
1.018069 0.833479 -0.327469
1.025991 0.834139 -0.328117
1.035072 0.836384 -0.329143
1.041842 0.835244 -0.329373
1.047882 0.833048 -0.329354
1.056544 0.834489 -0.330197
1.064164 0.834422 -0.330683
1.074446 0.837943 -0.332023
1.080146 0.835188 -0.331866
1.087358 0.834481 -0.332193
1.096521 0.836351 -0.333134
1.103553 0.835389 -0.333392
1.112669 0.837148 -0.334297
1.117337 0.833177 -0.333814
1.126550 0.835077 -0.334738
1.136271 0.837614 -0.335807
1.143584 0.837138 -0.336136
1.150407 0.836117 -0.336320
1.158666 0.836931 -0.336936
1.165797 0.836428 -0.337217
1.173573 0.836788 -0.337691
-0.068596 0.787057 -0.281903
-0.063286 0.785400 -0.281718
-0.057977 0.783887 -0.281552
-0.054697 0.788067 -0.282518
-0.052273 0.794907 -0.284010
-0.048126 0.797238 -0.284589
-0.041631 0.793076 -0.283857
-0.034348 0.786640 -0.282660
-0.029674 0.787812 -0.282983
-0.024928 0.788910 -0.283285
-0.020687 0.791673 -0.283916
-0.016150 0.793693 -0.284393
-0.012590 0.798906 -0.285508
-0.007395 0.799142 -0.285617
-0.001516 0.797212 -0.285286
0.004242 0.795644 -0.285024
0.008977 0.797473 -0.285445
0.015540 0.793126 -0.284619
0.022466 0.787358 -0.283504
0.027728 0.787255 -0.283529
0.033019 0.787022 -0.283528
0.038487 0.786093 -0.283386
0.042744 0.789638 -0.284147
0.046373 0.795682 -0.285413
0.051166 0.797368 -0.285800
0.056538 0.796759 -0.285725
0.061014 0.799707 -0.286370
0.065390 0.803130 -0.287112
0.071224 0.800429 -0.286619
0.075171 0.805730 -0.287745
0.079865 0.807869 -0.288234
0.085881 0.804010 -0.287512
0.092083 0.799021 -0.286563
0.097339 0.798207 -0.286461
0.101951 0.800412 -0.286972
0.106510 0.802906 -0.287545
0.111130 0.805121 -0.288063
0.116238 0.804786 -0.288068
0.122030 0.800637 -0.287302
0.127208 0.799580 -0.287165
0.131715 0.802212 -0.287779
0.137245 0.798880 -0.287186
0.143056 0.793550 -0.286189
0.147959 0.793482 -0.286262
0.152812 0.793636 -0.286383
0.157649 0.793820 -0.286513
0.162326 0.795022 -0.286852
0.166638 0.798818 -0.287722
0.170748 0.804284 -0.288935
0.175198 0.807474 -0.289688
0.179504 0.811961 -0.290709
0.184134 0.814044 -0.291243
0.189277 0.811820 -0.290901
0.193904 0.813937 -0.291447
0.198602 0.815493 -0.291881
0.203877 0.811478 -0.291180
0.208971 0.808851 -0.290764
0.213829 0.808425 -0.290799
0.218720 0.807509 -0.290737
0.223573 0.806875 -0.290734
0.228371 0.806790 -0.290845
0.233142 0.806996 -0.291019
0.238124 0.804116 -0.290561
0.242865 0.804481 -0.290770
0.247456 0.807385 -0.291504
0.251914 0.813145 -0.292828
0.256887 0.809674 -0.292255
0.262102 0.800113 -0.290430
0.266874 0.799165 -0.290378
0.271609 0.798980 -0.290485
0.276291 0.800392 -0.290924
0.280978 0.802084 -0.291422
0.285566 0.808954 -0.292993
0.290266 0.813185 -0.294021
0.295075 0.811898 -0.293911
0.299847 0.813813 -0.294464
0.304655 0.810696 -0.293977
0.309447 0.815787 -0.295193
0.314290 0.820926 -0.296423
0.319055 0.814391 -0.295229
0.323841 0.812935 -0.295092
0.328578 0.809641 -0.294572
0.333265 0.805465 -0.293870
0.338032 0.805206 -0.293983
0.342891 0.807569 -0.294645
0.347768 0.809713 -0.295263
0.352656 0.811587 -0.295826
0.357387 0.809758 -0.295618
0.362098 0.807829 -0.295389
0.366869 0.807140 -0.295419
0.371693 0.807336 -0.295637
0.376521 0.807478 -0.295844
0.381316 0.807093 -0.295942
0.386135 0.806981 -0.296098
0.390906 0.806239 -0.296122
0.395786 0.806762 -0.296414
0.400715 0.807706 -0.296795
0.405611 0.808151 -0.297073
0.410514 0.808556 -0.297343
0.415497 0.809623 -0.297754
0.420497 0.810694 -0.298168
0.425401 0.810792 -0.298377
0.430275 0.810568 -0.298518
0.435062 0.809619 -0.298507
0.439981 0.809702 -0.298715
0.445078 0.811047 -0.299192
0.449827 0.809752 -0.299110
0.454640 0.808940 -0.299131
0.459598 0.809095 -0.299358
0.464716 0.810232 -0.299795
0.469693 0.810366 -0.300020
0.474487 0.809327 -0.299995
0.479063 0.807018 -0.299699
0.484889 0.811973 -0.300957
0.489923 0.812185 -0.301203
0.494787 0.811411 -0.301238
0.499762 0.811225 -0.301400
0.504807 0.811364 -0.301633
0.510023 0.812317 -0.302041
0.515239 0.813177 -0.302431
0.520343 0.813418 -0.302689
0.525294 0.812890 -0.302782
0.530182 0.812055 -0.302810
0.535485 0.813071 -0.303238
0.540939 0.814665 -0.303793
0.546193 0.815293 -0.304140
0.551189 0.814768 -0.304239
0.556188 0.814239 -0.304338
0.561420 0.814630 -0.304638
0.566753 0.815362 -0.305013
0.571931 0.815424 -0.305244
0.577413 0.816596 -0.305718
0.582748 0.817138 -0.306056
0.587860 0.816806 -0.306206
0.593077 0.816820 -0.306432
0.598330 0.816921 -0.306679
0.603603 0.817045 -0.306932
0.608699 0.816525 -0.307046
0.614102 0.817006 -0.307381
0.619869 0.818623 -0.307966
0.625216 0.818792 -0.308236
0.630319 0.818139 -0.308328
0.635487 0.817666 -0.308460
0.640720 0.817368 -0.308633
0.645567 0.815869 -0.308542
0.651512 0.817643 -0.309176
0.657761 0.820209 -0.309987
0.663450 0.821036 -0.310417
0.668714 0.820589 -0.310567
0.674191 0.820705 -0.310844
0.679900 0.821413 -0.311255
0.685762 0.822471 -0.311746
0.691695 0.823641 -0.312266
0.696364 0.821392 -0.312027
0.701560 0.820530 -0.312099
0.707438 0.821397 -0.312559
0.713568 0.822831 -0.313150
0.719343 0.823288 -0.313525
0.724903 0.823152 -0.313771
0.730845 0.823895 -0.314216
0.736902 0.824847 -0.314713
0.742227 0.823985 -0.314805
0.748233 0.824683 -0.315252
0.754349 0.825562 -0.315743
0.760698 0.826897 -0.316341
0.766070 0.825940 -0.316426
0.771579 0.825255 -0.316576
0.777342 0.825087 -0.316846
0.784630 0.828167 -0.317857
0.792739 0.832871 -0.319243
0.797830 0.831017 -0.319145
0.802379 0.828007 -0.318786
0.812615 0.836752 -0.321112
0.817166 0.833623 -0.320735
0.823436 0.833969 -0.321156
0.830804 0.836425 -0.322066
0.839663 0.841692 -0.323627
0.851230 0.852038 -0.326364
0.858391 0.853596 -0.327091
0.861558 0.847450 -0.326049
0.864977 0.841844 -0.325133
0.865345 0.830621 -0.322919
0.870380 0.828150 -0.322730
0.877621 0.829668 -0.323471
0.884228 0.829935 -0.323927
0.891497 0.831296 -0.324645
0.896276 0.828172 -0.324323
0.903302 0.828942 -0.324915
0.911269 0.831232 -0.325870
0.919067 0.833102 -0.326734
0.925398 0.832384 -0.326998
0.931914 0.831907 -0.327325
0.938224 0.831018 -0.327561
0.944597 0.830169 -0.327811
0.952094 0.831063 -0.328479
0.958900 0.830756 -0.328870
0.966630 0.831828 -0.329594
0.973013 0.830699 -0.329801
0.981545 0.832823 -0.330788
0.988299 0.832113 -0.331106
0.995279 0.831679 -0.331495
1.002910 0.832152 -0.332106
1.012268 0.835092 -0.333314
1.018452 0.833261 -0.333381
1.027457 0.835481 -0.334427
1.035337 0.835979 -0.335062
1.042115 0.834847 -0.335305
1.051139 0.836834 -0.336305
1.057388 0.834878 -0.336350
1.065926 0.836063 -0.337157
1.072797 0.834921 -0.337397
1.080740 0.835214 -0.337985
1.087739 0.834222 -0.338255
1.094708 0.833196 -0.338511
1.102695 0.833514 -0.339092
1.113168 0.837048 -0.340459
1.120785 0.836866 -0.340903
1.128315 0.836598 -0.341317
1.135856 0.836381 -0.341732
1.143991 0.836950 -0.342329
1.152211 0.837665 -0.342951
1.158932 0.836591 -0.343112
1.165499 0.835419 -0.343232
1.171245 0.833357 -0.343111
-0.081762 0.820782 -0.293689
-0.061252 0.778984 -0.285271
-0.055507 0.776188 -0.284837
-0.052585 0.781218 -0.285999
-0.051249 0.790955 -0.288120
-0.047509 0.794354 -0.288932
-0.040711 0.789273 -0.287991
-0.035935 0.790031 -0.288242
-0.032153 0.793859 -0.289118
-0.027397 0.795005 -0.289435
-0.023577 0.799126 -0.290358
-0.018083 0.798303 -0.290257
-0.012964 0.798701 -0.290403
-0.007967 0.799559 -0.290639
-0.002306 0.798342 -0.290443
0.003461 0.796765 -0.290169
0.008926 0.796166 -0.290094
0.015158 0.792939 -0.289474
0.021610 0.788828 -0.288669
0.027328 0.787146 -0.288364
0.032692 0.786661 -0.288306
0.037573 0.787896 -0.288603
0.041396 0.793111 -0.289722
0.044165 0.802518 -0.291708
0.051360 0.794991 -0.290195
0.056047 0.797076 -0.290670
0.059708 0.803361 -0.292015
0.065405 0.801392 -0.291655
0.070529 0.801689 -0.291765
0.074812 0.805577 -0.292620
0.079606 0.807290 -0.293027
0.085467 0.804157 -0.292433
0.092273 0.796400 -0.290883
0.097334 0.796481 -0.290958
0.101645 0.800138 -0.291778
0.106182 0.802755 -0.292384
0.110330 0.807414 -0.293417
0.115238 0.808226 -0.293656
0.121205 0.803263 -0.292699
0.126693 0.800593 -0.292219
0.131847 0.799589 -0.292088
0.137352 0.796366 -0.291499
0.142722 0.793679 -0.291023
0.147539 0.794186 -0.291213
0.152501 0.793701 -0.291200
0.157525 0.792676 -0.291077
0.161873 0.796139 -0.291892
0.166301 0.799183 -0.292622
0.171014 0.800264 -0.292946
0.175677 0.801712 -0.293350
0.180437 0.802420 -0.293602
0.184632 0.807746 -0.294821
0.189478 0.807852 -0.294953
0.193954 0.811193 -0.295764
0.199393 0.805766 -0.294745
0.204646 0.801579 -0.293987
0.209079 0.805294 -0.294884
0.213766 0.806579 -0.295275
0.218830 0.803652 -0.294787
0.223922 0.799992 -0.294146
0.228091 0.807545 -0.295859
0.232978 0.806295 -0.295728
0.237977 0.803201 -0.295212
0.242816 0.802059 -0.295107
0.247650 0.800782 -0.294976
0.252293 0.802681 -0.295515
0.256975 0.804106 -0.295956
0.261895 0.800574 -0.295355
0.266710 0.798740 -0.295114
0.271435 0.798889 -0.295291
0.276144 0.799529 -0.295575
0.280830 0.801254 -0.296090
0.285503 0.804301 -0.296887
0.290264 0.803946 -0.296966
0.295013 0.804277 -0.297192
0.299779 0.803027 -0.297085
0.304539 0.800220 -0.296649
0.309278 0.800223 -0.296810
0.314025 0.801211 -0.297182
0.318789 0.802696 -0.297661
0.323587 0.805286 -0.298378
0.328332 0.803965 -0.298264
0.333074 0.802890 -0.298203
0.337837 0.802766 -0.298346
0.342656 0.804199 -0.298823
0.347489 0.805555 -0.299285
0.352286 0.805715 -0.299493
0.357057 0.805229 -0.299565
0.361861 0.805350 -0.299767
0.366696 0.805910 -0.300065
0.371524 0.806202 -0.300307
0.376338 0.806170 -0.300480
0.381162 0.806219 -0.300672
0.385983 0.806145 -0.300839
0.390941 0.807678 -0.301352
0.395718 0.806909 -0.301372
0.400627 0.807585 -0.301703
0.405532 0.808091 -0.301999
0.410417 0.808290 -0.302231
0.415343 0.808806 -0.302531
0.420253 0.809071 -0.302779
0.425162 0.809249 -0.303009
0.430032 0.809030 -0.303154
0.434838 0.808263 -0.303181
0.439713 0.808028 -0.303324
0.444728 0.808800 -0.303687
0.449651 0.808806 -0.303884
0.454481 0.808117 -0.303932
0.459483 0.808578 -0.304230
0.464706 0.810389 -0.304824
0.469738 0.810841 -0.305123
0.474523 0.809712 -0.305077
0.479699 0.810921 -0.305544
0.484808 0.811625 -0.305901
0.489959 0.812482 -0.306293
0.494960 0.812429 -0.306487
0.499908 0.812053 -0.306611
0.504960 0.812190 -0.306848
0.510220 0.813324 -0.307306
0.515251 0.813238 -0.307496
0.520659 0.814918 -0.308077
0.525378 0.813250 -0.307921
0.530348 0.812766 -0.308027
0.535743 0.814165 -0.308550
0.541064 0.815136 -0.308980
0.546355 0.815893 -0.309364
0.551358 0.815373 -0.309466
0.556307 0.814612 -0.309517
0.561319 0.814091 -0.309621
0.567003 0.816204 -0.310312
0.572533 0.817596 -0.310844
0.577895 0.818257 -0.311216
0.582923 0.817611 -0.311298
0.588159 0.817708 -0.311547
0.593464 0.818006 -0.311842
0.598575 0.817573 -0.311976
0.603636 0.816937 -0.312066
0.608873 0.816885 -0.312288
0.614363 0.817637 -0.312691
0.619777 0.818070 -0.313026
0.624870 0.817414 -0.313117
0.629986 0.816811 -0.313222
0.635544 0.817563 -0.313634
0.641325 0.818936 -0.314187
0.646290 0.817754 -0.314168
0.651183 0.816355 -0.314100
0.658942 0.823351 -0.315932
0.663651 0.821289 -0.315720
0.668853 0.820647 -0.315831
0.674793 0.822043 -0.316406
0.680067 0.821519 -0.316548
0.685453 0.821264 -0.316754
0.692281 0.824837 -0.317833
0.697999 0.825329 -0.318215
0.703611 0.825483 -0.318523
0.710583 0.829077 -0.319619
0.716703 0.830365 -0.320193
0.724381 0.835461 -0.321643
0.730315 0.836069 -0.322070
0.734530 0.832425 -0.321525
0.738598 0.828474 -0.320911
0.744346 0.828550 -0.321224
0.747943 0.823542 -0.320370
0.754004 0.824295 -0.320845
0.760541 0.826059 -0.321558
0.767966 0.829716 -0.322714
0.778448 0.840019 -0.325415
0.779391 0.829075 -0.323200
0.786471 0.831641 -0.324119
0.793483 0.833938 -0.324982
0.801742 0.838751 -0.326437
0.806370 0.835802 -0.326089
0.808159 0.826999 -0.324378
0.815265 0.829182 -0.325234
0.823952 0.834435 -0.326816
0.828754 0.831759 -0.326547
0.835528 0.832959 -0.327191
0.846944 0.843090 -0.329943
0.855050 0.846551 -0.331135
0.860293 0.844420 -0.331018
0.864571 0.840449 -0.330469
0.866427 0.831996 -0.328863
0.872216 0.830881 -0.328995
0.877889 0.829503 -0.329071
0.883887 0.828663 -0.329279
0.890653 0.829127 -0.329804
0.897850 0.830259 -0.330494
0.904359 0.830091 -0.330882
0.912475 0.832605 -0.331917
0.918132 0.830808 -0.331928
0.925156 0.831263 -0.332484
0.931747 0.830907 -0.332852
0.938790 0.831219 -0.333388
0.945878 0.831514 -0.333927
0.953512 0.832599 -0.334663
0.958973 0.830122 -0.334543
0.969863 0.836157 -0.336495
0.974457 0.832181 -0.336022
0.980974 0.831171 -0.336274
0.989064 0.832500 -0.337103
0.994998 0.830473 -0.337117
1.005811 0.835692 -0.338912
1.012116 0.834075 -0.339036
1.020109 0.834886 -0.339760
1.026937 0.833929 -0.340053
1.033570 0.832651 -0.340268
1.044968 0.838086 -0.342149
1.052936 0.838550 -0.342801
1.060608 0.838545 -0.343338
1.066967 0.836695 -0.343415
1.074737 0.836765 -0.343968
1.081625 0.835618 -0.344214
1.088616 0.834610 -0.344491
1.102205 0.842312 -0.346952
1.110773 0.843302 -0.347724
1.117510 0.841908 -0.347887
1.122538 0.838367 -0.347496
1.128399 0.835973 -0.347383
1.136304 0.836226 -0.347928
1.144910 0.837391 -0.348693
1.153351 0.838385 -0.349400
1.160959 0.838401 -0.349844
1.166403 0.835865 -0.349618
1.163617 0.823554 -0.346868
-0.067766 0.782964 -0.290798
-0.061047 0.777454 -0.289794
-0.053872 0.770756 -0.288529
-0.052235 0.779198 -0.290435
-0.048967 0.783518 -0.291466
-0.045154 0.786584 -0.292225
-0.039838 0.785600 -0.292122
-0.035044 0.786233 -0.292350
-0.031481 0.790626 -0.293364
-0.027185 0.793078 -0.293961
-0.023606 0.797879 -0.295047
-0.016365 0.791656 -0.293801
-0.010571 0.789828 -0.293476
-0.005385 0.789929 -0.293554
-0.000155 0.789940 -0.293608
0.004913 0.790516 -0.293777
0.010232 0.790298 -0.293776
0.015808 0.789210 -0.293589
0.021396 0.788038 -0.293381
0.026893 0.787134 -0.293229
0.032029 0.787479 -0.293340
0.036971 0.788519 -0.293598
0.041755 0.790154 -0.293981
0.047155 0.789460 -0.293872
0.052598 0.788520 -0.293711
0.057515 0.789574 -0.293974
0.062123 0.791864 -0.294499
0.066866 0.793627 -0.294915
0.071908 0.794126 -0.295064
0.077509 0.792154 -0.294693
0.080555 0.801327 -0.296684
0.086990 0.795489 -0.295498
0.092415 0.793970 -0.295228
0.097566 0.793599 -0.295205
0.102032 0.796450 -0.295867
0.106952 0.797091 -0.296064
0.112192 0.796036 -0.295903
0.117122 0.796467 -0.296061
0.121921 0.797528 -0.296355
0.126923 0.797432 -0.296406
0.132408 0.794489 -0.295855
0.137417 0.794071 -0.295844
0.142167 0.795102 -0.296143
0.147047 0.795294 -0.296267
0.152027 0.794770 -0.296242
0.157095 0.793529 -0.296066
0.161931 0.793709 -0.296196
0.166776 0.793750 -0.296299
0.171435 0.795072 -0.296678
0.176392 0.794135 -0.296578
0.181259 0.793758 -0.296600
0.186116 0.793346 -0.296618
0.190665 0.795445 -0.297174
0.195442 0.795609 -0.297320
0.200203 0.795867 -0.297488
0.204932 0.796371 -0.297712
0.209817 0.795262 -0.297593
0.214350 0.797739 -0.298245
0.219181 0.797047 -0.298220
0.223817 0.798528 -0.298664
0.228575 0.798586 -0.298805
0.233247 0.799720 -0.299179
0.237974 0.800167 -0.299408
0.242750 0.799860 -0.299478
0.247512 0.799679 -0.299576
0.252220 0.800389 -0.299869
0.256965 0.800450 -0.300024
0.261699 0.800711 -0.300224
0.266501 0.799332 -0.300073
0.271254 0.798893 -0.300126
0.275971 0.799447 -0.300395
0.280677 0.800552 -0.300786
0.285397 0.801501 -0.301145
0.290113 0.803194 -0.301667
0.294879 0.802285 -0.301628
0.299632 0.801983 -0.301722
0.304383 0.801564 -0.301792
0.309132 0.800496 -0.301723
0.313881 0.801041 -0.302005
0.318646 0.802311 -0.302447
0.323411 0.802684 -0.302696
0.328186 0.803273 -0.302993
0.332958 0.803397 -0.303191
0.337714 0.802819 -0.303237
0.342493 0.802972 -0.303444
0.347308 0.803921 -0.303826
0.352129 0.804723 -0.304178
0.356909 0.804424 -0.304290
0.361751 0.805267 -0.304654
0.366588 0.805811 -0.304954
0.371476 0.807018 -0.305401
0.376320 0.807322 -0.305651
0.381090 0.806482 -0.305651
0.385877 0.805912 -0.305712
0.390941 0.808713 -0.306515
0.395855 0.809420 -0.306859
0.400563 0.807735 -0.306677
0.405417 0.807668 -0.306853
0.410397 0.808795 -0.307293
0.415300 0.809041 -0.307541
0.420110 0.808359 -0.307584
0.425101 0.809248 -0.307976
0.429978 0.809057 -0.308129
0.434771 0.808163 -0.308128
0.439704 0.808353 -0.308368
0.444579 0.808046 -0.308499
0.449484 0.807929 -0.308673
0.454482 0.808407 -0.308980
0.459747 0.810595 -0.309669
0.464898 0.811852 -0.310153
0.469738 0.811035 -0.310175
0.474581 0.810236 -0.310202
0.479452 0.809599 -0.310266
0.485096 0.813398 -0.311323
0.490128 0.813522 -0.311560
0.495285 0.814269 -0.311938
0.500258 0.813963 -0.312080
0.505242 0.813685 -0.312230
0.510179 0.813136 -0.312320
0.515646 0.815178 -0.312993
0.520976 0.816419 -0.313488
0.525948 0.815887 -0.313585
0.530886 0.815180 -0.313644
0.535701 0.813912 -0.313576
0.540929 0.814463 -0.313921
0.546427 0.816111 -0.314515
0.552024 0.818060 -0.315179
0.556453 0.815089 -0.314730
0.561401 0.814289 -0.314774
0.566694 0.814839 -0.315126
0.572526 0.817410 -0.315938
0.578416 0.820062 -0.316772
0.584595 0.823649 -0.317821
0.589993 0.824209 -0.318183
0.594719 0.822298 -0.317982
0.599901 0.822022 -0.318156
0.605500 0.823156 -0.318654
0.610966 0.823755 -0.319032
0.615136 0.819969 -0.318407
0.619932 0.818321 -0.318272
0.624690 0.816567 -0.318114
0.629732 0.815729 -0.318168
0.635515 0.817186 -0.318752
0.642515 0.822294 -0.320180
0.648545 0.824265 -0.320888
0.655773 0.829696 -0.322399
0.665440 0.842063 -0.325519
0.673051 0.848073 -0.327175
0.679201 0.849708 -0.327824
0.680423 0.837451 -0.325254
0.686753 0.839597 -0.326025
0.687522 0.826518 -0.323260
0.693486 0.827684 -0.323806
0.702679 0.837300 -0.326325
0.711952 0.846805 -0.328826
0.717240 0.845762 -0.328872
0.720915 0.840612 -0.327960
0.726443 0.840180 -0.328153
0.732144 0.840136 -0.328440
0.736872 0.837673 -0.328162
0.740684 0.833023 -0.327374
0.744246 0.827850 -0.326462
0.747799 0.822734 -0.325566
0.754692 0.825403 -0.326506
0.760421 0.825294 -0.326795
0.776043 0.847380 -0.332337
0.774232 0.830140 -0.328586
0.778362 0.826300 -0.328005
0.788783 0.836119 -0.330669
0.792329 0.830928 -0.329775
0.803479 0.841871 -0.332724
0.817412 0.858295 -0.336992
0.811682 0.833702 -0.331482
0.813554 0.825121 -0.329789
0.822173 0.830266 -0.331383
0.826326 0.826333 -0.330808
0.833587 0.828537 -0.331710
0.839400 0.827805 -0.331913
0.845283 0.827153 -0.332141
0.853264 0.830429 -0.333322
0.859311 0.829927 -0.333597
0.866805 0.832047 -0.334514
0.873084 0.831814 -0.334867
0.878927 0.830719 -0.335018
0.884678 0.829406 -0.335121
0.890388 0.827971 -0.335200
0.898154 0.830098 -0.336153
0.905626 0.831584 -0.336959
0.911773 0.830687 -0.337188
0.918275 0.830329 -0.337556
0.923995 0.828584 -0.337589
0.932267 0.831032 -0.338661
0.939650 0.831885 -0.339348
0.947407 0.833243 -0.340167
0.953381 0.831625 -0.340257
0.959415 0.830055 -0.340364
0.969191 0.834320 -0.341927
0.975512 0.833038 -0.342119
0.982004 0.831967 -0.342368
0.991266 0.835057 -0.343663
0.997618 0.833621 -0.343831
1.005405 0.834279 -0.344530
1.012944 0.834485 -0.345120
1.018904 0.832313 -0.345115
1.027066 0.833301 -0.345910
1.037020 0.836767 -0.347336
1.042994 0.834473 -0.347307
1.053470 0.838478 -0.348878
1.060388 0.837423 -0.349165
1.069979 0.840015 -0.350381
1.076751 0.838692 -0.350597
1.083680 0.837579 -0.350862
1.089410 0.834872 -0.350713
1.100704 0.839542 -0.352455
1.109786 0.841231 -0.353427
1.116284 0.839553 -0.353521
1.123039 0.838252 -0.353702
1.130207 0.837525 -0.354020
1.137061 0.836453 -0.354235
1.145496 0.837410 -0.354964
1.153728 0.838156 -0.355623
1.161953 0.838942 -0.356277
1.169193 0.838593 -0.356617
1.178554 0.840878 -0.357628
-0.064576 0.773630 -0.293658
-0.061110 0.776637 -0.294461
-0.056761 0.777527 -0.294799
-0.052584 0.779088 -0.295269
-0.048621 0.781452 -0.295903
-0.043270 0.780144 -0.295736
-0.038354 0.780187 -0.295849
-0.033125 0.779465 -0.295789
-0.028849 0.781638 -0.296345
-0.023745 0.781531 -0.296401
-0.019074 0.782829 -0.296752
-0.014463 0.784441 -0.297165
-0.009789 0.785983 -0.297558
-0.004529 0.785782 -0.297568
0.000432 0.786586 -0.297791
0.005573 0.786861 -0.297895
0.010536 0.787772 -0.298134
0.015759 0.787839 -0.298188
0.021340 0.786674 -0.297972
0.026319 0.787583 -0.298204
0.031131 0.789108 -0.298568
0.036167 0.789844 -0.298761
0.041637 0.788953 -0.298602
0.047004 0.788377 -0.298511
0.052299 0.788010 -0.298466
0.057128 0.789421 -0.298807
0.061980 0.790737 -0.299128
0.066911 0.791716 -0.299378
0.072363 0.790462 -0.299146
0.077304 0.791286 -0.299367
0.082222 0.792176 -0.299604
0.087493 0.791426 -0.299488
0.092424 0.792129 -0.299689
0.097341 0.792852 -0.299897
0.102396 0.792851 -0.299951
0.107494 0.792542 -0.299941
0.112376 0.793236 -0.300151
0.117072 0.794847 -0.300564
0.121975 0.795342 -0.300737
0.127159 0.794215 -0.300561
0.132292 0.793223 -0.300417
0.137063 0.794199 -0.300704
0.141906 0.794707 -0.300893
0.146727 0.795291 -0.301101
0.151693 0.794889 -0.301097
0.156675 0.794268 -0.301048
0.161510 0.794520 -0.301193
0.166445 0.793998 -0.301172
0.171279 0.794087 -0.301287
0.175866 0.795969 -0.301796
0.180560 0.797062 -0.302137
0.185448 0.796578 -0.302135
0.190220 0.796952 -0.302324
0.195250 0.794981 -0.302004
0.199983 0.795517 -0.302234
0.204539 0.797748 -0.302837
0.209328 0.797735 -0.302953
0.214186 0.796919 -0.302895
0.218868 0.797916 -0.303237
0.223596 0.798407 -0.303471
0.228382 0.798156 -0.303544
0.233104 0.798677 -0.303790
0.237837 0.799032 -0.304001
0.242551 0.799675 -0.304278
0.247322 0.799401 -0.304356
0.252081 0.799261 -0.304466
0.256794 0.799917 -0.304753
0.261509 0.800637 -0.305057
0.266257 0.800677 -0.305213
0.271039 0.799758 -0.305159
0.275774 0.799995 -0.305363
0.280515 0.800088 -0.305536
0.285258 0.800085 -0.305691
0.289982 0.801183 -0.306091
0.294718 0.802168 -0.306468
0.299482 0.801059 -0.306384
0.304232 0.800952 -0.306523
0.308984 0.802405 -0.307009
0.313757 0.804674 -0.307680
0.318540 0.805695 -0.308075
0.323290 0.803813 -0.307827
0.328054 0.803374 -0.307901
0.332843 0.803979 -0.308208
0.337618 0.803816 -0.308347
0.342370 0.802937 -0.308327
0.347234 0.805064 -0.308980
0.352053 0.805597 -0.309278
0.356822 0.804917 -0.309307
0.361628 0.804973 -0.309501
0.366468 0.805525 -0.309808
0.371363 0.806805 -0.310280
0.376284 0.808216 -0.310783
0.381142 0.808492 -0.311033
0.385942 0.807917 -0.311093
0.390774 0.807728 -0.311241
0.395725 0.808872 -0.311690
0.400525 0.808181 -0.311727
0.405353 0.807793 -0.311834
0.410355 0.809094 -0.312322
0.415321 0.809885 -0.312697
0.420234 0.810068 -0.312937
0.424967 0.808617 -0.312807
0.429884 0.808762 -0.313040
0.434982 0.810280 -0.313584
0.439665 0.808449 -0.313371
0.444577 0.808390 -0.313560
0.449466 0.808120 -0.313703
0.454472 0.808621 -0.314022
0.460217 0.813991 -0.315450
0.465062 0.813141 -0.315465
0.469908 0.812293 -0.315480
0.474994 0.812917 -0.315833
0.481001 0.818903 -0.317411
0.485848 0.817837 -0.317381
0.490808 0.817421 -0.317500
0.495741 0.816824 -0.317578
0.500651 0.816100 -0.317628
0.505286 0.813944 -0.317351
0.510381 0.814168 -0.317620
0.515603 0.814967 -0.318022
0.520865 0.815870 -0.318451
0.527677 0.823949 -0.320534
0.532681 0.823341 -0.320618
0.537695 0.822764 -0.320711
0.542141 0.819687 -0.320226
0.549882 0.830808 -0.323026
0.554246 0.827262 -0.322436
0.558528 0.823484 -0.321792
0.562867 0.820048 -0.321227
0.567993 0.819810 -0.321405
0.573060 0.819313 -0.321524
0.579880 0.825436 -0.323184
0.585469 0.826710 -0.323719
0.591373 0.829044 -0.324504
0.595256 0.824013 -0.323573
0.599829 0.821550 -0.323241
0.605630 0.823374 -0.323911
0.611282 0.824584 -0.324441
0.616667 0.824825 -0.324747
0.621103 0.821903 -0.324312
0.625303 0.818271 -0.323711
0.630341 0.817379 -0.323755
0.635753 0.817638 -0.324071
0.641839 0.819915 -0.324864
0.649897 0.828039 -0.327040
0.657102 0.833325 -0.328552
0.663718 0.836681 -0.329613
0.675130 0.853721 -0.333915
0.674639 0.836389 -0.330089
0.680208 0.836484 -0.330388
0.687893 0.842365 -0.332064
0.692324 0.839186 -0.331592
0.692666 0.825098 -0.328527
0.703508 0.839085 -0.332143
0.712726 0.848403 -0.334657
0.717856 0.846918 -0.334600
0.723013 0.845489 -0.334560
0.727907 0.843393 -0.334362
0.731537 0.838187 -0.333421
0.736906 0.837294 -0.333516
0.741330 0.834105 -0.333062
0.743915 0.826592 -0.331570
0.749761 0.826837 -0.331946
0.755899 0.827693 -0.332474
0.760931 0.825954 -0.332379
0.772362 0.838585 -0.335762
0.770749 0.821888 -0.332058
0.777751 0.824432 -0.333011
0.783594 0.824342 -0.333331
0.790217 0.825863 -0.334048
0.801578 0.837289 -0.337181
0.821382 0.865994 -0.344540
0.821443 0.853244 -0.341804
0.818583 0.834781 -0.337668
0.821225 0.827759 -0.336325
0.827540 0.828142 -0.336798
0.836547 0.833741 -0.338559
0.842554 0.833309 -0.338845
0.844425 0.824872 -0.337166
0.851933 0.827258 -0.338157
0.859945 0.830462 -0.339358
0.866931 0.831615 -0.340060
0.873891 0.832621 -0.340732
0.879723 0.831480 -0.340880
0.884645 0.828656 -0.340614
0.892497 0.831011 -0.341643
0.898599 0.830166 -0.341882
0.905178 0.830087 -0.342319
0.912459 0.831133 -0.343045
0.918408 0.829817 -0.343186
0.925451 0.830281 -0.343780
0.933779 0.832784 -0.344896
0.939860 0.831464 -0.345056
0.945768 0.829809 -0.345137
0.954306 0.832330 -0.346281
0.960404 0.830839 -0.346416
0.968090 0.831793 -0.347179
0.975888 0.832820 -0.347967
0.982620 0.832106 -0.348319
0.991499 0.834596 -0.349495
0.999666 0.835884 -0.350371
1.006908 0.835693 -0.350874
1.013340 0.834242 -0.351057
1.020442 0.833727 -0.351485
1.028794 0.834962 -0.352367
1.036551 0.835262 -0.353012
1.044140 0.835260 -0.353581
1.052917 0.836868 -0.354570
1.059717 0.835661 -0.354827
1.066975 0.835066 -0.355242
1.077150 0.838408 -0.356685
1.085875 0.839710 -0.357594
1.091962 0.837459 -0.357565
1.096836 0.833645 -0.357116
1.107790 0.837833 -0.358769
1.115868 0.838236 -0.359416
1.123204 0.837699 -0.359804
1.131439 0.838337 -0.360492
1.139359 0.838604 -0.361069
1.145997 0.837318 -0.361218
1.153818 0.837569 -0.361759
1.162312 0.838702 -0.362520
1.170434 0.839437 -0.363155
1.183326 0.845971 -0.365327
-0.066832 0.778617 -0.299580
-0.062510 0.779380 -0.299909
-0.058561 0.781350 -0.300493
-0.053484 0.780476 -0.300439
-0.048893 0.781091 -0.300702
-0.044251 0.781744 -0.300962
-0.039133 0.781210 -0.300951
-0.034208 0.781361 -0.301081
-0.028824 0.780298 -0.300934
-0.024046 0.781119 -0.301193
-0.019201 0.781869 -0.301430
-0.014247 0.782398 -0.301611
-0.009612 0.784017 -0.302026
-0.004656 0.784737 -0.302237
0.000238 0.785733 -0.302504
0.005205 0.786566 -0.302730
0.010385 0.786740 -0.302808
0.015604 0.786808 -0.302858
0.020750 0.787136 -0.302965
0.025881 0.787521 -0.303081
0.030656 0.789184 -0.303480
0.035618 0.790203 -0.303735
0.041192 0.788945 -0.303486
0.046509 0.788577 -0.303434
0.051841 0.788086 -0.303356
0.056978 0.788292 -0.303433
0.061785 0.789786 -0.303796
0.066829 0.790296 -0.303943
0.071874 0.790757 -0.304081
0.077026 0.790703 -0.304107
0.082120 0.790822 -0.304173
0.087091 0.791427 -0.304350
0.092136 0.791631 -0.304440
0.096939 0.792907 -0.304771
0.101954 0.793130 -0.304871
0.107219 0.792034 -0.304682
0.112090 0.792800 -0.304908
0.116817 0.794270 -0.305294
0.121727 0.794741 -0.305462
0.126781 0.794354 -0.305442
0.131804 0.794030 -0.305439
0.136750 0.794039 -0.305513
0.141570 0.794721 -0.305740
0.146500 0.794670 -0.305807
0.151501 0.794070 -0.305755
0.156340 0.794408 -0.305915
0.161321 0.793705 -0.305846
0.165724 0.796949 -0.306660
0.170633 0.796638 -0.306685
0.175465 0.796798 -0.306818
0.180171 0.797876 -0.307159
0.184992 0.798016 -0.307294
0.190023 0.796302 -0.307018
0.194882 0.795880 -0.307033
0.199539 0.797204 -0.307441
0.204228 0.798273 -0.307795
0.209052 0.797983 -0.307848
0.213832 0.798070 -0.307988
0.218605 0.798165 -0.308133
0.223330 0.798772 -0.308395
0.228101 0.798792 -0.308528
0.232896 0.798443 -0.308581
0.237626 0.798890 -0.308815
0.242348 0.799477 -0.309084
0.247097 0.799654 -0.309262
0.251866 0.799432 -0.309354
0.256602 0.799749 -0.309568
0.261290 0.801142 -0.310028
0.266039 0.801318 -0.310216
0.270798 0.801235 -0.310347
0.275549 0.801322 -0.310520
0.280329 0.800399 -0.310466
0.285078 0.800396 -0.310622
0.289801 0.801863 -0.311112
0.294491 0.806919 -0.312417
0.299319 0.801273 -0.311303
0.304076 0.800824 -0.311365
0.308833 0.802720 -0.311962
0.313608 0.804444 -0.312521
0.318401 0.806216 -0.313094
0.323182 0.805918 -0.313199
0.327935 0.804186 -0.312979
0.332724 0.804498 -0.313226
0.337485 0.803655 -0.313211
0.342291 0.804270 -0.313530
0.347167 0.806432 -0.314203
0.352023 0.807588 -0.314649
0.356775 0.806285 -0.314536
0.361520 0.804983 -0.314423
0.366310 0.804624 -0.314527
0.371197 0.805771 -0.314978
0.376305 0.809970 -0.316129
0.381168 0.810152 -0.316362
0.385967 0.809411 -0.316385
0.390788 0.808960 -0.316475
0.395640 0.808851 -0.316645
0.400560 0.809443 -0.316978
0.406085 0.816196 -0.318731
0.411302 0.819195 -0.319623
0.415962 0.816598 -0.319225
0.420788 0.815676 -0.319215
0.425555 0.814253 -0.319089
0.430851 0.817294 -0.319997
0.435942 0.818403 -0.320460
0.440543 0.815602 -0.320019
0.445290 0.814037 -0.319864
0.449983 0.812140 -0.319632
0.454927 0.812056 -0.319822
0.459749 0.811111 -0.319813
0.464905 0.812347 -0.320312
0.470160 0.814073 -0.320927
0.475738 0.817621 -0.321969
0.481868 0.824183 -0.323717
0.487343 0.826554 -0.324490
0.492433 0.826601 -0.324722
0.496632 0.821748 -0.323807
0.500950 0.817739 -0.323089
0.505408 0.814608 -0.322577
0.510335 0.813953 -0.322646
0.515648 0.815183 -0.323158
0.521019 0.816588 -0.323714
0.527512 0.823139 -0.325482
0.533405 0.826602 -0.326528
0.538823 0.827741 -0.327027
0.545166 0.832840 -0.328464
0.550481 0.833273 -0.328802
0.554460 0.828044 -0.327802
0.559042 0.825468 -0.327429
0.565177 0.829196 -0.328550
0.570879 0.831031 -0.329226
0.574626 0.825196 -0.328083
0.577095 0.814704 -0.325832
0.586366 0.829853 -0.329678
0.593155 0.835342 -0.331232
0.596703 0.828981 -0.329965
0.600735 0.824511 -0.329149
0.603941 0.817301 -0.327677
0.610876 0.822960 -0.329281
0.616892 0.825318 -0.330100
0.620804 0.820652 -0.329239
0.625730 0.819372 -0.329190
0.631341 0.820261 -0.329663
0.636697 0.820284 -0.329931
0.641708 0.819206 -0.329936
0.650496 0.829526 -0.332688
0.655459 0.828107 -0.332618
0.659022 0.822586 -0.331558
0.663894 0.820965 -0.331441
0.669512 0.821466 -0.331839
0.677478 0.828475 -0.333817
0.685960 0.836652 -0.336085
0.690784 0.834609 -0.335879
0.694257 0.828960 -0.334798
0.701788 0.834131 -0.336350
0.711601 0.845049 -0.339309
0.718198 0.847358 -0.340177
0.724097 0.847787 -0.340591
0.728930 0.845495 -0.340344
0.730739 0.835763 -0.338277
0.736444 0.835704 -0.338579
0.744230 0.840580 -0.340097
0.742952 0.823831 -0.336307
0.748717 0.823907 -0.336651
0.755256 0.825710 -0.337425
0.763741 0.831836 -0.339270
0.770490 0.833852 -0.340109
0.773991 0.828552 -0.339144
0.778036 0.824515 -0.338493
0.783933 0.824526 -0.338848
0.788868 0.822420 -0.338682
0.808532 0.851395 -0.346252
0.815205 0.852512 -0.346907
0.821935 0.853653 -0.347575
0.826080 0.836916 -0.344172
0.832779 0.837939 -0.344823
0.848890 0.857356 -0.350097
0.851216 0.849485 -0.348533
0.852302 0.839343 -0.346398
0.859603 0.841151 -0.347274
0.866621 0.842311 -0.347995
0.868117 0.833134 -0.346108
0.874103 0.832318 -0.346339
0.879574 0.830509 -0.346325
0.885179 0.828905 -0.346367
0.892736 0.830716 -0.347285
0.900582 0.832912 -0.348310
0.907164 0.832792 -0.348752
0.913433 0.832056 -0.349044
0.919565 0.831022 -0.349266
0.927507 0.832962 -0.350258
0.934282 0.832844 -0.350730
0.939760 0.830519 -0.350639
0.947807 0.832327 -0.351622
0.955378 0.833251 -0.352385
0.962093 0.832714 -0.352777
0.968938 0.832312 -0.353210
0.980179 0.838665 -0.355409
0.983170 0.832124 -0.354256
0.990385 0.832068 -0.354798
0.998132 0.832737 -0.355535
1.008492 0.837207 -0.357278
1.016097 0.837455 -0.357918
1.022198 0.835438 -0.357966
1.029247 0.834766 -0.358370
1.036483 0.834313 -0.358834
1.044905 0.835490 -0.359733
1.052031 0.834780 -0.360132
1.059479 0.834485 -0.360641
1.068993 0.836988 -0.361896
1.077633 0.838225 -0.362813
1.085406 0.838248 -0.363402
1.092343 0.837143 -0.363682
1.100249 0.837327 -0.364303
1.108006 0.837314 -0.364862
1.116142 0.837801 -0.365548
1.124442 0.838506 -0.366282
1.132846 0.839360 -0.367045
1.139784 0.838396 -0.367300
1.146684 0.837450 -0.367544
1.153974 0.837058 -0.367921
1.162012 0.837652 -0.368549
1.171010 0.839473 -0.369494
1.171289 0.830880 -0.367563
-0.066415 0.776585 -0.303979
-0.063248 0.780355 -0.304993
-0.058800 0.780967 -0.305285
-0.054041 0.780924 -0.305418
-0.049419 0.781430 -0.305662
-0.044518 0.781332 -0.305759
-0.039612 0.781373 -0.305877
-0.034363 0.780567 -0.305793
-0.029432 0.780798 -0.305933
-0.024413 0.780893 -0.306033
-0.019564 0.781608 -0.306265
-0.014521 0.781848 -0.306382
-0.009991 0.783769 -0.306873
-0.005267 0.785209 -0.307248
-0.000410 0.786323 -0.307545
0.004531 0.787245 -0.307793
0.009922 0.786730 -0.307713
0.015012 0.787232 -0.307859
0.020326 0.786993 -0.307835
0.025407 0.787557 -0.307991
0.030184 0.789218 -0.308394
0.035159 0.790197 -0.308641
0.040754 0.788879 -0.308369
0.046133 0.788288 -0.308261
0.051076 0.789316 -0.308520
0.056363 0.788976 -0.308470
0.061392 0.789601 -0.308640
0.066391 0.790315 -0.308831
0.071543 0.790348 -0.308870
0.076603 0.790705 -0.308985
0.081617 0.791208 -0.309135
0.086708 0.791301 -0.309195
0.091635 0.792081 -0.309413
0.096497 0.793113 -0.309691
0.101489 0.793487 -0.309823
0.106536 0.793511 -0.309879
0.111594 0.793397 -0.309906
0.116436 0.794313 -0.310171
0.121222 0.795485 -0.310496
0.126062 0.796333 -0.310752
0.131205 0.795422 -0.310611
0.136147 0.795539 -0.310707
0.141227 0.794734 -0.310597
0.146330 0.793655 -0.310429
0.151272 0.793438 -0.310459
0.156117 0.793762 -0.310615
0.160685 0.795894 -0.311186
0.165375 0.797232 -0.311580
0.170310 0.796786 -0.311571
0.175149 0.796941 -0.311703
0.179811 0.798421 -0.312139
0.184697 0.798097 -0.312168
0.189735 0.796373 -0.311880
0.194459 0.797201 -0.312177
0.199116 0.798644 -0.312618
0.203966 0.798266 -0.312646
0.208748 0.798465 -0.312809
0.213561 0.798279 -0.312887
0.218282 0.799037 -0.313184
0.223018 0.799623 -0.313444
0.227806 0.799557 -0.313558
0.232539 0.800138 -0.313822
0.237435 0.798425 -0.313564
0.242160 0.798998 -0.313832
0.246878 0.799718 -0.314137
0.251631 0.799884 -0.314317
0.256319 0.801292 -0.314784
0.261075 0.801459 -0.314970
0.265833 0.801593 -0.315150
0.270603 0.801368 -0.315250
0.275355 0.801605 -0.315458
0.280109 0.801812 -0.315662
0.284821 0.803943 -0.316312
0.289556 0.805885 -0.316921
0.294321 0.807040 -0.317351
0.299069 0.811361 -0.318516
0.303883 0.809839 -0.318332
0.308682 0.807207 -0.317892
0.313479 0.808427 -0.318346
0.318307 0.811327 -0.319192
0.323174 0.814850 -0.320185
0.328016 0.815290 -0.320465
0.332832 0.814364 -0.320430
0.337542 0.810045 -0.319606
0.342538 0.815243 -0.320999
0.347280 0.812506 -0.320546
0.352127 0.812707 -0.320778
0.356842 0.810041 -0.320344
0.361689 0.810253 -0.320582
0.366490 0.809583 -0.320615
0.372290 0.824905 -0.324391
0.376780 0.818508 -0.323089
0.381242 0.812509 -0.321880
0.385932 0.810156 -0.321524
0.390689 0.808834 -0.321411
0.395587 0.809224 -0.321701
0.400680 0.811646 -0.322470
0.406150 0.817684 -0.324092
0.411678 0.823663 -0.325704
0.416612 0.823415 -0.325851
0.420910 0.817377 -0.324635
0.425819 0.817090 -0.324774
0.431292 0.821455 -0.326014
0.436668 0.824659 -0.326983
0.441713 0.825019 -0.327281
0.446304 0.821924 -0.326761
0.450073 0.813106 -0.324885
0.454422 0.808853 -0.324089
0.459561 0.810113 -0.324602
0.465336 0.815363 -0.326066
0.470458 0.816142 -0.326469
0.475512 0.816410 -0.326752
0.481282 0.820858 -0.328033
0.488862 0.835413 -0.331728
0.493392 0.832060 -0.331154
0.497039 0.824038 -0.329464
0.500812 0.817060 -0.328020
0.505254 0.813843 -0.327477
0.510228 0.813426 -0.327603
0.515669 0.815278 -0.328276
0.521166 0.817270 -0.328984
0.527489 0.822988 -0.330590
0.532830 0.823914 -0.331047
0.536932 0.819212 -0.330150
0.541479 0.816617 -0.329760
0.546531 0.816256 -0.329910
0.552568 0.819998 -0.331052
0.559250 0.826191 -0.332789
0.566060 0.832604 -0.334585
0.573583 0.841525 -0.336993
0.574306 0.823792 -0.332943
0.577416 0.815738 -0.331235
0.583386 0.818580 -0.332173
0.591224 0.828090 -0.334736
0.597137 0.830316 -0.335532
0.601941 0.828521 -0.335351
0.605988 0.824132 -0.334538
0.610922 0.822864 -0.334487
0.618137 0.829206 -0.336298
0.620863 0.820573 -0.334450
0.625640 0.818796 -0.334279
0.631250 0.819678 -0.334761
0.636728 0.820078 -0.335127
0.642601 0.821629 -0.335779
0.650646 0.829650 -0.338027
0.655679 0.828423 -0.338003
0.658584 0.820960 -0.336443
0.663818 0.820391 -0.336584
0.669386 0.820744 -0.336955
0.678327 0.830469 -0.339648
0.684535 0.832334 -0.340403
0.687117 0.824253 -0.338695
0.691174 0.820302 -0.338012
0.699314 0.827185 -0.340021
0.710501 0.841754 -0.343952
0.720209 0.852073 -0.346835
0.727433 0.855773 -0.348077
0.726776 0.839657 -0.344376
0.731185 0.836392 -0.343883
0.737896 0.838749 -0.344799
0.743327 0.837925 -0.344923
0.742848 0.823091 -0.341534
0.748337 0.822516 -0.341723
0.755059 0.824742 -0.342622
0.761342 0.825855 -0.343246
0.770917 0.834273 -0.345719
0.776087 0.832656 -0.345666
0.778999 0.826074 -0.344362
0.784348 0.824863 -0.344418
0.791927 0.828382 -0.345679
0.805978 0.845408 -0.350380
0.810492 0.842082 -0.349920
0.814488 0.837702 -0.349195
0.818933 0.834272 -0.348715
0.831111 0.846402 -0.352215
0.841861 0.855341 -0.354914
0.845812 0.850651 -0.354132
0.853953 0.854129 -0.355450
0.861024 0.855399 -0.356209
0.863627 0.836008 -0.352093
0.868737 0.833585 -0.351912
0.873986 0.831397 -0.351798
0.879464 0.829596 -0.351789
0.887079 0.831584 -0.352769
0.894363 0.832860 -0.353574
0.900779 0.832513 -0.353964
0.907588 0.832770 -0.354519
0.913729 0.831797 -0.354760
0.920412 0.831683 -0.355232
0.927534 0.832224 -0.355884
0.934521 0.832447 -0.356461
0.941367 0.832351 -0.356961
0.948367 0.832425 -0.357513
0.956185 0.833726 -0.358398
0.962445 0.832446 -0.358607
0.968775 0.831223 -0.358837
0.976170 0.831599 -0.359497
0.986196 0.835927 -0.361220
0.993101 0.835345 -0.361640
1.001544 0.837010 -0.362668
1.007439 0.834779 -0.362657
1.015564 0.835806 -0.363525
1.023115 0.835906 -0.364148
1.029510 0.834278 -0.364308
1.036577 0.833580 -0.364721
1.045528 0.835501 -0.365845
1.052420 0.834459 -0.366167
1.061175 0.835969 -0.367182
1.069254 0.836488 -0.367928
1.081602 0.842750 -0.370243
1.086422 0.838765 -0.369751
1.093950 0.838443 -0.370255
1.100043 0.836233 -0.370233
1.107372 0.835678 -0.370656
1.118249 0.839722 -0.372340
1.125288 0.838805 -0.372642
1.133076 0.838886 -0.373208
1.141122 0.839326 -0.373858
1.147035 0.837159 -0.373766
1.154273 0.836721 -0.374137
1.164410 0.839895 -0.375498
1.169529 0.837019 -0.375146
1.175383 0.835157 -0.375056
-0.067335 0.778063 -0.309170
-0.062781 0.778137 -0.309359
-0.058101 0.778059 -0.309500
-0.054305 0.780569 -0.310223
-0.049689 0.781059 -0.310470
-0.044924 0.781309 -0.310649
-0.039500 0.779851 -0.310424
-0.034725 0.780363 -0.310641
-0.029803 0.780592 -0.310783
-0.024894 0.780990 -0.310954
-0.019728 0.780735 -0.310966
-0.014926 0.781680 -0.311247
-0.010653 0.784381 -0.311925
-0.006499 0.787621 -0.312722
-0.001477 0.788237 -0.312908
0.004280 0.786516 -0.312548
0.009191 0.787582 -0.312828
0.014006 0.789033 -0.313194
0.019750 0.787345 -0.312831
0.025028 0.787230 -0.312829
0.029792 0.788935 -0.313246
0.034677 0.790248 -0.313572
0.040177 0.789299 -0.313375
0.045687 0.788234 -0.313150
0.050878 0.788318 -0.313192
0.055942 0.788854 -0.313339
0.060912 0.789735 -0.313567
0.065677 0.791436 -0.313987
0.071078 0.790467 -0.313790
0.076144 0.790828 -0.313904
0.081146 0.791408 -0.314070
0.086235 0.791547 -0.314137
0.091320 0.791629 -0.314194
0.096198 0.792608 -0.314461
0.100990 0.793961 -0.314818
0.105921 0.794609 -0.315014
0.111173 0.793567 -0.314823
0.115967 0.794771 -0.315155
0.120976 0.794795 -0.315217
0.125620 0.796739 -0.315728
0.130107 0.799586 -0.316452
0.135365 0.798026 -0.316157
0.140833 0.795015 -0.315529
0.145958 0.793848 -0.315332
0.150882 0.793796 -0.315397
0.155541 0.795389 -0.315848
0.159967 0.798588 -0.316675
0.165077 0.797102 -0.316417
0.169377 0.801317 -0.317489
0.174405 0.800265 -0.317339
0.179322 0.799920 -0.317357
0.183666 0.804110 -0.318434
0.188758 0.802240 -0.318103
0.193178 0.806048 -0.319099
0.197866 0.807642 -0.319582
0.203282 0.802282 -0.318446
0.208010 0.803286 -0.318798
0.212747 0.804213 -0.319135
0.217546 0.804466 -0.319318
0.222270 0.805565 -0.319701
0.227016 0.806448 -0.320037
0.231799 0.806882 -0.320272
0.236452 0.809148 -0.320937
0.241203 0.810186 -0.321319
0.245983 0.810835 -0.321613
0.251007 0.807207 -0.320905
0.255954 0.804348 -0.320380
0.260810 0.802781 -0.320161
0.265635 0.801584 -0.320030
0.270420 0.801086 -0.320065
0.275178 0.801230 -0.320254
0.279904 0.802570 -0.320727
0.284524 0.809038 -0.322411
0.289321 0.809149 -0.322600
0.294086 0.811749 -0.323378
0.298863 0.815819 -0.324507
0.303706 0.813466 -0.324121
0.308527 0.810252 -0.323534
0.313335 0.810171 -0.323688
0.318180 0.813535 -0.324660
0.323071 0.817665 -0.325817
0.327910 0.817082 -0.325859
0.332716 0.815225 -0.325601
0.337615 0.817081 -0.326226
0.342428 0.815788 -0.326104
0.347329 0.817006 -0.326582
0.351894 0.810097 -0.325126
0.356833 0.812257 -0.325830
0.361824 0.814946 -0.326663
0.367075 0.821609 -0.328447
0.372270 0.826271 -0.329757
0.376631 0.817802 -0.327932
0.381103 0.811925 -0.326725
0.385781 0.809399 -0.326319
0.390554 0.808268 -0.326249
0.395475 0.808916 -0.326605
0.400393 0.809393 -0.326923
0.405794 0.814793 -0.328424
0.411310 0.820757 -0.330064
0.416397 0.822061 -0.330587
0.420226 0.811798 -0.328326
0.425479 0.814701 -0.329236
0.431043 0.819893 -0.330700
0.436759 0.825846 -0.332352
0.442073 0.828204 -0.333138
0.446274 0.822069 -0.331873
0.450308 0.815122 -0.330410
0.455066 0.813599 -0.330259
0.460391 0.815930 -0.331043
0.466127 0.820719 -0.332426
0.471547 0.823187 -0.333249
0.475779 0.818213 -0.332264
0.481440 0.821935 -0.333395
0.487765 0.829227 -0.335398
0.493565 0.833126 -0.336578
0.496999 0.823896 -0.334558
0.500654 0.816272 -0.332927
0.505261 0.813913 -0.332581
0.510219 0.813393 -0.332685
0.515593 0.814900 -0.333287
0.521323 0.817995 -0.334280
0.526986 0.820591 -0.335153
0.531771 0.819010 -0.335003
0.535945 0.814721 -0.334189
0.541100 0.814871 -0.334465
0.546430 0.815722 -0.334916
0.552407 0.819206 -0.336018
0.559347 0.826451 -0.338052
0.566004 0.832228 -0.339728
0.571354 0.832579 -0.340067
0.576818 0.833320 -0.340504
0.577884 0.817327 -0.336797
0.582532 0.815207 -0.336524
0.589390 0.821188 -0.338264
0.595548 0.824401 -0.339321
0.603033 0.832124 -0.341503
0.606810 0.826722 -0.340422
0.612378 0.827544 -0.340893
0.617262 0.826017 -0.340779
0.621152 0.821239 -0.339856
0.625433 0.817842 -0.339277
0.630800 0.817954 -0.339577
0.636682 0.819622 -0.340269
0.643174 0.823068 -0.341411
0.651119 0.830743 -0.343620
0.653920 0.822851 -0.341921
0.659116 0.822163 -0.342034
0.664167 0.821034 -0.342039
0.669829 0.821626 -0.342479
0.681368 0.838583 -0.347057
0.687065 0.838904 -0.347440
0.687842 0.825815 -0.344433
0.691619 0.821080 -0.343538
0.697540 0.822083 -0.344100
0.707145 0.832587 -0.347080
0.720559 0.852514 -0.352466
0.725938 0.851526 -0.352542
0.728002 0.842243 -0.350507
0.732547 0.839263 -0.350079
0.740504 0.844590 -0.351776
0.742313 0.834995 -0.349662
0.744793 0.827186 -0.348004
0.749820 0.825463 -0.347906
0.755233 0.824620 -0.348039
0.761113 0.824801 -0.348439
0.770769 0.833392 -0.351010
0.775377 0.830524 -0.350636
0.778323 0.824029 -0.349329
0.784219 0.824011 -0.349697
0.798047 0.840861 -0.354441
0.801294 0.834927 -0.353292
0.804956 0.829936 -0.352389
0.809868 0.827571 -0.352171
0.816982 0.829675 -0.353123
0.825021 0.833518 -0.354536
0.834055 0.839180 -0.356433
0.844077 0.846575 -0.358796
0.852068 0.849788 -0.360075
0.857233 0.847438 -0.359902
0.858191 0.837098 -0.357632
0.862374 0.832958 -0.356993
0.867982 0.831476 -0.357061
0.874033 0.830762 -0.357337
0.880794 0.831272 -0.357943
0.887281 0.831202 -0.358405
0.893579 0.830721 -0.358764
0.900015 0.830412 -0.359176
0.906028 0.829298 -0.359381
0.914329 0.832043 -0.360623
0.920561 0.831144 -0.360901
0.927205 0.830872 -0.361354
0.934735 0.831991 -0.362188
0.941949 0.832485 -0.362862
0.947779 0.830646 -0.362916
0.955991 0.832580 -0.363995
0.962728 0.832053 -0.364417
0.968918 0.830600 -0.364594
0.976731 0.831613 -0.365448
0.985169 0.833486 -0.366543
0.992650 0.833789 -0.367218
1.000642 0.834780 -0.368088
1.007856 0.834521 -0.368621
1.015733 0.835171 -0.369409
1.023085 0.834979 -0.369969
1.029743 0.833729 -0.370241
1.038456 0.835375 -0.371315
1.047055 0.836771 -0.372324
1.054073 0.835887 -0.372700
1.062231 0.836552 -0.373507
1.068787 0.834977 -0.373688
1.077366 0.836146 -0.374631
1.086948 0.838612 -0.375934
1.093364 0.836818 -0.376038
1.100891 0.836513 -0.376552
1.113787 0.843205 -0.379028
1.119427 0.840432 -0.378828
1.124791 0.837380 -0.378533
1.134575 0.840008 -0.379831
1.140036 0.837212 -0.379576
1.146641 0.835939 -0.379733
1.161711 0.845165 -0.382864
1.165128 0.840083 -0.381897
1.170539 0.837579 -0.381642
1.174306 0.833230 -0.380833
-0.068529 0.780262 -0.314550
-0.063686 0.779559 -0.314563
-0.058634 0.778470 -0.314471
-0.054744 0.780693 -0.315144
-0.051757 0.785641 -0.316446
-0.050772 0.796484 -0.319123
-0.043460 0.789862 -0.317679
-0.037358 0.786677 -0.317031
-0.031757 0.784996 -0.316726
-0.028378 0.789966 -0.317978
-0.023164 0.789687 -0.317984
-0.019906 0.795470 -0.319410
-0.015758 0.798762 -0.320242
-0.010628 0.799142 -0.320380
-0.004560 0.796589 -0.319820
0.000114 0.798542 -0.320317
0.005945 0.796760 -0.319928
0.010860 0.798033 -0.320256
0.017989 0.791746 -0.318797
0.024473 0.787493 -0.317814
0.029365 0.788752 -0.318131
0.034256 0.790046 -0.318456
0.039490 0.790090 -0.318484
0.041999 0.800413 -0.320941
0.047037 0.801348 -0.321180
0.053118 0.798166 -0.320448
0.059040 0.795429 -0.319822
0.064033 0.796336 -0.320058
0.069168 0.796617 -0.320148
0.074484 0.796063 -0.320043
0.078894 0.799390 -0.320858
0.085218 0.794194 -0.319661
0.089761 0.796860 -0.320325
0.094821 0.797132 -0.320426
0.099918 0.797157 -0.320473
0.104977 0.797282 -0.320545
0.108901 0.803083 -0.321964
0.113576 0.805185 -0.322512
0.119645 0.799865 -0.321307
0.125132 0.797356 -0.320770
0.129436 0.801286 -0.321761
0.134274 0.802252 -0.322055
0.140169 0.796864 -0.320846
0.145377 0.795285 -0.320543
0.150370 0.794883 -0.320523
0.155250 0.795106 -0.320654
0.159676 0.798327 -0.321501
0.163465 0.806143 -0.323441
0.168276 0.807005 -0.323736
0.173234 0.806744 -0.323768
0.177632 0.810740 -0.324815
0.182600 0.810338 -0.324820
0.187664 0.809010 -0.324609
0.192575 0.808829 -0.324673
0.197489 0.808524 -0.324712
0.203043 0.801950 -0.323260
0.207910 0.801594 -0.323292
0.211992 0.809430 -0.325280
0.216359 0.814846 -0.326696
0.221455 0.812213 -0.326195
0.226558 0.809098 -0.325582
0.231523 0.807360 -0.325299
0.236057 0.811411 -0.326403
0.241006 0.809693 -0.326131
0.245912 0.808334 -0.325948
0.250855 0.806035 -0.325542
0.255747 0.804241 -0.325258
