ply
format ascii 1.0
comment ---
element vertex 1761
property float x
property float y
property float z
element face 0
property list uchar uint vertex_indices
end_header
0.196423 0.785762 0.217368
0.200204 0.784613 0.217148
0.204130 0.786060 0.217525
0.208284 0.790829 0.218667
0.212167 0.790910 0.218734
0.215980 0.789977 0.218569
0.219947 0.791090 0.218877
0.223946 0.792412 0.219234
0.227986 0.794015 0.219657
0.231388 0.788472 0.218436
0.235060 0.786223 0.217975
0.238836 0.785164 0.217789
0.242742 0.785375 0.217897
0.246776 0.786678 0.218258
0.250710 0.786963 0.218385
0.254858 0.788956 0.218909
0.258405 0.785978 0.218286
0.262150 0.784695 0.218055
0.266171 0.785492 0.218306
0.271023 0.792124 0.219906
0.275285 0.794206 0.220457
0.279451 0.795474 0.220821
0.283646 0.796815 0.221204
0.287662 0.796916 0.221301
0.291358 0.795026 0.220938
0.296309 0.800607 0.222306
0.299398 0.795171 0.221125
0.303099 0.793403 0.220793
0.306690 0.791100 0.220338
0.310614 0.790637 0.220310
0.314679 0.790889 0.220450
0.318642 0.790581 0.220461
0.322953 0.791958 0.220864
0.328868 0.800912 0.223030
0.332974 0.800957 0.223127
0.335551 0.793989 0.221595
0.338758 0.790106 0.220780
0.342817 0.790079 0.220864
0.347045 0.790745 0.221110
0.351652 0.792934 0.221712
0.357499 0.800080 0.223472
0.361486 0.799437 0.223418
0.364429 0.794675 0.222404
0.367764 0.791580 0.221780
0.372846 0.795182 0.222721
0.376758 0.794270 0.222609
0.380771 0.793726 0.222585
0.385119 0.794368 0.222840
0.389177 0.793934 0.222844
0.393186 0.793312 0.222807
0.397280 0.792967 0.222835
0.402044 0.794833 0.223384
0.406186 0.794567 0.223435
0.412625 0.801676 0.225220
0.418402 0.806415 0.226452
0.422229 0.804890 0.226214
0.423100 0.794307 0.223847
0.427535 0.794783 0.224083
0.432790 0.797648 0.224884
0.437211 0.797948 0.225083
0.440490 0.794913 0.224498
0.449012 0.806817 0.227441
0.451938 0.802677 0.226601
0.455278 0.799764 0.226051
0.459162 0.798376 0.225865
0.464214 0.800115 0.226420
0.468520 0.799797 0.226492
0.474363 0.803449 0.227508
0.479657 0.805551 0.228161
0.481788 0.799548 0.226893
0.484636 0.795460 0.226081
0.491806 0.802084 0.227818
0.495947 0.801127 0.227757
0.499953 0.799832 0.227619
0.505144 0.801333 0.228150
0.509551 0.800917 0.228228
0.514834 0.802489 0.228785
0.519184 0.801851 0.228818
0.523603 0.801337 0.228884
0.528189 0.801163 0.229036
0.538996 0.814576 0.232450
0.541707 0.810087 0.231578
0.542775 0.802148 0.229878
0.547762 0.802627 0.230205
0.553093 0.803762 0.230694
0.557294 0.802490 0.230609
0.563895 0.806081 0.231702
0.574673 0.817944 0.234800
0.575392 0.809466 0.232990
0.576871 0.802625 0.231576
0.581986 0.802952 0.231902
0.587098 0.803207 0.232216
0.595540 0.809721 0.234058
0.601535 0.811438 0.234742
0.603902 0.806324 0.233768
0.610014 0.808137 0.234487
0.616587 0.810683 0.235392
0.621066 0.809356 0.235357
0.626263 0.809269 0.235632
0.635362 0.815965 0.237578
0.644977 0.823343 0.239704
0.644320 0.812880 0.237447
0.647211 0.808599 0.236713
0.657379 0.816552 0.239005
0.664081 0.818519 0.239828
0.665655 0.811961 0.238546
0.671332 0.812139 0.238937
0.677086 0.812374 0.239349
0.684475 0.815136 0.240396
0.686556 0.809433 0.239339
0.694805 0.813381 0.240695
0.700611 0.813422 0.241081
0.707984 0.815787 0.242055
0.715186 0.817787 0.242944
0.721741 0.818723 0.243571
0.728506 0.819893 0.244262
0.736784 0.823192 0.245495
0.742032 0.821997 0.245595
0.741034 0.811852 0.243424
0.743559 0.806855 0.242554
0.752647 0.811112 0.244036
0.765740 0.820800 0.246906
0.766563 0.813425 0.245421
0.773172 0.814034 0.245971
0.784746 0.821290 0.248223
0.792212 0.822921 0.249030
0.798472 0.822922 0.249411
0.798737 0.815094 0.247765
0.801480 0.810630 0.246971
0.812763 0.817205 0.249019
0.824729 0.824547 0.251259
0.831538 0.825297 0.251780
0.834993 0.821890 0.251205
0.834311 0.813478 0.249309
0.824207 0.793729 0.244434
0.818159 0.779302 0.240917
0.831428 0.788426 0.243525
-0.132276 0.761240 0.211877
-0.127116 0.756820 0.210912
-0.125110 0.761233 0.211964
-0.122581 0.764442 0.212725
-0.118091 0.762271 0.212234
-0.114490 0.762761 0.212342
-0.109502 0.759321 0.211533
-0.108013 0.766357 0.213121
-0.103948 0.765915 0.212976
-0.099447 0.764232 0.212535
-0.094246 0.760407 0.211592
-0.089462 0.757874 0.210936
-0.085875 0.759209 0.211161
-0.082832 0.762445 0.211813
-0.079239 0.764019 0.212076
-0.074515 0.761854 0.211476
-0.070847 0.763306 0.211699
-0.068046 0.767898 0.212636
-0.064652 0.770558 0.213126
-0.060674 0.771193 0.213149
-0.055943 0.769049 0.212535
-0.051733 0.768801 0.212352
-0.047531 0.768557 0.212169
-0.043124 0.767474 0.211795
-0.038810 0.766693 0.211490
-0.035639 0.770573 0.212247
-0.032017 0.772681 0.212600
-0.027766 0.772124 0.212348
-0.023158 0.769917 0.211723
-0.019025 0.769699 0.211553
-0.014845 0.769199 0.211321
-0.010925 0.769844 0.211351
-0.008062 0.775594 0.212541
-0.004063 0.775913 0.212503
0.000588 0.772851 0.211702
0.005116 0.770201 0.210998
0.008877 0.771468 0.211184
0.013015 0.770646 0.210902
0.016833 0.771523 0.211006
0.020702 0.772078 0.211042
0.024643 0.772159 0.210974
0.028659 0.771697 0.210788
0.032495 0.772289 0.210842
0.036292 0.773101 0.210950
0.040210 0.773061 0.210870
0.044252 0.772059 0.210577
0.048141 0.772033 0.210507
0.050995 0.779814 0.212198
0.054409 0.783679 0.213010
0.058308 0.783800 0.212983
0.063058 0.776563 0.211306
0.066950 0.776283 0.211197
0.070702 0.777223 0.211365
0.074600 0.776736 0.211216
0.078578 0.775321 0.210863
0.082458 0.774735 0.210698
0.085994 0.777931 0.211386
0.088890 0.789111 0.213870
0.093077 0.785121 0.212951
0.096864 0.785982 0.213123
0.100610 0.787486 0.213444
0.104361 0.789049 0.213780
0.108344 0.786921 0.213291
0.112693 0.777655 0.211203
0.116488 0.777651 0.211197
0.120246 0.778401 0.211362
0.123976 0.779962 0.211712
0.127522 0.787027 0.213299
0.131235 0.790782 0.214146
0.135011 0.793452 0.214753
0.138975 0.788566 0.213666
0.142866 0.785162 0.212914
0.146701 0.783753 0.212612
0.150519 0.782797 0.212414
0.154330 0.780728 0.211969
0.158125 0.779925 0.211809
0.161922 0.780405 0.211940
0.165747 0.782886 0.212522
0.169601 0.785649 0.213169
0.173459 0.787313 0.213572
0.177325 0.788590 0.213890
0.181132 0.787434 0.213663
0.184784 0.782154 0.212511
0.188614 0.782531 0.212632
0.192470 0.783356 0.212855
0.196384 0.785135 0.213295
0.200220 0.785104 0.213329
0.204061 0.785120 0.213376
0.207920 0.785356 0.213473
0.211217 0.777283 0.211702
0.215587 0.784905 0.213465
0.220010 0.792229 0.215163
0.224768 0.802710 0.217575
0.228577 0.801129 0.217271
0.231285 0.787720 0.214303
0.235046 0.786460 0.214073
0.238844 0.785630 0.213941
0.242777 0.786100 0.214104
0.246739 0.786746 0.214308
0.250743 0.787653 0.214572
0.254591 0.787161 0.214522
0.258464 0.786858 0.214515
0.262406 0.787072 0.214626
0.266355 0.787276 0.214736
0.270249 0.787039 0.214748
0.274778 0.791151 0.215745
0.279129 0.793772 0.216405
0.283514 0.796403 0.217070
0.287674 0.797432 0.217374
0.292065 0.799764 0.217974
0.295084 0.793833 0.216702
0.299278 0.794934 0.217025
0.302556 0.790825 0.216168
0.306560 0.790846 0.216248
0.310612 0.791081 0.216378
0.314691 0.791406 0.216530
0.318547 0.790562 0.216416
0.322633 0.790853 0.216562
0.328385 0.799067 0.218512
0.332699 0.800147 0.218840
0.335419 0.793853 0.217492
0.338717 0.790393 0.216789
0.342909 0.790954 0.217002
0.347214 0.791939 0.217314
0.352100 0.795285 0.218165
0.357265 0.799603 0.219240
0.361410 0.799619 0.219336
0.364371 0.794931 0.218359
0.368904 0.796467 0.218803
0.373822 0.799369 0.219563
0.377556 0.797725 0.219284
0.381518 0.796943 0.219204
0.386099 0.798372 0.219631
0.389657 0.796121 0.219217
0.393758 0.795789 0.219245
0.397323 0.793618 0.218852
0.401048 0.792021 0.218592
0.405316 0.792222 0.218746
0.411600 0.798887 0.220387
0.417918 0.805405 0.221998
0.421571 0.803363 0.221644
0.423271 0.795352 0.219917
0.427808 0.796133 0.220215
0.433102 0.799109 0.221022
0.437175 0.798378 0.220976
0.442021 0.799864 0.221444
0.447999 0.804486 0.222639
0.451867 0.803030 0.222434
0.454743 0.798840 0.221598
0.458772 0.797871 0.221509
0.463490 0.798734 0.221847
0.468817 0.801144 0.222546
0.473521 0.801825 0.222847
0.479879 0.806697 0.224125
0.480823 0.797682 0.222182
0.483907 0.794217 0.221529
0.490887 0.800408 0.223124
0.495252 0.800031 0.223195
0.500125 0.800843 0.223547
0.504523 0.800465 0.223624
0.509876 0.802286 0.224219
0.514364 0.802019 0.224330
0.519385 0.802927 0.224720
0.523880 0.802586 0.224822
0.528794 0.803137 0.225136
0.539018 0.815271 0.228172
0.543891 0.815469 0.228415
0.542228 0.801628 0.225363
0.547194 0.802083 0.225672
0.552466 0.803116 0.226122
0.557853 0.804311 0.226616
0.563400 0.805751 0.227173
0.569544 0.808307 0.227999
0.573118 0.805634 0.227594
0.576546 0.802680 0.227126
0.581484 0.802678 0.227363
0.587482 0.804655 0.228074
0.593366 0.806313 0.228716
0.599486 0.808319 0.229447
0.604462 0.808096 0.229654
0.609303 0.807572 0.229795
0.615645 0.809723 0.230581
0.619343 0.807020 0.230212
0.625584 0.808827 0.230929
0.630554 0.808301 0.231092
0.636241 0.808970 0.231549
0.641289 0.808463 0.231729
0.646619 0.808381 0.232017
0.657080 0.816852 0.234377
0.663618 0.818558 0.235113
0.665997 0.813331 0.234177
0.670931 0.812303 0.234262
0.677155 0.813305 0.234845
0.682306 0.812514 0.234999
0.688411 0.813178 0.235512
0.695298 0.814981 0.236309
0.701316 0.815345 0.236761
0.707585 0.816021 0.237295
0.714835 0.818103 0.238179
0.721050 0.818539 0.238664
0.728409 0.820597 0.239553
0.735613 0.822334 0.240368
0.743227 0.824574 0.241311
0.745147 0.818574 0.240215
0.749284 0.815789 0.239913
0.755755 0.816295 0.240428
0.764838 0.820377 0.241834
0.767755 0.815878 0.241098
0.773811 0.815710 0.241440
0.785034 0.822480 0.243516
0.790709 0.821708 0.243700
0.797385 0.822264 0.244210
0.800711 0.818430 0.243607
0.798156 0.807061 0.241089
0.814138 0.819690 0.244620
0.823655 0.823892 0.246014
0.826952 0.820212 0.245400
0.842846 0.832346 0.248784
0.840850 0.822190 0.246493
0.838400 0.811710 0.244096
0.835215 0.793523 0.239935
-0.128668 0.751708 0.205896
-0.127478 0.758131 0.207386
-0.124964 0.761185 0.208105
-0.122022 0.763259 0.208589
-0.118469 0.763790 0.208712
-0.113141 0.759323 0.207697
-0.109699 0.760414 0.207920
-0.106578 0.762624 0.208384
-0.103151 0.764092 0.208669
-0.099547 0.765168 0.208854
-0.094956 0.763289 0.208365
-0.089314 0.758099 0.207123
-0.085069 0.757331 0.206867
-0.081777 0.759736 0.207317
-0.078080 0.760932 0.207488
-0.073848 0.760398 0.207264
-0.071036 0.764803 0.208143
-0.067965 0.768483 0.208854
-0.065037 0.772836 0.209712
-0.060617 0.771901 0.209381
-0.054815 0.765768 0.207888
-0.050889 0.766533 0.207935
-0.047697 0.770164 0.208621
-0.042510 0.766012 0.207570
-0.038566 0.766692 0.207597
-0.035946 0.772848 0.208845
-0.032358 0.775137 0.209231
-0.027573 0.772309 0.208479
-0.022845 0.769557 0.207747
-0.018737 0.769425 0.207600
-0.014527 0.768761 0.207337
-0.010822 0.770397 0.207588
-0.007708 0.774928 0.208482
-0.004257 0.777936 0.209041
0.000399 0.774872 0.208258
0.005104 0.771319 0.207370
0.009109 0.771274 0.207263
0.012999 0.771793 0.207283
0.016853 0.772469 0.207342
0.020628 0.773575 0.207499
0.024500 0.774085 0.207528
0.028660 0.772757 0.207155
0.032329 0.774418 0.207445
0.035917 0.776655 0.207865
0.040564 0.771695 0.206703
0.044531 0.771145 0.206516
0.047944 0.774550 0.207204
0.051486 0.777142 0.207716
0.054508 0.783985 0.209167
0.058862 0.780320 0.208309
0.063153 0.776827 0.207492
0.067088 0.776130 0.207294
0.070823 0.777172 0.207482
0.074723 0.776622 0.207322
0.078708 0.775077 0.206948
0.082429 0.776153 0.207153
0.085682 0.782588 0.208538
0.089309 0.785209 0.209088
0.092839 0.789298 0.209963
0.096759 0.788560 0.209781
0.100662 0.787905 0.209620
0.104390 0.789807 0.210024
0.108287 0.789095 0.209856
0.112692 0.778892 0.207608
0.116490 0.778872 0.207598
0.120266 0.779260 0.207680
0.124018 0.780301 0.207908
0.127652 0.784826 0.208903
0.131343 0.788866 0.209795
0.135234 0.786672 0.209320
0.139031 0.787838 0.209585
0.142937 0.783148 0.208567
0.146755 0.782038 0.208336
0.150553 0.782166 0.208380
0.154353 0.781787 0.208315
0.158148 0.779934 0.207928
0.161940 0.780244 0.208018
0.165763 0.782897 0.208624
0.169617 0.785853 0.209299
0.173517 0.789621 0.210155
0.177361 0.789743 0.210212
0.181091 0.786005 0.209421
0.184827 0.783365 0.208874
0.188609 0.782478 0.208714
0.192512 0.784434 0.209180
0.196400 0.785648 0.209485
0.200222 0.785363 0.209462
0.204049 0.785166 0.209459
0.207646 0.781336 0.208658
0.211604 0.783256 0.209125
0.215127 0.778926 0.208216
0.219447 0.785327 0.209673
0.224740 0.802729 0.213557
0.227539 0.789612 0.210715
0.231178 0.786933 0.210175
0.235041 0.786793 0.210196
0.238693 0.784538 0.209752
0.242695 0.785728 0.210069
0.246784 0.787551 0.210527
0.250773 0.788326 0.210755
0.254626 0.787868 0.210712
0.258546 0.787933 0.210785
0.262486 0.788111 0.210885
0.266347 0.787645 0.210843
0.270250 0.787474 0.210867
0.274016 0.786330 0.210677
0.278645 0.790984 0.211772
0.283158 0.794552 0.212628
0.287622 0.797554 0.213361
0.291025 0.793896 0.212618
0.294524 0.790981 0.212041
0.297872 0.787319 0.211298
0.302475 0.790827 0.212148
0.306607 0.791557 0.212382
0.310694 0.791968 0.212546
0.314727 0.792049 0.212638
0.318755 0.792067 0.212718
0.322767 0.791972 0.212773
0.328006 0.797722 0.214129
0.332594 0.800125 0.214743
0.336037 0.797149 0.214161
0.338897 0.791662 0.213020
0.343008 0.791854 0.213145
0.347211 0.792401 0.213350
0.351616 0.793735 0.213732
0.357551 0.801258 0.215496
0.360003 0.794440 0.214062
0.364128 0.794455 0.214154
0.370041 0.801345 0.215783
0.375436 0.805972 0.216909
0.379757 0.806400 0.217099
0.382302 0.800295 0.215828
0.385659 0.797289 0.215250
0.390757 0.800487 0.216064
0.395982 0.803972 0.216944
0.399307 0.800852 0.216346
0.401877 0.795285 0.215199
0.406935 0.798039 0.215921
0.415739 0.812750 0.219331
0.418039 0.806304 0.217991
0.421747 0.804429 0.217680
0.423926 0.797880 0.216318
0.428276 0.798070 0.216474
0.432961 0.799213 0.216846
0.437266 0.799174 0.216955
0.441186 0.797987 0.216807
0.448011 0.805062 0.218526
0.451959 0.803828 0.218372
0.454633 0.799081 0.217426
0.458521 0.797733 0.217250
0.462926 0.797773 0.217391
0.468181 0.800022 0.218034
0.473549 0.802460 0.218724
0.475311 0.795527 0.217292
0.481810 0.800751 0.218620
0.484811 0.797048 0.217924
0.489998 0.798793 0.218469
0.495072 0.800178 0.218936
0.499315 0.799487 0.218934
0.503953 0.799707 0.219142
0.508515 0.799701 0.219303
0.513495 0.800617 0.219678
0.518541 0.801615 0.220075
0.523842 0.803116 0.220592
0.529378 0.805057 0.221213
0.537607 0.812812 0.223173
0.542469 0.813029 0.223410
0.542603 0.803068 0.221314
0.546866 0.802034 0.221270
0.551865 0.802513 0.221578
0.558368 0.806033 0.222591
0.563562 0.806748 0.222964
0.569009 0.807903 0.223444
0.573174 0.806425 0.223320
0.577098 0.804451 0.223085
0.582503 0.805349 0.223521
0.586750 0.803943 0.223427
0.593428 0.807136 0.224406
0.599656 0.809353 0.225165
0.605342 0.810453 0.225671
0.608897 0.807553 0.225250
0.614665 0.808677 0.225772
0.620019 0.808972 0.226108
0.625708 0.809795 0.226573
0.630652 0.809227 0.226718
0.635757 0.808889 0.226922
0.641371 0.809371 0.227325
0.646676 0.809250 0.227593
0.655920 0.815689 0.229414
0.661612 0.816019 0.229802
0.666122 0.814331 0.229719
0.670853 0.812975 0.229719
0.676590 0.813202 0.230099
0.682968 0.814378 0.230712
0.690652 0.817522 0.231799
0.696005 0.816902 0.231996
0.701604 0.816613 0.232277
0.707090 0.816094 0.232508
0.714620 0.818611 0.233470
0.721953 0.820721 0.234342
0.727782 0.820507 0.234659
0.733523 0.820115 0.234936
0.739258 0.819669 0.235202
0.744141 0.817962 0.235165
0.749804 0.817352 0.235393
0.756033 0.817506 0.235807
0.762934 0.818551 0.236438
0.766896 0.815503 0.236069
0.774660 0.817664 0.236969
0.783147 0.820733 0.238089
0.790491 0.822200 0.238814
0.797546 0.823249 0.239432
0.801675 0.820444 0.239095
0.803308 0.814462 0.237965
0.818301 0.825754 0.241083
0.822246 0.822803 0.240679
0.828091 0.822328 0.240873
0.839938 0.829385 0.242920
0.852491 0.837228 0.245152
0.847265 0.823184 0.241931
-0.127412 0.748575 0.201419
-0.125577 0.753220 0.202480
-0.121103 0.750776 0.201967
-0.122412 0.764763 0.205060
-0.119266 0.766514 0.205444
-0.107546 0.743544 0.200372
-0.109737 0.761042 0.204200
-0.106109 0.761775 0.204324
-0.100174 0.755644 0.202926
-0.097719 0.760157 0.203861
-0.094393 0.762185 0.204240
-0.090154 0.761456 0.204003
-0.086927 0.764055 0.204490
-0.081566 0.759789 0.203461
-0.076319 0.755812 0.202491
-0.072818 0.757686 0.202800
-0.070375 0.763336 0.203931
-0.067734 0.768521 0.204955
-0.065270 0.774554 0.206160
-0.060207 0.771294 0.205328
-0.054698 0.766239 0.204102
-0.050697 0.766722 0.204086
-0.046709 0.767262 0.204082
-0.042695 0.767695 0.204055
-0.038763 0.768452 0.204098
-0.035952 0.773850 0.205153
-0.032052 0.774832 0.205246
-0.027136 0.771412 0.204383
-0.022729 0.770039 0.203967
-0.018138 0.767714 0.203347
-0.014458 0.769449 0.203612
-0.010818 0.771390 0.203924
-0.007918 0.776969 0.205026
-0.004898 0.782167 0.206048
-0.000861 0.782356 0.205987
0.004607 0.774953 0.204285
0.008657 0.774738 0.204143
0.012510 0.775534 0.204224
0.016589 0.775003 0.204021
0.020190 0.777174 0.204405
0.023305 0.782343 0.205440
0.028221 0.776519 0.204105
0.031785 0.778948 0.204554
0.035177 0.782604 0.205272
0.038877 0.784310 0.205572
0.043633 0.778552 0.204267
0.047901 0.775898 0.203634
0.052254 0.772319 0.202807
0.055726 0.775373 0.203411
0.059178 0.778757 0.204090
0.063712 0.773067 0.202818
0.067512 0.773374 0.202841
0.070960 0.776937 0.203567
0.074846 0.776469 0.203430
0.078771 0.775477 0.203183
0.082525 0.776169 0.203301
0.085712 0.783320 0.204809
0.089302 0.786368 0.205439
0.093104 0.787009 0.205555
0.096856 0.788351 0.205824
0.100637 0.789385 0.206029
0.104473 0.789643 0.206071
0.108449 0.787532 0.205606
0.112633 0.781150 0.204228
0.116469 0.780507 0.204084
0.120279 0.780220 0.204019
0.124082 0.780004 0.203972
0.127666 0.785807 0.205220
0.131514 0.784807 0.205009
0.135342 0.784170 0.204878
0.139132 0.784929 0.205050
0.142960 0.783853 0.204829
0.146757 0.784416 0.204963
0.150548 0.786480 0.205421
0.154366 0.785886 0.205311
0.158171 0.781263 0.204337
0.161974 0.782724 0.204671
0.165780 0.783172 0.204790
0.169644 0.786829 0.205601
0.173570 0.791763 0.206688
0.177368 0.789835 0.206302
0.181070 0.785268 0.205349
0.184833 0.783577 0.205017
0.188641 0.783401 0.205012
0.192518 0.784720 0.205331
0.196399 0.785824 0.205604
0.200177 0.784780 0.205417
0.204043 0.785351 0.205579
0.207840 0.784680 0.205475
0.211616 0.783746 0.205316
0.215649 0.786414 0.205934
0.219891 0.791391 0.207051
0.223640 0.789770 0.206748
0.227702 0.791856 0.207245
0.231229 0.787880 0.206436
0.234663 0.783280 0.205493
0.238664 0.784649 0.205839
0.242551 0.784774 0.205918
0.246474 0.785174 0.206057
0.250628 0.787488 0.206611
0.254566 0.787785 0.206730
0.258486 0.787880 0.206807
0.262411 0.787963 0.206883
0.266380 0.788320 0.207018
0.270141 0.787129 0.206820
0.273454 0.782892 0.205963
0.278532 0.790669 0.207708
0.283174 0.795100 0.208731
0.287541 0.797494 0.209313
0.291541 0.797482 0.209376
0.294801 0.793060 0.208483
0.297601 0.786210 0.207064
0.302835 0.793288 0.208667
0.306595 0.791943 0.208444
0.310724 0.792585 0.208653
0.314843 0.793104 0.208837
0.318708 0.792290 0.208732
0.323236 0.794732 0.209335
0.327989 0.798102 0.210142
0.333012 0.802546 0.211185
0.336497 0.799717 0.210646
0.339101 0.793040 0.209269
0.342904 0.791867 0.209092
0.347132 0.792530 0.209315
0.351265 0.792736 0.209441
0.356770 0.798527 0.210786
0.360885 0.798466 0.210856
0.363909 0.794069 0.209980
0.369263 0.798819 0.211103
0.375372 0.806215 0.212807
0.379945 0.807588 0.213196
0.383156 0.803901 0.212480
0.387243 0.803458 0.212475
0.391666 0.804178 0.212726
0.396752 0.807131 0.213468
0.399339 0.801459 0.212321
0.402602 0.798205 0.211704
0.407259 0.799602 0.212110
0.414548 0.809417 0.214366
0.420185 0.813632 0.215396
0.421122 0.802989 0.213162
0.423879 0.798248 0.212225
0.428335 0.798764 0.212447
0.432685 0.798910 0.212589
0.436650 0.797889 0.212476
0.440467 0.796435 0.212269
0.448716 0.807599 0.214848
0.451713 0.803674 0.214101
0.454482 0.799200 0.213233
0.458110 0.797154 0.212904
0.461623 0.794822 0.212513
0.467013 0.797481 0.213229
0.472911 0.801352 0.214217
0.479549 0.806980 0.215599
0.483486 0.805563 0.215421
0.485844 0.800196 0.214369
0.489861 0.799025 0.214251
0.494420 0.799163 0.214427
0.498986 0.799274 0.214599
0.503570 0.799383 0.214774
0.508219 0.799597 0.214977
0.513257 0.800661 0.215372
0.518028 0.801046 0.215619
0.522247 0.800132 0.215580
0.525683 0.797453 0.215149
0.535353 0.808487 0.217792
0.538774 0.805644 0.217333
0.542581 0.803651 0.217067
0.547159 0.803289 0.217171
0.551455 0.802296 0.217137
0.555346 0.800437 0.216912
0.562589 0.805418 0.218231
0.568374 0.807284 0.218856
0.572989 0.806723 0.218937
0.578519 0.807923 0.219421
0.583206 0.807397 0.219520
0.588546 0.808086 0.219899
0.593339 0.807661 0.220030
0.598902 0.808636 0.220485
0.603685 0.808079 0.220597
0.609501 0.809376 0.221136
0.614660 0.809389 0.221389
0.619308 0.808422 0.221423
0.623772 0.807088 0.221378
0.630765 0.810167 0.222349
0.635836 0.809773 0.222531
0.641489 0.810325 0.222936
0.646991 0.810545 0.223270
0.653971 0.813182 0.224167
0.660246 0.814523 0.224773
0.665308 0.813773 0.224902
0.670334 0.812916 0.225012
0.675951 0.812962 0.225336
0.682115 0.813815 0.225854
0.690490 0.818070 0.227168
0.695279 0.816577 0.227152
0.699766 0.814588 0.227024
0.706778 0.816430 0.227794
0.713735 0.818092 0.228529
0.721251 0.820494 0.229442
0.727435 0.820817 0.229873
0.733515 0.820925 0.230256
0.738153 0.818889 0.230137
0.743493 0.817851 0.230254
0.749258 0.817390 0.230507
0.756269 0.818647 0.231169
0.762969 0.819406 0.231713
0.768135 0.818004 0.231742
0.774205 0.817835 0.232062
0.784152 0.822873 0.233622
0.790302 0.822723 0.233941
0.797747 0.824277 0.234663
0.805300 0.825938 0.235406
0.807151 0.820174 0.234355
0.814586 0.821702 0.235048
0.821086 0.822028 0.235442
0.829048 0.824215 0.236274
0.837682 0.827232 0.237295
0.848189 0.832553 0.238862
0.852590 0.830333 0.238587
0.811784 0.766367 0.223508
0.809856 0.757377 0.221514
0.785566 0.722093 0.213092
-0.119065 0.726155 0.192823
-0.121145 0.741336 0.196124
-0.118650 0.744293 0.196780
-0.118636 0.754494 0.198984
-0.115233 0.766357 0.201516
-0.111894 0.767916 0.201822
-0.105193 0.759585 0.199989
-0.099275 0.753493 0.198627
-0.095156 0.752867 0.198433
-0.094072 0.761828 0.200292
-0.092079 0.768271 0.201599
-0.087244 0.765795 0.200982
-0.081681 0.760905 0.199840
-0.075482 0.753764 0.198211
-0.073133 0.759545 0.199349
-0.069977 0.762768 0.199934
-0.071135 0.781385 0.203810
-0.065405 0.775905 0.202522
-0.060155 0.771981 0.201565
-0.054607 0.766784 0.200336
-0.050561 0.767108 0.200286
-0.046985 0.769255 0.200626
-0.042555 0.768070 0.200253
-0.038638 0.768886 0.200308
-0.035504 0.772948 0.201055
-0.031248 0.772386 0.200818
-0.026310 0.768802 0.199940
-0.021976 0.767673 0.199587
-0.018321 0.769519 0.199867
-0.016705 0.780860 0.202165
-0.010512 0.770919 0.199949
-0.007104 0.773996 0.200497
-0.004867 0.783015 0.202307
-0.000379 0.780887 0.201757
0.004629 0.775838 0.200592
0.009788 0.769623 0.199185
0.013506 0.770993 0.199387
0.016233 0.778037 0.200790
0.019743 0.780805 0.201292
0.024246 0.777650 0.200547
0.028019 0.778778 0.200710
0.031545 0.781498 0.201211
0.035173 0.783634 0.201592
0.039084 0.783894 0.201581
0.043449 0.780862 0.200880
0.048737 0.770729 0.198688
0.051410 0.779763 0.200535
0.055504 0.778130 0.200139
0.059438 0.777613 0.199982
0.064013 0.771473 0.198645
0.066992 0.779036 0.200194
0.071197 0.775723 0.199458
0.075006 0.775908 0.199461
0.078829 0.775889 0.199424
0.082002 0.782840 0.200855
0.085842 0.782863 0.200832
0.089596 0.783860 0.201017
0.093384 0.784475 0.201125
0.096856 0.789415 0.202143
0.100547 0.791767 0.202621
0.104549 0.789549 0.202142
0.108753 0.783503 0.200862
0.112635 0.782244 0.200589
0.116306 0.784920 0.201145
0.119984 0.787978 0.201783
0.123892 0.785962 0.201359
0.127729 0.785353 0.201233
0.131573 0.784264 0.201007
0.135390 0.783791 0.200914
0.139191 0.783829 0.200930
0.142967 0.785336 0.201256
0.146785 0.784480 0.201088
0.150563 0.787942 0.201829
0.154383 0.787938 0.201845
0.158196 0.784597 0.201161
0.161972 0.780130 0.200242
0.165841 0.787432 0.201798
0.169749 0.792814 0.202952
0.173555 0.790760 0.202545
0.177349 0.788993 0.202201
0.181127 0.787148 0.201841
0.184815 0.783163 0.201034
0.188650 0.783766 0.201192
0.192521 0.784992 0.201482
0.196318 0.784432 0.201399
0.200071 0.783090 0.201152
0.204084 0.786330 0.201871
0.207967 0.787006 0.202052
0.211875 0.787879 0.202276
0.215836 0.789329 0.202622
0.219778 0.790296 0.202869
0.223740 0.791352 0.203135
0.228064 0.796399 0.204244
0.231548 0.791739 0.203308
0.234961 0.786751 0.202303
0.239623 0.794495 0.203985
0.243711 0.796093 0.204372
0.247246 0.792538 0.203673
0.251295 0.793663 0.203962
0.255428 0.795351 0.204372
0.259278 0.794618 0.204271
0.262962 0.792617 0.203903
0.267046 0.793683 0.204184
0.271819 0.799545 0.205481
0.275647 0.798462 0.205310
0.279330 0.796441 0.204941
0.283113 0.795150 0.204728
0.287579 0.798182 0.205431
0.291919 0.800236 0.205928
0.295940 0.800242 0.205993
0.299657 0.798465 0.205680
0.303191 0.795730 0.205165
0.306490 0.791824 0.204402
0.310711 0.792971 0.204712
0.314640 0.792516 0.204682
0.318737 0.792892 0.204830
0.322905 0.793568 0.205043
0.328506 0.801045 0.206703
0.332570 0.800946 0.206753
0.336426 0.799859 0.206595
0.339482 0.795211 0.205680
0.343027 0.792873 0.205256
0.347109 0.792899 0.205337
0.352303 0.797556 0.206406
0.357605 0.802433 0.207523
0.361742 0.802391 0.207594
0.364315 0.796143 0.206342
0.368924 0.797987 0.206816
0.373973 0.801394 0.207627
0.379165 0.805172 0.208518
0.382779 0.803012 0.208143
0.388239 0.807518 0.209194
0.392592 0.807930 0.209371
0.396012 0.805066 0.208848
0.398848 0.800284 0.207915
0.402266 0.797576 0.207427
0.409431 0.807235 0.209592
0.415117 0.811763 0.210661
0.418725 0.809502 0.210274
0.423008 0.809394 0.210351
0.422411 0.794241 0.207196
0.427471 0.796659 0.207818
0.432096 0.797670 0.208140
0.436319 0.797433 0.208195
0.440626 0.797415 0.208299
0.447269 0.804010 0.209831
0.453315 0.808696 0.210955
0.455881 0.803596 0.209970
0.457531 0.796110 0.208471
0.461114 0.793989 0.208131
0.466570 0.796848 0.208871
0.471798 0.798993 0.209459
0.479029 0.806195 0.211145
0.483020 0.804937 0.211003
0.486523 0.802453 0.210597
0.489843 0.799542 0.210101
0.493733 0.798055 0.209916
0.498197 0.797949 0.210033
0.502553 0.797545 0.210089
0.508076 0.799842 0.210736
0.512803 0.800198 0.210964
0.517721 0.800936 0.211279
0.521575 0.799213 0.211060
0.525474 0.797586 0.210865
0.530532 0.798502 0.211229
0.536438 0.801189 0.211985
0.542364 0.803805 0.212730
0.547420 0.804465 0.213052
0.551811 0.803668 0.213057
0.555879 0.802174 0.212914
0.560199 0.801177 0.212883
0.567419 0.806008 0.214140
0.573495 0.808389 0.214863
0.577493 0.806562 0.214663
0.584412 0.810417 0.215723
0.588373 0.808428 0.215496
0.592999 0.807694 0.215551
0.597477 0.806641 0.215540
0.602210 0.806028 0.215632
0.608955 0.809073 0.216541
0.615687 0.811966 0.217423
0.621835 0.813684 0.218051
0.632965 0.824166 0.220641
0.635561 0.819334 0.219820
0.635972 0.810744 0.218161
0.640693 0.809696 0.218192
0.646944 0.811211 0.218804
0.655993 0.817342 0.220460
0.660581 0.815842 0.220407
0.665636 0.815080 0.220526
0.669147 0.811753 0.220070
0.674944 0.812115 0.220452
0.682214 0.814754 0.221355
0.689473 0.817256 0.222234
0.693933 0.815269 0.222101
0.696530 0.810384 0.221310
0.704531 0.813796 0.222413
0.714516 0.820075 0.224178
0.720190 0.819713 0.224432
0.726889 0.820817 0.225026
0.731639 0.818986 0.224949
0.737728 0.819080 0.225317
0.742724 0.817552 0.225313
0.749561 0.818623 0.225910
0.755098 0.817799 0.226070
0.762965 0.820196 0.226975
0.767414 0.817800 0.226770
0.772919 0.816862 0.226899
0.782537 0.821469 0.228317
0.791209 0.824702 0.229414
0.797875 0.825204 0.229870
0.804514 0.825653 0.230309
0.805511 0.818772 0.229020
0.807482 0.813281 0.228045
0.816325 0.816660 0.229143
0.827099 0.822434 0.230797
0.836359 0.826240 0.231978
0.842484 0.826130 0.232223
0.852577 0.830938 0.233616
0.798868 0.744735 0.213824
0.841372 0.788749 0.224451
-0.129270 0.754218 0.195070
-0.123062 0.746948 0.193568
-0.115408 0.735606 0.191196
-0.115713 0.746627 0.193518
-0.119473 0.768000 0.198007
-0.119270 0.778584 0.200213
-0.113351 0.772735 0.198950
-0.106241 0.763272 0.196916
-0.100161 0.756762 0.195495
-0.097705 0.761346 0.196397
-0.096363 0.769658 0.198074
-0.093563 0.773679 0.198839
-0.088442 0.770382 0.198061
-0.083112 0.766345 0.197122
-0.078605 0.764982 0.196740
-0.073962 0.763145 0.196253
-0.072262 0.771502 0.197898
-0.068701 0.773605 0.198228
-0.064938 0.775068 0.198421
-0.060060 0.772491 0.197767
-0.054460 0.767103 0.196526
-0.050514 0.767810 0.196557
-0.046146 0.766877 0.196246
-0.042029 0.766880 0.196131
-0.038484 0.769174 0.196493
-0.035033 0.771917 0.196948
-0.030575 0.770466 0.196532
-0.026314 0.769754 0.196272
-0.022009 0.768761 0.195955
-0.018210 0.769961 0.196096
-0.014543 0.771770 0.196366
-0.010349 0.771101 0.196123
-0.006239 0.770735 0.195947
-0.003185 0.775568 0.196849
0.000510 0.777294 0.197111
0.005631 0.771521 0.195824
0.009968 0.769604 0.195339
0.013350 0.772823 0.195919
0.016136 0.779557 0.197226
0.020092 0.779721 0.197180
0.024475 0.777226 0.196589
0.027853 0.780788 0.197250
0.031105 0.785306 0.198111
0.035173 0.784609 0.197901
0.039242 0.783773 0.197665
0.043286 0.782990 0.197443
0.046806 0.785930 0.197991
0.050730 0.785926 0.197936
0.054763 0.784977 0.197690
0.059294 0.779764 0.196571
0.063556 0.776357 0.195827
0.067125 0.778805 0.196289
0.071107 0.777530 0.195989
0.074900 0.777915 0.196033
0.079138 0.773673 0.195130
0.082745 0.775771 0.195532
0.085914 0.783032 0.196996
0.089610 0.784688 0.197312
0.093059 0.789644 0.198308
0.096632 0.793482 0.199077
0.100520 0.793203 0.199004
0.104603 0.789748 0.198281
0.108930 0.781543 0.196587
0.112615 0.783668 0.197015
0.116187 0.788428 0.197985
0.119929 0.790328 0.198371
0.123726 0.791248 0.198558
0.127684 0.787852 0.197863
0.131521 0.787245 0.197741
0.135300 0.788657 0.198036
0.139115 0.788917 0.198097
0.143026 0.783528 0.197000
0.146798 0.785578 0.197432
0.150621 0.783166 0.196950
0.154404 0.787323 0.197818
0.158214 0.784950 0.197348
0.162017 0.784856 0.197347
0.165846 0.786992 0.197806
0.169788 0.794714 0.199413
0.173644 0.794847 0.199464
0.177396 0.790750 0.198649
0.181314 0.793343 0.199208
0.184834 0.783836 0.197283
0.188680 0.784719 0.197495
0.192525 0.785312 0.197648
0.196330 0.784944 0.197604
0.200064 0.783247 0.197289
0.204212 0.788830 0.198472
0.208143 0.790117 0.198774
0.212210 0.793154 0.199436
0.215947 0.791223 0.199079
0.219760 0.790454 0.198960
0.223838 0.792927 0.199511
0.227912 0.795050 0.199991
0.232370 0.801076 0.201276
0.235686 0.794653 0.199999
0.240043 0.799049 0.200951
0.243959 0.798846 0.200956
0.247488 0.795138 0.200240
0.251107 0.792470 0.199740
0.255004 0.792269 0.199748
0.259112 0.793724 0.200099
0.262232 0.787455 0.198857
0.266921 0.793195 0.200095
0.271731 0.799365 0.201424
0.276217 0.802845 0.202198
0.279666 0.799127 0.201486
0.283403 0.797475 0.201202
0.286946 0.794662 0.200678
0.291364 0.797309 0.201284
0.296434 0.803619 0.202650
0.300087 0.801390 0.202249
0.302929 0.794719 0.200929
0.306674 0.793282 0.200694
0.310479 0.792196 0.200531
0.314327 0.791355 0.200421
0.318561 0.792463 0.200715
0.322773 0.793377 0.200970
0.326868 0.793648 0.201093
0.331957 0.798536 0.202176
0.336614 0.801184 0.202795
0.340615 0.800749 0.202775
0.344209 0.798510 0.202380
0.348180 0.797952 0.202336
0.352940 0.800695 0.202980
0.356942 0.800177 0.202946
0.361670 0.802572 0.203520
0.365682 0.802013 0.203480
0.369565 0.800940 0.203334
0.375161 0.806381 0.204547
0.378250 0.802246 0.203765
0.380773 0.796159 0.202575
0.386717 0.802542 0.203990
0.392340 0.807530 0.205117
0.394996 0.802037 0.204054
0.397038 0.794616 0.202588
0.403251 0.801356 0.204086
0.408625 0.805083 0.204956
0.413580 0.807294 0.205510
0.418501 0.809294 0.206023
0.420521 0.802118 0.204613
0.423181 0.797110 0.203658
0.427471 0.797161 0.203765
0.431774 0.797216 0.203876
0.436013 0.797045 0.203941
0.439862 0.795718 0.203764
0.448822 0.808951 0.206653
0.453688 0.810270 0.207039
0.457839 0.809535 0.206995
0.460312 0.804213 0.205985
0.462623 0.798569 0.204908
0.466257 0.796551 0.204597
0.473850 0.804890 0.206477
0.475151 0.796758 0.204879
0.480596 0.799332 0.205546
0.484806 0.798704 0.205539
0.489779 0.799936 0.205928
0.492836 0.796425 0.205314
0.497139 0.795965 0.205350
0.502654 0.798350 0.205993
0.507080 0.798080 0.206075
0.511470 0.797689 0.206135
0.517053 0.799991 0.206770
0.521962 0.800672 0.207065
0.525702 0.798683 0.206794
0.530292 0.798568 0.206925
0.535201 0.799104 0.207199
0.542315 0.804309 0.208476
0.546829 0.803829 0.208541
0.552084 0.804861 0.208934
0.556122 0.803302 0.208776
0.560440 0.802298 0.208741
0.569914 0.811688 0.210942
0.572893 0.807833 0.210303
0.576022 0.804310 0.209738
0.581925 0.806225 0.210349
0.587070 0.806580 0.210628
0.589919 0.802493 0.209952
0.595632 0.803839 0.210454
0.601205 0.804836 0.210886
0.614662 0.820275 0.214456
0.611581 0.805185 0.211409
0.622102 0.814869 0.213747
0.632719 0.824447 0.216072
0.636384 0.821507 0.215678
0.635164 0.810058 0.213431
0.640590 0.810246 0.213726
0.645204 0.808981 0.213708
0.657285 0.820263 0.216447
0.662755 0.820215 0.216709
0.664060 0.813235 0.215454
0.667948 0.810553 0.215145
0.674263 0.811777 0.215701
0.682259 0.815596 0.216837
0.689478 0.818039 0.217676
0.696715 0.820393 0.218503
0.700683 0.817580 0.218188
0.708354 0.820426 0.219135
0.711007 0.815555 0.218369
0.719801 0.819923 0.219665
0.725353 0.819336 0.219860
0.731533 0.819624 0.220255
0.736612 0.818253 0.220280
0.743150 0.818955 0.220772
0.748856 0.818410 0.220985
0.757113 0.821421 0.222001
0.761772 0.819318 0.221864
0.765866 0.816442 0.221551
0.770866 0.814829 0.221519
0.782525 0.822218 0.223529
0.788133 0.821347 0.223661
0.796312 0.823883 0.224565
0.803219 0.824693 0.225072
0.804664 0.818390 0.223945
0.809185 0.816172 0.223742
0.817362 0.818667 0.224609
0.825573 0.821181 0.225472
0.834708 0.824832 0.226586
0.843065 0.827488 0.227461
0.848517 0.826570 0.227499
0.831403 0.784174 0.218342
0.864154 0.816292 0.225955
-0.141813 0.788674 0.198360
-0.131713 0.771136 0.194779
-0.120115 0.749117 0.190264
-0.118649 0.755340 0.191542
-0.118035 0.764322 0.193375
-0.117227 0.773126 0.195160
-0.113989 0.775139 0.195539
-0.107489 0.767557 0.193936
-0.103300 0.766886 0.193744
-0.100314 0.770012 0.194322
-0.096938 0.772104 0.194680
-0.093471 0.774058 0.195002
-0.089192 0.773512 0.194804
-0.084618 0.772032 0.194409
-0.079376 0.768311 0.193550
-0.075336 0.768600 0.193509
-0.070829 0.767307 0.193140
-0.067458 0.770006 0.193584
-0.063571 0.770959 0.193668
-0.059749 0.772183 0.193806
-0.054612 0.768519 0.192945
-0.050476 0.768523 0.192832
-0.046320 0.768425 0.192699
-0.042230 0.768562 0.192613
-0.038323 0.769410 0.192672
-0.034437 0.770341 0.192749
-0.031086 0.773545 0.193289
-0.026611 0.771953 0.192856
-0.022264 0.770808 0.192517
-0.018223 0.770937 0.192438
-0.014373 0.771906 0.192531
-0.010651 0.773463 0.192746
-0.006888 0.774834 0.192925
-0.003524 0.778200 0.193510
0.001553 0.772867 0.192340
0.005496 0.773161 0.192310
0.009574 0.772671 0.192125
0.012675 0.777513 0.193019
0.016535 0.778212 0.193079
0.020879 0.776017 0.192560
0.024529 0.777832 0.192851
0.027800 0.782052 0.193630
0.030904 0.787547 0.194668
0.035375 0.784197 0.193929
0.039818 0.780742 0.193172
0.043574 0.781868 0.193341
0.047320 0.783072 0.193527
0.050925 0.785373 0.193937
0.054643 0.786873 0.194189
0.059189 0.781564 0.193077
0.063494 0.777815 0.192282
0.067490 0.776451 0.191969
0.071169 0.777870 0.192216
0.074945 0.778395 0.192288
0.079192 0.774043 0.191384
0.082707 0.777113 0.191971
0.086362 0.778845 0.192292
0.089642 0.785246 0.193552
0.092742 0.794678 0.195422
0.096771 0.792555 0.194978
0.100805 0.790017 0.194454
0.105100 0.782936 0.193022
0.108720 0.786106 0.193646
0.112576 0.785405 0.193497
0.116373 0.785721 0.193554
0.120003 0.789762 0.194359
0.123856 0.789139 0.194233
0.127731 0.787664 0.193938
0.131513 0.788734 0.194155
0.135234 0.792485 0.194911
0.139124 0.789951 0.194409
0.143036 0.784575 0.193341
0.146883 0.780437 0.192522
0.150626 0.785338 0.193516
0.154431 0.783882 0.193238
0.158228 0.785033 0.193484
0.162028 0.784857 0.193466
0.165885 0.789648 0.194446
0.169804 0.795394 0.195618
0.173569 0.791136 0.194787
0.177484 0.794218 0.195429
0.181171 0.788762 0.194360
0.184840 0.784193 0.193470
0.188687 0.785106 0.193681
0.192601 0.787298 0.194150
0.196363 0.785912 0.193902
0.200208 0.786232 0.193999
0.204210 0.789138 0.194616
0.208393 0.794407 0.195708
0.212375 0.795944 0.196053
0.216089 0.793544 0.195608
0.219821 0.791629 0.195262
0.223345 0.787348 0.194440
0.227746 0.793552 0.195728
0.232518 0.803104 0.197691
0.236411 0.802574 0.197627
0.239985 0.798903 0.196932
0.243813 0.797900 0.196775
0.247223 0.793185 0.195872
0.250837 0.790574 0.195393
0.254709 0.790262 0.195377
0.258561 0.789770 0.195326
0.262768 0.792002 0.195825
0.266832 0.792975 0.196071
0.271693 0.799542 0.197447
0.275687 0.799632 0.197517
0.279650 0.799471 0.197538
0.283047 0.795621 0.196815
0.286970 0.795265 0.196798
0.291271 0.797195 0.197243
0.295715 0.799822 0.197830
0.300205 0.802525 0.198434
0.302785 0.794368 0.196843
0.306329 0.791853 0.196393
0.310320 0.791803 0.196442
0.314152 0.790904 0.196320
0.318638 0.793306 0.196868
0.322220 0.791114 0.196486
0.326465 0.792174 0.196763
0.332057 0.799465 0.198305
0.336789 0.802452 0.198976
0.340850 0.802266 0.199005
0.345197 0.803305 0.199283
0.349252 0.803014 0.199292
0.353404 0.803113 0.199382
0.356337 0.798157 0.198445
0.358788 0.791428 0.197148
0.366405 0.805338 0.200048
0.369367 0.800648 0.199168
0.373999 0.802443 0.199607
0.376510 0.796237 0.198419
0.380208 0.794568 0.198155
0.385439 0.798432 0.199020
0.392202 0.807528 0.200955
0.395949 0.805823 0.200688
0.398898 0.801426 0.199872
0.402733 0.800112 0.199687
0.406682 0.799182 0.199581
0.411686 0.801664 0.200175
0.416470 0.803331 0.200603
0.420089 0.801265 0.200270
0.423905 0.799834 0.200067
0.427740 0.798474 0.199881
0.431564 0.797090 0.199690
0.435762 0.796812 0.199729
0.440279 0.797430 0.199953
0.448807 0.809426 0.202516
0.453516 0.810308 0.202799
0.457912 0.810260 0.202894
0.462985 0.812024 0.203364
0.464726 0.804747 0.201974
0.469396 0.805394 0.202218
0.473463 0.804412 0.202128
0.477527 0.803410 0.202036
0.479018 0.795859 0.200595
0.484800 0.799229 0.201409
0.489691 0.800267 0.201745
0.494036 0.799902 0.201794
0.498793 0.800498 0.202045
0.503327 0.800507 0.202177
0.509768 0.804946 0.203230
0.515469 0.807517 0.203900
0.522482 0.812975 0.205174
0.526223 0.810866 0.204879
0.529405 0.807519 0.204330
0.530984 0.800678 0.203055
0.535660 0.800692 0.203210
0.541735 0.803662 0.203985
0.546240 0.803182 0.204045
0.550270 0.801670 0.203892
0.557018 0.805772 0.204917
0.560841 0.803739 0.204663
0.570791 0.814093 0.207008
0.571032 0.804748 0.205229
0.572696 0.798379 0.204075
0.578521 0.800226 0.204650
0.584186 0.801666 0.205144
0.588208 0.799882 0.204964
0.592811 0.799178 0.205016
0.599526 0.802372 0.205895
0.609096 0.810699 0.207866
0.608827 0.800844 0.205997
0.617065 0.806482 0.207412
0.627903 0.816569 0.209779
0.631826 0.814182 0.209505
0.636183 0.812541 0.209394
0.638525 0.807397 0.208540
0.644803 0.809014 0.209132
0.655362 0.817752 0.211252
0.661293 0.818514 0.211675
0.663335 0.812776 0.210711
0.668538 0.812257 0.210869
0.674876 0.813515 0.211413
0.681836 0.815673 0.212158
0.688708 0.817582 0.212854
0.694550 0.817775 0.213187
0.699463 0.816461 0.213198
0.701081 0.810065 0.212112
0.707639 0.811226 0.212665
0.718187 0.818282 0.214506
0.724684 0.819123 0.215001
0.730320 0.818624 0.215208
0.736256 0.818515 0.215502
0.742666 0.819038 0.215937
0.748496 0.818675 0.216180
0.755103 0.819367 0.216656
0.762662 0.821330 0.217412
0.765651 0.816910 0.216762
0.769923 0.814297 0.216506
0.780699 0.820506 0.218199
0.787328 0.821016 0.218630
0.794899 0.822749 0.219329
0.799929 0.821103 0.219272
0.810100 0.826169 0.220703
0.814428 0.823619 0.220431
0.820636 0.823527 0.220698
0.827299 0.824030 0.221089
0.832937 0.823268 0.221185
0.842960 0.827993 0.222500
0.849830 0.828800 0.222924
0.825741 0.784822 0.213463
0.844321 0.800169 0.217109
0.849002 0.798815 0.216977
-0.130570 0.758370 0.188324
-0.127023 0.758549 0.188378
-0.124258 0.761069 0.188890
-0.120324 0.760492 0.188769
-0.116305 0.759800 0.188614
-0.111477 0.756864 0.187998
-0.109606 0.762705 0.189133
-0.107383 0.767782 0.190105
-0.102532 0.765120 0.189516
-0.099066 0.766756 0.189780
-0.095943 0.769612 0.190280
-0.090084 0.763901 0.189058
-0.086289 0.764772 0.189148
-0.082844 0.766882 0.189480
-0.078725 0.766848 0.189378
-0.074280 0.765736 0.189057
-0.070048 0.765349 0.188877
-0.066526 0.767487 0.189198
-0.062809 0.769006 0.189393
-0.058809 0.769539 0.189390
-0.054591 0.769266 0.189226
-0.050374 0.768969 0.189056
-0.046252 0.769008 0.188952
-0.042094 0.768873 0.188815
-0.037924 0.768647 0.188660
-0.033632 0.767862 0.188396
-0.029785 0.768888 0.188492
-0.026255 0.771291 0.188862
-0.022056 0.770770 0.188655
-0.017830 0.770041 0.188408
-0.014266 0.772302 0.188756
-0.010689 0.774544 0.189101
-0.006789 0.775248 0.189145
-0.002111 0.772018 0.188415
0.001949 0.771731 0.188270
0.005945 0.771694 0.188176
0.010002 0.771247 0.188005
0.013482 0.773916 0.188450
0.017546 0.773317 0.188255
0.021610 0.772603 0.188040
0.025703 0.771600 0.187771
0.029710 0.770993 0.187584
0.033395 0.772347 0.187785
0.037194 0.772960 0.187844
0.041121 0.772652 0.187724
0.044901 0.773292 0.187794
0.048785 0.773136 0.187710
0.052268 0.775968 0.188216
0.056110 0.776089 0.188192
0.059980 0.775908 0.188113
0.063845 0.775679 0.188026
0.067561 0.776702 0.188188
0.071235 0.778144 0.188435
0.075123 0.777531 0.188282
0.079067 0.776225 0.187996
0.082873 0.776209 0.187965
0.086593 0.777102 0.188114
0.090383 0.777184 0.188108
0.094153 0.777476 0.188145
0.097941 0.777486 0.188129
0.101723 0.777527 0.188121
0.105469 0.778086 0.188218
0.109163 0.779545 0.188492
0.112848 0.781356 0.188838
0.116631 0.781494 0.188858
0.120448 0.780833 0.188725
0.124206 0.781460 0.188845
0.128018 0.780647 0.188686
0.131822 0.779828 0.188528
0.135617 0.779015 0.188372
0.139377 0.779399 0.188453
0.143136 0.780062 0.188590
0.146918 0.779333 0.188457
0.150683 0.780048 0.188608
0.154447 0.783646 0.189324
0.158235 0.782296 0.189074
0.162025 0.783023 0.189232
0.165822 0.783580 0.189359
0.169627 0.784252 0.189509
0.173424 0.784173 0.189515
0.177234 0.784529 0.189606
0.181028 0.784203 0.189566
0.184867 0.785169 0.189780
0.188697 0.785632 0.189897
0.192544 0.786296 0.190054
0.196403 0.787045 0.190230
0.200161 0.785706 0.189997
0.204080 0.787279 0.190337
0.208069 0.789673 0.190839
0.212015 0.791040 0.191140
0.215804 0.790027 0.190976
0.219286 0.785137 0.190053
0.223153 0.785431 0.190147
0.227257 0.788354 0.190759
0.231238 0.789598 0.191042
0.234893 0.787300 0.190630
0.239459 0.794152 0.192017
0.243620 0.796522 0.192525
0.247021 0.791798 0.191639
0.250710 0.789910 0.191312
0.254594 0.789746 0.191324
0.258932 0.793176 0.192044
0.262799 0.792684 0.191994
0.267796 0.800559 0.193591
0.270825 0.793780 0.192305
0.275287 0.797319 0.193051
0.278397 0.791545 0.191963
0.282585 0.793072 0.192315
0.286930 0.795459 0.192836
0.290502 0.792956 0.192395
0.295387 0.798335 0.193509
0.299491 0.798878 0.193670
0.302663 0.794139 0.192790
0.306287 0.792075 0.192438
0.310240 0.791834 0.192446
0.314607 0.793709 0.192873
0.318284 0.791976 0.192588
0.322104 0.790996 0.192453
0.327621 0.798180 0.193933
0.332324 0.801178 0.194586
0.336081 0.799665 0.194349
0.339623 0.797226 0.193928
0.344619 0.801234 0.194785
0.349594 0.804948 0.195585
0.352729 0.800741 0.194817
0.357299 0.802583 0.195248
0.361941 0.804605 0.195716
0.364306 0.797516 0.194378
0.368067 0.796079 0.194161
0.372186 0.796025 0.194220
0.376617 0.797103 0.194505
0.379973 0.794177 0.193996
0.387477 0.806228 0.196465
0.391320 0.804897 0.196276
0.395381 0.804336 0.196240
0.401130 0.795226 0.194581
0.405427 0.795537 0.194722
0.411371 0.801130 0.195918
0.415282 0.800040 0.195783
0.418933 0.798133 0.195487
0.423622 0.799456 0.195836
0.427428 0.798023 0.195637
0.431346 0.796934 0.195508
0.435530 0.796626 0.195536
0.440779 0.799378 0.196178
0.446831 0.804301 0.197258
0.453048 0.809509 0.198398
0.458040 0.811134 0.198823
0.461991 0.809834 0.198663
0.467183 0.811873 0.199175
0.468260 0.802906 0.197479
0.472818 0.803254 0.197655
0.477607 0.804148 0.197943
0.481935 0.803807 0.197986
0.485738 0.802117 0.197758
0.491126 0.804357 0.198325
0.498796 0.812066 0.199999
0.500753 0.805769 0.198850
0.503633 0.801788 0.198169
0.509625 0.805171 0.198979
0.518427 0.814934 0.201084
0.522188 0.812876 0.200801
0.525089 0.808880 0.200128
0.526399 0.801390 0.198748
0.534147 0.808223 0.200276
0.539886 0.810468 0.200877
0.542864 0.806679 0.200256
0.545909 0.803073 0.199674
0.550778 0.803333 0.199882
0.556396 0.805088 0.200398
0.561946 0.806611 0.200872
0.566612 0.806259 0.200966
0.565999 0.795303 0.198896
0.569381 0.792448 0.198484
0.577020 0.797921 0.199782
0.582074 0.798222 0.200025
0.588852 0.801752 0.200935
0.595035 0.804021 0.201592
0.602828 0.809186 0.202851
0.611235 0.815310 0.204315
0.610086 0.803804 0.202148
0.608450 0.791616 0.199839
0.621282 0.805447 0.202911
0.626085 0.804745 0.202985
0.630261 0.802903 0.202827
0.640032 0.810694 0.204674
0.647972 0.815127 0.205831
0.654617 0.817211 0.206507
0.659983 0.817050 0.206721
0.663721 0.814137 0.206365
0.668708 0.813262 0.206439
0.674670 0.813914 0.206837
0.680247 0.813873 0.207095
0.689805 0.820065 0.208668
0.693955 0.817594 0.208426
0.696070 0.811959 0.207520
0.699900 0.809007 0.207181
0.709409 0.814665 0.208665
0.715550 0.815089 0.209048
0.722704 0.816949 0.209740
0.728813 0.817175 0.210089
0.734570 0.816830 0.210320
0.741096 0.817546 0.210778
0.746939 0.817222 0.211017
0.752168 0.815993 0.211064
0.759901 0.818240 0.211854
0.762274 0.812999 0.211039
0.767613 0.811884 0.211107
0.776843 0.816029 0.212305
0.785851 0.819773 0.213416
0.792997 0.820954 0.213973
0.799217 0.820883 0.214255
0.808886 0.825298 0.215504
0.815742 0.826006 0.215944
0.820441 0.823958 0.215776
0.826824 0.824095 0.216074
0.832984 0.823974 0.216306
0.828263 0.802878 0.212173
0.818196 0.783280 0.208097
0.817222 0.775068 0.206493
0.833848 0.788151 0.209544
0.930872 0.896624 0.233535
-0.129300 0.755222 0.183902
-0.126876 0.758487 0.184555
-0.123362 0.758943 0.184647
-0.120242 0.760670 0.184976
-0.115958 0.759244 0.184678
-0.112455 0.760184 0.184833
-0.108470 0.759851 0.184729
-0.105102 0.761473 0.184999
-0.101340 0.762053 0.185056
-0.097744 0.763258 0.185227
-0.093555 0.762723 0.185052
-0.089736 0.763431 0.185112
-0.086004 0.764511 0.185239
-0.081760 0.763990 0.185048
-0.077899 0.764780 0.185109
-0.073987 0.765460 0.185144
-0.070036 0.766052 0.185159
-0.066294 0.767428 0.185324
-0.062313 0.767992 0.185328
-0.058450 0.769008 0.185419
-0.054400 0.769351 0.185378
-0.050081 0.768660 0.185136
-0.045914 0.768508 0.184999
-0.041934 0.769068 0.185000
-0.037678 0.768485 0.184780
-0.033379 0.767654 0.184514
-0.029370 0.767975 0.184472
-0.026140 0.771647 0.185079
-0.021547 0.769364 0.184537
-0.017619 0.769939 0.184549
-0.013787 0.770932 0.184644
-0.010072 0.772462 0.184845
-0.006251 0.773485 0.184950
-0.001893 0.771792 0.184535
0.002018 0.772243 0.184536
0.006034 0.772089 0.184422
0.010206 0.771007 0.184134
0.014010 0.771837 0.184216
0.017972 0.771740 0.184122
0.021625 0.773381 0.184366
0.025433 0.774103 0.184435
0.029415 0.773702 0.184292
0.033354 0.773476 0.184186
0.037208 0.773725 0.184173
0.041035 0.774100 0.184188
0.045028 0.773238 0.183969
0.048418 0.776708 0.184582
0.052300 0.776580 0.184508
0.056098 0.777037 0.184550
0.059995 0.776630 0.184429
0.063899 0.776062 0.184280
0.067626 0.776971 0.184417
0.071310 0.778286 0.184633
0.075096 0.778657 0.184671
0.079087 0.776866 0.184300
0.082891 0.776858 0.184271
0.086656 0.777240 0.184319
0.090390 0.777963 0.184435
0.094090 0.779148 0.184641
0.097879 0.779199 0.184633
0.101712 0.778555 0.184495
0.105472 0.778918 0.184551
0.109171 0.780289 0.184802
0.112914 0.781052 0.184938
0.116751 0.779985 0.184728
0.120506 0.780486 0.184819
0.124275 0.780700 0.184857
0.128051 0.780738 0.184864
0.131828 0.780687 0.184855
0.135608 0.780471 0.184817
0.139380 0.780472 0.184822
0.143171 0.779346 0.184613
