ply
format ascii 1.0
comment ---
element vertex 1771
property float x
property float y
property float z
element face 0
property list uchar uint vertex_indices
end_header
0.293819 0.774807 0.234295
0.297009 0.786506 0.238054
0.300640 0.783989 0.237631
0.304183 0.788039 0.239117
0.307929 0.781577 0.237495
0.311645 0.776667 0.236309
0.315333 0.778383 0.237058
0.319068 0.777351 0.236981
0.322830 0.777162 0.237138
0.326658 0.780327 0.238273
0.330507 0.781099 0.238688
0.334334 0.779122 0.238277
0.338200 0.778436 0.238237
0.342091 0.778090 0.238288
0.346034 0.778733 0.238623
0.349974 0.778658 0.238737
0.353944 0.778920 0.238944
0.357829 0.777054 0.238513
0.362125 0.782938 0.240380
0.366365 0.786676 0.241606
0.370320 0.785157 0.241266
0.374128 0.781574 0.240308
0.378076 0.780269 0.240026
0.382016 0.778931 0.239733
0.385867 0.776593 0.239141
0.390005 0.777721 0.239582
0.393968 0.776792 0.239411
0.398401 0.780716 0.240690
0.403685 0.792491 0.244316
0.407498 0.789517 0.243542
0.412099 0.793760 0.244927
0.416544 0.796294 0.245806
0.420874 0.797673 0.246344
0.424061 0.789961 0.244165
0.426927 0.780392 0.241432
0.431862 0.786544 0.243411
0.437065 0.794132 0.245828
0.441127 0.793448 0.245771
0.444455 0.787987 0.244286
0.448601 0.788053 0.244463
0.453935 0.795408 0.246838
0.457459 0.791498 0.245833
0.460421 0.784539 0.243914
0.464283 0.783029 0.243639
0.468537 0.783726 0.244035
0.472678 0.783770 0.244241
0.477055 0.785016 0.244815
0.481758 0.787823 0.245868
0.486116 0.788768 0.246365
0.491322 0.793735 0.248087
0.494162 0.787304 0.246364
0.497828 0.784941 0.245878
0.501867 0.784337 0.245930
0.506688 0.787167 0.247031
0.511421 0.789472 0.247981
0.514950 0.786582 0.247357
0.517718 0.780648 0.245809
0.523647 0.787681 0.248220
0.530912 0.799678 0.252157
0.539333 0.815648 0.257323
0.541955 0.808934 0.255563
0.544129 0.800773 0.253362
0.548942 0.802532 0.254204
0.555717 0.811233 0.257185
0.558245 0.804617 0.255469
0.558704 0.791044 0.251612
0.558787 0.776630 0.247492
0.565410 0.784530 0.250254
0.572190 0.792635 0.253091
0.576085 0.791119 0.252963
0.580327 0.790717 0.253184
0.584959 0.791507 0.253782
0.589645 0.792397 0.254416
0.593646 0.791151 0.254393
0.598299 0.791842 0.254978
0.605824 0.800882 0.258175
0.609930 0.799746 0.258206
0.613681 0.797598 0.257924
0.617436 0.795482 0.257656
0.621133 0.793228 0.257349
0.625091 0.791705 0.257275
0.629304 0.790870 0.257422
0.630885 0.783075 0.255378
0.633468 0.778063 0.254212
0.650773 0.810884 0.265018
0.656286 0.812948 0.266114
0.657512 0.804226 0.263795
0.657630 0.792972 0.260667
0.662151 0.792658 0.261017
0.666885 0.792818 0.261525
0.674452 0.799622 0.264162
0.686111 0.815737 0.269794
0.691690 0.817405 0.270816
0.696226 0.816618 0.271057
0.700228 0.814606 0.270909
0.697870 0.798527 0.266228
0.702740 0.798600 0.266753
0.708685 0.800946 0.268020
0.712416 0.798469 0.267732
0.717929 0.799759 0.268671
0.728746 0.812002 0.273184
0.731550 0.807441 0.272238
0.734775 0.803798 0.271592
0.737391 0.798973 0.270561
0.742965 0.800076 0.271476
0.749037 0.802084 0.272697
0.767026 0.827065 0.281497
0.773665 0.829705 0.282961
0.775028 0.822255 0.281098
0.780543 0.822691 0.281846
0.790516 0.831306 0.285321
0.799550 0.837962 0.288163
0.805217 0.838335 0.288926
0.804272 0.826830 0.285725
0.811590 0.830132 0.287478
0.811607 0.820550 0.284916
0.810547 0.809263 0.281774
0.822205 0.819918 0.286028
0.824716 0.814818 0.284978
0.829484 0.813554 0.285230
0.835359 0.814097 0.286102
0.841336 0.814741 0.287019
0.846803 0.814493 0.287641
0.851996 0.813758 0.288107
0.858351 0.814826 0.289199
0.865610 0.817237 0.290765
0.871894 0.818028 0.291787
0.878489 0.819225 0.292961
0.882780 0.816836 0.292905
0.888648 0.816814 0.293678
0.894333 0.816461 0.294347
0.902635 0.819918 0.296358
0.907970 0.818915 0.296825
0.913339 0.817923 0.297305
0.920571 0.819554 0.298720
0.926636 0.819440 0.299534
0.932836 0.819456 0.300407
0.941736 0.823155 0.302602
0.948813 0.824215 0.303877
0.953287 0.821649 0.303872
0.960377 0.822593 0.305134
0.965117 0.820320 0.305255
0.974203 0.823760 0.307447
0.982019 0.825408 0.309013
0.987541 0.823988 0.309484
0.992803 0.822194 0.309831
0.999007 0.821561 0.310614
1.008116 0.824519 0.312728
1.011329 0.820017 0.312122
1.020953 0.823425 0.314441
1.029354 0.825204 0.316181
1.035608 0.824282 0.316940
1.044757 0.826766 0.318984
1.050956 0.825634 0.319699
1.060359 0.828205 0.321819
1.065951 0.826225 0.322250
1.073074 0.825966 0.323345
1.080994 0.826543 0.324774
1.090316 0.828611 0.326792
1.099232 0.830106 0.328616
1.107094 0.830328 0.329974
1.116286 0.831922 0.331880
1.123351 0.831098 0.332874
1.130600 0.830408 0.333936
1.141007 0.833009 0.336297
1.150041 0.834033 0.338067
1.158708 0.834573 0.339668
1.167982 0.835650 0.341500
1.174911 0.834227 0.342361
1.181813 0.832727 0.343204
1.196886 0.839373 0.347311
1.202583 0.836499 0.347635
1.209910 0.835208 0.348600
1.216999 0.833636 0.349459
1.224286 0.832213 0.350384
1.235272 0.834283 0.352739
1.249639 0.839444 0.356376
1.257294 0.838150 0.357379
1.264873 0.836748 0.358337
1.277852 0.840278 0.361339
1.280546 0.834319 0.360398
1.293648 0.837811 0.363389
1.302946 0.837790 0.364910
1.320006 0.844597 0.369304
1.321746 0.837804 0.367948
1.332663 0.839077 0.369987
1.349981 0.845806 0.374343
1.362924 0.848658 0.377039
1.369167 0.845778 0.377255
1.375143 0.842715 0.377357
1.390054 0.847113 0.380656
1.399974 0.847326 0.382115
1.408562 0.846454 0.383067
1.419225 0.847282 0.384724
1.431315 0.849254 0.386846
1.439557 0.848155 0.387579
1.448911 0.847975 0.388670
1.458359 0.847899 0.389761
1.467422 0.847558 0.390687
1.475251 0.846313 0.391159
1.484846 0.846472 0.392205
1.492303 0.845057 0.392496
1.498427 0.842711 0.392314
1.508746 0.843572 0.393517
1.516115 0.842292 0.393703
1.526640 0.843398 0.394912
1.537316 0.844653 0.396136
1.544220 0.843221 0.396093
1.539799 0.833747 0.392348
0.249844 0.775014 0.224256
0.253226 0.767825 0.222797
0.256271 0.765075 0.222564
0.258937 0.767962 0.223903
0.261777 0.769368 0.224811
0.264667 0.770954 0.225754
0.267278 0.778094 0.228259
0.270391 0.778378 0.228803
0.273806 0.774065 0.228016
0.277187 0.770768 0.227496
0.280343 0.772876 0.228502
0.283187 0.784006 0.232079
0.287009 0.772988 0.229284
0.290407 0.773231 0.229700
0.293745 0.777164 0.231161
0.297319 0.774796 0.230789
0.300783 0.778839 0.232249
0.304306 0.783975 0.234010
0.307945 0.786560 0.235018
0.311715 0.779677 0.233268
0.315454 0.774815 0.232084
0.319189 0.774056 0.232074
0.322982 0.778680 0.233613
0.326832 0.781876 0.234726
0.330662 0.780083 0.234377
0.334527 0.779599 0.234396
0.338404 0.778838 0.234325
0.342319 0.778867 0.234474
0.346212 0.777711 0.234268
0.350188 0.778476 0.234616
0.354124 0.777805 0.234539
0.358112 0.778048 0.234723
0.362388 0.783346 0.236380
0.366406 0.783179 0.236436
0.370608 0.785771 0.237297
0.374374 0.781518 0.236153
0.378338 0.780413 0.235929
0.382265 0.778895 0.235583
0.386332 0.779160 0.235759
0.390455 0.779976 0.236098
0.394421 0.778977 0.235906
0.398567 0.779870 0.236271
0.402860 0.782072 0.237022
0.407902 0.790973 0.239744
0.412372 0.794008 0.240748
0.417143 0.799327 0.242429
0.420718 0.794468 0.241121
0.424201 0.789245 0.239710
0.428081 0.787390 0.239292
0.432784 0.791627 0.240674
0.437585 0.796239 0.242172
0.441114 0.791916 0.241043
0.444392 0.786223 0.239513
0.449093 0.789892 0.240750
0.454782 0.799397 0.243720
0.457072 0.788048 0.240532
0.460668 0.784905 0.239774
0.464800 0.784934 0.239960
0.468799 0.784216 0.239931
0.472826 0.783671 0.239958
0.477251 0.785192 0.240604
0.482617 0.791382 0.242644
0.487176 0.793261 0.243411
0.489928 0.786322 0.241563
0.494237 0.787004 0.241986
0.498334 0.786660 0.242109
0.502457 0.786419 0.242270
0.506678 0.786593 0.242560
0.511403 0.788895 0.243492
0.516075 0.790851 0.244329
0.520736 0.792645 0.245124
0.525020 0.792819 0.245441
0.530504 0.797695 0.247175
0.537657 0.808806 0.250793
0.541612 0.807311 0.250631
0.544762 0.802839 0.249578
0.549231 0.803322 0.250022
0.553439 0.802815 0.250173
0.556944 0.799815 0.249576
0.557935 0.788189 0.246373
0.563386 0.792092 0.247872
0.562714 0.775374 0.243123
0.571469 0.790134 0.247930
0.578727 0.799528 0.251122
0.580557 0.791347 0.248974
0.584787 0.790888 0.249180
0.589419 0.791638 0.249761
0.593652 0.791117 0.249959
0.597076 0.788169 0.249419
0.605443 0.799748 0.253338
0.611749 0.804985 0.255325
0.614413 0.799683 0.254080
0.617474 0.795607 0.253213
0.621593 0.794526 0.253273
0.625261 0.792210 0.252955
0.632535 0.799569 0.255635
0.634663 0.793104 0.254042
0.637124 0.787646 0.252761
0.648812 0.805950 0.258871
0.655031 0.809876 0.260526
0.652803 0.792596 0.255573
0.654313 0.784932 0.253613
0.662340 0.793242 0.256653
0.663801 0.785574 0.254695
0.670564 0.790585 0.256719
0.680080 0.801838 0.260718
0.689395 0.812293 0.264484
0.696240 0.816823 0.266396
0.703530 0.822193 0.268584
0.699851 0.803099 0.263030
0.703831 0.801179 0.262914
0.708841 0.801486 0.263511
0.713814 0.801660 0.264071
0.717343 0.798744 0.263651
0.730013 0.814867 0.269325
0.733683 0.812060 0.268957
0.732654 0.799733 0.265533
0.738227 0.800898 0.266443
0.743378 0.801150 0.267067
0.755463 0.814936 0.272071
0.765143 0.823697 0.275473
0.770741 0.824394 0.276277
0.771281 0.815457 0.273956
0.774379 0.811458 0.273239
0.784715 0.820888 0.276908
0.791555 0.823664 0.278421
0.791850 0.814494 0.276028
0.810539 0.838363 0.284489
0.819707 0.844820 0.287256
0.814605 0.826134 0.281740
0.814957 0.817234 0.279443
0.817941 0.812979 0.278681
0.822744 0.811844 0.278958
0.829864 0.814559 0.280525
0.835474 0.814664 0.281233
0.840188 0.813246 0.281440
0.851697 0.822818 0.285342
0.853622 0.816766 0.284013
0.860233 0.818222 0.285215
0.868595 0.822343 0.287331
0.877804 0.827639 0.289862
0.880126 0.822180 0.288758
0.887124 0.823891 0.290097
0.903106 0.830001 0.293738
0.909026 0.829820 0.294472
0.910163 0.822600 0.292794
0.914101 0.819513 0.292542
0.921132 0.820857 0.293829
0.927117 0.820630 0.294585
0.931403 0.817965 0.294505
0.937387 0.817649 0.295253
0.948279 0.824022 0.298355
0.952749 0.821467 0.298348
0.957489 0.819262 0.298473
0.963993 0.819389 0.299431
0.970818 0.819872 0.300529
0.978494 0.821392 0.302012
0.987706 0.824804 0.304188
0.992796 0.822798 0.304448
0.998965 0.822131 0.305200
1.004951 0.821176 0.305863
1.011252 0.820564 0.306663
1.019436 0.822211 0.308296
1.028851 0.825259 0.310460
1.033149 0.821989 0.310343
1.040403 0.822247 0.311527
1.051443 0.826912 0.314348
1.060039 0.828543 0.316080
1.065581 0.826517 0.316481
1.074242 0.828042 0.318214
1.083079 0.829661 0.320004
1.089175 0.828077 0.320619
1.095993 0.827251 0.321533
1.105469 0.829304 0.323548
1.114729 0.831000 0.325453
1.125112 0.833802 0.327801
1.130229 0.830808 0.327967
1.137090 0.829648 0.328843
1.149835 0.834631 0.332096
1.156559 0.833152 0.332888
1.166601 0.835050 0.335001
1.173462 0.833574 0.335825
1.183473 0.835240 0.337888
1.192985 0.836294 0.339732
1.201914 0.836670 0.341328
1.207273 0.833446 0.341514
1.218157 0.835595 0.343837
1.226232 0.834916 0.345051
1.233729 0.833626 0.346027
1.244561 0.835451 0.348261
1.256781 0.838474 0.350993
1.262642 0.835467 0.351293
1.276439 0.839760 0.354561
1.288201 0.842058 0.357028
1.295221 0.839976 0.357701
1.301680 0.837382 0.358152
1.319051 0.844457 0.362595
1.324744 0.841110 0.362716
1.332457 0.839545 0.363557
1.344888 0.842042 0.366083
1.350859 0.838954 0.366247
1.363264 0.841342 0.368695
1.370977 0.839740 0.369433
1.385496 0.843807 0.372554
1.395884 0.844398 0.374173
1.409350 0.847490 0.376833
1.420221 0.848437 0.378543
1.430609 0.848992 0.380049
1.439758 0.848571 0.381092
1.445534 0.845523 0.380950
1.457656 0.847509 0.382950
1.464972 0.845771 0.383280
1.473246 0.844834 0.383908
1.482604 0.844776 0.384871
1.492048 0.844827 0.385831
1.502525 0.845698 0.387102
1.512965 0.846576 0.388325
1.520338 0.845228 0.388510
1.527215 0.843590 0.388511
1.536828 0.844023 0.389378
1.546211 0.844340 0.390140
1.556708 0.845508 0.391231
0.249721 0.773169 0.220196
0.253035 0.767005 0.219032
0.255931 0.766403 0.219388
0.258984 0.764302 0.219310
0.261794 0.766234 0.220336
0.264483 0.771006 0.222141
0.266957 0.780673 0.225303
0.270086 0.781214 0.225898
0.273287 0.781463 0.226394
0.276601 0.780522 0.226536
0.279783 0.783388 0.227731
0.283421 0.777109 0.226328
0.287053 0.770912 0.224924
0.290436 0.771972 0.225551
0.293787 0.775988 0.226998
0.297350 0.774676 0.226917
0.300901 0.775431 0.227405
0.304389 0.783024 0.229822
0.308044 0.785461 0.230758
0.311835 0.777465 0.228706
0.315587 0.769615 0.226676
0.319319 0.771605 0.227437
0.323113 0.775666 0.228778
0.326975 0.779934 0.230167
0.330952 0.787256 0.232420
0.334823 0.784849 0.231879
0.338642 0.780390 0.230740
0.342483 0.777389 0.230008
0.346454 0.778422 0.230425
0.350384 0.777758 0.230349
0.354384 0.778469 0.230661
0.358341 0.777913 0.230605
0.362097 0.773524 0.229443
0.366289 0.777059 0.230555
0.370767 0.784381 0.232755
0.374581 0.780909 0.231850
0.378555 0.779970 0.231672
0.382581 0.779746 0.231700
0.386708 0.780680 0.232061
0.390920 0.782427 0.232659
0.394952 0.782014 0.232636
0.398846 0.780221 0.232217
0.403058 0.781639 0.232726
0.407523 0.785236 0.233868
0.411534 0.784495 0.233762
0.415515 0.783551 0.233601
0.419929 0.786176 0.234475
0.424065 0.786418 0.234665
0.428163 0.786344 0.234769
0.432147 0.785439 0.234637
0.436474 0.786979 0.235217
0.440517 0.786484 0.235214
0.444607 0.786316 0.235311
0.448913 0.787511 0.235809
0.452915 0.786753 0.235746
0.456658 0.784484 0.235250
0.460787 0.784563 0.235441
0.464773 0.783813 0.235396
0.469064 0.784757 0.235851
0.472967 0.783564 0.235689
0.477156 0.783896 0.235978
0.483055 0.792834 0.238784
0.487860 0.795918 0.239890
0.490626 0.789011 0.238084
0.494224 0.786323 0.237514
0.498724 0.787869 0.238190
0.502899 0.787858 0.238415
0.506676 0.786078 0.238128
0.511207 0.787582 0.238810
0.516888 0.793823 0.240892
0.521119 0.793811 0.241143
0.526198 0.797185 0.242398
0.531605 0.801688 0.243993
0.534907 0.797831 0.243130
0.539250 0.798042 0.243472
0.544074 0.800002 0.244337
0.547446 0.796549 0.243607
0.551693 0.796326 0.243837
0.555657 0.795080 0.243770
0.563289 0.806526 0.247481
0.562297 0.788229 0.242351
0.568415 0.794271 0.244469
0.572271 0.792646 0.244308
0.577855 0.796609 0.245822
0.580488 0.791041 0.244492
0.584857 0.791036 0.244830
0.589545 0.791970 0.245456
0.593580 0.790860 0.245474
0.597599 0.789698 0.245480
0.604988 0.798402 0.248465
0.610251 0.800668 0.249520
0.613907 0.798258 0.249168
0.617480 0.795650 0.248760
0.621036 0.793030 0.248351
0.625821 0.793780 0.248968
0.631232 0.796143 0.250083
0.639735 0.806552 0.253656
0.644835 0.807777 0.254442
0.650041 0.809194 0.255294
0.646867 0.789342 0.249641
0.651063 0.788369 0.249763
0.656659 0.790821 0.250941
0.665632 0.801359 0.254615
0.672193 0.805798 0.256426
0.672806 0.796025 0.253860
0.678498 0.798306 0.255016
0.687712 0.808587 0.258660
0.697638 0.820174 0.262725
0.701706 0.818286 0.262619
0.700639 0.805031 0.258977
0.703643 0.800964 0.258192
0.708477 0.800903 0.258661
0.714968 0.804331 0.260228
0.719041 0.802537 0.260167
0.728758 0.812483 0.263801
0.732526 0.809915 0.263511
0.733077 0.800831 0.261167
0.738773 0.802238 0.262136
0.744118 0.802870 0.262868
0.751218 0.806881 0.264679
0.763701 0.821178 0.269775
0.770607 0.824419 0.271372
0.769143 0.811696 0.267879
0.771252 0.805899 0.266594
0.777533 0.807903 0.267810
0.784268 0.810645 0.269274
0.796604 0.823405 0.273976
0.810090 0.837888 0.279261
0.815936 0.838489 0.280080
0.817270 0.831133 0.278328
0.818484 0.823678 0.276541
0.819596 0.816160 0.274731
0.822099 0.811107 0.273723
0.828736 0.813034 0.274999
0.835528 0.815124 0.276341
0.840799 0.814624 0.276843
0.856133 0.830402 0.282719
0.862072 0.830718 0.283519
0.857146 0.813725 0.278597
0.868587 0.822744 0.282293
0.874111 0.822323 0.282872
0.878531 0.820155 0.282877
0.881818 0.816251 0.282308
0.888643 0.817704 0.283539
0.902110 0.828976 0.288086
0.911668 0.834190 0.290621
0.919318 0.836450 0.292177
0.926021 0.837236 0.293250
0.922959 0.823962 0.289556
0.930582 0.826042 0.291083
0.936457 0.825564 0.291752
0.941111 0.823339 0.291835
0.946319 0.821857 0.292180
0.951723 0.820609 0.292617
0.957111 0.819299 0.293043
0.963451 0.819223 0.293908
0.971047 0.820743 0.295341
0.979589 0.823403 0.297191
0.985607 0.822676 0.297874
0.993818 0.824709 0.299541
0.999170 0.823001 0.299909
1.005595 0.822607 0.300753
1.011888 0.821986 0.301531
1.022851 0.827066 0.304353
1.026728 0.823320 0.304052
1.032387 0.821731 0.304532
1.038149 0.820222 0.305053
1.049561 0.825368 0.307988
1.057441 0.826192 0.309389
1.064071 0.825470 0.310248
1.072876 0.827190 0.312014
1.081728 0.828852 0.313781
1.088745 0.828333 0.314770
1.096295 0.828339 0.315969
1.103209 0.827562 0.316898
1.110030 0.826616 0.317780
1.125576 0.835089 0.322189
1.131274 0.832720 0.322584
1.136423 0.829731 0.322757
1.149636 0.835227 0.326141
1.156029 0.833408 0.326788
1.164445 0.833636 0.328227
1.172781 0.833697 0.329619
1.184645 0.837255 0.332370
1.194375 0.838521 0.334265
1.199842 0.835438 0.334498
1.205805 0.832825 0.334918
1.220698 0.838904 0.338733
1.228133 0.837578 0.339681
1.239052 0.839541 0.341928
1.246541 0.838141 0.342864
1.254597 0.837231 0.343996
1.265533 0.838950 0.346181
1.275773 0.839932 0.348080
1.283984 0.838983 0.349208
1.296519 0.841903 0.351895
1.310606 0.846104 0.355109
1.317018 0.843372 0.355511
1.323800 0.840972 0.356031
1.330302 0.838334 0.356435
1.344806 0.842607 0.359665
1.352467 0.840929 0.360431
1.361542 0.840455 0.361672
1.372556 0.841597 0.363563
1.385729 0.844499 0.366170
1.393016 0.842496 0.366697
1.402792 0.842559 0.368058
1.420932 0.849387 0.372247
1.429392 0.848347 0.373079
1.434919 0.845011 0.372892
1.445912 0.846057 0.374526
1.454899 0.845545 0.375451
1.465398 0.846241 0.376849
1.471882 0.843877 0.376883
1.482131 0.844457 0.378134
1.495107 0.847132 0.380244
1.504506 0.847127 0.381145
1.515727 0.848526 0.382605
1.524408 0.848080 0.383211
1.532896 0.847553 0.383727
1.538235 0.844801 0.383216
1.544770 0.843010 0.383068
1.560690 0.848028 0.385855
0.247686 0.761520 0.212946
0.249985 0.766865 0.214931
0.252461 0.771112 0.216608
0.255096 0.774347 0.217998
0.258215 0.772002 0.217848
0.261620 0.766047 0.216689
0.264458 0.768846 0.217911
0.267133 0.775443 0.220164
0.270267 0.775904 0.220713
0.273262 0.779962 0.222238
0.276550 0.779837 0.222590
0.279898 0.779488 0.222861
0.283441 0.775624 0.222137
0.287051 0.770402 0.221014
0.290522 0.769397 0.221042
0.293798 0.776276 0.223249
0.297322 0.777357 0.223825
0.300894 0.778594 0.224427
0.304414 0.786266 0.226814
0.308145 0.785034 0.226695
0.311938 0.778622 0.225108
0.315711 0.770912 0.223139
0.319451 0.766529 0.222088
0.323255 0.773444 0.224195
0.327160 0.781231 0.226538
0.331148 0.787952 0.228574
0.335125 0.789993 0.229284
0.338771 0.777465 0.225883
0.342704 0.777717 0.226071
0.346647 0.777693 0.226174
0.350616 0.777928 0.226344
0.354646 0.779156 0.226790
0.358630 0.778970 0.226832
0.362473 0.776037 0.226095
0.366640 0.778889 0.226989
0.371072 0.785289 0.228885
0.374668 0.778598 0.227081
0.378712 0.778755 0.227211
0.382937 0.781116 0.227965
0.387098 0.782396 0.228414
0.390722 0.777439 0.227100
0.395182 0.781875 0.228447
0.399201 0.781372 0.228398
0.402779 0.776645 0.227155
0.407296 0.780977 0.228482
0.411259 0.780035 0.228318
0.415141 0.778472 0.227982
0.419377 0.779891 0.228496
0.423489 0.780223 0.228706
0.427731 0.781493 0.229188
0.431853 0.781793 0.229399
0.436125 0.783110 0.229905
0.439958 0.781363 0.229544
0.444345 0.783336 0.230248
0.448880 0.786106 0.231185
0.453035 0.786366 0.231413
0.456799 0.784265 0.230973
0.460825 0.783787 0.231001
0.464870 0.783423 0.231068
0.469100 0.784076 0.231431
0.473175 0.783846 0.231548
0.477188 0.783286 0.231576
0.482902 0.791331 0.234077
0.487122 0.791592 0.234354
0.491186 0.791066 0.234411
0.494823 0.788536 0.233897
0.498868 0.787968 0.233953
0.502877 0.787242 0.233969
0.505620 0.780965 0.232390
0.512398 0.792241 0.235879
0.516172 0.790398 0.235591
0.518992 0.784676 0.234186
0.524633 0.790522 0.236132
0.530795 0.798154 0.238605
0.534906 0.797523 0.238691
0.537714 0.791934 0.237342
0.542127 0.792498 0.237785
0.546480 0.792789 0.238154
0.551880 0.796788 0.239610
0.557229 0.800425 0.240969
0.561864 0.801430 0.241567
0.567848 0.806944 0.243490
0.569675 0.798348 0.241291
0.573513 0.796611 0.241101
0.576451 0.791987 0.240068
0.580311 0.790404 0.239931
0.585036 0.791534 0.240598
0.589404 0.791491 0.240924
0.593628 0.790972 0.241116
0.598066 0.791070 0.241494
0.604098 0.795790 0.243247
0.607993 0.794163 0.243127
0.613289 0.796525 0.244195
0.615914 0.791301 0.243015
0.620938 0.792804 0.243839
0.624651 0.790659 0.243581
0.632274 0.798999 0.246460
0.640477 0.808587 0.249725
0.646054 0.811034 0.250864
0.647276 0.802201 0.248623
0.647733 0.791635 0.245858
0.651646 0.789935 0.245759
0.659022 0.796758 0.248235
0.669698 0.811359 0.253075
0.676171 0.815465 0.254757
0.681102 0.815775 0.255298
0.677674 0.796542 0.249906
0.685405 0.803445 0.252454
0.694402 0.813001 0.255825
0.700669 0.816145 0.257252
0.700918 0.805838 0.254573
0.703076 0.799919 0.253233
0.707852 0.799755 0.253660
0.715105 0.804833 0.255705
0.719051 0.802775 0.255562
0.722855 0.800425 0.255332
0.726168 0.797075 0.254795
0.733112 0.801138 0.256559
0.738731 0.802398 0.257463
0.744353 0.803586 0.258353
0.751481 0.807655 0.260149
0.763241 0.820555 0.264716
0.768929 0.821481 0.265556
0.768566 0.810882 0.262787
0.765528 0.795470 0.258497
0.776507 0.806296 0.262463
0.786005 0.814121 0.265502
0.793495 0.818091 0.267338
0.800067 0.820280 0.268622
0.811542 0.831045 0.272643
0.815455 0.828291 0.272379
0.820330 0.827212 0.272654
0.820535 0.818110 0.270368
0.822612 0.812323 0.269140
0.828893 0.813652 0.270199
0.834630 0.813999 0.270952
0.840413 0.814363 0.271719
0.856727 0.831750 0.278007
0.862103 0.831161 0.278497
0.856193 0.812603 0.273149
0.860746 0.810825 0.273253
0.867458 0.812386 0.274456
0.873740 0.813201 0.275426
0.880056 0.813994 0.276400
0.888074 0.817280 0.278206
0.903068 0.830854 0.283426
0.917367 0.843067 0.288230
0.929354 0.851595 0.291843
0.918291 0.826529 0.284298
0.918517 0.818081 0.282267
0.929175 0.824538 0.285221
0.941964 0.833796 0.289140
0.944537 0.828609 0.288226
0.945586 0.821365 0.286620
0.951304 0.820564 0.287194
0.957046 0.819748 0.287775
0.963707 0.820109 0.288768
0.972263 0.822906 0.290607
0.978593 0.822668 0.291426
0.984967 0.822424 0.292257
0.991717 0.822601 0.293247
0.998932 0.823296 0.294432
1.004492 0.821827 0.294882
1.012045 0.822800 0.296195
1.017958 0.821659 0.296787
1.026738 0.823973 0.298603
1.032265 0.822233 0.299016
1.037951 0.820643 0.299494
1.050341 0.826967 0.302787
1.055925 0.825095 0.303201
1.063742 0.825781 0.304539
1.072550 0.827521 0.306274
1.081349 0.829139 0.307988
1.089043 0.829397 0.309234
1.096205 0.828976 0.310254
1.103233 0.828334 0.311210
1.110254 0.827618 0.312156
1.116894 0.826419 0.312942
1.127026 0.828923 0.315103
1.137353 0.831506 0.317319
1.145441 0.831591 0.318636
1.156947 0.835168 0.321269
1.166087 0.836144 0.322960
1.173898 0.835654 0.324123
1.181758 0.835142 0.325292
1.192190 0.837145 0.327428
1.200078 0.836496 0.328578
1.204292 0.832152 0.328334
1.212843 0.832054 0.329714
1.226185 0.836515 0.332860
1.237231 0.838616 0.335121
1.248631 0.840939 0.337486
1.256825 0.840131 0.338649
1.262677 0.837090 0.338943
1.272111 0.837344 0.340527
1.282805 0.838680 0.342541
1.288360 0.835285 0.342688
1.307293 0.843883 0.347593
1.314552 0.841908 0.348300
1.321519 0.839667 0.348887
1.329470 0.838283 0.349804
1.339869 0.838999 0.351554
1.352903 0.841921 0.354188
1.361797 0.841258 0.355352
1.371122 0.840947 0.356638
1.383947 0.843537 0.359091
1.393890 0.843695 0.360523
1.407474 0.846819 0.363155
1.419351 0.848508 0.365167
1.427178 0.846928 0.365785
1.435708 0.845947 0.366613
1.444605 0.845291 0.367533
1.456082 0.846684 0.369273
1.464100 0.845404 0.369842
1.473455 0.845205 0.370821
1.485592 0.847166 0.372667
1.492870 0.845463 0.372910
1.502220 0.845387 0.373792
1.513604 0.846872 0.375291
1.522158 0.846298 0.375857
1.532977 0.847443 0.377109
1.538458 0.844748 0.376658
1.545427 0.843224 0.376654
1.537226 0.830916 0.371942
0.246809 0.768509 0.211318
0.249597 0.768510 0.211837
0.252095 0.772760 0.213479
0.254223 0.782884 0.216688
0.256455 0.793315 0.219974
0.260077 0.785681 0.218382
0.264410 0.767225 0.213838
0.267630 0.765267 0.213725
0.270588 0.768428 0.214981
0.273650 0.771082 0.216083
0.276787 0.773693 0.217158
0.280086 0.774318 0.217675
0.283439 0.774936 0.218172
0.286883 0.774585 0.218385
0.290507 0.770140 0.217460
0.293717 0.780079 0.220456
0.297297 0.780338 0.220785
0.300943 0.779541 0.220807
0.304557 0.782779 0.221921
0.308261 0.784046 0.222479
0.312059 0.778461 0.221135
0.315825 0.778883 0.221430
0.319624 0.778058 0.221368
0.323451 0.778477 0.221637
0.327333 0.780919 0.222454
0.331287 0.784875 0.223680
0.335208 0.784466 0.223690
0.338993 0.778079 0.222038
0.342916 0.777651 0.222026
0.346899 0.778559 0.222377
0.350813 0.777178 0.222089
0.354858 0.778698 0.222601
0.358912 0.779891 0.223018
0.363097 0.783075 0.223985
0.367495 0.789155 0.225755
0.371376 0.786206 0.225017
0.374889 0.778265 0.222893
0.378955 0.778752 0.223108
0.383051 0.779487 0.223393
0.387397 0.783055 0.224467
0.391275 0.780938 0.223963
0.394815 0.775435 0.222519
0.399618 0.783201 0.224768
0.403388 0.780279 0.224047
0.407449 0.780275 0.224142
0.411425 0.779512 0.224029
0.415322 0.778132 0.223748
0.419443 0.778668 0.224006
0.423820 0.781140 0.224808
0.427903 0.781220 0.224948
0.432165 0.782579 0.225451
0.436287 0.782854 0.225656
0.440320 0.782502 0.225691
0.445028 0.786561 0.226966
0.449274 0.787437 0.227356
0.453422 0.787644 0.227565
0.457465 0.787205 0.227599
0.461079 0.784293 0.226944
0.465211 0.784437 0.227152
0.469484 0.785323 0.227575
0.473337 0.783912 0.227358
0.477567 0.784507 0.227710
0.482538 0.788788 0.229107
0.486780 0.789252 0.229436
0.490275 0.786077 0.228744
0.494959 0.788603 0.229667
0.498611 0.786258 0.229219
0.502652 0.785736 0.229292
0.506929 0.786243 0.229663
0.514762 0.801949 0.234347
0.516289 0.790489 0.231338
0.518970 0.784219 0.229802
0.523098 0.784003 0.229990
0.527605 0.785252 0.230600
0.532261 0.787003 0.231359
0.536996 0.788950 0.232182
0.541283 0.789118 0.232503
0.545523 0.789079 0.232770
0.551074 0.793704 0.234378
0.556710 0.798424 0.236022
0.560482 0.796495 0.235767
0.564423 0.795172 0.235690
0.569859 0.798847 0.237055
0.573115 0.795204 0.236320
0.576547 0.792215 0.235776
0.580590 0.791222 0.235812
0.584833 0.790849 0.236032
0.589229 0.790916 0.236384
0.593959 0.791952 0.237022
0.597899 0.790563 0.236962
0.601223 0.787377 0.236384
0.607214 0.791934 0.238063
0.610996 0.790043 0.237870
0.615346 0.789754 0.238149
0.619761 0.789611 0.238475
0.625110 0.791966 0.239538
0.630671 0.794781 0.240744
0.635607 0.795823 0.241436
0.644325 0.806631 0.245010
0.647635 0.803222 0.244406
0.649572 0.796394 0.242794
0.655518 0.799709 0.244182
0.663249 0.807283 0.246840
0.671098 0.814894 0.249522
0.678459 0.821090 0.251796
0.678900 0.810725 0.249149
0.680942 0.804322 0.247678
0.683079 0.798256 0.246307
0.690534 0.804388 0.248587
0.698049 0.810453 0.250859
0.702167 0.808795 0.250822
0.702850 0.799620 0.248526
0.707612 0.799438 0.248938
0.714120 0.802941 0.250468
0.718909 0.802692 0.250872
0.721209 0.797220 0.249697
0.726123 0.797210 0.250181
0.733285 0.801724 0.252049
0.738913 0.803005 0.252941
0.745295 0.805704 0.254275
0.750578 0.806138 0.254924
0.766187 0.826532 0.261706
0.772213 0.828046 0.262712
0.766302 0.806870 0.256735
0.768896 0.802053 0.255789
0.779986 0.813023 0.259729
0.783865 0.810500 0.259506
0.788497 0.809349 0.259712
0.793671 0.809144 0.260219
0.803274 0.816732 0.263164
0.810256 0.819518 0.264625
0.817162 0.822061 0.266021
0.820648 0.818641 0.265555
0.822486 0.812451 0.264219
0.828170 0.812790 0.264943
0.834418 0.814004 0.265952
0.839501 0.813231 0.266341
0.855549 0.830218 0.272383
0.860632 0.829185 0.272717
0.858337 0.816396 0.269303
0.861086 0.811752 0.268487
0.867212 0.812405 0.269373
0.872246 0.811307 0.269705
0.882287 0.817810 0.272497
0.895281 0.828578 0.276689
0.910887 0.842970 0.282084
0.921576 0.849743 0.285037
0.928319 0.850548 0.286068
0.912556 0.810004 0.274351
0.925776 0.820196 0.278467
0.935388 0.825054 0.280855
0.939409 0.821978 0.280642
0.945679 0.822000 0.281462
0.951056 0.820740 0.281868
0.958065 0.821646 0.283006
0.964455 0.821643 0.283856
0.971282 0.822153 0.284891
0.977019 0.821160 0.285435
0.983532 0.821127 0.286314
0.991041 0.822307 0.287618
0.997300 0.821806 0.288369
1.004203 0.822058 0.289390
1.011395 0.822596 0.290523
1.019441 0.824107 0.292008
1.026978 0.824895 0.293262
1.032710 0.823409 0.293750
1.037962 0.821303 0.294037
1.049263 0.826349 0.296819
1.055729 0.825535 0.297588
1.064158 0.826949 0.299151
1.071392 0.826878 0.300214
1.080100 0.828416 0.301862
1.089475 0.830601 0.303760
1.095505 0.828916 0.304308
1.102642 0.828413 0.305290
1.110927 0.829100 0.306716
1.118435 0.828847 0.307824
1.128586 0.831366 0.309950
1.136333 0.831190 0.311125
1.144272 0.831135 0.312362
1.154956 0.833874 0.314637
1.165193 0.836014 0.316718
1.174574 0.837151 0.318454
1.180465 0.834634 0.318862
1.189241 0.834989 0.320344
1.197082 0.834323 0.321463
1.206478 0.835125 0.323144
1.213324 0.833338 0.323871
1.222420 0.833685 0.325410
1.233234 0.835597 0.327555
1.244232 0.837574 0.329743
1.253702 0.838000 0.331355
1.257076 0.832667 0.330767
1.273268 0.839199 0.334740
1.286211 0.842570 0.337516
1.294365 0.841480 0.338572
1.303864 0.841559 0.340081
1.312139 0.840496 0.341141
1.319106 0.838253 0.341728
1.328856 0.838432 0.343258
1.339408 0.839260 0.345038
1.351707 0.841532 0.347382
1.363658 0.843437 0.349571
1.372368 0.842563 0.350632
1.384559 0.844581 0.352834
1.395493 0.845515 0.354579
1.406474 0.846464 0.356305
1.417950 0.847796 0.358160
1.427576 0.847626 0.359370
1.436269 0.846727 0.360244
1.447790 0.848090 0.362009
1.457304 0.847882 0.363086
1.465689 0.846831 0.363771
1.474423 0.846096 0.364539
1.483032 0.845314 0.365239
1.489788 0.843186 0.365325
1.499079 0.843035 0.366187
1.509425 0.843719 0.367349
1.520603 0.845057 0.368735
1.529352 0.844649 0.369336
1.541021 0.846425 0.370806
1.548654 0.845321 0.371008
1.567680 0.852451 0.374648
0.245638 0.778918 0.210517
0.248799 0.775147 0.210032
0.250909 0.784688 0.213036
0.253146 0.794167 0.216019
0.255747 0.800389 0.218132
0.259460 0.792142 0.216397
0.263747 0.775101 0.212297
0.267464 0.765996 0.210275
0.270563 0.767137 0.210959
0.273624 0.770084 0.212109
0.276850 0.771242 0.212764
0.280107 0.773009 0.213565
0.283405 0.775302 0.214490
0.286910 0.773909 0.214408
0.290433 0.772989 0.214434
0.293939 0.773880 0.214929
0.297508 0.774290 0.215279
0.301184 0.771575 0.214769
0.304844 0.770817 0.214770
0.308514 0.771773 0.215219
0.312163 0.781987 0.218161
0.315960 0.782258 0.218400
0.319808 0.790052 0.220665
0.323690 0.788445 0.220372
0.327507 0.780334 0.218302
0.331376 0.778645 0.217963
0.335372 0.782688 0.219173
0.339273 0.780842 0.218775
0.343172 0.778952 0.218358
0.347110 0.778245 0.218257
0.351097 0.778577 0.218433
0.355073 0.778338 0.218450
0.359168 0.780284 0.219059
0.363338 0.783103 0.219904
0.367754 0.789429 0.221704
0.371589 0.785737 0.220772
0.375270 0.780273 0.219357
0.379132 0.777894 0.218783
0.383205 0.778397 0.218996
0.387379 0.780011 0.219514
0.391293 0.778496 0.219180
0.395740 0.782768 0.220429
0.399928 0.783982 0.220846
0.403934 0.783332 0.220757
0.407922 0.782552 0.220637
0.411736 0.780308 0.220119
0.415545 0.778198 0.219642
0.419534 0.777698 0.219610
0.423882 0.780018 0.220355
0.428200 0.781929 0.220994
0.432061 0.780408 0.220697
0.436504 0.783023 0.221539
0.441301 0.787844 0.222994
0.445508 0.788496 0.223310
0.449671 0.788820 0.223542
0.453686 0.788211 0.223522
0.457637 0.787239 0.223409
0.461435 0.785421 0.223067
0.465441 0.784860 0.223078
0.469381 0.783949 0.222997
0.473928 0.786290 0.223820
0.477553 0.783721 0.223292
0.483076 0.790834 0.225447
0.487075 0.790071 0.225431
0.490611 0.787106 0.224810
0.494418 0.785522 0.224576
0.498793 0.786585 0.225083
0.502807 0.785960 0.225126
0.507041 0.786297 0.225443
0.513605 0.796574 0.228532
0.517578 0.795521 0.228475
0.519848 0.787484 0.226476
0.523412 0.784946 0.226013
0.527796 0.785717 0.226479
0.532433 0.787402 0.227207
0.536828 0.788069 0.227656
0.540399 0.785609 0.227234
0.544321 0.784492 0.227192
0.548415 0.783994 0.227330
0.553452 0.786799 0.228402
0.557982 0.787714 0.228948
0.562509 0.788549 0.229478
0.568124 0.792951 0.231021
0.574713 0.800360 0.233424
0.577312 0.794612 0.232110
0.580458 0.790748 0.231332
0.584457 0.789633 0.231336
0.589474 0.791642 0.232234
0.594153 0.792524 0.232817
0.598498 0.792346 0.233103
0.601314 0.787655 0.232105
0.605701 0.787595 0.232433
0.610214 0.787857 0.232858
0.615185 0.789348 0.233641
0.619972 0.790247 0.234260
0.624866 0.791370 0.234949
0.630974 0.795668 0.236559
0.638925 0.804663 0.239534
0.644820 0.808013 0.240890
0.647121 0.802010 0.239545
0.651992 0.802628 0.240121
0.658587 0.807486 0.241933
0.663601 0.808280 0.242573
0.671128 0.815108 0.244978
0.673973 0.810494 0.244053
0.680204 0.813963 0.245493
0.683499 0.810446 0.244895
0.687481 0.808557 0.244776
0.687817 0.798389 0.242226
0.697628 0.809691 0.245995
0.701702 0.807954 0.245933
0.703785 0.801859 0.244587
0.707925 0.800315 0.244587
0.713134 0.801045 0.245266
0.718198 0.801406 0.245841
0.722694 0.800531 0.246053
0.726842 0.798914 0.246049
0.733250 0.801885 0.247420
0.738680 0.802775 0.248177
0.744884 0.805134 0.249382
0.749609 0.804490 0.249692
0.768674 0.831617 0.258375
0.775079 0.833811 0.259570
0.773616 0.820998 0.256233
0.772963 0.809945 0.253419
0.777502 0.808708 0.253581
0.782426 0.808156 0.253956
0.790104 0.812554 0.255847
0.793364 0.808896 0.255288
0.798136 0.807947 0.255560
0.802383 0.806050 0.255547
0.813456 0.815968 0.259175
0.821900 0.821117 0.261353
0.821662 0.811391 0.258946
0.827472 0.811961 0.259724
0.832749 0.811587 0.260217
0.839273 0.813213 0.261341
0.853476 0.827222 0.266338
0.860420 0.829221 0.267608
0.859501 0.818625 0.264941
0.862635 0.814571 0.264323
0.870761 0.818320 0.266166
0.876103 0.817648 0.266627
0.883482 0.820041 0.268066
0.896908 0.831455 0.272383
0.902828 0.831369 0.273068
0.916834 0.843182 0.277560
0.922543 0.842553 0.278102
0.917382 0.826130 0.273588
0.921689 0.823557 0.273511
0.926460 0.821634 0.273650
0.931583 0.820185 0.273950
0.930688 0.810330 0.271533
0.945879 0.822770 0.276360
0.951036 0.821217 0.276659
0.957740 0.821722 0.277640
0.964610 0.822374 0.278683
0.970316 0.821408 0.279208
0.976102 0.820501 0.279764
0.982187 0.819934 0.280444
0.990441 0.822100 0.282044
0.997501 0.822635 0.283120
1.005518 0.824298 0.284588
1.012336 0.824363 0.285539
1.019752 0.825096 0.286730
1.026971 0.825502 0.287828
1.032785 0.824124 0.288338
1.040622 0.825130 0.289671
1.048088 0.825601 0.290840
1.056232 0.826786 0.292272
1.065177 0.828806 0.294009
1.070789 0.826862 0.294403
1.077086 0.825662 0.295067
1.085759 0.827097 0.296660
1.094586 0.828598 0.298298
1.100659 0.826932 0.298850
1.111324 0.830268 0.301171
1.119638 0.830898 0.302566
1.127495 0.830941 0.303773
1.133599 0.829028 0.304306
1.140321 0.827724 0.305067
1.155007 0.834706 0.308808
1.163656 0.835206 0.310258
1.169818 0.833057 0.310772
1.176881 0.831784 0.311615
1.185174 0.831692 0.312900
1.195795 0.833843 0.315020
1.202298 0.831801 0.315625
1.214387 0.835185 0.318238
1.221593 0.833691 0.319071
1.230642 0.833917 0.320551
1.241812 0.836078 0.322766
1.249434 0.834783 0.323704
1.259827 0.836024 0.325600
1.269943 0.836916 0.327377
1.276837 0.834776 0.328012
1.287759 0.836263 0.330026
1.302231 0.840848 0.333234
1.311381 0.840558 0.334581
1.317836 0.837849 0.334990
1.327565 0.838000 0.336494
1.338985 0.839565 0.338541
1.354962 0.844962 0.342081
1.365830 0.845896 0.343871
1.376839 0.846904 0.345677
1.385698 0.846084 0.346742
1.394960 0.845595 0.347913
1.404526 0.845355 0.349156
1.416623 0.847165 0.351190
1.427498 0.847965 0.352792
1.438337 0.848730 0.354347
1.448753 0.849163 0.355732
1.459266 0.849685 0.357115
1.467053 0.848109 0.357603
1.474181 0.846085 0.357860
1.482703 0.845191 0.358529
1.490569 0.843855 0.358967
1.499436 0.843334 0.359689
1.509932 0.844080 0.360882
1.517137 0.842436 0.361038
1.530280 0.845217 0.362975
1.542738 0.847515 0.364662
1.551709 0.847321 0.365265
1.563301 0.849068 0.366623
0.250473 0.721292 0.192061
0.248185 0.779705 0.207624
0.250336 0.789136 0.210542
0.253174 0.791294 0.211565
0.256196 0.791921 0.212174
0.260061 0.781365 0.209850
0.263389 0.778533 0.209516
0.267155 0.769193 0.207457
0.270404 0.768334 0.207595
0.273553 0.770115 0.208408
0.276826 0.770752 0.208903
0.280140 0.771683 0.209457
0.283556 0.771529 0.209708
0.286954 0.773051 0.210384
0.290421 0.774275 0.210964
0.293942 0.775486 0.211524
0.297549 0.775362 0.211715
0.301242 0.772946 0.211281
0.304932 0.771704 0.211142
0.308618 0.772982 0.211659
0.312304 0.781082 0.213975
0.316103 0.785226 0.215229
0.319959 0.785129 0.215344
0.323931 0.797380 0.218737
0.327682 0.779517 0.214096
0.331627 0.782034 0.214876
0.335617 0.784561 0.215652
0.339521 0.782255 0.215130
0.343421 0.779968 0.214608
0.347389 0.779808 0.214647
0.351360 0.779450 0.214630
0.355359 0.779537 0.214728
0.359448 0.781197 0.215244
0.363551 0.782665 0.215707
0.367674 0.784112 0.216163
0.371656 0.783079 0.215956
0.375423 0.779057 0.214948
0.379366 0.777857 0.214697
0.383402 0.777914 0.214783
0.387556 0.779329 0.215235
0.392236 0.786423 0.217213
0.395354 0.776261 0.214566
0.400750 0.789958 0.218322
0.404620 0.787753 0.217817
0.408281 0.783824 0.216851
0.412375 0.784016 0.216997
0.417491 0.792754 0.219443
0.421103 0.788676 0.218450
0.424233 0.781177 0.216541
0.428983 0.786305 0.218033
0.432758 0.784045 0.217542
0.437637 0.789598 0.219161
0.441321 0.786753 0.218523
0.445702 0.788609 0.219157
0.449714 0.788014 0.219137
0.453914 0.788584 0.219436
0.457861 0.787613 0.219325
0.461634 0.785680 0.218958
0.465427 0.783952 0.218653
0.469391 0.783224 0.218623
0.473556 0.783584 0.218893
0.478388 0.787355 0.220095
0.483270 0.791166 0.221314
0.487533 0.791726 0.221658
0.490655 0.786761 0.220506
0.494475 0.785269 0.220302
0.498325 0.783963 0.220153
0.502586 0.784522 0.220518
0.507139 0.786309 0.221225
0.511455 0.786975 0.221631
0.516997 0.792726 0.223434
0.522815 0.799341 0.225483
0.523884 0.786548 0.222221
0.528063 0.786497 0.222453
0.532526 0.787510 0.222983
0.536503 0.786609 0.222993
0.541466 0.789376 0.224017
0.545481 0.788544 0.224056
0.549777 0.788711 0.224376
0.553962 0.788449 0.224582
0.558375 0.788949 0.225005
0.562610 0.788784 0.225248
0.571883 0.805406 0.230153
0.576759 0.806998 0.230900
0.577947 0.796600 0.228320
0.580158 0.789750 0.226724
0.584931 0.791082 0.227410
0.589961 0.793118 0.228299
0.593137 0.789448 0.227599
0.598555 0.792521 0.228788
0.601994 0.789663 0.228322
0.605837 0.788018 0.228199
0.610404 0.788437 0.228660
0.615688 0.790807 0.229676
0.620459 0.791652 0.230268
0.624956 0.791686 0.230637
0.633919 0.803634 0.234381
0.639868 0.807243 0.235778
0.643992 0.805961 0.235794
0.649966 0.809417 0.237161
0.651765 0.802172 0.235490
0.657263 0.804310 0.236492
0.662363 0.805367 0.237193
0.665607 0.801847 0.236589
0.671552 0.804845 0.237856
0.678099 0.809143 0.239503
0.684970 0.814043 0.241333
0.689866 0.814221 0.241812
0.694582 0.813941 0.242164
0.699147 0.813284 0.242413
0.701587 0.807889 0.241293
0.703567 0.801578 0.239907
0.708059 0.800806 0.240129
0.713047 0.801067 0.240657
0.717739 0.800653 0.240993
0.723614 0.802666 0.242044
0.729511 0.804630 0.243088
0.734386 0.804426 0.243503
0.738580 0.802811 0.243508
0.744314 0.804246 0.244416
0.750845 0.807166 0.245769
0.766527 0.827717 0.252346
0.777533 0.838784 0.256143
0.777504 0.828637 0.253660
0.770501 0.805607 0.247337
0.774239 0.802945 0.247065
0.781416 0.806592 0.248682
0.795194 0.822066 0.253850
0.799762 0.820653 0.253978
0.800672 0.812743 0.252156
0.804231 0.809596 0.251767
0.812610 0.814821 0.253909
0.819288 0.816968 0.255133
0.821779 0.811918 0.254184
0.826981 0.811475 0.254636
0.832946 0.812255 0.255468
0.837765 0.811087 0.255713
0.849904 0.821781 0.259597
0.856750 0.823692 0.260808
0.858245 0.817000 0.259384
0.863176 0.815801 0.259653
0.870682 0.818584 0.261159
0.875415 0.816982 0.261319
0.883553 0.820551 0.263093
0.891273 0.823362 0.264645
0.898812 0.825790 0.266091
0.893910 0.809706 0.261757
0.905929 0.818670 0.265267
0.917939 0.827382 0.268723
0.929315 0.834951 0.271844
0.935571 0.835036 0.272620
0.929286 0.817420 0.267792
0.931320 0.811680 0.266723
0.943539 0.820030 0.270150
0.949991 0.820285 0.271014
0.955862 0.819687 0.271616
0.963875 0.821903 0.273136
0.969453 0.820786 0.273596
0.975364 0.820063 0.274195
0.982602 0.821012 0.275349
0.990091 0.822200 0.276595
0.997143 0.822740 0.277647
1.005530 0.824885 0.279239
1.012477 0.825121 0.280223
1.018798 0.824508 0.280942
1.026478 0.825501 0.282207
1.033834 0.826010 0.283328
1.039541 0.824455 0.283779
1.048384 0.826588 0.285475
1.054777 0.825717 0.286184
1.062779 0.826665 0.287521
1.070258 0.826915 0.288641
1.076113 0.825224 0.289120
1.083421 0.825134 0.290157
1.094107 0.828758 0.292480
1.103488 0.830783 0.294282
1.111247 0.830902 0.295451
1.120926 0.833032 0.297333
1.127358 0.831532 0.297981
1.133310 0.829465 0.298445
1.140263 0.828414 0.299277
1.149863 0.830078 0.301077
1.163099 0.835402 0.304188
1.168617 0.832601 0.304459
1.175715 0.831380 0.305300
1.182369 0.829651 0.305974
1.195091 0.833935 0.308812
1.201695 0.832000 0.309444
1.208767 0.830479 0.310234
1.220158 0.833099 0.312536
1.226719 0.830947 0.313122
1.238736 0.833951 0.315600
1.250250 0.836348 0.317876
1.257965 0.835078 0.318816
1.267603 0.835537 0.320402
1.275481 0.834309 0.321368
1.286263 0.835671 0.323303
1.298152 0.837939 0.325586
1.310773 0.840757 0.328084
1.316699 0.837567 0.328315
1.322463 0.834247 0.328482
1.339637 0.840807 0.332406
1.356552 0.846982 0.336193
1.367378 0.847841 0.337940
1.377864 0.848368 0.339547
1.386346 0.847193 0.340475
1.393803 0.845176 0.341051
1.405182 0.846391 0.342860
1.413924 0.845441 0.343796
1.426960 0.847955 0.346065
1.436578 0.847712 0.347216
1.449053 0.849738 0.349232
1.459844 0.850430 0.350684
1.469679 0.850392 0.351805
1.476404 0.847993 0.351936
1.484431 0.846661 0.352446
1.493545 0.846209 0.353261
1.504704 0.847341 0.354667
1.511953 0.845593 0.354859
1.519574 0.844197 0.355140
1.526922 0.842676 0.355317
1.537957 0.843912 0.356565
1.548630 0.844926 0.357672
1.555227 0.843069 0.357553
0.244999 0.780691 0.203786
0.248745 0.770553 0.201681
0.251216 0.775854 0.203483
0.253952 0.778944 0.204709
0.257937 0.766218 0.201875
0.260398 0.774579 0.204416
0.263450 0.775807 0.205116
0.266625 0.776094 0.205557
0.270201 0.770453 0.204452
0.273412 0.771653 0.205090
0.276639 0.773715 0.205934
0.280159 0.770893 0.205496
0.283614 0.770208 0.205593
0.287018 0.771946 0.206300
0.290433 0.775131 0.207367
0.294057 0.773582 0.207189
0.297642 0.774749 0.207700
0.301369 0.771324 0.206999
0.305028 0.772635 0.207518
0.308750 0.772390 0.207616
0.312412 0.785962 0.211310
0.316255 0.786788 0.211665
0.320107 0.778240 0.209558
0.323951 0.775876 0.209056
0.327922 0.783803 0.211237
0.331872 0.784852 0.211611
0.335853 0.785961 0.211993
0.339719 0.781688 0.210959
0.343658 0.780592 0.210751
0.347661 0.781168 0.210976
0.351609 0.779974 0.210734
0.355670 0.781286 0.211146
0.359695 0.781462 0.211258
0.363743 0.781893 0.211435
0.367803 0.782338 0.211616
0.371806 0.781762 0.211528
0.375700 0.779670 0.211042
0.379641 0.778419 0.210779
0.383575 0.777186 0.210521
0.387552 0.776582 0.210431
0.391859 0.779695 0.211322
0.396658 0.787645 0.213489
0.400877 0.788995 0.213924
0.404953 0.788839 0.213966
0.408413 0.783081 0.212535
0.412024 0.779127 0.211583
0.416648 0.783960 0.212952
0.422098 0.795046 0.215977
0.426862 0.799987 0.217387
0.430385 0.795311 0.216264
0.433866 0.790666 0.215153
0.437455 0.787075 0.214324
0.441072 0.783906 0.213611
0.445066 0.783370 0.213601
0.449860 0.787889 0.214933
0.454532 0.791381 0.216002
0.458234 0.788910 0.215495
0.461816 0.785876 0.214843
0.465569 0.783944 0.214489
0.469628 0.783769 0.214607
0.473807 0.784217 0.214896
0.478151 0.785476 0.215407
0.483658 0.792509 0.217462
0.487884 0.792875 0.217748
0.490927 0.787533 0.216517
0.494681 0.785741 0.216237
0.498519 0.784391 0.216079
0.502762 0.784889 0.216422
0.507114 0.785809 0.216883
0.510788 0.783758 0.216553
0.515809 0.787410 0.217759
0.521492 0.793598 0.219653
0.523786 0.785874 0.217814
0.528466 0.787829 0.218582
0.532381 0.786718 0.218530
0.536963 0.788144 0.219167
0.541440 0.789088 0.219680
0.545716 0.789232 0.219982
0.549556 0.787771 0.219855
0.553926 0.788194 0.220243
0.558794 0.790282 0.221088
0.562983 0.789957 0.221284
0.569680 0.797973 0.223755
0.576555 0.806260 0.226311
0.577649 0.795588 0.223703
0.580715 0.791483 0.222887
0.584841 0.790778 0.223003
0.589765 0.792508 0.223790
0.594279 0.792903 0.224218
0.598626 0.792748 0.224499
0.604180 0.796093 0.225748
0.607898 0.793997 0.225505
0.611789 0.792419 0.225408
0.616413 0.792893 0.225882
0.620455 0.791709 0.225901
0.624981 0.791833 0.226287
0.633776 0.803337 0.229838
0.640222 0.808273 0.231577
0.644451 0.807259 0.231667
0.644599 0.795763 0.228837
0.648344 0.793636 0.228619
0.654144 0.796657 0.229845
0.658332 0.795583 0.229930
0.662679 0.794880 0.230123
0.667286 0.794775 0.230489
0.672474 0.796002 0.231234
0.679972 0.802546 0.233486
0.686304 0.806189 0.234929
0.694098 0.813020 0.237283
0.698925 0.812971 0.237697
0.699882 0.804301 0.235665
0.703187 0.800939 0.235141
0.707839 0.800531 0.235461
0.712748 0.800635 0.235932
0.716687 0.798645 0.235808
0.727750 0.811501 0.239946
0.730933 0.807783 0.239340
0.733707 0.803276 0.238508
0.739112 0.804116 0.239219
0.744262 0.804384 0.239771
0.751189 0.808088 0.241324
0.763030 0.821192 0.245614
0.773053 0.830462 0.248811
0.770879 0.816349 0.245211
0.768735 0.802566 0.241697
0.775083 0.804781 0.242852
0.784859 0.813181 0.245830
0.798294 0.827973 0.250702
0.806254 0.832581 0.252600
0.808732 0.827323 0.251600
0.810071 0.820136 0.250029
0.815053 0.819369 0.250359
0.818515 0.815962 0.249910
0.822667 0.813749 0.249819
0.828076 0.813643 0.250361
0.832438 0.811749 0.250376
0.839040 0.813523 0.251494
0.847895 0.818871 0.253696
0.850261 0.813619 0.252722
0.856934 0.815279 0.253835
0.861965 0.814265 0.254149
0.867190 0.813523 0.254552
0.874744 0.816332 0.256043
0.882889 0.819933 0.257787
0.892489 0.825602 0.260178
0.896835 0.823245 0.260129
0.892039 0.807348 0.255928
0.905151 0.817954 0.259870
0.922421 0.834317 0.265616
0.938487 0.848566 0.270745
0.942422 0.845228 0.270451
0.940908 0.834229 0.267778
0.933299 0.814896 0.262498
0.943127 0.819937 0.264821
0.949398 0.819957 0.265590
0.956106 0.820507 0.266536
0.961618 0.819382 0.266968
0.968720 0.820324 0.268063
0.974212 0.819069 0.268476
0.981648 0.820300 0.269691
0.990526 0.823298 0.271485
0.996250 0.822151 0.271971
1.002774 0.821967 0.272778
1.011204 0.824101 0.274346
1.017282 0.823212 0.274956
1.026393 0.825987 0.276767
1.033506 0.826213 0.277769
1.037611 0.822745 0.277581
1.045288 0.823523 0.278792
1.054597 0.826137 0.280624
1.061837 0.826208 0.281640
1.068776 0.825855 0.282532
1.075697 0.825410 0.283409
1.083629 0.826042 0.284662
1.096486 0.832116 0.287755
1.104125 0.832189 0.288865
1.110219 0.830477 0.289390
1.116862 0.829315 0.290115
1.125909 0.830691 0.291718
1.134264 0.831218 0.293052
1.142696 0.831734 0.294403
1.149804 0.830765 0.295262
1.158515 0.831399 0.296690
1.169331 0.834103 0.298855
1.175116 0.831541 0.299212
1.182765 0.830826 0.300225
1.193266 0.832894 0.302229
1.202245 0.833332 0.303682
1.210572 0.833038 0.304892
1.219545 0.833296 0.306312
1.227138 0.832140 0.307244
1.235114 0.831293 0.308295
1.247735 0.834766 0.310911
1.257508 0.835436 0.312536
1.267132 0.835883 0.314091
1.276125 0.835671 0.315414
1.287427 0.837491 0.317488
1.296008 0.836766 0.318635
1.309119 0.840026 0.321255
1.315550 0.837277 0.321653
1.321109 0.833767 0.321757
1.340848 0.842542 0.326445
1.354921 0.846253 0.329249
1.367346 0.848457 0.331484
1.375996 0.847413 0.332481
1.385014 0.846668 0.333572
1.395003 0.846718 0.334945
1.402589 0.844787 0.335535
1.414631 0.846493 0.337495
1.425028 0.846845 0.338908
1.433028 0.845287 0.339549
1.442301 0.844770 0.340557
1.459377 0.850381 0.343922
1.468987 0.850127 0.344962
1.476660 0.848415 0.345387
1.482915 0.845683 0.345361
1.495725 0.847989 0.347276
1.506249 0.848584 0.348471
1.515520 0.848284 0.349262
1.521468 0.845585 0.349047
1.526642 0.842415 0.348588
1.535697 0.842168 0.349244
