ply
format ascii 1.0
comment ---
element vertex 1771
property float x
property float y
property float z
element face 0
property list uchar uint vertex_indices
end_header
0.560101 0.796157 0.365648
0.564759 0.796429 0.366083
0.569558 0.797058 0.366662
0.574018 0.796664 0.366847
0.578019 0.794959 0.366521
0.584377 0.799736 0.368746
0.588842 0.799206 0.368892
0.593582 0.799381 0.369320
0.598180 0.799134 0.369587
0.602930 0.799245 0.370001
0.608444 0.801259 0.371171
0.613505 0.802030 0.371857
0.618305 0.802091 0.372267
0.623162 0.802244 0.372720
0.628748 0.804109 0.373857
0.633088 0.802912 0.373784
0.637910 0.802834 0.374161
0.643053 0.803457 0.374822
0.648166 0.803951 0.375438
0.653553 0.805005 0.376283
0.658668 0.805379 0.376864
0.664792 0.807916 0.378316
0.669721 0.807750 0.378693
0.674488 0.807194 0.378919
0.679786 0.807730 0.379590
0.685275 0.808606 0.380404
0.690438 0.808740 0.380926
0.695489 0.808597 0.381342
0.700636 0.808602 0.381824
0.706871 0.810724 0.383170
0.712408 0.811374 0.383928
0.717267 0.810647 0.384135
0.722499 0.810601 0.384624
0.728604 0.812166 0.385776
0.734114 0.812529 0.386447
0.740092 0.813702 0.387457
0.745455 0.813672 0.387983
0.750716 0.813406 0.388420
0.756415 0.813882 0.389169
0.761889 0.813896 0.389737
0.767865 0.814739 0.390653
0.773831 0.815491 0.391542
0.780472 0.817331 0.392890
0.786973 0.818839 0.394111
0.792851 0.819220 0.394877
0.798043 0.818402 0.395154
0.804220 0.819160 0.396094
0.809252 0.817993 0.396244
0.815890 0.819368 0.397462
0.821582 0.819159 0.398030
0.827043 0.818534 0.398434
0.832713 0.818189 0.398964
0.839396 0.819350 0.400138
0.845982 0.820279 0.401227
0.852421 0.820909 0.402202
0.859407 0.822278 0.403502
0.865045 0.821575 0.403939
0.871463 0.821961 0.404848
0.877431 0.821628 0.405464
0.885312 0.823967 0.407232
0.892543 0.825277 0.408576
0.898100 0.824157 0.408896
0.904062 0.823554 0.409449
0.910408 0.823423 0.410218
0.919184 0.826518 0.412390
0.926134 0.827036 0.413469
0.931405 0.825244 0.413564
0.938501 0.825818 0.414697
0.944794 0.825264 0.415355
0.952635 0.826645 0.416871
0.959103 0.826176 0.417596
0.966615 0.826960 0.418886
0.976451 0.830560 0.421430
0.982845 0.829755 0.422058
0.991103 0.831175 0.423683
0.998290 0.831190 0.424705
1.005185 0.830779 0.425555
1.013364 0.831826 0.427070
1.021196 0.832365 0.428377
1.028498 0.832198 0.429386
1.036853 0.833172 0.430923
1.047270 0.836403 0.433495
1.055065 0.836526 0.434689
1.063867 0.837695 0.436372
1.073400 0.839574 0.438397
1.079182 0.837219 0.438514
1.084530 0.834360 0.438409
1.093767 0.835666 0.440218
1.100822 0.834545 0.440930
1.111585 0.837285 0.443430
1.119104 0.836507 0.444323
1.127941 0.837037 0.445831
1.136615 0.837318 0.447235
1.145347 0.837585 0.448641
1.157319 0.841038 0.451545
1.164147 0.839243 0.452000
1.170371 0.836827 0.452159
1.184521 0.842138 0.455964
1.190937 0.839818 0.456166
1.202647 0.842563 0.458767
1.211767 0.842755 0.460152
1.222225 0.844163 0.462110
1.229120 0.842194 0.462442
1.236912 0.841061 0.463156
1.245555 0.840702 0.464224
1.261459 0.846898 0.468444
1.270728 0.847025 0.469713
1.277616 0.845028 0.469922
1.287972 0.846118 0.471606
1.296613 0.845699 0.472522
1.305457 0.845475 0.473499
1.315877 0.846622 0.475114
1.324835 0.846530 0.476082
1.335400 0.847821 0.477692
1.347661 0.850540 0.479968
1.357214 0.851010 0.481089
1.364196 0.849404 0.481133
1.370888 0.847636 0.481044
1.383003 0.850328 0.483127
1.389230 0.848313 0.482813
1.395288 0.846251 0.482422
1.402747 0.845388 0.482576
1.409938 0.844390 0.482610
1.419548 0.845353 0.483576
1.431060 0.847838 0.485256
1.444936 0.852167 0.487813
0.161570 0.765567 0.333178
0.164559 0.764845 0.333409
0.167361 0.765857 0.334258
0.170370 0.765763 0.334683
0.173452 0.765511 0.335032
0.176403 0.766726 0.335901
0.179457 0.767610 0.336630
0.182535 0.768799 0.337452
0.185677 0.769983 0.338252
0.188895 0.771041 0.338987
0.192158 0.772238 0.339752
0.195586 0.772403 0.340116
0.199160 0.771587 0.340094
0.202771 0.770811 0.340066
0.206310 0.771307 0.340490
0.209968 0.770962 0.340582
0.213480 0.772996 0.341539
0.217167 0.773464 0.341896
0.220837 0.774809 0.342561
0.224595 0.775546 0.342983
0.228496 0.774601 0.342761
0.232335 0.775198 0.343098
0.236255 0.774914 0.343092
0.240179 0.775070 0.343237
0.244085 0.776349 0.343789
0.248067 0.776478 0.343899
0.252109 0.775406 0.343551
0.256108 0.776274 0.343918
0.260163 0.775697 0.343737
0.264223 0.775387 0.343649
0.268286 0.775648 0.343768
0.272363 0.775951 0.343898
0.276450 0.777847 0.344619
0.280560 0.778562 0.344896
0.284675 0.778224 0.344777
0.288796 0.778214 0.344778
0.292953 0.779893 0.345411
0.297099 0.780205 0.345532
0.301208 0.779051 0.345106
0.305332 0.778634 0.344957
0.309535 0.780324 0.345598
0.313678 0.780240 0.345578
0.317810 0.779930 0.345475
0.321958 0.779983 0.345512
0.326148 0.780746 0.345818
0.330296 0.780748 0.345844
0.334353 0.779432 0.345381
0.338410 0.778313 0.344996
0.342758 0.781013 0.346045
0.346924 0.781246 0.346176
0.351145 0.782076 0.346535
0.355248 0.781571 0.346401
0.359386 0.781465 0.346421
0.363620 0.782298 0.346798
0.367887 0.783358 0.347267
0.372222 0.784915 0.347928
0.376330 0.784436 0.347831
0.380325 0.783080 0.347412
0.384519 0.783354 0.347610
0.388760 0.783956 0.347937
0.393149 0.785556 0.348645
0.397340 0.785668 0.348800
0.401593 0.786168 0.349107
0.405673 0.785499 0.348981
0.409836 0.785370 0.349064
0.414377 0.787527 0.350013
0.418528 0.787236 0.350047
0.422587 0.786411 0.349887
0.426848 0.786734 0.350164
0.431308 0.788085 0.350834
0.435590 0.788403 0.351121
0.439721 0.787900 0.351105
0.443912 0.787696 0.351207
0.448167 0.787780 0.351423
0.452582 0.788591 0.351920
0.456863 0.788709 0.352160
0.461196 0.789027 0.352482
0.465678 0.789955 0.353041
0.469991 0.790074 0.353299
0.474342 0.790315 0.353608
0.478446 0.789486 0.353517
0.482643 0.789035 0.353575
0.487786 0.792324 0.355058
0.492211 0.792644 0.355421
0.496455 0.792226 0.355507
0.500894 0.792515 0.355867
0.505291 0.792600 0.356155
0.509491 0.791933 0.356162
0.513870 0.791886 0.356409
0.518461 0.792534 0.356928
0.522923 0.792677 0.357258
0.527786 0.794118 0.358090
0.532872 0.796204 0.359176
0.537193 0.795702 0.359275
0.541536 0.795246 0.359397
0.546516 0.796753 0.360277
0.551529 0.798270 0.361167
0.556343 0.799098 0.361797
0.560524 0.797970 0.361680
0.564418 0.795999 0.361242
0.569838 0.798440 0.362510
0.574028 0.797278 0.362392
0.578634 0.797269 0.362724
0.584171 0.799776 0.364036
0.589081 0.800467 0.364650
0.593658 0.800207 0.364901
0.598371 0.800268 0.365281
0.602752 0.799423 0.365314
0.607324 0.799048 0.365534
0.612919 0.801214 0.366749
0.617940 0.801851 0.367374
0.623578 0.803935 0.368570
0.628420 0.803999 0.368983
0.632895 0.803141 0.369040
0.637301 0.802098 0.369029
0.642650 0.803226 0.369875
0.649145 0.806901 0.371727
0.653829 0.806344 0.371924
0.658393 0.805492 0.372008
0.664288 0.807542 0.373243
0.669337 0.807656 0.373720
0.674494 0.807956 0.374277
0.679924 0.808779 0.375047
0.685120 0.809045 0.375602
0.690335 0.809298 0.376159
0.695179 0.808741 0.376399
0.700028 0.808161 0.376637
0.706327 0.810433 0.378017
0.711857 0.811092 0.378762
0.717067 0.811066 0.379240
0.721911 0.810287 0.379423
0.728430 0.812660 0.380876
0.734224 0.813567 0.381750
0.739594 0.813618 0.382287
0.745026 0.813733 0.382858
0.750304 0.813515 0.383301
0.755209 0.812585 0.383465
0.760760 0.812768 0.384085
0.767240 0.814525 0.385351
0.773496 0.815801 0.386432
0.779344 0.816300 0.387207
0.785448 0.817168 0.388141
0.791907 0.818558 0.389299
0.797883 0.819065 0.390106
0.803515 0.818943 0.390665
0.809789 0.819810 0.391639
0.814987 0.818876 0.391883
0.821412 0.819854 0.392923
0.826399 0.818497 0.393011
0.831969 0.818019 0.393470
0.838805 0.819437 0.394724
0.845280 0.820218 0.395727
0.850933 0.819686 0.396196
0.859489 0.823430 0.398455
0.864711 0.822122 0.398625
0.870664 0.821847 0.399235
0.877679 0.823047 0.400476
0.882613 0.821188 0.400446
0.889985 0.822750 0.401864
0.895858 0.822117 0.402373
0.902217 0.822107 0.403157
0.910091 0.824107 0.404804
0.917370 0.825192 0.406082
0.923717 0.824938 0.406805
0.932037 0.827241 0.408632
0.936898 0.824878 0.408484
0.944060 0.825489 0.409620
0.952561 0.827744 0.411478
0.960090 0.828642 0.412772
0.968087 0.830040 0.414299
0.974837 0.829776 0.415125
0.981208 0.828973 0.415734
0.991170 0.832517 0.418246
0.997848 0.831926 0.418980
1.003438 0.829961 0.419129
1.009409 0.828413 0.419471
1.021245 0.833729 0.422843
1.027844 0.832753 0.423472
1.038207 0.836065 0.426010
1.046041 0.836340 0.427226
1.053839 0.836490 0.428404
1.061601 0.836517 0.429544
1.071700 0.839059 0.431823
1.078721 0.838088 0.432551
1.084687 0.835909 0.432747
1.092777 0.835984 0.433968
1.099408 0.834423 0.434464
1.109510 0.836485 0.436612
1.118079 0.836828 0.437996
1.127135 0.837596 0.439586
1.136181 0.838267 0.441143
1.147847 0.841517 0.443896
1.155409 0.840507 0.444703
1.163578 0.840057 0.445771
1.171759 0.839566 0.446824
1.182312 0.841344 0.448932
1.188855 0.839152 0.449193
1.198471 0.839897 0.450821
1.213963 0.846160 0.455036
1.218557 0.842013 0.454361
1.228174 0.842588 0.455894
1.232841 0.838552 0.455234
1.245565 0.841930 0.458068
1.258077 0.845034 0.460764
1.266883 0.844739 0.461824
1.276735 0.845371 0.463304
1.286723 0.846108 0.464809
1.297318 0.847365 0.466537
1.305556 0.846570 0.467245
1.316018 0.847711 0.468854
1.325433 0.847962 0.469996
1.333239 0.846879 0.470450
1.345492 0.849563 0.472696
1.357197 0.851784 0.474677
1.365009 0.850811 0.475054
1.373859 0.850746 0.475827
1.381285 0.849580 0.476011
1.388572 0.848376 0.476124
1.394846 0.846441 0.475825
1.403010 0.846089 0.476252
1.411427 0.846002 0.476760
1.420131 0.846206 0.477359
1.429587 0.847054 0.478226
1.437514 0.846786 0.478489
0.161623 0.763564 0.328717
0.164394 0.764473 0.329521
0.167249 0.765217 0.330249
0.170279 0.765081 0.330640
0.173273 0.765639 0.331264
0.176087 0.768108 0.332564
0.179357 0.767414 0.332695
0.182527 0.767986 0.333267
0.185672 0.769293 0.334087
0.188783 0.771485 0.335211
0.192182 0.771597 0.335555
0.195671 0.771334 0.335742
0.199102 0.772150 0.336302
0.202828 0.770360 0.335888
0.206407 0.770594 0.336195
0.209954 0.771782 0.336833
0.213589 0.772527 0.337290
0.217146 0.774949 0.338346
0.220919 0.775147 0.338566
0.224743 0.775138 0.338694
0.228628 0.774664 0.338635
0.232579 0.773473 0.338297
0.236403 0.775165 0.339006
0.240290 0.776415 0.339540
0.244223 0.777428 0.339975
0.248223 0.777467 0.340040
0.252307 0.775440 0.339334
0.256322 0.775976 0.339564
0.260376 0.775634 0.339463
0.264439 0.775354 0.339379
0.268504 0.775799 0.339557
0.272577 0.777323 0.340127
0.276675 0.776873 0.339967
0.280784 0.778350 0.340514
0.284899 0.778117 0.340429
0.289017 0.777990 0.340382
0.293175 0.779821 0.341057
0.297296 0.779229 0.340840
0.301426 0.779095 0.340791
0.305564 0.779192 0.340830
0.309708 0.779375 0.340903
0.313917 0.781006 0.341512
0.318013 0.779993 0.341149
0.322125 0.779476 0.340973
0.326291 0.779970 0.341173
0.330458 0.780423 0.341363
0.334527 0.779407 0.341015
0.338625 0.778925 0.340869
0.342850 0.780122 0.341347
0.347072 0.781151 0.341768
0.351156 0.780524 0.341584
0.355299 0.780599 0.341664
0.359550 0.781764 0.342152
0.363668 0.781542 0.342134
0.368029 0.783559 0.342948
0.372333 0.784899 0.343519
0.376239 0.782795 0.342822
0.380410 0.782981 0.342978
0.384581 0.783146 0.343132
0.388811 0.783723 0.343445
0.393076 0.784503 0.343839
0.397476 0.786147 0.344558
0.401635 0.786048 0.344638
0.405762 0.785740 0.344647
0.409762 0.784634 0.344367
0.414111 0.785693 0.344894
0.418577 0.787352 0.345650
0.422600 0.786361 0.345429
0.426680 0.785718 0.345343
0.431071 0.786765 0.345890
0.435577 0.788336 0.346638
0.439871 0.788707 0.346946
0.444072 0.788568 0.347069
0.448208 0.788090 0.347073
0.452574 0.788693 0.347484
0.456856 0.788847 0.347734
0.460960 0.788155 0.347673
0.465319 0.788585 0.348036
0.469866 0.789781 0.348691
0.474204 0.790002 0.348987
0.478321 0.789265 0.348931
0.482681 0.789506 0.349245
0.487694 0.792293 0.350518
0.492062 0.792420 0.350801
0.495969 0.790745 0.350413
0.500683 0.792116 0.351172
0.505102 0.792313 0.351496
0.509308 0.791697 0.351520
0.513848 0.792243 0.351985
0.518423 0.792855 0.352481
0.522839 0.792859 0.352752
0.527122 0.792378 0.352845
0.532531 0.795576 0.354332
0.537216 0.796283 0.354884
0.541826 0.796685 0.355327
0.546424 0.796996 0.355739
0.550212 0.794768 0.355195
0.554719 0.794742 0.355489
0.560022 0.797041 0.356670
0.564612 0.797138 0.357021
0.569140 0.797012 0.357291
0.574247 0.798488 0.358177
0.578938 0.798716 0.358592
0.583847 0.799493 0.359222
0.588512 0.799542 0.359579
0.593435 0.800235 0.360187
0.598080 0.800135 0.360496
0.602633 0.799755 0.360703
0.607162 0.799281 0.360878
0.612296 0.800300 0.361632
0.618247 0.803278 0.363144
0.623339 0.804023 0.363804
0.628369 0.804554 0.364387
0.632348 0.802523 0.363987
0.636756 0.801510 0.363983
0.641676 0.801667 0.364436
0.645953 0.800303 0.364305
0.654155 0.807797 0.367613
0.658487 0.806423 0.367490
0.663068 0.805586 0.367580
0.669172 0.808035 0.368954
0.674351 0.808393 0.369520
0.679437 0.808497 0.369993
0.684989 0.809528 0.370834
0.690172 0.809726 0.371356
0.695482 0.810130 0.371965
0.700806 0.810506 0.372569
0.705342 0.809258 0.372541
0.711070 0.810335 0.373434
0.716495 0.810753 0.374073
0.721783 0.810849 0.374592
0.726850 0.810475 0.374933
0.733027 0.812144 0.376088
0.738413 0.812258 0.376636
0.744505 0.813617 0.377684
0.749645 0.813168 0.378023
0.755092 0.813228 0.378571
0.761135 0.814295 0.379528
0.767478 0.815813 0.380674
0.773326 0.816387 0.381452
0.778815 0.816282 0.381967
0.784558 0.816557 0.382642
0.791742 0.819190 0.384274
0.796456 0.817616 0.384224
0.801655 0.816817 0.384493
0.809085 0.819603 0.386218
0.815563 0.820746 0.387292
0.820332 0.819094 0.387243
0.825964 0.818776 0.387743
0.831141 0.817702 0.387945
0.837545 0.818481 0.388911
0.844107 0.819426 0.389955
0.850829 0.820533 0.391079
0.857774 0.821891 0.392318
0.864221 0.822426 0.393232
0.869740 0.821534 0.393570
0.876114 0.821834 0.394411
0.881550 0.820724 0.394681
0.888659 0.821942 0.395926
0.894642 0.821494 0.396493
0.901433 0.822111 0.397515
0.908636 0.823216 0.398755
0.917065 0.825897 0.400669
0.923365 0.825593 0.401351
0.929516 0.825029 0.401937
0.936576 0.825606 0.403017
0.942840 0.825063 0.403639
0.952915 0.829382 0.406330
0.959947 0.829652 0.407329
0.966550 0.829301 0.408080
0.973025 0.828724 0.408749
0.979598 0.828205 0.409458
0.991633 0.834332 0.413025
0.997730 0.833039 0.413438
1.003142 0.830870 0.413488
1.009264 0.829514 0.413900
1.021043 0.834785 0.417190
1.028457 0.834772 0.418218
1.032964 0.831316 0.417765
1.041260 0.832191 0.419209
1.052582 0.836401 0.422130
1.060100 0.836177 0.423132
1.069183 0.837618 0.424883
1.078022 0.838683 0.426486
1.084629 0.837213 0.426986
1.091470 0.835946 0.427588
1.099700 0.836111 0.428837
1.107578 0.835822 0.429898
1.116779 0.836851 0.431560
1.127169 0.839019 0.433748
1.136197 0.839671 0.435271
1.145319 0.840335 0.436810
1.153637 0.840107 0.437955
1.163485 0.841343 0.439771
1.170680 0.839870 0.440361
1.176668 0.837182 0.440394
1.187188 0.838884 0.442435
1.196511 0.839350 0.443911
1.208762 0.842543 0.446645
1.219366 0.844079 0.448615
1.224981 0.840892 0.448387
1.235757 0.842500 0.450374
1.241076 0.839053 0.449989
1.255172 0.843607 0.453330
1.264160 0.843468 0.454458
1.274902 0.844882 0.456296
1.285615 0.846240 0.458086
1.292874 0.844553 0.458408
1.307190 0.849017 0.461619
1.318711 0.851014 0.463633
1.326414 0.849745 0.464055
1.337406 0.851298 0.465787
1.346524 0.851286 0.466730
1.353951 0.849907 0.466974
1.361043 0.848315 0.467068
1.369431 0.847851 0.467657
1.378720 0.848173 0.468578
1.386981 0.847718 0.469074
1.395672 0.847669 0.469716
1.407068 0.849819 0.471377
1.415098 0.849358 0.471719
1.424904 0.850352 0.472718
1.429882 0.847667 0.471873
1.426621 0.838768 0.467942
0.160170 0.772117 0.328028
0.164639 0.761269 0.324620
0.167414 0.762640 0.325547
0.170408 0.762843 0.326040
0.172820 0.767994 0.328287
0.176110 0.766884 0.328273
0.179123 0.768433 0.329194
0.182634 0.766295 0.328770
0.185785 0.767667 0.329587
0.188914 0.769815 0.330665
0.192206 0.771068 0.331401
0.195750 0.770433 0.331436
0.199490 0.768201 0.330873
0.203160 0.767045 0.330677
0.206311 0.772220 0.332754
0.209933 0.772808 0.333152
0.213573 0.773765 0.333665
0.217273 0.774554 0.334101
0.221157 0.773340 0.333792
0.225049 0.772364 0.333554
0.228842 0.773444 0.334047
0.232674 0.774556 0.334537
0.236570 0.775167 0.334832
0.240472 0.776306 0.335307
0.244448 0.776487 0.335423
0.248403 0.777888 0.335972
0.252465 0.776858 0.335628
0.256524 0.776174 0.335403
0.260568 0.776635 0.335587
0.264642 0.776257 0.335460
0.268712 0.776835 0.335676
0.272807 0.775773 0.335292
0.276898 0.776786 0.335660
0.281007 0.778361 0.336229
0.285122 0.778224 0.336175
0.289238 0.778000 0.336088
0.293352 0.777630 0.335950
0.297518 0.779458 0.336610
0.301678 0.780425 0.336959
0.305797 0.779867 0.336756
0.309956 0.780480 0.336981
0.314080 0.780163 0.336870
0.318174 0.779319 0.336572
0.322286 0.778975 0.336459
0.326417 0.779018 0.336490
0.330578 0.779543 0.336701
0.334710 0.779587 0.336742
0.338856 0.779828 0.336860
0.342992 0.779930 0.336931
0.347114 0.779869 0.336949
0.351252 0.779998 0.337041
0.355460 0.780861 0.337405
0.359643 0.781397 0.337657
0.363819 0.781817 0.337871
0.367825 0.780654 0.337516
0.372156 0.782421 0.338232
0.376363 0.783005 0.338524
0.380446 0.782539 0.338440
0.384606 0.782689 0.338585
0.388854 0.783474 0.338968
0.393177 0.784731 0.339530
0.397207 0.783861 0.339321
0.401574 0.785279 0.339953
0.405626 0.784561 0.339811
0.409890 0.785187 0.340167
0.414015 0.784920 0.340201
0.418563 0.787127 0.341146
0.422600 0.786266 0.340975
0.426686 0.785701 0.340917
0.430990 0.786318 0.341298
0.435459 0.787743 0.341981
0.439860 0.788715 0.342504
0.444034 0.788474 0.342587
0.448179 0.788075 0.342618
0.452300 0.787550 0.342609
0.456628 0.787977 0.342953
0.460743 0.787382 0.342928
0.465216 0.788371 0.343490
0.469465 0.788310 0.343672
0.473748 0.788356 0.343898
0.478379 0.789812 0.344648
0.482707 0.789937 0.344914
0.487437 0.791619 0.345760
0.491623 0.791077 0.345789
0.495879 0.790785 0.345916
0.499972 0.789854 0.345811
0.504776 0.791535 0.346677
0.509007 0.791044 0.346745
0.513739 0.792305 0.347467
0.518447 0.793398 0.348131
0.522711 0.792896 0.348209
0.527228 0.793218 0.348597
0.532436 0.795763 0.349818
0.536871 0.795678 0.350065
0.540949 0.794422 0.349880
0.545520 0.794706 0.350273
0.550109 0.794995 0.350673
0.555030 0.796234 0.351433
0.559530 0.796140 0.351700
0.563902 0.795633 0.351816
0.569007 0.797211 0.352718
0.573955 0.798251 0.353424
0.578649 0.798508 0.353841
0.583559 0.799311 0.354468
0.588314 0.799622 0.354915
0.592925 0.799500 0.355204
0.597384 0.798936 0.355330
0.602408 0.799812 0.356004
0.607552 0.800924 0.356773
0.612389 0.801189 0.357227
0.617688 0.802550 0.358101
0.622619 0.802929 0.358608
0.626580 0.800908 0.358209
0.631950 0.802255 0.359094
0.636532 0.801671 0.359249
0.642560 0.804412 0.360676
0.646528 0.802319 0.360266
0.653643 0.807352 0.362581
0.658144 0.806376 0.362607
0.663299 0.806819 0.363181
0.668427 0.807147 0.363717
0.673931 0.808228 0.364547
0.678545 0.807351 0.364631
0.683499 0.807161 0.364984
0.690067 0.810266 0.366613
0.695196 0.810311 0.367069
0.700084 0.809823 0.367324
0.705088 0.809529 0.367660
0.710219 0.809447 0.368084
0.716500 0.811556 0.369365
0.721675 0.811442 0.369790
0.726456 0.810533 0.369911
0.731943 0.810922 0.370544
0.737669 0.811699 0.371335
0.743913 0.813360 0.372480
0.749565 0.813860 0.373178
0.754911 0.813749 0.373644
0.760670 0.814323 0.374387
0.766668 0.815254 0.375279
0.773037 0.816757 0.376404
0.778418 0.816479 0.376836
0.783774 0.816115 0.377241
0.790344 0.817742 0.378442
0.796467 0.818539 0.379325
0.801901 0.818135 0.379740
0.807952 0.818687 0.380543
0.814587 0.820111 0.381704
0.820413 0.820164 0.382328
0.824935 0.818108 0.382118
0.830929 0.818330 0.382827
0.837187 0.818898 0.383686
0.843425 0.819367 0.384515
0.849131 0.818963 0.385004
0.856106 0.820404 0.386247
0.862735 0.821245 0.387261
0.868924 0.821364 0.387994
0.875400 0.821835 0.388882
0.881182 0.821241 0.389349
0.888071 0.822163 0.390445
0.894224 0.821973 0.391100
0.901114 0.822745 0.392161
0.907399 0.822605 0.392861
0.916701 0.826506 0.395237
0.923015 0.826237 0.395913
0.929044 0.825526 0.396420
0.935019 0.824689 0.396888
0.947966 0.832908 0.401126
0.950475 0.827393 0.399681
0.953875 0.823056 0.398732
0.965259 0.828855 0.402025
0.970937 0.827305 0.402265
0.978223 0.827709 0.403339
0.985403 0.827900 0.404338
0.997145 0.833569 0.407667
1.002101 0.830866 0.407480
1.009698 0.831293 0.408632
1.019530 0.834275 0.410888
1.025487 0.832585 0.411174
1.034253 0.834104 0.412845
1.039618 0.831612 0.412815
1.048053 0.832578 0.414282
1.058585 0.835804 0.416744
1.066436 0.835901 0.417875
1.076826 0.838716 0.420201
1.083857 0.837727 0.420895
1.091745 0.837605 0.421979
1.099606 0.837377 0.423031
1.109482 0.839212 0.425003
1.114749 0.836095 0.424811
1.122586 0.835634 0.425796
1.133645 0.838426 0.428233
1.140371 0.836673 0.428667
1.146636 0.834418 0.428882
1.164135 0.843369 0.434110
1.169829 0.840395 0.434018
1.178927 0.840753 0.435422
1.186808 0.839863 0.436267
1.198462 0.842563 0.438734
1.208970 0.844067 0.440665
1.214374 0.840681 0.440368
1.226924 0.843994 0.443116
1.233120 0.841327 0.443123
1.244640 0.843558 0.445363
1.253857 0.843629 0.446599
1.264203 0.844695 0.448277
1.275696 0.846748 0.450397
1.285573 0.847328 0.451813
1.294699 0.847238 0.452892
1.301388 0.845039 0.452956
1.318087 0.851494 0.457041
1.328044 0.852107 0.458360
1.342088 0.856183 0.461275
1.348476 0.853806 0.461113
1.352496 0.849537 0.460009
1.356373 0.845260 0.458849
1.365029 0.845000 0.459545
1.377665 0.848015 0.461752
1.389057 0.850033 0.463442
1.399054 0.850965 0.464567
1.408249 0.851306 0.465361
1.417933 0.852090 0.466316
1.426022 0.851683 0.466651
1.433982 0.851250 0.466922
1.444609 0.852940 0.468162
0.159447 0.775654 0.325491
0.163711 0.766507 0.322715
0.167401 0.761461 0.321357
0.169938 0.765212 0.323083
0.173151 0.764366 0.323168
0.175759 0.768742 0.325081
0.179393 0.765395 0.324241
0.182458 0.767131 0.325182
0.185801 0.767002 0.325442
0.189171 0.767099 0.325761
0.192041 0.772452 0.327931
0.195520 0.772712 0.328270
0.199170 0.771718 0.328142
0.202751 0.771901 0.328414
0.206284 0.773162 0.329051
0.209973 0.773206 0.329236
0.213644 0.774001 0.329671
0.217374 0.774627 0.330029
0.221249 0.773767 0.329839
0.225156 0.772810 0.329598
0.228985 0.773539 0.329946
0.232816 0.774884 0.330501
0.236700 0.775988 0.330958
0.240685 0.775612 0.330872
0.244679 0.775460 0.330857
0.248714 0.774685 0.330609
0.252664 0.777022 0.331468
0.256730 0.776305 0.331226
0.260803 0.775548 0.330963
0.264837 0.777597 0.331700
0.268919 0.777972 0.331833
0.273020 0.776985 0.331475
0.277119 0.776457 0.331279
0.281224 0.777544 0.331660
0.285338 0.777832 0.331754
0.289449 0.777549 0.331643
0.293583 0.778484 0.331970
0.297728 0.779399 0.332290
0.301862 0.779595 0.332354
0.306025 0.780560 0.332696
0.310134 0.779936 0.332472
0.314223 0.779015 0.332144
0.318366 0.779377 0.332280
0.322477 0.779117 0.332196
0.326588 0.778908 0.332136
0.330709 0.778917 0.332157
0.334891 0.779825 0.332505
0.339070 0.780573 0.332801
0.343198 0.780614 0.332849
0.347280 0.780119 0.332710
0.351401 0.780132 0.332758
0.355581 0.780777 0.333038
0.359956 0.783311 0.334001
0.364003 0.782479 0.333763
0.368071 0.781918 0.333628
0.372154 0.781528 0.333559
0.376417 0.782676 0.334048
0.380589 0.782999 0.334248
0.384680 0.782662 0.334216
0.389092 0.784716 0.335049
0.393216 0.784555 0.335092
0.397426 0.784991 0.335355
0.401657 0.785513 0.335655
0.405798 0.785406 0.335735
0.409876 0.784889 0.335672
0.414507 0.787744 0.336830
0.418522 0.786772 0.336615
0.422526 0.785775 0.336397
0.426650 0.785473 0.336434
0.431240 0.787683 0.337384
0.435528 0.788157 0.337712
0.439756 0.788267 0.337915
0.443895 0.787899 0.337951
0.448008 0.787388 0.337940
0.452372 0.788068 0.338364
0.456592 0.788013 0.338529
0.461005 0.788801 0.339004
0.465334 0.789146 0.339323
0.469440 0.788476 0.339280
0.473638 0.788189 0.339380
0.478149 0.789180 0.339950
0.482537 0.789587 0.340312
0.486801 0.789449 0.340482
0.491603 0.791377 0.341408
0.495804 0.790894 0.341462
0.500104 0.790760 0.341647
0.504545 0.791111 0.342014
0.509047 0.791630 0.342447
0.513246 0.791018 0.342472
0.518197 0.792998 0.343449
0.522522 0.792732 0.343609
0.527200 0.793619 0.344197
0.531902 0.794510 0.344791
0.536466 0.794885 0.345200
0.540706 0.794177 0.345216
0.545052 0.793781 0.345351
0.549656 0.794148 0.345771
0.554863 0.796288 0.346849
0.559608 0.796941 0.347384
0.564240 0.797200 0.347779
0.569059 0.797945 0.348358
0.573476 0.797486 0.348496
0.578263 0.798032 0.349011
0.583107 0.798675 0.349566
0.588206 0.799947 0.350359
0.592470 0.798907 0.350299
0.597619 0.800186 0.351105
0.601838 0.798970 0.350988
0.607260 0.800823 0.352018
0.611652 0.799982 0.352049
0.616266 0.799673 0.352282
0.622064 0.802235 0.353593
0.626984 0.802557 0.354072
0.631778 0.802525 0.354423
0.636924 0.803279 0.355074
0.641682 0.803069 0.355368
0.647179 0.804511 0.356288
0.652448 0.805356 0.356989
0.657847 0.806426 0.357780
0.662350 0.805448 0.357805
0.667422 0.805686 0.358294
0.672328 0.805517 0.358633
0.678077 0.807098 0.359640
0.682877 0.806601 0.359866
0.689172 0.809170 0.361261
0.694494 0.809637 0.361865
0.699463 0.809335 0.362182
0.703970 0.808070 0.362137
0.709506 0.808819 0.362866
0.716650 0.812636 0.364774
0.721231 0.811381 0.364750
0.726985 0.812337 0.365579
0.732636 0.813032 0.366314
0.738186 0.813475 0.366960
0.744043 0.814422 0.367807
0.749404 0.814398 0.368287
0.754956 0.814668 0.368887
0.760113 0.814180 0.369202
0.765661 0.814339 0.369774
0.772299 0.816338 0.371067
0.777841 0.816358 0.371601
0.783121 0.815882 0.371949
0.789650 0.817463 0.373107
0.796171 0.818942 0.374235
0.801937 0.819097 0.374855
0.807743 0.819260 0.375486
0.813736 0.819664 0.376221
0.818971 0.818800 0.376467
0.824735 0.818731 0.377034
0.830240 0.818205 0.377430
0.837295 0.820023 0.378761
0.842886 0.819511 0.379182
0.848273 0.818645 0.379471
0.855127 0.819929 0.380624
0.862048 0.821228 0.381795
0.867790 0.820713 0.382255
0.873230 0.819712 0.382531
0.882063 0.823533 0.384748
0.887418 0.822278 0.384946
0.894378 0.823240 0.386045
0.900178 0.822507 0.386474
0.905900 0.821616 0.386851
0.915548 0.826026 0.389384
0.922122 0.826134 0.390193
0.928601 0.826046 0.390935
0.934484 0.825105 0.391343
0.943640 0.828394 0.393491
0.949025 0.826663 0.393604
0.958196 0.829750 0.395705
0.964489 0.829051 0.396269
0.971496 0.829191 0.397192
0.977261 0.827707 0.397460
0.986171 0.830054 0.399327
0.994215 0.831222 0.400725
1.001350 0.831194 0.401642
1.007466 0.829871 0.402035
1.015924 0.831268 0.403579
1.024510 0.832711 0.405162
1.029479 0.829847 0.404952
1.040942 0.834424 0.407891
1.048342 0.834209 0.408829
1.057436 0.835825 0.410559
1.066977 0.837829 0.412474
1.075565 0.838661 0.413910
1.083380 0.838549 0.414959
1.091608 0.838808 0.416182
1.098353 0.837389 0.416698
1.105966 0.836842 0.417601
1.115288 0.838025 0.419266
1.123300 0.837744 0.420309
1.131755 0.837848 0.421532
1.139225 0.836871 0.422294
1.147025 0.836175 0.423185
1.162591 0.843198 0.427478
1.170264 0.842191 0.428254
1.176279 0.839511 0.428292
1.189110 0.843449 0.431265
1.196502 0.842015 0.431858
1.203808 0.840473 0.432397
1.212525 0.840244 0.433518
1.223235 0.841838 0.435453
1.231223 0.840840 0.436216
1.239370 0.839972 0.437025
1.258471 0.849052 0.442332
1.263813 0.845544 0.441919
1.273766 0.846198 0.443378
1.286484 0.849275 0.445926
1.293247 0.847071 0.446035
1.302484 0.847057 0.447118
1.309712 0.845322 0.447378
1.319440 0.845763 0.448606
1.334486 0.850712 0.451891
1.347444 0.853852 0.454307
1.351024 0.849176 0.453051
1.356688 0.846332 0.452599
1.364449 0.845291 0.452940
1.380008 0.850634 0.456224
1.390389 0.851780 0.457501
1.397818 0.850607 0.457641
1.407705 0.851458 0.458683
1.413477 0.849125 0.458176
1.424135 0.850701 0.459461
1.435114 0.852570 0.460835
1.447277 0.855389 0.462609
0.160619 0.766154 0.318391
0.164010 0.763099 0.317751
0.166454 0.767194 0.319578
0.169608 0.766604 0.319758
0.172662 0.767185 0.320327
0.176048 0.765595 0.320119
0.178924 0.768538 0.321475
0.182467 0.766479 0.321062
0.185900 0.765708 0.321079
0.188784 0.770387 0.322987
0.192078 0.772014 0.323806
0.195320 0.774808 0.325017
0.199029 0.773492 0.324764
0.202787 0.772021 0.324436
0.206385 0.772755 0.324866
0.210055 0.773198 0.325175
0.213785 0.773457 0.325402
0.217492 0.774565 0.325912
0.221293 0.774975 0.326159
0.225206 0.774221 0.325982
0.229120 0.773840 0.325922
0.233015 0.774255 0.326130
0.236911 0.775267 0.326536
0.240872 0.775547 0.326674
0.244885 0.775109 0.326549
0.248849 0.776500 0.327060
0.252868 0.777040 0.327264
0.256942 0.776196 0.326972
0.260980 0.777318 0.327369
0.265035 0.778808 0.327892
0.269131 0.778513 0.327780
0.273235 0.777675 0.327474
0.277336 0.778013 0.327581
0.281444 0.778130 0.327609
0.285558 0.778276 0.327647
0.289672 0.778178 0.327599
0.293807 0.779121 0.327919
0.297958 0.780272 0.328315
0.302064 0.779529 0.328044
0.306131 0.777889 0.327458
0.310247 0.777896 0.327458
0.314415 0.779081 0.327876
0.318579 0.779965 0.328191
0.322719 0.780287 0.328313
0.326827 0.780030 0.328234
0.330922 0.779656 0.328118
0.335094 0.780459 0.328423
0.339233 0.780730 0.328545
0.343338 0.780555 0.328515
0.347413 0.780070 0.328380
0.351572 0.780579 0.328601
0.355896 0.782792 0.329431
0.359807 0.780646 0.328725
0.364288 0.784151 0.330023
0.368179 0.781974 0.329317
0.372291 0.781899 0.329360
0.376550 0.783055 0.329845
0.380743 0.783587 0.330114
0.385009 0.784640 0.330574
0.388959 0.783252 0.330176
0.393350 0.785107 0.330931
0.397505 0.785184 0.331063
0.401615 0.784946 0.331088
0.405924 0.785992 0.331575
0.410213 0.786823 0.331991
0.414225 0.785901 0.331791
0.418466 0.786364 0.332087
0.422588 0.786089 0.332128
0.426713 0.785827 0.332178
0.431117 0.787056 0.332764
0.435607 0.788643 0.333483
0.439342 0.786255 0.332792
0.443611 0.786617 0.333086
0.448253 0.788750 0.334016
0.452414 0.788466 0.334090
0.456525 0.787927 0.334078
0.461179 0.789839 0.334945
0.465396 0.789696 0.335085
0.469422 0.788694 0.334923
0.473770 0.789063 0.335255
0.478461 0.790809 0.336085
0.482727 0.790714 0.336261
0.486902 0.790222 0.336300
0.491325 0.790681 0.336683
0.495631 0.790638 0.336892
0.500038 0.790934 0.337227
0.504367 0.790893 0.337446
0.508844 0.791349 0.337848
0.513449 0.792198 0.338396
0.517982 0.792728 0.338835
0.522404 0.792819 0.339120
0.526654 0.792289 0.339184
0.531619 0.794092 0.340096
0.535865 0.793463 0.340134
0.540503 0.794063 0.340621
0.545093 0.794448 0.341034
0.549513 0.794258 0.341243
0.553917 0.793983 0.341426
0.559663 0.797675 0.343054
0.564468 0.798445 0.343625
0.568693 0.797475 0.343569
0.573162 0.797188 0.343765
0.577779 0.797279 0.344102
0.582423 0.797400 0.344455
0.587104 0.797575 0.344832
0.592842 0.800529 0.346230
0.596792 0.798639 0.345861
0.602191 0.800526 0.346878
0.606618 0.799825 0.346952
0.611385 0.799961 0.347338
0.616085 0.799883 0.347648
0.620858 0.799939 0.348013
0.626586 0.802265 0.349219
0.631689 0.802990 0.349840
0.636116 0.802061 0.349855
0.641753 0.803923 0.350906
0.646493 0.803634 0.351167
0.652079 0.805225 0.352130
0.657228 0.805753 0.352703
0.662321 0.806099 0.353215
0.666991 0.805469 0.353368
0.671876 0.805273 0.353688
0.677514 0.806635 0.354593
0.682311 0.806156 0.354817
0.687259 0.805953 0.355149
0.693520 0.808397 0.356477
0.698648 0.808446 0.356915
0.704000 0.808895 0.357508
0.709336 0.809254 0.358074
0.715518 0.811210 0.359246
0.721383 0.812460 0.360161
0.726239 0.811711 0.360328
0.732188 0.812990 0.361267
0.738875 0.815564 0.362703
0.743759 0.814715 0.362851
0.748640 0.813829 0.362991
0.754113 0.813981 0.363530
0.759771 0.814407 0.364181
0.765077 0.814155 0.364581
0.771605 0.815983 0.365781
0.776853 0.815520 0.366115
0.782918 0.816404 0.366972
0.788467 0.816350 0.367477
0.793966 0.816161 0.367938
0.800791 0.818106 0.369228
0.806584 0.818275 0.369845
0.812534 0.818641 0.370545
0.818011 0.818190 0.370938
0.823511 0.817730 0.371337
0.830389 0.819373 0.372560
0.835765 0.818608 0.372858
0.842322 0.819606 0.373851
0.848196 0.819492 0.374421
0.854331 0.819714 0.375133
0.861228 0.821000 0.376271
0.867073 0.820657 0.376783
0.872993 0.820372 0.377328
0.880735 0.822644 0.378891
0.887664 0.823655 0.379970
0.893281 0.822738 0.380300
0.900179 0.823558 0.381328
0.906821 0.823943 0.382198
0.914706 0.825951 0.383726
0.921947 0.826984 0.384882
0.928357 0.826816 0.385571
0.934646 0.826425 0.386184
0.940842 0.825851 0.386737
0.949039 0.827814 0.388323
0.956402 0.828595 0.389450
0.964414 0.830114 0.390891
0.970881 0.829586 0.391520
0.978576 0.830525 0.392758
0.985066 0.829886 0.393370
0.993845 0.831978 0.395113
0.999386 0.830038 0.395223
1.007733 0.831419 0.396708
1.014238 0.830511 0.397269
1.020966 0.829805 0.397928
1.030192 0.831937 0.399776
1.039431 0.833965 0.401601
1.046834 0.833780 0.402525
1.055032 0.834414 0.403808
1.062420 0.834051 0.404689
1.074226 0.838503 0.407607
1.073741 0.829321 0.404813
1.089161 0.837492 0.409335
1.096024 0.836232 0.409901
1.103914 0.836009 0.410917
1.111973 0.835889 0.411991
1.122968 0.838755 0.414353
1.131407 0.838850 0.415547
1.139576 0.838590 0.416600
1.147740 0.838257 0.417631
1.157160 0.839119 0.419186
1.168129 0.841432 0.421382
1.170934 0.835606 0.420048
1.178411 0.834379 0.420709
1.194335 0.841264 0.424923
1.203734 0.841726 0.426335
1.211964 0.841022 0.427232
1.223133 0.843038 0.429326
1.229932 0.840917 0.429585
1.237726 0.839714 0.430238
1.249799 0.842397 0.432610
1.263373 0.846358 0.435547
1.271462 0.845323 0.436235
1.282700 0.847080 0.438158
1.293095 0.848059 0.439710
1.298125 0.844352 0.439120
1.307798 0.844718 0.440340
1.317660 0.845250 0.441606
1.330618 0.848410 0.444037
1.341270 0.849604 0.445540
1.351142 0.850157 0.446714
1.357316 0.847686 0.446460
1.370886 0.851346 0.448978
1.379119 0.850662 0.449457
1.389133 0.851471 0.450578
1.398418 0.851741 0.451404
1.403633 0.848842 0.450713
1.412615 0.849009 0.451392
1.420672 0.848516 0.451715
1.433886 0.852090 0.453879
1.454110 0.861066 0.458511
0.160048 0.768812 0.315537
0.163839 0.763122 0.313992
0.166437 0.766213 0.315437
0.169162 0.768950 0.316745
0.172413 0.768225 0.316844
0.175584 0.768532 0.317280
0.178917 0.767973 0.317397
0.182227 0.768043 0.317711
0.185608 0.767960 0.317952
0.188811 0.769975 0.318899
0.192160 0.771244 0.319569
0.195847 0.769758 0.319266
0.199147 0.772659 0.320464
0.202833 0.772137 0.320457
0.206506 0.772200 0.320634
0.210126 0.773422 0.321197
0.213877 0.773622 0.321387
0.217647 0.774081 0.321652
0.221470 0.774355 0.321837
0.225287 0.775249 0.322223
0.229262 0.774106 0.321888
0.233207 0.773832 0.321843
0.237124 0.774547 0.322131
0.241079 0.775084 0.322346
0.245038 0.776128 0.322729
0.249029 0.777081 0.323073
0.253049 0.777867 0.323351
0.257075 0.779233 0.323825
0.261137 0.780081 0.324114
0.265252 0.778644 0.323604
0.269352 0.778010 0.323370
0.273446 0.778609 0.323563
0.277552 0.777000 0.322986
0.281665 0.779366 0.323791
0.285784 0.779672 0.323880
0.289899 0.779360 0.323755
0.294039 0.780399 0.324101
0.298164 0.780379 0.324080
0.302254 0.779247 0.323674
0.306336 0.778187 0.323297
0.310435 0.777866 0.323179
0.314584 0.778743 0.323482
0.318758 0.779974 0.323912
0.322975 0.781805 0.324555
0.327041 0.780848 0.324232
0.331150 0.780708 0.324198
0.335225 0.780146 0.324022
0.339330 0.780070 0.324020
0.343483 0.780631 0.324245
0.347577 0.780445 0.324215
0.351701 0.780626 0.324319
0.356044 0.783102 0.325226
0.359968 0.781159 0.324601
0.364199 0.782315 0.325060
0.368365 0.782790 0.325288
0.372488 0.782844 0.325375
0.376757 0.784109 0.325890
0.381115 0.785974 0.326620
0.384923 0.783462 0.325829
0.389045 0.783451 0.325916
0.393118 0.783073 0.325880
0.397350 0.783805 0.326237
0.401574 0.784421 0.326560
0.405786 0.784899 0.326840
0.410092 0.785918 0.327315
0.414222 0.785788 0.327393
0.418432 0.786108 0.327635
0.422673 0.786566 0.327930
0.426889 0.786833 0.328164
0.430986 0.786412 0.328162
0.435213 0.786671 0.328403
0.439337 0.786358 0.328450
0.443363 0.785539 0.328323
0.448277 0.789059 0.329725
0.452540 0.789280 0.329974
0.456611 0.788566 0.329900
0.460774 0.788267 0.329976
0.465073 0.788550 0.330261
0.469652 0.790001 0.330963
0.473736 0.789249 0.330894
0.478693 0.792121 0.332107
0.482914 0.791841 0.332214
0.487116 0.791459 0.332289
0.491182 0.790525 0.332174
0.495333 0.789913 0.332177
0.499651 0.789913 0.332400
0.504155 0.790559 0.332857
0.508565 0.790797 0.333173
0.513341 0.792287 0.333938
0.518088 0.793580 0.334639
0.522391 0.793270 0.334775
0.526344 0.791753 0.334485
0.530863 0.792117 0.334869
0.535458 0.792671 0.335325
0.540612 0.794947 0.336399
0.544855 0.794250 0.336417
0.549283 0.794105 0.336636
0.554832 0.797319 0.338061
0.558663 0.795267 0.337607
0.563418 0.795947 0.338135
0.568532 0.797602 0.339016
0.572973 0.797247 0.339182
0.577589 0.797352 0.339516
0.582073 0.797046 0.339707
0.586589 0.796792 0.339920
0.591904 0.798643 0.340896
0.596962 0.799718 0.341597
0.601701 0.799891 0.341977
0.606352 0.799788 0.342263
0.611362 0.800555 0.342866
0.616319 0.801122 0.343402
0.621104 0.801206 0.343768
0.625547 0.800417 0.343821
0.630688 0.801276 0.344477
0.635817 0.802036 0.345102
0.641379 0.803741 0.346076
0.646447 0.804224 0.346610
0.651125 0.803762 0.346804
0.656730 0.805344 0.347749
0.662203 0.806550 0.348562
0.667003 0.806213 0.348816
0.671584 0.805367 0.348887
0.676593 0.805406 0.349288
0.682130 0.806509 0.350085
0.687009 0.806176 0.350359
0.692412 0.806876 0.351018
0.698144 0.808180 0.351907
0.703881 0.809417 0.352777
0.709010 0.809378 0.353181
0.713993 0.809006 0.353467
0.720875 0.812260 0.355104
0.726178 0.812380 0.355586
0.731389 0.812279 0.355991
0.736594 0.812118 0.356379
0.742542 0.813281 0.357268
0.747860 0.813224 0.357708
0.753085 0.812951 0.358073
0.758788 0.813486 0.358748
0.764656 0.814250 0.359515
0.770301 0.814558 0.360119
0.776091 0.815058 0.360802
0.782501 0.816552 0.361868
0.788001 0.816431 0.362333
0.793171 0.815711 0.362579
0.799247 0.816445 0.363382
0.805075 0.816707 0.364016
0.811434 0.817767 0.364961
0.817432 0.818173 0.365666
0.823135 0.818051 0.366179
0.829310 0.818614 0.366962
0.835822 0.819629 0.367929
0.842009 0.820070 0.368685
0.848650 0.821131 0.369690
0.854077 0.820295 0.369975
0.859758 0.819794 0.370399
0.866281 0.820478 0.371289
0.872370 0.820460 0.371919
0.880460 0.823254 0.373651
0.886661 0.823245 0.374308
0.892846 0.823150 0.374943
0.900659 0.825262 0.376450
0.906620 0.824714 0.376933
0.913357 0.825170 0.377820
0.920335 0.825877 0.378818
0.928417 0.827981 0.380380
0.934186 0.826911 0.380706
0.939535 0.825242 0.380807
0.946842 0.826079 0.381911
0.955721 0.828851 0.383799
0.961086 0.827023 0.383875
0.970268 0.829970 0.385866
0.977251 0.830040 0.386727
0.983891 0.829612 0.387403
0.990851 0.829509 0.388224
0.998836 0.830573 0.389529
1.007661 0.832547 0.391220
1.014529 0.832082 0.391942
1.020627 0.830642 0.392284
1.029513 0.832397 0.393938
1.035718 0.830947 0.394304
1.042189 0.829750 0.394786
1.053172 0.833595 0.397350
1.060686 0.833403 0.398277
1.066690 0.831460 0.398497
1.075542 0.832600 0.400003
1.084813 0.834091 0.401673
1.096658 0.838242 0.404468
1.103426 0.836823 0.404963
1.108535 0.833602 0.404713
1.117366 0.834251 0.406095
1.130717 0.839486 0.409422
1.140383 0.840768 0.411103
1.148237 0.840113 0.411978
1.154546 0.837846 0.412175
1.162088 0.836778 0.412886
1.168684 0.834730 0.413182
1.181591 0.838813 0.416109
1.188995 0.837439 0.416701
1.198153 0.837712 0.418002
1.213959 0.844222 0.422006
1.225201 0.846277 0.424088
1.230172 0.842418 0.423594
1.240105 0.843160 0.425093
1.248813 0.842737 0.426073
1.255966 0.840887 0.426413
1.267630 0.843084 0.428517
1.282428 0.848004 0.431814
1.290089 0.846552 0.432275
1.298802 0.846038 0.433125
1.306345 0.844526 0.433503
1.316873 0.845601 0.435005
1.326827 0.846185 0.436257
1.339021 0.848662 0.438326
1.349641 0.849812 0.439765
1.357360 0.848582 0.440093
1.362898 0.845624 0.439596
1.373181 0.846613 0.440839
1.389587 0.852564 0.444292
1.396389 0.850801 0.444200
1.403863 0.849656 0.444339
1.410672 0.848067 0.444225
1.419418 0.848078 0.444792
1.430487 0.849955 0.446163
1.452135 0.860005 0.451229
0.160798 0.762426 0.309600
0.163612 0.763612 0.310385
0.166400 0.765466 0.311379
0.169122 0.768344 0.312704
0.172152 0.769449 0.313410
0.175414 0.769216 0.313643
0.178776 0.768603 0.313728
0.182191 0.767965 0.313783
0.185372 0.769806 0.314664
0.188806 0.769950 0.314947
0.192209 0.770883 0.315479
0.195595 0.772555 0.316246
0.199182 0.772783 0.316501
0.202791 0.773293 0.316834
0.206602 0.772033 0.316543
0.210287 0.772651 0.316878
0.213890 0.774891 0.317753
0.217714 0.774895 0.317846
0.221566 0.774979 0.317952
0.225479 0.774596 0.317884
0.229428 0.774045 0.317746
0.233387 0.773666 0.317656
0.237294 0.774775 0.318065
0.241212 0.776330 0.318617
0.245218 0.776526 0.318695
0.249230 0.777068 0.318885
0.253259 0.777688 0.319095
0.257410 0.774144 0.317871
0.261360 0.779515 0.319700
0.265470 0.778271 0.319258
0.269565 0.778037 0.319159
0.273665 0.777313 0.318891
0.277764 0.778795 0.319378
0.281871 0.778564 0.319277
0.286001 0.780464 0.319907
0.290141 0.781750 0.320327
0.294265 0.781583 0.320251
0.298352 0.779985 0.319687
0.302447 0.779218 0.319410
0.306553 0.779014 0.319329
0.310645 0.778531 0.319155
0.314736 0.778193 0.319035
0.318863 0.778654 0.319193
0.322998 0.779220 0.319391
0.327209 0.780972 0.320000
0.331284 0.780418 0.319824
0.335377 0.780227 0.319776
0.339522 0.780777 0.319987
0.343634 0.780859 0.320044
0.347805 0.781649 0.320348
0.351971 0.782309 0.320613
0.356098 0.782499 0.320723
0.360196 0.782387 0.320734
0.364365 0.782977 0.320992
0.368511 0.783301 0.321164
0.372701 0.783980 0.321463
0.376896 0.784634 0.321759
0.380998 0.784494 0.321789
0.385042 0.783909 0.321671
0.389203 0.784221 0.321867
0.393368 0.784525 0.322066
0.397403 0.783904 0.321952
0.401483 0.783602 0.321953
0.405696 0.784161 0.322255
0.410033 0.785438 0.322811
0.414368 0.786605 0.323334
0.418545 0.786746 0.323509
0.423014 0.788527 0.324255
0.426832 0.786563 0.323716
0.431076 0.786986 0.324004
0.435300 0.787244 0.324240
0.439347 0.786558 0.324156
0.443598 0.786893 0.324429
0.448198 0.788881 0.325279
0.452215 0.787969 0.325131
0.456850 0.789933 0.325983
0.461258 0.790744 0.326441
0.465513 0.790804 0.326644
0.469823 0.791063 0.326921
0.474035 0.790860 0.327042
0.478100 0.790019 0.326947
0.482547 0.790730 0.327394
0.486960 0.791235 0.327775
0.491178 0.790922 0.327876
0.495470 0.790862 0.328068
0.499745 0.790704 0.328232
0.504040 0.790588 0.328414
0.508416 0.790725 0.328688
0.513353 0.792808 0.329647
0.517655 0.792563 0.329796
0.522383 0.793742 0.330449
0.526478 0.792714 0.330333
0.530613 0.791813 0.330265
0.535104 0.792054 0.330601
0.540199 0.794171 0.331600
0.544897 0.794934 0.332129
0.549134 0.794206 0.332137
0.553909 0.795091 0.332717
0.558736 0.796060 0.333331
0.563277 0.796118 0.333629
0.567834 0.796175 0.333930
0.573082 0.798157 0.334915
0.577620 0.798043 0.335164
0.582112 0.797765 0.335358
0.586829 0.798064 0.335761
0.591728 0.798797 0.336323
0.596662 0.799561 0.336899
0.601387 0.799711 0.337262
0.606028 0.799602 0.337537
0.609911 0.797536 0.337118
0.616221 0.801535 0.338865
0.620624 0.800689 0.338889
0.625822 0.801753 0.339600
0.630743 0.802079 0.340051
0.635776 0.802620 0.340584
0.640985 0.803509 0.341246
0.645914 0.803689 0.341658
0.650640 0.803360 0.341892
0.655799 0.803963 0.342466
0.661434 0.805560 0.343403
0.667157 0.807264 0.344383
0.671341 0.805562 0.344141
0.675681 0.804191 0.344020
0.681955 0.806873 0.345370
0.687211 0.807329 0.345921
0.692023 0.806820 0.346127
0.698051 0.808740 0.347220
0.703638 0.809685 0.347965
0.708619 0.809364 0.348255
0.714130 0.810040 0.348913
0.718994 0.809403 0.349098
0.725549 0.811961 0.350457
0.730819 0.811989 0.350896
0.735874 0.811567 0.351177
0.741070 0.811369 0.351545
0.747093 0.812633 0.352457
0.752541 0.812783 0.352966
0.758128 0.813129 0.353553
0.764406 0.814636 0.354576
0.769810 0.814536 0.355013
0.775952 0.815660 0.355910
0.781955 0.816473 0.356700
0.788334 0.817849 0.357707
0.793389 0.816937 0.357871
0.798300 0.815755 0.357940
0.804697 0.816971 0.358912
0.810046 0.816416 0.359230
0.816875 0.818180 0.360425
0.822447 0.817870 0.360851
0.829165 0.819300 0.361940
0.835418 0.819928 0.362737
0.841897 0.820831 0.363648
0.847840 0.820847 0.364234
0.854165 0.821377 0.365024
0.859828 0.820857 0.365425
0.865727 0.820635 0.365949
0.871669 0.820420 0.366486
0.877963 0.820654 0.367203
0.885642 0.822796 0.368661
0.891000 0.821560 0.368839
0.900373 0.825888 0.371162
0.905812 0.824632 0.371356
0.911807 0.824097 0.371836
0.918459 0.824394 0.372650
0.924918 0.824363 0.373349
0.932374 0.825586 0.374547
0.938427 0.824875 0.375008
0.945973 0.826050 0.376215
0.952453 0.825760 0.376866
0.960671 0.827619 0.378370
0.966378 0.826201 0.378607
0.974082 0.827233 0.379818
0.980945 0.827130 0.380598
0.988712 0.828063 0.381802
0.997483 0.830119 0.383466
1.005085 0.830655 0.384547
1.014500 0.833258 0.386467
1.020663 0.831904 0.386827
1.026567 0.830196 0.387059
1.034582 0.830879 0.388262
1.041381 0.830079 0.388886
1.050788 0.832165 0.390687
1.059059 0.832856 0.391945
1.066632 0.832679 0.392867
1.076112 0.834520 0.394625
1.085863 0.836538 0.396474
1.095420 0.838225 0.398208
1.101511 0.836102 0.398397
1.106840 0.833133 0.398247
1.115873 0.834019 0.399694
1.131191 0.841318 0.403812
1.135391 0.836994 0.403132
1.147003 0.840205 0.405592
1.155974 0.840624 0.406903
1.162188 0.838216 0.407040
1.168776 0.836152 0.407322
1.183383 0.841896 0.410898
1.188722 0.838499 0.410627
1.195128 0.836128 0.410784
1.204270 0.836344 0.412037
1.218793 0.841559 0.415425
1.231175 0.844634 0.417906
1.241784 0.845973 0.419643
1.246802 0.842144 0.419148
1.254138 0.840452 0.419555
1.263760 0.840813 0.420834
1.273967 0.841667 0.422313
1.285471 0.843634 0.424259
1.297649 0.846143 0.426424
1.308208 0.847209 0.427938
1.317580 0.847245 0.428974
1.326628 0.847018 0.429864
1.337683 0.848502 0.431475
1.347606 0.849041 0.432636
1.355972 0.848315 0.433198
1.360860 0.844789 0.432474
1.365935 0.841515 0.431813
1.382065 0.847252 0.435127
1.392760 0.848603 0.436443
1.404670 0.850953 0.438162
1.413346 0.850781 0.438706
1.421265 0.850085 0.438965
1.431297 0.851104 0.439947
1.440583 0.851603 0.440647
0.160983 0.760026 0.305044
0.163408 0.764023 0.306743
0.166129 0.766508 0.307922
0.169122 0.767515 0.308591
0.172061 0.769439 0.309549
0.175207 0.770279 0.310125
0.178747 0.768398 0.309771
0.182494 0.765084 0.308914
0.185910 0.764914 0.309093
0.188703 0.770911 0.311325
0.192099 0.772125 0.311932
0.195618 0.772703 0.312307
0.199204 0.773135 0.312614
0.202925 0.772618 0.312583
0.206580 0.773296 0.312938
0.210279 0.773996 0.313285
0.213996 0.775046 0.313733
0.217825 0.775169 0.313854
0.221711 0.774954 0.313846
0.225630 0.774661 0.313800
0.229588 0.774121 0.313658
0.233533 0.774194 0.313712
0.237441 0.775489 0.314169
0.241406 0.776229 0.314429
0.245395 0.776992 0.314690
0.249409 0.777687 0.314921
0.253467 0.777573 0.314872
0.257541 0.777229 0.314742
0.261695 0.773086 0.313324
0.265688 0.777711 0.314865
0.269781 0.777410 0.314740
0.273864 0.779694 0.315487
0.277973 0.779997 0.315564
0.282087 0.780181 0.315600
0.286215 0.781444 0.316003
0.290343 0.781775 0.316091
0.294462 0.781568 0.315999
0.298559 0.780540 0.315633
0.302631 0.779086 0.315126
0.306730 0.778834 0.315028
0.310853 0.779295 0.315174
0.314936 0.778800 0.315001
0.319041 0.778895 0.315031
0.323195 0.779879 0.315366
0.327259 0.779266 0.315166
0.331428 0.780368 0.315549
0.335563 0.780870 0.315735
0.339641 0.780576 0.315658
0.343917 0.782803 0.316436
0.347975 0.782233 0.316276
0.352096 0.782446 0.316385
0.356290 0.783406 0.316752
0.360422 0.783660 0.316886
0.364444 0.782861 0.316670
0.368570 0.783071 0.316800
0.372647 0.782842 0.316787
0.376987 0.784812 0.317523
0.381043 0.784356 0.317444
0.385222 0.784866 0.317698
0.389442 0.785633 0.318044
0.393574 0.785707 0.318161
0.397660 0.785435 0.318167
0.401612 0.784278 0.317877
0.405721 0.784187 0.317954
0.410060 0.785520 0.318519
0.414514 0.787449 0.319292
0.418885 0.788747 0.319856
0.422541 0.785862 0.319006
0.427097 0.788117 0.319906
0.430994 0.786649 0.319547
0.435192 0.786819 0.319748
0.439651 0.788289 0.320397
0.443914 0.788674 0.320682
0.447795 0.787142 0.320319
0.452224 0.788259 0.320863
0.456761 0.789797 0.321556
0.460572 0.787927 0.321091
