ply
format ascii 1.0
comment ---
element vertex 1740
property float x
property float y
property float z
element face 0
property list uchar uint vertex_indices
end_header
0.095308 0.778277 0.222470
0.099483 0.783428 0.223719
0.105513 0.775584 0.221231
0.110032 0.778376 0.221814
0.115081 0.777244 0.221275
0.119604 0.780195 0.221916
0.124609 0.779339 0.221471
0.129202 0.781945 0.222027
0.134060 0.782347 0.221958
0.139639 0.775925 0.219941
0.144897 0.772043 0.218660
0.149809 0.771348 0.218301
0.154557 0.772344 0.218433
0.159164 0.775056 0.219062
0.163590 0.780272 0.220413
0.168459 0.780369 0.220309
0.173691 0.775423 0.218773
0.178741 0.772451 0.217809
0.183373 0.775708 0.218630
0.188262 0.775036 0.218337
0.192472 0.787052 0.221668
0.197640 0.781593 0.220025
0.202508 0.781837 0.220015
0.207246 0.785537 0.220997
0.212054 0.788232 0.221700
0.216893 0.790800 0.222373
0.221927 0.786397 0.221069
0.226984 0.778803 0.218864
0.231899 0.775932 0.218011
0.236748 0.777251 0.218357
0.241609 0.778980 0.218826
0.246489 0.780476 0.219235
0.251388 0.782242 0.219727
0.256256 0.778700 0.218714
0.261099 0.775575 0.217826
0.265909 0.772220 0.216878
0.270795 0.773285 0.217192
0.275756 0.776534 0.218132
0.280864 0.783218 0.220053
0.285739 0.782047 0.219744
0.290540 0.779367 0.219007
0.295264 0.775609 0.217967
0.300035 0.773397 0.217368
0.304916 0.773484 0.217425
0.309768 0.773083 0.217343
0.314414 0.769677 0.216406
0.319239 0.769251 0.216316
0.324828 0.778848 0.219078
0.329621 0.777613 0.218753
0.334445 0.776907 0.218575
0.339110 0.774597 0.217935
0.344056 0.775522 0.218211
0.349185 0.778253 0.218994
0.354021 0.778048 0.218933
0.358738 0.776879 0.218588
0.363975 0.780439 0.219580
0.368278 0.776038 0.218292
0.372444 0.770996 0.216809
0.377188 0.770937 0.216731
0.383255 0.780904 0.219492
0.388092 0.781481 0.219562
0.392911 0.782061 0.219616
0.398454 0.787679 0.221082
0.403685 0.791094 0.221901
0.409805 0.800160 0.224302
0.413754 0.795477 0.222775
0.416700 0.785210 0.219643
0.420792 0.782419 0.218611
0.425042 0.780882 0.217910
0.428904 0.777480 0.216656
0.432207 0.771416 0.214628
0.435545 0.766043 0.212772
0.440024 0.767065 0.212696
0.447050 0.781236 0.216293
0.451264 0.781029 0.215812
0.455497 0.781157 0.215397
0.460479 0.785094 0.216023
0.465045 0.787165 0.216097
0.469218 0.787575 0.215678
0.472669 0.784931 0.214382
0.476559 0.784563 0.213696
0.479613 0.780774 0.212036
0.483652 0.781571 0.211625
0.488618 0.786489 0.212327
-0.598548 0.730057 0.276699
-0.592308 0.729812 0.276570
-0.583517 0.726665 0.275360
-0.577280 0.726523 0.275187
-0.572827 0.728545 0.275747
-0.568090 0.730322 0.276177
-0.563842 0.732771 0.276805
-0.561504 0.737622 0.278248
-0.551605 0.733411 0.276409
-0.542958 0.730720 0.275073
-0.536831 0.731151 0.274811
-0.531351 0.732446 0.274816
-0.527456 0.735802 0.275512
-0.522180 0.737506 0.275579
-0.514494 0.736196 0.274538
-0.508428 0.736990 0.274206
-0.503762 0.739654 0.274497
-0.497965 0.740906 0.274253
-0.490541 0.740049 0.273233
-0.485832 0.742828 0.273459
-0.480589 0.744953 0.273422
-0.471219 0.741500 0.271407
-0.465276 0.742706 0.270995
-0.458874 0.743298 0.270344
-0.450274 0.740812 0.268605
-0.443889 0.741408 0.267916
-0.436403 0.740430 0.266665
-0.432083 0.743994 0.266963
-0.425980 0.745005 0.266365
-0.418090 0.743375 0.264851
-0.411669 0.743871 0.264056
-0.407754 0.748121 0.264528
-0.400997 0.748098 0.263538
-0.393856 0.747446 0.262331
-0.389560 0.751159 0.262593
-0.381735 0.749362 0.260997
-0.376718 0.751936 0.260867
-0.369627 0.751188 0.259626
-0.359906 0.746105 0.256946
-0.353930 0.746997 0.256263
-0.349273 0.750039 0.256294
-0.344423 0.752766 0.256221
-0.338176 0.753127 0.255372
-0.330647 0.751240 0.253793
-0.326301 0.754760 0.253994
-0.320421 0.755611 0.253327
-0.313292 0.754204 0.251933
-0.307145 0.754460 0.251092
-0.299569 0.752069 0.249405
-0.294978 0.755027 0.249457
-0.286969 0.751653 0.247480
-0.280886 0.751745 0.246631
-0.275095 0.752326 0.245950
-0.269986 0.754165 0.245680
-0.265023 0.756267 0.245503
-0.259852 0.757942 0.245198
-0.252832 0.755915 0.243733
-0.247477 0.757124 0.243303
-0.242026 0.758103 0.242811
-0.236315 0.758502 0.242148
-0.229916 0.757412 0.241030
-0.224397 0.758090 0.240478
-0.219594 0.760252 0.240399
-0.213843 0.760350 0.239687
-0.208459 0.761194 0.239218
-0.204541 0.765253 0.239754
-0.198720 0.765070 0.238986
-0.190851 0.760152 0.236773
-0.182963 0.754999 0.234505
-0.178968 0.758758 0.234987
-0.175333 0.763415 0.235750
-0.174076 0.773850 0.238281
-0.168834 0.774799 0.237920
-0.160456 0.767972 0.235205
-0.158553 0.777106 0.237351
-0.159651 0.794057 0.241861
-0.146902 0.775774 0.235718
-0.139451 0.770749 0.233604
-0.132074 0.780303 0.235311
-0.127301 0.782246 0.235321
-0.122252 0.783430 0.235111
-0.113735 0.774848 0.231993
-0.105268 0.766094 0.228842
-0.098982 0.763330 0.227492
-0.092922 0.761089 0.226309
-0.087290 0.760003 0.225479
-0.083930 0.765722 0.226675
-0.079072 0.766954 0.226546
-0.073233 0.765100 0.225514
-0.067204 0.762524 0.224280
-0.061845 0.761979 0.223653
-0.057188 0.763678 0.223694
-0.053270 0.767860 0.224470
-0.050841 0.777216 0.226764
-0.046307 0.779548 0.227005
-0.040908 0.778852 0.226368
-0.035446 0.777855 0.225651
-0.028435 0.771091 0.223263
-0.022425 0.767760 0.221887
-0.018657 0.772787 0.222947
-0.015900 0.781880 0.225190
-0.008626 0.773410 0.222347
-0.001610 0.765581 0.219704
0.001958 0.771601 0.221073
0.004964 0.780188 0.223186
0.010717 0.777282 0.221989
0.016303 0.774933 0.220960
0.023273 0.766216 0.218111
0.027988 0.767414 0.218121
0.032979 0.767325 0.217768
0.037568 0.769113 0.217959
0.042010 0.771670 0.218377
0.047486 0.769080 0.217329
0.053008 0.766077 0.216171
0.058063 0.765354 0.215672
0.062351 0.768729 0.216349
0.066718 0.771801 0.216944
0.071546 0.772345 0.216825
0.076483 0.772229 0.216526
0.081381 0.772299 0.216287
0.085285 0.778586 0.217818
0.090035 0.779736 0.217896
0.094552 0.782478 0.218433
0.099809 0.780234 0.217564
0.105025 0.778092 0.216733
0.110882 0.770993 0.214509
0.115600 0.772095 0.214611
0.120088 0.775083 0.215251
0.124264 0.780866 0.216685
0.128507 0.786521 0.218088
0.133859 0.782605 0.216802
0.139704 0.773644 0.214105
0.144619 0.773000 0.213758
0.149592 0.771663 0.213223
0.154392 0.772044 0.213178
0.159022 0.774392 0.213693
0.163263 0.781753 0.215621
0.167953 0.784177 0.216170
0.172919 0.783086 0.215740
0.178157 0.777816 0.214147
0.182993 0.778111 0.214122
0.187842 0.778244 0.214059
0.193033 0.771960 0.212206
0.197900 0.771138 0.211891
0.202615 0.773621 0.212508
0.207415 0.774538 0.212695
0.212250 0.774712 0.212680
0.217110 0.774154 0.212468
0.221946 0.774416 0.212492
0.226774 0.775249 0.212683
0.231619 0.775693 0.212772
0.236463 0.776753 0.213040
0.241312 0.779363 0.213748
0.246190 0.779322 0.213722
0.251054 0.775563 0.212663
0.255923 0.776037 0.212793
0.260794 0.776073 0.212806
0.265643 0.774819 0.212464
0.270492 0.773925 0.212228
0.275440 0.776777 0.213044
0.280467 0.781086 0.214272
0.285371 0.780992 0.214273
0.290112 0.777050 0.213202
0.294911 0.775085 0.212687
0.299666 0.772613 0.212032
0.304611 0.773875 0.212423
0.309545 0.774747 0.212706
0.314624 0.777675 0.213565
0.319761 0.781013 0.214539
0.324471 0.778379 0.213840
0.329501 0.780007 0.214333
0.334177 0.777393 0.213635
0.338896 0.775566 0.213153
0.343786 0.775777 0.213237
0.348968 0.778946 0.214143
0.353781 0.778392 0.213999
0.358673 0.778693 0.214087
0.363903 0.782018 0.215011
0.368867 0.782954 0.215256
0.372608 0.774107 0.212750
0.377289 0.773317 0.212487
0.382859 0.779369 0.214124
0.387681 0.779748 0.214158
0.392744 0.781950 0.214684
0.397461 0.781839 0.214545
0.404694 0.798427 0.219052
0.410028 0.802121 0.219933
0.413555 0.794613 0.217665
0.416023 0.781331 0.213767
0.420605 0.781361 0.213560
0.425223 0.781803 0.213444
0.428683 0.775977 0.211559
0.431568 0.767525 0.208922
0.433969 0.757106 0.205718
0.439005 0.761077 0.206485
0.447272 0.781526 0.211786
0.451998 0.783717 0.211997
0.456218 0.783581 0.211535
0.460594 0.784431 0.211319
0.465013 0.785680 0.211184
0.468637 0.783455 0.210068
0.472637 0.783242 0.209479
0.476821 0.784087 0.209154
0.481193 0.785947 0.209079
0.484532 0.783532 0.207812
0.489308 0.787493 0.208257
-0.601819 0.732896 0.272489
-0.594796 0.731822 0.272044
-0.586898 0.729782 0.271217
-0.579585 0.728460 0.270602
-0.572399 0.727330 0.270014
-0.567361 0.728795 0.270299
-0.563843 0.732162 0.271211
-0.558066 0.732915 0.271158
-0.552266 0.733709 0.271078
-0.544888 0.732635 0.270299
-0.539808 0.734433 0.270488
-0.534684 0.736257 0.270643
-0.530065 0.738790 0.271005
-0.523391 0.738803 0.270446
-0.517297 0.739598 0.270121
-0.510840 0.739972 0.269613
-0.505782 0.742203 0.269714
-0.499285 0.742611 0.269148
-0.492867 0.743153 0.268595
-0.485469 0.742409 0.267568
-0.474693 0.737100 0.264943
-0.468688 0.738205 0.264503
-0.463862 0.740959 0.264602
-0.459432 0.744315 0.264879
-0.452681 0.744471 0.264041
-0.444370 0.742408 0.262430
-0.436663 0.741153 0.261082
-0.430261 0.741742 0.260345
-0.423793 0.742221 0.259558
-0.419025 0.745195 0.259598
-0.413215 0.746642 0.259114
-0.406040 0.746028 0.257932
-0.400559 0.747941 0.257587
-0.395172 0.749999 0.257285
-0.389007 0.750844 0.256575
-0.384360 0.754046 0.256642
-0.375695 0.750884 0.254611
-0.365343 0.744892 0.251661
-0.359872 0.746638 0.251256
-0.353524 0.746927 0.250378
-0.348677 0.749651 0.250296
-0.344130 0.752881 0.250380
-0.335526 0.749244 0.248248
-0.331190 0.752779 0.248439
-0.326116 0.755050 0.248228
-0.319732 0.755013 0.247283
-0.312861 0.754047 0.246051
-0.305747 0.752558 0.244666
-0.299978 0.753407 0.244036
-0.292131 0.750399 0.242195
-0.286057 0.750544 0.241365
-0.281041 0.752612 0.241152
-0.276113 0.754830 0.240994
-0.270748 0.756193 0.240577
-0.265341 0.757442 0.240134
-0.258563 0.755956 0.238850
-0.252100 0.754997 0.237743
-0.246630 0.755948 0.237242
-0.242844 0.760290 0.237798
-0.236276 0.758931 0.236604
-0.230016 0.758118 0.235592
-0.224802 0.759433 0.235245
-0.219400 0.760313 0.234775
-0.213856 0.760844 0.234208
-0.208919 0.762658 0.234044
-0.205353 0.767502 0.234808
-0.201117 0.770902 0.235140
-0.194814 0.769610 0.234060
-0.183981 0.757754 0.229806
-0.178870 0.758922 0.229499
-0.175862 0.765052 0.230691
-0.172131 0.769545 0.231396
-0.163133 0.761265 0.228286
-0.157616 0.761299 0.227678
-0.164312 0.791866 0.236173
-0.156704 0.786900 0.234080
-0.146136 0.774110 0.229683
-0.141796 0.777168 0.230002
-0.135056 0.773896 0.228458
-0.130793 0.777129 0.228844
-0.125473 0.777518 0.228400
-0.121912 0.782731 0.229382
-0.114426 0.777019 0.227163
-0.106284 0.769203 0.224343
-0.098886 0.763249 0.222085
-0.092162 0.759038 0.220350
-0.087640 0.761217 0.220488
-0.083722 0.765247 0.221171
-0.076526 0.759245 0.218946
-0.073455 0.765920 0.220409
-0.067420 0.763321 0.219190
-0.062047 0.762729 0.218562
-0.057263 0.764007 0.218481
-0.053186 0.767644 0.219086
-0.050768 0.777014 0.221344
-0.045966 0.778395 0.221308
-0.039621 0.774318 0.219713
-0.033618 0.771275 0.218425
-0.026620 0.764420 0.216058
-0.021429 0.764001 0.215540
-0.016745 0.765447 0.215562
-0.012623 0.769082 0.216213
-0.007620 0.769327 0.215905
-0.002098 0.767433 0.214996
0.002521 0.769138 0.215116
0.005148 0.779245 0.217622
0.008031 0.788639 0.219926
0.015302 0.779116 0.216885
0.022783 0.768182 0.213459
0.027836 0.767847 0.213035
0.032614 0.768747 0.212966
0.037708 0.768119 0.212474
0.042325 0.769761 0.212626
0.046774 0.772289 0.213033
0.050270 0.779836 0.214853
0.054375 0.784489 0.215864
0.060383 0.778971 0.214033
0.066482 0.772587 0.211971
0.071848 0.770030 0.210987
0.076696 0.770343 0.210812
0.081290 0.772186 0.211071
0.085370 0.777323 0.212253
0.089622 0.781628 0.213208
0.094987 0.778723 0.212162
0.100120 0.777175 0.211502
0.104971 0.777506 0.211372
0.110424 0.773354 0.210005
0.115964 0.768184 0.208364
0.120405 0.771354 0.209042
0.124797 0.775142 0.209898
0.128902 0.781694 0.211523
0.133719 0.782349 0.211523
0.139308 0.775761 0.209530
0.144397 0.773445 0.208725
0.149301 0.772789 0.208386
0.154210 0.771976 0.208011
0.158864 0.773989 0.208423
0.163202 0.780046 0.209956
0.167277 0.790240 0.212633
0.171981 0.793089 0.213294
0.177320 0.786951 0.211489
0.182652 0.779994 0.209468
0.187921 0.772958 0.207433
0.192805 0.771858 0.207039
0.197647 0.771427 0.206836
0.202429 0.772268 0.206990
0.207219 0.773140 0.207160
0.212054 0.772935 0.207041
0.216891 0.772687 0.206918
0.221716 0.772860 0.206917
0.226525 0.774028 0.207197
0.231310 0.777621 0.208149
0.236091 0.785087 0.210170
0.240952 0.791497 0.211908
0.245888 0.786204 0.210442
0.250765 0.777939 0.208167
0.255609 0.774741 0.207289
0.260486 0.776062 0.207657
0.265322 0.774300 0.207184
0.270210 0.775339 0.207485
0.275128 0.777019 0.207968
0.280154 0.781412 0.209199
0.285125 0.783108 0.209696
0.289914 0.780085 0.208901
0.294614 0.775725 0.207743
0.299416 0.774106 0.207339
0.304365 0.775327 0.207718
0.309858 0.785149 0.210461
0.314893 0.786653 0.210921
0.319795 0.786085 0.210812
0.325305 0.793575 0.212917
0.330681 0.798545 0.214329
0.334730 0.787506 0.211339
0.338977 0.779866 0.209280
0.343982 0.780993 0.209625
0.349486 0.787052 0.211322
0.354940 0.792146 0.212748
0.359898 0.792361 0.212824
0.365227 0.795877 0.213800
0.368870 0.785085 0.210831
0.372937 0.778654 0.209050
0.377615 0.777551 0.208722
0.382891 0.781137 0.209670
0.387566 0.780270 0.209379
0.392424 0.780889 0.209480
0.397494 0.783061 0.209991
0.403255 0.789804 0.211737
0.410601 0.806442 0.216179
0.413131 0.792477 0.212198
0.415397 0.777880 0.208027
0.420696 0.782056 0.208982
0.425399 0.782814 0.208976
0.429438 0.780039 0.207978
0.432369 0.771587 0.205406
0.435885 0.766859 0.203829
0.441031 0.771026 0.204655
0.447577 0.782357 0.207403
0.452123 0.783485 0.207341
0.456375 0.783369 0.206913
0.460749 0.784066 0.206679
0.464970 0.784256 0.206279
0.469084 0.784178 0.205780
0.472844 0.782740 0.204888
0.477420 0.785201 0.205021
0.481710 0.786559 0.204828
0.486498 0.790236 0.205231
0.489140 0.784962 0.203209
-0.606966 0.730978 0.266607
-0.599642 0.729541 0.266058
-0.589828 0.725283 0.264488
-0.589029 0.731483 0.266513
-0.579318 0.727428 0.264930
-0.577104 0.732200 0.266373
-0.570039 0.731354 0.265821
-0.564512 0.732391 0.265880
-0.559066 0.733602 0.265956
-0.551109 0.731837 0.264961
-0.548344 0.736458 0.266131
-0.540507 0.734939 0.265138
-0.535804 0.737348 0.265460
-0.531063 0.739794 0.265753
-0.524639 0.740189 0.265300
-0.516746 0.738748 0.264182
-0.513121 0.742823 0.264915
-0.506608 0.743237 0.264361
-0.499816 0.743318 0.263659
-0.492481 0.742697 0.262689
-0.483634 0.740056 0.261006
-0.476541 0.739746 0.260089
-0.469727 0.739814 0.259275
-0.464177 0.741626 0.259026
-0.459476 0.744650 0.259159
-0.455308 0.748471 0.259535
-0.448081 0.748016 0.258461
-0.439905 0.746174 0.256912
-0.430668 0.742736 0.254825
-0.424698 0.743977 0.254282
-0.419726 0.746689 0.254213
-0.414368 0.748847 0.253950
-0.406245 0.746840 0.252313
-0.399505 0.746859 0.251339
-0.394115 0.748911 0.251025
-0.390719 0.754062 0.251714
-0.382397 0.751528 0.249905
-0.373069 0.747288 0.247553
-0.366004 0.746536 0.246337
-0.361666 0.750141 0.246524
-0.354051 0.748387 0.244995
-0.348401 0.749795 0.244486
-0.342375 0.750543 0.243771
-0.335173 0.749248 0.242416
-0.330366 0.751971 0.242341
-0.325914 0.755304 0.242464
-0.319818 0.755766 0.241688
-0.312550 0.754093 0.240253
-0.305575 0.752842 0.238964
-0.299067 0.752343 0.237922
-0.293493 0.753480 0.237400
-0.286360 0.751682 0.235980
-0.281130 0.753347 0.235644
-0.276448 0.756026 0.235629
-0.271158 0.757534 0.235261
-0.265240 0.757790 0.234520
-0.259163 0.757672 0.233677
-0.252368 0.756055 0.232389
-0.247195 0.757601 0.232077
-0.241882 0.758834 0.231680
-0.236801 0.760510 0.231427
-0.230124 0.758827 0.230170
-0.224169 0.758566 0.229355
-0.219210 0.760368 0.229172
-0.212873 0.759162 0.228097
-0.208334 0.761812 0.228187
-0.203686 0.764225 0.228214
-0.199182 0.766961 0.228346
-0.193809 0.767724 0.227899
-0.185098 0.760727 0.225165
-0.179665 0.761164 0.224647
-0.174400 0.761947 0.224241
-0.167982 0.759923 0.223019
-0.159655 0.753129 0.220410
-0.159251 0.765670 0.223483
-0.157826 0.775941 0.225887
-0.152973 0.777733 0.225815
-0.143941 0.768751 0.222614
-0.143332 0.781465 0.225738
-0.141534 0.791334 0.228032
-0.130148 0.775653 0.222928
-0.124659 0.775543 0.222349
-0.118370 0.773158 0.221124
-0.111849 0.769995 0.219686
-0.105387 0.766846 0.218264
-0.099724 0.765864 0.217476
-0.092829 0.761172 0.215634
-0.087713 0.761595 0.215268
-0.083441 0.764539 0.215628
-0.078129 0.764319 0.215093
-0.072962 0.764492 0.214678
-0.066842 0.761582 0.213394
-0.061880 0.762277 0.213144
-0.057147 0.763697 0.213105
-0.052876 0.766663 0.213510
-0.049990 0.774406 0.215269
-0.044316 0.772694 0.214363
-0.036906 0.764735 0.211708
-0.031046 0.762012 0.210537
-0.026251 0.763042 0.210430
-0.021199 0.763100 0.210056
-0.016435 0.764208 0.209984
-0.011476 0.764553 0.209704
-0.007010 0.766814 0.209965
-0.001554 0.765118 0.209129
0.002871 0.767551 0.209450
0.005099 0.779289 0.212363
0.008523 0.786335 0.213973
0.016745 0.772568 0.209811
0.022811 0.767820 0.208163
0.027771 0.767886 0.207858
0.032574 0.768649 0.207751
0.037710 0.767794 0.207205
0.042875 0.766708 0.206601
0.041626 0.797902 0.214899
0.044381 0.809904 0.217903
0.051451 0.799567 0.214765
0.058804 0.787091 0.211052
0.066476 0.772101 0.206662
0.071904 0.769144 0.205586
0.076659 0.769957 0.205551
0.081081 0.772807 0.206078
0.084482 0.782199 0.208401
0.089117 0.784142 0.208690
0.094948 0.778166 0.206824
0.100567 0.773208 0.205245
0.105255 0.774528 0.205386
0.110577 0.771213 0.204271
0.115512 0.770575 0.203893
0.120301 0.771020 0.203816
0.124688 0.774787 0.204648
0.128640 0.782591 0.206583
0.133693 0.781113 0.206002
0.139021 0.776883 0.204684
0.144175 0.773928 0.203719
0.149143 0.772581 0.203197
0.153882 0.773553 0.203311
0.158535 0.775590 0.203720
0.162976 0.780423 0.204892
0.166952 0.791814 0.207843
0.171291 0.799687 0.209847
0.176640 0.793801 0.208141
0.182636 0.776792 0.203441
0.187747 0.772137 0.202086
0.192523 0.772878 0.202195
0.197326 0.773223 0.202204
0.202078 0.774805 0.202554
0.206954 0.773640 0.202171
0.211787 0.773410 0.202047
0.216639 0.772538 0.201757
0.221425 0.774025 0.202110
0.226231 0.775332 0.202421
0.231016 0.778946 0.203361
0.235751 0.790588 0.206470
0.240619 0.798915 0.208692
0.245592 0.789614 0.206175
0.250487 0.782611 0.204283
0.255329 0.777003 0.202773
0.260173 0.775331 0.202329
0.265032 0.775210 0.202309
0.269913 0.775956 0.202528
0.274814 0.777061 0.202849
0.279819 0.780936 0.203922
0.284906 0.785925 0.205299
0.289771 0.784413 0.204930
0.294434 0.778838 0.203470
0.299277 0.777741 0.203220
0.304205 0.778291 0.203416
0.309422 0.783434 0.204854
0.314566 0.786710 0.205790
0.319778 0.790490 0.206863
0.325086 0.795048 0.208147
0.330282 0.797670 0.208908
0.334990 0.794312 0.208054
0.339286 0.786766 0.206068
0.344197 0.786493 0.206041
0.349723 0.792456 0.207693
0.355038 0.795912 0.208663
0.360638 0.801742 0.210268
0.365078 0.796997 0.209009
0.368578 0.784837 0.205738
0.372569 0.777680 0.203809
0.377576 0.779062 0.204174
0.382944 0.783172 0.205264
0.387587 0.781873 0.204878
0.392460 0.782417 0.204976
0.397484 0.784099 0.205364
0.402796 0.787732 0.206260
0.408858 0.796099 0.208414
0.412604 0.789816 0.206596
0.414475 0.772762 0.201855
0.420300 0.780009 0.203643
0.425605 0.784110 0.204558
0.430109 0.783749 0.204248
0.432682 0.773111 0.201152
0.437684 0.776094 0.201692
0.443272 0.782199 0.203042
0.447072 0.779183 0.201919
0.451421 0.779255 0.201597
0.456144 0.781368 0.201793
0.460790 0.783267 0.201904
0.466423 0.789939 0.203257
0.470881 0.791201 0.203139
0.474109 0.787106 0.201571
0.474117 0.769120 0.196299
0.480720 0.780701 0.198839
0.489198 0.800153 0.203417
0.497103 0.816788 0.207205
0.500310 0.813646 0.205754
0.501186 0.801302 0.201870
-0.604686 0.720728 0.257863
-0.603831 0.726549 0.259826
-0.598272 0.727149 0.259959
-0.592234 0.727274 0.259889
-0.585557 0.726726 0.259546
-0.588683 0.737681 0.263095
-0.582241 0.737611 0.262829
-0.573243 0.734571 0.261506
-0.565205 0.732690 0.260538
-0.559230 0.733323 0.260386
-0.554004 0.734931 0.260523
-0.545729 0.732884 0.259376
-0.540935 0.735152 0.259654
-0.535354 0.736524 0.259587
-0.528589 0.736475 0.258999
-0.521166 0.735629 0.258106
-0.517486 0.739589 0.258796
-0.513481 0.743233 0.259340
-0.501013 0.735948 0.256180
-0.498777 0.741996 0.257463
-0.486340 0.734643 0.254232
-0.482291 0.738395 0.254684
-0.478105 0.742040 0.255070
-0.473039 0.744556 0.255052
-0.466432 0.744995 0.254322
-0.460482 0.746349 0.253874
-0.454882 0.748209 0.253573
-0.447179 0.747106 0.252282
-0.438928 0.745173 0.250709
-0.431698 0.744653 0.249590
-0.425725 0.745932 0.249047
-0.420351 0.748088 0.248779
-0.413508 0.748059 0.247796
-0.405959 0.746924 0.246453
-0.399538 0.747441 0.245641
-0.393636 0.748721 0.245072
-0.387483 0.749587 0.244369
-0.380583 0.749246 0.243283
-0.373359 0.748326 0.242018
-0.368595 0.751286 0.241984
-0.361715 0.750812 0.240870
-0.354957 0.750469 0.239804
-0.348749 0.750971 0.239011
-0.342283 0.750986 0.238073
-0.335336 0.750125 0.236871
-0.329934 0.751829 0.236476
-0.325342 0.754911 0.236514
-0.319830 0.756383 0.236061
-0.313890 0.757061 0.235371
-0.305155 0.752672 0.233138
-0.299384 0.753496 0.232518
-0.293682 0.754397 0.231931
-0.288141 0.755551 0.231432
-0.280953 0.753571 0.229992
-0.275891 0.755517 0.229755
-0.270640 0.757080 0.229411
-0.264562 0.757004 0.228584
-0.258839 0.757556 0.227958
-0.253650 0.759120 0.227645
-0.248081 0.759889 0.227105
-0.241435 0.758413 0.225908
-0.234363 0.755957 0.224434
-0.228493 0.755887 0.223682
-0.224137 0.758958 0.223870
-0.216143 0.754243 0.221771
-0.211931 0.757553 0.222048
-0.207841 0.761155 0.222418
-0.202337 0.761638 0.221882
-0.196402 0.761100 0.221059
-0.190516 0.760596 0.220257
-0.185389 0.761777 0.219956
-0.179775 0.761784 0.219323
-0.173878 0.761063 0.218491
-0.166339 0.756309 0.216505
-0.159346 0.752700 0.214866
-0.156266 0.758609 0.215976
-0.146897 0.762590 0.215962
-0.141347 0.762348 0.215328
-0.141803 0.777741 0.219163
-0.146865 0.805725 0.226574
-0.139526 0.801117 0.224705
-0.126047 0.779561 0.218043
-0.115475 0.765358 0.213494
-0.109239 0.762863 0.212276
-0.105608 0.767668 0.213129
-0.099543 0.765517 0.212026
-0.093816 0.764239 0.211180
-0.087645 0.761542 0.209944
-0.083162 0.763829 0.210115
-0.078417 0.765331 0.210073
-0.072302 0.762533 0.208836
-0.066459 0.760460 0.207811
-0.061761 0.761973 0.207794
-0.056775 0.762537 0.207519
-0.053469 0.768703 0.208805
-0.049373 0.772336 0.209392
-0.043123 0.768575 0.207937
-0.035071 0.758256 0.204681
-0.030642 0.760548 0.204919
-0.026028 0.762196 0.204984
-0.021553 0.764377 0.205202
-0.017317 0.767503 0.205684
-0.011687 0.765291 0.204707
-0.006210 0.763546 0.203866
-0.001863 0.766247 0.204249
0.002899 0.767299 0.204186
0.004957 0.779722 0.207232
0.010339 0.778344 0.206515
0.017022 0.771144 0.204220
0.022809 0.767601 0.202931
0.028000 0.766582 0.202336
0.032683 0.767857 0.202370
0.037626 0.767891 0.202074
0.042072 0.770329 0.202435
0.038565 0.812966 0.213671
0.043227 0.815458 0.214046
0.051020 0.801409 0.209961
0.059652 0.781995 0.204445
0.065842 0.775144 0.202329
0.071448 0.771223 0.201012
0.075802 0.774442 0.201622
0.079050 0.784549 0.204087
0.083628 0.786872 0.204465
0.088863 0.785046 0.203737
0.094953 0.777336 0.201440
0.100490 0.772892 0.200027
0.105894 0.769056 0.198785
0.109629 0.777249 0.200765
0.113864 0.782172 0.201876
0.118060 0.787739 0.203163
0.123118 0.786569 0.202660
0.128460 0.782817 0.201475
0.134403 0.773301 0.198764
0.139058 0.775000 0.199047
0.143997 0.774038 0.198629
0.148917 0.773135 0.198234
0.153676 0.773857 0.198278
0.158347 0.775636 0.198609
0.162861 0.779507 0.199502
0.166974 0.788979 0.201887
0.171852 0.789191 0.201822
0.177538 0.777577 0.198629
0.181886 0.785270 0.200562
0.187342 0.775340 0.197833
0.192129 0.776063 0.197933
0.196252 0.790423 0.201650
0.201304 0.786960 0.200656
0.206312 0.783791 0.199748
0.211382 0.778014 0.198158
0.216075 0.782959 0.199411
0.220924 0.783700 0.199559
0.225834 0.781898 0.199042
0.230653 0.784895 0.199801
0.235441 0.793563 0.202065
0.240371 0.793038 0.201907
0.245298 0.793705 0.202071
0.250215 0.788478 0.200684
0.255073 0.781647 0.198880
0.259884 0.776096 0.197421
0.264741 0.775877 0.197376
0.269622 0.776690 0.197611
0.274537 0.778322 0.198067
0.279512 0.781238 0.198869
0.284517 0.784101 0.199661
0.289403 0.783362 0.199507
0.294225 0.781311 0.199010
0.299142 0.781453 0.199096
0.304166 0.783430 0.199671
0.308851 0.779481 0.198682
0.313779 0.779777 0.198817
0.318929 0.783150 0.199769
0.323977 0.784732 0.200248
0.329108 0.787156 0.200950
0.334390 0.791082 0.202049
0.339023 0.787392 0.201130
0.343797 0.785589 0.200708
0.349057 0.788877 0.201631
0.354547 0.794117 0.203068
0.359814 0.796904 0.203849
0.364865 0.797632 0.204077
0.367638 0.779207 0.199219
0.371874 0.774134 0.197892
0.376935 0.775964 0.198384
0.382155 0.778972 0.199178
0.387450 0.782435 0.200080
0.392283 0.782559 0.200081
0.397154 0.783072 0.200170
0.402595 0.787452 0.201268
0.407892 0.790817 0.202077
0.411426 0.783226 0.199965
0.414478 0.773322 0.197222
0.420044 0.778896 0.198556
0.426473 0.789307 0.201144
0.430367 0.785268 0.199887
0.433365 0.776756 0.197426
0.439132 0.783568 0.198987
0.445685 0.794366 0.201570
0.448482 0.785848 0.199034
0.453788 0.790385 0.199910
0.459808 0.798434 0.201679
0.464304 0.799131 0.201486
0.469663 0.804075 0.202377
0.472999 0.799783 0.200822
0.475676 0.792921 0.198572
0.477767 0.783941 0.195749
0.482095 0.785232 0.195580
0.490431 0.803855 0.199881
0.495937 0.810193 0.200955
0.499902 0.810179 0.200355
0.501166 0.799384 0.196949
0.502815 0.790676 0.194070
-0.613006 0.729211 0.255504
-0.605211 0.727276 0.254798
-0.600028 0.728363 0.255068
-0.600479 0.736009 0.257506
-0.590790 0.732093 0.256007
-0.585984 0.733882 0.256386
-0.581752 0.736438 0.256980
-0.573944 0.734858 0.256140
-0.566626 0.733897 0.255467
-0.560649 0.734594 0.255308
-0.553385 0.733796 0.254606
-0.547577 0.734817 0.254472
-0.541682 0.735797 0.254284
-0.534857 0.735681 0.253691
-0.527282 0.734662 0.252759
-0.521890 0.736428 0.252717
-0.519717 0.742375 0.254021
-0.513002 0.742597 0.253393
-0.506642 0.743309 0.252893
-0.494023 0.735827 0.249669
-0.487627 0.736475 0.249095
-0.483661 0.740398 0.249566
-0.479601 0.744273 0.249990
-0.473465 0.745389 0.249488
-0.466783 0.745768 0.248726
-0.460322 0.746451 0.248043
-0.453900 0.747188 0.247361
-0.446417 0.746412 0.246178
-0.437943 0.744177 0.244516
-0.431787 0.745224 0.243900
-0.426268 0.747194 0.243568
-0.420245 0.748421 0.242990
-0.413731 0.748902 0.242170
-0.407110 0.749187 0.241285
-0.400163 0.748935 0.240229
-0.393497 0.749061 0.239294
-0.386203 0.748160 0.238039
-0.379474 0.748074 0.237043
-0.374513 0.750743 0.236909
-0.368612 0.751901 0.236306
-0.361989 0.751850 0.235335
-0.355479 0.751921 0.234408
-0.348480 0.751118 0.233221
-0.342049 0.751189 0.232312
-0.335932 0.751729 0.231555
-0.329493 0.751664 0.230623
-0.323471 0.752253 0.229900
-0.319262 0.755972 0.230134
-0.310708 0.751993 0.228050
-0.304741 0.752501 0.227334
-0.299162 0.753660 0.226824
-0.292901 0.753523 0.225937
-0.286547 0.753144 0.224989
-0.280913 0.754039 0.224433
-0.275487 0.755287 0.223992
-0.269615 0.755636 0.223295
-0.263861 0.756155 0.222660
-0.258800 0.757987 0.222423
-0.253949 0.760214 0.222311
-0.248306 0.760832 0.221736
-0.240445 0.756870 0.219836
-0.234162 0.756006 0.218856
-0.228903 0.757199 0.218486
-0.223182 0.757379 0.217832
-0.216759 0.755994 0.216737
-0.211735 0.757550 0.216504
-0.207573 0.760976 0.216818
-0.202838 0.763152 0.216779
-0.196812 0.762409 0.215912
-0.190634 0.761241 0.214936
-0.184703 0.760552 0.214109
-0.179013 0.760351 0.213432
-0.174183 0.762126 0.213326
-0.167810 0.760176 0.212172
-0.162613 0.760982 0.211811
-0.160410 0.769158 0.213536
-0.156101 0.772220 0.213823
-0.150145 0.771124 0.212947
-0.142717 0.766147 0.210995
-0.146514 0.790312 0.217210
-0.142446 0.794262 0.217764
-0.134516 0.787880 0.215442
-0.126092 0.779906 0.212693
-0.117287 0.770583 0.209587
-0.111481 0.769356 0.208742
-0.106865 0.771437 0.208823
-0.100451 0.768315 0.207472
-0.093654 0.763919 0.205781
-0.087822 0.762211 0.204842
-0.083326 0.764457 0.204999
-0.079886 0.769979 0.206061
-0.075696 0.773275 0.206515
-0.066317 0.760095 0.202468
-0.061446 0.761026 0.202293
-0.057702 0.765652 0.203132
-0.053501 0.768855 0.203586
-0.050082 0.774786 0.204787
-0.045262 0.776015 0.204713
-0.035146 0.758524 0.199572
-0.030118 0.758649 0.199219
-0.027749 0.768473 0.201494
-0.025673 0.779717 0.204151
-0.021292 0.782566 0.204544
-0.014477 0.776033 0.202416
-0.008994 0.774464 0.201634
-0.003592 0.773106 0.200916
0.000203 0.778268 0.201954
0.004552 0.781264 0.202415
0.010185 0.778824 0.201426
0.016450 0.773455 0.199663
0.023029 0.766389 0.197457
0.027828 0.767120 0.197339
0.032717 0.767418 0.197112
0.037215 0.769564 0.197382
0.040694 0.776781 0.199004
0.042786 0.791303 0.202567
0.045284 0.804411 0.205752
0.054407 0.783005 0.199799
0.060273 0.778153 0.198243
0.064848 0.780208 0.198520
0.069253 0.783318 0.199081
0.073921 0.785000 0.199271
0.078440 0.787640 0.199718
0.083537 0.786775 0.199248
0.089054 0.783089 0.198042
0.094872 0.777107 0.196242
0.101176 0.767340 0.193456
0.105450 0.771346 0.194295
0.108403 0.785357 0.197761
0.112773 0.789502 0.198644
0.117943 0.787559 0.197939
0.122918 0.787025 0.197609
0.129028 0.776642 0.194712
0.133876 0.776670 0.194544
0.138952 0.774519 0.193815
0.143818 0.774196 0.193570
0.148606 0.774610 0.193524
0.153488 0.774019 0.193224
0.158118 0.776219 0.193657
0.162657 0.779736 0.194439
0.167225 0.783298 0.195239
0.172618 0.776026 0.193228
0.177763 0.771354 0.191901
0.182205 0.777006 0.193265
0.186948 0.778449 0.193542
0.191959 0.775195 0.192607
0.196430 0.782248 0.194354
0.201070 0.787040 0.195521
0.205949 0.786981 0.195436
0.210680 0.791159 0.196458
0.215778 0.784608 0.194703
0.220619 0.785724 0.194945
0.225513 0.784935 0.194700
0.230372 0.785969 0.194935
0.235227 0.788409 0.195541
0.240121 0.788900 0.195649
0.245029 0.785707 0.194809
0.249926 0.787661 0.195311
0.254788 0.782365 0.193939
0.259617 0.778107 0.192844
0.264437 0.775507 0.192184
0.269325 0.776940 0.192576
0.274242 0.778786 0.193081
0.279224 0.781978 0.193941
0.284280 0.786262 0.195090
0.289204 0.786265 0.195133
0.294031 0.784080 0.194614
0.299029 0.785592 0.195058
0.303873 0.784020 0.194706
0.308604 0.780787 0.193926
0.314091 0.789536 0.196258
0.318538 0.782257 0.194432
0.323234 0.779207 0.193705
0.328867 0.788229 0.196115
0.334128 0.791842 0.197120
0.339097 0.791804 0.197176
0.343887 0.789897 0.196744
0.348808 0.789513 0.196705
0.354353 0.795210 0.198244
0.359385 0.795730 0.198433
0.363462 0.787871 0.196435
0.368265 0.786840 0.196206
0.372432 0.780806 0.194667
0.376803 0.776912 0.193675
0.381682 0.777218 0.193766
0.386774 0.779166 0.194272
0.391990 0.781971 0.194988
0.396999 0.783325 0.195312
0.401970 0.784482 0.195568
0.407257 0.787745 0.196355
0.412316 0.789564 0.196748
0.416877 0.788451 0.196359
0.422109 0.791521 0.197036
0.428927 0.803692 0.200053
0.433127 0.800844 0.199146
0.435330 0.787486 0.195489
0.441335 0.795163 0.197265
0.447219 0.802078 0.198814
0.450396 0.795168 0.196758
0.455351 0.797615 0.197096
0.462211 0.809456 0.199831
0.464326 0.798438 0.196638
0.467602 0.793515 0.194994
0.474053 0.803567 0.197175
0.477803 0.801336 0.196168
0.481276 0.798195 0.194903
0.484050 0.792366 0.192926
0.488161 0.792676 0.192495
0.491134 0.788423 0.190875
0.496964 0.796350 0.192330
0.500397 0.794501 0.191272
0.503095 0.789986 0.189517
-0.619471 0.728810 0.250109
-0.613872 0.729336 0.250248
-0.602930 0.723895 0.248366
-0.598980 0.726413 0.249083
-0.593847 0.727680 0.249342
-0.589796 0.730284 0.250001
-0.585669 0.732905 0.250622
-0.579694 0.733460 0.250516
-0.573048 0.733290 0.250128
-0.567722 0.734754 0.250236
-0.560944 0.734551 0.249753
-0.554807 0.735176 0.249501
-0.548111 0.735179 0.249004
-0.542104 0.736080 0.248762
-0.535105 0.735804 0.248095
-0.529183 0.736916 0.247845
-0.525762 0.741253 0.248609
-0.520768 0.743687 0.248714
-0.513662 0.743466 0.247921
-0.505019 0.741262 0.246456
-0.496040 0.738590 0.244815
-0.491458 0.741714 0.245019
-0.486171 0.743959 0.244910
-0.479785 0.744762 0.244313
-0.470954 0.742239 0.242632
-0.464454 0.742871 0.241942
-0.458650 0.744471 0.241542
-0.452833 0.746068 0.241125
-0.444651 0.744313 0.239634
-0.437071 0.743360 0.238389
-0.432055 0.746071 0.238289
-0.426555 0.748095 0.237962
-0.420568 0.749400 0.237402
-0.414031 0.749869 0.236577
-0.406737 0.749157 0.235385
-0.400552 0.750075 0.234698
-0.393722 0.749966 0.233695
-0.385596 0.747780 0.232057
-0.379652 0.748929 0.231449
-0.374239 0.750889 0.231091
-0.368233 0.751877 0.230440
-0.362347 0.753020 0.229841
-0.352587 0.747756 0.227313
-0.346845 0.748992 0.226760
-0.342452 0.752455 0.226884
-0.337121 0.754336 0.226538
-0.330121 0.753324 0.225335
-0.322959 0.751942 0.224034
-0.316813 0.752245 0.223247
-0.310752 0.752639 0.222498
-0.304605 0.752819 0.221697
-0.297751 0.751652 0.220510
-0.292162 0.752713 0.219992
-0.286425 0.753456 0.219390
-0.280825 0.754406 0.218859
-0.275253 0.755363 0.218342
-0.269425 0.755783 0.217679
-0.264133 0.757190 0.217313
-0.258864 0.758607 0.216960
-0.253067 0.758940 0.216305
-0.246585 0.757832 0.215248
-0.241624 0.759739 0.215067
-0.235000 0.758189 0.213909
-0.229732 0.759373 0.213543
-0.224361 0.760304 0.213114
-0.218149 0.759393 0.212174
-0.211842 0.758187 0.211163
-0.206860 0.759803 0.210961
-0.202309 0.762358 0.211032
-0.197107 0.763449 0.210699
-0.190333 0.760914 0.209359
-0.183475 0.758058 0.207943
-0.177606 0.757387 0.207151
-0.173245 0.760223 0.207345
-0.169815 0.765316 0.208173
-0.164677 0.766321 0.207872
-0.159351 0.766832 0.207442
-0.153270 0.765403 0.206486
-0.148046 0.766058 0.206115
-0.150661 0.786882 0.211298
-0.146788 0.791279 0.211960
-0.138023 0.782770 0.209091
-0.128248 0.771241 0.205414
-0.121397 0.767297 0.203827
-0.115664 0.766283 0.203051
-0.112483 0.772359 0.204211
-0.106884 0.771663 0.203536
-0.100076 0.767388 0.201899
-0.093495 0.763595 0.200405
-0.088133 0.763275 0.199860
-0.083539 0.765223 0.199934
-0.079867 0.770028 0.200783
-0.076982 0.777402 0.202325
-0.072777 0.780764 0.202792
-0.067101 0.779418 0.202002
-0.060639 0.775386 0.200502
-0.055095 0.774239 0.199783
-0.051537 0.779778 0.200854
-0.047918 0.785246 0.201909
-0.041027 0.779300 0.199932
-0.034036 0.772729 0.197800
-0.030208 0.777451 0.198674
-0.027106 0.785017 0.200303
-0.021109 0.781802 0.199084
-0.014747 0.777000 0.197454
-0.008962 0.774235 0.196371
-0.005817 0.781970 0.198061
-0.000292 0.780168 0.197244
0.004131 0.782876 0.197619
0.009663 0.780886 0.196767
0.015032 0.779477 0.196074
0.022353 0.769202 0.193067
0.027769 0.767147 0.192222
0.032544 0.767965 0.192134
0.037259 0.769057 0.192124
0.041027 0.774821 0.193336
0.043993 0.784860 0.195663
0.049926 0.780022 0.194123
0.055965 0.774325 0.192370
0.060961 0.773959 0.192008
0.064727 0.780402 0.193417
0.068668 0.786157 0.194651
0.073725 0.785597 0.194255
0.079054 0.783297 0.193416
0.084785 0.778293 0.191885
0.089620 0.778728 0.191767
0.095587 0.771595 0.189704
0.101135 0.766828 0.188259
0.105282 0.771686 0.189300
0.108642 0.782661 0.191917
0.113385 0.783812 0.192013
0.118771 0.779898 0.190814
0.123999 0.776934 0.189868
0.128584 0.779232 0.190278
0.133808 0.775946 0.189262
0.138668 0.775745 0.189045
0.143584 0.774940 0.188679
0.148536 0.773652 0.188197
0.153310 0.774131 0.188174
0.158133 0.774071 0.188020
0.162598 0.778295 0.188967
0.167463 0.777878 0.188735
0.172429 0.776023 0.188143
0.177193 0.776833 0.188238
0.182080 0.775834 0.187879
0.186835 0.776884 0.188049
0.191547 0.778906 0.188474
0.196353 0.779405 0.188517
0.201279 0.777365 0.187922
0.206217 0.774567 0.187141
0.210929 0.777424 0.187806
0.215778 0.776738 0.187577
0.220544 0.779076 0.188124
0.225304 0.782865 0.189047
0.230227 0.779030 0.188039
0.235054 0.780479 0.188381
0.239885 0.783828 0.189214
0.244765 0.780735 0.188415
0.249627 0.780984 0.188474
0.254499 0.781686 0.188654
0.259336 0.778729 0.187911
0.264154 0.776064 0.187248
0.269021 0.776648 0.187418
0.273927 0.778292 0.187863
0.278879 0.780770 0.188526
0.283932 0.785277 0.189711
0.288879 0.786044 0.189950
0.293700 0.783797 0.189428
0.298598 0.783426 0.189387
0.303549 0.784013 0.189595
0.308821 0.789760 0.191120
0.314300 0.797782 0.193228
0.318808 0.790787 0.191515
0.323353 0.785143 0.190147
0.328291 0.785107 0.190209
0.333677 0.790370 0.191622
0.338818 0.792309 0.192189
0.343762 0.791972 0.192174
0.348708 0.791700 0.192174
0.353802 0.792901 0.192546
0.358634 0.791627 0.192283
0.362900 0.785515 0.190780
0.368255 0.789173 0.191765
0.373099 0.788460 0.191627
0.376698 0.778138 0.189025
0.381540 0.778028 0.189022
0.386595 0.779578 0.189432
0.391447 0.779706 0.189467
0.396907 0.784090 0.190575
0.401756 0.784303 0.190603
0.407382 0.789619 0.191917
0.413118 0.795467 0.193350
0.418334 0.798013 0.193920
0.423097 0.797926 0.193797
0.428027 0.798995 0.193948
0.433010 0.800493 0.194185
0.437224 0.797932 0.193365
0.442174 0.799613 0.193601
0.444719 0.788953 0.190672
0.450071 0.793229 0.191518
0.455510 0.797976 0.192455
0.460620 0.801149 0.192963
0.463144 0.792115 0.190351
0.467593 0.792656 0.190139
0.472676 0.796311 0.190685
0.477738 0.799978 0.191205
0.481454 0.797807 0.190224
0.483574 0.789023 0.187556
0.486397 0.783771 0.185755
0.490482 0.784219 0.185360
0.495942 0.790558 0.186411
0.500600 0.793668 0.186624
0.504284 0.793012 0.185873
0.505941 0.784595 0.183173
-0.624215 0.726511 0.244072
-0.619571 0.728063 0.244560
-0.614354 0.729064 0.244829
-0.605866 0.726452 0.243877
-0.595559 0.721799 0.242220
-0.591382 0.724182 0.242813
-0.588133 0.727740 0.243745
-0.584665 0.731164 0.244590
-0.579478 0.732686 0.244772
-0.573439 0.733287 0.244613
-0.563630 0.729455 0.242974
-0.562918 0.736565 0.244838
-0.556165 0.736517 0.244341
-0.548575 0.735492 0.243490
-0.543575 0.737693 0.243640
-0.537848 0.739070 0.243485
-0.531878 0.740203 0.243213
-0.526017 0.741529 0.242967
-0.519723 0.742354 0.242526
-0.513010 0.742675 0.241892
-0.505626 0.742149 0.240959
-0.499338 0.743068 0.240458
-0.493378 0.744447 0.240075
-0.484403 0.741816 0.238402
-0.478338 0.743071 0.237935
-0.471377 0.743118 0.237068
-0.464655 0.743484 0.236284
-0.458685 0.744887 0.235808
-0.452499 0.745994 0.235224
-0.448172 0.749740 0.235446
-0.439059 0.746660 0.233544
-0.430991 0.744999 0.232079
-0.425830 0.747524 0.231897
-0.421309 0.751008 0.231999
-0.412261 0.747748 0.230038
-0.405774 0.748241 0.229224
-0.399547 0.749091 0.228518
-0.393148 0.749640 0.227723
-0.386457 0.749690 0.226780
-0.379818 0.749764 0.225850
-0.373362 0.750071 0.224996
-0.367580 0.751409 0.224455
-0.361602 0.752393 0.223815
-0.352616 0.748386 0.221703
-0.347212 0.750182 0.221321
-0.342342 0.752852 0.221203
-0.337316 0.755247 0.221010
-0.330427 0.754425 0.219882
-0.322778 0.752196 0.218356
-0.317001 0.753140 0.217768
-0.311762 0.754993 0.217453
-0.303814 0.751949 0.215732
-0.298419 0.753408 0.215325
-0.291888 0.752742 0.214318
-0.286845 0.754763 0.214094
-0.281263 0.755747 0.213582
-0.275221 0.755810 0.212818
-0.270146 0.757670 0.212577
-0.264101 0.757615 0.211803
-0.257934 0.757254 0.210954
-0.251354 0.755992 0.209863
-0.245633 0.756369 0.209248
-0.239956 0.756779 0.208652
-0.235004 0.758633 0.208472
-0.229772 0.759882 0.208132
-0.224354 0.760706 0.207683
-0.218695 0.760966 0.207088
-0.211375 0.757564 0.205488
-0.206618 0.759651 0.205422
-0.201499 0.760922 0.205138
-0.196943 0.763437 0.205206
-0.191349 0.763583 0.204631
-0.183295 0.757976 0.202488
-0.178429 0.759640 0.202351
-0.176317 0.767836 0.204005
-0.174608 0.777163 0.205967
-0.170621 0.781121 0.206469
-0.160165 0.769124 0.202648
-0.153968 0.767419 0.201636
-0.147998 0.766189 0.200763
-0.150531 0.786795 0.205788
-0.148207 0.795227 0.207524
-0.135937 0.777460 0.202223
-0.127494 0.769418 0.199556
-0.122598 0.770774 0.199420
-0.117631 0.771916 0.199234
-0.114794 0.779031 0.200648
-0.107502 0.773587 0.198720
-0.098692 0.763524 0.195577
-0.093262 0.763045 0.194994
-0.088105 0.763314 0.194616
-0.083202 0.764310 0.194438
-0.078457 0.765777 0.194390
-0.075044 0.771415 0.195447
-0.072784 0.780863 0.197509
-0.067749 0.781581 0.197277
-0.060894 0.776276 0.195472
-0.056735 0.779771 0.195982
-0.050569 0.776495 0.194726
-0.047272 0.783011 0.196036
-0.043125 0.786707 0.196612
-0.036699 0.782288 0.195079
-0.030078 0.776937 0.193314
-0.025703 0.779724 0.193671
-0.019770 0.776639 0.192511
-0.012966 0.770001 0.190439
-0.008195 0.771098 0.190378
-0.004628 0.777050 0.191575
0.000571 0.776473 0.191092
0.005615 0.776476 0.190764
0.010128 0.778710 0.191016
0.015586 0.776848 0.190220
0.022449 0.768554 0.187780
0.027420 0.768510 0.187467
0.032324 0.768733 0.187227
0.037131 0.769386 0.187104
0.041883 0.770294 0.187051
0.046487 0.771942 0.187192
0.051710 0.770432 0.186533
0.056619 0.770460 0.186273
0.061194 0.772258 0.186468
0.066031 0.772648 0.186311
0.070990 0.772308 0.185975
0.075579 0.774090 0.186182
0.080682 0.772810 0.185619
0.085710 0.771872 0.185149
0.090531 0.772168 0.184998
0.095482 0.771577 0.184628
0.100756 0.768671 0.183681
0.105453 0.769640 0.183718
0.109827 0.773015 0.184368
0.114695 0.772818 0.184122
0.119438 0.773560 0.184120
0.124339 0.773023 0.183801
0.129134 0.773301 0.183694
0.133878 0.774032 0.183707
0.138543 0.775522 0.183917
0.143437 0.774879 0.183598
0.148320 0.774247 0.183289
0.153279 0.772697 0.182756
0.157981 0.773878 0.182914
0.162769 0.774141 0.182849
0.167661 0.773069 0.182456
0.172366 0.774388 0.182669
0.177076 0.775783 0.182907
0.181928 0.775158 0.182646
0.186731 0.775267 0.182577
0.191423 0.777398 0.183019
0.196301 0.776206 0.182638
0.201213 0.774024 0.182018
0.206039 0.773484 0.181815
0.210863 0.772875 0.181601
0.215597 0.775045 0.182088
0.220354 0.777208 0.182580
0.225157 0.778229 0.182794
0.230002 0.777511 0.182582
0.234842 0.776779 0.182373
0.239670 0.777189 0.182456
0.244503 0.778164 0.182687
0.249349 0.778886 0.182862
0.254215 0.780852 0.183353
0.259056 0.778900 0.182875
0.263901 0.778069 0.182683
0.268775 0.778724 0.182868
0.273634 0.778447 0.182826
0.278464 0.777148 0.182536
0.283397 0.778949 0.183025
0.288300 0.779463 0.183198
0.293146 0.778532 0.183016
0.298029 0.778441 0.183049
0.302963 0.779185 0.183294
0.307819 0.778464 0.183178
0.312763 0.779136 0.183413
0.317734 0.780048 0.183712
0.322866 0.782984 0.184518
0.327912 0.784436 0.184956
0.332805 0.783876 0.184893
0.337377 0.779766 0.183942
0.342202 0.778767 0.183769
0.347227 0.779904 0.184128
0.352364 0.782042 0.184736
0.357212 0.781343 0.184632
0.362490 0.784535 0.185497
0.367240 0.783044 0.185184
0.371791 0.780105 0.184502
0.376583 0.779354 0.184361
0.381653 0.780830 0.184769
0.386545 0.781003 0.184840
0.391612 0.782497 0.185231
0.396912 0.785596 0.186012
0.401732 0.785461 0.185968
0.406384 0.784391 0.185675
0.411034 0.783513 0.185413
0.416607 0.788430 0.186584
0.421355 0.788390 0.186495
0.426270 0.789480 0.186669
0.430770 0.788387 0.186274
0.435296 0.787686 0.185955
0.439351 0.784719 0.185047
0.443878 0.784544 0.184812
0.448378 0.784452 0.184573
0.453158 0.785975 0.184712
0.457542 0.785729 0.184382
0.462110 0.786602 0.184305
0.466680 0.787675 0.184250
0.471717 0.791079 0.184745
0.476159 0.791917 0.184574
0.479954 0.790111 0.183722
0.483685 0.788326 0.182849
0.487580 0.787534 0.182196
0.491536 0.787257 0.181643
0.496322 0.790642 0.181964
0.500560 0.791929 0.181742
0.504288 0.791367 0.181041
0.508752 0.793945 0.181082
-0.624673 0.726151 0.238654
-0.620777 0.728582 0.239395
-0.615221 0.729258 0.239531
-0.609246 0.729542 0.239499
-0.597520 0.723354 0.237353
-0.591728 0.723948 0.237338
-0.587925 0.726917 0.238039
-0.584932 0.730942 0.239034
-0.580242 0.733102 0.239389
-0.567151 0.725415 0.236561
-0.566495 0.732498 0.238400
-0.560560 0.733404 0.238228
-0.557007 0.737267 0.238954
-0.550949 0.738179 0.238701
-0.544468 0.738630 0.238263
-0.539662 0.741214 0.238461
-0.533405 0.742058 0.238072
-0.524147 0.739146 0.236468
-0.518412 0.740711 0.236240
-0.513085 0.742854 0.236160
-0.506208 0.743035 0.235437
-0.500680 0.745003 0.235244
-0.495523 0.747506 0.235189
-0.482774 0.739884 0.231976
-0.476709 0.741154 0.231499
-0.472123 0.744459 0.231629
-0.465277 0.744698 0.230798
-0.459301 0.746132 0.230318
-0.454572 0.749326 0.230361
-0.447484 0.749201 0.229381
-0.439503 0.747760 0.227995
-0.431609 0.746377 0.226625
-0.426379 0.748830 0.226407
-0.420513 0.750347 0.225903
-0.411151 0.746617 0.223827
-0.405708 0.748684 0.223487
-0.398766 0.748451 0.222462
-0.393123 0.750162 0.222017
-0.386811 0.750808 0.221260
-0.378593 0.748404 0.219610
-0.372456 0.749201 0.218910
-0.366310 0.749939 0.218199
-0.361279 0.752445 0.218010
-0.356140 0.754761 0.217770
-0.347917 0.751931 0.216047
-0.341494 0.751998 0.215174
-0.335572 0.752850 0.214538
-0.329302 0.753055 0.213726
-0.323089 0.753295 0.212935
-0.317781 0.755063 0.212591
-0.312579 0.756990 0.212300
-0.305897 0.756231 0.211258
-0.297606 0.752457 0.209376
-0.292419 0.754239 0.209078
-0.287123 0.755792 0.208725
-0.281484 0.756666 0.208192
-0.276367 0.758486 0.207934
-0.269569 0.757044 0.206776
-0.262185 0.754356 0.205285
-0.257409 0.756682 0.205201
-0.252067 0.757867 0.204810
-0.245687 0.756919 0.203841
-0.239880 0.757055 0.203182
-0.233932 0.756837 0.202438
-0.228585 0.757806 0.202031
-0.223418 0.759120 0.201727
-0.217953 0.759763 0.201250
-0.212284 0.759915 0.200649
-0.206935 0.760715 0.200235
-0.202197 0.762834 0.200188
-0.195760 0.761110 0.199110
-0.193029 0.767755 0.200299
-0.189993 0.773808 0.201331
-0.183447 0.771722 0.200183
-0.179218 0.775032 0.200492
-0.176614 0.782286 0.201859
-0.173341 0.788043 0.202828
-0.163893 0.778615 0.199764
-0.156413 0.773807 0.197945
-0.149294 0.769727 0.196332
-0.144437 0.771312 0.196230
-0.149303 0.798320 0.202841
-0.138141 0.783517 0.198425
-0.127328 0.769170 0.194152
-0.122819 0.771562 0.194292
-0.121794 0.783628 0.196970
-0.112039 0.771445 0.193307
-0.105240 0.767281 0.191756
-0.098483 0.763058 0.190200
-0.092853 0.761968 0.189470
-0.088074 0.763337 0.189387
-0.082627 0.762669 0.188782
-0.077050 0.761527 0.188061
-0.072938 0.764889 0.188512
-0.068417 0.767009 0.188647
-0.064670 0.771658 0.189438
-0.059413 0.771435 0.188979
-0.053549 0.769122 0.187991
-0.048306 0.768793 0.187519
-0.042930 0.767943 0.186921
-0.036785 0.764291 0.185613
-0.031804 0.764650 0.185338
-0.027074 0.765891 0.185294
-0.021972 0.765740 0.184901
-0.017030 0.766140 0.184654
-0.011758 0.765230 0.184080
-0.006651 0.764887 0.183656
-0.001824 0.765614 0.183509
0.003106 0.765894 0.183255
0.007273 0.769351 0.183809
0.012008 0.770465 0.183775
0.017161 0.769743 0.183284
0.022365 0.768715 0.182722
0.027275 0.768940 0.182481
0.032120 0.769432 0.182313
0.037074 0.769379 0.182014
0.041870 0.770053 0.181903
0.047018 0.768936 0.181349
0.051867 0.769259 0.181161
0.056688 0.769705 0.181009
0.061317 0.771169 0.181117
0.066079 0.771924 0.181053
0.070894 0.772375 0.180919
0.075903 0.771653 0.180499
0.080731 0.771947 0.180337
0.085622 0.771820 0.180077
0.090304 0.772988 0.180143
0.095372 0.771615 0.179586
0.100469 0.769903 0.178951
0.105159 0.770931 0.179000
0.109785 0.772467 0.179181
0.114539 0.773090 0.179141
0.119504 0.772046 0.178696
0.124288 0.772364 0.178594
0.129102 0.772424 0.178434
0.133757 0.773865 0.178620
0.138532 0.774276 0.178559
0.143240 0.775351 0.178667
0.148160 0.774321 0.178264
0.152929 0.774780 0.178233
0.157707 0.775144 0.178186
0.162558 0.774651 0.177935
0.167377 0.774483 0.177770
0.172158 0.774785 0.177727
0.176835 0.776626 0.178068
0.181873 0.773090 0.177098
0.186552 0.775006 0.177471
0.191290 0.776182 0.177669
0.196074 0.776655 0.177702
0.200924 0.775778 0.177412
0.205775 0.774698 0.177079
0.210578 0.774686 0.177014
0.215357 0.775489 0.177156
0.220113 0.777530 0.177607
0.224910 0.778676 0.177846
0.229740 0.778558 0.177784
0.234591 0.776893 0.177350
0.239418 0.776800 0.177308
0.244246 0.777241 0.177404
0.249081 0.777910 0.177561
0.253926 0.778376 0.177677
0.258793 0.780031 0.178089
0.263659 0.780441 0.178204
0.268516 0.780018 0.178122
0.273341 0.778366 0.177746
0.278170 0.777177 0.177490
0.283033 0.777144 0.177522
0.287968 0.778780 0.177967
0.292827 0.778297 0.177900
0.297698 0.778043 0.177895
0.302578 0.777907 0.177923
0.307509 0.778575 0.178152
0.312471 0.779544 0.178458
0.317473 0.780919 0.178868
0.322448 0.781687 0.179133
0.327415 0.782238 0.179346
0.332135 0.779736 0.178814
0.336852 0.777460 0.178337
0.341910 0.779046 0.178808
0.346922 0.780020 0.179128
0.351875 0.780329 0.179283
