ply
format ascii 1.0
comment ---
element vertex 1708
property float x
property float y
property float z
element face 0
property list uchar uint vertex_indices
end_header
0.920336 0.819209 -0.095621
0.927918 0.820601 -0.096612
0.932875 0.818555 -0.097082
0.939719 0.818853 -0.097927
0.948643 0.821663 -0.099183
0.956428 0.822940 -0.100213
0.961974 0.821379 -0.100803
0.968447 0.820896 -0.101576
0.977589 0.823549 -0.102869
0.982943 0.821576 -0.103425
0.992430 0.824427 -0.104780
1.000436 0.825423 -0.105847
1.007129 0.824811 -0.106660
1.014509 0.824921 -0.107604
1.021156 0.824126 -0.108407
1.029009 0.824627 -0.109438
1.037113 0.825325 -0.110513
1.048044 0.829050 -0.112118
1.053510 0.826685 -0.112687
1.063159 0.828812 -0.114039
1.072068 0.830046 -0.115245
1.078983 0.829088 -0.116073
1.088541 0.830863 -0.117386
1.097970 0.832418 -0.118667
1.104482 0.830897 -0.119399
1.113763 0.832183 -0.120633
1.119696 0.830028 -0.121241
1.127574 0.829825 -0.122196
1.139346 0.833458 -0.123849
1.146789 0.832754 -0.124698
1.156255 0.834018 -0.125900
1.167165 0.836642 -0.127346
1.173763 0.835099 -0.127996
1.180763 0.833971 -0.128703
1.187946 0.833046 -0.129425
1.194707 0.831764 -0.130053
1.208895 0.837382 -0.131984
1.213450 0.834125 -0.132180
1.216449 0.829551 -0.132084
1.233322 0.837576 -0.134412
1.239603 0.836070 -0.134851
1.250420 0.838657 -0.136060
1.263650 0.843384 -0.137662
0.106629 0.788253 -0.038710
0.114178 0.763669 -0.036757
0.118273 0.758244 -0.036540
0.118313 0.776846 -0.038531
0.121177 0.779589 -0.039047
0.124829 0.777909 -0.039137
0.129494 0.770017 -0.038632
0.133504 0.766300 -0.038501
0.136939 0.766560 -0.038729
0.140015 0.769643 -0.039210
0.142813 0.775210 -0.039915
0.145844 0.779711 -0.040510
0.148811 0.785302 -0.041199
0.153298 0.779508 -0.040797
0.157780 0.773586 -0.040371
0.161307 0.775603 -0.040691
0.164459 0.781366 -0.041362
0.168532 0.779278 -0.041275
0.172638 0.776864 -0.041151
0.176690 0.774957 -0.041068
0.180774 0.772669 -0.040943
0.184215 0.777534 -0.041501
0.188210 0.776464 -0.041485
0.192083 0.776908 -0.041612
0.195738 0.780443 -0.042035
0.199599 0.781565 -0.042224
0.203785 0.777868 -0.041946
0.207818 0.776168 -0.041861
0.211768 0.775676 -0.041892
0.215620 0.777035 -0.042103
0.219662 0.774454 -0.041933
0.223467 0.777039 -0.042266
0.227113 0.784642 -0.043088
0.230946 0.788470 -0.043547
0.235082 0.781987 -0.043005
0.239061 0.779751 -0.042878
0.242950 0.781259 -0.043119
0.246838 0.783680 -0.043453
0.250748 0.785474 -0.043729
0.254678 0.784147 -0.043703
0.258588 0.781948 -0.043594
0.262494 0.782904 -0.043799
0.266378 0.781664 -0.043792
0.270250 0.780715 -0.043817
0.274116 0.780104 -0.043879
0.278042 0.782203 -0.044212
0.281959 0.783521 -0.044473
0.285798 0.782353 -0.044492
0.289624 0.781260 -0.044522
0.293533 0.782313 -0.044769
0.297392 0.782200 -0.044905
0.301223 0.781650 -0.045000
0.304939 0.779286 -0.044918
0.308873 0.780717 -0.045220
0.312788 0.781705 -0.045482
0.316701 0.782549 -0.045734
0.320644 0.783687 -0.046020
0.324513 0.783814 -0.046208
0.328314 0.783138 -0.046319
0.332200 0.783452 -0.046533
0.336023 0.783077 -0.046682
0.339825 0.782517 -0.046816
0.343662 0.782333 -0.046991
0.347438 0.781585 -0.047112
0.351346 0.782035 -0.047360
0.355572 0.785084 -0.047879
0.359202 0.783094 -0.047884
0.363261 0.784536 -0.048246
0.367016 0.783589 -0.048364
0.370994 0.784284 -0.048656
0.374590 0.782240 -0.048667
0.378607 0.783139 -0.048987
0.382669 0.784247 -0.049333
0.386568 0.784224 -0.049564
0.390244 0.782787 -0.049650
0.394094 0.782443 -0.049853
0.398320 0.784275 -0.050290
0.402517 0.785807 -0.050700
0.406516 0.786130 -0.050984
0.410505 0.786344 -0.051260
0.414568 0.786900 -0.051577
0.418536 0.786903 -0.051836
0.422502 0.786861 -0.052095
0.426536 0.787110 -0.052387
0.430869 0.788731 -0.052831
0.434888 0.788780 -0.053109
0.438732 0.787992 -0.053298
0.442737 0.787914 -0.053566
0.446753 0.787849 -0.053839
0.451063 0.788999 -0.054249
0.455189 0.789291 -0.054567
0.459457 0.790114 -0.054948
0.463670 0.790644 -0.055298
0.467713 0.790445 -0.055571
0.471655 0.789818 -0.055798
0.475640 0.789341 -0.056044
0.479865 0.789732 -0.056390
0.484397 0.791189 -0.056860
0.488277 0.790216 -0.057057
0.492678 0.791073 -0.057465
0.496840 0.791030 -0.057773
0.500778 0.790185 -0.057992
0.505261 0.791153 -0.058421
0.509600 0.791575 -0.058791
0.513812 0.791529 -0.059109
0.517995 0.791354 -0.059415
0.522232 0.791312 -0.059739
0.527461 0.794292 -0.060418
0.531444 0.793353 -0.060643
0.535507 0.792646 -0.060897
0.539660 0.792183 -0.061182
0.544121 0.792585 -0.061572
0.548483 0.792654 -0.061924
0.553470 0.794441 -0.062485
0.558448 0.796109 -0.063036
0.562623 0.795494 -0.063316
0.566732 0.794681 -0.063575
0.570937 0.794102 -0.063864
0.575484 0.794399 -0.064262
0.579680 0.793739 -0.064546
0.588487 0.804813 -0.066268
0.590890 0.799441 -0.065984
0.596392 0.801863 -0.066658
0.600597 0.801004 -0.066932
0.604522 0.799452 -0.067122
0.608800 0.798742 -0.067418
0.614842 0.802160 -0.068234
0.622705 0.809685 -0.069571
0.630022 0.804993 -0.069781
0.635544 0.806845 -0.070420
0.638450 0.802825 -0.070317
0.647043 0.811281 -0.071809
0.649157 0.805514 -0.071487
0.650353 0.797890 -0.070924
0.655051 0.797778 -0.071330
0.666747 0.812187 -0.073625
0.672987 0.814999 -0.074427
0.675965 0.811072 -0.074353
0.678275 0.805851 -0.074110
0.682522 0.804553 -0.074384
0.686510 0.802732 -0.074591
0.690694 0.801290 -0.074852
0.696663 0.803261 -0.075572
0.702022 0.803988 -0.076131
0.709386 0.808415 -0.077195
0.714043 0.807677 -0.077571
0.716842 0.803498 -0.077484
0.722018 0.803681 -0.077993
0.726975 0.803420 -0.078446
0.733816 0.806464 -0.079360
0.744231 0.815675 -0.081135
0.745606 0.808928 -0.080713
0.746361 0.801207 -0.080153
0.756912 0.810272 -0.081940
0.757640 0.802556 -0.081386
0.761020 0.799370 -0.081468
0.768249 0.802548 -0.082456
0.771545 0.799189 -0.082524
0.784699 0.811769 -0.084876
0.799974 0.827429 -0.087695
0.805468 0.827240 -0.088254
0.805415 0.818314 -0.087551
0.804595 0.808323 -0.086690
0.812121 0.811284 -0.087721
0.817691 0.811158 -0.088310
0.822942 0.810497 -0.088829
0.831300 0.814416 -0.090037
0.836544 0.813609 -0.090554
0.840732 0.811216 -0.090840
0.847182 0.812078 -0.091625
0.853678 0.812928 -0.092418
0.861110 0.815023 -0.093413
0.878168 0.830511 -0.096477
0.888039 0.835653 -0.097980
0.893109 0.834026 -0.098454
0.895381 0.828552 -0.098337
0.896991 0.822224 -0.098088
0.899152 0.816687 -0.097965
0.906861 0.818524 -0.099012
0.914854 0.820626 -0.100116
0.922777 0.822526 -0.101204
0.928291 0.821224 -0.101792
0.934945 0.821325 -0.102616
0.941850 0.821666 -0.103493
0.947787 0.820721 -0.104172
0.955957 0.822477 -0.105307
0.962313 0.821907 -0.106072
0.971335 0.824502 -0.107377
0.977399 0.823423 -0.108082
0.982987 0.821725 -0.108693
0.993439 0.825707 -0.110279
0.999981 0.824983 -0.111079
1.006838 0.824562 -0.111942
1.014363 0.824839 -0.112936
1.020687 0.823678 -0.113690
1.029683 0.825465 -0.114970
1.038901 0.827393 -0.116288
1.048268 0.829381 -0.117629
1.054758 0.828131 -0.118403
1.064369 0.830209 -0.119781
1.072702 0.830820 -0.120903
1.079609 0.829853 -0.121742
1.087596 0.829982 -0.122784
1.096138 0.830637 -0.123924
1.104543 0.831092 -0.125028
1.111127 0.829642 -0.125775
1.119101 0.829586 -0.126777
1.125703 0.828130 -0.127507
1.138735 0.833048 -0.129440
1.146489 0.832674 -0.130360
1.155930 0.833938 -0.131582
1.164146 0.833992 -0.132557
1.173263 0.834907 -0.133682
1.180616 0.834143 -0.134461
1.186359 0.831897 -0.134923
1.193962 0.831441 -0.135712
1.206283 0.835375 -0.137348
1.212830 0.833992 -0.137900
1.216804 0.830337 -0.137962
1.237173 0.841545 -0.140987
1.240278 0.837208 -0.140846
1.244088 0.833621 -0.140816
1.258814 0.839744 -0.142729
0.107846 0.781737 -0.041733
0.114113 0.764141 -0.040354
0.117701 0.761548 -0.040398
0.119671 0.768718 -0.041374
0.122220 0.773059 -0.042065
0.125967 0.770516 -0.042072
0.129795 0.767645 -0.042031
0.133461 0.766003 -0.042096
0.137020 0.765309 -0.042240
0.139682 0.771110 -0.043012
0.142752 0.774661 -0.043551
0.145518 0.780991 -0.044356
0.148993 0.782620 -0.044684
0.153143 0.779302 -0.044509
0.157312 0.775844 -0.044308
0.161182 0.774925 -0.044351
0.164700 0.777288 -0.044713
0.168633 0.776233 -0.044725
0.172703 0.773951 -0.044606
0.176771 0.771666 -0.044481
0.180519 0.772729 -0.044686
0.184352 0.773100 -0.044817
0.188060 0.775126 -0.045111
0.191873 0.776192 -0.045306
0.195795 0.776029 -0.045373
0.199650 0.776870 -0.045541
0.203557 0.777111 -0.045646
0.207481 0.777125 -0.045728
0.211361 0.777957 -0.045893
0.215299 0.777815 -0.045959
0.219284 0.776573 -0.045915
0.223241 0.775663 -0.045905
0.227174 0.775111 -0.045933
0.231086 0.774969 -0.046004
0.234951 0.776362 -0.046235
0.238840 0.777079 -0.046399
0.242742 0.777143 -0.046500
0.246620 0.778876 -0.046774
0.250525 0.778485 -0.046834
0.254422 0.777888 -0.046877
0.258308 0.776891 -0.046882
0.262180 0.776125 -0.046914
0.266044 0.775672 -0.046981
0.269868 0.773314 -0.046856
0.273733 0.774208 -0.047070
0.277556 0.773292 -0.047101
0.281585 0.779589 -0.047884
0.285441 0.779359 -0.047995
0.289260 0.778377 -0.048031
0.293110 0.778336 -0.048170
0.297004 0.779292 -0.048417
0.300805 0.778379 -0.048473
0.304739 0.779930 -0.048790
0.308567 0.779612 -0.048917
0.312447 0.780123 -0.049134
0.316334 0.780681 -0.049361
0.320069 0.779224 -0.049379
0.324041 0.780822 -0.049724
0.328037 0.782537 -0.050086
0.331886 0.782448 -0.050261
0.335713 0.782141 -0.050417
0.339555 0.782003 -0.050595
0.343392 0.781822 -0.050772
0.347325 0.782510 -0.051046
0.351210 0.782703 -0.051270
0.355142 0.783256 -0.051538
0.359014 0.783257 -0.051750
0.362743 0.782131 -0.051843
0.366915 0.784376 -0.052305
0.370632 0.783143 -0.052394
0.374743 0.784727 -0.052793
0.378599 0.784450 -0.052993
0.382465 0.784225 -0.053202
0.386328 0.783961 -0.053410
0.390096 0.783096 -0.053555
0.393911 0.782525 -0.053735
0.398121 0.784258 -0.054173
0.402227 0.785273 -0.054536
0.406264 0.785813 -0.054850
0.410389 0.786766 -0.055213
0.414674 0.788468 -0.055664
0.418545 0.787934 -0.055868
0.422459 0.787604 -0.056098
0.426674 0.788716 -0.056493
0.430719 0.788929 -0.056791
0.434507 0.787893 -0.056949
0.438311 0.786939 -0.057120
0.442378 0.787160 -0.057426
0.446930 0.789444 -0.057973
0.451013 0.789594 -0.058278
0.455197 0.790118 -0.058629
0.459312 0.790297 -0.058944
0.463401 0.790325 -0.059244
0.467478 0.790262 -0.059536
0.471532 0.790073 -0.059817
0.475866 0.790917 -0.060220
0.480319 0.792129 -0.060671
0.484054 0.790629 -0.060805
0.488620 0.792128 -0.061296
0.492368 0.790649 -0.061437
0.496508 0.790536 -0.061742
0.501225 0.792356 -0.062280
0.505401 0.792260 -0.062593
0.509309 0.791245 -0.062799
0.513375 0.790734 -0.063066
0.517627 0.790793 -0.063405
0.522792 0.793672 -0.064089
0.527396 0.794689 -0.064552
0.532148 0.796084 -0.065063
0.537919 0.800443 -0.065942
0.541418 0.797934 -0.065983
0.544808 0.795144 -0.065990
0.548656 0.793707 -0.066164
0.552271 0.791617 -0.066259
0.558385 0.796483 -0.067223
0.562104 0.794617 -0.067351
0.565410 0.791649 -0.067341
0.570747 0.794126 -0.068019
0.575367 0.794614 -0.068449
0.579635 0.794138 -0.068761
0.583948 0.793750 -0.069087
0.591328 0.801050 -0.070397
0.598468 0.807521 -0.071611
0.602934 0.807228 -0.071964
0.606759 0.805351 -0.072115
0.609314 0.800454 -0.071876
0.614776 0.802486 -0.072538
0.620910 0.805993 -0.073397
0.624041 0.802471 -0.073342
0.631835 0.809572 -0.074684
0.630147 0.795221 -0.073205
0.633189 0.791645 -0.073143
0.643170 0.803276 -0.075104
0.649352 0.806383 -0.075943
0.652233 0.802334 -0.075829
0.659339 0.807244 -0.076921
0.667466 0.814119 -0.078288
0.671198 0.811749 -0.078412
0.676759 0.813108 -0.079046
0.680721 0.811181 -0.079237
0.681175 0.802285 -0.078474
0.685302 0.800763 -0.078722
0.690454 0.801219 -0.079247
0.695848 0.802088 -0.079834
0.701308 0.803018 -0.080436
0.709375 0.808779 -0.081720
0.714332 0.808590 -0.082181
0.716366 0.802994 -0.081883
0.720736 0.801717 -0.082197
0.726838 0.803532 -0.082954
0.731787 0.803211 -0.083415
0.742600 0.813160 -0.085355
0.755501 0.826478 -0.087798
0.759084 0.823433 -0.087897
0.749240 0.797541 -0.084679
0.756887 0.801608 -0.085807
0.759894 0.797806 -0.085794
0.762467 0.793317 -0.085682
0.797190 0.832248 -0.092581
0.800031 0.827817 -0.092515
0.803203 0.823945 -0.092534
0.807767 0.822277 -0.092888
0.803652 0.807130 -0.091208
0.811252 0.810213 -0.092288
0.817964 0.811829 -0.093156
0.823082 0.810955 -0.093654
0.832453 0.816376 -0.095132
0.836377 0.813598 -0.095355
0.840862 0.811633 -0.095711
0.845564 0.809960 -0.096119
0.852540 0.811511 -0.097042
0.864601 0.820174 -0.099104
0.877579 0.829887 -0.101358
0.892690 0.842308 -0.104072
0.901417 0.845637 -0.105357
0.900556 0.835778 -0.104527
0.903066 0.830587 -0.104451
0.908878 0.829836 -0.105103
0.911286 0.824529 -0.105017
0.913882 0.819500 -0.104980
0.920334 0.819498 -0.105781
0.928102 0.821115 -0.106864
0.935649 0.822346 -0.107899
0.941970 0.821937 -0.108671
0.948707 0.821980 -0.109532
0.956274 0.822976 -0.110569
0.962582 0.822337 -0.111340
0.970536 0.823630 -0.112456
0.977513 0.823651 -0.113365
0.983479 0.822396 -0.114064
0.993467 0.825823 -0.115598
0.999356 0.824334 -0.116279
1.006416 0.824151 -0.117201
1.013210 0.823595 -0.118067
1.022220 0.825486 -0.119385
1.029658 0.825509 -0.120377
1.036683 0.825004 -0.121281
1.045550 0.826468 -0.122556
1.056738 0.830367 -0.124292
1.064630 0.830573 -0.125356
1.071388 0.829504 -0.126185
1.079396 0.829723 -0.127259
1.085924 0.828335 -0.128031
1.093552 0.828067 -0.129013
1.105109 0.831802 -0.130765
1.110637 0.829283 -0.131311
1.118157 0.828790 -0.132241
1.129542 0.832143 -0.133917
1.137018 0.831540 -0.134811
1.144291 0.830731 -0.135652
1.154840 0.833116 -0.137114
1.161009 0.831230 -0.137709
1.173242 0.835177 -0.139457
1.181952 0.835728 -0.140504
1.187088 0.832928 -0.140847
1.192480 0.830437 -0.141222
1.205251 0.834832 -0.142981
1.211327 0.833059 -0.143445
1.216400 0.830445 -0.143700
1.221402 0.827856 -0.143924
1.233052 0.831300 -0.145371
1.239818 0.830416 -0.145880
1.249011 0.831742 -0.146817
0.109917 0.770536 -0.044223
0.113586 0.767261 -0.044216
0.117024 0.765501 -0.044346
0.120222 0.765399 -0.044628
0.123566 0.764737 -0.044838
0.126928 0.764257 -0.045053
0.130323 0.763867 -0.045262
0.133532 0.765000 -0.045613
0.137037 0.764525 -0.045786
0.140322 0.765858 -0.046131
0.143766 0.766449 -0.046388
0.147386 0.766084 -0.046533
0.150495 0.769879 -0.047098
0.154321 0.768562 -0.047121
0.157613 0.771800 -0.047608
0.161352 0.771729 -0.047741
0.165503 0.768241 -0.047507
0.168759 0.772963 -0.048124
0.172442 0.774201 -0.048369
0.176417 0.772784 -0.048329
0.180391 0.771413 -0.048287
0.184070 0.773355 -0.048589
0.187822 0.774810 -0.048836
0.191735 0.774532 -0.048896
0.195610 0.774828 -0.049014
0.199490 0.775183 -0.049136
0.203306 0.776645 -0.049374
0.207217 0.776796 -0.049472
0.211189 0.775915 -0.049461
0.215035 0.777357 -0.049696
0.219024 0.775993 -0.049634
0.222948 0.775818 -0.049699
0.226827 0.776789 -0.049887
0.230768 0.775972 -0.049887
0.234668 0.776283 -0.050010
0.238567 0.776555 -0.050131
0.242463 0.776957 -0.050268
0.246371 0.776321 -0.050297
0.250258 0.776887 -0.050459
0.254146 0.777498 -0.050628
0.258034 0.777193 -0.050703
0.261906 0.775774 -0.050662
0.265766 0.774858 -0.050678
0.269634 0.775307 -0.050845
0.273529 0.777072 -0.051158
0.277430 0.778625 -0.051453
0.281320 0.779415 -0.051670
0.285130 0.777809 -0.051631
0.288972 0.777515 -0.051739
0.292813 0.777310 -0.051860
0.296746 0.779097 -0.052203
0.300632 0.779747 -0.052426
0.304463 0.779390 -0.052544
0.308420 0.781102 -0.052892
0.312243 0.780644 -0.053007
0.316071 0.780317 -0.053141
0.319915 0.780256 -0.053307
0.323936 0.782368 -0.053718
0.327843 0.782939 -0.053964
0.331619 0.782009 -0.054047
0.335452 0.781762 -0.054210
0.339238 0.781063 -0.054327
0.343276 0.782817 -0.054720
0.347182 0.783195 -0.054965
0.351083 0.783480 -0.055204
0.354975 0.783657 -0.055434
0.358886 0.783947 -0.055681
0.362636 0.782940 -0.055785
0.366434 0.782342 -0.055939
0.370648 0.784769 -0.056440
0.374618 0.785300 -0.056729
0.378670 0.786325 -0.057079
0.382416 0.785238 -0.057192
0.386195 0.784405 -0.057337
0.390043 0.784006 -0.057535
0.393945 0.783925 -0.057772
0.397781 0.783429 -0.057965
0.401973 0.784949 -0.058395
0.406057 0.785757 -0.058745
0.410277 0.787219 -0.059176
0.414142 0.786704 -0.059381
0.418105 0.786677 -0.059645
0.421941 0.785982 -0.059834
0.426335 0.788005 -0.060345
0.430505 0.788826 -0.060719
0.433968 0.786274 -0.060698
0.437952 0.786175 -0.060969
0.442289 0.787615 -0.061426
0.446649 0.789054 -0.061887
0.451076 0.790678 -0.062374
0.455031 0.790222 -0.062615
0.459096 0.790191 -0.062910
0.463073 0.789773 -0.063162
0.467190 0.789880 -0.063479
0.471588 0.791030 -0.063926
0.477103 0.796341 -0.064884
0.480861 0.794862 -0.065018
0.485768 0.797603 -0.065672
0.489940 0.797562 -0.065988
0.495669 0.802981 -0.066981
0.499871 0.802872 -0.067297
0.503016 0.799118 -0.067162
0.506602 0.796932 -0.067223
0.509746 0.793318 -0.067106
0.514915 0.796350 -0.067823
0.520360 0.800123 -0.068638
0.526512 0.805956 -0.069718
0.529847 0.802860 -0.069676
0.533777 0.801629 -0.069871
0.538165 0.801768 -0.070242
0.541763 0.799529 -0.070312
0.545624 0.798084 -0.070485
0.551485 0.802360 -0.071396
0.556094 0.802944 -0.071837
0.560599 0.803182 -0.072236
0.561139 0.792513 -0.071220
0.564655 0.790144 -0.071280
0.569459 0.791228 -0.071794
0.575602 0.795752 -0.072763
0.579539 0.794407 -0.072966
0.583549 0.793243 -0.073194
0.595019 0.810853 -0.075918
0.597914 0.806650 -0.075755
0.602256 0.806065 -0.076074
0.607039 0.806521 -0.076537
0.609083 0.800385 -0.076115
0.612468 0.797526 -0.076134
0.617434 0.798379 -0.076657
0.626557 0.808722 -0.078476
0.629117 0.803873 -0.078234
0.627380 0.789478 -0.076681
0.630410 0.785942 -0.076612
0.640198 0.797226 -0.078591
0.649385 0.806898 -0.080362
0.656924 0.812778 -0.081619
0.664913 0.819426 -0.082993
0.669431 0.818642 -0.083337
0.671348 0.812482 -0.082928
0.676127 0.812242 -0.083353
0.681591 0.813344 -0.083973
0.681080 0.802499 -0.082898
0.684817 0.800205 -0.083038
0.689512 0.799782 -0.083449
0.695410 0.801633 -0.084192
0.700417 0.801707 -0.084686
0.708862 0.808192 -0.086116
0.719170 0.817948 -0.088035
0.717624 0.805668 -0.086747
0.721268 0.803040 -0.086868
0.726360 0.803023 -0.087377
0.732091 0.804098 -0.088054
0.745053 0.817817 -0.090621
0.752975 0.822425 -0.091849
0.758995 0.823614 -0.092577
0.759011 0.814500 -0.091760
0.757974 0.803753 -0.090692
0.760312 0.798809 -0.090499
0.768385 0.803379 -0.091759
0.782855 0.818251 -0.094614
0.791991 0.824143 -0.096113
0.791116 0.813845 -0.095122
0.796307 0.813308 -0.095643
0.808732 0.824063 -0.097935
0.804689 0.808999 -0.096200
0.812746 0.812761 -0.097420
0.818134 0.812334 -0.097991
0.823660 0.812065 -0.098595
0.831668 0.815440 -0.099792
0.837125 0.814925 -0.100379
0.840418 0.811202 -0.100456
0.845724 0.810400 -0.101012
0.853887 0.813642 -0.102237
0.862561 0.817480 -0.103575
0.871193 0.821120 -0.104899
0.888406 0.836542 -0.108191
0.894479 0.836274 -0.108909
0.895278 0.828757 -0.108425
0.899589 0.826057 -0.108750
0.903001 0.822139 -0.108876
0.908766 0.821340 -0.109537
0.915187 0.821345 -0.110348
0.921436 0.821056 -0.111120
0.929339 0.822824 -0.112260
0.934310 0.820758 -0.112749
0.942539 0.822761 -0.113959
0.948993 0.822439 -0.114777
0.956608 0.823484 -0.115849
0.963220 0.823207 -0.116700
0.969940 0.822991 -0.117575
0.977306 0.823482 -0.118589
0.984837 0.824084 -0.119637
0.992654 0.824938 -0.120745
0.998688 0.823623 -0.121468
1.005147 0.822752 -0.122282
1.013775 0.824304 -0.123555
1.022704 0.826098 -0.124887
1.029520 0.825418 -0.125767
1.035919 0.824220 -0.126557
1.044876 0.825793 -0.127880
1.056001 0.829634 -0.129648
1.062918 0.828802 -0.130531
1.070799 0.828957 -0.131607
1.077226 0.827516 -0.132375
1.084786 0.827241 -0.133371
1.096675 0.831420 -0.135246
1.104987 0.831800 -0.136373
1.111219 0.830015 -0.137065
1.123904 0.834748 -0.139058
1.129562 0.832337 -0.139609
1.136405 0.831126 -0.140387
1.144465 0.831118 -0.141396
1.152867 0.831436 -0.142458
1.161618 0.832083 -0.143571
1.169854 0.832232 -0.144563
1.182543 0.836612 -0.146418
1.189855 0.835881 -0.147183
1.196492 0.834559 -0.147796
1.203619 0.833744 -0.148485
1.210324 0.832591 -0.149070
1.215188 0.829829 -0.149276
1.222407 0.829281 -0.149920
1.225938 0.825496 -0.149830
1.232511 0.824526 -0.150308
1.244730 0.828601 -0.151844
0.111168 0.763904 -0.047087
0.113805 0.766209 -0.047662
0.117213 0.764487 -0.047799
0.120589 0.763200 -0.047966
0.123734 0.763579 -0.048294
0.127071 0.763109 -0.048518
0.130207 0.764226 -0.048897
0.133284 0.766113 -0.049344
0.136493 0.767537 -0.049729
0.140125 0.766445 -0.049830
0.143639 0.766434 -0.050033
0.146798 0.769350 -0.050540
0.150533 0.768364 -0.050613
0.153678 0.772258 -0.051204
0.157319 0.772646 -0.051404
0.161057 0.772517 -0.051537
0.165418 0.767108 -0.051084
0.168908 0.769503 -0.051473
0.172183 0.774421 -0.052132
0.175930 0.775226 -0.052334
0.180068 0.772155 -0.052104
0.183755 0.773969 -0.052405
0.187610 0.774159 -0.052523
0.191488 0.774210 -0.052622
0.195286 0.775443 -0.052848
0.199137 0.776194 -0.053018
0.203192 0.774023 -0.052863
0.207006 0.775529 -0.053114
0.210970 0.774671 -0.053103
0.214795 0.776353 -0.053373
0.218686 0.776984 -0.053527
0.222586 0.777492 -0.053668
0.226515 0.777314 -0.053735
0.230434 0.777304 -0.053822
0.234365 0.776714 -0.053846
0.238265 0.777115 -0.053983
0.242171 0.777132 -0.054080
0.246070 0.777410 -0.054209
0.249973 0.776929 -0.054257
0.253861 0.778180 -0.054502
0.257756 0.779187 -0.054723
0.261645 0.778564 -0.054765
0.265524 0.777948 -0.054811
0.269413 0.778644 -0.055009
0.273283 0.778284 -0.055092
0.277148 0.778041 -0.055193
0.281010 0.777935 -0.055313
0.284897 0.778678 -0.055533
0.288699 0.777165 -0.055502
0.292583 0.777923 -0.055732
0.296505 0.779384 -0.056047
0.300391 0.779950 -0.056265
0.304250 0.779997 -0.056428
0.308120 0.780256 -0.056620
0.312012 0.780832 -0.056852
0.315860 0.780735 -0.057012
0.319727 0.780918 -0.057208
0.323649 0.781757 -0.057484
0.327587 0.782686 -0.057775
0.331479 0.783019 -0.058001
0.335054 0.780001 -0.057844
0.339098 0.781930 -0.058264
0.343072 0.783013 -0.058590
0.346983 0.783412 -0.058841
0.350816 0.783085 -0.059012
0.354789 0.783929 -0.059323
0.358787 0.784902 -0.059654
0.362665 0.784844 -0.059868
0.366309 0.783002 -0.059876
0.370520 0.785378 -0.060384
0.374396 0.785216 -0.060598
0.378300 0.785227 -0.060835
0.382197 0.785165 -0.061067
0.386011 0.784539 -0.061236
0.390061 0.785383 -0.061584
0.393887 0.784797 -0.061764
0.397855 0.785042 -0.062047
0.401986 0.786165 -0.062440
0.405973 0.786401 -0.062729
0.409831 0.785888 -0.062932
0.413745 0.785655 -0.063171
0.417881 0.786542 -0.063550
0.421513 0.784820 -0.063614
0.425691 0.785814 -0.064013
0.430200 0.788304 -0.064599
0.434706 0.790630 -0.065170
0.438623 0.790124 -0.065396
0.443441 0.793630 -0.066122
0.446257 0.788184 -0.065741
0.450713 0.789953 -0.066258
0.454768 0.789929 -0.066556
0.458752 0.789569 -0.066814
0.463095 0.790637 -0.067255
0.468833 0.797130 -0.068382
0.473725 0.800055 -0.069067
0.479643 0.806733 -0.070232
0.483991 0.807264 -0.070624
0.487016 0.802883 -0.070393
0.490814 0.801404 -0.070533
0.494932 0.801066 -0.070821
0.500032 0.804106 -0.071546
0.502740 0.798838 -0.071204
0.505679 0.794485 -0.070979
0.508955 0.791346 -0.070911
0.513880 0.793621 -0.071549
0.525780 0.818051 -0.075087
0.527489 0.809644 -0.074343
0.530975 0.806956 -0.074347
0.534837 0.805454 -0.074508
0.536865 0.798460 -0.073944
0.538542 0.790605 -0.073262
0.544094 0.794207 -0.074103
0.547790 0.792350 -0.074221
0.557523 0.807536 -0.076625
0.561279 0.805625 -0.076746
0.561412 0.793802 -0.075529
0.564106 0.789193 -0.075282
0.569886 0.792890 -0.076163
0.575091 0.794932 -0.076824
0.579277 0.794241 -0.077117
0.585320 0.798272 -0.078061
0.593133 0.806612 -0.079605
0.596547 0.803756 -0.079613
0.597820 0.795683 -0.078897
0.600849 0.792030 -0.078793
0.605301 0.791833 -0.079171
0.610786 0.794035 -0.079889
0.617722 0.799520 -0.081075
0.625737 0.807306 -0.082594
0.631499 0.809742 -0.083368
0.630254 0.796367 -0.081899
0.632286 0.790537 -0.081497
0.641935 0.801466 -0.083493
0.650808 0.810412 -0.085221
0.658581 0.816753 -0.086586
0.663541 0.816967 -0.087074
0.668023 0.816138 -0.087416
0.673906 0.818170 -0.088179
0.681864 0.824334 -0.089554
0.675912 0.802329 -0.086799
0.680679 0.802100 -0.087239
0.684147 0.799280 -0.087299
0.689497 0.800139 -0.087908
0.694579 0.800419 -0.088437
0.703122 0.807223 -0.089950
0.709953 0.810614 -0.090962
0.718068 0.816271 -0.092327
0.719938 0.810280 -0.091937
0.721297 0.803445 -0.091418
0.727037 0.804587 -0.092116
0.732343 0.804884 -0.092693
0.740507 0.810158 -0.094043
0.747961 0.814032 -0.095190
0.754424 0.816070 -0.096063
0.759075 0.814927 -0.096450
0.760554 0.808409 -0.096000
0.762198 0.802252 -0.095605
0.773384 0.811925 -0.097712
0.780765 0.815128 -0.098814
0.790335 0.821750 -0.100473
0.790591 0.813281 -0.099731
0.797045 0.814745 -0.100585
0.802903 0.815189 -0.101285
0.805347 0.810271 -0.101123
0.811796 0.811548 -0.101974
0.817966 0.812317 -0.102752
0.823135 0.811506 -0.103282
0.832020 0.816188 -0.104729
0.839917 0.819261 -0.105926
0.843430 0.815808 -0.106047
0.849936 0.816691 -0.106901
0.856039 0.816914 -0.107657
0.861488 0.816144 -0.108255
0.867209 0.815707 -0.108920
0.878098 0.822393 -0.110816
0.886622 0.825629 -0.112142
0.889634 0.821225 -0.112161
0.893545 0.818053 -0.112400
0.900033 0.818314 -0.113246
0.906083 0.817922 -0.113989
0.911027 0.816021 -0.114478
0.923618 0.824002 -0.116734
0.929487 0.823124 -0.117433
0.935038 0.821786 -0.118061
0.942301 0.822558 -0.119081
0.949165 0.822744 -0.120009
0.955275 0.821921 -0.120765
0.962387 0.822265 -0.121748
0.969478 0.822504 -0.122725
0.977271 0.823508 -0.123857
0.984729 0.824020 -0.124912
0.991766 0.823952 -0.125872
0.998360 0.823298 -0.126731
1.005464 0.823172 -0.127702
1.014091 0.824719 -0.129004
1.022542 0.825967 -0.130262
1.029711 0.825686 -0.131235
1.036379 0.824786 -0.132096
1.043742 0.824604 -0.133103
1.050917 0.824159 -0.134064
1.060957 0.826754 -0.135635
1.067802 0.825831 -0.136512
1.076579 0.826916 -0.137793
1.083296 0.825773 -0.138626
1.096875 0.831736 -0.140906
1.104670 0.831595 -0.141944
1.113660 0.832640 -0.143222
1.121133 0.832105 -0.144168
1.129360 0.832310 -0.145258
1.136629 0.831543 -0.146133
1.146688 0.833521 -0.147572
1.153409 0.832208 -0.148300
1.160212 0.830998 -0.149029
1.172255 0.834829 -0.150817
1.180234 0.834754 -0.151747
1.188196 0.834684 -0.152653
1.197042 0.835467 -0.153717
1.203811 0.834350 -0.154337
1.210517 0.833231 -0.154923
1.218532 0.833365 -0.155751
1.223140 0.830473 -0.155873
1.229764 0.829484 -0.156379
1.233237 0.825771 -0.156238
1.254083 0.837478 -0.159507
0.112174 0.758659 -0.050038
0.114266 0.763835 -0.050947
0.117109 0.765215 -0.051428
0.120211 0.765450 -0.051770
0.123702 0.763674 -0.051874
0.126623 0.765670 -0.052381
0.130016 0.765098 -0.052588
0.133210 0.766126 -0.052959
0.136375 0.767723 -0.053380
0.139969 0.766773 -0.053501
0.143484 0.766650 -0.053702
0.146923 0.767377 -0.053984
0.150213 0.769596 -0.054423
0.153728 0.770490 -0.054701
0.157119 0.772751 -0.055122
0.161418 0.767746 -0.054708
0.164884 0.769947 -0.055102
0.168367 0.772418 -0.055518
0.171992 0.773977 -0.055823
0.175753 0.774525 -0.056004
0.179759 0.772735 -0.055912
0.183587 0.772914 -0.056038
0.187412 0.773310 -0.056185
0.191263 0.773587 -0.056313
0.195113 0.774019 -0.056456
0.199040 0.773533 -0.056490
0.202980 0.772879 -0.056503
0.206631 0.776896 -0.057052
0.210537 0.777141 -0.057166
0.214507 0.776202 -0.057143
0.218375 0.777286 -0.057354
0.222279 0.777720 -0.057490
0.226235 0.776847 -0.057477
0.230149 0.776920 -0.057574
0.234035 0.777930 -0.057783
0.237962 0.777430 -0.057818
0.241867 0.777699 -0.057945
0.245780 0.777212 -0.057987
0.249668 0.778635 -0.058255
0.253570 0.778630 -0.058360
0.257467 0.777282 -0.058311
0.261359 0.778314 -0.058544
0.265248 0.778472 -0.058679
0.269134 0.778640 -0.058819
0.272996 0.777793 -0.058844
0.276831 0.776300 -0.058797
0.280724 0.777399 -0.059058
0.284603 0.777921 -0.059256
0.288446 0.777472 -0.059344
0.292313 0.777751 -0.059523
0.296209 0.778637 -0.059777
0.300099 0.779299 -0.060010
0.303978 0.779706 -0.060217
0.307837 0.779754 -0.060386
0.311722 0.780221 -0.060609
0.315524 0.779487 -0.060693
0.319523 0.781435 -0.061102
0.323383 0.781452 -0.061285
0.327395 0.783243 -0.061686
0.331048 0.780872 -0.061591
0.334918 0.781028 -0.061803
0.338715 0.780420 -0.061927
0.342964 0.784176 -0.062584
0.346845 0.784236 -0.062798
0.350598 0.783143 -0.062876
0.354398 0.782520 -0.063015
0.358476 0.784172 -0.063435
0.362192 0.782862 -0.063498
0.366717 0.787708 -0.064319
0.370427 0.786273 -0.064375
0.374256 0.785743 -0.064545
0.378030 0.784838 -0.064672
0.381951 0.784935 -0.064927
0.386032 0.786015 -0.065307
0.389976 0.786146 -0.065573
0.394224 0.788074 -0.066067
0.398305 0.788882 -0.066426
0.402301 0.789130 -0.066719
0.407051 0.793512 -0.067535
0.410723 0.791800 -0.067590
0.414823 0.792396 -0.067938
0.418300 0.789724 -0.067877
0.422419 0.790361 -0.068237
0.426439 0.790444 -0.068531
0.430989 0.793026 -0.069146
0.435969 0.797463 -0.070004
0.440649 0.800293 -0.070662
0.444559 0.799512 -0.070861
0.446083 0.788278 -0.069715
0.450154 0.788395 -0.070032
0.454407 0.789228 -0.070445
0.458506 0.789357 -0.070769
0.463280 0.792163 -0.071446
0.467982 0.794535 -0.072072
0.472623 0.796539 -0.072653
0.478943 0.804818 -0.074065
0.486933 0.818990 -0.076264
0.488411 0.808720 -0.075243
0.489702 0.798103 -0.074170
0.494824 0.801375 -0.074941
0.498005 0.797743 -0.074796
0.500158 0.790685 -0.074192
0.501919 0.782510 -0.073435
0.507409 0.786882 -0.074365
0.513307 0.792391 -0.075455
0.523606 0.811747 -0.078430
0.526997 0.808722 -0.078381
0.530368 0.805689 -0.078330
0.533192 0.801046 -0.078060
0.535468 0.794862 -0.077577
0.540004 0.795498 -0.078031
0.542251 0.789420 -0.077561
0.546441 0.789047 -0.077880
0.553649 0.797165 -0.079382
0.561526 0.806868 -0.081116
0.565306 0.805018 -0.081244
0.564567 0.790969 -0.079660
0.569952 0.793591 -0.080416
0.574696 0.794415 -0.080924
0.580274 0.797338 -0.081733
0.585110 0.798245 -0.082261
0.592855 0.806421 -0.083832
0.589893 0.787707 -0.081560
0.596996 0.794149 -0.082891
0.600664 0.792065 -0.083002
0.606828 0.795958 -0.083979
0.612234 0.797922 -0.084684
0.617247 0.798883 -0.085249
0.624249 0.804349 -0.086477
0.629825 0.806400 -0.087213
0.632064 0.800876 -0.086840
0.634202 0.795220 -0.086445
0.642748 0.803684 -0.088143
0.651560 0.812475 -0.089904
0.657115 0.814059 -0.090601
0.660539 0.811065 -0.090618
0.666733 0.813873 -0.091510
0.674662 0.820147 -0.092933
0.682242 0.825520 -0.094231
0.680049 0.811054 -0.092520
0.678890 0.798935 -0.091157
0.682481 0.796390 -0.091253
0.688896 0.799351 -0.092199
0.694625 0.800882 -0.092933
0.699579 0.800860 -0.093433
0.711095 0.813127 -0.095854
0.716887 0.814439 -0.096582
0.719721 0.810234 -0.096451
0.721927 0.804935 -0.096149
0.726604 0.804147 -0.096561
0.731293 0.803349 -0.096976
0.746292 0.820666 -0.100288
0.747121 0.812893 -0.099609
0.753421 0.814660 -0.100462
0.758648 0.814508 -0.101014
0.763569 0.813795 -0.101483
0.764220 0.805918 -0.100791
0.770115 0.806815 -0.101531
0.779904 0.814002 -0.103315
0.792345 0.825279 -0.105792
0.797686 0.824903 -0.106362
0.795234 0.812135 -0.104877
0.797823 0.807477 -0.104738
0.804815 0.809689 -0.105756
0.809124 0.807679 -0.106073
0.817083 0.811203 -0.107336
0.821976 0.809982 -0.107805
0.831319 0.815358 -0.109412
0.841819 0.822274 -0.111303
0.845621 0.819207 -0.111490
0.848663 0.815040 -0.111491
0.854937 0.815520 -0.112308
0.861038 0.815682 -0.113081
0.867084 0.815699 -0.113840
0.873592 0.816292 -0.114713
0.880257 0.817024 -0.115624
0.889443 0.821109 -0.117148
0.894433 0.819385 -0.117647
0.898327 0.816164 -0.117884
0.904353 0.815755 -0.118639
0.913048 0.818780 -0.120033
0.924382 0.825099 -0.122053
0.929799 0.823623 -0.122657
0.934581 0.821296 -0.123113
0.940901 0.820879 -0.123934
0.947734 0.821037 -0.124876
0.954695 0.821276 -0.125847
0.961686 0.821474 -0.126823
0.967912 0.820668 -0.127621
0.976066 0.822118 -0.128864
0.984024 0.823234 -0.130057
0.991088 0.823204 -0.131043
0.998829 0.823891 -0.132181
1.006102 0.823953 -0.133208
1.013546 0.824140 -0.134271
1.019944 0.823070 -0.135093
1.030795 0.826946 -0.136915
1.036995 0.825518 -0.137684
1.044288 0.825256 -0.138693
1.052642 0.826093 -0.139932
1.060233 0.826035 -0.140995
1.067843 0.825944 -0.142053
1.077530 0.828003 -0.143561
1.088765 0.831600 -0.145395
1.097064 0.832036 -0.146572
1.106694 0.833797 -0.148026
1.113809 0.832929 -0.148919
1.120004 0.831120 -0.149601
1.128715 0.831840 -0.150813
1.136897 0.832008 -0.151894
1.147623 0.834663 -0.153503
1.154575 0.833593 -0.154285
1.160787 0.831830 -0.154892
1.167198 0.830297 -0.155524
1.175843 0.830928 -0.156610
1.183156 0.830315 -0.157393
1.196316 0.835195 -0.159378
1.204578 0.835497 -0.160311
1.210290 0.833497 -0.160691
1.217720 0.833136 -0.161405
1.228611 0.835955 -0.162809
1.232254 0.832294 -0.162698
1.248240 0.839712 -0.165087
1.264895 0.847669 -0.167573
0.110662 0.767397 -0.054523
0.114119 0.764932 -0.054601
0.116780 0.767283 -0.055212
0.119878 0.767479 -0.055563
0.123223 0.766514 -0.055765
0.126535 0.766042 -0.056008
0.129612 0.767367 -0.056444
0.132915 0.767618 -0.056742
0.136361 0.767250 -0.056952
0.139862 0.766803 -0.057138
0.143360 0.766670 -0.057347
0.146694 0.768049 -0.057719
0.150143 0.768957 -0.058023
0.153577 0.770344 -0.058371
0.157160 0.770898 -0.058610
0.160642 0.772634 -0.058977
0.164555 0.770976 -0.058932
0.168553 0.768653 -0.058798
0.171878 0.772808 -0.059424
0.175641 0.773177 -0.059593
0.179564 0.772099 -0.059582
0.183413 0.771926 -0.059672
0.187196 0.772670 -0.059866
0.191053 0.772751 -0.059976
0.194855 0.773685 -0.060184
0.198719 0.774011 -0.060317
0.202567 0.774701 -0.060490
0.206448 0.775061 -0.060622
0.210264 0.776681 -0.060905
0.214172 0.776868 -0.061015
0.218081 0.777103 -0.061130
0.222027 0.776519 -0.061148
0.225900 0.777703 -0.061379
0.229802 0.778254 -0.061536
0.233749 0.777333 -0.061517
0.237661 0.777445 -0.061625
0.241564 0.777831 -0.061769
0.245446 0.779809 -0.062107
0.249372 0.778510 -0.062053
0.253277 0.778291 -0.062132
0.257174 0.775921 -0.061954
0.261060 0.776600 -0.062149
0.264959 0.778340 -0.062478
0.268842 0.778195 -0.062581
0.272717 0.777948 -0.062676
0.276535 0.775585 -0.062516
0.280396 0.775630 -0.062654
0.284303 0.777142 -0.062976
0.288173 0.777421 -0.063152
0.292017 0.777095 -0.063258
0.295913 0.777990 -0.063519
0.299855 0.779654 -0.063879
0.303708 0.779535 -0.064024
0.307632 0.780595 -0.064319
0.311469 0.780243 -0.064444
0.315367 0.780813 -0.064688
0.318960 0.777312 -0.064431
0.323210 0.782365 -0.065241
0.327029 0.781820 -0.065360
0.330869 0.781564 -0.065520
0.334738 0.781636 -0.065724
0.338727 0.782907 -0.066083
0.342786 0.784724 -0.066516
0.346747 0.785460 -0.066818
0.350776 0.786734 -0.067192
0.354750 0.787416 -0.067496
0.358414 0.785504 -0.067476
0.363108 0.791774 -0.068498
0.367934 0.798577 -0.069595
0.372151 0.800447 -0.070071
0.375595 0.796710 -0.069835
0.378787 0.791477 -0.069410
0.382592 0.790584 -0.069543
0.386087 0.787730 -0.069427
0.389835 0.786585 -0.069533
0.394462 0.790786 -0.070333
0.399076 0.794639 -0.071095
0.403448 0.796863 -0.071651
0.407053 0.794677 -0.071638
0.411008 0.794461 -0.071884
0.415270 0.795836 -0.072342
0.419220 0.795504 -0.072580
0.422960 0.794095 -0.072680
0.426598 0.792217 -0.072720
0.431033 0.794203 -0.073274
0.435563 0.796506 -0.073874
0.440276 0.799507 -0.074573
0.443950 0.797684 -0.074633
0.445819 0.787987 -0.073643
0.450130 0.789137 -0.074103
0.453968 0.788213 -0.074288
0.458279 0.789230 -0.074737
0.463313 0.793090 -0.075575
0.466950 0.791231 -0.075643
0.471401 0.792559 -0.076147
0.475724 0.793314 -0.076576
0.480778 0.796730 -0.077373
0.484077 0.793541 -0.077270
0.487376 0.790428 -0.077178
0.493190 0.796287 -0.078324
0.497898 0.798055 -0.078912
0.496655 0.779373 -0.076666
0.500323 0.777793 -0.076788
0.510562 0.797941 -0.079946
0.517142 0.805490 -0.081359
0.518815 0.797064 -0.080538
0.524456 0.801353 -0.081504
0.528242 0.799721 -0.081640
0.531303 0.795889 -0.081466
0.535561 0.795729 -0.081813
0.540523 0.797614 -0.082456
0.544908 0.797719 -0.082848
0.548362 0.795114 -0.082855
0.555444 0.802794 -0.084344
0.561484 0.807306 -0.085385
0.562485 0.797826 -0.084406
0.564661 0.791754 -0.083916
0.569390 0.792617 -0.084436
0.574043 0.793219 -0.084922
0.579207 0.795088 -0.085598
0.584732 0.797788 -0.086401
0.587057 0.792302 -0.086001
0.592387 0.794403 -0.086724
0.596234 0.792764 -0.086896
0.601906 0.795553 -0.087731
0.606725 0.796187 -0.088250
0.611502 0.796665 -0.088750
0.616397 0.797366 -0.089288
0.622963 0.801854 -0.090403
0.627042 0.800534 -0.090646
0.629512 0.795597 -0.090339
0.632063 0.790921 -0.090071
0.639666 0.797376 -0.091512
0.646082 0.801066 -0.092537
0.655067 0.810115 -0.094400
0.657250 0.804544 -0.094009
0.661776 0.803952 -0.094392
0.670778 0.812556 -0.096216
0.676727 0.814697 -0.097041
0.680519 0.812400 -0.097175
0.681816 0.805147 -0.096529
0.682479 0.796768 -0.095700
0.689719 0.801326 -0.096927
0.694904 0.801788 -0.097510
0.699857 0.801752 -0.098020
0.708090 0.807839 -0.099521
0.715456 0.812133 -0.100746
0.718933 0.809135 -0.100799
0.721753 0.804959 -0.100663
0.725921 0.803251 -0.100932
0.730212 0.801751 -0.101239
0.745636 0.819838 -0.104782
0.749705 0.817710 -0.105008
0.750048 0.809156 -0.104170
0.754981 0.808558 -0.104656
0.761044 0.809830 -0.105463
0.764194 0.806160 -0.105447
0.770203 0.807238 -0.106237
0.774562 0.805543 -0.106565
0.781113 0.807377 -0.107502
0.790405 0.813508 -0.109185
0.794002 0.810434 -0.109303
0.796200 0.805172 -0.109048
0.804599 0.809588 -0.110473
0.809216 0.808047 -0.110876
0.815930 0.809668 -0.111841
0.821605 0.809634 -0.112527
0.831470 0.815787 -0.114317
0.839742 0.819406 -0.115677
0.843775 0.816700 -0.115925
0.846402 0.811949 -0.115813
0.853508 0.813646 -0.116866
0.860135 0.814566 -0.117793
0.868046 0.817205 -0.119046
0.875302 0.818817 -0.120128
0.880620 0.817663 -0.120716
0.891239 0.823689 -0.122641
0.900115 0.827177 -0.124119
0.900481 0.819156 -0.123467
0.907089 0.819482 -0.124379
0.912162 0.817720 -0.124911
0.917649 0.816458 -0.125547
0.929092 0.822802 -0.127645
0.934109 0.820775 -0.128164
0.941272 0.821418 -0.129207
0.947258 0.820509 -0.129963
0.955141 0.821887 -0.131177
0.961587 0.821408 -0.132042
0.967749 0.820521 -0.132839
0.974818 0.820666 -0.133851
0.982685 0.821684 -0.135051
0.990942 0.823070 -0.136339
0.997957 0.822910 -0.137329
1.007259 0.825323 -0.138853
1.014241 0.824968 -0.139828
1.021486 0.824850 -0.140860
1.030113 0.826218 -0.142208
1.036412 0.824909 -0.143010
1.045449 0.826576 -0.144439
1.051784 0.825208 -0.145239
1.061700 0.827675 -0.146852
1.068252 0.826446 -0.147686
1.082591 0.833437 -0.150280
1.089147 0.832089 -0.151093
1.097843 0.832948 -0.152379
1.104527 0.831686 -0.153199
1.111081 0.830283 -0.153979
1.120961 0.832242 -0.155488
1.129663 0.832967 -0.156717
1.137369 0.832678 -0.157707
1.147855 0.835120 -0.159294
1.154116 0.833400 -0.159929
1.159459 0.830830 -0.160347
1.165076 0.828579 -0.160809
1.175612 0.831054 -0.162321
1.183543 0.831059 -0.163244
1.196294 0.835591 -0.165181
1.203224 0.834697 -0.165839
1.209751 0.833489 -0.166388
1.216238 0.832311 -0.166907
1.226440 0.834557 -0.168190
1.237412 0.837512 -0.169607
1.248636 0.840705 -0.171045
1.246773 0.832368 -0.169718
0.111436 0.763526 -0.057592
0.113739 0.767403 -0.058420
0.116687 0.768033 -0.058851
0.120067 0.766464 -0.059005
0.123413 0.765355 -0.059197
0.126543 0.765859 -0.059567
0.129673 0.766722 -0.059966
0.132733 0.768412 -0.060449
0.136115 0.768369 -0.060708
0.139799 0.766565 -0.060739
0.143068 0.767928 -0.061139
0.146209 0.770635 -0.061690
0.149673 0.771386 -0.061989
0.153383 0.770559 -0.062083
0.156911 0.771449 -0.062374
0.161012 0.767841 -0.062101
0.164834 0.766682 -0.062117
0.168054 0.771184 -0.062820
0.171753 0.771758 -0.063030
0.175368 0.773453 -0.063370
0.179339 0.771782 -0.063287
0.183195 0.771417 -0.063358
0.186804 0.774070 -0.063797
0.190720 0.773418 -0.063821
0.194637 0.772812 -0.063846
0.198408 0.774291 -0.064127
0.202316 0.774036 -0.064189
0.206171 0.774708 -0.064365
0.210034 0.775425 -0.064545
0.213899 0.776280 -0.064741
0.217796 0.776668 -0.064879
0.221706 0.776849 -0.064991
0.225458 0.781202 -0.065626
0.229401 0.781046 -0.065698
0.233374 0.779732 -0.065627
0.237366 0.776951 -0.065374
0.241209 0.780464 -0.065913
0.245117 0.781550 -0.066150
0.249036 0.782078 -0.066320
0.252949 0.784231 -0.066699
0.256877 0.782876 -0.066639
0.260780 0.779914 -0.066379
0.264674 0.779253 -0.066413
0.268582 0.780370 -0.066676
0.272549 0.784239 -0.067292
0.276350 0.779784 -0.066858
0.280371 0.784594 -0.067602
0.284296 0.785325 -0.067834
0.288293 0.787822 -0.068296
0.292144 0.786454 -0.068270
0.295851 0.782375 -0.067903
0.300067 0.788849 -0.068887
0.303650 0.783166 -0.068322
0.307621 0.784691 -0.068683
0.311711 0.787805 -0.069254
0.315710 0.789257 -0.069617
0.319553 0.788475 -0.069697
0.323162 0.784901 -0.069421
0.326692 0.780783 -0.069078
0.330610 0.781422 -0.069353
0.334637 0.783147 -0.069774
0.338558 0.783632 -0.070039
0.342382 0.783132 -0.070180
0.346573 0.786047 -0.070771
0.350311 0.784704 -0.070811
0.353973 0.782801 -0.070782
0.358130 0.785071 -0.071303
0.363033 0.792992 -0.072573
0.367569 0.797549 -0.073409
0.371265 0.795636 -0.073396
0.375026 0.794283 -0.073460
0.379488 0.797776 -0.074171
0.382565 0.791861 -0.073636
0.386033 0.788774 -0.073478
0.389860 0.788083 -0.073643
0.394246 0.790777 -0.074265
0.399392 0.797755 -0.075468
0.403261 0.797015 -0.075640
0.406653 0.793626 -0.075457
0.409887 0.789522 -0.075180
0.414701 0.793937 -0.076058
0.418813 0.794478 -0.076417
0.422988 0.795277 -0.076814
0.426443 0.792463 -0.076722
0.430888 0.794489 -0.077295
0.435434 0.796856 -0.077919
0.439937 0.798885 -0.078503
0.442797 0.793425 -0.078056
0.445665 0.788188 -0.077640
0.449452 0.787079 -0.077796
0.454145 0.789790 -0.078487
0.457848 0.788269 -0.078592
0.462009 0.788624 -0.078962
0.466512 0.790278 -0.079518
0.470408 0.789468 -0.079731
0.474563 0.789638 -0.080085
0.478261 0.788055 -0.080195
0.482225 0.787463 -0.080446
0.486745 0.788858 -0.080984
0.491114 0.789629 -0.081437
0.496962 0.795483 -0.082621
0.498274 0.785573 -0.081549
0.505597 0.796181 -0.083428
0.512526 0.805087 -0.085073
0.514998 0.785483 -0.082957
0.520121 0.788330 -0.083735
0.526010 0.793418 -0.084846
0.530458 0.793912 -0.085291
0.535474 0.796058 -0.085983
0.541161 0.800081 -0.086957
0.546305 0.802362 -0.087680
0.550453 0.801678 -0.087968
0.555375 0.803161 -0.088582
0.560375 0.804776 -0.089220
0.561280 0.795063 -0.088164
0.564451 0.791718 -0.088060
0.568918 0.791886 -0.088487
0.573624 0.792636 -0.089005
0.578690 0.794260 -0.089661
0.584435 0.797535 -0.090573
0.589157 0.798102 -0.091077
0.592141 0.794283 -0.090914
0.596156 0.793060 -0.091149
0.602187 0.796715 -0.092141
0.606128 0.795234 -0.092344
0.611916 0.798112 -0.093227
0.615281 0.795225 -0.093218
0.621331 0.798553 -0.094183
0.627285 0.801538 -0.095101
0.630837 0.799014 -0.095159
0.632587 0.792516 -0.094590
0.635086 0.787774 -0.094297
0.643725 0.796394 -0.096131
0.649327 0.798269 -0.096901
0.660951 0.812777 -0.099704
0.664448 0.809938 -0.099736
0.666125 0.803368 -0.099168
0.673433 0.808386 -0.100476
0.680078 0.811906 -0.101551
0.683226 0.808340 -0.101478
0.683777 0.799698 -0.100575
0.688487 0.799301 -0.101023
0.694450 0.801278 -0.101869
0.699454 0.801343 -0.102405
0.707300 0.806708 -0.103830
0.715144 0.811902 -0.105239
0.719137 0.809852 -0.105447
0.722003 0.805747 -0.105312
0.725965 0.803656 -0.105520
0.731088 0.803631 -0.106082
0.735741 0.802729 -0.106501
0.741231 0.803254 -0.107171
0.751122 0.811307 -0.109141
0.750231 0.800750 -0.107921
0.754004 0.798235 -0.108087
0.763800 0.805781 -0.110005
0.768610 0.804876 -0.110468
0.775154 0.806774 -0.111429
0.782522 0.809913 -0.112621
0.787626 0.809307 -0.113163
0.795596 0.813201 -0.114513
0.800687 0.812444 -0.115049
0.805477 0.811176 -0.115501
0.810653 0.810472 -0.116063
0.816965 0.811452 -0.116938
0.822297 0.810877 -0.117542
0.829514 0.813065 -0.118661
0.836267 0.814465 -0.119649
0.843424 0.816364 -0.120742
0.848063 0.814521 -0.121158
0.852881 0.812908 -0.121624
0.860914 0.815823 -0.122945
0.867146 0.816087 -0.123786
0.873614 0.816608 -0.124688
0.880905 0.818185 -0.125803
0.891068 0.823578 -0.127662
0.902695 0.830773 -0.129889
0.905934 0.826548 -0.129944
0.905912 0.818022 -0.129170
0.911772 0.817298 -0.129911
0.920742 0.820553 -0.131443
0.929667 0.823616 -0.132957
0.934224 0.820989 -0.133365
0.940502 0.820510 -0.134208
0.947786 0.821222 -0.135302
0.955516 0.822400 -0.136505
0.961778 0.821686 -0.137340
0.968801 0.821834 -0.138363
0.974415 0.820217 -0.139037
0.983978 0.823252 -0.140678
0.990826 0.822963 -0.141649
0.997496 0.822400 -0.142574
1.006242 0.824175 -0.143998
1.014285 0.825045 -0.145247
1.022339 0.825843 -0.146491
1.028654 0.824610 -0.147314
1.037388 0.826025 -0.148708
1.044252 0.825296 -0.149650
1.052080 0.825574 -0.150813
1.061048 0.827023 -0.152236
1.068194 0.826446 -0.153221
1.077332 0.827942 -0.154661
1.090807 0.833916 -0.157099
1.096244 0.831388 -0.157649
1.102053 0.829257 -0.158277
1.112727 0.832099 -0.160014
1.122510 0.833966 -0.161527
1.128329 0.831813 -0.162114
1.137201 0.832718 -0.163384
1.145110 0.832654 -0.164414
1.153360 0.832925 -0.165502
1.159277 0.830946 -0.166045
1.165029 0.828856 -0.166533
1.172790 0.828731 -0.167451
1.185684 0.833465 -0.169489
1.194462 0.834308 -0.170583
1.202166 0.834182 -0.171414
1.209553 0.833808 -0.172152
1.219358 0.835690 -0.173394
1.226192 0.834909 -0.173961
1.231477 0.832809 -0.174169
1.244446 0.837635 -0.176015
1.253198 0.838728 -0.176920
0.111005 0.766377 -0.061441
0.113858 0.767095 -0.061913
0.117151 0.765616 -0.062099
0.120289 0.765305 -0.062414
0.123449 0.765179 -0.062736
0.126626 0.765266 -0.063068
0.129622 0.766834 -0.063570
0.132706 0.768245 -0.064038
0.136303 0.766625 -0.064111
0.139598 0.767328 -0.064460
0.142777 0.769220 -0.064944
0.145797 0.772723 -0.065618
0.149343 0.772785 -0.065845
0.152977 0.772472 -0.066010
0.156969 0.769525 -0.065827
0.160482 0.770687 -0.066154
0.163883 0.773208 -0.066642
0.167275 0.776284 -0.067192
0.170722 0.779362 -0.067734
0.174159 0.783071 -0.068348
0.178032 0.782794 -0.068443
0.181439 0.787840 -0.069215
0.185548 0.785487 -0.069030
0.189675 0.782805 -0.068796
0.193438 0.784710 -0.069148
0.197056 0.789022 -0.069806
0.200603 0.795126 -0.070693
0.205944 0.773510 -0.067999
0.209759 0.774880 -0.068269
0.213604 0.776009 -0.068507
0.217518 0.775989 -0.068596
0.221411 0.776455 -0.068748
0.225129 0.781599 -0.069508
0.229064 0.781713 -0.069616
0.233053 0.779964 -0.069484
0.236922 0.782438 -0.069903
0.240866 0.782055 -0.069952
0.244772 0.783842 -0.070287
0.248683 0.786540 -0.070744
0.252625 0.787227 -0.070942
0.256570 0.785946 -0.070887
0.260491 0.782906 -0.070604
0.264396 0.781656 -0.070559
0.268321 0.783004 -0.070859
0.272200 0.781415 -0.070777
0.276109 0.781954 -0.070978
0.280054 0.783698 -0.071343
0.284074 0.787322 -0.071960
0.288015 0.788033 -0.072199
0.291860 0.786430 -0.072137
0.295659 0.784207 -0.071996
0.299473 0.782753 -0.071962
0.303518 0.785640 -0.072507
0.307510 0.787276 -0.072892
0.311464 0.788123 -0.073177
0.315398 0.788587 -0.073416
0.319161 0.786749 -0.073353
0.322798 0.783568 -0.073114
0.326456 0.780997 -0.072959
0.330260 0.780322 -0.073063
0.334367 0.782920 -0.073610
0.338212 0.782625 -0.073774
0.341969 0.781503 -0.073831
0.346162 0.784481 -0.074445
0.350055 0.784557 -0.074673
0.353468 0.780526 -0.074347
0.357906 0.785152 -0.075201
0.362285 0.788954 -0.075950
0.366275 0.789509 -0.076261
0.370092 0.788741 -0.076396
0.374389 0.791395 -0.077004
0.378840 0.794900 -0.077735
0.382961 0.795965 -0.078136
0.385707 0.788100 -0.077308
0.389320 0.786082 -0.077289
0.393813 0.789474 -0.078023
0.398540 0.794025 -0.078924
0.402816 0.795709 -0.079432
0.405538 0.788607 -0.078718
0.409385 0.787946 -0.078904
0.414303 0.792949 -0.079890
0.417697 0.789806 -0.079736
0.421749 0.790089 -0.080066
0.426342 0.792986 -0.080771
0.430486 0.793551 -0.081150
0.435341 0.797392 -0.081999
0.439609 0.798331 -0.082441
0.442549 0.793224 -0.082023
0.445391 0.787872 -0.081569
0.449256 0.787102 -0.081773
0.453208 0.786689 -0.082031
0.457997 0.789711 -0.082789
0.461824 0.788683 -0.082965
0.466403 0.790637 -0.083578
0.471023 0.792635 -0.084201
0.474648 0.790721 -0.084258
0.477909 0.787474 -0.084122
0.482070 0.787617 -0.084484
0.486504 0.788700 -0.084987
0.491012 0.789966 -0.085522
