ply
format ascii 1.0
comment ---
element vertex 1771
property float x
property float y
property float z
element face 0
property list uchar uint vertex_indices
end_header
1.115028 0.833250 0.142010
1.123185 0.833957 0.142458
1.130467 0.833619 0.142757
1.137612 0.833058 0.143028
1.145476 0.833195 0.143412
1.154044 0.833993 0.143903
1.161110 0.833116 0.144148
1.171128 0.835238 0.144857
1.179917 0.835969 0.145363
1.188447 0.836333 0.145821
1.196212 0.835828 0.146153
1.203805 0.835069 0.146454
1.213587 0.836404 0.147087
1.221321 0.835607 0.147399
1.228771 0.834455 0.147662
1.240236 0.837100 0.148527
1.246537 0.834669 0.148608
1.252862 0.832208 0.148689
1.270466 0.840262 0.150438
1.280121 0.840689 0.150995
1.286788 0.838264 0.151108
1.297221 0.839213 0.151765
1.304075 0.836818 0.151896
1.316892 0.839694 0.152880
1.328363 0.841226 0.153659
1.335770 0.839073 0.153850
1.344470 0.837987 0.154220
1.357652 0.840675 0.155211
1.368172 0.840955 0.155818
1.383705 0.845359 0.157109
1.389215 0.841235 0.157003
1.402942 0.843891 0.158020
1.414885 0.844955 0.158779
1.431141 0.849417 0.160109
1.443158 0.850323 0.160850
1.452755 0.849224 0.161256
1.464348 0.849657 0.161917
1.475405 0.849613 0.162496
1.486585 0.849620 0.163079
1.498376 0.850055 0.163731
1.508456 0.849159 0.164147
1.520904 0.850035 0.164859
1.536104 0.852926 0.165909
1.546757 0.852416 0.166362
1.556982 0.851609 0.166748
1.567390 0.850962 0.167146
1.577775 0.850335 0.167530
1.596561 0.855714 0.168950
0.246592 0.751787 0.107799
0.248960 0.763062 0.109240
0.251022 0.780010 0.111370
0.254679 0.778686 0.111255
0.258553 0.774924 0.110834
0.262485 0.770560 0.110332
0.266215 0.769480 0.110226
0.269873 0.770206 0.110334
0.273744 0.767847 0.110058
0.277283 0.772470 0.110633
0.281191 0.770545 0.110399
0.284979 0.771913 0.110565
0.288789 0.773733 0.110782
0.292677 0.774350 0.110849
0.296623 0.773742 0.110761
0.300549 0.774607 0.110852
0.304521 0.774077 0.110770
0.308479 0.775280 0.110898
0.312445 0.778448 0.111266
0.316458 0.777473 0.111125
0.320479 0.780773 0.111508
0.324539 0.784380 0.111927
0.328623 0.786958 0.112221
0.332692 0.787126 0.112220
0.336646 0.782058 0.111579
0.340617 0.779454 0.111241
0.344635 0.779160 0.111186
0.348682 0.779821 0.111249
0.352705 0.779808 0.111232
0.356723 0.779783 0.111215
0.360941 0.783712 0.111683
0.365181 0.787449 0.112129
0.369338 0.789297 0.112346
0.373376 0.789121 0.112318
0.377234 0.786469 0.111990
0.381135 0.784777 0.111781
0.384985 0.782707 0.111528
0.388756 0.779982 0.111197
0.392792 0.780546 0.111271
0.396801 0.780795 0.111309
0.400884 0.781800 0.111441
0.404939 0.782462 0.111534
0.408825 0.781539 0.111435
0.412688 0.780505 0.111326
0.416738 0.781145 0.111423
0.420991 0.783393 0.111719
0.424875 0.782592 0.111645
0.428800 0.782159 0.111618
0.433293 0.785893 0.112104
0.436633 0.781262 0.111567
0.440730 0.782066 0.111699
0.445990 0.790483 0.112766
0.451116 0.797509 0.113665
0.454470 0.793121 0.113167
0.458241 0.791484 0.113009
0.461502 0.786929 0.112495
0.465251 0.785385 0.112351
0.469124 0.784581 0.112301
0.473757 0.787898 0.112759
0.477156 0.784526 0.112398
0.481863 0.788008 0.112881
0.486292 0.789896 0.113170
0.490574 0.790947 0.113358
0.494913 0.792188 0.113572
0.500641 0.799826 0.114577
0.505595 0.803555 0.115103
0.509263 0.801343 0.114897
0.509363 0.783608 0.112775
0.513153 0.782357 0.112690
0.518196 0.786367 0.113257
0.522908 0.788819 0.113634
0.526927 0.788345 0.113650
0.530903 0.787683 0.113645
0.534973 0.787368 0.113684
0.539073 0.787140 0.113736
0.544428 0.791554 0.114366
0.547857 0.788718 0.114097
0.551053 0.785103 0.113731
0.561223 0.806189 0.116444
0.564617 0.802998 0.116136
0.567689 0.798775 0.115699
0.573560 0.804028 0.116447
0.577353 0.802215 0.116314
0.579908 0.796404 0.115682
0.583452 0.793892 0.115463
0.587128 0.791828 0.115301
0.591382 0.791570 0.115366
0.595666 0.791366 0.115439
0.600739 0.793482 0.115806
0.608458 0.803282 0.117141
0.611611 0.799496 0.116768
0.614352 0.794600 0.116256
0.618192 0.792895 0.116146
0.622786 0.793289 0.116302
0.627938 0.795150 0.116646
0.634281 0.800120 0.117384
0.640132 0.803600 0.117936
0.645256 0.805029 0.118230
0.649357 0.803734 0.118179
0.654041 0.803912 0.118317
0.657347 0.800574 0.118008
0.662837 0.802698 0.118396
0.667302 0.802212 0.118452
0.672113 0.802527 0.118611
0.677734 0.804720 0.119012
0.680119 0.799199 0.118428
0.686075 0.802066 0.118917
0.692697 0.806339 0.119588
0.696709 0.804553 0.119485
0.699375 0.799763 0.118995
0.703477 0.798212 0.118922
0.709121 0.800016 0.119282
0.713580 0.799180 0.119303
0.718127 0.798506 0.119346
0.725650 0.804055 0.120195
0.731745 0.806464 0.120639
0.735657 0.804292 0.120492
0.740116 0.803238 0.120491
0.744963 0.802938 0.120589
0.750707 0.804378 0.120913
0.756647 0.806123 0.121280
0.762319 0.807265 0.121569
0.766057 0.804639 0.121369
0.770472 0.803306 0.121337
0.777139 0.806168 0.121856
0.782767 0.807001 0.122111
0.788813 0.808533 0.122460
0.794055 0.808534 0.122609
0.798937 0.807848 0.122670
0.805190 0.809555 0.123047
0.813931 0.815531 0.123989
0.819756 0.816287 0.124246
0.823945 0.814181 0.124125
0.827619 0.811201 0.123890
0.832857 0.810857 0.124005
0.837528 0.809535 0.123992
0.844647 0.812211 0.124512
0.850465 0.812672 0.124740
0.858708 0.816972 0.125483
0.863544 0.815720 0.125487
0.869597 0.816360 0.125746
0.877641 0.820041 0.126415
0.881923 0.817796 0.126292
0.885005 0.813715 0.125923
0.892121 0.815765 0.126381
0.899301 0.817820 0.126842
0.905392 0.818170 0.127077
0.913232 0.821028 0.127654
0.917282 0.818275 0.127474
0.923647 0.818853 0.127748
0.936046 0.827958 0.129184
0.941150 0.826548 0.129195
0.944829 0.823122 0.128934
0.949491 0.821067 0.128861
0.954705 0.819754 0.128892
0.961062 0.819961 0.129134
0.967924 0.820784 0.129465
0.976071 0.823246 0.130024
0.982010 0.822694 0.130173
0.987470 0.821471 0.130233
0.994317 0.822003 0.130538
1.001531 0.822935 0.130904
1.007980 0.822819 0.131128
1.015059 0.823437 0.131459
1.020982 0.822540 0.131582
1.031165 0.826848 0.132438
1.037357 0.826138 0.132597
1.044804 0.826893 0.132967
1.050867 0.825910 0.133097
1.057282 0.825297 0.133283
1.066406 0.827809 0.133916
1.074469 0.828970 0.134365
1.082813 0.830363 0.134852
1.089482 0.829742 0.135059
1.096753 0.829742 0.135361
1.102819 0.828316 0.135464
1.113068 0.831487 0.136231
1.118968 0.829736 0.136299
1.130408 0.833979 0.137236
1.137245 0.833091 0.137442
1.144406 0.832486 0.137694
1.153222 0.833564 0.138197
1.160931 0.833374 0.138523
1.170043 0.834562 0.139058
1.177668 0.834111 0.139361
1.189630 0.838005 0.140309
1.195216 0.835291 0.140295
1.203955 0.835694 0.140746
1.214023 0.837317 0.141387
1.220910 0.835690 0.141554
1.227659 0.833863 0.141697
1.238932 0.836340 0.142491
1.245279 0.833968 0.142568
1.256512 0.836167 0.143339
1.268715 0.839136 0.144237
1.278415 0.839626 0.144771
1.286877 0.838870 0.145123
1.295244 0.837942 0.145457
1.306206 0.839272 0.146144
1.317806 0.841047 0.146908
1.325656 0.839373 0.147150
1.334001 0.838068 0.147455
1.343688 0.837853 0.147935
1.357595 0.841174 0.148973
1.368942 0.842160 0.149656
1.377857 0.840986 0.150005
1.392805 0.844781 0.151143
1.400436 0.842372 0.151306
1.418419 0.848397 0.152812
1.428284 0.847653 0.153247
1.440044 0.848372 0.153917
1.450778 0.848195 0.154444
1.461427 0.847895 0.154949
1.474132 0.849150 0.155705
1.487252 0.850655 0.156500
1.497501 0.849897 0.156921
1.510445 0.851165 0.157667
1.527409 0.855402 0.158896
1.537043 0.854101 0.159205
1.546216 0.852478 0.159448
1.557839 0.852679 0.159979
1.568343 0.852080 0.160364
1.577862 0.850808 0.160619
1.580866 0.844963 0.160087
0.249455 0.719622 0.100391
0.248725 0.765898 0.105896
0.251743 0.771241 0.106574
0.254496 0.781358 0.107809
0.257817 0.785523 0.108335
0.261907 0.779596 0.107663
0.266007 0.773406 0.106953
0.270089 0.767301 0.106247
0.273657 0.770391 0.106621
0.277542 0.768360 0.106385
0.281215 0.771359 0.106738
0.284976 0.773572 0.106994
0.288908 0.772294 0.106834
0.292820 0.771993 0.106786
0.296645 0.775674 0.107206
0.300664 0.772697 0.106837
0.304615 0.772948 0.106847
0.308577 0.773480 0.106888
0.312510 0.780356 0.107677
0.316525 0.783118 0.107979
0.320555 0.779877 0.107574
0.324608 0.783276 0.107950
0.328737 0.789916 0.108709
0.332827 0.790529 0.108758
0.336780 0.784718 0.108051
0.340723 0.780676 0.107553
0.344711 0.779339 0.107376
0.348762 0.780121 0.107449
0.352752 0.779353 0.107341
0.356811 0.780286 0.107434
0.360970 0.783075 0.107748
0.365156 0.785945 0.108073
0.369230 0.786587 0.108138
0.373463 0.789616 0.108486
0.377529 0.789924 0.108516
0.381470 0.788584 0.108354
0.385297 0.786039 0.108052
0.389136 0.783956 0.107807
0.392880 0.781085 0.107472
0.396813 0.780541 0.107413
0.400850 0.781113 0.107487
0.404832 0.781134 0.107498
0.408716 0.780275 0.107408
0.412616 0.779644 0.107348
0.416685 0.780509 0.107465
0.420792 0.781618 0.107614
0.424831 0.782122 0.107693
0.428825 0.782244 0.107730
0.433516 0.787436 0.108366
0.437222 0.785346 0.108147
0.441177 0.785075 0.108145
0.447534 0.800636 0.110010
0.451211 0.798117 0.109747
0.454312 0.792158 0.109081
0.458277 0.791729 0.109068
0.461672 0.787973 0.108665
0.465390 0.786233 0.108501
0.469609 0.787342 0.108676
0.473248 0.785232 0.108473
0.477824 0.788139 0.108864
0.481322 0.785339 0.108582
0.486189 0.789497 0.109126
0.489996 0.788249 0.109032
0.494287 0.789337 0.109216
0.499629 0.795245 0.109974
0.504643 0.799363 0.110522
0.506883 0.790880 0.109576
0.510310 0.787905 0.109285
0.513717 0.784936 0.108996
0.519012 0.789960 0.109659
0.522960 0.789213 0.109638
0.526953 0.788638 0.109638
0.530937 0.788009 0.109634
0.534776 0.786801 0.109562
0.539176 0.787731 0.109746
0.543220 0.787254 0.109764
0.547134 0.786276 0.109724
0.553208 0.793056 0.110613
0.558714 0.797549 0.111230
0.563794 0.800362 0.111649
0.565250 0.790682 0.110571
0.569482 0.790586 0.110644
0.575495 0.796320 0.111417
0.580101 0.797258 0.111617
0.583292 0.793613 0.111267
0.587543 0.793362 0.111326
0.592306 0.794657 0.111572
0.596385 0.793786 0.111559
0.600514 0.793047 0.111562
0.606562 0.797939 0.112247
0.612123 0.801224 0.112741
0.619290 0.808956 0.113774
0.626024 0.815192 0.114629
0.628198 0.808548 0.113924
0.630147 0.801435 0.113162
0.632465 0.795475 0.112539
0.636352 0.793805 0.112438
0.640512 0.792850 0.112424
0.644891 0.792445 0.112479
0.649736 0.793194 0.112675
0.654796 0.794415 0.112931
0.659628 0.794993 0.113108
0.663908 0.794162 0.113115
0.669281 0.795944 0.113443
0.676279 0.801508 0.114236
0.681700 0.803172 0.114553
0.685168 0.800215 0.114303
0.692442 0.806010 0.115130
0.696459 0.804246 0.115029
0.699761 0.800881 0.114730
0.704116 0.799879 0.114724
0.708855 0.799693 0.114819
0.713236 0.798696 0.114815
0.717616 0.797677 0.114809
0.725876 0.804789 0.115812
0.732857 0.809032 0.116463
0.735857 0.804965 0.116082
0.740063 0.803391 0.116011
0.745059 0.803392 0.116138
0.749981 0.803204 0.116242
0.755268 0.803688 0.116431
0.763010 0.808867 0.117208
0.766669 0.806074 0.116991
0.771883 0.806238 0.117144
0.778131 0.808288 0.117535
0.783075 0.807838 0.117614
0.788103 0.807506 0.117709
0.794697 0.809965 0.118157
0.799158 0.808513 0.118113
0.802901 0.805778 0.117909
0.810506 0.809812 0.118561
0.821084 0.818863 0.119852
0.822933 0.812723 0.119220
0.827134 0.810655 0.119105
0.832494 0.810526 0.119238
0.837923 0.810469 0.119381
0.847573 0.817294 0.120404
0.854972 0.820276 0.120940
0.857933 0.816012 0.120553
0.862830 0.814869 0.120565
0.867867 0.813923 0.120604
0.879717 0.823567 0.122005
0.885346 0.823370 0.122146
0.887573 0.817931 0.121613
0.893163 0.817635 0.121745
0.898595 0.817060 0.121842
0.904721 0.817475 0.122069
0.910645 0.817535 0.122253
0.916562 0.817533 0.122431
0.923165 0.818466 0.122734
0.929984 0.819636 0.123070
0.936521 0.820333 0.123348
0.943887 0.822121 0.123772
0.949820 0.821840 0.123928
0.955393 0.821015 0.124016
0.961374 0.820705 0.124174
0.968434 0.821795 0.124519
0.975824 0.823246 0.124916
0.981704 0.822623 0.125043
0.987465 0.821798 0.125146
0.994697 0.822831 0.125499
1.000906 0.822477 0.125672
1.008304 0.823575 0.126041
1.014505 0.823088 0.126204
1.020608 0.822426 0.126347
1.031229 0.827283 0.127233
1.037034 0.826103 0.127315
1.043765 0.826001 0.127547
1.050797 0.826194 0.127822
1.057506 0.825934 0.128041
1.065103 0.826654 0.128398
1.074310 0.829166 0.129003
1.080872 0.828509 0.129183
1.087875 0.828296 0.129429
1.094433 0.827509 0.129602
1.103285 0.829237 0.130124
1.112539 0.831304 0.130699
1.120256 0.831563 0.131033
1.129806 0.833738 0.131637
1.135331 0.831444 0.131631
1.141850 0.830175 0.131772
1.155045 0.835928 0.132894
1.161561 0.834472 0.133022
1.169833 0.834786 0.133403
1.176220 0.833064 0.133507
1.185323 0.834060 0.133997
1.195945 0.836486 0.134697
1.203244 0.835445 0.134917
1.212104 0.835881 0.135352
1.219580 0.834855 0.135588
1.225820 0.832551 0.135647
1.237482 0.835426 0.136454
1.246566 0.835687 0.136896
1.258353 0.838406 0.137699
1.265027 0.836180 0.137799
1.275381 0.837315 0.138391
1.285971 0.838547 0.139007
1.294161 0.837470 0.139294
1.301772 0.835791 0.139500
1.313622 0.837833 0.140259
1.319844 0.834757 0.140272
1.334549 0.839077 0.141384
1.344523 0.839110 0.141870
1.357651 0.841758 0.142753
1.368314 0.842163 0.143309
1.382669 0.845581 0.144323
1.388458 0.841693 0.144244
1.403738 0.845640 0.145351
1.417687 0.848338 0.146276
1.429228 0.848956 0.146890
1.439478 0.848452 0.147334
1.449482 0.847695 0.147739
1.461960 0.848839 0.148436
1.475044 0.850379 0.149194
1.489112 0.852602 0.150057
1.500608 0.852775 0.150598
1.510517 0.851712 0.150939
1.521606 0.851530 0.151411
1.535179 0.853185 0.152162
1.543308 0.850792 0.152266
1.553504 0.849955 0.152601
1.565472 0.850428 0.153131
1.577473 0.850937 0.153652
1.591187 0.852683 0.154356
0.244559 0.774544 0.103137
0.249133 0.761148 0.101669
0.251933 0.769036 0.102605
0.254651 0.779571 0.103835
0.257918 0.784473 0.104420
0.261838 0.781090 0.104058
0.266172 0.771386 0.102973
0.270210 0.765966 0.102368
0.273838 0.767932 0.102596
0.277390 0.772484 0.103113
0.281118 0.774775 0.103368
0.284950 0.775709 0.103466
0.288944 0.773062 0.103153
0.292853 0.773036 0.103135
0.296801 0.772281 0.103032
0.300722 0.773241 0.103121
0.304691 0.772584 0.103025
0.308641 0.774060 0.103169
0.312576 0.781233 0.103958
0.316593 0.785192 0.104381
0.320634 0.782572 0.104059
0.324706 0.786651 0.104495
0.328803 0.789496 0.104792
0.332909 0.791247 0.104965
0.336905 0.787283 0.104492
0.340782 0.780432 0.103694
0.344788 0.779758 0.103596
0.348776 0.778835 0.103471
0.352802 0.779105 0.103482
0.356828 0.779413 0.103499
0.361031 0.783183 0.103909
0.365022 0.782595 0.103828
0.369138 0.784240 0.104002
0.373430 0.788369 0.104457
0.377398 0.787414 0.104341
0.381505 0.788480 0.104455
0.385443 0.787355 0.104323
0.388654 0.777849 0.103247
0.392915 0.781091 0.103613
0.396991 0.782079 0.103726
0.401005 0.782383 0.103764
0.404964 0.782157 0.103745
0.408726 0.780160 0.103528
0.412977 0.782641 0.103818
0.416838 0.781653 0.103719
0.420876 0.782180 0.103794
0.425042 0.783672 0.103979
0.428878 0.782577 0.103874
0.434061 0.791346 0.104887
0.437385 0.786456 0.104357
0.441407 0.786629 0.104402
0.446297 0.792489 0.105093
0.451027 0.796966 0.105629
0.454173 0.791341 0.105024
0.458035 0.790328 0.104942
0.461654 0.787931 0.104706
0.465518 0.787045 0.104643
0.469466 0.786638 0.104636
0.473423 0.786280 0.104636
0.477117 0.784531 0.104480
0.481964 0.788753 0.105004
0.486751 0.792444 0.105470
0.490831 0.792469 0.105521
0.494312 0.789599 0.105245
0.499365 0.794168 0.105817
0.504776 0.800132 0.106550
0.508363 0.797657 0.106323
0.510520 0.788999 0.105393
0.514709 0.789361 0.105493
0.518745 0.789025 0.105514
0.522656 0.788156 0.105476
0.526641 0.787575 0.105473
0.530841 0.787827 0.105565
0.535110 0.788294 0.105685
0.538856 0.786718 0.105571
0.543079 0.786938 0.105665
0.547275 0.787005 0.105742
0.553807 0.795427 0.106780
0.560364 0.803597 0.107791
0.562440 0.795888 0.106980
0.565617 0.792156 0.106627
0.569638 0.791335 0.106609
0.576275 0.799122 0.107584
0.580083 0.797434 0.107469
0.582435 0.791112 0.106820
0.587915 0.794764 0.107323
0.592386 0.795141 0.107450
0.596568 0.794580 0.107469
0.601085 0.794995 0.107602
0.607502 0.800950 0.108379
0.613593 0.805735 0.109022
0.617328 0.803594 0.108863
0.621526 0.802773 0.108858
0.626313 0.803566 0.109042
0.629815 0.800776 0.108810
0.632848 0.796753 0.108434
0.636577 0.794650 0.108283
0.641254 0.795045 0.108423
0.646081 0.795771 0.108604
0.650600 0.795646 0.108686
0.655212 0.795713 0.108792
0.659336 0.794521 0.108750
0.664071 0.794811 0.108884
0.670000 0.797934 0.109351
0.677135 0.803803 0.110143
0.679788 0.798931 0.109673
0.685863 0.802085 0.110149
0.692412 0.806199 0.110739
0.696474 0.804536 0.110649
0.699068 0.799589 0.110172
0.703785 0.799405 0.110258
0.708514 0.799208 0.110344
0.712837 0.798095 0.110321
0.717740 0.798198 0.110444
0.726040 0.805395 0.111411
0.733707 0.811058 0.112198
0.734296 0.802023 0.111237
0.739818 0.803156 0.111487
0.744414 0.802361 0.111508
0.749797 0.803100 0.111714
0.758393 0.810068 0.112666
0.765173 0.813316 0.113175
0.772241 0.816996 0.113739
0.776919 0.816029 0.113746
0.781457 0.814776 0.113720
0.786208 0.813897 0.113740
0.791775 0.814488 0.113938
0.797161 0.814692 0.114091
0.803496 0.816542 0.114444
0.806384 0.812209 0.114051
0.811493 0.811812 0.114134
0.822538 0.821654 0.115461
0.822120 0.811605 0.114377
0.826718 0.810224 0.114345
0.831550 0.809219 0.114360
0.836742 0.808785 0.114445
0.848295 0.818760 0.115803
0.856201 0.822555 0.116410
0.857606 0.815769 0.115725
0.861835 0.813569 0.115602
0.866214 0.811604 0.115508
0.881168 0.826119 0.117441
0.888521 0.828561 0.117895
0.891439 0.824127 0.117505
0.895060 0.820796 0.117251
0.899831 0.819205 0.117213
0.905524 0.818962 0.117344
0.911447 0.819010 0.117513
0.917300 0.818906 0.117665
0.923809 0.819695 0.117931
0.929210 0.818838 0.117994
0.935648 0.819409 0.118238
0.942142 0.819994 0.118486
0.950448 0.823020 0.119043
0.956472 0.822809 0.119197
0.961883 0.821713 0.119244
0.968172 0.821763 0.119437
0.974603 0.821944 0.119650
0.980906 0.821897 0.119837
0.988591 0.823596 0.120248
0.995505 0.824209 0.120526
1.001530 0.823611 0.120654
1.007446 0.822825 0.120761
1.013394 0.822035 0.120870
1.020276 0.822359 0.121126
1.029446 0.825435 0.121737
1.037517 0.827048 0.122166
1.043832 0.826440 0.122315
1.051063 0.826875 0.122603
1.058379 0.827335 0.122898
1.065763 0.827799 0.123198
1.071878 0.826706 0.123302
1.080283 0.828207 0.123746
1.087213 0.827920 0.123964
1.094850 0.828367 0.124282
1.100779 0.826816 0.124344
1.107321 0.825898 0.124494
1.119583 0.831222 0.125468
1.126051 0.830047 0.125595
1.133154 0.829500 0.125811
1.139123 0.827668 0.125862
1.154284 0.835543 0.127204
1.161664 0.835007 0.127441
1.168535 0.833865 0.127602
1.176186 0.833464 0.127868
1.183417 0.832554 0.128072
1.192214 0.833156 0.128486
1.203751 0.836405 0.129263
1.210893 0.835136 0.129440
1.217957 0.833720 0.129602
1.225144 0.832357 0.129778
1.239587 0.837931 0.130905
1.246838 0.836425 0.131077
1.256620 0.837248 0.131573
1.264174 0.835867 0.131775
1.272385 0.835024 0.132057
1.283162 0.836459 0.132661
1.292696 0.836636 0.133099
1.300934 0.835539 0.133367
1.309476 0.834635 0.133668
1.324586 0.839466 0.134780
1.334585 0.839624 0.135245
1.347581 0.842284 0.136071
1.357829 0.842433 0.136549
1.368042 0.842455 0.137014
1.380488 0.844267 0.137741
1.394210 0.847022 0.138610
1.404664 0.846932 0.139076
1.415552 0.847117 0.139585
1.428494 0.848886 0.140326
1.439578 0.849054 0.140838
1.451385 0.849726 0.141424
1.460516 0.848214 0.141690
1.473945 0.850029 0.142443
1.489762 0.853606 0.143456
1.500729 0.853362 0.143901
1.509505 0.851429 0.144089
1.518885 0.849960 0.144338
1.528867 0.848951 0.144645
1.540647 0.849280 0.145144
1.552330 0.849533 0.145620
1.564577 0.850201 0.146147
1.574429 0.849159 0.146401
1.600330 0.859570 0.148383
0.244809 0.771705 0.099108
0.248411 0.769696 0.098933
0.252337 0.764159 0.098366
0.255757 0.765321 0.098522
0.258982 0.770035 0.099058
0.262906 0.765734 0.098607
0.266077 0.773450 0.099459
0.269334 0.781585 0.100351
0.272853 0.786970 0.100939
0.276861 0.784160 0.100629
0.280982 0.778982 0.100057
0.284845 0.779725 0.100126
0.288768 0.779655 0.100104
0.292682 0.780588 0.100188
0.296779 0.775513 0.099615
0.300689 0.777817 0.099843
0.304597 0.782306 0.100308
0.308669 0.777308 0.099739
0.312650 0.779979 0.100003
0.316663 0.783347 0.100343
0.320710 0.785721 0.100574
0.324715 0.779486 0.099869
0.328867 0.789446 0.100924
0.332956 0.790268 0.100987
0.336951 0.786570 0.100559
0.340852 0.780820 0.099910
0.344860 0.780178 0.099817
0.348869 0.779814 0.099755
0.352845 0.778848 0.099629
0.356782 0.777306 0.099443
0.360979 0.781191 0.099846
0.365220 0.785276 0.100272
0.369189 0.784334 0.100156
0.373003 0.781242 0.099808
0.376918 0.780055 0.099669
0.380828 0.778999 0.099545
0.385045 0.781960 0.099859
0.389435 0.786654 0.100363
0.393691 0.789407 0.100658
0.397537 0.787575 0.100458
0.401227 0.784374 0.100113
0.405069 0.782954 0.099962
0.409224 0.784557 0.100141
0.413063 0.783262 0.100008
0.416969 0.782641 0.099950
0.421065 0.783623 0.100068
0.424973 0.783068 0.100021
0.428855 0.782362 0.099960
0.432836 0.782412 0.099983
0.437017 0.783870 0.100160
0.441132 0.784772 0.100279
0.445296 0.785926 0.100427
0.450189 0.791656 0.101074
0.455400 0.799004 0.101899
0.458041 0.790441 0.100998
0.461687 0.788215 0.100788
0.465476 0.786904 0.100678
0.469449 0.786655 0.100685
0.473298 0.785725 0.100620
0.477229 0.785245 0.100605
0.482459 0.791429 0.101318
0.489744 0.807577 0.103117
0.491343 0.795127 0.101805
0.495345 0.794697 0.101803
0.499747 0.796118 0.102004
0.503837 0.796019 0.102041
0.507422 0.793631 0.101830
0.510837 0.790566 0.101546
0.514657 0.789325 0.101463
0.518482 0.788117 0.101385
0.522346 0.787078 0.101326
0.526451 0.787012 0.101375
0.530957 0.788489 0.101595
0.535450 0.789821 0.101800
0.539942 0.791056 0.101996
0.543014 0.786911 0.101603
0.549240 0.794421 0.102491
0.552465 0.790825 0.102161
0.560491 0.804273 0.103705
0.561944 0.794395 0.102686
0.566475 0.795314 0.102856
0.574223 0.806944 0.104208
0.576121 0.798850 0.103387
0.579365 0.795342 0.103072
0.582485 0.791510 0.102722
0.586608 0.790903 0.102729
0.591816 0.793621 0.103104
0.596095 0.793384 0.103154
0.600941 0.794807 0.103389
0.607399 0.800892 0.104143
0.613237 0.804949 0.104674
0.617791 0.805167 0.104779
0.618735 0.795161 0.103749
0.622411 0.792985 0.103589
0.629048 0.798927 0.104335
0.632700 0.796604 0.104160
0.636767 0.795405 0.104112
0.641454 0.795819 0.104245
0.646518 0.797151 0.104481
0.651219 0.797477 0.104605
0.655428 0.796509 0.104586
0.659283 0.794642 0.104467
0.663483 0.793625 0.104444
0.668117 0.793639 0.104537
0.676642 0.802882 0.105669
0.681893 0.804140 0.105904
0.687757 0.806740 0.106293
0.693354 0.808618 0.106601
0.696629 0.805145 0.106306
0.698828 0.799308 0.105745
0.703531 0.799100 0.105820
0.708020 0.798387 0.105838
0.712809 0.798291 0.105927
0.717805 0.798594 0.106062
0.727100 0.807881 0.107219
0.730611 0.804890 0.106983
0.734019 0.801712 0.106726
0.738534 0.800812 0.106728
0.744167 0.802126 0.106984
0.756743 0.817122 0.108804
0.763265 0.819872 0.109228
0.769503 0.821963 0.109579
0.773795 0.820237 0.109493
0.776699 0.815881 0.109107
0.782852 0.817652 0.109424
0.790016 0.821209 0.109949
0.797527 0.825279 0.110534
0.800217 0.820490 0.110101
0.803354 0.816559 0.109766
0.808492 0.816211 0.109846
0.812782 0.814339 0.109750
0.816784 0.811963 0.109597
0.821057 0.810055 0.109499
0.826055 0.809373 0.109543
0.831440 0.809308 0.109661
0.836884 0.809295 0.109787
0.845777 0.814903 0.110569
0.853464 0.818387 0.111106
0.857347 0.815632 0.110916
0.862034 0.814167 0.110879
0.866676 0.812613 0.110832
0.876160 0.818596 0.111671
0.887591 0.827414 0.112847
0.894549 0.829170 0.113196
0.900326 0.829054 0.113327
0.907445 0.830900 0.113692
0.912292 0.829291 0.113651
0.923541 0.837060 0.114721
0.923964 0.828889 0.113908
0.928231 0.826358 0.113763
0.934478 0.826647 0.113954
0.939722 0.825461 0.113973
0.942802 0.821222 0.113629
0.949538 0.822071 0.113894
0.956046 0.822535 0.114116
0.962192 0.822446 0.114275
0.967776 0.821547 0.114338
0.974024 0.821492 0.114506
0.980510 0.821696 0.114708
0.988630 0.823972 0.115163
0.995845 0.824976 0.115468
1.001514 0.823921 0.115528
1.006729 0.822249 0.115516
1.013191 0.822114 0.115693
1.020062 0.822430 0.115928
1.030635 0.827245 0.116716
1.035275 0.824655 0.116605
1.043042 0.825833 0.116958
1.050615 0.826691 0.117276
1.058320 0.827623 0.117607
1.065444 0.827786 0.117849
1.072817 0.828166 0.118122
1.079618 0.827808 0.118308
1.088596 0.829877 0.118799
1.096490 0.830604 0.119129
1.102401 0.829018 0.119177
1.111425 0.830849 0.119655
1.118122 0.830005 0.119805
1.124743 0.829015 0.119941
1.131105 0.827683 0.120039
1.142368 0.831549 0.120796
1.150477 0.831912 0.121119
1.159558 0.833207 0.121566
1.166846 0.832527 0.121769
1.176158 0.833860 0.122233
1.183882 0.833459 0.122484
1.191252 0.832616 0.122684
1.201353 0.834439 0.123232
1.211368 0.836053 0.123760
1.217223 0.833446 0.123752
1.224924 0.832596 0.123976
1.236572 0.835479 0.124691
1.250879 0.840756 0.125726
1.255682 0.836829 0.125570
1.263600 0.835801 0.125798
1.274869 0.837811 0.126432
1.283264 0.837036 0.126706
1.293180 0.837563 0.127159
1.303718 0.838543 0.127680
1.318296 0.843019 0.128673
1.324801 0.840156 0.128697
1.331774 0.837661 0.128774
1.341391 0.837412 0.129156
1.357687 0.842820 0.130308
1.373636 0.847733 0.131403
1.381675 0.845782 0.131574
1.391164 0.844991 0.131907
1.403501 0.846484 0.132555
1.411955 0.844682 0.132755
1.427229 0.848372 0.133714
1.440237 0.850093 0.134405
1.450140 0.849242 0.134741
1.459908 0.848236 0.135054
1.471943 0.848963 0.135608
1.487539 0.852380 0.136537
1.498731 0.852317 0.136976
1.508730 0.851315 0.137277
1.517983 0.849747 0.137490
1.527111 0.848097 0.137683
1.537839 0.847650 0.138036
1.556191 0.852782 0.139179
1.566154 0.851757 0.139430
1.575793 0.850537 0.139639
1.577352 0.843622 0.139009
0.244303 0.777348 0.095991
0.248020 0.774337 0.095714
0.252110 0.767080 0.094987
0.255851 0.764283 0.094719
0.258952 0.770746 0.095412
0.262805 0.767605 0.095096
0.266329 0.769949 0.095348
0.269093 0.786326 0.097060
0.272968 0.785590 0.096980
0.276966 0.782952 0.096697
0.280972 0.780261 0.096405
0.284834 0.781259 0.096495
0.288685 0.783536 0.096715
0.292752 0.780134 0.096340
0.296764 0.778311 0.096127
0.300665 0.781701 0.096456
0.304697 0.779856 0.096238
0.308700 0.779845 0.096209
0.312708 0.780276 0.096226
0.316727 0.780820 0.096255
0.320745 0.777883 0.095920
0.324813 0.784471 0.096577
0.328933 0.790058 0.097130
0.332953 0.786885 0.096772
0.336976 0.785219 0.096571
0.340944 0.782229 0.096234
0.344947 0.781293 0.096111
0.348954 0.780789 0.096035
0.352909 0.779224 0.095849
0.356870 0.778206 0.095722
0.361131 0.783312 0.096233
0.365306 0.786070 0.096501
0.369320 0.785834 0.096460
0.373016 0.780879 0.095931
0.376940 0.779869 0.095813
0.380801 0.778228 0.095631
0.384758 0.778018 0.095600
0.389541 0.787584 0.096585
0.393656 0.788742 0.096699
0.397555 0.787529 0.096570
0.401260 0.784517 0.096256
0.405005 0.782186 0.096014
0.409218 0.784377 0.096244
0.413157 0.783985 0.096207
0.417019 0.782988 0.096110
0.420959 0.782715 0.096089
0.424894 0.782422 0.096068
0.428865 0.782429 0.096081
0.432920 0.783037 0.096157
0.436806 0.782415 0.096108
0.440680 0.781737 0.096055
0.444915 0.783477 0.096255
0.450347 0.792737 0.097237
0.455085 0.797136 0.097716
0.458081 0.790775 0.097080
0.461722 0.788523 0.096872
0.465490 0.787098 0.096752
0.469458 0.786828 0.096754
0.473278 0.785749 0.096672
0.477147 0.784959 0.096623
0.483204 0.795406 0.097744
0.487431 0.796151 0.097858
0.491831 0.797678 0.098055
0.495463 0.795432 0.097860
0.499098 0.793267 0.097676
0.503050 0.792610 0.097649
0.507053 0.792175 0.097647
0.510899 0.791031 0.097573
0.514627 0.789395 0.097448
0.518405 0.787998 0.097350
0.522420 0.787589 0.097356
0.527765 0.792514 0.097921
0.537524 0.814638 0.100290
0.538236 0.800832 0.098898
0.541331 0.796559 0.098504
0.545117 0.794976 0.098394
0.548945 0.793565 0.098303
0.552678 0.791820 0.098177
0.556173 0.789249 0.097966
0.560003 0.787890 0.097883
0.565414 0.791927 0.098369
0.572123 0.800138 0.099296
0.576254 0.799528 0.099296
0.579790 0.796961 0.099090
0.582731 0.792536 0.098689
0.586666 0.791327 0.098628
0.591125 0.791728 0.098738
0.595830 0.792823 0.098922
0.600731 0.794423 0.099161
0.607062 0.800147 0.099838
0.611302 0.799581 0.099850
0.615105 0.797733 0.099727
0.617919 0.793110 0.099309
0.623685 0.796771 0.099773
0.627716 0.795533 0.099717
0.632383 0.796002 0.099843
0.636513 0.794983 0.099811
0.641083 0.795098 0.099901
0.646052 0.796199 0.100097
0.650942 0.797021 0.100265
0.655271 0.796365 0.100275
0.659310 0.794962 0.100206
0.663113 0.792974 0.100075
0.668021 0.793660 0.100231
0.675730 0.800966 0.101099
0.682170 0.805049 0.101623
0.688046 0.807670 0.101991
0.692955 0.807962 0.102110
0.697521 0.807424 0.102140
0.700089 0.802385 0.101686
0.704215 0.800869 0.101611
0.707831 0.798232 0.101416
0.712413 0.797695 0.101448
0.717712 0.798655 0.101643
0.725842 0.805497 0.102477
0.732333 0.808728 0.102921
0.734020 0.801974 0.102283
0.738566 0.801137 0.102287
0.743287 0.800622 0.102327
0.749455 0.802945 0.102676
0.761269 0.816228 0.104223
0.769320 0.821877 0.104940
0.774696 0.822229 0.105080
0.775483 0.813844 0.104266
0.778884 0.810493 0.104002
0.788256 0.818222 0.104953
0.795004 0.820932 0.105356
0.798706 0.818024 0.105143
0.803772 0.817576 0.105202
0.807169 0.814137 0.104932
0.813097 0.815160 0.105154
0.815152 0.809404 0.104629
0.820645 0.809620 0.104764
0.825299 0.808362 0.104738
0.832229 0.810903 0.105133
0.838602 0.812422 0.105416
0.844733 0.813462 0.105649
0.851218 0.815012 0.105940
0.857486 0.816134 0.106185
0.862935 0.815880 0.106278
0.868502 0.815770 0.106389
0.880012 0.824888 0.107533
0.885111 0.823871 0.107547
0.893320 0.827580 0.108091
0.899612 0.828264 0.108300
0.908367 0.832574 0.108917
0.915785 0.834766 0.109300
0.912842 0.821646 0.107960
0.920941 0.824791 0.108453
0.930207 0.829502 0.109126
0.942229 0.837997 0.110231
0.944273 0.832188 0.109720
0.943551 0.822572 0.108777
0.948706 0.821224 0.108773
0.956214 0.823072 0.109135
0.961406 0.821687 0.109132
0.967451 0.821421 0.109258
0.973575 0.821208 0.109392
0.980440 0.821921 0.109636
0.987262 0.822505 0.109867
0.995032 0.824247 0.110235
1.000814 0.823349 0.110303
1.006582 0.822389 0.110366
1.014848 0.824529 0.110790
1.020952 0.823873 0.110894
1.025787 0.821600 0.110814
1.033952 0.823377 0.111207
1.043509 0.826743 0.111790
1.050943 0.827433 0.112065
1.056363 0.825649 0.112055
1.063785 0.826187 0.112321
1.072778 0.828480 0.112796
1.079798 0.828379 0.112995
1.085971 0.827238 0.113076
1.097542 0.832169 0.113877
1.104430 0.831672 0.114044
1.110635 0.830349 0.114116
1.118516 0.830822 0.114406
1.125045 0.829730 0.114515
1.132250 0.829313 0.114709
1.143195 0.832831 0.115378
1.151160 0.833039 0.115658
1.158984 0.833010 0.115914
1.166958 0.833053 0.116185
1.174742 0.832813 0.116427
1.183867 0.833861 0.116831
1.190287 0.832061 0.116896
1.197698 0.831199 0.117079
1.211016 0.836136 0.117976
1.218369 0.835013 0.118140
1.230393 0.838374 0.118861
1.237266 0.836598 0.118957
1.243582 0.834225 0.118985
1.255524 0.837136 0.119672
1.263737 0.836391 0.119914
1.271130 0.834799 0.120056
1.286302 0.840305 0.121090
1.297131 0.841644 0.121613
1.304960 0.840145 0.121786
1.317106 0.842438 0.122442
1.324675 0.840531 0.122575
1.330889 0.837371 0.122553
1.347385 0.843114 0.123669
1.354954 0.840962 0.123785
1.362818 0.839008 0.123930
1.380914 0.845640 0.125183
1.391933 0.846133 0.125654
1.400034 0.844114 0.125802
1.410016 0.843591 0.126147
1.422494 0.845026 0.126749
1.441553 0.851649 0.128035
1.449722 0.849403 0.128160
1.459744 0.848597 0.128473
1.472494 0.849879 0.129061
1.486215 0.851836 0.129737
1.497010 0.851472 0.130103
1.507449 0.850808 0.130423
1.517593 0.849909 0.130705
1.526668 0.848212 0.130872
1.537618 0.847920 0.131219
1.555738 0.852875 0.132268
1.566769 0.852613 0.132601
1.571467 0.847829 0.132305
1.580331 0.846120 0.132412
0.241777 0.805648 0.095085
0.248054 0.773957 0.091954
0.251975 0.768855 0.091470
0.255341 0.771136 0.091716
0.259304 0.766106 0.091227
0.262679 0.769812 0.091605
0.266434 0.768719 0.091498
0.269529 0.779435 0.092566
0.273136 0.783160 0.092932
0.277259 0.777819 0.092388
0.281306 0.773751 0.091968
0.285085 0.776137 0.092189
0.288879 0.779395 0.092494
0.292808 0.779915 0.092523
0.296830 0.777759 0.092283
0.300787 0.778407 0.092321
0.304738 0.780608 0.092513
0.308772 0.778199 0.092244
0.312762 0.780234 0.092417
0.316785 0.778109 0.092175
0.320796 0.777411 0.092076
0.324847 0.782212 0.092523
0.328946 0.787035 0.092973
0.333030 0.788389 0.093078
0.337066 0.787026 0.092913
0.341005 0.782710 0.092456
0.345003 0.781593 0.092318
0.349003 0.780923 0.092226
0.352969 0.779657 0.092076
0.356964 0.779380 0.092025
0.361236 0.784607 0.092522
0.365281 0.784990 0.092540
0.369211 0.783498 0.092373
0.373135 0.782213 0.092229
0.377023 0.780649 0.092059
0.380835 0.778331 0.091815
0.384722 0.777271 0.091699
0.389252 0.783939 0.092349
0.393341 0.785028 0.092449
0.397218 0.783793 0.092320
0.401166 0.783426 0.092279
0.405070 0.782696 0.092204
0.409065 0.782888 0.092222
0.413135 0.783735 0.092307
0.417002 0.782815 0.092218
0.420961 0.782719 0.092213
0.424825 0.781885 0.092137
0.428701 0.781212 0.092078
0.433046 0.783991 0.092363
0.436709 0.781784 0.092156
0.440603 0.781281 0.092119
0.444650 0.781813 0.092186
0.451180 0.798158 0.093823
0.454916 0.796198 0.093647
0.458055 0.790737 0.093126
0.461642 0.788180 0.092894
0.465553 0.787592 0.092858
0.469433 0.786834 0.092808
0.473152 0.785222 0.092674
0.476962 0.784140 0.092594
0.482456 0.791733 0.093377
0.487076 0.794546 0.093688
0.491114 0.794352 0.093701
0.494563 0.791316 0.093432
0.498265 0.789567 0.093293
0.504133 0.797754 0.094145
0.508844 0.800377 0.094444
0.510643 0.790115 0.093460
0.514609 0.789527 0.093442
0.518415 0.788246 0.093356
0.522480 0.788047 0.093378
0.528894 0.797279 0.094344
0.534497 0.802909 0.094952
0.539274 0.805079 0.095216
0.541169 0.796168 0.094373
0.545143 0.795304 0.094336
0.549381 0.795395 0.094395
0.552730 0.792238 0.094130
0.555885 0.788466 0.093804
0.559893 0.787744 0.093784
0.564254 0.788209 0.093885
0.571372 0.797862 0.094909
0.577495 0.803866 0.095569
0.580418 0.799244 0.095162
0.583008 0.793663 0.094659
0.586730 0.791771 0.094527
0.591217 0.792261 0.094637
0.595858 0.793156 0.094788
0.601861 0.798059 0.095345
0.607380 0.801337 0.095739
0.609983 0.796002 0.095264
0.616602 0.802269 0.095962
0.621216 0.802655 0.096067
0.623187 0.795640 0.095423
0.628039 0.796671 0.095595
0.631973 0.795149 0.095508
0.636292 0.794646 0.095526
0.640863 0.794775 0.095608
0.645811 0.795831 0.095786
0.650264 0.795546 0.095828
0.655031 0.796017 0.095948
0.659531 0.795766 0.095995
0.664208 0.795910 0.096083
0.668674 0.795493 0.096114
0.678449 0.807708 0.097438
0.683576 0.808617 0.097607
0.688883 0.809875 0.097814
0.694087 0.810817 0.097989
0.697438 0.807494 0.097727
0.699726 0.801832 0.097225
0.703812 0.800236 0.097140
0.709902 0.803007 0.097506
0.713005 0.799227 0.097198
0.717217 0.797857 0.097138
0.727966 0.810223 0.098497
0.733821 0.812081 0.098773
0.734898 0.804036 0.098026
0.738179 0.800609 0.097757
0.743275 0.800858 0.097869
0.748421 0.801155 0.097986
0.752731 0.799763 0.097929
0.765895 0.815508 0.099653
0.774619 0.822349 0.100455
0.776621 0.816263 0.099914
0.776601 0.806484 0.098987
0.780742 0.804579 0.098881
0.792233 0.816127 0.100180
0.797195 0.815557 0.100216
0.804847 0.819770 0.100753
0.810009 0.819434 0.100816
0.811876 0.813290 0.100270
0.815909 0.810984 0.100127
0.819697 0.808262 0.099941
0.826120 0.810022 0.100227
0.832633 0.811851 0.100522
0.838653 0.812777 0.100723
0.846066 0.815927 0.101161
0.851438 0.815644 0.101238
0.856572 0.814938 0.101271
0.862431 0.815354 0.101424
0.869557 0.817712 0.101785
0.879143 0.823813 0.102546
0.885120 0.824167 0.102698
0.888914 0.821127 0.102491
0.891697 0.816568 0.102122
0.898367 0.817877 0.102381
0.906684 0.821554 0.102894
0.913301 0.822610 0.103130
0.918215 0.821117 0.103095
0.923579 0.820251 0.103128
0.932888 0.824976 0.103764
0.948637 0.838651 0.105367
0.943571 0.822898 0.103804
0.948172 0.820784 0.103711
0.954570 0.821122 0.103884
0.961211 0.821728 0.104089
0.966299 0.820178 0.104062
0.972794 0.820476 0.104238
0.979333 0.820770 0.104416
0.987800 0.823522 0.104864
0.993695 0.822833 0.104941
0.999657 0.822184 0.105025
1.006643 0.822788 0.105248
1.014530 0.824454 0.105591
1.020302 0.823391 0.105637
1.026765 0.823137 0.105776
1.033807 0.823534 0.105989
1.040901 0.823921 0.106205
1.050081 0.826740 0.106693
1.056555 0.826221 0.106815
1.062741 0.825305 0.106897
1.073202 0.829326 0.107532
1.079542 0.828437 0.107625
1.087191 0.828994 0.107883
1.095083 0.829742 0.108166
1.103205 0.830663 0.108473
1.109368 0.829308 0.108530
1.119512 0.832294 0.109078
1.126533 0.831735 0.109233
1.133571 0.831125 0.109386
1.144413 0.834526 0.109999
1.151888 0.834203 0.110194
1.159345 0.833784 0.110384
1.167172 0.833675 0.110614
1.175447 0.833944 0.110892
1.182733 0.833110 0.111049
1.190698 0.832890 0.111282
1.202377 0.836315 0.111940
1.212177 0.837714 0.112372
1.218195 0.835268 0.112365
1.228554 0.837011 0.112848
1.236861 0.836642 0.113093
1.246730 0.837680 0.113508
1.250406 0.832725 0.113227
1.259891 0.833226 0.113589
1.276837 0.840563 0.114765
1.284603 0.839198 0.114922
1.296184 0.841242 0.115488
1.304081 0.839816 0.115649
1.314491 0.840567 0.116075
1.322932 0.839457 0.116284
1.331917 0.838748 0.116546
1.341137 0.838157 0.116827
1.354144 0.840745 0.117497
1.363459 0.840036 0.117773
1.377105 0.842907 0.118489
1.385567 0.841294 0.118664
1.401962 0.846196 0.119640
1.410713 0.844648 0.119829
1.421449 0.844662 0.120211
1.437923 0.849215 0.121158
1.450373 0.850404 0.121691
1.460493 0.849665 0.121984
1.475404 0.852627 0.122739
1.484485 0.850967 0.122914
1.496437 0.851495 0.123361
1.506885 0.850835 0.123653
1.516897 0.849832 0.123896
1.526310 0.848382 0.124075
1.536990 0.847883 0.124367
1.547249 0.847085 0.124611
1.559283 0.847595 0.125013
1.569623 0.846896 0.125248
1.573542 0.841666 0.124886
0.245604 0.762636 0.087132
0.247696 0.778175 0.088638
0.251922 0.769584 0.087838
0.255814 0.765090 0.087424
0.259150 0.768473 0.087754
0.262860 0.767447 0.087660
0.266303 0.771194 0.088016
0.269225 0.785139 0.089339
0.273253 0.781596 0.088991
0.277340 0.776901 0.088530
0.281469 0.770963 0.087947
0.285262 0.772722 0.088095
0.289081 0.774865 0.088277
0.292967 0.776180 0.088377
0.296920 0.776012 0.088334
0.300807 0.779693 0.088656
0.304814 0.778784 0.088540
0.308823 0.777874 0.088423
0.312842 0.775334 0.088150
0.316839 0.774331 0.088023
0.320838 0.775811 0.088132
0.324894 0.782257 0.088713
0.328984 0.786459 0.089080
0.333101 0.789861 0.089371
0.337123 0.787647 0.089131
0.340916 0.777977 0.088185
0.344926 0.777989 0.088157
0.348962 0.778787 0.088206
0.352987 0.779235 0.088222
0.357008 0.779605 0.088232
0.361083 0.781010 0.088341
0.365238 0.783689 0.088573
0.369534 0.788331 0.088991
0.373251 0.783584 0.088523
0.377141 0.781991 0.088355
0.381011 0.780375 0.088186
0.384817 0.778217 0.087968
0.389029 0.781117 0.088229
0.392980 0.780847 0.088193
0.396946 0.780797 0.088179
0.401099 0.782658 0.088347
0.405063 0.782566 0.088333
0.409218 0.784252 0.088488
0.413059 0.783046 0.088371
0.417045 0.783171 0.088382
0.420991 0.782980 0.088365
0.424817 0.781859 0.088262
0.428681 0.781111 0.088195
0.432702 0.781553 0.088243
0.437078 0.784461 0.088525
0.440855 0.783092 0.088405
0.444781 0.782776 0.088385
0.451517 0.800427 0.090065
0.455373 0.799161 0.089959
0.458153 0.791463 0.089247
0.461571 0.787910 0.088928
0.465410 0.786926 0.088853
0.469230 0.785868 0.088773
0.472916 0.784112 0.088628
0.477002 0.784524 0.088689
0.482721 0.793272 0.089541
0.486952 0.794116 0.089647
0.491186 0.794896 0.089747
0.495189 0.794505 0.089738
0.498651 0.791572 0.089490
0.501990 0.788170 0.089198
0.507847 0.796131 0.089984
0.510614 0.790203 0.089455
0.514499 0.789271 0.089401
0.517730 0.785595 0.089087
0.521857 0.785708 0.089134
0.528778 0.797040 0.090249
0.533993 0.801147 0.090678
0.536058 0.792849 0.089929
0.539558 0.790277 0.089725
0.545638 0.797388 0.090445
0.550411 0.799407 0.090681
0.552033 0.789968 0.089825
0.555988 0.789072 0.089784
0.559904 0.788023 0.089730
0.564325 0.788692 0.089841
0.572275 0.801139 0.091078
0.578746 0.808243 0.091807
0.581295 0.802338 0.091292
0.582399 0.791965 0.090350
0.586887 0.792513 0.090454
0.591160 0.792331 0.090489
0.595758 0.793103 0.090616
0.599980 0.792675 0.090629
0.606405 0.798714 0.091264
0.611072 0.799418 0.091388
0.615530 0.799456 0.091449
0.620165 0.799946 0.091553
0.624317 0.799034 0.091524
0.627944 0.796664 0.091354
0.632136 0.795844 0.091335
0.636205 0.794670 0.091282
0.641058 0.795543 0.091427
0.645531 0.795361 0.091471
0.650297 0.795888 0.091585
0.654780 0.795641 0.091624
0.659458 0.795840 0.091707
0.664032 0.795733 0.091761
0.668814 0.796089 0.091861
0.677124 0.804807 0.092773
0.685748 0.813992 0.093734
0.689389 0.811311 0.093541
0.692677 0.807844 0.093273
0.696343 0.805274 0.093092
0.698541 0.799438 0.092592
0.703035 0.798775 0.092598
0.707867 0.798825 0.092673
0.713327 0.800179 0.092877
0.717895 0.799559 0.092889
0.726092 0.806543 0.093646
0.733029 0.810696 0.094127
0.733626 0.801683 0.093318
0.738483 0.801485 0.093374
0.742917 0.800398 0.093342
0.748795 0.802155 0.093592
0.754445 0.803382 0.093790
0.762583 0.809354 0.094457
0.773195 0.819886 0.095576
0.779897 0.822733 0.095939
0.776985 0.807464 0.094512
0.780108 0.803668 0.094218
0.787569 0.807853 0.094715
0.794446 0.810844 0.095095
0.792517 0.797952 0.093900
0.805689 0.812049 0.095385
0.813234 0.815936 0.095859
0.815128 0.809897 0.095346
0.820040 0.809116 0.095356
0.826161 0.810361 0.095570
0.832886 0.812546 0.095879
0.839095 0.813781 0.096095
0.848014 0.819400 0.096751
0.853578 0.819398 0.096845
0.856535 0.815151 0.096516
0.862081 0.815070 0.096605
0.868752 0.816718 0.096869
0.877764 0.821939 0.097494
0.884279 0.823148 0.097718
0.886202 0.817259 0.097227
0.890651 0.815265 0.097130
0.896531 0.815406 0.097250
0.902903 0.816226 0.097440
0.909529 0.817353 0.097663
0.916681 0.819173 0.097958
0.922275 0.818661 0.098018
0.931370 0.823103 0.098584
0.941686 0.829131 0.099315
0.944760 0.824856 0.098998
0.948897 0.822084 0.098836
0.954723 0.821630 0.098911
0.960662 0.821282 0.099000
0.966418 0.820640 0.099061
0.971253 0.818727 0.098992
0.980076 0.822059 0.099466
0.988152 0.824291 0.099829
0.993866 0.823366 0.099870
0.999654 0.822495 0.099918
1.005638 0.821828 0.099990
1.012821 0.822622 0.100216
1.019898 0.823208 0.100423
1.026703 0.823386 0.100591
1.034649 0.824892 0.100900
1.040982 0.824350 0.100999
1.048361 0.825009 0.101226
1.057038 0.827133 0.101610
1.065753 0.829194 0.101992
1.072986 0.829418 0.102185
1.080170 0.829511 0.102367
1.087620 0.829836 0.102578
1.094757 0.829728 0.102746
1.101530 0.829137 0.102867
1.109294 0.829587 0.103103
1.119152 0.832264 0.103579
1.127332 0.832978 0.103852
1.133675 0.831610 0.103906
1.140494 0.830699 0.104014
1.151188 0.833841 0.104560
1.158810 0.833607 0.104749
1.165549 0.832372 0.104835
1.175186 0.834069 0.105241
1.183559 0.834353 0.105501
1.191465 0.834070 0.105704
1.198178 0.832503 0.105772
1.204791 0.830775 0.105827
1.218181 0.835669 0.106610
1.226706 0.835626 0.106860
1.236043 0.836275 0.107192
1.246927 0.838297 0.107680
1.252355 0.835005 0.107588
1.262015 0.835657 0.107937
1.273768 0.838146 0.108496
1.283592 0.838710 0.108847
1.286609 0.832945 0.108496
1.294945 0.832003 0.108688
1.312966 0.839656 0.109851
1.322261 0.839321 0.110124
1.333672 0.840751 0.110601
1.342462 0.839774 0.110811
1.351512 0.838943 0.111041
1.364323 0.841242 0.111633
1.374575 0.841239 0.111966
1.381843 0.838647 0.112005
1.404053 0.848403 0.113471
1.413204 0.847165 0.113674
1.422994 0.846388 0.113932
1.435502 0.847738 0.114438
1.448611 0.849469 0.114990
1.461893 0.851237 0.115549
1.472771 0.851032 0.115875
1.485538 0.852240 0.116366
1.495885 0.851524 0.116628
1.506517 0.851002 0.116908
1.517821 0.850965 0.117241
1.527939 0.850025 0.117460
1.537551 0.848716 0.117627
1.547170 0.847435 0.117788
1.558835 0.847668 0.118122
1.570705 0.848059 0.118466
1.592611 0.855613 0.119667
0.243830 0.782472 0.085273
0.247732 0.777744 0.084863
0.251563 0.774078 0.084544
0.254481 0.782660 0.085332
0.259035 0.770240 0.084208
0.262391 0.774643 0.084607
0.265822 0.779169 0.085013
0.269452 0.781670 0.085230
0.273236 0.782430 0.085286
0.277319 0.777959 0.084863
0.280920 0.784030 0.085394
0.285306 0.772508 0.084326
0.289154 0.773840 0.084422
0.292940 0.778318 0.084801
0.296906 0.778114 0.084754
0.300844 0.779833 0.084879
0.304812 0.781480 0.084997
0.308852 0.778993 0.084739
0.312885 0.775000 0.084345
0.316880 0.773793 0.084203
0.320882 0.777105 0.084469
0.324971 0.786839 0.085315
0.329021 0.786265 0.085230
0.333048 0.784762 0.085062
0.337114 0.785631 0.085108
0.340985 0.779224 0.084499
0.344993 0.779034 0.084452
0.348994 0.778796 0.084402
0.352995 0.778711 0.084366
0.356993 0.778691 0.084338
0.361080 0.780464 0.084472
0.365306 0.784469 0.084808
0.369669 0.790184 0.085300
0.374131 0.796629 0.085858
0.377732 0.790085 0.085249
0.381438 0.785822 0.084848
0.385595 0.787740 0.085003
0.389064 0.781407 0.084419
0.392924 0.780133 0.084291
0.396945 0.780718 0.084331
0.401248 0.784113 0.084625
0.405929 0.790853 0.085222
0.410049 0.791880 0.085307
0.414759 0.798021 0.085852
0.418590 0.796258 0.085690
0.422761 0.797398 0.085789
0.427022 0.799166 0.085947
0.430926 0.798115 0.085853
0.434192 0.792493 0.085350
0.438489 0.794493 0.085533
0.441866 0.790088 0.085143
0.445843 0.789907 0.085133
0.450912 0.796702 0.085751
0.455780 0.801834 0.086221
0.459263 0.798306 0.085915
0.461315 0.786573 0.084873
0.465537 0.787823 0.084999
0.468918 0.784313 0.084698
0.472919 0.784314 0.084714
0.477136 0.785418 0.084831
0.481884 0.789169 0.085187
0.486032 0.789703 0.085254
0.491085 0.794608 0.085717
0.495718 0.797246 0.085977
0.499976 0.797977 0.086067
0.502091 0.788845 0.085269
0.505713 0.786812 0.085112
0.511754 0.795411 0.085914
0.514697 0.790344 0.085485
0.519405 0.792850 0.085740
0.524191 0.795537 0.086013
0.524341 0.779390 0.084587
0.531915 0.793172 0.085863
0.535422 0.790622 0.085666
0.539011 0.788433 0.085503
0.548132 0.806942 0.087212
0.550927 0.801544 0.086760
0.553530 0.795603 0.086260
0.556697 0.791821 0.085956
0.561881 0.795138 0.086295
0.565996 0.794645 0.086291
0.573374 0.805078 0.087278
0.578999 0.809334 0.087706
0.583412 0.809465 0.087761
0.583110 0.794488 0.086445
0.586212 0.790644 0.086139
0.590891 0.791753 0.086285
0.595385 0.792220 0.086373
0.599471 0.791403 0.086344
0.604450 0.793201 0.086555
0.610078 0.796784 0.086930
0.615083 0.798432 0.087128
0.620804 0.802007 0.087504
0.625313 0.802061 0.087560
0.631533 0.806753 0.088039
0.632140 0.796110 0.087118
0.636003 0.794389 0.087012
0.641297 0.796426 0.087251
0.646068 0.797006 0.087358
0.650227 0.795965 0.087316
0.654744 0.795806 0.087356
0.659087 0.795174 0.087353
0.665338 0.799191 0.087778
0.668960 0.796698 0.087605
0.677421 0.805773 0.088497
0.683803 0.809672 0.088915
0.689087 0.810870 0.089084
0.693019 0.808888 0.088961
0.700028 0.813885 0.089483
0.702337 0.808192 0.089018
0.702996 0.798947 0.088224
0.707289 0.797819 0.088181
0.713812 0.801483 0.088582
0.718905 0.801966 0.088690
0.726205 0.807040 0.089224
0.732606 0.810078 0.089570
0.734850 0.804457 0.089113
0.737453 0.799650 0.088732
0.743156 0.801136 0.088936
0.749505 0.803823 0.089252
0.757505 0.809640 0.089862
0.766190 0.816607 0.090581
0.772764 0.819326 0.090904
0.779272 0.821814 0.091208
0.779260 0.802356 0.089530
0.787316 0.807651 0.090098
0.792425 0.807446 0.090151
0.801030 0.813465 0.090790
0.806466 0.813691 0.090886
0.813168 0.816086 0.091187
0.816043 0.811748 0.090856
0.820101 0.809488 0.090720
0.826153 0.810613 0.090904
0.832610 0.812350 0.091148
0.838373 0.812849 0.091275
0.847468 0.818775 0.091917
0.854391 0.820994 0.092211
0.856392 0.815193 0.091745
0.861429 0.814304 0.091746
0.867960 0.815743 0.091968
0.877580 0.821929 0.092644
0.883393 0.822057 0.092745
0.886321 0.817718 0.092422
0.890674 0.815577 0.092310
0.896674 0.815900 0.092433
0.902749 0.816278 0.092563
0.908151 0.815610 0.092595
0.915308 0.817459 0.092869
0.922572 0.819374 0.093151
0.931945 0.824212 0.093716
0.940327 0.827501 0.094135
0.945135 0.825674 0.094064
0.949514 0.823233 0.093935
0.954759 0.821974 0.093921
0.960356 0.821162 0.093952
