ply
format ascii 1.0
comment ---
element vertex 1735
property float x
property float y
property float z
element face 0
property list uchar uint vertex_indices
end_header
0.358706 0.812025 0.181305
0.361224 0.807353 0.180218
0.362641 0.800167 0.178468
0.364526 0.794365 0.177048
0.374217 0.807467 0.180435
0.372740 0.793925 0.176993
0.375924 0.791684 0.176414
0.379387 0.790229 0.176011
0.378544 0.779060 0.173103
0.382899 0.779984 0.173260
0.393757 0.795538 0.177124
0.396819 0.793608 0.176500
0.403476 0.799703 0.177895
0.408219 0.801632 0.178201
0.412195 0.801985 0.178080
0.417351 0.804952 0.178597
0.420507 0.803759 0.178032
0.426164 0.807923 0.178800
0.427816 0.803831 0.177452
0.409024 0.757958 0.165527
-0.479259 0.740113 0.176179
-0.475870 0.740661 0.176504
-0.471649 0.739981 0.176469
-0.467065 0.738795 0.176270
-0.463210 0.738849 0.176382
-0.461935 0.743187 0.177636
-0.457645 0.742736 0.177555
-0.453276 0.742227 0.177432
-0.450052 0.743703 0.177821
-0.445667 0.743330 0.177679
-0.441850 0.743993 0.177791
-0.438384 0.745346 0.178064
-0.434782 0.746562 0.178272
-0.430403 0.746513 0.178108
-0.427374 0.748914 0.178585
-0.423230 0.749437 0.178525
-0.419153 0.750148 0.178491
-0.413664 0.748359 0.177756
-0.409490 0.749000 0.177657
-0.404378 0.747956 0.177081
-0.400498 0.749245 0.177116
-0.397342 0.751974 0.177520
-0.393300 0.753087 0.177470
-0.388677 0.753120 0.177112
-0.383840 0.752754 0.176633
-0.379680 0.753736 0.176502
-0.375362 0.754431 0.176282
-0.369520 0.752043 0.175229
-0.365559 0.753470 0.175186
-0.361586 0.754899 0.175135
-0.356880 0.754805 0.174672
-0.352241 0.754835 0.174237
-0.347387 0.754380 0.173671
-0.343340 0.755659 0.173559
-0.339278 0.756909 0.173438
-0.335111 0.757925 0.173253
-0.330314 0.757498 0.172690
-0.324982 0.755783 0.171792
-0.320796 0.756668 0.171576
-0.316588 0.757484 0.171344
-0.312106 0.757618 0.170937
-0.307591 0.757630 0.170503
-0.303896 0.759624 0.170585
-0.299977 0.761063 0.170527
-0.294871 0.759475 0.169694
-0.289654 0.757502 0.168769
-0.285944 0.759367 0.168836
-0.282039 0.760713 0.168775
-0.277728 0.760953 0.168436
-0.273479 0.761318 0.168135
-0.269410 0.762140 0.167957
-0.264358 0.760161 0.167075
-0.260092 0.760319 0.166742
-0.256159 0.761392 0.166648
-0.252601 0.763557 0.166835
-0.248083 0.762853 0.166305
-0.243846 0.762933 0.165979
-0.239646 0.763074 0.165676
-0.235172 0.762302 0.165150
-0.231188 0.763024 0.165007
-0.227082 0.763318 0.164762
-0.223136 0.764101 0.164646
-0.219330 0.765334 0.164649
-0.215310 0.765823 0.164473
-0.211234 0.766082 0.164245
-0.207581 0.767805 0.164387
-0.202654 0.764929 0.163395
-0.198712 0.765529 0.163271
-0.194653 0.765663 0.163038
-0.190313 0.764677 0.162535
-0.186913 0.767280 0.162922
-0.183063 0.768144 0.162886
-0.178794 0.767290 0.162433
-0.174709 0.767120 0.162155
-0.170535 0.766518 0.161775
-0.167281 0.769834 0.162363
-0.162756 0.767618 0.161599
-0.158792 0.767803 0.161429
-0.154379 0.765870 0.160747
-0.150334 0.765549 0.160464
-0.146643 0.766886 0.160590
-0.142991 0.768436 0.160773
-0.139170 0.769166 0.160760
-0.135150 0.768849 0.160498
-0.131257 0.769152 0.160390
-0.127431 0.769802 0.160371
-0.123501 0.769862 0.160213
-0.119919 0.771902 0.160539
-0.115433 0.768613 0.159580
-0.111720 0.769851 0.159720
-0.107841 0.770073 0.159618
-0.104089 0.771104 0.159716
-0.100341 0.772182 0.159829
-0.096478 0.772498 0.159761
-0.092643 0.772990 0.159740
-0.088696 0.772646 0.159521
-0.084857 0.773076 0.159492
-0.081146 0.774533 0.159714
-0.077434 0.776058 0.159955
-0.073712 0.777589 0.160201
-0.069561 0.775294 0.159532
-0.065719 0.775708 0.159516
-0.061771 0.775057 0.159249
-0.057963 0.775768 0.159312
-0.054023 0.775070 0.159040
-0.050230 0.775955 0.159151
-0.046424 0.776750 0.159244
-0.042496 0.776011 0.158973
-0.038489 0.774029 0.158409
-0.034819 0.776761 0.158973
-0.031035 0.778044 0.159195
-0.027247 0.779421 0.159442
-0.023438 0.780606 0.159647
-0.019487 0.779026 0.159195
-0.015562 0.777657 0.158797
-0.011735 0.778457 0.158920
-0.007859 0.777977 0.158740
-0.004069 0.780250 0.159220
-0.000231 0.781418 0.159439
0.003688 0.778911 0.158787
0.007527 0.780154 0.159031
0.011400 0.779168 0.158748
0.015249 0.780797 0.159090
0.019113 0.781039 0.159106
0.022978 0.780783 0.159006
0.026848 0.781419 0.159122
0.030692 0.779611 0.158661
0.034593 0.781899 0.159176
0.038492 0.783113 0.159440
0.042361 0.782824 0.159351
0.046212 0.782004 0.159139
0.050120 0.782920 0.159342
0.054052 0.784163 0.159628
0.057943 0.784243 0.159641
0.061789 0.783378 0.159433
0.065681 0.783454 0.159453
0.069548 0.783082 0.159370
0.073393 0.782369 0.159211
0.077329 0.783031 0.159382
0.081531 0.787136 0.160375
0.085334 0.785681 0.160052
0.089088 0.783754 0.159620
0.092813 0.781675 0.159157
0.096942 0.784086 0.159766
0.100876 0.784233 0.159841
0.104745 0.783689 0.159756
0.108692 0.783872 0.159849
0.112497 0.782739 0.159634
0.116290 0.781548 0.159410
0.120268 0.781926 0.159563
0.124460 0.783909 0.160105
0.128692 0.786000 0.160677
0.133471 0.791913 0.162166
0.137391 0.791292 0.162103
0.140744 0.786782 0.161118
0.144567 0.785622 0.160937
0.149713 0.792976 0.162794
0.153899 0.793857 0.163112
0.157776 0.792768 0.162966
0.161582 0.791273 0.162728
0.165412 0.789949 0.162535
0.169399 0.789506 0.162560
0.173590 0.790142 0.162849
0.177658 0.790040 0.162967
0.181974 0.791164 0.163386
0.186401 0.792731 0.163917
0.191503 0.797463 0.165216
0.194244 0.790661 0.163748
0.199010 0.793544 0.164615
0.204917 0.801438 0.166697
0.208656 0.799275 0.166363
0.213323 0.801192 0.167020
0.217973 0.802894 0.167631
0.219031 0.789496 0.164596
0.223694 0.791314 0.165245
0.229147 0.796166 0.166636
0.234613 0.800819 0.167987
0.238571 0.799442 0.167880
0.242502 0.797966 0.167753
0.245679 0.793708 0.166954
0.249453 0.791727 0.166711
0.254678 0.794933 0.167737
0.260319 0.799432 0.169085
0.265278 0.801386 0.169816
0.268799 0.798384 0.169337
0.272275 0.795296 0.168837
0.276992 0.796318 0.169346
0.280887 0.794643 0.169193
0.284945 0.793507 0.169172
0.289963 0.795354 0.169885
0.294466 0.795550 0.170190
0.298875 0.795445 0.170418
0.304773 0.799722 0.171727
0.308535 0.797654 0.171462
0.311646 0.793784 0.170743
0.316388 0.794632 0.171187
0.321498 0.796482 0.171872
0.324572 0.792726 0.171154
0.328400 0.791129 0.170961
0.335072 0.797167 0.172659
0.336465 0.789231 0.170860
0.340185 0.787568 0.170610
0.346606 0.792887 0.172088
0.354226 0.801137 0.174284
0.360054 0.804779 0.175312
0.361192 0.796885 0.173432
0.368809 0.794679 0.173009
0.375285 0.800044 0.174385
0.377033 0.794317 0.172958
0.371182 0.771243 0.167163
0.377158 0.775814 0.168269
0.377882 0.768507 0.166376
0.390516 0.788091 0.171191
0.400326 0.801115 0.174334
0.404693 0.802057 0.174428
0.408635 0.802165 0.174286
0.413514 0.804394 0.174649
0.417508 0.804809 0.174532
0.421664 0.805670 0.174502
0.426511 0.808068 0.174827
0.426254 0.799976 0.172522
0.425989 0.792120 0.170257
-0.484872 0.742451 0.172724
-0.478402 0.738150 0.171763
-0.475544 0.739562 0.172300
-0.471839 0.739736 0.172482
-0.467716 0.739328 0.172481
-0.464504 0.740469 0.172868
-0.460337 0.740161 0.172840
-0.457492 0.742099 0.173386
-0.454595 0.744067 0.173913
-0.449888 0.743131 0.173633
-0.446155 0.743898 0.173783
-0.441941 0.743940 0.173710
-0.437449 0.743581 0.173503
-0.434808 0.746493 0.174144
-0.431299 0.748012 0.174386
-0.426837 0.747942 0.174177
-0.422192 0.747607 0.173873
-0.418521 0.749076 0.174026
-0.413949 0.748988 0.173741
-0.409609 0.749374 0.173560
-0.405186 0.749653 0.173331
-0.400512 0.749506 0.172969
-0.396715 0.751054 0.173038
-0.393146 0.753101 0.173221
-0.388258 0.752650 0.172730
-0.383500 0.752461 0.172294
-0.378951 0.752692 0.171957
-0.374484 0.753098 0.171654
-0.369984 0.753447 0.171328
-0.365727 0.754301 0.171125
-0.360945 0.754069 0.170632
-0.355948 0.753363 0.170011
-0.351791 0.754418 0.169844
-0.347641 0.755490 0.169677
-0.343452 0.756478 0.169485
-0.339251 0.757436 0.169284
-0.333319 0.754486 0.168078
-0.329442 0.756112 0.168050
-0.325305 0.757142 0.167869
-0.320733 0.757140 0.167426
-0.316026 0.756772 0.166893
-0.311479 0.756735 0.166448
-0.307566 0.758196 0.166388
-0.303176 0.758471 0.166031
-0.298980 0.759189 0.165790
-0.293643 0.756974 0.164815
-0.289674 0.758176 0.164708
-0.286026 0.760199 0.164812
-0.282064 0.761397 0.164713
-0.277768 0.761675 0.164390
-0.273390 0.761681 0.164005
-0.268740 0.760879 0.163426
-0.264370 0.760789 0.163031
-0.260098 0.760920 0.162698
-0.256257 0.762258 0.162672
-0.252571 0.764039 0.162760
-0.247431 0.761461 0.161778
-0.243729 0.763130 0.161852
-0.239615 0.763524 0.161618
-0.235390 0.763529 0.161294
-0.231074 0.763188 0.160893
-0.227181 0.764160 0.160821
-0.223248 0.764984 0.160718
-0.219149 0.765224 0.160479
-0.215202 0.765946 0.160363
-0.211411 0.767185 0.160380
-0.206914 0.765905 0.159790
-0.203433 0.768216 0.160079
-0.198393 0.764805 0.158985
-0.194495 0.765510 0.158896
-0.189992 0.763875 0.158248
-0.186182 0.764840 0.158233
-0.182798 0.767497 0.158632
-0.178873 0.768012 0.158519
-0.174703 0.767484 0.158161
-0.170853 0.768249 0.158119
-0.166922 0.768649 0.157995
-0.163494 0.771246 0.158402
-0.158609 0.767320 0.157251
-0.154585 0.767162 0.157009
-0.150731 0.767753 0.156950
-0.146891 0.768403 0.156911
-0.143192 0.769740 0.157039
-0.139354 0.770396 0.157009
-0.135441 0.770649 0.156888
-0.131665 0.771610 0.156940
-0.127919 0.772749 0.157038
-0.124070 0.773328 0.157007
-0.120010 0.772668 0.156685
-0.116042 0.772479 0.156480
-0.111591 0.769262 0.155563
-0.107943 0.770918 0.155803
-0.104338 0.772917 0.156128
-0.100692 0.774722 0.156410
-0.096741 0.774486 0.156214
-0.092655 0.773215 0.155777
-0.088747 0.773148 0.155628
-0.084948 0.773882 0.155672
-0.081178 0.774878 0.155780
-0.077388 0.775743 0.155861
-0.073531 0.776053 0.155815
-0.069731 0.776873 0.155892
-0.065725 0.775763 0.155519
-0.061793 0.775249 0.155290
-0.057955 0.775638 0.155275
-0.054157 0.776463 0.155367
-0.050269 0.776300 0.155229
-0.046399 0.776300 0.155133
-0.042379 0.774286 0.154569
-0.038622 0.775642 0.154798
-0.034847 0.776897 0.155005
-0.031059 0.778076 0.155198
-0.027241 0.778894 0.155309
-0.023388 0.779154 0.155292
-0.019524 0.779192 0.155227
-0.015670 0.779432 0.155213
-0.011812 0.779567 0.155176
-0.007987 0.780689 0.155374
-0.004139 0.781319 0.155459
-0.000222 0.779357 0.154944
0.003621 0.780109 0.155064
0.007500 0.778886 0.154727
0.011341 0.780219 0.154989
0.015199 0.780458 0.154999
0.019060 0.780648 0.155002
0.022924 0.781232 0.155099
0.026797 0.782298 0.155312
0.030685 0.783690 0.155603
0.034558 0.783505 0.155532
0.038422 0.783015 0.155392
0.042273 0.782135 0.155166
0.046139 0.781974 0.155110
0.050025 0.782378 0.155189
0.053971 0.784111 0.155581
0.057877 0.784570 0.155681
0.061756 0.784395 0.155636
0.065524 0.782208 0.155128
0.069563 0.784835 0.155743
0.073324 0.782766 0.155270
0.077428 0.785849 0.155999
0.081364 0.786257 0.156110
0.085203 0.785349 0.155919
0.089032 0.784383 0.155719
0.093079 0.785938 0.156109
0.096929 0.785183 0.155967
0.100828 0.784956 0.155951
0.104828 0.785690 0.156164
0.108672 0.784869 0.156020
0.112510 0.784024 0.155874
0.116377 0.783446 0.155796
0.120764 0.787130 0.156715
0.124719 0.787086 0.156771
0.128698 0.787182 0.156865
0.132564 0.786391 0.156756
0.137021 0.789788 0.157631
0.140568 0.786684 0.156992
0.144991 0.789538 0.157751
0.149349 0.791750 0.158366
0.153368 0.791657 0.158448
0.156834 0.788177 0.157743
0.160830 0.787958 0.157806
0.164757 0.787304 0.157772
0.169252 0.789792 0.158481
0.173365 0.790022 0.158667
0.177469 0.790146 0.158835
0.181181 0.788187 0.158518
0.185786 0.790748 0.159270
0.190228 0.792336 0.159800
0.194450 0.792744 0.160059
0.198439 0.791983 0.160048
0.202624 0.792101 0.160250
0.206309 0.789927 0.159918
0.210552 0.790224 0.160174
0.214756 0.790289 0.160382
0.219323 0.791808 0.160940
0.223643 0.792197 0.161237
0.228314 0.793924 0.161857
0.232973 0.795479 0.162443
0.237850 0.797759 0.163207
0.241209 0.794174 0.162581
0.245186 0.792956 0.162522
0.250364 0.796097 0.163508
0.255323 0.798291 0.164273
0.259789 0.798635 0.164602
0.266731 0.807427 0.166957
0.269175 0.800684 0.165595
0.273176 0.799296 0.165517
0.278000 0.800601 0.166088
0.280650 0.794864 0.164965
0.284812 0.794047 0.165026
0.288856 0.792865 0.164998
0.294634 0.796982 0.166249
0.299096 0.797002 0.166509
0.305964 0.804109 0.168484
0.308503 0.798398 0.167349
0.312135 0.795988 0.167007
0.316608 0.796021 0.167253
0.318869 0.789911 0.165995
0.325510 0.795984 0.167695
0.331433 0.799961 0.168877
0.334044 0.795041 0.167877
0.337896 0.793541 0.167699
0.344830 0.800095 0.169477
0.349037 0.799553 0.169505
0.354498 0.802236 0.170306
0.356516 0.796342 0.168989
0.361219 0.797253 0.169320
0.359586 0.782846 0.165872
0.367879 0.792639 0.168342
0.374774 0.798966 0.169941
0.377004 0.794318 0.168823
0.377336 0.785481 0.166652
0.375529 0.772045 0.163328
0.386521 0.787934 0.167181
0.395340 0.798716 0.169754
0.401998 0.804594 0.171096
0.405304 0.803116 0.170608
0.408532 0.801609 0.170087
0.412698 0.802253 0.170068
0.417842 0.805076 0.170556
0.422662 0.807277 0.170865
0.428510 0.811693 0.171688
0.431993 0.811254 0.171301
0.413822 0.766557 0.160124
-0.483354 0.739464 0.168039
-0.479344 0.739028 0.168095
-0.475358 0.738711 0.168158
-0.472410 0.740120 0.168647
-0.468740 0.740484 0.168836
-0.463481 0.738378 0.168349
-0.460269 0.739649 0.168722
-0.457912 0.742429 0.169464
-0.454963 0.744361 0.169956
-0.450985 0.744691 0.169999
-0.446113 0.743602 0.169642
-0.442296 0.744363 0.169744
-0.438381 0.745044 0.169798
-0.434354 0.745616 0.169796
-0.431039 0.747513 0.170115
-0.426147 0.746724 0.169707
-0.422539 0.748272 0.169885
-0.417317 0.746996 0.169302
-0.414084 0.749367 0.169649
-0.410303 0.750825 0.169735
-0.405800 0.751009 0.169470
-0.400259 0.749282 0.168691
-0.397387 0.752619 0.169208
-0.392938 0.753026 0.168949
-0.388100 0.752699 0.168487
-0.383523 0.752892 0.168146
-0.378618 0.752444 0.167629
-0.374180 0.752930 0.167343
-0.370114 0.754181 0.167244
-0.365782 0.754905 0.167002
-0.360255 0.753139 0.166119
-0.355615 0.753187 0.165695
-0.351520 0.754381 0.165559
-0.347886 0.756581 0.165674
-0.343397 0.756932 0.165318
-0.338863 0.757157 0.164930
-0.333145 0.754685 0.163865
-0.329090 0.755908 0.163731
-0.325472 0.758135 0.163849
-0.320199 0.756496 0.163002
-0.315886 0.757051 0.162708
-0.311708 0.757901 0.162490
-0.307069 0.757598 0.161990
-0.303005 0.758662 0.161834
-0.298788 0.759320 0.161582
-0.293938 0.758334 0.160929
-0.289718 0.758896 0.160664
-0.285876 0.760412 0.160640
-0.281928 0.761638 0.160549
-0.277492 0.761525 0.160136
-0.273167 0.761662 0.159791
-0.269205 0.762756 0.159686
-0.264558 0.761894 0.159111
-0.260384 0.762309 0.158854
-0.256606 0.763837 0.158873
-0.252278 0.763730 0.158503
-0.247870 0.763326 0.158067
-0.243585 0.763228 0.157713
-0.239694 0.764299 0.157647
-0.235572 0.764622 0.157408
-0.231236 0.764218 0.157000
-0.227240 0.764856 0.156850
-0.223186 0.765270 0.156651
-0.218709 0.764223 0.156110
-0.214584 0.764295 0.155844
-0.210526 0.764554 0.155628
-0.207275 0.767645 0.156092
-0.202465 0.765150 0.155233
-0.198505 0.765649 0.155093
-0.194480 0.765878 0.154894
-0.190512 0.766283 0.154742
-0.186340 0.765860 0.154400
-0.182559 0.766935 0.154418
-0.178849 0.768299 0.154509
-0.174876 0.768575 0.154348
-0.170711 0.768009 0.153995
-0.167088 0.769717 0.154181
-0.163199 0.770281 0.154104
-0.159071 0.769746 0.153773
-0.154880 0.768847 0.153362
-0.150819 0.768479 0.153081
-0.147096 0.769695 0.153175
-0.143186 0.769997 0.153060
-0.139410 0.770957 0.153102
-0.135646 0.771987 0.153166
-0.131861 0.772920 0.153210
-0.127817 0.772430 0.152927
-0.123796 0.772005 0.152664
-0.120049 0.773112 0.152761
-0.115875 0.771688 0.152274
-0.111753 0.770455 0.151836
-0.107995 0.771426 0.151913
-0.104383 0.773376 0.152220
-0.100640 0.774528 0.152346
-0.096910 0.775807 0.152504
-0.092730 0.773883 0.151926
-0.088786 0.773545 0.151718
-0.085040 0.774693 0.151856
-0.081243 0.775477 0.151914
-0.077372 0.775663 0.151837
-0.073533 0.776101 0.151821
-0.069662 0.776254 0.151743
-0.065735 0.775851 0.151540
-0.061643 0.773713 0.150942
-0.058021 0.776264 0.151425
-0.054213 0.776992 0.151492
-0.050375 0.777417 0.151492
-0.046362 0.775676 0.150999
-0.042479 0.775397 0.150844
-0.038721 0.776792 0.151076
-0.034909 0.777526 0.151159
-0.031078 0.778025 0.151192
-0.027281 0.779178 0.151377
-0.023475 0.780307 0.151559
-0.019612 0.780426 0.151513
-0.015733 0.780176 0.151386
-0.011865 0.780084 0.151298
-0.008063 0.781878 0.151644
-0.004124 0.779515 0.151044
-0.000278 0.779990 0.151094
0.003598 0.779106 0.150838
0.007432 0.780450 0.151093
0.011287 0.780817 0.151128
0.015146 0.781170 0.151163
0.019007 0.781324 0.151156
0.022872 0.782060 0.151285
0.026743 0.782681 0.151391
0.030640 0.784856 0.151854
0.034500 0.783763 0.151576
0.038334 0.781969 0.151141
0.042149 0.780084 0.150689
0.046051 0.781431 0.150977
0.049969 0.782855 0.151285
0.053880 0.783757 0.151478
0.057803 0.784700 0.151685
0.061703 0.784975 0.151742
0.065605 0.785207 0.151794
0.069423 0.783980 0.151517
0.073468 0.786385 0.152071
0.077392 0.786697 0.152152
0.081269 0.786293 0.152074
0.085121 0.785586 0.151931
0.089047 0.785807 0.152004
0.093023 0.786524 0.152194
0.096883 0.785889 0.152080
0.100886 0.786733 0.152307
0.104788 0.786469 0.152287
0.108648 0.785790 0.152176
0.112273 0.783045 0.151598
0.116282 0.783754 0.151813
0.120431 0.785507 0.152271
0.124613 0.787353 0.152755
0.128678 0.788121 0.152998
0.132667 0.788235 0.153097
0.136163 0.784789 0.152387
0.140757 0.789060 0.153446
0.144632 0.788236 0.153346
0.149170 0.791672 0.154226
0.153025 0.790594 0.154079
0.156735 0.788648 0.153738
0.160615 0.787761 0.153645
0.164992 0.789715 0.154209
0.169063 0.789808 0.154352
0.173117 0.789748 0.154465
0.177094 0.789234 0.154480
0.181051 0.788589 0.154471
0.185716 0.791468 0.155279
0.189778 0.791204 0.155370
0.194150 0.792381 0.155798
0.198523 0.793451 0.156209
0.202771 0.793845 0.156470
0.206754 0.792980 0.156446
0.210863 0.792652 0.156552
0.215357 0.793920 0.157034
0.219115 0.792007 0.156784
0.223499 0.792678 0.157140
0.228130 0.794254 0.157711
0.232674 0.795375 0.158183
0.236846 0.794963 0.158305
0.240663 0.793171 0.158109
0.244778 0.792498 0.158179
0.249123 0.792637 0.158443
0.253434 0.792598 0.158670
0.257771 0.792606 0.158912
0.262545 0.794068 0.159499
0.267522 0.796117 0.160228
0.271889 0.796031 0.160459
0.276533 0.796812 0.160897
0.280559 0.795544 0.160853
0.284563 0.794216 0.160796
0.289669 0.796320 0.161550
0.294403 0.797194 0.162013
0.298775 0.796932 0.162206
0.305104 0.802443 0.163766
0.310467 0.804959 0.164615
0.312358 0.797438 0.163075
0.318362 0.801748 0.164341
0.324017 0.804964 0.165343
0.327774 0.802894 0.165077
0.332095 0.802419 0.165183
0.334600 0.797143 0.164129
0.338803 0.796501 0.164171
0.345908 0.803423 0.166012
0.351747 0.806964 0.167031
0.353840 0.801016 0.165758
0.357493 0.799156 0.165449
0.360657 0.796201 0.164858
0.364024 0.793878 0.164399
0.369151 0.795902 0.164965
0.377275 0.805045 0.167223
0.381655 0.805298 0.167321
0.378677 0.788624 0.163322
0.383706 0.790720 0.163817
0.393321 0.803229 0.166793
0.401992 0.813457 0.169193
0.403913 0.808641 0.167950
0.404942 0.802078 0.166263
0.408598 0.801450 0.165977
0.413239 0.803060 0.166203
0.418619 0.806319 0.166798
0.420546 0.802361 0.165638
0.429208 0.812633 0.167859
0.434356 0.815574 0.168298
0.435121 0.809599 0.166583
-0.482098 0.736910 0.163479
-0.479999 0.739480 0.164296
-0.477128 0.740962 0.164808
-0.473716 0.741695 0.165101
-0.468915 0.740307 0.164822
-0.463981 0.738768 0.164478
-0.460877 0.740264 0.164887
-0.458220 0.742602 0.165486
-0.454555 0.743398 0.165661
-0.451149 0.744720 0.165943
-0.446967 0.744841 0.165889
-0.442684 0.744868 0.165784
-0.438068 0.744397 0.165525
-0.434246 0.745365 0.165609
-0.430771 0.747023 0.165845
-0.426657 0.747649 0.165792
-0.422654 0.748545 0.165783
-0.418952 0.750054 0.165909
-0.413908 0.749198 0.165408
-0.408411 0.747532 0.164682
-0.405104 0.749944 0.164976
-0.399479 0.748081 0.164165
-0.396716 0.751646 0.164716
-0.392720 0.752942 0.164676
-0.388075 0.753018 0.164312
-0.383901 0.754034 0.164174
-0.379435 0.754496 0.163886
-0.374073 0.753163 0.163138
-0.369946 0.754310 0.163005
-0.365240 0.754280 0.162571
-0.360416 0.753987 0.162066
-0.355848 0.754208 0.161686
-0.351693 0.755296 0.161518
-0.347419 0.756126 0.161284
-0.342948 0.756514 0.160940
-0.338360 0.756615 0.160525
-0.334008 0.757217 0.160234
-0.328857 0.755968 0.159490
-0.324188 0.755758 0.159004
-0.319583 0.755651 0.158548
-0.315875 0.757628 0.158604
-0.311446 0.757871 0.158240
-0.306947 0.757903 0.157830
-0.302758 0.758651 0.157599
-0.298734 0.759786 0.157466
-0.294385 0.760071 0.157132
-0.289945 0.760076 0.156737
-0.285587 0.760244 0.156387
-0.281107 0.760038 0.155954
-0.276745 0.760089 0.155590
-0.272962 0.761674 0.155599
-0.269174 0.763237 0.155608
-0.265272 0.764472 0.155544
-0.260643 0.763605 0.154987
-0.256916 0.765285 0.155042
-0.251884 0.763101 0.154187
-0.247687 0.763304 0.153905
-0.242977 0.761892 0.153248
-0.239622 0.764586 0.153568
-0.235591 0.765185 0.153399
-0.230980 0.763888 0.152791
-0.227550 0.766350 0.153072
-0.222194 0.762452 0.151868
-0.218293 0.763282 0.151780
-0.214549 0.764630 0.151818
-0.210426 0.764648 0.151552
-0.206603 0.765688 0.151529
-0.202693 0.766401 0.151436
-0.198502 0.766054 0.151103
-0.194446 0.766156 0.150879
-0.190457 0.766468 0.150710
-0.186678 0.767570 0.150729
-0.182708 0.767906 0.150577
-0.178737 0.768208 0.150421
-0.174837 0.768769 0.150330
-0.170426 0.767142 0.149741
-0.166611 0.767983 0.149725
-0.162983 0.769650 0.149904
-0.158927 0.769405 0.149648
-0.154857 0.769044 0.149370
-0.150889 0.769102 0.149193
-0.146905 0.769049 0.148996
-0.143117 0.769924 0.149015
-0.139150 0.769892 0.148831
-0.135538 0.771672 0.149064
-0.131637 0.771950 0.148959
-0.127456 0.770667 0.148503
-0.123568 0.770929 0.148402
-0.119691 0.771228 0.148314
-0.115666 0.770626 0.148025
-0.111768 0.770727 0.147900
-0.107990 0.771560 0.147945
-0.104219 0.772450 0.148005
-0.100509 0.773776 0.148168
-0.096618 0.773888 0.148060
-0.092724 0.773947 0.147943
-0.088824 0.773926 0.147811
-0.085035 0.774733 0.147869
-0.081191 0.775117 0.147835
-0.077021 0.772756 0.147186
-0.073404 0.774993 0.147577
-0.069584 0.775549 0.147591
-0.065633 0.774858 0.147328
-0.061785 0.775091 0.147276
-0.057843 0.774328 0.147003
-0.054104 0.775695 0.147213
-0.050324 0.776688 0.147340
-0.046491 0.777101 0.147341
-0.042604 0.776838 0.147192
-0.038739 0.776792 0.147096
-0.034918 0.777361 0.147140
-0.031065 0.777473 0.147085
-0.027294 0.778982 0.147345
-0.023589 0.781953 0.147935
-0.019679 0.781216 0.147698
-0.015695 0.778569 0.147037
-0.011748 0.776203 0.146442
-0.007936 0.777087 0.146577
-0.004112 0.777837 0.146684
-0.000279 0.778432 0.146760
0.003556 0.779149 0.146866
0.007406 0.779223 0.146832
0.011243 0.780571 0.147084
0.015093 0.781795 0.147312
0.018955 0.782809 0.147496
0.022818 0.781967 0.147269
0.026679 0.781704 0.147174
0.030544 0.781961 0.147198
0.034401 0.781607 0.147090
0.038229 0.780090 0.146725
0.042112 0.781114 0.146930
0.045971 0.781077 0.146902
0.049891 0.782663 0.147238
0.053797 0.783529 0.147418
0.057732 0.784825 0.147697
0.061651 0.785527 0.147847
0.065515 0.785081 0.147745
0.069421 0.785370 0.147811
0.073238 0.784208 0.147557
0.077174 0.784885 0.147716
0.081060 0.784766 0.147702
0.084997 0.785258 0.147827
0.088951 0.785878 0.147986
0.092862 0.785896 0.148014
0.096810 0.786270 0.148126
0.100334 0.782227 0.147257
0.104296 0.782797 0.147420
0.108178 0.782528 0.147402
0.112010 0.781786 0.147282
0.115991 0.782346 0.147457
0.120098 0.783851 0.147847
0.124111 0.784449 0.148040
0.128160 0.785241 0.148281
0.132149 0.785483 0.148404
0.136434 0.787769 0.148990
0.140633 0.789263 0.149403
0.144861 0.790806 0.149833
0.148904 0.791005 0.149968
0.152514 0.788446 0.149490
0.156637 0.789091 0.149735
0.160702 0.789308 0.149890
0.164860 0.790001 0.150157
0.168955 0.790244 0.150329
0.172969 0.789988 0.150394
0.176923 0.789368 0.150384
0.181464 0.791751 0.151055
0.185303 0.790438 0.150900
0.189362 0.790207 0.150994
0.193414 0.789900 0.151077
0.198091 0.792478 0.151818
0.202622 0.794208 0.152373
0.206707 0.793817 0.152456
0.210560 0.792372 0.152306
0.214984 0.793376 0.152716
0.219170 0.793281 0.152884
0.223181 0.792421 0.152883
0.227737 0.793726 0.153380
0.232589 0.796087 0.154124
0.236344 0.794069 0.153877
0.240279 0.792756 0.153795
0.244256 0.791595 0.153752
0.248597 0.791750 0.154014
0.253283 0.793082 0.154550
0.257622 0.793097 0.154790
0.261778 0.792434 0.154878
0.266511 0.793700 0.155413
0.271798 0.796718 0.156354
0.276210 0.796736 0.156609
0.280469 0.796218 0.156743
0.284608 0.795307 0.156787
0.288863 0.794749 0.156912
0.293612 0.795691 0.157385
0.297922 0.795257 0.157539
0.303888 0.799717 0.158827
0.308981 0.801479 0.159487
0.312386 0.798331 0.159003
0.315367 0.794074 0.158254
0.321430 0.798522 0.159527
0.326425 0.799914 0.160082
0.330433 0.798610 0.160000
0.334019 0.796234 0.159656
0.340177 0.800706 0.160905
0.344537 0.800425 0.161029
0.348672 0.799613 0.161016
0.353880 0.801574 0.161639
0.359627 0.804874 0.162561
0.365021 0.807278 0.163257
0.366413 0.799973 0.161649
0.371720 0.802301 0.162289
0.377931 0.806788 0.163417
0.382787 0.808078 0.163771
0.386901 0.807711 0.163712
0.391581 0.808736 0.163958
0.398075 0.813934 0.165163
0.400275 0.809520 0.164078
0.404298 0.809335 0.163965
0.404133 0.800097 0.161695
0.409264 0.802626 0.162171
0.414081 0.804543 0.162477
0.417052 0.802614 0.161853
0.420813 0.802496 0.161630
0.424259 0.801838 0.161256
0.430773 0.807643 0.162371
0.438433 0.815803 0.164009
-0.486965 0.743868 0.161327
-0.480169 0.739199 0.160293
-0.477977 0.741786 0.161061
-0.474737 0.742842 0.161418
-0.469920 0.741481 0.161138
-0.465629 0.741033 0.161062
-0.461927 0.741620 0.161220
-0.457658 0.741373 0.161141
-0.454863 0.743643 0.161669
-0.450442 0.743320 0.161516
-0.446868 0.744499 0.161715
-0.442816 0.744961 0.161706
-0.438663 0.745333 0.161649
-0.434837 0.746346 0.161727
-0.431277 0.747911 0.161919
-0.427294 0.748821 0.161922
-0.423092 0.749414 0.161823
-0.418923 0.750131 0.161732
-0.413855 0.749272 0.161226
-0.409452 0.749658 0.161013
-0.403760 0.747690 0.160195
-0.399642 0.748670 0.160096
-0.395310 0.749287 0.159891
-0.390523 0.749061 0.159463
-0.387498 0.752272 0.159873
-0.383915 0.754469 0.160019
-0.378690 0.753443 0.159360
-0.374323 0.754121 0.159112
-0.369910 0.754714 0.158837
-0.365496 0.755304 0.158555
-0.360738 0.755172 0.158092
-0.356125 0.755323 0.157695
-0.351645 0.755734 0.157360
-0.347113 0.756016 0.156992
-0.342238 0.755515 0.156434
-0.337635 0.755572 0.156013
-0.333855 0.757450 0.156032
-0.329491 0.758000 0.155733
-0.324407 0.756851 0.155028
-0.319503 0.756051 0.154412
-0.315220 0.756658 0.154137
-0.311242 0.757971 0.154034
-0.306467 0.757319 0.153468
-0.302119 0.757655 0.153142
-0.298216 0.759070 0.153077
-0.294210 0.760208 0.152952
-0.289857 0.760429 0.152615
-0.284412 0.757732 0.151598
-0.280668 0.759434 0.151623
-0.276581 0.760207 0.151436
-0.272578 0.761177 0.151300
-0.268842 0.762864 0.151338
-0.264715 0.763440 0.151123
-0.260576 0.763949 0.150899
-0.255555 0.761845 0.150074
-0.251448 0.762328 0.149857
-0.247267 0.762549 0.149586
-0.243427 0.763766 0.149552
-0.239529 0.764790 0.149479
-0.235265 0.764639 0.149142
-0.231180 0.765006 0.148931
-0.226955 0.764872 0.148611
-0.223537 0.767366 0.148899
-0.218544 0.764573 0.147983
-0.214949 0.766441 0.148139
-0.210955 0.766927 0.147985
-0.206615 0.766147 0.147549
-0.202759 0.767049 0.147502
-0.198739 0.767328 0.147318
-0.194355 0.766199 0.146821
-0.190387 0.766577 0.146672
-0.186905 0.768824 0.146950
-0.182719 0.768306 0.146608
-0.178772 0.768694 0.146477
-0.174776 0.768852 0.146298
-0.171046 0.770102 0.146370
-0.166455 0.767624 0.145608
-0.162564 0.768096 0.145515
-0.158879 0.769483 0.145632
-0.154916 0.769602 0.145469
-0.150957 0.769700 0.145305
-0.147391 0.771677 0.145567
-0.143072 0.769954 0.145005
-0.139164 0.770204 0.144888
-0.135402 0.771190 0.144941
-0.131050 0.769021 0.144293
-0.127229 0.769628 0.144268
-0.123268 0.769428 0.144068
-0.119497 0.770287 0.144107
-0.115691 0.770949 0.144106
-0.111785 0.770994 0.143972
-0.107985 0.771675 0.143981
-0.104237 0.772707 0.144073
-0.100542 0.774128 0.144254
-0.096621 0.774016 0.144098
-0.092725 0.774052 0.143979
-0.088846 0.774173 0.143881
-0.084793 0.772914 0.143482
-0.080851 0.772419 0.143256
-0.077090 0.773362 0.143349
-0.073327 0.774335 0.143453
-0.069542 0.775150 0.143524
-0.065698 0.775448 0.143485
-0.061795 0.775136 0.143314
-0.057910 0.774952 0.143174
-0.053969 0.774092 0.142889
-0.050197 0.775064 0.143009
-0.046660 0.779023 0.143789
-0.042774 0.778849 0.143662
-0.038808 0.777496 0.143281
-0.034929 0.777225 0.143139
-0.031117 0.777951 0.143219
-0.027158 0.776190 0.142757
-0.023540 0.780536 0.143635
-0.019630 0.779615 0.143363
-0.015657 0.777001 0.142722
-0.011808 0.776910 0.142637
-0.007982 0.777434 0.142690
-0.004201 0.779631 0.143111
-0.000341 0.779368 0.142997
0.003534 0.778171 0.142681
0.007366 0.779047 0.142822
0.011211 0.779365 0.142843
0.015053 0.780598 0.143067
0.018905 0.782952 0.143538
0.022760 0.780182 0.142894
0.026603 0.779123 0.142627
0.030475 0.781001 0.143004
0.034324 0.780585 0.142883
0.038212 0.782076 0.143181
0.042081 0.782338 0.143214
0.045975 0.783280 0.143398
0.049835 0.783018 0.143324
0.053667 0.782112 0.143112
0.057716 0.786082 0.143966
0.061610 0.786228 0.143991
0.065408 0.784577 0.143627
0.069257 0.784012 0.143503
0.073125 0.783780 0.143456
0.076981 0.783377 0.143374
0.080923 0.784142 0.143552
0.084872 0.784879 0.143726
0.088804 0.785288 0.143834
0.092574 0.783779 0.143527
0.096144 0.780225 0.142778
0.100081 0.780744 0.142921
0.104058 0.781566 0.143134
0.107987 0.781821 0.143228
0.111787 0.780854 0.143060
0.115764 0.781452 0.143238
0.119756 0.782075 0.143425
0.123729 0.782460 0.143566
0.127966 0.784789 0.144136
0.132173 0.786684 0.144615
0.135927 0.785179 0.144357
0.140302 0.788001 0.145050
0.144281 0.787955 0.145121
0.148007 0.786234 0.144830
0.152029 0.786418 0.144961
0.156566 0.789669 0.145770
0.160624 0.789859 0.145914
0.164625 0.789662 0.145978
0.168750 0.790109 0.146189
0.172862 0.790412 0.146375
0.176861 0.790047 0.146419
0.180780 0.789237 0.146370
0.185104 0.790449 0.146773
0.188907 0.788990 0.146593
0.193059 0.789214 0.146790
0.197273 0.789667 0.147043
0.201646 0.790767 0.147445
0.205706 0.790364 0.147522
0.209742 0.789817 0.147572
0.213978 0.790093 0.147810
0.218384 0.791012 0.148197
0.222879 0.792199 0.148650
0.227090 0.792144 0.148833
0.231173 0.791531 0.148898
0.235788 0.792942 0.149418
0.239824 0.792047 0.149431
0.244055 0.791860 0.149606
0.248645 0.792934 0.150069
0.253483 0.794800 0.150714
0.257204 0.792626 0.150459
0.261808 0.793526 0.150897
0.265866 0.792501 0.150907
0.271704 0.797383 0.152248
0.275869 0.796587 0.152317
0.280033 0.795772 0.152383
0.284428 0.795675 0.152612
0.288742 0.795295 0.152779
0.293215 0.795382 0.153052
0.297687 0.795434 0.153317
0.302908 0.797683 0.154080
0.307290 0.797392 0.154264
0.311112 0.795489 0.154078
0.315583 0.795470 0.154317
0.321412 0.799230 0.155413
0.325677 0.798587 0.155499
0.330223 0.798729 0.155757
0.334828 0.799039 0.156045
0.339694 0.800047 0.156483
0.344595 0.801143 0.156931
0.348801 0.800467 0.156960
0.352565 0.798733 0.156731
0.356454 0.797401 0.156579
0.360989 0.797746 0.156796
0.365452 0.797966 0.156968
0.370423 0.799464 0.157415
0.375822 0.802012 0.158085
0.381091 0.804273 0.158668
0.385557 0.804706 0.158808
0.389466 0.803949 0.158651
0.392941 0.802320 0.158269
0.394377 0.796268 0.156843
0.400216 0.800184 0.157692
0.405882 0.803741 0.158433
0.410160 0.804331 0.158465
0.413050 0.802041 0.157808
0.417606 0.803446 0.157977
0.421453 0.803447 0.157798
0.424477 0.801848 0.157226
0.428839 0.803154 0.157297
0.434011 0.806209 0.157744
-0.482930 0.737063 0.155694
-0.479981 0.738385 0.156148
-0.475671 0.737677 0.156075
-0.473384 0.740250 0.156786
-0.469479 0.740370 0.156865
-0.465698 0.740779 0.156989
-0.463069 0.743150 0.157572
-0.459002 0.743293 0.157576
-0.453404 0.740991 0.156949
-0.450444 0.743128 0.157392
-0.446944 0.744473 0.157613
-0.443247 0.745585 0.157750
-0.439672 0.746999 0.157935
-0.435703 0.747826 0.157951
-0.432136 0.749436 0.158134
-0.427575 0.749383 0.157886
-0.423146 0.749619 0.157685
-0.418303 0.749162 0.157295
-0.414144 0.749985 0.157198
-0.409938 0.750778 0.157075
-0.405202 0.750635 0.156705
-0.399632 0.748944 0.155944
-0.395003 0.749029 0.155602
-0.390931 0.750203 0.155511
-0.386937 0.751566 0.155454
-0.383069 0.753214 0.155454
-0.379145 0.754787 0.155426
-0.374557 0.755052 0.155076
-0.370316 0.756021 0.154888
-0.365360 0.755520 0.154342
-0.360753 0.755716 0.153960
-0.356025 0.755636 0.153510
-0.351136 0.755179 0.152969
-0.345773 0.753651 0.152175
-0.341480 0.754402 0.151922
-0.337611 0.756082 0.151889
-0.333401 0.756995 0.151676
-0.329296 0.758128 0.151517
-0.323390 0.755069 0.150377
-0.319458 0.756523 0.150300
-0.315545 0.758010 0.150234
-0.310847 0.757594 0.149727
-0.305917 0.756548 0.149080
-0.301719 0.757237 0.148843
-0.297443 0.757695 0.148557
-0.293416 0.758749 0.148414
-0.289317 0.759593 0.148229
-0.285266 0.760531 0.148070
-0.280688 0.760039 0.147589
-0.276449 0.760394 0.147309
-0.272313 0.760988 0.147091
-0.268257 0.761764 0.146920
-0.264111 0.762257 0.146691
-0.259910 0.762551 0.146423
-0.255497 0.762184 0.146012
-0.251425 0.762759 0.145821
-0.247392 0.763417 0.145656
-0.242976 0.762870 0.145224
-0.239378 0.764794 0.145357
-0.235577 0.766090 0.145353
-0.231368 0.766065 0.145059
-0.227106 0.765812 0.144719
-0.222262 0.763568 0.143940
-0.218516 0.764906 0.143971
-0.215121 0.767448 0.144275
-0.211063 0.767711 0.144075
-0.206703 0.766859 0.143633
-0.202580 0.766786 0.143371
-0.198889 0.768261 0.143458
-0.194474 0.767014 0.142946
-0.190731 0.768256 0.142992
-0.186570 0.767863 0.142681
-0.182918 0.769441 0.142811
-0.178572 0.768210 0.142325
-0.175304 0.771369 0.142813
-0.171580 0.772682 0.142898
-0.167863 0.774036 0.142996
-0.164566 0.777267 0.143510
-0.161038 0.779557 0.143822
-0.156492 0.777182 0.143113
-0.153449 0.781790 0.143941
-0.148850 0.779018 0.143155
-0.144972 0.779654 0.143120
-0.141576 0.782741 0.143625
-0.136379 0.776520 0.142101
-0.134441 0.787439 0.144321
-0.129462 0.782129 0.143005
-0.125423 0.781821 0.142783
-0.122182 0.786096 0.143563
-0.117808 0.783794 0.142915
-0.114415 0.787370 0.143548
-0.109778 0.783214 0.142507
-0.106358 0.786744 0.143136
-0.102712 0.788932 0.143477
-0.098102 0.784484 0.142384
-0.095104 0.791360 0.143745
-0.091376 0.793217 0.144023
-0.087266 0.792201 0.143683
-0.081371 0.776652 0.140208
-0.077309 0.775225 0.139788
-0.073512 0.775955 0.139837
-0.069575 0.775440 0.139620
-0.065716 0.775575 0.139546
-0.061882 0.775943 0.139525
-0.057976 0.775564 0.139346
-0.054898 0.784239 0.141117
-0.051136 0.785865 0.141374
-0.046994 0.782964 0.140661
-0.043097 0.782867 0.140554
-0.039002 0.779960 0.139846
-0.036123 0.794757 0.142939
-0.031912 0.790356 0.141916
-0.027651 0.784345 0.140551
-0.023863 0.786160 0.140867
-0.020045 0.787652 0.141116
-0.016292 0.790930 0.141750
-0.012118 0.784098 0.140223
-0.008294 0.785625 0.140487
-0.004400 0.785171 0.140331
-0.000459 0.782635 0.139732
0.003401 0.782866 0.139728
0.007221 0.785822 0.140308
0.011110 0.784720 0.140025
0.014909 0.797308 0.142667
0.018853 0.785368 0.140075
0.022732 0.786666 0.140312
0.026605 0.785754 0.140081
0.030464 0.784405 0.139759
0.034319 0.783587 0.139554
0.042118 0.786002 0.140016
0.045945 0.784377 0.139648
0.049777 0.783267 0.139393
0.053795 0.786926 0.140158
0.057675 0.786766 0.140111
0.061466 0.784858 0.139696
0.065654 0.790443 0.140881
0.070175 0.800694 0.143064
0.074006 0.798714 0.142643
0.078012 0.799503 0.142817
0.081756 0.796611 0.142209
0.085605 0.795369 0.141957
0.090108 0.802064 0.143400
0.093966 0.800689 0.143128
0.097720 0.798291 0.142641
0.102117 0.802682 0.143605
0.104815 0.790016 0.140936
0.108668 0.789216 0.140802
0.112916 0.791984 0.141433
0.117064 0.793619 0.141827
0.120965 0.793046 0.141754
0.124956 0.793192 0.141839
0.128446 0.789450 0.141098
0.132653 0.791217 0.141538
0.136707 0.791723 0.141714
0.140570 0.790834 0.141597
0.145100 0.794403 0.142438
0.148079 0.787677 0.141081
0.152293 0.789048 0.141462
0.156621 0.790988 0.141970
0.160714 0.791371 0.142151
0.164562 0.790274 0.142019
0.168679 0.790695 0.142218
0.172732 0.790684 0.142330
0.176652 0.789921 0.142286
0.180886 0.790764 0.142593
0.184741 0.789604 0.142474
0.187959 0.785313 0.141687
0.191947 0.784864 0.141732
0.197044 0.789578 0.142897
0.201309 0.790212 0.143188
0.205789 0.791726 0.143675
0.209715 0.790689 0.143618
0.213418 0.788683 0.143356
0.217592 0.788682 0.143533
0.222390 0.791190 0.144261
0.227285 0.793926 0.145045
0.231547 0.794000 0.145258
0.235422 0.792519 0.145137
0.239393 0.791407 0.145102
0.243917 0.792334 0.145516
0.248706 0.794143 0.146129
0.252326 0.791643 0.145805
0.257788 0.795660 0.146912
0.261031 0.791819 0.146302
0.266370 0.795173 0.147274
0.270421 0.794073 0.147272
0.275369 0.795903 0.147918
0.279307 0.794376 0.147828
0.283743 0.794436 0.148089
0.288682 0.796022 0.148690
0.293020 0.795682 0.148866
0.297546 0.795889 0.149163
0.302409 0.797064 0.149675
0.306898 0.797089 0.149930
0.310858 0.795573 0.149841
0.315374 0.795663 0.150104
0.320914 0.798600 0.150999
0.325354 0.798427 0.151195
0.329415 0.797238 0.151157
0.334374 0.798487 0.151657
0.339313 0.799666 0.152132
0.343983 0.800138 0.152440
0.348572 0.800418 0.152692
0.352701 0.799568 0.152678
0.357025 0.799268 0.152773
0.361421 0.799203 0.152905
0.365645 0.798778 0.152939
0.370466 0.799860 0.153295
0.375486 0.801456 0.153748
0.380190 0.802350 0.154023
0.384745 0.802959 0.154212
0.389430 0.803941 0.154464
0.393148 0.802805 0.154215
0.396885 0.801834 0.153979
0.401446 0.802809 0.154159
0.405966 0.803776 0.154312
0.410257 0.804334 0.154349
0.414308 0.804477 0.154267
0.417394 0.802683 0.153723
0.420922 0.801966 0.153397
0.425922 0.804442 0.153765
0.429387 0.803821 0.153412
0.433869 0.805406 0.153530
-0.482532 0.735914 0.151484
-0.478751 0.735970 0.151610
-0.475830 0.737467 0.152060
-0.472800 0.738903 0.152470
-0.469584 0.740154 0.152809
-0.466531 0.741777 0.153211
-0.463488 0.743529 0.153617
-0.455350 0.737055 0.152006
-0.453762 0.741368 0.152979
-0.450382 0.742852 0.153241
-0.447927 0.745999 0.153878
-0.443682 0.746238 0.153786
-0.439036 0.745866 0.153522
-0.436771 0.749675 0.154241
-0.432315 0.749793 0.154047
-0.426808 0.748112 0.153397
-0.422475 0.748546 0.153236
-0.418221 0.749177 0.153101
-0.413943 0.749820 0.152949
-0.409581 0.750359 0.152755
-0.405407 0.751289 0.152638
-0.401118 0.752049 0.152464
-0.396517 0.752248 0.152144
-0.391485 0.751634 0.151618
-0.386630 0.751359 0.151164
-0.382812 0.753124 0.151182
-0.379031 0.754999 0.151217
-0.374920 0.756245 0.151096
-0.369251 0.754324 0.150225
-0.364157 0.753525 0.149616
-0.359892 0.754421 0.149400
-0.355427 0.754889 0.149083
-0.351542 0.756585 0.149049
-0.346102 0.754906 0.148231
-0.341405 0.754785 0.147777
-0.337485 0.756356 0.147716
-0.333315 0.757360 0.147525
-0.329014 0.758045 0.147262
-0.324705 0.758684 0.146993
-0.319741 0.757753 0.146367
-0.315655 0.758838 0.146208
-0.310776 0.757986 0.145612
-0.305462 0.755993 0.144762
-0.301802 0.758001 0.144828
-0.297282 0.757844 0.144408
-0.292943 0.758091 0.144085
-0.289224 0.759896 0.144120
-0.284954 0.760252 0.143833
-0.280787 0.760836 0.143605
-0.276378 0.760730 0.143227
-0.271949 0.760508 0.142831
-0.267565 0.760349 0.142456
-0.263623 0.761382 0.142353
-0.259655 0.762319 0.142235
-0.255580 0.762916 0.142047
-0.251411 0.763200 0.141796
-0.247112 0.763047 0.141455
-0.243016 0.763456 0.141245
-0.238898 0.763757 0.141018
-0.234886 0.764353 0.140861
-0.231096 0.765627 0.140860
-0.227061 0.766095 0.140687
-0.222596 0.765096 0.140199
-0.218144 0.764055 0.139708
-0.214820 0.766815 0.140055
-0.211112 0.768275 0.140122
-0.206663 0.767095 0.139619
-0.202571 0.767124 0.139385
-0.198295 0.766425 0.138999
-0.194633 0.767964 0.139104
-0.190332 0.767065 0.138686
-0.186939 0.769639 0.139024
-0.182780 0.769214 0.138719
-0.178798 0.769442 0.138560
-0.175029 0.770526 0.138590
-0.171646 0.773255 0.138978
-0.167602 0.773186 0.138769
-0.163830 0.774277 0.138813
-0.159675 0.773635 0.138490
-0.156204 0.776103 0.138837
-0.152660 0.778292 0.139129
-0.148879 0.779392 0.139191
-0.144432 0.777190 0.138551
-0.142196 0.786123 0.140293
-0.139094 0.790934 0.141157
-0.133570 0.782954 0.139296
-0.129667 0.783445 0.139247
-0.126010 0.785313 0.139494
-0.122514 0.788194 0.139959
-0.118660 0.789048 0.139996
-0.112963 0.778547 0.137627
-0.109067 0.778821 0.137550
-0.105815 0.783291 0.138365
-0.102408 0.786971 0.139015
-0.098050 0.784207 0.138304
-0.094311 0.785687 0.138494
-0.090622 0.787615 0.138781
-0.086342 0.785058 0.138124
-0.083112 0.790745 0.139210
-0.077631 0.777937 0.136397
-0.073620 0.776893 0.136071
-0.069685 0.776409 0.135865
-0.065820 0.776523 0.135788
-0.061911 0.776168 0.135615
-0.058163 0.777421 0.135783
-0.055098 0.786321 0.137561
-0.051125 0.785582 0.137315
-0.046920 0.781856 0.136445
-0.042870 0.779666 0.135900
-0.039096 0.780997 0.136097
-0.035314 0.782371 0.136306
-0.031692 0.786462 0.137086
-0.027994 0.789872 0.137726
-0.024130 0.790702 0.137827
-0.020202 0.790329 0.137679
-0.015671 0.775951 0.134604
-0.012301 0.787989 0.137058
-0.008455 0.789360 0.137283
-0.004436 0.785184 0.136351
-0.000604 0.786964 0.136667
0.003256 0.788124 0.136856
0.007103 0.790833 0.137371
0.014913 0.788745 0.136841
0.018801 0.789897 0.137038
0.022695 0.790283 0.137079
0.026581 0.789079 0.136790
0.030476 0.789495 0.136843
0.034394 0.791013 0.137128
0.038240 0.788629 0.136602
0.042093 0.787335 0.136307
0.045865 0.783818 0.135552
0.049712 0.783257 0.135416
0.053621 0.784300 0.135617
0.057448 0.783337 0.135403
0.061407 0.785127 0.135766
0.066048 0.798986 0.138646
0.070097 0.800704 0.139001
0.073995 0.799818 0.138816
0.077429 0.792297 0.137253
0.081136 0.789399 0.136656
0.085940 0.800769 0.139036
0.090368 0.806314 0.140205
0.093873 0.800729 0.139060
0.097388 0.795781 0.138051
0.101115 0.793462 0.137594
0.105191 0.794724 0.137887
0.109029 0.793611 0.137689
0.112765 0.791637 0.137315
0.116751 0.791923 0.137417
0.120670 0.791598 0.137395
0.124737 0.792434 0.137621
0.128935 0.794165 0.138037
0.132628 0.791995 0.137644
0.136543 0.791512 0.137608
0.141177 0.795974 0.138609
0.143684 0.785911 0.136580
0.147620 0.785659 0.136606
0.152356 0.790393 0.137680
0.156999 0.794236 0.138573
0.160557 0.791393 0.138072
0.164423 0.790424 0.137968
0.168419 0.790188 0.138024
0.172690 0.791409 0.138390
0.176681 0.791027 0.138425
0.180666 0.790582 0.138453
0.185202 0.792880 0.139063
0.189384 0.793276 0.139279
0.194189 0.796584 0.140114
0.199132 0.800335 0.141050
0.203292 0.800264 0.141186
0.206869 0.797532 0.140766
0.210878 0.796752 0.140764
0.214649 0.794931 0.140547
0.217915 0.791006 0.139890
0.222219 0.791454 0.140164
0.227525 0.795868 0.141285
0.231825 0.796071 0.141520
0.235200 0.792635 0.140987
0.239159 0.791486 0.140944
0.243917 0.793305 0.141539
0.247538 0.790846 0.141227
0.251646 0.790169 0.141300
0.256342 0.791535 0.141814
0.260207 0.789926 0.141696
0.264304 0.789113 0.141752
0.269153 0.790788 0.142346
0.273923 0.792100 0.142866
0.279113 0.794677 0.143663
0.283394 0.794243 0.143815
0.287887 0.794449 0.144106
0.292871 0.796114 0.144714
0.297525 0.796698 0.145090
0.301524 0.795291 0.145034
0.306251 0.796031 0.145443
0.310720 0.795984 0.145680
0.314921 0.795166 0.145745
0.319987 0.796776 0.146336
0.324547 0.796940 0.146608
0.328863 0.796441 0.146729
0.333118 0.795801 0.146811
0.337797 0.796307 0.147136
0.342805 0.797671 0.147640
0.348007 0.799524 0.148241
0.352817 0.800368 0.148609
0.357798 0.801656 0.149062
0.361616 0.800097 0.148873
0.365463 0.798703 0.148705
0.371356 0.802310 0.149621
0.375512 0.801782 0.149608
0.379371 0.800643 0.149440
0.384790 0.803221 0.150072
0.388472 0.801852 0.149812
0.392993 0.802501 0.149975
0.397688 0.803619 0.150218
0.402020 0.804010 0.150278
0.406135 0.804023 0.150229
0.409926 0.803442 0.150026
0.413744 0.803040 0.149837
0.417899 0.803473 0.149808
0.423629 0.807318 0.150505
0.426457 0.805169 0.149857
0.429519 0.803659 0.149327
0.434452 0.806115 0.149644
-0.484193 0.737972 0.148032
-0.479676 0.736937 0.147887
-0.476612 0.738257 0.148274
-0.474195 0.740711 0.148904
-0.471033 0.742107 0.149257
-0.467421 0.742888 0.149438
-0.463419 0.743138 0.149467
-0.458909 0.742645 0.149293
-0.454660 0.742658 0.149213
-0.451140 0.743965 0.149413
-0.447482 0.745141 0.149556
-0.443660 0.746136 0.149630
-0.440540 0.748423 0.149985
-0.436492 0.749213 0.149962
-0.431432 0.748309 0.149518
-0.426641 0.747919 0.149172
-0.422151 0.748108 0.148943
-0.417908 0.748792 0.148810
-0.413545 0.749311 0.148620
-0.408729 0.749040 0.148229
-0.405059 0.750925 0.148326
-0.400990 0.752123 0.148247
-0.396042 0.751686 0.147775
-0.391125 0.751312 0.147307
-0.386754 0.751997 0.147075
-0.382532 0.752990 0.146905
-0.378387 0.754156 0.146767
-0.373897 0.754640 0.146466
-0.368993 0.754273 0.145966
-0.363781 0.753239 0.145309
-0.359044 0.753148 0.144867
-0.355191 0.754905 0.144845
-0.350998 0.755943 0.144658
-0.347569 0.758633 0.144844
-0.342128 0.756919 0.144034
-0.337208 0.756283 0.143471
-0.333059 0.757331 0.143291
-0.328964 0.758484 0.143137
-0.324487 0.758733 0.142783
-0.319795 0.758432 0.142310
-0.315561 0.759166 0.142074
-0.310793 0.758577 0.141548
-0.306206 0.758364 0.141112
-0.301579 0.757990 0.140646
-0.297069 0.757847 0.140237
-0.293103 0.759035 0.140129
-0.288590 0.758783 0.139709
-0.284470 0.759503 0.139509
-0.280287 0.760020 0.139270
-0.275884 0.759902 0.138899
-0.271822 0.760663 0.138727
-0.267432 0.760473 0.138354
-0.263459 0.761407 0.138232
-0.259531 0.762443 0.138138
-0.255425 0.762936 0.137932
-0.251213 0.763076 0.137656
-0.247240 0.763885 0.137532
-0.242676 0.762859 0.137017
-0.238456 0.762820 0.136723
-0.234586 0.763830 0.136660
-0.230720 0.764838 0.136602
-0.226748 0.765479 0.136471
-0.222540 0.765309 0.136173
-0.218425 0.765398 0.135935
-0.214781 0.767060 0.136040
-0.210701 0.767206 0.135826
-0.206615 0.767287 0.135604
-0.202379 0.766780 0.135262
-0.198330 0.766898 0.135059
-0.194288 0.766999 0.134858
-0.190767 0.769062 0.135077
-0.186657 0.768852 0.134820
-0.182405 0.768019 0.134436
-0.178616 0.768997 0.134440
-0.174964 0.770544 0.134567
-0.170883 0.770287 0.134320
-0.166900 0.770402 0.134155
-0.162858 0.770220 0.133932
-0.159241 0.771916 0.134108
-0.156155 0.776114 0.134811
-0.152470 0.777617 0.134953
-0.148087 0.775760 0.134396
-0.143897 0.774731 0.134017
-0.140458 0.777445 0.134423
-0.137928 0.785024 0.135846
-0.133077 0.780485 0.134746
-0.129253 0.781326 0.134771
-0.125461 0.782360 0.134840
-0.121677 0.783462 0.134926
-0.117759 0.783785 0.134853
-0.113193 0.780088 0.133951
-0.108911 0.777938 0.133373
-0.104770 0.776538 0.132954
-0.100639 0.775075 0.132526
-0.096873 0.776035 0.132603
-0.093628 0.780800 0.133469
-0.089061 0.775956 0.132352
-0.085605 0.779355 0.132941
-0.082256 0.783841 0.133756
-0.077539 0.777163 0.132271
-0.073785 0.778313 0.132404
-0.069805 0.777466 0.132128
-0.065852 0.776764 0.131885
-0.062008 0.777054 0.131848
-0.058066 0.776303 0.131601
-0.054924 0.784268 0.133146
-0.050878 0.782548 0.132704
-0.046571 0.777369 0.131555
-0.042567 0.775485 0.131086
-0.038905 0.778075 0.131537
-0.035251 0.781110 0.132081
-0.031643 0.785311 0.132865
-0.027876 0.787404 0.133220
-0.024241 0.792302 0.134151
-0.020334 0.792476 0.134117
-0.016144 0.786153 0.132759
-0.012247 0.785805 0.132624
-0.008321 0.784451 0.132287
-0.004438 0.784059 0.132149
-0.000537 0.782783 0.131833
0.003157 0.791172 0.133492
0.006841 0.805210 0.136304
0.011120 0.775737 0.130245
0.014897 0.783988 0.131882
0.018758 0.787059 0.132466
0.022649 0.790886 0.133205
0.026545 0.790894 0.133170
0.030409 0.788383 0.132624
0.034245 0.785600 0.132025
0.038115 0.785518 0.131979
0.041926 0.783292 0.131500
0.045831 0.784637 0.131751
0.049664 0.783664 0.131533
0.053476 0.782349 0.131248
0.057356 0.782796 0.131325
0.061264 0.783669 0.131492
0.065453 0.789484 0.132667
0.069442 0.791009 0.132973
0.073058 0.786468 0.132047
0.077245 0.790792 0.132929
0.081529 0.795853 0.133964
0.086002 0.802676 0.135362
0.090012 0.803128 0.135466
0.093345 0.795781 0.133987
0.096746 0.789886 0.132807
0.100617 0.789353 0.132722
0.104702 0.790931 0.133071
0.109003 0.794345 0.133797
0.113241 0.796871 0.134348
0.116925 0.794385 0.133881
0.120670 0.792558 0.133552
