ply
format ascii 1.0
comment ---
element vertex 1677
property float x
property float y
property float z
element face 0
property list uchar uint vertex_indices
end_header
-0.008034 0.820540 -0.238896
-0.004217 0.818917 -0.238401
-0.000367 0.823248 -0.239583
0.003485 0.824619 -0.239933
0.007347 0.825856 -0.240246
0.011063 0.820145 -0.238604
0.014772 0.816157 -0.237449
0.018582 0.816522 -0.237520
0.022400 0.816976 -0.237617
0.026255 0.818219 -0.237937
0.030269 0.822589 -0.239138
0.034217 0.824864 -0.239750
0.037963 0.823148 -0.239242
0.041630 0.820410 -0.238447
0.045294 0.818018 -0.237751
0.049228 0.819736 -0.238212
0.053074 0.820065 -0.238284
0.056877 0.819804 -0.238192
0.060704 0.819827 -0.238181
0.064987 0.824892 -0.239588
0.068428 0.820561 -0.238356
0.072225 0.820190 -0.238239
0.076191 0.821447 -0.238581
0.080065 0.821730 -0.238651
0.084081 0.823210 -0.239059
0.087816 0.822188 -0.238765
0.091339 0.819505 -0.238007
0.094993 0.818025 -0.237590
0.098884 0.818387 -0.237691
0.103028 0.820525 -0.238293
0.107747 0.826495 -0.239974
0.111919 0.828353 -0.240502
0.115920 0.828949 -0.240677
0.119977 0.829832 -0.240936
0.124178 0.831508 -0.241420
0.127756 0.829344 -0.240827
0.131694 0.829353 -0.240848
0.133779 0.818893 -0.237929
0.137660 0.818799 -0.237925
0.141584 0.818898 -0.237978
0.145564 0.819245 -0.238104
0.150337 0.823554 -0.239346
0.154686 0.825513 -0.239931
0.158813 0.826267 -0.240180
0.162088 0.822935 -0.239283
0.165477 0.820233 -0.238566
0.169772 0.821686 -0.239020
0.173729 0.821542 -0.239029
0.177570 0.820858 -0.238889
0.181819 0.821871 -0.239231
0.187605 0.829134 -0.241336
0.192076 0.830742 -0.241852
0.195439 0.827846 -0.241103
0.199256 0.826777 -0.240873
0.203523 0.827407 -0.241125
0.207890 0.828334 -0.241464
0.210198 0.821640 -0.239658
0.214186 0.821169 -0.239610
0.218156 0.820602 -0.239539
0.222707 0.822006 -0.240029
0.227825 0.825236 -0.241040
0.232864 0.828031 -0.241932
0.235835 0.823882 -0.240864
0.240608 0.825629 -0.241469
0.245314 0.827048 -0.241985
0.249776 0.827600 -0.242260
0.253748 0.826570 -0.242091
0.257407 0.824570 -0.241651
0.261226 0.823051 -0.241350
0.265263 0.822156 -0.241230
0.272198 0.829566 -0.243474
0.276326 0.828741 -0.243383
0.279156 0.824265 -0.242256
0.281438 0.818368 -0.240727
0.286465 0.820009 -0.241346
0.292528 0.824309 -0.242728
0.297083 0.824473 -0.242933
0.302980 0.828051 -0.244117
0.307523 0.828028 -0.244275
0.311634 0.826874 -0.244112
0.313928 0.821215 -0.242660
0.319422 0.823486 -0.243478
0.324507 0.824672 -0.243987
0.328578 0.823391 -0.243789
0.332796 0.822462 -0.243690
0.337753 0.823244 -0.244082
0.342785 0.824160 -0.244510
0.347977 0.825402 -0.245029
0.351487 0.822877 -0.244461
0.353697 0.817568 -0.243086
0.361096 0.823637 -0.244983
0.368335 0.829229 -0.246737
0.372648 0.828534 -0.246673
0.376787 0.827526 -0.246509
0.381299 0.827352 -0.246577
0.385881 0.827375 -0.246691
0.392104 0.830760 -0.247767
0.396390 0.830277 -0.247711
0.399015 0.826607 -0.246722
0.403041 0.825825 -0.246553
0.407117 0.825244 -0.246428
0.412396 0.827063 -0.246982
0.415439 0.824721 -0.246316
0.417139 0.820016 -0.244950
-0.497501 0.782995 -0.249872
-0.495826 0.787031 -0.251054
-0.492002 0.787861 -0.251222
-0.488014 0.788539 -0.251324
-0.483676 0.788755 -0.251265
-0.479540 0.789383 -0.251316
-0.475313 0.789951 -0.251331
-0.470838 0.790195 -0.251229
-0.466240 0.790301 -0.251070
-0.462242 0.791474 -0.251226
-0.457926 0.792184 -0.251225
-0.453409 0.792606 -0.251122
-0.448800 0.792915 -0.250974
-0.444185 0.793248 -0.250823
-0.439555 0.793585 -0.250665
-0.435781 0.795477 -0.250975
-0.431915 0.797252 -0.251242
-0.426479 0.796190 -0.250634
-0.422961 0.798657 -0.251100
-0.418068 0.798589 -0.250788
-0.412126 0.796510 -0.249861
-0.407459 0.796808 -0.249657
-0.403276 0.798028 -0.249732
-0.399109 0.799276 -0.249815
-0.393494 0.797634 -0.249021
-0.388479 0.797121 -0.248571
-0.384252 0.798163 -0.248594
-0.379012 0.797087 -0.247979
-0.375314 0.799170 -0.248320
-0.371086 0.800130 -0.248325
-0.367186 0.801766 -0.248536
-0.362121 0.800853 -0.247983
-0.358321 0.802654 -0.248250
-0.352514 0.799953 -0.247170
-0.348569 0.801345 -0.247321
-0.343712 0.800620 -0.246844
-0.339595 0.801539 -0.246863
-0.334808 0.800845 -0.246404
-0.330458 0.801115 -0.246239
-0.326546 0.802398 -0.246380
-0.321208 0.800149 -0.245474
-0.317780 0.802543 -0.245954
-0.314263 0.804723 -0.246375
-0.309047 0.802541 -0.245505
-0.305008 0.803306 -0.245515
-0.300742 0.803435 -0.245341
-0.296504 0.803586 -0.245178
-0.292578 0.804537 -0.245257
-0.287756 0.802981 -0.244599
-0.283977 0.804253 -0.244781
-0.280187 0.805476 -0.244953
-0.275884 0.805201 -0.244687
-0.271851 0.805657 -0.244641
-0.267777 0.805956 -0.244553
-0.263663 0.806089 -0.244421
-0.259711 0.806677 -0.244426
-0.255798 0.807355 -0.244461
-0.251805 0.807756 -0.244419
-0.247676 0.807680 -0.244240
-0.243539 0.807525 -0.244043
-0.239259 0.806839 -0.243694
-0.235663 0.808422 -0.244012
-0.231827 0.809183 -0.244093
-0.227130 0.806877 -0.243281
-0.223533 0.808411 -0.243595
-0.219525 0.808449 -0.243475
-0.215378 0.807927 -0.243194
-0.211289 0.807563 -0.242964
-0.207498 0.808307 -0.243059
-0.203786 0.809359 -0.243246
-0.199809 0.809337 -0.243123
-0.195628 0.808428 -0.242745
-0.191958 0.809611 -0.242978
-0.188192 0.810389 -0.243096
-0.184041 0.809465 -0.242722
-0.179936 0.808671 -0.242389
-0.176084 0.808975 -0.242376
-0.173535 0.815430 -0.244151
-0.168637 0.810769 -0.242702
-0.164177 0.808024 -0.241812
-0.160828 0.810766 -0.242515
-0.157422 0.813316 -0.243164
-0.153787 0.814745 -0.243489
-0.149692 0.813688 -0.243097
-0.145571 0.812385 -0.242636
-0.141265 0.809899 -0.241835
-0.137492 0.810443 -0.241912
-0.133733 0.811068 -0.242014
-0.130435 0.814647 -0.242971
-0.126912 0.816949 -0.243559
-0.123256 0.818465 -0.243923
-0.119429 0.818850 -0.243961
-0.115325 0.817220 -0.243419
-0.111404 0.816820 -0.243234
-0.107430 0.815945 -0.242913
-0.103144 0.812420 -0.241830
-0.099281 0.812177 -0.241694
-0.095603 0.813527 -0.242019
-0.091720 0.813062 -0.241822
-0.088300 0.817033 -0.242904
-0.084515 0.817635 -0.243017
-0.080226 0.812864 -0.241584
-0.076519 0.814133 -0.241891
-0.072764 0.814947 -0.242068
-0.068961 0.815207 -0.242087
-0.065118 0.814948 -0.241957
-0.061324 0.815310 -0.242008
-0.057533 0.815753 -0.242082
-0.053819 0.817535 -0.242542
-0.050040 0.818419 -0.242745
-0.046234 0.818880 -0.242828
-0.042512 0.821259 -0.243462
-0.038751 0.823232 -0.243980
-0.034876 0.822442 -0.243707
-0.031042 0.822701 -0.243735
-0.027009 0.815163 -0.241527
-0.023196 0.814766 -0.241370
-0.019395 0.814757 -0.241324
-0.015594 0.814722 -0.241273
-0.011844 0.822822 -0.243554
-0.008000 0.817181 -0.241898
-0.004175 0.821580 -0.243120
-0.000349 0.821098 -0.242944
0.003519 0.824173 -0.243789
0.007392 0.825902 -0.244248
0.011175 0.823008 -0.243385
0.014812 0.815812 -0.241291
0.018639 0.816608 -0.241487
0.022467 0.817238 -0.241637
0.026293 0.817672 -0.241732
0.030297 0.821809 -0.242887
0.034161 0.822449 -0.243044
0.037880 0.820410 -0.242435
0.041633 0.819237 -0.242074
0.045443 0.819078 -0.242006
0.049227 0.818552 -0.241834
0.053122 0.819554 -0.242101
0.056914 0.819137 -0.241963
0.060697 0.818638 -0.241803
0.064888 0.822701 -0.242950
0.068909 0.824538 -0.243461
0.072525 0.822130 -0.242761
0.076325 0.821671 -0.242619
0.080083 0.820845 -0.242374
0.083964 0.821144 -0.242453
0.087709 0.820255 -0.242194
0.091273 0.817953 -0.241533
0.095091 0.817758 -0.241477
0.099394 0.821176 -0.242455
0.103139 0.820308 -0.242210
0.107184 0.821556 -0.242572
0.111662 0.825601 -0.243736
0.114766 0.820409 -0.242262
0.119314 0.824624 -0.243479
0.123158 0.824234 -0.243383
0.127167 0.824820 -0.243568
0.130282 0.820168 -0.242257
0.133946 0.818823 -0.241895
0.137786 0.818478 -0.241821
0.141894 0.819537 -0.242152
0.146190 0.821480 -0.242739
0.150283 0.822258 -0.242995
0.154289 0.822531 -0.243110
0.158393 0.823217 -0.243346
0.162424 0.823485 -0.243465
0.165718 0.820313 -0.242603
0.169841 0.820962 -0.242838
0.173691 0.820337 -0.242712
0.177813 0.820860 -0.242918
0.181767 0.820609 -0.242905
0.188725 0.832691 -0.246433
0.192068 0.829643 -0.245627
0.195064 0.825302 -0.244453
0.198755 0.823768 -0.244087
0.202629 0.822940 -0.243927
0.206712 0.822870 -0.243989
0.210687 0.822353 -0.243927
0.214240 0.820288 -0.243424
0.218684 0.821379 -0.243831
0.223171 0.822524 -0.244259
0.228146 0.825230 -0.245141
0.231837 0.823501 -0.244750
0.237141 0.827059 -0.245886
0.240777 0.825063 -0.245426
0.244436 0.823152 -0.244995
0.249208 0.824709 -0.245568
0.253109 0.823489 -0.245344
0.257375 0.823348 -0.245436
0.261603 0.823043 -0.245484
0.265629 0.822097 -0.245351
0.272773 0.830077 -0.247805
0.277475 0.830846 -0.248177
0.280190 0.826007 -0.246929
0.282560 0.820312 -0.245434
0.288354 0.823975 -0.246655
0.293010 0.824452 -0.246956
0.297474 0.824359 -0.247094
0.302523 0.825730 -0.247661
0.308582 0.829581 -0.248952
0.313626 0.830735 -0.249462
0.317578 0.829116 -0.249165
0.319804 0.823297 -0.247643
0.324216 0.822860 -0.247690
0.328600 0.822336 -0.247712
0.333773 0.823650 -0.248269
0.338966 0.824955 -0.248823
0.344101 0.826081 -0.249322
0.348948 0.826522 -0.249619
0.349936 0.818393 -0.247399
0.354853 0.819078 -0.247757
0.362361 0.825361 -0.249752
0.367197 0.825804 -0.250027
0.372331 0.826891 -0.250484
0.376749 0.826498 -0.250498
0.381243 0.826312 -0.250562
0.385971 0.826661 -0.250773
0.391895 0.829467 -0.251696
0.396294 0.829242 -0.251714
0.399396 0.826547 -0.250990
0.402334 0.823671 -0.250198
0.407943 0.826089 -0.250951
0.411848 0.825304 -0.250745
0.414910 0.823043 -0.250087
0.416481 0.818146 -0.248635
-0.498207 0.783588 -0.254297
-0.496143 0.786997 -0.255308
-0.492274 0.787731 -0.255454
-0.487712 0.787475 -0.255268
-0.483199 0.787380 -0.255115
-0.479605 0.788845 -0.255435
-0.475847 0.790151 -0.255687
-0.471097 0.789923 -0.255439
-0.466959 0.790772 -0.255513
-0.462660 0.791427 -0.255512
-0.458685 0.792698 -0.255690
-0.453933 0.792709 -0.255458
-0.449563 0.793421 -0.255435
-0.445046 0.793921 -0.255335
-0.439806 0.793176 -0.254836
-0.435754 0.794557 -0.254993
-0.431838 0.796225 -0.255231
-0.427090 0.796410 -0.255000
-0.423057 0.797922 -0.255177
-0.416794 0.795276 -0.254058
-0.412555 0.796395 -0.254106
-0.408165 0.797227 -0.254062
-0.403592 0.797698 -0.253904
-0.399146 0.798401 -0.253817
-0.393331 0.796359 -0.252884
-0.388789 0.796794 -0.252716
-0.385674 0.800113 -0.253437
-0.381581 0.801448 -0.253549
-0.376898 0.801534 -0.253278
-0.371734 0.800551 -0.252682
-0.366762 0.799904 -0.252194
-0.362881 0.801560 -0.252414
-0.357606 0.800129 -0.251694
-0.353198 0.800543 -0.251543
-0.348809 0.800952 -0.251394
-0.343960 0.800260 -0.250914
-0.339657 0.800759 -0.250802
-0.335608 0.801813 -0.250863
-0.330793 0.801006 -0.250364
-0.326438 0.801231 -0.250183
-0.322532 0.802505 -0.250325
-0.317892 0.801930 -0.249911
-0.314194 0.803659 -0.250199
-0.309523 0.802883 -0.249735
-0.305186 0.802898 -0.249516
-0.300933 0.803075 -0.249350
-0.296995 0.804045 -0.249427
-0.293121 0.805162 -0.249554
-0.288873 0.805226 -0.249368
-0.284297 0.804316 -0.248894
-0.280319 0.805025 -0.248911
-0.276060 0.804891 -0.248680
-0.271963 0.805177 -0.248579
-0.267809 0.805247 -0.248418
-0.263681 0.805346 -0.248270
-0.259710 0.805884 -0.248258
-0.255783 0.806528 -0.248281
-0.251780 0.806901 -0.248227
-0.247949 0.807796 -0.248333
-0.244005 0.808303 -0.248327
-0.239742 0.807710 -0.247997
-0.235589 0.807426 -0.247762
-0.231678 0.807928 -0.247766
-0.227726 0.808262 -0.247722
-0.223431 0.807323 -0.247304
-0.219958 0.809329 -0.247764
-0.215704 0.808444 -0.247369
-0.211398 0.807283 -0.246895
-0.207310 0.806887 -0.246652
-0.203784 0.808668 -0.247057
-0.199864 0.808882 -0.247000
-0.195972 0.809187 -0.246973
-0.192125 0.809654 -0.246997
-0.187825 0.808148 -0.246440
-0.184019 0.808724 -0.246501
-0.180015 0.808391 -0.246296
-0.176010 0.808003 -0.246078
-0.173094 0.812715 -0.247367
-0.171214 0.822644 -0.250198
-0.164636 0.809698 -0.246281
-0.160760 0.809818 -0.246221
-0.157514 0.813204 -0.247126
-0.153436 0.812276 -0.246762
-0.149535 0.812245 -0.246664
-0.145942 0.813919 -0.247070
-0.142209 0.814847 -0.247258
-0.138044 0.813205 -0.246692
-0.133972 0.812001 -0.246256
-0.130011 0.811407 -0.246002
-0.126241 0.812003 -0.246100
-0.122334 0.811670 -0.245926
-0.118522 0.811958 -0.245936
-0.114795 0.812858 -0.246127
-0.111078 0.813865 -0.246351
-0.107109 0.812948 -0.246012
-0.103176 0.812220 -0.245730
-0.099485 0.813459 -0.246026
-0.095559 0.812692 -0.245735
-0.091786 0.813250 -0.245834
-0.088370 0.817294 -0.246956
-0.084635 0.818465 -0.247237
-0.080417 0.814537 -0.246025
-0.076457 0.813077 -0.245538
-0.072719 0.814070 -0.245770
-0.068957 0.814845 -0.245940
-0.065142 0.814977 -0.245923
-0.061282 0.814453 -0.245714
-0.057631 0.817073 -0.246426
-0.053983 0.820128 -0.247266
-0.050079 0.819001 -0.246885
-0.046244 0.818991 -0.246831
-0.042377 0.818244 -0.246563
-0.038514 0.817347 -0.246252
-0.034679 0.816999 -0.246103
-0.030853 0.816750 -0.245984
-0.027055 0.817514 -0.246162
-0.023206 0.816021 -0.245682
-0.019381 0.815151 -0.245385
-0.015568 0.814447 -0.245137
-0.011768 0.814721 -0.245176
-0.007968 0.816014 -0.245513
-0.004161 0.816085 -0.245495
-0.000339 0.817800 -0.245958
0.003503 0.819855 -0.246520
0.007331 0.820086 -0.246551
0.011043 0.815148 -0.245078
0.014855 0.815551 -0.245163
0.018713 0.817240 -0.245623
0.022533 0.817472 -0.245660
0.026338 0.817285 -0.245576
0.030303 0.820528 -0.246493
0.034121 0.820346 -0.246413
0.037937 0.820131 -0.246325
0.041677 0.818703 -0.245885
0.045511 0.818891 -0.245918
0.049343 0.819001 -0.245929
0.053151 0.818778 -0.245844
0.056981 0.818822 -0.245839
0.060910 0.820013 -0.246170
0.065155 0.824543 -0.247473
0.069114 0.825585 -0.247763
0.072755 0.823337 -0.247098
0.076264 0.820010 -0.246121
0.080050 0.819479 -0.245959
0.083922 0.819721 -0.246024
0.087691 0.819056 -0.245827
0.091706 0.820393 -0.246214
0.096093 0.824478 -0.247403
0.100018 0.824795 -0.247498
0.103555 0.822266 -0.246767
0.107072 0.819742 -0.246040
0.110449 0.816411 -0.245080
0.114616 0.818406 -0.245672
0.118297 0.817176 -0.245329
0.122412 0.818640 -0.245771
0.126105 0.817482 -0.245454
0.130101 0.818097 -0.245655
0.134237 0.819434 -0.246069
0.138547 0.821605 -0.246728
0.142388 0.821133 -0.246621
0.146488 0.821991 -0.246904
0.150232 0.820963 -0.246642
0.153917 0.819657 -0.246301
0.157285 0.816847 -0.245525
0.162099 0.820913 -0.246755
0.166118 0.821105 -0.246860
0.170231 0.821659 -0.247075
0.174359 0.822212 -0.247292
0.178101 0.821038 -0.247009
0.182350 0.821995 -0.247352
0.189246 0.833750 -0.250849
0.192940 0.832076 -0.250433
0.195028 0.824080 -0.248173
0.198680 0.822398 -0.247761
0.202553 0.821567 -0.247601
0.206874 0.822383 -0.247926
0.210980 0.822327 -0.248000
0.216097 0.825844 -0.249124
0.220415 0.826362 -0.249375
0.224227 0.825063 -0.249099
0.227498 0.821914 -0.248284
0.231999 0.822922 -0.248692
0.236216 0.822901 -0.248802
0.240208 0.822104 -0.248689
0.244495 0.822207 -0.248844
0.248451 0.821216 -0.248683
0.253304 0.822946 -0.249325
0.257962 0.823971 -0.249765
0.262149 0.823512 -0.249772
0.266292 0.822881 -0.249733
0.273260 0.830311 -0.252073
0.277292 0.829165 -0.251891
0.280132 0.824685 -0.250729
0.283920 0.822881 -0.250359
0.288628 0.823557 -0.250724
0.293056 0.823415 -0.250851
0.297675 0.823728 -0.251115
0.302883 0.825500 -0.251814
0.308990 0.829457 -0.253163
0.314670 0.832192 -0.254153
0.318787 0.830949 -0.253966
0.322704 0.829218 -0.253634
0.324920 0.823420 -0.252092
0.329390 0.823089 -0.252173
0.334355 0.823900 -0.252594
0.338816 0.823511 -0.252655
0.344559 0.826034 -0.253581
0.347938 0.823180 -0.252901
0.352861 0.823823 -0.253260
0.358877 0.826847 -0.254324
0.363221 0.826199 -0.254286
0.365816 0.821860 -0.253136
0.370461 0.821975 -0.253309
0.376056 0.824104 -0.254076
0.380148 0.823135 -0.253906
0.385637 0.825084 -0.254598
0.389413 0.823607 -0.254251
0.394584 0.825002 -0.254752
0.398526 0.824030 -0.254528
0.403809 0.825767 -0.255103
0.408701 0.826807 -0.255453
0.412514 0.825865 -0.255191
0.415399 0.823293 -0.254424
0.420386 0.824802 -0.254863
-0.500838 0.787152 -0.259688
-0.496437 0.786934 -0.259557
-0.491787 0.786420 -0.259310
-0.487040 0.785834 -0.259021
-0.483093 0.786602 -0.259147
-0.479668 0.788308 -0.259555
-0.476323 0.790258 -0.260023
-0.472143 0.790946 -0.260068
-0.467691 0.791264 -0.259977
-0.464037 0.792986 -0.260320
-0.460274 0.794615 -0.260618
-0.455013 0.793761 -0.260108
-0.450291 0.793861 -0.259892
-0.445953 0.794667 -0.259888
-0.442457 0.797005 -0.260362
-0.435357 0.792970 -0.258800
-0.431233 0.794237 -0.258916
-0.427368 0.796012 -0.259186
-0.423497 0.797815 -0.259458
-0.418370 0.797299 -0.258991
-0.412920 0.796147 -0.258320
-0.408698 0.797301 -0.258375
-0.404723 0.798940 -0.258581
-0.398903 0.796963 -0.257647
-0.394613 0.797946 -0.257646
-0.390400 0.799073 -0.257689
-0.386386 0.800594 -0.257856
-0.382117 0.801582 -0.257857
-0.377254 0.801306 -0.257466
-0.371622 0.799344 -0.256550
-0.367422 0.800353 -0.256567
-0.362996 0.800844 -0.256425
-0.357835 0.799675 -0.255770
-0.353546 0.800362 -0.255698
-0.349608 0.801808 -0.255865
-0.344432 0.800395 -0.255149
-0.340021 0.800664 -0.254960
-0.335722 0.801144 -0.254841
-0.330604 0.799625 -0.254109
-0.326554 0.800588 -0.254149
-0.322243 0.800878 -0.253987
-0.318447 0.802400 -0.254209
-0.314006 0.802278 -0.253929
-0.309952 0.803086 -0.253940
-0.306123 0.804445 -0.254126
-0.301453 0.803566 -0.253629
-0.297123 0.803513 -0.253391
-0.293198 0.804506 -0.253478
-0.289161 0.805162 -0.253467
-0.284375 0.803684 -0.252808
-0.280540 0.804812 -0.252951
-0.277020 0.806830 -0.253369
-0.272202 0.805049 -0.252633
-0.267722 0.804168 -0.252176
-0.263475 0.803911 -0.251915
-0.259694 0.805032 -0.252077
-0.255570 0.805063 -0.251912
-0.251525 0.805300 -0.251813
-0.247850 0.806695 -0.252070
-0.243988 0.807475 -0.252144
-0.239701 0.806810 -0.251784
-0.235689 0.807012 -0.251690
-0.231856 0.807798 -0.251777
-0.227746 0.807589 -0.251566
-0.223852 0.808107 -0.251579
-0.219995 0.808737 -0.251629
-0.216037 0.808973 -0.251563
-0.211790 0.808070 -0.251157
-0.207913 0.808533 -0.251167
-0.203799 0.808031 -0.250888
-0.199832 0.808068 -0.250775
-0.195957 0.808446 -0.250768
-0.192383 0.810074 -0.251140
-0.188760 0.811525 -0.251461
-0.185207 0.813311 -0.251885
-0.180450 0.809706 -0.250691
-0.176352 0.808945 -0.250355
-0.174227 0.817436 -0.252800
-0.170714 0.819587 -0.253342
-0.165440 0.813067 -0.251284
-0.160697 0.808886 -0.249932
-0.157208 0.811001 -0.250471
-0.153512 0.812089 -0.250703
-0.149787 0.813046 -0.250898
-0.146183 0.814701 -0.251304
-0.142582 0.816447 -0.251739
-0.138633 0.816172 -0.251571
-0.134369 0.813905 -0.250809
-0.130049 0.811109 -0.249890
-0.126180 0.811066 -0.249798
-0.122466 0.812043 -0.250011
-0.118461 0.811014 -0.249627
-0.114731 0.811882 -0.249812
-0.110941 0.812339 -0.249875
-0.107072 0.812178 -0.249755
-0.103267 0.812493 -0.249778
-0.099362 0.811961 -0.249550
-0.095477 0.811523 -0.249352
-0.091736 0.812361 -0.249536
-0.088416 0.817328 -0.250952
-0.084674 0.818454 -0.251223
-0.080663 0.816800 -0.250668
-0.076444 0.812571 -0.249347
-0.072642 0.812802 -0.249356
-0.068899 0.813792 -0.249593
-0.065076 0.813794 -0.249536
-0.061289 0.814293 -0.249628
-0.057660 0.817287 -0.250464
-0.054044 0.820974 -0.251506
-0.050297 0.822855 -0.252012
-0.046322 0.820483 -0.251255
-0.042278 0.816012 -0.249875
-0.038407 0.814744 -0.249449
-0.034602 0.814974 -0.249470
-0.030828 0.816259 -0.249804
-0.027044 0.817585 -0.250152
-0.023256 0.819291 -0.250613
-0.019415 0.818552 -0.250350
-0.015561 0.815911 -0.249523
-0.011741 0.814631 -0.249102
-0.007939 0.816481 -0.249611
-0.004124 0.816845 -0.249680
-0.000308 0.817084 -0.249713
0.003523 0.818301 -0.250036
0.007339 0.818079 -0.249935
0.011125 0.816630 -0.249471
0.014983 0.818307 -0.249935
0.018768 0.817218 -0.249581
0.022569 0.816859 -0.249444
0.026433 0.818046 -0.249766
0.030307 0.819217 -0.250085
0.034152 0.819575 -0.250165
0.037988 0.819722 -0.250184
0.041830 0.819922 -0.250219
0.045575 0.818625 -0.249813
0.049398 0.818582 -0.249780
0.053253 0.818937 -0.249866
0.057105 0.819204 -0.249928
0.061005 0.819981 -0.250143
0.065246 0.824414 -0.251441
0.069182 0.825183 -0.251657
0.072717 0.821852 -0.250661
0.076383 0.820056 -0.250121
0.079975 0.817720 -0.249423
0.083820 0.817761 -0.249431
0.087761 0.818577 -0.249670
0.092123 0.822676 -0.250883
0.096560 0.827021 -0.252171
0.100706 0.828859 -0.252719
0.103958 0.824114 -0.251321
0.107126 0.819068 -0.249837
0.110885 0.818296 -0.249619
0.115167 0.820943 -0.250417
0.119204 0.821848 -0.250701
0.122690 0.819299 -0.249965
0.126310 0.817656 -0.249500
0.130471 0.819188 -0.249978
0.134708 0.821029 -0.250551
0.138709 0.821439 -0.250702
0.142610 0.821265 -0.250684
0.146298 0.819952 -0.250331
0.150284 0.820171 -0.250435
0.153834 0.818193 -0.249891
0.159045 0.824243 -0.251730
0.161915 0.818988 -0.250222
0.166019 0.819584 -0.250451
0.170425 0.821460 -0.251063
0.174454 0.821554 -0.251151
0.178615 0.822167 -0.251397
0.183003 0.823654 -0.251905
0.188942 0.831399 -0.254276
0.189788 0.818291 -0.250458
0.195142 0.823428 -0.252064
0.198164 0.819303 -0.250920
0.202355 0.819711 -0.251129
0.207287 0.822807 -0.252140
0.212081 0.825225 -0.252956
0.216797 0.827222 -0.253650
0.221330 0.828448 -0.254120
0.224796 0.825891 -0.253468
0.227822 0.821881 -0.252386
0.231906 0.821472 -0.252381
0.236278 0.821963 -0.252649
0.240502 0.821902 -0.252757
0.244452 0.820921 -0.252595
0.248668 0.820739 -0.252676
0.253489 0.822352 -0.253298
0.257935 0.822728 -0.253554
0.262361 0.822972 -0.253776
0.266519 0.822371 -0.253749
0.274024 0.831316 -0.256588
0.277183 0.827675 -0.255658
0.281047 0.826048 -0.255335
0.284610 0.823591 -0.254766
0.288916 0.823156 -0.254807
0.293302 0.822891 -0.254902
0.297517 0.822141 -0.254854
0.303540 0.826017 -0.256202
0.308800 0.827798 -0.256923
0.314325 0.830151 -0.257818
0.319196 0.830789 -0.258197
0.321836 0.825949 -0.256922
0.325456 0.823562 -0.256386
0.328960 0.820938 -0.255777
0.334608 0.823366 -0.256696
0.339052 0.822941 -0.256749
0.343612 0.822782 -0.256879
0.347300 0.820669 -0.256412
0.351627 0.820028 -0.256387
0.358128 0.824160 -0.257807
0.362003 0.822543 -0.257472
0.364664 0.818406 -0.256362
0.370769 0.821647 -0.257489
0.377822 0.826823 -0.259197
0.384242 0.830621 -0.260476
0.384666 0.822213 -0.258020
0.386486 0.816863 -0.256481
0.393714 0.822439 -0.258264
0.400147 0.826411 -0.259543
0.403677 0.824741 -0.259084
0.409008 0.826660 -0.259704
0.413404 0.826856 -0.259781
0.417115 0.825860 -0.259476
0.422920 0.828898 -0.260386
-0.500921 0.786800 -0.263842
-0.496911 0.787160 -0.263904
-0.491465 0.785375 -0.263244
-0.486763 0.784825 -0.262967
-0.483056 0.785941 -0.263215
-0.480015 0.788234 -0.263828
-0.476534 0.789936 -0.264227
-0.472899 0.791494 -0.264561
-0.468631 0.792101 -0.264567
-0.464803 0.793519 -0.264821
-0.460331 0.793935 -0.264733
-0.456365 0.795273 -0.264929
-0.450360 0.793157 -0.263992
-0.446479 0.794742 -0.264243
-0.441616 0.794653 -0.263941
-0.436793 0.794654 -0.263659
-0.431699 0.794179 -0.263214
-0.427607 0.795532 -0.263353
-0.423684 0.797229 -0.263596
-0.419742 0.798925 -0.263832
-0.415026 0.799183 -0.263601
-0.409912 0.798666 -0.263119
-0.404580 0.797692 -0.262488
-0.400070 0.798281 -0.262358
-0.395035 0.797807 -0.261887
-0.390638 0.798571 -0.261813
-0.386450 0.799739 -0.261868
-0.382007 0.800367 -0.261753
-0.377037 0.799865 -0.261280
-0.372135 0.799447 -0.260836
-0.367452 0.799435 -0.260526
-0.363419 0.800782 -0.260650
-0.358705 0.800611 -0.260296
-0.354193 0.800833 -0.260071
-0.349502 0.800599 -0.259706
-0.345120 0.801007 -0.259549
-0.340257 0.800253 -0.259031
-0.336399 0.801785 -0.259237
-0.330891 0.799364 -0.258205
-0.326334 0.799117 -0.257863
-0.322573 0.800755 -0.258117
-0.318505 0.801617 -0.258133
-0.314328 0.802171 -0.258056
-0.310267 0.802979 -0.258064
-0.306299 0.803995 -0.258142
-0.302201 0.804638 -0.258108
-0.296958 0.802182 -0.257113
-0.293258 0.803786 -0.257389
-0.289204 0.804404 -0.257363
-0.284447 0.803018 -0.256718
-0.280554 0.803990 -0.256812
-0.276722 0.805116 -0.256958
-0.272489 0.805049 -0.256737
-0.267969 0.804070 -0.256239
-0.264213 0.805320 -0.256437
-0.259740 0.804355 -0.255953
-0.255971 0.805508 -0.256129
-0.251592 0.804713 -0.255707
-0.247794 0.805720 -0.255846
-0.244024 0.806806 -0.256014
-0.239804 0.806374 -0.255716
-0.235973 0.807209 -0.255814
-0.232052 0.807715 -0.255813
-0.228273 0.808697 -0.255963
-0.224218 0.808677 -0.255808
-0.220047 0.808187 -0.255513
-0.216293 0.809196 -0.255681
-0.212415 0.809729 -0.255706
-0.207982 0.808084 -0.255067
-0.203824 0.807423 -0.254733
-0.199866 0.807507 -0.254631
-0.196221 0.808846 -0.254916
-0.192529 0.810006 -0.255149
-0.188862 0.811283 -0.255420
-0.185054 0.811962 -0.255511
-0.180992 0.811492 -0.255253
-0.176806 0.810386 -0.254804
-0.174199 0.816651 -0.256609
-0.170484 0.817829 -0.256862
-0.164477 0.807661 -0.253655
-0.160323 0.806367 -0.253160
-0.157492 0.811874 -0.254741
-0.153595 0.811928 -0.254661
-0.149690 0.811909 -0.254560
-0.146195 0.814182 -0.255160
-0.142473 0.815225 -0.255387
-0.138419 0.814313 -0.255022
-0.134436 0.813752 -0.254764
-0.130031 0.810441 -0.253673
-0.126294 0.811267 -0.253842
-0.122601 0.812430 -0.254115
-0.118551 0.811125 -0.253639
-0.114725 0.811328 -0.253624
-0.110983 0.812149 -0.253798
-0.107157 0.812351 -0.253785
-0.103123 0.810841 -0.253255
-0.099123 0.809457 -0.252764
-0.095318 0.809665 -0.252758
-0.091733 0.811890 -0.253365
-0.088399 0.816736 -0.254767
-0.084749 0.818814 -0.255332
-0.080661 0.816378 -0.254530
-0.076608 0.814046 -0.253761
-0.072598 0.811936 -0.253060
-0.068808 0.812314 -0.253115
-0.065100 0.813826 -0.253514
-0.061310 0.814323 -0.253607
-0.057706 0.817773 -0.254595
-0.054077 0.821332 -0.255616
-0.050310 0.822959 -0.256053
-0.046352 0.820991 -0.255405
-0.042192 0.814064 -0.253260
-0.038369 0.813853 -0.253146
-0.034584 0.814631 -0.253333
-0.030786 0.815173 -0.253448
-0.027096 0.820163 -0.254909
-0.023282 0.821385 -0.255232
-0.019444 0.821688 -0.255279
-0.015583 0.820173 -0.254778
-0.011720 0.815684 -0.253381
-0.007907 0.816205 -0.253498
-0.004092 0.816201 -0.253457
-0.000277 0.816254 -0.253435
0.003549 0.817136 -0.253664
0.007355 0.816452 -0.253422
0.011173 0.816590 -0.253429
0.015045 0.818630 -0.254011
0.018838 0.817631 -0.253678
0.022622 0.816675 -0.253360
0.026470 0.817417 -0.253554
0.030320 0.818052 -0.253718
0.034289 0.820842 -0.254532
0.038050 0.819489 -0.254100
0.041815 0.818397 -0.253748
0.045641 0.818357 -0.253715
0.049489 0.818630 -0.253777
0.053403 0.819711 -0.254085
0.057225 0.819513 -0.254009
0.061055 0.819406 -0.253962
0.065075 0.821374 -0.254541
0.069039 0.822554 -0.254885
0.072935 0.822908 -0.254983
0.076330 0.818446 -0.253632
0.080054 0.817342 -0.253295
0.083911 0.817464 -0.253329
0.088094 0.820273 -0.254173
0.091982 0.820466 -0.254233
0.096632 0.826493 -0.256050
0.100733 0.827978 -0.256503
0.104281 0.825358 -0.255723
0.107130 0.818035 -0.253529
0.111129 0.818871 -0.253794
0.115386 0.821303 -0.254542
0.119108 0.820178 -0.254222
0.122703 0.818313 -0.253681
0.126559 0.818074 -0.253633
0.130870 0.820424 -0.254368
0.134895 0.821007 -0.254573
0.138857 0.821178 -0.254657
0.142629 0.820296 -0.254427
0.146606 0.820476 -0.254521
0.151631 0.825888 -0.256194
0.155768 0.826622 -0.256461
0.159180 0.823810 -0.255662
0.163199 0.823922 -0.255749
0.166555 0.820953 -0.254910
0.170301 0.819816 -0.254626
0.174466 0.820515 -0.254900
0.178789 0.821810 -0.255359
0.183325 0.823896 -0.256060
0.188808 0.829729 -0.257897
0.191512 0.824111 -0.256279
0.195623 0.824207 -0.256392
0.198118 0.818011 -0.254606
0.202487 0.819092 -0.255024
0.206672 0.819396 -0.255212
0.212416 0.825308 -0.257102
0.216315 0.824356 -0.256918
0.220672 0.824986 -0.257219
0.225108 0.825811 -0.257583
0.228124 0.821750 -0.256470
0.232094 0.820939 -0.256347
0.236762 0.822381 -0.256912
0.240935 0.822125 -0.256966
0.244796 0.820836 -0.256711
0.249161 0.821095 -0.256931
0.253391 0.820874 -0.257009
0.257513 0.820277 -0.256977
0.262394 0.821884 -0.257621
0.267173 0.823084 -0.258146
0.272365 0.825370 -0.259007
0.278394 0.829883 -0.260552
0.282275 0.828252 -0.260226
0.285141 0.823844 -0.259055
0.289456 0.823409 -0.259100
0.293844 0.823133 -0.259197
0.298712 0.824066 -0.259667
0.303666 0.825146 -0.260185
0.308986 0.827077 -0.260967
0.313995 0.828138 -0.261484
0.315962 0.821642 -0.259679
0.320647 0.821891 -0.259946
0.325412 0.822297 -0.260262
0.331689 0.826235 -0.261666
0.337370 0.828659 -0.262603
0.340935 0.826144 -0.262014
0.343768 0.822029 -0.260926
0.347840 0.820790 -0.260722
0.350989 0.817550 -0.259893
0.357008 0.820665 -0.261022
0.361944 0.821386 -0.261404
0.365526 0.819238 -0.260890
0.372164 0.823600 -0.262383
0.381547 0.833597 -0.265615
0.383176 0.827499 -0.263844
0.382536 0.816998 -0.260691
0.386520 0.816074 -0.260497
0.392525 0.819250 -0.261562
0.400409 0.826122 -0.263761
0.403046 0.822749 -0.262760
0.407961 0.823915 -0.263152
0.413488 0.826319 -0.263912
0.417202 0.825365 -0.263610
0.418942 0.820856 -0.262185
-0.500393 0.785519 -0.267686
-0.497329 0.787306 -0.268231
-0.493590 0.788168 -0.268446
-0.487464 0.785369 -0.267424
-0.484238 0.787229 -0.267929
-0.480434 0.788281 -0.268145
-0.476760 0.789644 -0.268445
-0.473177 0.791258 -0.268808
-0.469032 0.792044 -0.268879
-0.465175 0.793393 -0.269118
-0.461793 0.795629 -0.269634
-0.457590 0.796561 -0.269703
-0.450657 0.792844 -0.268224
-0.445876 0.792840 -0.267958
-0.441789 0.794089 -0.268094
-0.437620 0.795242 -0.268187
-0.433378 0.796305 -0.268241
-0.428011 0.795347 -0.267624
-0.424061 0.796986 -0.267852
-0.419956 0.798370 -0.267991
-0.414786 0.797764 -0.267473
-0.410463 0.798747 -0.267471
-0.405564 0.798618 -0.267104
-0.400371 0.797884 -0.266539
-0.395723 0.798181 -0.266309
-0.390696 0.797692 -0.265824
-0.386344 0.798523 -0.265769
-0.381898 0.799140 -0.265646
-0.376933 0.798647 -0.265165
-0.371555 0.797220 -0.264385
-0.367583 0.798716 -0.264554
-0.363668 0.800324 -0.264761
-0.359085 0.800452 -0.264494
-0.354645 0.800848 -0.264318
-0.349821 0.800332 -0.263853
-0.344704 0.799075 -0.263155
-0.340940 0.800862 -0.263439
-0.336313 0.800612 -0.263075
-0.332051 0.801165 -0.262973
-0.327180 0.800204 -0.262393
-0.322695 0.800104 -0.262092
-0.318985 0.801865 -0.262391
-0.315175 0.803369 -0.262612
-0.310146 0.801739 -0.261841
-0.306267 0.802988 -0.261991
-0.302110 0.803481 -0.261906
-0.297349 0.802320 -0.261301
-0.293247 0.802854 -0.261240
-0.289423 0.804115 -0.261413
-0.285251 0.804382 -0.261277
-0.280549 0.803103 -0.260657
-0.276594 0.803879 -0.260692
-0.272524 0.804291 -0.260616
-0.268164 0.803799 -0.260261
-0.264378 0.804976 -0.260436
-0.260462 0.805738 -0.260484
-0.256223 0.805469 -0.260213
-0.252067 0.805403 -0.260010
-0.248030 0.805672 -0.259916
-0.244270 0.806810 -0.260100
-0.240635 0.808362 -0.260417
-0.236333 0.807647 -0.260027
-0.232318 0.807860 -0.259933
-0.228130 0.807421 -0.259638
-0.224185 0.807797 -0.259602
-0.220063 0.807494 -0.259358
-0.216141 0.807882 -0.259333
-0.212415 0.808992 -0.259537
-0.208356 0.808808 -0.259340
-0.204281 0.808514 -0.259112
-0.200128 0.807853 -0.258774
-0.196525 0.809395 -0.259125
-0.192399 0.808759 -0.258801
-0.188530 0.809161 -0.258803
-0.184905 0.810620 -0.259137
-0.181045 0.811053 -0.259154
-0.176922 0.810255 -0.258791
-0.173725 0.813754 -0.259766
-0.170821 0.818802 -0.261223
-0.165295 0.811076 -0.258718
-0.160603 0.807157 -0.257398
-0.157164 0.809538 -0.258035
-0.153412 0.810333 -0.258182
-0.149572 0.810655 -0.258185
-0.146634 0.816057 -0.259763
-0.142678 0.815822 -0.259597
-0.138624 0.814960 -0.259239
-0.134248 0.812017 -0.258239
-0.130228 0.811129 -0.257878
-0.126189 0.810024 -0.257452
-0.122358 0.810232 -0.257433
-0.118503 0.810251 -0.257358
-0.114737 0.810892 -0.257477
-0.111133 0.812770 -0.257979
-0.107220 0.812343 -0.257772
-0.103099 0.810151 -0.257021
-0.099155 0.809254 -0.256672
-0.095398 0.809908 -0.256802
-0.091566 0.809892 -0.256728
-0.088676 0.818981 -0.259461
-0.084905 0.819981 -0.259702
-0.080797 0.817444 -0.258855
-0.076513 0.812599 -0.257298
-0.072697 0.812762 -0.257286
-0.068928 0.813507 -0.257454
-0.065086 0.813328 -0.257340
-0.061329 0.814331 -0.257589
-0.057614 0.816110 -0.258079
-0.054036 0.820439 -0.259354
-0.050252 0.821733 -0.259697
-0.046143 0.816683 -0.258090
-0.042165 0.813448 -0.257044
-0.038415 0.815068 -0.257491
-0.034622 0.815911 -0.257700
-0.030803 0.816072 -0.257701
-0.027039 0.818436 -0.258379
-0.023259 0.821093 -0.259148
-0.019412 0.820998 -0.259074
-0.015526 0.817171 -0.257856
-0.011691 0.815473 -0.257293
-0.007876 0.815781 -0.257346
-0.004062 0.814936 -0.257047
-0.000247 0.815293 -0.257118
0.003580 0.816312 -0.257394
0.007372 0.814853 -0.256911
0.011237 0.817201 -0.257596
0.015053 0.816988 -0.257498
0.018872 0.816946 -0.257453
0.022685 0.816716 -0.257352
0.026489 0.816340 -0.257208
0.030641 0.823400 -0.259344
0.034415 0.821865 -0.258848
0.038164 0.820149 -0.258298
0.041914 0.818694 -0.257830
0.045762 0.818905 -0.257874
0.049622 0.819250 -0.257960
0.053420 0.818717 -0.257779
0.057229 0.818367 -0.257657
0.061013 0.817732 -0.257448
0.064834 0.817566 -0.257386
0.068869 0.819619 -0.258004
0.072833 0.820755 -0.258344
0.076502 0.818957 -0.257787
0.080113 0.816768 -0.257114
0.084150 0.818435 -0.257622
0.088123 0.819411 -0.257921
0.092240 0.821430 -0.258542
0.096351 0.823230 -0.259098
0.100204 0.822949 -0.259020
0.103840 0.821101 -0.258464
0.107331 0.818345 -0.257633
0.111496 0.820251 -0.258232
0.115326 0.819829 -0.258120
0.119082 0.818937 -0.257868
0.122699 0.817212 -0.257363
0.127131 0.820375 -0.258358
0.131125 0.820808 -0.258520
0.135069 0.820894 -0.258578
0.138916 0.820417 -0.258468
0.142817 0.820207 -0.258442
0.147300 0.822967 -0.259330
0.152176 0.827530 -0.260774
0.155881 0.826074 -0.260377
0.159278 0.823177 -0.259541
0.162934 0.821576 -0.259106
0.166732 0.820657 -0.258884
0.170647 0.820253 -0.258823
0.174766 0.820712 -0.259031
0.178782 0.820665 -0.259087
0.183235 0.822395 -0.259694
0.188612 0.827789 -0.261430
0.194472 0.834850 -0.263684
0.196455 0.826337 -0.261156
0.199431 0.821933 -0.259894
0.202776 0.819043 -0.259102
0.208544 0.825184 -0.261092
0.212853 0.825735 -0.261367
0.214724 0.817516 -0.258946
0.219092 0.818285 -0.259297
0.224411 0.822239 -0.260634
0.228545 0.821997 -0.260683
0.232514 0.821156 -0.260552
0.236913 0.821688 -0.260849
0.241297 0.822096 -0.261113
0.245442 0.821681 -0.261127
0.249726 0.821649 -0.261265
0.254157 0.822009 -0.261528
0.261656 0.831489 -0.264621
0.264591 0.827153 -0.263439
0.268428 0.825512 -0.263097
0.273174 0.826463 -0.263562
0.278597 0.829230 -0.264596
0.282142 0.826662 -0.263976
0.285782 0.824375 -0.263447
0.290030 0.823737 -0.263433
0.294474 0.823584 -0.263574
0.298902 0.823349 -0.263691
0.306400 0.830952 -0.266256
0.308374 0.824320 -0.264381
0.311268 0.820135 -0.263270
0.315674 0.819748 -0.263344
0.320898 0.821319 -0.264032
0.325598 0.821569 -0.264307
0.331711 0.825121 -0.265615
0.337876 0.828679 -0.266925
0.337981 0.818229 -0.263835
0.344482 0.822528 -0.265371
0.349154 0.822630 -0.265585
0.354856 0.825009 -0.266509
0.364060 0.834968 -0.269815
0.368861 0.835232 -0.270062
0.368490 0.824530 -0.266843
0.371932 0.822127 -0.266227
0.378761 0.826850 -0.267849
0.380272 0.820616 -0.266000
0.382248 0.815526 -0.264498
0.386186 0.814550 -0.264280
0.393855 0.821061 -0.266414
0.398800 0.822172 -0.266825
0.405267 0.826298 -0.268173
0.409609 0.826355 -0.268217
0.413925 0.826461 -0.268258
0.417372 0.825034 -0.267796
0.420121 0.822441 -0.266945
-0.500261 0.784856 -0.271729
-0.498049 0.787931 -0.272725
-0.494040 0.788346 -0.272800
-0.488972 0.787194 -0.272324
-0.484888 0.787676 -0.272378
-0.480383 0.787577 -0.272216
-0.477238 0.789766 -0.272805
-0.473579 0.791231 -0.273131
-0.469115 0.791466 -0.273022
-0.465058 0.792451 -0.273148
-0.461664 0.794634 -0.273660
-0.457472 0.795557 -0.273731
-0.450859 0.792367 -0.272407
-0.446283 0.792699 -0.272252
-0.442358 0.794218 -0.272484
-0.438352 0.795653 -0.272675
-0.432992 0.794694 -0.272056
-0.428793 0.795844 -0.272133
-0.425044 0.797854 -0.272489
-0.420298 0.798047 -0.272233
-0.414711 0.796651 -0.271443
-0.410260 0.797377 -0.271356
-0.406004 0.798477 -0.271390
-0.400825 0.797774 -0.270824
-0.396297 0.798315 -0.270670
-0.392117 0.799534 -0.270739
-0.386887 0.798616 -0.270103
-0.382010 0.798358 -0.269686
-0.377821 0.799482 -0.269727
-0.374040 0.801453 -0.270048
-0.369533 0.801872 -0.269861
-0.363529 0.799009 -0.268601
-0.359396 0.800124 -0.268650
-0.355100 0.800851 -0.268576
-0.350003 0.799739 -0.267905
-0.345532 0.799970 -0.267678
-0.341633 0.801472 -0.267870
-0.336213 0.799389 -0.266899
-0.331861 0.799732 -0.266724
-0.328260 0.801836 -0.267126
-0.324065 0.802488 -0.267060
-0.319346 0.801799 -0.266565
-0.315304 0.802737 -0.266604
-0.311271 0.803663 -0.266643
-0.306003 0.801363 -0.265644
-0.302066 0.802433 -0.265741
-0.297558 0.801954 -0.265343
-0.293316 0.802126 -0.265160
-0.289143 0.802436 -0.265027
-0.285206 0.803356 -0.265095
-0.281384 0.804576 -0.265265
-0.276529 0.802809 -0.264480
-0.272425 0.803126 -0.264370
-0.268435 0.803737 -0.264359
-0.264531 0.804579 -0.264426
-0.260559 0.805186 -0.264423
-0.256360 0.805057 -0.264189
-0.252287 0.805268 -0.264069
-0.248385 0.805994 -0.264117
-0.244575 0.806996 -0.264257
-0.240134 0.805877 -0.263725
-0.236500 0.807416 -0.264045
-0.232138 0.806444 -0.263569
-0.228039 0.806317 -0.263366
-0.223879 0.805920 -0.263082
-0.220046 0.806663 -0.263163
-0.216005 0.806617 -0.262998
-0.212198 0.807415 -0.263104
-0.208517 0.808689 -0.263365
-0.204298 0.807847 -0.262958
-0.200420 0.808307 -0.262967
-0.196521 0.808661 -0.262946
-0.192594 0.808868 -0.262881
-0.188515 0.808395 -0.262604
-0.184841 0.809645 -0.262876
-0.181006 0.810191 -0.262927
-0.177055 0.810189 -0.262808
-0.174317 0.815870 -0.264487
-0.170540 0.816772 -0.264658
-0.166243 0.815112 -0.264023
-0.161053 0.808800 -0.261925
-0.157084 0.808481 -0.261720
-0.153324 0.809231 -0.261854
-0.149523 0.809762 -0.261921
-0.146656 0.815566 -0.263651
-0.142891 0.816455 -0.263834
-0.138597 0.814201 -0.263031
-0.134712 0.814295 -0.262969
-0.130609 0.812979 -0.262466
-0.127094 0.815404 -0.263140
-0.123688 0.818704 -0.264091
-0.119800 0.818812 -0.264041
-0.115691 0.817292 -0.263481
-0.111596 0.815737 -0.262913
-0.107760 0.816062 -0.262937
-0.104584 0.821749 -0.264643
-0.099960 0.815604 -0.262642
-0.096362 0.817970 -0.263310
-0.092694 0.819876 -0.263835
-0.088610 0.817897 -0.263145
-0.085253 0.823097 -0.264704
-0.081384 0.823312 -0.264704
-0.076516 0.812246 -0.261174
-0.072754 0.813085 -0.261373
-0.068940 0.813327 -0.261386
-0.065096 0.813155 -0.261271
-0.061256 0.812997 -0.261162
-0.057577 0.815280 -0.261817
-0.054012 0.819838 -0.263184
-0.050205 0.820714 -0.263402
-0.046303 0.819832 -0.263071
-0.042180 0.813764 -0.261122
-0.038399 0.814756 -0.261381
-0.034592 0.815225 -0.261476
-0.030778 0.815562 -0.261532
-0.027007 0.817708 -0.262154
-0.023233 0.820643 -0.263023
-0.019346 0.818134 -0.262194
-0.015474 0.814579 -0.261041
-0.011662 0.815230 -0.261202
-0.007844 0.815995 -0.261399
-0.004026 0.815107 -0.261082
-0.000208 0.815242 -0.261086
0.003622 0.816234 -0.261357
0.007418 0.814859 -0.260893
0.011235 0.814958 -0.260890
0.015085 0.816203 -0.261244
0.018902 0.816073 -0.261172
0.022716 0.815901 -0.261089
0.026542 0.816037 -0.261103
0.030548 0.819934 -0.262289
0.034402 0.820191 -0.262344
0.038201 0.819428 -0.262082
0.042048 0.819537 -0.262094
0.045863 0.819140 -0.261950
0.049644 0.818294 -0.261669
0.053484 0.818316 -0.261659
0.057214 0.816969 -0.261225
0.061038 0.816831 -0.261169
0.065043 0.818682 -0.261734
0.069045 0.820291 -0.262226
0.072757 0.818838 -0.261767
0.076887 0.821462 -0.262578
0.081114 0.824698 -0.263582
0.084703 0.822101 -0.262775
0.088598 0.822237 -0.262819
0.092048 0.818780 -0.261748
0.095715 0.817215 -0.261268
0.099436 0.816138 -0.260942
0.103255 0.815809 -0.260851
0.108101 0.822565 -0.262968
0.112469 0.825657 -0.263947
0.116609 0.827035 -0.264396
0.120290 0.825418 -0.263916
0.123645 0.821872 -0.262838
0.127990 0.824354 -0.263640
0.133072 0.830884 -0.265705
0.135157 0.820283 -0.262439
0.139033 0.819943 -0.262372
0.142996 0.820046 -0.262445
0.147232 0.821504 -0.262944
0.152039 0.825718 -0.264306
0.156650 0.828724 -0.265295
0.157354 0.812851 -0.260403
0.163017 0.820842 -0.262954
0.166868 0.820154 -0.262802
0.171003 0.820714 -0.263044
0.174928 0.820285 -0.262981
0.178985 0.820395 -0.263091
0.183051 0.820485 -0.263198
0.190203 0.833140 -0.267234
0.194666 0.834456 -0.267735
0.197635 0.829802 -0.266374
0.199871 0.822463 -0.264176
0.203704 0.821378 -0.263938
0.207724 0.820975 -0.263917
0.212631 0.823749 -0.264896
0.215554 0.819299 -0.263617
0.220424 0.821762 -0.264508
0.224822 0.822460 -0.264852
0.228843 0.821805 -0.264775
0.232707 0.820596 -0.264530
0.236984 0.820716 -0.264706
0.241400 0.821218 -0.265008
0.245766 0.821486 -0.265240
0.250223 0.821970 -0.265545
0.254815 0.822789 -0.265961
0.262223 0.831945 -0.269008
0.266630 0.831919 -0.269169
0.269508 0.827406 -0.267919
0.274501 0.829008 -0.268602
0.279487 0.830485 -0.269250
0.282260 0.825748 -0.267938
0.286091 0.823979 -0.267567
0.290388 0.823462 -0.267594
0.294687 0.822916 -0.267615
0.298548 0.821199 -0.267267
0.303214 0.821553 -0.267577
0.307908 0.821924 -0.267895
0.312041 0.820852 -0.267756
0.316179 0.819785 -0.267618
0.320743 0.819750 -0.267808
0.325794 0.820853 -0.268360
0.331565 0.823600 -0.269435
0.334853 0.820493 -0.268641
0.339006 0.819438 -0.268498
0.342283 0.816430 -0.267726
0.348706 0.820523 -0.269218
0.356491 0.827519 -0.271635
0.364941 0.835803 -0.274460
0.367315 0.830853 -0.273039
0.369295 0.825221 -0.271388
0.369769 0.816609 -0.268768
0.372572 0.813070 -0.267761
0.376705 0.812390 -0.267659
0.379019 0.808107 -0.266386
0.387249 0.815828 -0.268955
0.395871 0.824229 -0.271728
0.401772 0.827204 -0.272741
0.405940 0.826848 -0.272666
0.410615 0.827567 -0.272918
0.414834 0.827507 -0.272901
0.418889 0.827244 -0.272799
0.423180 0.827534 -0.272855
-0.500295 0.784462 -0.275859
-0.498586 0.788281 -0.277136
-0.495324 0.789838 -0.277612
-0.489049 0.786768 -0.276476
-0.485340 0.787814 -0.276732
-0.481516 0.788784 -0.276941
-0.477429 0.789428 -0.277016
-0.473204 0.789937 -0.277025
-0.468982 0.790533 -0.277045
-0.464154 0.790198 -0.276726
-0.460405 0.791738 -0.277032
-0.456181 0.792553 -0.277074
-0.451706 0.793001 -0.276974
-0.447201 0.793449 -0.276859
-0.443181 0.794793 -0.277038
-0.438502 0.795020 -0.276824
-0.433539 0.794762 -0.276435
-0.429612 0.796398 -0.276680
-0.425226 0.797234 -0.276645
-0.420125 0.796756 -0.276158
-0.415047 0.796303 -0.275674
-0.410734 0.797288 -0.275673
-0.405412 0.796330 -0.275013
-0.401031 0.797168 -0.274956
-0.396811 0.798315 -0.275002
-0.392372 0.799022 -0.274898
-0.387074 0.797969 -0.274204
-0.382162 0.797642 -0.273756
-0.378558 0.799985 -0.274203
-0.373997 0.800329 -0.273983
-0.369670 0.801131 -0.273918
-0.364356 0.799770 -0.273135
-0.359729 0.799827 -0.272829
-0.355117 0.799865 -0.272521
-0.350495 0.799828 -0.272193
-0.346047 0.800130 -0.271982
-0.342080 0.801494 -0.272128
-0.338035 0.802658 -0.272212
-0.332649 0.800607 -0.271237
-0.328082 0.800413 -0.270883
-0.323832 0.800932 -0.270770
-0.319552 0.801330 -0.270621
-0.315329 0.801826 -0.270511
-0.310082 0.799667 -0.269533
-0.306474 0.801626 -0.269915
-0.302301 0.802101 -0.269814
-0.297773 0.801588 -0.269395
-0.293249 0.801013 -0.268961
-0.289168 0.801579 -0.268906
-0.285107 0.802162 -0.268863
-0.281061 0.802755 -0.268827
-0.276691 0.802375 -0.268479
-0.272538 0.802564 -0.268322
-0.268692 0.803618 -0.268452
-0.264564 0.803803 -0.268304
-0.260502 0.804145 -0.268211
-0.256587 0.804906 -0.268260
-0.252751 0.805891 -0.268386
-0.248847 0.806641 -0.268440
-0.244772 0.806809 -0.268309
-0.240909 0.807638 -0.268397
-0.236243 0.805725 -0.267601
-0.231906 0.804832 -0.267140
-0.228125 0.805822 -0.267293
-0.224317 0.806705 -0.267415
-0.220010 0.805750 -0.266947
-0.216064 0.806063 -0.266893
-0.212262 0.806893 -0.267009
-0.208553 0.808070 -0.267240
-0.204939 0.809631 -0.267599
-0.200485 0.807826 -0.266876
-0.196491 0.807803 -0.266731
-0.192625 0.808276 -0.266749
-0.188843 0.809091 -0.266880
-0.185058 0.809892 -0.267009
-0.181158 0.810175 -0.266975
-0.177422 0.811185 -0.267178
-0.174071 0.814021 -0.267968
-0.170475 0.815778 -0.268415
-0.166030 0.813389 -0.267535
-0.161246 0.809124 -0.266057
-0.157256 0.808729 -0.265822
-0.153271 0.808308 -0.265582
-0.149576 0.809421 -0.265836
-0.146271 0.812767 -0.266805
-0.142374 0.812833 -0.266728
-0.138225 0.811368 -0.266163
-0.134915 0.814948 -0.267213
-0.131297 0.816764 -0.267701
-0.127135 0.815093 -0.267077
-0.123790 0.818823 -0.268179
-0.120472 0.822967 -0.269415
-0.116151 0.820091 -0.268413
-0.111641 0.815544 -0.266880
-0.108024 0.817604 -0.267456
-0.103852 0.815282 -0.266637
-0.100165 0.816841 -0.267057
-0.096514 0.818834 -0.267617
-0.092118 0.814082 -0.266030
-0.088470 0.816092 -0.266598
-0.085036 0.820447 -0.267913
-0.081650 0.825746 -0.269530
-0.076539 0.812114 -0.265126
-0.072752 0.812681 -0.265241
-0.068958 0.813206 -0.265344
-0.065089 0.812744 -0.265135
-0.061275 0.812988 -0.265152
-0.057227 0.809589 -0.264012
-0.053974 0.818982 -0.266937
-0.050322 0.822715 -0.268065
-0.046449 0.822669 -0.267995
-0.042254 0.815394 -0.265631
-0.038352 0.813642 -0.265022
-0.034540 0.813913 -0.265057
-0.030740 0.814660 -0.265244
-0.027060 0.820365 -0.267004
-0.023285 0.824067 -0.268130
-0.019363 0.820539 -0.266966
-0.015440 0.813715 -0.264758
-0.011625 0.813922 -0.264781
-0.007811 0.815572 -0.265262
-0.003986 0.816228 -0.265429
-0.000167 0.815445 -0.265142
0.003655 0.815406 -0.265093
0.007490 0.816192 -0.265306
0.011319 0.816348 -0.265321
0.015137 0.816075 -0.265201
0.018960 0.816059 -0.265165
0.022766 0.815567 -0.264979
0.026587 0.815517 -0.264935
0.030634 0.820247 -0.266405
0.034321 0.817208 -0.265419
0.038176 0.817588 -0.265516
0.042142 0.819700 -0.266163
0.045765 0.816358 -0.265086
0.049751 0.818503 -0.265747
0.053636 0.819055 -0.265905
0.057414 0.818186 -0.265617
0.061198 0.817474 -0.265379
0.065446 0.821904 -0.266770
0.069225 0.820978 -0.266470
0.073018 0.820258 -0.266236
0.077300 0.824193 -0.267477
0.081201 0.824321 -0.267516
0.085174 0.825028 -0.267741
0.088980 0.824266 -0.267504
0.092030 0.817502 -0.265371
0.095751 0.816363 -0.265020
0.099725 0.817157 -0.265282
0.103493 0.816391 -0.265053
0.108560 0.824611 -0.267669
0.113387 0.830655 -0.269601
0.117455 0.831372 -0.269850
0.119847 0.821511 -0.266756
0.123365 0.819052 -0.266006
0.127951 0.822995 -0.267285
0.131972 0.823438 -0.267460
0.135194 0.819368 -0.266210
0.139060 0.818969 -0.266125
0.143066 0.819289 -0.266271
0.147049 0.819435 -0.266365
0.151677 0.822766 -0.267471
0.155443 0.821671 -0.267180
0.159124 0.820176 -0.266766
0.163272 0.820888 -0.267054
0.167284 0.820903 -0.267126
0.171074 0.819882 -0.266873
0.175141 0.820059 -0.267004
0.179010 0.819342 -0.266856
0.184301 0.824534 -0.268587
0.190511 0.833212 -0.271431
0.193902 0.830209 -0.270570
0.197438 0.827842 -0.269916
0.201371 0.827041 -0.269764
0.204331 0.822555 -0.268444
0.208307 0.821938 -0.268358
0.212223 0.821069 -0.268197
0.216473 0.821367 -0.268412
0.220640 0.821310 -0.268519
0.224743 0.820977 -0.268542
0.228680 0.820040 -0.268378
0.232919 0.820076 -0.268529
0.237209 0.820222 -0.268720
0.241675 0.820864 -0.269075
0.246077 0.821227 -0.269345
0.250499 0.821584 -0.269618
0.256234 0.825854 -0.271149
0.262978 0.832939 -0.273588
0.266332 0.829779 -0.272751
0.270126 0.827936 -0.272339
0.275147 0.829584 -0.273052
0.281030 0.833542 -0.274511
0.282973 0.826456 -0.272426
0.286485 0.823795 -0.271765
0.290597 0.822770 -0.271632
0.294943 0.822341 -0.271694
0.298698 0.820345 -0.271253
0.305242 0.825500 -0.273120
0.309358 0.824346 -0.272954
0.314109 0.824766 -0.273297
0.319364 0.826373 -0.274025
0.324424 0.827437 -0.274578
0.331463 0.833164 -0.276641
0.333374 0.826664 -0.274740
0.334302 0.818049 -0.272146
0.338590 0.817339 -0.272112
0.341439 0.813398 -0.271023
0.347707 0.817184 -0.272439
0.355282 0.823758 -0.274758
0.360137 0.824280 -0.275101
0.364609 0.823994 -0.275172
0.366858 0.819037 -0.273709
0.369716 0.815516 -0.272702
0.372750 0.812492 -0.271843
0.376186 0.810417 -0.271280
0.384642 0.818601 -0.274054
0.389936 0.820353 -0.274712
0.398290 0.828191 -0.277344
0.403254 0.829318 -0.277765
0.406371 0.826936 -0.277020
0.410839 0.827287 -0.277150
0.414617 0.826425 -0.276864
0.418790 0.826426 -0.276840
0.426716 0.833519 -0.279115
-0.502196 0.786945 -0.280993
-0.498074 0.787019 -0.280990
-0.494731 0.788407 -0.281423
-0.489644 0.787168 -0.280915
-0.485451 0.787419 -0.280906
