ply
format ascii 1.0
comment ---
element vertex 1679
property float x
property float y
property float z
element face 0
property list uchar uint vertex_indices
end_header
-0.035193 0.765841 -0.091083
-0.031695 0.769375 -0.091660
-0.027936 0.769816 -0.091756
-0.024075 0.768829 -0.091633
-0.020234 0.767967 -0.091532
-0.016603 0.770392 -0.091947
-0.012757 0.769351 -0.091824
-0.008921 0.768278 -0.091699
-0.005109 0.767465 -0.091617
-0.001422 0.769394 -0.091967
0.002267 0.771742 -0.092386
0.006039 0.772162 -0.092506
0.009746 0.774975 -0.093004
0.013580 0.773464 -0.092827
0.017450 0.769306 -0.092238
0.021248 0.767385 -0.092002
0.024947 0.773824 -0.093081
0.028703 0.780628 -0.094222
0.032525 0.779771 -0.094163
0.036315 0.773120 -0.093195
0.040080 0.770582 -0.092876
0.043855 0.770507 -0.092948
0.047658 0.772037 -0.093276
0.051472 0.773403 -0.093582
0.055297 0.774655 -0.093873
0.059065 0.773745 -0.093826
0.062975 0.776912 -0.094426
0.066920 0.780190 -0.095048
0.070704 0.779259 -0.095008
0.074167 0.772125 -0.093989
0.077923 0.771465 -0.093997
0.081672 0.770751 -0.094000
0.085543 0.772013 -0.094321
0.089962 0.780973 -0.095870
0.093720 0.779832 -0.095817
0.097323 0.776805 -0.095468
0.100984 0.774777 -0.095281
0.104815 0.774859 -0.095433
0.109080 0.779600 -0.096335
0.113403 0.784436 -0.097258
0.117437 0.785948 -0.097654
0.121371 0.786351 -0.097877
0.124652 0.780811 -0.097150
0.127743 0.774035 -0.096226
0.131282 0.771459 -0.095981
0.135206 0.772105 -0.096258
0.139966 0.779091 -0.097564
0.144746 0.785694 -0.098817
0.148378 0.783579 -0.098665
0.152048 0.781817 -0.098575
0.155032 0.775513 -0.097751
0.158654 0.773711 -0.097662
0.162877 0.775758 -0.098204
0.166951 0.776722 -0.098575
0.171034 0.777640 -0.098946
0.174961 0.777556 -0.099158
0.179402 0.780321 -0.099842
0.184481 0.786387 -0.101077
0.188353 0.785650 -0.101201
0.191485 0.781043 -0.100692
0.194640 0.776728 -0.100235
0.198786 0.777479 -0.100620
0.202837 0.777682 -0.100920
0.206968 0.778201 -0.101279
0.211161 0.778933 -0.101680
0.215548 0.780451 -0.102219
0.219900 0.781699 -0.102719
0.223575 0.779913 -0.102719
0.226727 0.775932 -0.102355
0.231405 0.778389 -0.103078
0.235218 0.777180 -0.103190
0.240497 0.781797 -0.104292
0.245861 0.786512 -0.105421
0.250690 0.788946 -0.106172
0.253556 0.783865 -0.105651
0.255836 0.776764 -0.104787
0.260831 0.779689 -0.105638
0.266223 0.783871 -0.106712
0.270964 0.785577 -0.107370
0.275571 0.786721 -0.107936
0.278249 0.781284 -0.107370
0.282550 0.781354 -0.107758
0.287276 0.782764 -0.108382
0.291999 0.784077 -0.108993
0.297395 0.787422 -0.109964
0.305745 0.799762 -0.112515
0.308900 0.795860 -0.112226
0.309844 0.785423 -0.110782
0.313441 0.783112 -0.110763
0.317799 0.783058 -0.111141
0.322050 0.782679 -0.111458
0.332185 0.798878 -0.114724
0.336850 0.799405 -0.115202
0.337286 0.788342 -0.113602
0.341341 0.787356 -0.113793
0.344595 0.784273 -0.113598
0.349444 0.785467 -0.114163
0.354599 0.787438 -0.114858
0.359007 0.787475 -0.115193
0.363211 0.787026 -0.115427
0.367787 0.787546 -0.115822
0.371905 0.786973 -0.116003
0.376464 0.787530 -0.116372
0.381139 0.788403 -0.116781
0.390743 0.800960 -0.119309
0.396269 0.803762 -0.120035
0.396854 0.795173 -0.118651
0.397825 0.787736 -0.117452
0.401840 0.787410 -0.117534
0.406947 0.789613 -0.118056
0.410998 0.789524 -0.118133
0.414823 0.789038 -0.118110
0.420463 0.792574 -0.118803
0.424361 0.792414 -0.118789
0.425036 0.785534 -0.117510
0.428164 0.784032 -0.117197
0.434662 0.789657 -0.118169
0.438484 0.789776 -0.118102
0.443357 0.792139 -0.118421
0.440955 0.779867 -0.116025
0.444856 0.780537 -0.115984
-0.438523 0.725618 -0.098389
-0.436312 0.727749 -0.099063
-0.432943 0.728076 -0.099402
-0.428734 0.727089 -0.099488
-0.424281 0.725761 -0.099491
-0.421894 0.728007 -0.100096
-0.419529 0.730411 -0.100706
-0.416189 0.731255 -0.101019
-0.412056 0.730817 -0.101082
-0.407775 0.730192 -0.101087
-0.403611 0.729844 -0.101116
-0.400535 0.731516 -0.101477
-0.397009 0.732482 -0.101689
-0.393076 0.732796 -0.101762
-0.389409 0.733678 -0.101912
-0.386114 0.735336 -0.102176
-0.382120 0.735777 -0.102202
-0.378059 0.736157 -0.102196
-0.374593 0.737743 -0.102382
-0.370606 0.738403 -0.102384
-0.367003 0.739874 -0.102510
-0.362640 0.739911 -0.102366
-0.358595 0.740620 -0.102323
-0.354810 0.741904 -0.102365
-0.350160 0.741466 -0.102091
-0.345886 0.741818 -0.101943
-0.341754 0.742489 -0.101839
-0.337494 0.742913 -0.101680
-0.333367 0.743637 -0.101565
-0.329355 0.744627 -0.101488
-0.322957 0.740372 -0.100495
-0.320764 0.745392 -0.101102
-0.316979 0.746923 -0.101099
-0.312234 0.746276 -0.100718
-0.307827 0.746374 -0.100462
-0.303251 0.746049 -0.100132
-0.299119 0.746746 -0.099977
-0.295381 0.748378 -0.099981
-0.290919 0.748249 -0.099685
-0.286630 0.748507 -0.099456
-0.282223 0.748435 -0.099173
-0.277361 0.747158 -0.098689
-0.273001 0.747098 -0.098415
-0.268738 0.747248 -0.098179
-0.264593 0.747669 -0.097994
-0.260396 0.747914 -0.097783
-0.256333 0.748487 -0.097631
-0.252732 0.750311 -0.097694
-0.247914 0.748702 -0.097186
-0.243873 0.749221 -0.097041
-0.239718 0.749374 -0.096839
-0.235604 0.749600 -0.096656
-0.232093 0.751594 -0.096771
-0.228149 0.752276 -0.096674
-0.224358 0.753403 -0.096656
-0.220669 0.754839 -0.096694
-0.216471 0.754636 -0.096468
-0.212199 0.754136 -0.096198
-0.208127 0.754229 -0.096033
-0.204119 0.754485 -0.095900
-0.199949 0.754148 -0.095676
-0.195996 0.754506 -0.095572
-0.192078 0.754950 -0.095487
-0.188229 0.755608 -0.095444
-0.183856 0.754312 -0.095086
-0.182099 0.762742 -0.096322
-0.178729 0.765273 -0.096599
-0.174665 0.765142 -0.096448
-0.168536 0.756745 -0.094957
-0.163882 0.753952 -0.094385
-0.159941 0.753947 -0.094272
-0.156698 0.756845 -0.094635
-0.153307 0.759183 -0.094912
-0.150716 0.765105 -0.095774
-0.147058 0.766437 -0.095897
-0.142473 0.763508 -0.095334
-0.139187 0.766525 -0.095739
-0.134416 0.762475 -0.095006
-0.130152 0.760697 -0.094645
-0.127147 0.765156 -0.095296
-0.122780 0.762730 -0.094840
-0.118711 0.761729 -0.094618
-0.115589 0.765799 -0.095219
-0.111378 0.763941 -0.094868
-0.106690 0.759200 -0.094057
-0.102484 0.757000 -0.093659
-0.098884 0.758330 -0.093834
-0.095361 0.760179 -0.094097
-0.091454 0.759624 -0.093976
-0.088026 0.762185 -0.094361
-0.085043 0.767944 -0.095263
-0.080511 0.763025 -0.094452
-0.076661 0.762744 -0.094390
-0.072900 0.763096 -0.094434
-0.069202 0.763927 -0.094558
-0.065428 0.764162 -0.094590
-0.061818 0.765785 -0.094848
-0.058851 0.773235 -0.096046
-0.055483 0.777570 -0.096747
-0.050959 0.771016 -0.095701
-0.046237 0.761788 -0.094228
-0.042535 0.762508 -0.094357
-0.038904 0.764070 -0.094625
-0.035360 0.766806 -0.095085
-0.031788 0.769481 -0.095539
-0.028229 0.772621 -0.096070
-0.024304 0.770914 -0.095825
-0.019893 0.761509 -0.094344
-0.016720 0.770999 -0.095907
-0.013045 0.773059 -0.096277
-0.008978 0.767867 -0.095482
-0.005223 0.768255 -0.095589
-0.001522 0.769970 -0.095913
0.002169 0.772313 -0.096342
0.005945 0.772747 -0.096465
0.009670 0.775045 -0.096893
0.013480 0.774622 -0.096884
0.017356 0.770479 -0.096278
0.021167 0.768102 -0.095959
0.024877 0.773779 -0.096946
0.028634 0.780593 -0.098120
0.032457 0.778731 -0.097895
0.036245 0.772319 -0.096934
0.040010 0.770030 -0.096644
0.043805 0.771624 -0.096987
0.047609 0.772825 -0.097270
0.051379 0.772015 -0.097229
0.055185 0.772795 -0.097450
0.059043 0.774943 -0.097897
0.062926 0.777178 -0.098362
0.066985 0.783172 -0.099443
0.070749 0.781480 -0.099276
0.074134 0.772550 -0.097931
0.077871 0.771492 -0.097873
0.081699 0.772068 -0.098086
0.085469 0.771639 -0.098137
0.090120 0.783972 -0.100283
0.093844 0.782148 -0.100116
0.097529 0.780004 -0.099899
0.101032 0.775875 -0.099360
0.104585 0.772714 -0.098982
0.107909 0.767362 -0.098247
0.112893 0.779569 -0.100407
0.117399 0.785925 -0.101612
0.121436 0.787277 -0.101996
0.124372 0.778570 -0.100722
0.127474 0.771958 -0.099796
0.131046 0.769719 -0.099597
0.135668 0.775986 -0.100813
0.140345 0.782175 -0.102024
0.144394 0.783228 -0.102388
0.148626 0.785474 -0.102957
0.152452 0.784712 -0.103029
0.156987 0.788711 -0.103902
0.158622 0.773551 -0.101575
0.163297 0.778433 -0.102606
0.166866 0.776215 -0.102453
0.170671 0.775475 -0.102552
0.174731 0.776203 -0.102904
0.179991 0.783592 -0.104387
0.184534 0.786617 -0.105142
0.188507 0.786390 -0.105354
0.190960 0.778218 -0.104223
0.194432 0.775562 -0.104031
0.198516 0.776015 -0.104373
0.202769 0.777215 -0.104848
0.206873 0.777602 -0.105192
0.210801 0.777104 -0.105390
0.215373 0.779488 -0.106090
0.219194 0.778391 -0.106198
0.222586 0.775438 -0.105991
0.226167 0.773351 -0.105939
0.231109 0.776939 -0.106873
0.235664 0.778760 -0.107510
0.240667 0.782234 -0.108442
0.244934 0.782650 -0.108850
0.249633 0.784649 -0.109540
0.252148 0.778323 -0.108779
0.256081 0.777402 -0.108968
0.262005 0.783664 -0.110426
0.266080 0.783089 -0.110687
0.270735 0.784504 -0.111305
0.274715 0.783512 -0.111502
0.278194 0.780824 -0.111400
0.282782 0.781850 -0.111962
0.287778 0.784127 -0.112752
0.292079 0.784069 -0.113127
0.297078 0.786169 -0.113893
0.306014 0.800344 -0.116838
0.309744 0.798187 -0.116846
0.310262 0.786450 -0.115117
0.313432 0.782876 -0.114859
0.317851 0.783017 -0.115271
0.322043 0.782488 -0.115558
0.330885 0.795062 -0.118239
0.332551 0.787340 -0.117204
0.338707 0.792124 -0.118454
0.340723 0.785613 -0.117620
0.344519 0.784025 -0.117680
0.349852 0.786525 -0.118487
0.354249 0.786559 -0.118826
0.359058 0.787668 -0.119354
0.362832 0.786173 -0.119382
0.366205 0.783759 -0.119223
0.371865 0.787064 -0.120115
0.376166 0.787043 -0.120369
0.380221 0.786489 -0.120503
0.390363 0.790356 -0.121645
0.393751 0.788442 -0.121459
0.396578 0.785371 -0.121032
0.399998 0.783785 -0.120860
0.406097 0.788300 -0.121814
0.410485 0.789027 -0.122029
0.414148 0.788250 -0.121933
0.424016 0.800995 -0.124367
0.421907 0.787954 -0.121902
0.418498 0.772515 -0.118958
0.426729 0.781901 -0.120678
0.434149 0.789523 -0.122038
0.441746 0.797470 -0.123431
0.440705 0.787750 -0.121466
0.442577 0.784199 -0.120641
0.449156 0.790252 -0.121598
-0.435845 0.727703 -0.102738
-0.431792 0.726853 -0.102881
-0.427736 0.726068 -0.103012
-0.424354 0.726494 -0.103338
-0.420729 0.726594 -0.103582
-0.418219 0.728694 -0.104163
-0.416923 0.733010 -0.105121
-0.411742 0.730710 -0.104859
-0.407353 0.729844 -0.104832
-0.404090 0.731041 -0.105153
-0.400631 0.731990 -0.105405
-0.397066 0.732838 -0.105614
-0.393262 0.733343 -0.105737
-0.389781 0.734523 -0.105958
-0.386075 0.735376 -0.106096
-0.382225 0.736037 -0.106177
-0.378245 0.736528 -0.106204
-0.373968 0.736516 -0.106119
-0.370121 0.737387 -0.106173
-0.366224 0.738228 -0.106202
-0.362999 0.740462 -0.106465
-0.359086 0.741402 -0.106475
-0.354573 0.741181 -0.106259
-0.350719 0.742333 -0.106276
-0.346611 0.743005 -0.106193
-0.342357 0.743404 -0.106047
-0.337516 0.742577 -0.105671
-0.333403 0.743300 -0.105562
-0.329041 0.743501 -0.105351
-0.324560 0.743440 -0.105086
-0.320692 0.744738 -0.105056
-0.317075 0.746626 -0.105126
-0.311804 0.744755 -0.104523
-0.307545 0.745166 -0.104323
-0.303430 0.745900 -0.104177
-0.298956 0.745770 -0.103877
-0.294929 0.746687 -0.103761
-0.291184 0.748285 -0.103765
-0.287037 0.748893 -0.103595
-0.282488 0.748469 -0.103246
-0.277589 0.747099 -0.102734
-0.272710 0.745703 -0.102222
-0.268678 0.746440 -0.102085
-0.264700 0.747300 -0.101972
-0.260581 0.747757 -0.101793
-0.256662 0.748724 -0.101707
-0.252618 0.749328 -0.101563
-0.248553 0.749840 -0.101407
-0.244195 0.749478 -0.101105
-0.240174 0.750034 -0.100968
-0.236500 0.751581 -0.101005
-0.232367 0.751746 -0.100810
-0.228511 0.752712 -0.100759
-0.224620 0.753550 -0.100690
-0.220314 0.753053 -0.100400
-0.215979 0.752394 -0.100089
-0.212063 0.753029 -0.100004
-0.208356 0.754324 -0.100037
-0.205170 0.757368 -0.100371
-0.200239 0.754487 -0.099708
-0.196177 0.754483 -0.099538
-0.192355 0.755279 -0.099509
-0.188467 0.755819 -0.099442
-0.184867 0.757389 -0.099555
-0.181429 0.759575 -0.099776
-0.178795 0.764870 -0.100524
-0.175487 0.767694 -0.100862
-0.169094 0.758322 -0.099160
-0.164140 0.754355 -0.098372
-0.160952 0.757490 -0.098779
-0.157183 0.758253 -0.098794
-0.153494 0.759349 -0.098869
-0.150626 0.764064 -0.099554
-0.147367 0.767180 -0.099975
-0.143110 0.765794 -0.099651
-0.138616 0.763186 -0.099128
-0.134584 0.762638 -0.098954
-0.130168 0.760125 -0.098458
-0.125982 0.758607 -0.098132
-0.121948 0.757765 -0.097924
-0.118083 0.757732 -0.097854
-0.115588 0.765129 -0.099023
-0.111281 0.762733 -0.098570
-0.107000 0.760312 -0.098117
-0.103387 0.761670 -0.098295
-0.099932 0.764025 -0.098643
-0.095739 0.761859 -0.098245
-0.091636 0.760095 -0.097918
-0.088343 0.763591 -0.098466
-0.084986 0.766830 -0.098976
-0.080715 0.763738 -0.098440
-0.076799 0.763016 -0.098301
-0.073060 0.763552 -0.098374
-0.069269 0.763677 -0.098382
-0.065471 0.763718 -0.098381
-0.061760 0.764467 -0.098499
-0.058962 0.773376 -0.099972
-0.055019 0.772386 -0.099810
-0.051113 0.771621 -0.099689
-0.046278 0.761290 -0.097987
-0.042490 0.761084 -0.097965
-0.039041 0.764632 -0.098567
-0.035251 0.764491 -0.098562
-0.031926 0.770137 -0.099519
-0.028308 0.772544 -0.099942
-0.024250 0.768964 -0.099377
-0.020021 0.762220 -0.098291
-0.016881 0.772299 -0.099995
-0.013122 0.773003 -0.100149
-0.008973 0.766236 -0.099068
-0.005189 0.765871 -0.099051
-0.001554 0.768899 -0.099600
0.002150 0.770808 -0.099966
0.005956 0.770135 -0.099908
0.009689 0.771771 -0.100235
0.013504 0.770520 -0.100087
0.017257 0.771892 -0.100377
0.021063 0.770458 -0.100204
0.024892 0.765215 -0.099400
0.028618 0.770373 -0.100330
0.032392 0.775144 -0.101201
0.036178 0.772061 -0.100765
0.039954 0.771042 -0.100677
0.043742 0.771641 -0.100861
0.047533 0.772104 -0.101027
0.051315 0.771905 -0.101085
0.055113 0.772343 -0.101253
0.058889 0.771931 -0.101283
0.063063 0.782494 -0.103154
0.066911 0.782736 -0.103302
0.070617 0.779775 -0.102915
0.074136 0.773630 -0.101997
0.077878 0.772530 -0.101928
0.081655 0.772162 -0.101986
0.085492 0.772733 -0.102206
0.090103 0.784395 -0.104300
0.094089 0.786082 -0.104718
0.097704 0.782787 -0.104300
0.101354 0.780247 -0.104012
0.104273 0.769597 -0.102355
0.107881 0.767448 -0.102139
0.113136 0.782438 -0.104832
0.117320 0.785474 -0.105506
0.120165 0.775627 -0.103996
0.123648 0.772307 -0.103598
0.127011 0.768184 -0.103066
0.131211 0.771277 -0.103768
0.136293 0.781133 -0.105631
0.140266 0.781708 -0.105917
0.144163 0.781621 -0.106094
0.148142 0.782093 -0.106372
0.153376 0.791187 -0.108136
0.156582 0.786034 -0.107460
0.159014 0.776125 -0.105967
0.162722 0.774809 -0.105957
0.166959 0.776769 -0.106518
0.170933 0.776996 -0.106786
0.174849 0.776833 -0.106992
0.178857 0.777143 -0.107286
0.184228 0.784853 -0.108873
0.188321 0.785297 -0.109205
0.191637 0.781621 -0.108823
0.193890 0.772679 -0.107525
0.197993 0.773280 -0.107899
0.202455 0.775536 -0.108570
0.206883 0.777472 -0.109192
0.210927 0.777500 -0.109486
0.215557 0.780115 -0.110243
0.220870 0.785579 -0.111512
0.224677 0.784249 -0.111586
0.227850 0.780239 -0.111190
0.232073 0.780690 -0.111591
0.235961 0.779714 -0.111744
0.240097 0.779707 -0.112076
0.244080 0.779050 -0.112297
0.248612 0.780467 -0.112896
0.253492 0.783084 -0.113718
0.257803 0.783461 -0.114143
0.262494 0.785146 -0.114810
0.266263 0.783446 -0.114870
0.269808 0.780986 -0.114794
0.274567 0.782717 -0.115485
0.277689 0.778837 -0.115155
0.283188 0.782908 -0.116282
0.287557 0.783131 -0.116709
0.292079 0.783796 -0.117220
0.298436 0.790170 -0.118787
0.304546 0.795546 -0.120177
0.308494 0.794139 -0.120313
0.309393 0.783619 -0.118750
0.312588 0.780177 -0.118496
0.318063 0.783438 -0.119491
0.322550 0.783764 -0.119935
0.328935 0.789418 -0.121376
0.333229 0.789099 -0.121691
0.336753 0.786686 -0.121603
0.340570 0.785135 -0.121668
0.345015 0.785312 -0.122050
0.349738 0.786230 -0.122562
0.354533 0.787331 -0.123098
0.358636 0.786671 -0.123285
0.362759 0.786110 -0.123476
0.367276 0.786586 -0.123849
0.371550 0.786500 -0.124097
0.375672 0.786103 -0.124266
0.381844 0.790679 -0.125373
0.390680 0.801507 -0.127666
0.392822 0.796509 -0.126888
0.388162 0.775993 -0.123088
0.395992 0.784539 -0.124874
0.400340 0.785117 -0.125098
0.405701 0.788029 -0.125748
0.409884 0.788368 -0.125876
0.414076 0.788810 -0.125997
0.422418 0.798318 -0.127847
0.418004 0.780413 -0.124362
0.419369 0.775215 -0.123312
0.425699 0.780645 -0.124294
0.436782 0.795965 -0.127161
0.440315 0.795538 -0.126955
0.440972 0.789345 -0.125610
0.442158 0.784437 -0.124490
0.447620 0.788302 -0.125037
-0.435358 0.727650 -0.106394
-0.430966 0.726194 -0.106435
-0.427521 0.726384 -0.106757
-0.423837 0.726257 -0.106997
-0.420276 0.726419 -0.107267
-0.419862 0.732066 -0.108530
-0.415944 0.731831 -0.108680
-0.411644 0.731007 -0.108696
-0.408670 0.732583 -0.109133
-0.406000 0.734810 -0.109667
-0.401304 0.733524 -0.109522
-0.398009 0.734827 -0.109834
-0.394194 0.735277 -0.109963
-0.389676 0.734515 -0.109841
-0.385835 0.735066 -0.109941
-0.382013 0.735729 -0.110038
-0.378610 0.737264 -0.110275
-0.373959 0.736492 -0.110059
-0.369950 0.737005 -0.110062
-0.366395 0.738467 -0.110222
-0.362759 0.739844 -0.110345
-0.358857 0.740760 -0.110365
-0.354656 0.741124 -0.110265
-0.350368 0.741348 -0.110123
-0.346393 0.742252 -0.110093
-0.341654 0.741590 -0.109759
-0.337721 0.742640 -0.109730
-0.333477 0.743055 -0.109572
-0.328976 0.742925 -0.109305
-0.324562 0.742983 -0.109063
-0.320703 0.744276 -0.109041
-0.317238 0.746481 -0.109179
-0.311800 0.744213 -0.108495
-0.307381 0.744231 -0.108225
-0.303041 0.744414 -0.107982
-0.299016 0.745325 -0.107869
-0.295283 0.746938 -0.107882
-0.291190 0.747682 -0.107736
-0.286799 0.747673 -0.107455
-0.282200 0.747107 -0.107074
-0.277806 0.747006 -0.106780
-0.272737 0.745118 -0.106168
-0.268844 0.746217 -0.106095
-0.264866 0.747074 -0.105981
-0.260893 0.747926 -0.105870
-0.256795 0.748415 -0.105698
-0.252614 0.748639 -0.105483
-0.248585 0.749249 -0.105342
-0.244842 0.750648 -0.105344
-0.240963 0.751644 -0.105280
-0.237120 0.752725 -0.105236
-0.232838 0.752474 -0.104963
-0.228642 0.752425 -0.104731
-0.224489 0.752457 -0.104519
-0.220270 0.752230 -0.104268
-0.215990 0.751750 -0.103978
-0.211948 0.751973 -0.103818
-0.208300 0.753459 -0.103884
-0.204473 0.754342 -0.103851
-0.200303 0.754028 -0.103615
-0.196285 0.754184 -0.103466
-0.192356 0.754611 -0.103371
-0.188389 0.754865 -0.103252
-0.184662 0.755964 -0.103284
-0.181604 0.759560 -0.103755
-0.178915 0.764656 -0.104489
-0.175662 0.767704 -0.104873
-0.171183 0.765954 -0.104435
-0.164794 0.756347 -0.102648
-0.160838 0.756356 -0.102526
-0.157307 0.758114 -0.102711
-0.153513 0.758770 -0.102711
-0.150335 0.762116 -0.103178
-0.147309 0.766248 -0.103784
-0.142650 0.763012 -0.103131
-0.138429 0.761636 -0.102802
-0.134779 0.762911 -0.102933
-0.130012 0.758690 -0.102127
-0.126004 0.758052 -0.101940
-0.121691 0.755764 -0.101476
-0.118501 0.759275 -0.102008
-0.115885 0.766063 -0.103105
-0.112682 0.769881 -0.103697
-0.107330 0.761521 -0.102214
-0.103751 0.763124 -0.102437
-0.099738 0.762141 -0.102222
-0.095746 0.761192 -0.102018
-0.091950 0.761408 -0.102017
-0.088528 0.764090 -0.102440
-0.084743 0.764410 -0.102464
-0.080749 0.763231 -0.102237
-0.076816 0.762379 -0.102069
-0.073226 0.764039 -0.102333
-0.069365 0.763643 -0.102250
-0.065576 0.763772 -0.102261
-0.061852 0.764427 -0.102365
-0.058803 0.771098 -0.103497
-0.054961 0.770966 -0.103474
-0.050423 0.764014 -0.102293
-0.046359 0.761191 -0.101818
-0.042851 0.763979 -0.102303
-0.038956 0.762685 -0.102096
-0.035579 0.767348 -0.102907
-0.032010 0.770100 -0.103395
-0.028158 0.769406 -0.103300
-0.023945 0.763435 -0.102309
-0.020159 0.763071 -0.102277
-0.016620 0.766690 -0.102927
-0.013099 0.771158 -0.103725
-0.009076 0.766702 -0.103004
-0.005360 0.767848 -0.103242
-0.001577 0.767646 -0.103254
0.002031 0.771954 -0.104038
0.005940 0.768359 -0.103477
0.009776 0.766144 -0.103154
0.013514 0.767070 -0.103371
0.017161 0.773204 -0.104482
0.020930 0.774795 -0.104820
0.024807 0.766933 -0.103542
0.028555 0.769524 -0.104058
0.032324 0.776515 -0.105331
0.036129 0.775976 -0.105318
0.039884 0.770320 -0.104430
0.043683 0.771916 -0.104789
0.047464 0.771634 -0.104829
0.051234 0.770939 -0.104802
0.055034 0.771582 -0.105008
0.058847 0.772407 -0.105250
0.063170 0.786981 -0.107864
0.067055 0.787574 -0.108075
0.070536 0.779171 -0.106737
0.074170 0.775313 -0.106186
0.077866 0.773214 -0.105941
0.081658 0.772997 -0.106026
0.085441 0.772642 -0.106090
0.090354 0.788681 -0.108999
0.093947 0.784722 -0.108449
0.097649 0.782594 -0.108219
0.101142 0.778146 -0.107590
0.104907 0.777239 -0.107580
0.108777 0.777513 -0.107779
0.112708 0.778352 -0.108081
0.116517 0.777868 -0.108157
0.120150 0.775733 -0.107950
0.123063 0.767256 -0.106636
0.127546 0.772985 -0.107812
0.132796 0.784589 -0.110026
0.136401 0.782135 -0.109781
0.140636 0.784656 -0.110415
0.144587 0.784857 -0.110647
0.148659 0.785861 -0.111025
0.153263 0.790441 -0.112041
0.156585 0.786072 -0.111483
0.159509 0.779338 -0.110508
0.162845 0.775565 -0.110061
0.166960 0.776729 -0.110494
0.170895 0.776707 -0.110723
0.174961 0.777399 -0.111085
0.178989 0.777786 -0.111399
0.183938 0.783150 -0.112609
0.188631 0.786820 -0.113524
0.191724 0.781927 -0.112912
0.194753 0.776899 -0.112278
0.198668 0.776449 -0.112472
0.203153 0.778724 -0.113163
0.207271 0.779107 -0.113521
0.209982 0.772924 -0.112695
0.215423 0.779287 -0.114148
0.220601 0.784155 -0.115341
0.225236 0.786417 -0.116068
0.228918 0.784500 -0.116040
0.232860 0.783686 -0.116219
0.236113 0.780056 -0.115886
0.239795 0.778224 -0.115887
0.244330 0.779737 -0.116509
0.248669 0.780395 -0.116980
0.252440 0.778843 -0.117047
0.257643 0.782569 -0.118098
0.261445 0.781053 -0.118182
0.267574 0.787791 -0.119809
0.271971 0.788212 -0.120265
0.275921 0.787047 -0.120429
0.278052 0.779763 -0.119445
0.282891 0.781633 -0.120181
0.287571 0.782886 -0.120805
0.291547 0.781814 -0.120993
0.298883 0.791304 -0.123184
0.303491 0.792020 -0.123715
0.306645 0.788266 -0.123395
0.309077 0.782446 -0.122675
0.314516 0.785648 -0.123676
0.318627 0.784886 -0.123915
0.323113 0.785207 -0.124358
0.328691 0.788587 -0.125386
0.332960 0.788237 -0.125689
0.336309 0.785384 -0.125499
0.340653 0.785306 -0.125837
0.345068 0.785434 -0.126204
0.350334 0.787812 -0.126998
0.354597 0.787557 -0.127267
0.358500 0.786423 -0.127349
0.362734 0.786190 -0.127592
0.368227 0.789138 -0.128442
0.371750 0.787227 -0.128320
0.374839 0.784366 -0.127990
0.378090 0.782025 -0.127740
0.389082 0.798115 -0.131111
0.389249 0.788595 -0.129399
0.392055 0.785469 -0.128925
0.396330 0.785849 -0.129122
0.400693 0.786506 -0.129348
0.405811 0.788921 -0.129898
0.409499 0.788213 -0.129803
0.413265 0.787786 -0.129736
0.419861 0.793592 -0.130881
0.418938 0.783257 -0.128796
0.419840 0.777100 -0.127515
0.427340 0.785034 -0.129001
0.436035 0.795410 -0.130943
0.439902 0.795733 -0.130866
0.441138 0.790769 -0.129718
0.444708 0.790726 -0.129519
0.444265 0.782718 -0.127724
-0.430267 0.725770 -0.110011
-0.426378 0.725170 -0.110198
-0.423012 0.725524 -0.110543
-0.420864 0.728042 -0.111275
-0.418112 0.729646 -0.111812
-0.414625 0.730088 -0.112104
-0.411629 0.731476 -0.112552
-0.408850 0.733352 -0.113069
-0.404834 0.733144 -0.113164
-0.401507 0.734247 -0.113484
-0.397965 0.735057 -0.113723
-0.394144 0.735449 -0.113858
-0.389276 0.733989 -0.113613
-0.385077 0.733819 -0.113591
-0.382347 0.736473 -0.114086
-0.378548 0.737214 -0.114191
-0.374262 0.737093 -0.114109
-0.370144 0.737354 -0.114078
-0.366628 0.738850 -0.114262
-0.362317 0.738851 -0.114141
-0.358158 0.739196 -0.114066
-0.354023 0.739635 -0.113992
-0.349543 0.739410 -0.113774
-0.345462 0.740035 -0.113703
-0.341689 0.741341 -0.113746
-0.337840 0.742535 -0.113755
-0.333928 0.743633 -0.113734
-0.329381 0.743383 -0.113447
-0.324822 0.743104 -0.113146
-0.321000 0.744458 -0.113144
-0.316981 0.745392 -0.113056
-0.313059 0.746564 -0.113007
-0.308069 0.745273 -0.112491
-0.303151 0.744102 -0.111995
-0.299578 0.746073 -0.112083
-0.295735 0.747422 -0.112053
-0.291399 0.747570 -0.111798
-0.286454 0.746185 -0.111259
-0.282033 0.746042 -0.110951
-0.278070 0.747024 -0.110853
-0.273978 0.747661 -0.110693
-0.269537 0.747359 -0.110362
-0.265611 0.748375 -0.110277
-0.261189 0.748041 -0.109947
-0.256981 0.748235 -0.109718
-0.252759 0.748349 -0.109479
-0.248724 0.748946 -0.109333
-0.244877 0.750050 -0.109283
-0.241000 0.751050 -0.109219
-0.236875 0.751300 -0.109024
-0.232690 0.751330 -0.108794
-0.228714 0.751943 -0.108676
-0.224480 0.751729 -0.108413
-0.220286 0.751581 -0.108169
-0.216112 0.751439 -0.107932
-0.212083 0.751714 -0.107776
-0.208152 0.752273 -0.107677
-0.204187 0.752685 -0.107557
-0.200262 0.753193 -0.107461
-0.196335 0.753665 -0.107363
-0.192579 0.754709 -0.107374
-0.188359 0.754069 -0.107090
-0.184546 0.754846 -0.107065
-0.181848 0.759784 -0.107787
-0.179753 0.767163 -0.108946
-0.175816 0.767609 -0.108877
-0.170373 0.762048 -0.107748
-0.164094 0.752831 -0.105978
-0.160605 0.754713 -0.106183
-0.156950 0.755929 -0.106275
-0.153926 0.759867 -0.106853
-0.150537 0.762321 -0.107174
-0.145705 0.758351 -0.106364
-0.141031 0.754882 -0.105650
-0.138961 0.763457 -0.107065
-0.135260 0.764534 -0.107163
-0.130765 0.761710 -0.106578
-0.125568 0.755163 -0.105343
-0.122398 0.758733 -0.105894
-0.118643 0.759336 -0.105927
-0.115421 0.762828 -0.106473
-0.113521 0.773858 -0.108346
-0.110515 0.779102 -0.109207
-0.102316 0.753933 -0.104734
-0.098857 0.756059 -0.105057
-0.095825 0.760956 -0.105870
-0.092335 0.763151 -0.106213
-0.088825 0.765313 -0.106555
-0.084912 0.764809 -0.106433
-0.080603 0.761419 -0.105809
-0.076923 0.762383 -0.105952
-0.073155 0.762696 -0.105986
-0.069452 0.763519 -0.106112
-0.065499 0.762309 -0.105886
-0.061990 0.764755 -0.106304
-0.058821 0.770389 -0.107284
-0.054948 0.769944 -0.107203
-0.050600 0.764819 -0.106306
-0.046510 0.761786 -0.105779
-0.042778 0.762230 -0.105865
-0.039108 0.763382 -0.106078
-0.035328 0.763317 -0.106081
-0.032039 0.769366 -0.107159
-0.028288 0.769987 -0.107289
-0.024182 0.765599 -0.106546
-0.020294 0.763871 -0.106271
-0.016563 0.764415 -0.106398
-0.012984 0.767700 -0.107009
-0.009281 0.769128 -0.107298
-0.005492 0.769003 -0.107318
-0.001842 0.772057 -0.107899
0.001984 0.771189 -0.107795
0.005841 0.769099 -0.107480
0.009682 0.766861 -0.107142
0.013414 0.768286 -0.107451
0.017068 0.774314 -0.108572
0.020826 0.777137 -0.109135
0.024658 0.775032 -0.108833
0.028433 0.779774 -0.109741
0.032255 0.781800 -0.110174
0.036075 0.778695 -0.109707
0.039835 0.771974 -0.108604
0.043602 0.770394 -0.108412
0.047380 0.770270 -0.108479
0.051166 0.770514 -0.108615
0.054965 0.771146 -0.108823
0.058827 0.773523 -0.109344
0.063106 0.786728 -0.111787
0.066760 0.781672 -0.111001
0.070615 0.782019 -0.111175
0.074051 0.773916 -0.109854
0.077826 0.773332 -0.109870
0.081581 0.772470 -0.109840
0.085360 0.772062 -0.109895
0.089218 0.772817 -0.110161
0.093388 0.777670 -0.111162
0.097090 0.775937 -0.110994
0.100929 0.776010 -0.111152
0.105043 0.779169 -0.111866
0.108994 0.780198 -0.112205
0.112987 0.781523 -0.112602
0.116590 0.778844 -0.112285
0.120377 0.778087 -0.112318
0.124561 0.780931 -0.113002
0.128258 0.779294 -0.112886
0.132289 0.780510 -0.113288
0.136336 0.781715 -0.113694
0.140723 0.785409 -0.114556
0.144999 0.787971 -0.115219
0.148617 0.785586 -0.114994
0.150574 0.771799 -0.112703
0.156435 0.785052 -0.115324
0.159415 0.778691 -0.114389
0.163101 0.777125 -0.114329
0.166930 0.776471 -0.114441
0.170896 0.776625 -0.114706
0.174673 0.775624 -0.114766
0.179059 0.778058 -0.115461
0.184399 0.785533 -0.117090
0.188864 0.787903 -0.117789
0.191825 0.782280 -0.117024
0.194857 0.777243 -0.116369
0.198849 0.777144 -0.116630
0.203256 0.779010 -0.117262
0.208045 0.782537 -0.118210
0.210932 0.777075 -0.117494
0.215050 0.777355 -0.117851
0.219720 0.780008 -0.118658
0.222722 0.775289 -0.118092
0.227395 0.777781 -0.118883
0.232299 0.781074 -0.119832
0.236176 0.780016 -0.119970
0.240121 0.779222 -0.120162
0.244530 0.780214 -0.120698
0.248498 0.779431 -0.120903
0.253127 0.781105 -0.121580
0.257147 0.780429 -0.121816
0.261070 0.779380 -0.121985
0.268788 0.791774 -0.124731
0.272713 0.790477 -0.124865
0.275500 0.785290 -0.124253
0.279478 0.784244 -0.124438
0.283523 0.783418 -0.124667
0.287697 0.783000 -0.124976
0.291935 0.782770 -0.125323
0.299027 0.791479 -0.127411
0.303238 0.790974 -0.127708
0.305909 0.785783 -0.127087
0.309798 0.784375 -0.127201
0.313542 0.782571 -0.127233
0.318727 0.784990 -0.128092
0.323470 0.786067 -0.128682
0.328037 0.786613 -0.129163
0.332093 0.785726 -0.129352
0.335583 0.783327 -0.129232
0.340302 0.784321 -0.129775
0.344664 0.784358 -0.130117
0.350363 0.787924 -0.131153
0.354262 0.786768 -0.131231
0.358029 0.785340 -0.131238
0.362318 0.785309 -0.131509
0.367527 0.787610 -0.132232
0.373766 0.792437 -0.133447
0.379314 0.795526 -0.134293
0.384863 0.798607 -0.135118
0.383353 0.784976 -0.132537
0.386778 0.783283 -0.132348
0.394764 0.792250 -0.134296
0.394638 0.782553 -0.132434
0.401162 0.788190 -0.133658
0.405263 0.788375 -0.133750
0.409232 0.788355 -0.133774
0.414321 0.790880 -0.134288
0.417809 0.789982 -0.134081
0.420526 0.787544 -0.133534
0.419713 0.777750 -0.131468
0.423529 0.777987 -0.131412
0.429755 0.783346 -0.132369
0.436358 0.789487 -0.133457
0.441594 0.792819 -0.133948
0.444128 0.790707 -0.133313
0.455525 0.806578 -0.136283
-0.429416 0.725117 -0.113520
-0.426656 0.726361 -0.114076
-0.423242 0.726602 -0.114416
-0.420677 0.728375 -0.115031
-0.417289 0.728843 -0.115369
-0.413514 0.728732 -0.115571
-0.409960 0.729086 -0.115838
-0.407737 0.731873 -0.116558
-0.404537 0.733051 -0.116938
-0.399467 0.730975 -0.116655
-0.396790 0.733271 -0.117205
-0.393361 0.734310 -0.117483
-0.389483 0.734615 -0.117592
-0.385362 0.734543 -0.117603
-0.381787 0.735563 -0.117804
-0.378466 0.737152 -0.118093
-0.374440 0.737481 -0.118112
-0.370084 0.737236 -0.117996
-0.366488 0.738526 -0.118159
-0.362511 0.739140 -0.118169
-0.357234 0.737203 -0.117660
-0.353537 0.738467 -0.117759
-0.349488 0.739070 -0.117712
-0.345619 0.740093 -0.117729
-0.341831 0.741333 -0.117774
-0.338236 0.743030 -0.117894
-0.333937 0.743271 -0.117717
-0.328954 0.742041 -0.117244
-0.324926 0.742888 -0.117164
-0.321065 0.744129 -0.117151
-0.317049 0.745045 -0.117067
-0.312395 0.744520 -0.116698
-0.307924 0.744391 -0.116401
-0.304076 0.745703 -0.116376
-0.300036 0.746571 -0.116262
-0.295846 0.747079 -0.116077
-0.291355 0.746840 -0.115747
-0.286124 0.744733 -0.115061
-0.282263 0.745968 -0.115013
-0.278331 0.747025 -0.114931
-0.274001 0.747047 -0.114654
-0.270028 0.747966 -0.114548
-0.266441 0.749892 -0.114636
-0.262549 0.751008 -0.114572
-0.257583 0.749180 -0.113958
-0.253131 0.748677 -0.113598
-0.249009 0.749039 -0.113405
-0.244879 0.749344 -0.113206
-0.240656 0.749338 -0.112953
-0.236616 0.749822 -0.112797
-0.232587 0.750303 -0.112646
-0.228561 0.750761 -0.112496
-0.224581 0.751323 -0.112371
-0.220540 0.751660 -0.112209
-0.216541 0.752096 -0.112072
-0.212822 0.753400 -0.112101
-0.208378 0.752304 -0.111693
-0.204116 0.751733 -0.111388
-0.200125 0.752012 -0.111246
-0.196337 0.752961 -0.111233
-0.192563 0.753945 -0.111232
-0.188754 0.754785 -0.111210
-0.184955 0.755643 -0.111197
-0.181860 0.759119 -0.111670
-0.179697 0.766231 -0.112811
-0.175942 0.767383 -0.112868
-0.170591 0.762202 -0.111774
-0.165126 0.756304 -0.110558
-0.160742 0.754579 -0.110109
-0.156964 0.755286 -0.110109
-0.153095 0.755587 -0.110040
-0.149898 0.758808 -0.110507
-0.145027 0.754600 -0.109631
-0.140526 0.751862 -0.109027
-0.137983 0.758151 -0.110066
-0.135234 0.763700 -0.110974
-0.130948 0.761903 -0.110556
-0.126957 0.761465 -0.110390
-0.123010 0.761186 -0.110257
-0.119034 0.760695 -0.110091
-0.115934 0.764902 -0.110779
-0.112363 0.766657 -0.111027
-0.106534 0.755513 -0.108953
-0.102428 0.753864 -0.108597
-0.099451 0.758936 -0.109458
-0.096922 0.767068 -0.110874
-0.093041 0.766945 -0.110807
-0.089279 0.767564 -0.110877
-0.085258 0.766411 -0.110632
-0.080762 0.761763 -0.109762
-0.077125 0.763067 -0.109968
-0.073314 0.763092 -0.109948
-0.069362 0.761976 -0.109727
-0.065560 0.761961 -0.109707
-0.061928 0.763363 -0.109947
-0.058776 0.769096 -0.110969
-0.055455 0.773727 -0.111797
-0.051178 0.769484 -0.111032
-0.046653 0.762276 -0.109737
-0.042874 0.762268 -0.109741
-0.039098 0.762243 -0.109746
-0.035431 0.763481 -0.109982
-0.031839 0.765747 -0.110406
-0.028468 0.771219 -0.111411
-0.024732 0.772186 -0.111609
-0.020551 0.766501 -0.110612
-0.017091 0.771695 -0.111578
-0.013088 0.768092 -0.110963
-0.009338 0.768698 -0.111110
-0.005797 0.773789 -0.112068
-0.002048 0.775073 -0.112344
0.001740 0.775630 -0.112493
0.005697 0.771187 -0.111743
0.009402 0.774077 -0.112320
0.013057 0.780159 -0.113476
0.016985 0.774945 -0.112597
0.020932 0.765216 -0.110904
0.024521 0.781890 -0.113987
0.028331 0.786207 -0.114841
0.032184 0.787586 -0.115167
0.036011 0.778625 -0.113626
0.039754 0.769716 -0.112096
0.043524 0.769059 -0.112063
0.047300 0.769067 -0.112154
0.051067 0.768664 -0.112175
0.054911 0.771206 -0.112734
0.058787 0.773962 -0.113336
0.062776 0.779092 -0.114375
0.066408 0.774317 -0.113616
0.069976 0.769077 -0.112775
0.073814 0.770130 -0.113083
0.077653 0.771002 -0.113363
0.081483 0.771537 -0.113586
0.085372 0.772876 -0.113960
0.089328 0.774969 -0.114477
0.093221 0.775903 -0.114786
0.096937 0.774425 -0.114658
0.100590 0.772305 -0.114416
0.104799 0.776718 -0.115378
0.108809 0.778494 -0.115861
0.112831 0.780176 -0.116332
0.116696 0.780109 -0.116486
0.120671 0.781045 -0.116831
0.124674 0.782106 -0.117203
0.127936 0.776645 -0.116376
0.131704 0.775753 -0.116397
0.135841 0.777839 -0.116974
0.139374 0.775073 -0.116658
0.144264 0.782534 -0.118245
0.148284 0.783198 -0.118577
0.151754 0.779962 -0.118189
0.155463 0.778485 -0.118132
0.159191 0.777172 -0.118111
0.162902 0.775789 -0.118082
0.166866 0.775982 -0.118353
0.170836 0.776149 -0.118626
0.174825 0.776368 -0.118914
0.179063 0.777926 -0.119461
0.184428 0.785524 -0.121154
0.189061 0.788770 -0.122036
0.191778 0.781836 -0.120999
0.194820 0.776842 -0.120332
0.198874 0.777043 -0.120655
0.203244 0.778711 -0.121263
0.208048 0.782301 -0.122245
0.211687 0.780296 -0.122167
0.215506 0.779142 -0.122257
0.219507 0.778788 -0.122506
0.223353 0.777725 -0.122625
0.227603 0.778361 -0.123075
0.231818 0.778778 -0.123491
0.236299 0.780201 -0.124107
0.240699 0.781199 -0.124647
0.244704 0.780567 -0.124878
0.248870 0.780522 -0.125227
0.253058 0.780517 -0.125590
0.257050 0.779739 -0.125806
0.261123 0.779240 -0.126080
0.268326 0.789801 -0.128532
0.271678 0.786545 -0.128275
0.274801 0.782576 -0.127878
0.279337 0.783452 -0.128439
0.283620 0.783428 -0.128825
0.287997 0.783673 -0.129265
0.292031 0.782786 -0.129481
0.299798 0.793619 -0.132037
0.303884 0.792706 -0.132251
0.307548 0.790520 -0.132207
0.310990 0.787718 -0.132034
0.319499 0.799916 -0.134880
0.323246 0.797921 -0.134863
0.325118 0.790622 -0.133765
0.327224 0.784200 -0.132831
0.331323 0.783500 -0.133047
0.335731 0.783674 -0.133432
0.339850 0.783082 -0.133649
0.345746 0.787253 -0.134829
0.349667 0.786155 -0.134918
0.353816 0.785714 -0.135126
0.357887 0.785124 -0.135288
0.362341 0.785557 -0.135642
0.366650 0.785668 -0.135912
0.372468 0.789541 -0.136940
0.376197 0.788309 -0.136893
0.372581 0.769571 -0.133197
0.375880 0.767725 -0.132973
0.388451 0.787695 -0.137251
0.392803 0.788270 -0.137485
0.395908 0.786061 -0.137115
0.399050 0.784071 -0.136764
0.404716 0.787863 -0.137589
0.410492 0.791910 -0.138441
0.412839 0.788454 -0.137706
0.416315 0.787611 -0.137488
0.420614 0.788653 -0.137635
0.416370 0.771590 -0.133997
0.423402 0.778722 -0.135356
0.430370 0.785683 -0.136652
0.436454 0.790790 -0.137535
0.440131 0.790969 -0.137372
0.443636 0.790895 -0.137132
-0.426098 0.726180 -0.117676
-0.422867 0.726685 -0.118084
-0.418612 0.725532 -0.118139
-0.415588 0.726558 -0.118605
-0.412205 0.727060 -0.118943
-0.409052 0.728052 -0.119356
-0.408254 0.733293 -0.120596
-0.399512 0.724578 -0.119012
-0.398246 0.729199 -0.120079
-0.395141 0.730654 -0.120486
-0.393151 0.734248 -0.121299
-0.389568 0.735043 -0.121523
-0.385460 0.734948 -0.121544
-0.381621 0.735424 -0.121656
-0.378054 0.736494 -0.121862
-0.374202 0.737099 -0.121952
-0.370522 0.738111 -0.122101
-0.366312 0.738158 -0.122034
-0.362089 0.738233 -0.121950
-0.357621 0.737864 -0.121758
-0.353981 0.739205 -0.121890
-0.350187 0.740298 -0.121953
-0.346437 0.741540 -0.122029
-0.342748 0.742967 -0.122126
-0.338173 0.742570 -0.121843
-0.334229 0.743536 -0.121819
-0.328556 0.740779 -0.121041
-0.324017 0.740457 -0.120738
-0.321037 0.743603 -0.121115
-0.316423 0.743141 -0.120765
-0.312070 0.743259 -0.120524
-0.307815 0.743596 -0.120321
-0.303932 0.744797 -0.120282
-0.299772 0.745357 -0.120113
-0.295515 0.745675 -0.119893
-0.290545 0.744240 -0.119327
-0.286488 0.744993 -0.119189
-0.282334 0.745493 -0.119001
-0.278342 0.746388 -0.118891
-0.274114 0.746662 -0.118660
-0.270203 0.747733 -0.118586
-0.266651 0.749749 -0.118696
-0.262583 0.750394 -0.118543
-0.257511 0.748273 -0.117858
-0.253809 0.749840 -0.117890
-0.249378 0.749356 -0.117530
-0.245031 0.749052 -0.117210
-0.240884 0.749273 -0.116996
-0.236760 0.749517 -0.116791
-0.232645 0.749744 -0.116588
-0.228661 0.750332 -0.116459
-0.224543 0.750473 -0.116250
-0.220433 0.750591 -0.116043
-0.216900 0.752507 -0.116184
-0.212657 0.752128 -0.115894
-0.208456 0.751830 -0.115625
-0.204362 0.751825 -0.115418
-0.200204 0.751552 -0.115167
-0.196461 0.752663 -0.115183
-0.192591 0.753314 -0.115118
-0.188869 0.754470 -0.115154
-0.185128 0.755551 -0.115182
-0.181499 0.757040 -0.115292
-0.179784 0.765831 -0.116779
-0.176465 0.768681 -0.117153
-0.171172 0.763779 -0.116080
-0.164996 0.755057 -0.114300
-0.161035 0.755070 -0.114162
-0.157059 0.754968 -0.114009
-0.153136 0.755042 -0.113894
-0.150865 0.762331 -0.115131
-0.145287 0.755052 -0.113655
-0.141234 0.754397 -0.113421
-0.137681 0.756014 -0.113615
-0.134427 0.759096 -0.114087
-0.131043 0.761641 -0.114464
-0.127534 0.763639 -0.114743
-0.123632 0.763663 -0.114660
-0.119935 0.764729 -0.114776
-0.116100 0.765056 -0.114760
-0.112216 0.765090 -0.114694
-0.108029 0.763341 -0.114302
-0.104236 0.763777 -0.114320
-0.100936 0.767183 -0.114893
-0.097538 0.770141 -0.115387
-0.093614 0.769854 -0.115284
-0.089323 0.767068 -0.114724
-0.085236 0.765460 -0.114386
-0.081086 0.763258 -0.113942
-0.077086 0.761963 -0.113671
-0.073405 0.762957 -0.113827
-0.069606 0.763054 -0.113822
-0.065876 0.763690 -0.113919
-0.062131 0.764211 -0.114000
-0.059549 0.775044 -0.115990
-0.057078 0.787807 -0.118339
-0.051845 0.774978 -0.115966
-0.047265 0.767509 -0.114586
-0.043015 0.762763 -0.113713
-0.039299 0.763460 -0.113849
-0.035509 0.763323 -0.113835
-0.031932 0.765791 -0.114305
-0.028823 0.774751 -0.115979
-0.024788 0.771738 -0.115445
-0.020783 0.768734 -0.114915
-0.017047 0.769609 -0.115106
-0.013469 0.773375 -0.115836
-0.009418 0.768678 -0.115004
-0.005663 0.769276 -0.115154
-0.002010 0.772354 -0.115768
0.001770 0.772821 -0.115901
0.005631 0.770950 -0.115606
0.009048 0.783846 -0.118049
0.013059 0.777066 -0.116852
0.016944 0.773451 -0.116243
0.020702 0.776113 -0.116802
0.024461 0.781043 -0.117787
0.028265 0.786070 -0.118793
0.032123 0.783788 -0.118447
0.035939 0.776418 -0.117158
0.039683 0.768365 -0.115744
0.043452 0.768038 -0.115771
0.047219 0.767757 -0.115809
0.051016 0.768838 -0.116105
0.054837 0.770450 -0.116503
0.058728 0.773748 -0.117221
0.062674 0.777688 -0.118063
0.066447 0.776472 -0.117947
0.069935 0.769187 -0.116701
0.073732 0.769398 -0.116858
0.077642 0.771574 -0.117388
0.081419 0.771145 -0.117435
0.085279 0.772030 -0.117732
0.089566 0.778954 -0.119167
0.093618 0.781773 -0.119838
0.097326 0.779805 -0.119614
0.101134 0.779220 -0.119655
0.104095 0.768987 -0.117882
0.108038 0.770403 -0.118307
0.111897 0.770771 -0.118539
0.115760 0.771096 -0.118768
0.120130 0.776113 -0.119890
0.123785 0.774226 -0.119712
0.127777 0.775367 -0.120111
0.131584 0.774828 -0.120198
0.135651 0.776366 -0.120685
0.139219 0.773896 -0.120414
0.143269 0.775142 -0.120857
0.148020 0.781281 -0.122239
0.152121 0.782456 -0.122681
0.155505 0.778693 -0.122185
0.158927 0.775369 -0.121776
0.162718 0.774518 -0.121846
0.166716 0.774933 -0.122165
0.170917 0.776490 -0.122710
0.175088 0.777731 -0.123201
0.179014 0.777472 -0.123409
0.183875 0.782302 -0.124608
0.188231 0.784131 -0.125235
0.191797 0.781713 -0.125045
0.194601 0.775497 -0.124120
0.198673 0.775804 -0.124468
0.202989 0.777221 -0.125040
0.207322 0.778600 -0.125612
0.211863 0.780822 -0.126356
0.216013 0.781134 -0.126733
0.219693 0.779302 -0.126695
0.223509 0.778085 -0.126783
0.227602 0.778038 -0.127107
0.232017 0.779275 -0.127691
0.236236 0.779614 -0.128103
0.240744 0.781038 -0.128738
0.244980 0.781299 -0.129147
0.249647 0.783145 -0.129878
0.253269 0.780961 -0.129809
0.257334 0.780438 -0.130076
0.262328 0.783243 -0.131016
0.268178 0.788931 -0.132544
0.270466 0.781988 -0.131528
0.274009 0.779537 -0.131419
0.278876 0.781578 -0.132221
0.283333 0.782163 -0.132730
0.287887 0.783010 -0.133295
0.292239 0.783154 -0.133717
0.299132 0.791245 -0.135766
0.302924 0.789476 -0.135798
0.306509 0.787116 -0.135703
0.313851 0.796056 -0.137934
0.318987 0.798209 -0.138765
0.323415 0.798239 -0.139154
0.325994 0.792984 -0.138438
0.327732 0.785519 -0.137251
0.331259 0.783246 -0.137130
0.335624 0.783339 -0.137491
0.340389 0.784533 -0.138070
0.344775 0.784709 -0.138425
0.349656 0.786208 -0.139043
0.353595 0.785266 -0.139133
0.357751 0.784946 -0.139337
0.362161 0.785323 -0.139669
0.366140 0.784668 -0.139764
0.371020 0.786303 -0.140323
0.370707 0.775358 -0.138198
0.373926 0.773213 -0.137910
0.378401 0.774165 -0.138256
0.386762 0.784271 -0.140521
0.393389 0.790215 -0.141880
0.392434 0.778746 -0.139515
0.398696 0.783962 -0.140668
0.404650 0.788464 -0.141644
0.409566 0.790664 -0.142104
0.413525 0.790813 -0.142102
0.415872 0.787553 -0.141348
0.417740 0.783423 -0.140383
0.419187 0.778576 -0.139241
0.427268 0.787917 -0.141083
0.432537 0.791306 -0.141634
0.435932 0.790848 -0.141344
0.438146 0.788073 -0.140540
0.442207 0.789205 -0.140538
-0.421674 0.725410 -0.121457
-0.417516 0.724366 -0.121544
-0.414062 0.724599 -0.121868
-0.412270 0.727797 -0.122776
-0.410806 0.731702 -0.123807
-0.405022 0.728133 -0.123280
-0.401844 0.729217 -0.123683
-0.396364 0.726267 -0.123231
-0.394758 0.730358 -0.124204
-0.391731 0.732003 -0.124648
-0.389274 0.734803 -0.125306
-0.384806 0.733982 -0.125192
-0.381071 0.734592 -0.125349
-0.377294 0.735203 -0.125481
-0.374042 0.736895 -0.125813
-0.370430 0.737986 -0.125997
-0.366105 0.737759 -0.125887
-0.361365 0.736755 -0.125595
-0.358144 0.738820 -0.125914
-0.354329 0.739774 -0.125985
-0.350427 0.740610 -0.126012
-0.346532 0.741512 -0.126034
-0.342875 0.742964 -0.126153
-0.338654 0.743281 -0.126023
-0.334137 0.742990 -0.125754
-0.329667 0.742810 -0.125495
-0.324578 0.741275 -0.124948
-0.320254 0.741411 -0.124732
-0.316377 0.742558 -0.124713
-0.311896 0.742353 -0.124411
-0.308017 0.743527 -0.124381
-0.303496 0.743216 -0.124045
-0.299308 0.743673 -0.123859
-0.295050 0.743953 -0.123634
-0.290923 0.744539 -0.123468
-0.286373 0.744070 -0.123087
-0.282802 0.746011 -0.123190
-0.278669 0.746548 -0.123010
-0.274098 0.745938 -0.122601
-0.270267 0.747208 -0.122569
-0.266398 0.748374 -0.122518
-0.262246 0.748773 -0.122316
-0.257936 0.748712 -0.122025
-0.253797 0.749078 -0.121823
-0.249635 0.749348 -0.121605
-0.245570 0.749855 -0.121438
-0.241249 0.749588 -0.121123
-0.237340 0.750479 -0.121041
-0.233268 0.750862 -0.120864
-0.228531 0.749190 -0.120289
-0.224693 0.750186 -0.120243
-0.220869 0.751210 -0.120207
-0.216770 0.751339 -0.120003
-0.212581 0.751133 -0.119738
-0.208491 0.751194 -0.119532
-0.204327 0.750958 -0.119274
-0.200455 0.751662 -0.119205
-0.197181 0.754416 -0.119540
-0.193329 0.755173 -0.119492
-0.189103 0.754565 -0.119186
-0.185063 0.754564 -0.119004
-0.181184 0.755114 -0.118935
-0.178458 0.760029 -0.119712
-0.175983 0.766056 -0.120709
-0.171316 0.763597 -0.120076
-0.164902 0.753937 -0.118066
-0.161030 0.754309 -0.117991
-0.157524 0.756182 -0.118211
-0.153681 0.756647 -0.118166
-0.149824 0.757019 -0.118108
-0.146816 0.761169 -0.118779
-0.142338 0.758718 -0.118193
-0.137976 0.756657 -0.117687
-0.133971 0.756162 -0.117486
-0.130176 0.756635 -0.117475
-0.126890 0.759645 -0.117953
-0.123241 0.760891 -0.118099
-0.119221 0.760192 -0.117880
-0.115048 0.758585 -0.117493
-0.111830 0.762168 -0.118098
-0.107974 0.762255 -0.118043
-0.103334 0.757690 -0.117109
-0.099188 0.755802 -0.116689
-0.095886 0.759034 -0.117246
-0.093421 0.767808 -0.118860
-0.089828 0.769610 -0.119153
-0.085096 0.763684 -0.117984
-0.081004 0.761847 -0.117597
-0.077134 0.761476 -0.117491
-0.073524 0.763011 -0.117751
-0.069826 0.763925 -0.117898
-0.065944 0.763366 -0.117770
-0.062185 0.763767 -0.117828
-0.059985 0.777971 -0.120506
-0.056322 0.779857 -0.120853
-0.052369 0.779068 -0.120697
-0.046979 0.763614 -0.117766
-0.043250 0.764244 -0.117887
-0.039398 0.763518 -0.117754
-0.035859 0.766366 -0.118303
-0.032399 0.770496 -0.119100
-0.029083 0.777002 -0.120350
-0.025016 0.773718 -0.119748
-0.020718 0.766444 -0.118393
-0.016790 0.764039 -0.117965
-0.013156 0.766396 -0.118443
-0.009208 0.763102 -0.117854
-0.005434 0.762775 -0.117830
-0.001724 0.763859 -0.118079
0.002009 0.764547 -0.118256
0.005738 0.765518 -0.118490
0.009474 0.766509 -0.118732
0.013187 0.768785 -0.119222
0.016973 0.768411 -0.119212
0.020760 0.767638 -0.119130
0.024519 0.768898 -0.119438
0.028258 0.775652 -0.120797
0.032064 0.778394 -0.121396
0.035877 0.776124 -0.121044
0.039625 0.768613 -0.119696
0.043381 0.767048 -0.119485
0.047185 0.768947 -0.119939
0.050972 0.769314 -0.120104
0.054798 0.770960 -0.120518
0.058650 0.772890 -0.120991
0.062566 0.776064 -0.121707
0.066216 0.771969 -0.121035
0.070167 0.775281 -0.121786
0.073808 0.771749 -0.121229
0.077567 0.770950 -0.121200
0.081418 0.771772 -0.121487
0.085337 0.773501 -0.121953
0.089768 0.782389 -0.123802
0.093732 0.783751 -0.124208
0.097553 0.783081 -0.124228
0.101060 0.778657 -0.123528
0.104059 0.768851 -0.121790
0.107986 0.770066 -0.122186
0.111877 0.770757 -0.122485
0.115853 0.772165 -0.122929
0.119972 0.774759 -0.123608
0.123920 0.775541 -0.123942
0.127652 0.774345 -0.123896
0.131504 0.774199 -0.124060
0.135224 0.772964 -0.124017
0.139039 0.772504 -0.124129
0.142851 0.772005 -0.124240
0.147797 0.779623 -0.125945
0.152114 0.782324 -0.126696
0.155521 0.778704 -0.126213
0.158719 0.773894 -0.125500
0.162625 0.773793 -0.125717
0.166856 0.775636 -0.126324
0.170859 0.775967 -0.126639
0.175076 0.777471 -0.127192
0.178978 0.777068 -0.127375
0.183449 0.779748 -0.128176
0.187754 0.781353 -0.128771
0.191148 0.778091 -0.128404
0.194466 0.774550 -0.127985
0.198453 0.774441 -0.128257
0.202653 0.775313 -0.128731
0.207328 0.778329 -0.129642
0.211491 0.778799 -0.130049
0.215526 0.778619 -0.130333
0.219538 0.778294 -0.130593
0.223555 0.777952 -0.130856
0.227779 0.778447 -0.131294
0.232069 0.779142 -0.131779
0.236294 0.779501 -0.132201
0.240789 0.780863 -0.132834
0.245343 0.782352 -0.133499
0.250844 0.787351 -0.134889
0.254443 0.784996 -0.134780
0.257129 0.779326 -0.133991
0.262112 0.782105 -0.134942
0.266549 0.782810 -0.135471
0.270171 0.780612 -0.135402
0.273129 0.776191 -0.134872
0.278330 0.779414 -0.135930
0.282985 0.780692 -0.136587
0.287712 0.782135 -0.137280
0.292387 0.783335 -0.137923
0.297447 0.785681 -0.138806
0.302594 0.788199 -0.139725
0.305124 0.782671 -0.138949
0.308217 0.778991 -0.138553
0.314157 0.783798 -0.139945
0.321054 0.791230 -0.141893
0.324562 0.788762 -0.141735
0.327431 0.784579 -0.141200
0.331371 0.783495 -0.141314
0.335817 0.783847 -0.141723
0.340129 0.783851 -0.142045
0.344856 0.784984 -0.142595
0.349514 0.785940 -0.143093
0.353809 0.785971 -0.143376
0.357537 0.784599 -0.143339
0.361642 0.784262 -0.143505
0.365025 0.782192 -0.143277
0.374192 0.794453 -0.146128
0.375681 0.787835 -0.144872
0.375751 0.778044 -0.142903
0.380933 0.780674 -0.143602
0.387921 0.787555 -0.145200
0.390791 0.784821 -0.144685
0.395556 0.786571 -0.145119
0.397464 0.781898 -0.144131
0.404506 0.788928 -0.145659
0.409549 0.791468 -0.146185
0.413307 0.791227 -0.146079
0.416068 0.788918 -0.145498
0.418960 0.787036 -0.144983
0.418855 0.778892 -0.143086
0.413674 0.760270 -0.138895
0.431609 0.790494 -0.145256
0.434051 0.788118 -0.144532
0.438042 0.789069 -0.144503
-0.421213 0.725399 -0.125064
-0.418786 0.727270 -0.125770
-0.415630 0.727993 -0.126214
-0.413349 0.730326 -0.126973
-0.411054 0.732752 -0.127729
-0.407797 0.733601 -0.128130
-0.402394 0.730721 -0.127722
-0.397890 0.729484 -0.127633
