ply
format ascii 1.0
comment ---
element vertex 1676
property float x
property float y
property float z
element face 0
property list uchar uint vertex_indices
end_header
0.022830 0.832554 -0.034956
0.026501 0.830293 -0.034879
0.030206 0.829212 -0.034833
0.034003 0.830106 -0.034839
0.037672 0.828569 -0.034779
0.041226 0.825364 -0.034673
0.044866 0.823909 -0.034614
0.048566 0.823499 -0.034582
0.052216 0.822467 -0.034533
0.055843 0.821246 -0.034477
0.059642 0.822203 -0.034479
0.063811 0.827204 -0.034588
0.068354 0.835702 -0.034789
0.071925 0.833461 -0.034702
0.075394 0.830399 -0.034592
0.078935 0.828263 -0.034506
0.082543 0.826882 -0.034440
0.086609 0.829514 -0.034478
0.090288 0.828733 -0.034424
0.094770 0.834351 -0.034539
0.099188 0.839060 -0.034627
0.102319 0.833911 -0.034454
0.105314 0.828102 -0.034263
0.108859 0.826451 -0.034181
0.111908 0.821550 -0.034012
0.116798 0.828860 -0.034160
0.120571 0.828679 -0.034111
0.124623 0.830184 -0.034104
0.127827 0.826534 -0.033962
0.132200 0.829803 -0.033998
0.136689 0.833514 -0.034042
0.140776 0.834794 -0.034022
0.144683 0.835017 -0.033972
0.150415 0.844689 -0.034163
0.152682 0.836253 -0.033888
0.155393 0.830379 -0.033677
0.159230 0.830193 -0.033609
0.162812 0.828765 -0.033508
0.165331 0.822442 -0.033281
0.169940 0.825811 -0.033297
0.173678 0.825133 -0.033209
0.177377 0.824268 -0.033113
0.181658 0.825869 -0.033077
0.188800 0.839255 -0.033329
0.192676 0.838743 -0.033234
0.194879 0.831519 -0.032971
0.197641 0.826712 -0.032767
0.201363 0.825726 -0.032653
0.206096 0.828542 -0.032630
0.209974 0.828034 -0.032522
0.213350 0.825669 -0.032368
0.218368 0.829194 -0.032351
0.222613 0.829827 -0.032263
0.225947 0.827246 -0.032095
0.229384 0.825043 -0.031934
0.233870 0.826353 -0.031852
0.238412 0.827742 -0.031769
0.242297 0.826912 -0.031631
0.246832 0.828111 -0.031536
0.250861 0.827633 -0.031401
0.255109 0.827783 -0.031276
0.259382 0.827944 -0.031148
0.263928 0.828855 -0.031034
0.268324 0.829238 -0.030906
0.273005 0.830371 -0.030790
0.276633 0.828425 -0.030604
0.278845 0.822526 -0.030332
0.283913 0.824605 -0.030229
0.288887 0.826311 -0.030114
0.293314 0.826456 -0.029965
0.296952 0.824465 -0.029768
0.303721 0.830613 -0.029738
0.310407 0.836327 -0.029694
0.310528 0.825268 -0.029309
0.312818 0.819875 -0.029040
0.316732 0.818580 -0.028854
0.327346 0.833510 -0.028985
0.329024 0.826665 -0.028688
0.334372 0.828629 -0.028564
0.338926 0.828677 -0.028403
0.345348 0.833004 -0.028324
0.349723 0.832574 -0.028158
0.356019 0.836459 -0.028073
0.357112 0.828753 -0.027780
0.357734 0.820223 -0.027479
0.364049 0.824208 -0.027409
0.371786 0.831159 -0.027396
0.373816 0.825968 -0.027174
0.378641 0.826766 -0.027064
0.383337 0.827335 -0.026958
0.389986 0.831936 -0.026929
0.393635 0.830466 -0.026805
0.397500 0.829541 -0.026701
0.402571 0.831097 -0.026648
0.405658 0.828847 -0.026543
-0.489998 0.789483 -0.030783
-0.486474 0.790799 -0.030851
-0.481513 0.789898 -0.030880
-0.478028 0.791472 -0.030976
-0.475161 0.794169 -0.031109
-0.469081 0.791637 -0.031129
-0.464991 0.792462 -0.031236
-0.461180 0.793833 -0.031365
-0.457330 0.795213 -0.031502
-0.452937 0.795719 -0.031626
-0.448754 0.796635 -0.031765
-0.445256 0.798811 -0.031941
-0.439505 0.797013 -0.032026
-0.435048 0.797531 -0.032171
-0.430894 0.798618 -0.032334
-0.426588 0.799445 -0.032494
-0.422742 0.801143 -0.032678
-0.418616 0.802334 -0.032851
-0.413754 0.802119 -0.032991
-0.408595 0.801296 -0.033115
-0.404186 0.801894 -0.033275
-0.399130 0.801186 -0.033402
-0.394384 0.801044 -0.033542
-0.390480 0.802570 -0.033726
-0.387054 0.805076 -0.033935
-0.380825 0.801744 -0.033986
-0.377167 0.803711 -0.034177
-0.373189 0.804990 -0.034349
-0.368069 0.803773 -0.034450
-0.364265 0.805355 -0.034625
-0.360188 0.806315 -0.034781
-0.353913 0.802296 -0.034797
-0.350281 0.804139 -0.034972
-0.346605 0.805869 -0.035141
-0.342516 0.806622 -0.035281
-0.337717 0.805649 -0.035368
-0.333672 0.806404 -0.035502
-0.329255 0.806214 -0.035606
-0.324866 0.806028 -0.035707
-0.320679 0.806286 -0.035817
-0.316856 0.807417 -0.035951
-0.311933 0.805692 -0.035998
-0.307967 0.806357 -0.036111
-0.304014 0.807018 -0.036222
-0.299848 0.807072 -0.036312
-0.295840 0.807503 -0.036411
-0.291926 0.808152 -0.036513
-0.287658 0.807775 -0.036582
-0.283538 0.807756 -0.036658
-0.279628 0.808288 -0.036749
-0.275909 0.809348 -0.036853
-0.271871 0.809439 -0.036925
-0.267823 0.809453 -0.036993
-0.263903 0.809814 -0.037069
-0.260124 0.810578 -0.037154
-0.256524 0.811888 -0.037254
-0.252338 0.811306 -0.037294
-0.247970 0.810064 -0.037311
-0.243991 0.810032 -0.037363
-0.240395 0.811252 -0.037451
-0.236561 0.811653 -0.037513
-0.232877 0.812549 -0.037587
-0.229219 0.813532 -0.037663
-0.225635 0.814777 -0.037744
-0.221630 0.814474 -0.037776
-0.217782 0.814710 -0.037823
-0.213715 0.814073 -0.037840
-0.209806 0.813999 -0.037874
-0.205870 0.813772 -0.037901
-0.201708 0.812585 -0.037896
-0.197255 0.810107 -0.037849
-0.193619 0.810952 -0.037905
-0.190622 0.814562 -0.038046
-0.186921 0.815185 -0.038092
-0.183134 0.815414 -0.038124
-0.179266 0.815246 -0.038143
-0.176009 0.817923 -0.038249
-0.174146 0.827429 -0.038571
-0.169558 0.823881 -0.038479
-0.165448 0.822550 -0.038455
-0.161662 0.822808 -0.038481
-0.157671 0.821959 -0.038470
-0.154711 0.826663 -0.038635
-0.151310 0.829123 -0.038727
-0.147167 0.827417 -0.038686
-0.142666 0.823458 -0.038573
-0.138535 0.821500 -0.038522
-0.135312 0.825105 -0.038647
-0.131354 0.824141 -0.038626
-0.127517 0.823905 -0.038627
-0.124174 0.827029 -0.038734
-0.120367 0.827027 -0.038741
-0.115823 0.821567 -0.038573
-0.112594 0.825739 -0.038711
-0.109119 0.828246 -0.038795
-0.105313 0.828191 -0.038798
-0.101527 0.828282 -0.038804
-0.097656 0.827601 -0.038784
-0.093262 0.821949 -0.038606
-0.089809 0.824934 -0.038702
-0.086105 0.825614 -0.038724
-0.082362 0.825917 -0.038734
-0.078183 0.821297 -0.038586
-0.074253 0.819109 -0.038515
-0.070492 0.818763 -0.038502
-0.066766 0.818830 -0.038502
-0.063011 0.818448 -0.038487
-0.059257 0.817992 -0.038469
-0.056284 0.830388 -0.038860
-0.052691 0.833690 -0.038961
-0.048347 0.822855 -0.038611
-0.044613 0.822955 -0.038608
-0.041008 0.826140 -0.038704
-0.037344 0.828478 -0.038771
-0.033535 0.826962 -0.038716
-0.029785 0.827051 -0.038711
-0.026005 0.825815 -0.038664
-0.022278 0.826725 -0.038684
-0.018514 0.825569 -0.038638
-0.014807 0.829289 -0.038747
-0.011040 0.827013 -0.038664
-0.007294 0.828460 -0.038699
-0.003533 0.830233 -0.038744
0.000241 0.831746 -0.038780
0.003948 0.827607 -0.038636
0.007817 0.834117 -0.038829
0.011549 0.832282 -0.038757
0.015217 0.828763 -0.038632
0.019132 0.833778 -0.038775
0.022976 0.835651 -0.038819
0.026551 0.830748 -0.038647
0.030175 0.827850 -0.038539
0.033924 0.827916 -0.038523
0.037550 0.825749 -0.038436
0.041186 0.824093 -0.038365
0.044786 0.822104 -0.038282
0.048556 0.822791 -0.038283
0.052272 0.822663 -0.038257
0.055941 0.821952 -0.038212
0.059730 0.822728 -0.038213
0.064457 0.833980 -0.038542
0.068256 0.834153 -0.038521
0.072209 0.835862 -0.038548
0.075831 0.834177 -0.038468
0.079382 0.831962 -0.038370
0.082837 0.829044 -0.038249
0.086650 0.829417 -0.038230
0.090452 0.829644 -0.038205
0.093869 0.826770 -0.038082
0.097944 0.829118 -0.038121
0.102775 0.836858 -0.038324
0.105482 0.828896 -0.038041
0.107820 0.818878 -0.037693
0.112069 0.822236 -0.037757
0.115998 0.823293 -0.037749
0.121191 0.832200 -0.037979
0.124573 0.829505 -0.037852
0.130245 0.840519 -0.038143
0.133347 0.836061 -0.037959
0.137509 0.837764 -0.037961
0.141037 0.835877 -0.037851
0.143563 0.828698 -0.037580
0.148062 0.832100 -0.037628
0.153925 0.842230 -0.037877
0.156271 0.834405 -0.037582
0.159725 0.832270 -0.037457
0.162767 0.828241 -0.037273
0.165970 0.825091 -0.037114
0.169898 0.825321 -0.037054
0.173712 0.824986 -0.036975
0.177652 0.825173 -0.036909
0.181829 0.826309 -0.036870
0.188636 0.838288 -0.037147
0.192931 0.839506 -0.037103
0.195053 0.831946 -0.036799
0.197775 0.826976 -0.036571
0.202524 0.829935 -0.036571
0.209214 0.840052 -0.036774
0.212167 0.835906 -0.036562
0.213887 0.827380 -0.036222
0.219146 0.831733 -0.036250
0.224563 0.836434 -0.036284
0.228894 0.837171 -0.036201
0.232286 0.834648 -0.036023
0.236213 0.833933 -0.035894
0.236114 0.820009 -0.035393
0.239729 0.818439 -0.035236
0.247837 0.831086 -0.035470
0.252538 0.832654 -0.035392
0.256219 0.830988 -0.035223
0.260574 0.831347 -0.035106
0.265042 0.831972 -0.034994
0.270419 0.835174 -0.034947
0.274956 0.835801 -0.034828
0.278878 0.834605 -0.034658
0.280428 0.826764 -0.034310
0.284061 0.824832 -0.034117
0.288989 0.826408 -0.034013
0.293256 0.826123 -0.033858
0.297933 0.826871 -0.033728
0.305800 0.835827 -0.033804
0.311696 0.839441 -0.033741
0.312588 0.830284 -0.033355
0.313069 0.820316 -0.032950
0.318321 0.822290 -0.032844
0.320747 0.817337 -0.032566
0.330638 0.830318 -0.032726
0.335654 0.831443 -0.032596
0.341138 0.833609 -0.032491
0.347215 0.837065 -0.032417
0.351238 0.835774 -0.032232
0.350785 0.824500 -0.031818
0.352570 0.818459 -0.031532
0.353836 0.811450 -0.031230
0.358823 0.812658 -0.031121
0.367516 0.821762 -0.031196
0.372737 0.823383 -0.031106
0.378229 0.825577 -0.031035
0.385790 0.832035 -0.031064
0.390390 0.832386 -0.030966
0.389347 0.821446 -0.030628
0.393270 0.820707 -0.030525
0.401447 0.828453 -0.030615
0.406226 0.829504 -0.030570
-0.488276 0.786334 -0.034700
-0.485539 0.788904 -0.034810
-0.481972 0.790263 -0.034896
-0.477937 0.790963 -0.034973
-0.474400 0.792572 -0.035087
-0.470712 0.794028 -0.035204
-0.465463 0.792948 -0.035258
-0.461470 0.794034 -0.035382
-0.457389 0.795036 -0.035511
-0.453001 0.795566 -0.035632
-0.448997 0.796811 -0.035781
-0.444030 0.796399 -0.035887
-0.439154 0.796159 -0.036002
-0.437301 0.801399 -0.036283
-0.431299 0.799155 -0.036346
-0.426760 0.799567 -0.036491
-0.422077 0.799708 -0.036629
-0.417886 0.800768 -0.036797
-0.412904 0.800312 -0.036920
-0.409004 0.801920 -0.037107
-0.404466 0.802279 -0.037256
-0.399144 0.801052 -0.037355
-0.395192 0.802511 -0.037537
-0.391431 0.804351 -0.037731
-0.387042 0.804896 -0.037883
-0.381789 0.803603 -0.037974
-0.376733 0.802642 -0.038075
-0.372845 0.804101 -0.038250
-0.368547 0.804655 -0.038395
-0.364290 0.805257 -0.038539
-0.360288 0.806384 -0.038697
-0.354153 0.802683 -0.038696
-0.350264 0.803945 -0.038854
-0.346051 0.804433 -0.038983
-0.341728 0.804618 -0.039101
-0.337747 0.805560 -0.039240
-0.333211 0.805133 -0.039331
-0.329281 0.806114 -0.039467
-0.325164 0.806599 -0.039583
-0.320987 0.806888 -0.039690
-0.316269 0.805755 -0.039745
-0.312074 0.805879 -0.039841
-0.308138 0.806625 -0.039954
-0.304149 0.807195 -0.040059
-0.300199 0.807832 -0.040164
-0.296065 0.807930 -0.040248
-0.291969 0.808083 -0.040331
-0.287815 0.808025 -0.040403
-0.283647 0.807870 -0.040470
-0.279985 0.809123 -0.040584
-0.276137 0.809816 -0.040675
-0.271961 0.809506 -0.040729
-0.267847 0.809322 -0.040785
-0.263918 0.809652 -0.040857
-0.260074 0.810211 -0.040935
-0.256055 0.810189 -0.040989
-0.251970 0.809906 -0.041033
-0.247898 0.809611 -0.041073
-0.244329 0.810938 -0.041170
-0.240636 0.811847 -0.041249
-0.236876 0.812513 -0.041318
-0.232721 0.811776 -0.041335
-0.229116 0.812934 -0.041418
-0.225426 0.813787 -0.041488
-0.221721 0.814576 -0.041554
-0.217586 0.813736 -0.041560
-0.213872 0.814441 -0.041620
-0.209814 0.813790 -0.041629
-0.205882 0.813583 -0.041653
-0.202221 0.814432 -0.041713
-0.197364 0.810318 -0.041592
-0.193867 0.811758 -0.041671
-0.190636 0.814376 -0.041791
-0.187232 0.816312 -0.041885
-0.183378 0.816269 -0.041906
-0.179260 0.814973 -0.041880
-0.176579 0.820367 -0.042096
-0.175014 0.831367 -0.042514
-0.169877 0.825209 -0.042308
-0.165411 0.822115 -0.042212
-0.161777 0.823154 -0.042266
-0.158255 0.824817 -0.042340
-0.153714 0.820968 -0.042214
-0.150630 0.825057 -0.042375
-0.146664 0.824264 -0.042357
-0.142482 0.822119 -0.042289
-0.138544 0.821307 -0.042269
-0.135115 0.823623 -0.042362
-0.131765 0.826555 -0.042477
-0.128046 0.827192 -0.042507
-0.124260 0.827378 -0.042520
-0.120536 0.827992 -0.042548
-0.116517 0.826450 -0.042496
-0.112154 0.822143 -0.042343
-0.108999 0.827065 -0.042526
-0.105046 0.825771 -0.042481
-0.101122 0.824596 -0.042440
-0.097561 0.826535 -0.042512
-0.093730 0.826104 -0.042497
-0.089411 0.820858 -0.042305
-0.086230 0.826697 -0.042518
-0.082379 0.825915 -0.042488
-0.078151 0.820763 -0.042298
-0.074179 0.818065 -0.042197
-0.070499 0.818705 -0.042218
-0.066811 0.819291 -0.042236
-0.063030 0.818596 -0.042207
-0.059333 0.819053 -0.042219
-0.056026 0.826026 -0.042469
-0.052362 0.827724 -0.042526
-0.048493 0.825677 -0.042445
-0.044708 0.824997 -0.042414
-0.040990 0.825738 -0.042434
-0.037320 0.827932 -0.042507
-0.033525 0.826825 -0.042459
-0.029765 0.826594 -0.042442
-0.025966 0.824467 -0.042356
-0.022211 0.823656 -0.042317
-0.018506 0.825801 -0.042385
-0.014793 0.829306 -0.042503
-0.011041 0.830760 -0.042545
-0.007276 0.830451 -0.042522
-0.003515 0.830071 -0.042497
0.000222 0.827579 -0.042394
0.003952 0.826331 -0.042336
0.007736 0.828580 -0.042404
0.011581 0.832538 -0.042534
0.015382 0.833636 -0.042559
0.019155 0.833584 -0.042541
0.022818 0.830628 -0.042418
0.026527 0.829415 -0.042358
0.030162 0.826864 -0.042248
0.033902 0.826797 -0.042228
0.037552 0.825134 -0.042149
0.041238 0.824330 -0.042101
0.044776 0.821352 -0.041974
0.048514 0.821621 -0.041963
0.052407 0.823909 -0.042024
0.056097 0.823371 -0.041982
0.059824 0.823310 -0.041957
0.064151 0.830006 -0.042174
0.068327 0.834397 -0.042306
0.072253 0.835812 -0.042331
0.075894 0.834306 -0.042249
0.079080 0.828670 -0.042019
0.082686 0.827235 -0.041939
0.086419 0.826978 -0.041899
0.090015 0.825590 -0.041818
0.093886 0.826464 -0.041817
0.098234 0.830902 -0.041942
0.102388 0.833566 -0.042002
0.105501 0.828610 -0.041789
0.108707 0.824592 -0.041609
0.112105 0.822078 -0.041481
0.116751 0.827770 -0.041643
0.120346 0.826497 -0.041556
0.125322 0.833692 -0.041767
0.128708 0.831017 -0.041628
0.133593 0.837104 -0.041796
0.137425 0.836920 -0.041741
0.140880 0.834653 -0.041612
0.144023 0.830794 -0.041425
0.147793 0.830352 -0.041356
0.152274 0.833504 -0.041411
0.156897 0.837166 -0.041482
0.159774 0.832174 -0.041249
0.162232 0.825386 -0.040953
0.165952 0.824692 -0.040867
0.169811 0.824613 -0.040800
0.173851 0.825297 -0.040757
0.177886 0.825885 -0.040709
0.181963 0.826578 -0.040662
0.189249 0.840539 -0.041066
0.193149 0.840103 -0.040974
0.195357 0.832873 -0.040649
0.199495 0.833433 -0.040587
0.203556 0.833623 -0.040510
0.208579 0.837386 -0.040551
0.211699 0.833909 -0.040346
0.214895 0.830783 -0.040150
0.220013 0.834573 -0.040183
0.225657 0.840016 -0.040267
0.229845 0.840200 -0.040173
0.233169 0.837397 -0.039978
0.234808 0.829021 -0.039598
0.238172 0.826512 -0.039409
0.244691 0.834182 -0.039549
0.249745 0.836902 -0.039524
0.253107 0.834209 -0.039321
0.257227 0.833859 -0.039190
0.260459 0.830789 -0.038970
0.265534 0.833220 -0.038923
0.270893 0.836349 -0.038895
0.276991 0.841451 -0.038925
0.280771 0.839767 -0.038738
0.282631 0.832718 -0.038382
0.284222 0.825075 -0.038007
0.289256 0.826937 -0.037925
0.293869 0.827562 -0.037803
0.297265 0.824915 -0.037579
0.305313 0.834364 -0.037720
0.310282 0.835622 -0.037609
0.312981 0.831074 -0.037323
0.316526 0.828712 -0.037102
0.320340 0.827038 -0.036901
0.327332 0.833066 -0.036927
0.329745 0.827969 -0.036626
0.333478 0.826092 -0.036420
0.343409 0.838659 -0.036632
0.348327 0.839379 -0.036501
0.351113 0.835243 -0.036234
0.351351 0.825510 -0.035812
0.355699 0.825107 -0.035659
0.358668 0.821721 -0.035426
0.357522 0.809565 -0.034955
0.365124 0.816365 -0.035016
0.373651 0.824986 -0.035129
0.378161 0.825098 -0.035015
0.383594 0.827160 -0.034960
0.388319 0.827799 -0.034873
0.387170 0.816677 -0.034478
0.391974 0.817721 -0.034421
0.399349 0.823888 -0.034508
0.403192 0.823138 -0.034420
-0.489953 0.788584 -0.038769
-0.485675 0.788725 -0.038810
-0.482256 0.790343 -0.038910
-0.478154 0.790955 -0.038986
-0.474814 0.792909 -0.039116
-0.471009 0.794192 -0.039233
-0.465233 0.792247 -0.039248
-0.461422 0.793653 -0.039384
-0.457390 0.794753 -0.039516
-0.453129 0.795517 -0.039643
-0.448472 0.795632 -0.039754
-0.444305 0.796641 -0.039901
-0.439794 0.797071 -0.040031
-0.437922 0.802297 -0.040333
-0.431020 0.798427 -0.040321
-0.426430 0.798749 -0.040457
-0.421848 0.799078 -0.040596
-0.417483 0.799809 -0.040750
-0.413508 0.801283 -0.040932
-0.409259 0.802231 -0.041096
-0.404470 0.802107 -0.041221
-0.399312 0.801210 -0.041318
-0.395394 0.802746 -0.041502
-0.391697 0.804723 -0.041702
-0.386557 0.803728 -0.041793
-0.382147 0.804181 -0.041934
-0.377544 0.804188 -0.042058
-0.372443 0.803075 -0.042138
-0.368273 0.803896 -0.042287
-0.364125 0.804728 -0.042435
-0.359258 0.803928 -0.042519
-0.354785 0.803937 -0.042632
-0.349882 0.802904 -0.042702
-0.345961 0.804056 -0.042852
-0.342231 0.805622 -0.043016
-0.337196 0.804079 -0.043058
-0.333619 0.805938 -0.043228
-0.329273 0.805915 -0.043323
-0.325228 0.806574 -0.043442
-0.321134 0.807073 -0.043552
-0.316582 0.806365 -0.043612
-0.312292 0.806252 -0.043693
-0.308296 0.806848 -0.043799
-0.304291 0.807378 -0.043900
-0.300072 0.807297 -0.043974
-0.296215 0.808142 -0.044082
-0.292360 0.808962 -0.044186
-0.287843 0.807900 -0.044214
-0.283884 0.808340 -0.044298
-0.280033 0.809053 -0.044392
-0.276187 0.809751 -0.044482
-0.271807 0.808832 -0.044505
-0.267793 0.808944 -0.044568
-0.263921 0.809446 -0.044643
-0.259927 0.809533 -0.044700
-0.256186 0.810381 -0.044786
-0.252102 0.810105 -0.044824
-0.247977 0.809644 -0.044853
-0.244454 0.811125 -0.044958
-0.240987 0.812803 -0.045069
-0.236496 0.810968 -0.045036
-0.232521 0.810840 -0.045071
-0.228820 0.811640 -0.045141
-0.225274 0.812993 -0.045232
-0.221162 0.812266 -0.045237
-0.217454 0.812994 -0.045299
-0.213615 0.813211 -0.045339
-0.209723 0.813190 -0.045368
-0.206091 0.814168 -0.045436
-0.202632 0.815851 -0.045532
-0.198575 0.815090 -0.045526
-0.194320 0.813426 -0.045482
-0.190892 0.815232 -0.045579
-0.187267 0.816210 -0.045640
-0.182670 0.812816 -0.045521
-0.178826 0.812713 -0.045535
-0.175422 0.814652 -0.045632
-0.172507 0.819008 -0.045828
-0.167845 0.814907 -0.045675
-0.164721 0.818362 -0.045831
-0.161318 0.820516 -0.045933
-0.157374 0.819869 -0.045919
-0.153336 0.818648 -0.045880
-0.149848 0.820418 -0.045963
-0.146063 0.820550 -0.045978
-0.142345 0.821053 -0.046007
-0.138342 0.819826 -0.045964
-0.134321 0.818386 -0.045912
-0.130784 0.819963 -0.045983
-0.127356 0.822341 -0.046086
-0.123136 0.819385 -0.045969
-0.119271 0.818738 -0.045946
-0.115381 0.817837 -0.045912
-0.111500 0.816917 -0.045877
-0.107827 0.817545 -0.045904
-0.104220 0.818746 -0.045955
-0.100397 0.818162 -0.045931
-0.096582 0.817586 -0.045908
-0.092826 0.817473 -0.045902
-0.089294 0.819513 -0.045985
-0.086003 0.824183 -0.046176
-0.082291 0.824784 -0.046199
-0.078189 0.821009 -0.046040
-0.074132 0.817332 -0.045885
-0.070524 0.818864 -0.045945
-0.066825 0.819338 -0.045960
-0.063071 0.819052 -0.045943
-0.059365 0.819442 -0.045954
-0.055841 0.822872 -0.046090
-0.052204 0.824820 -0.046164
-0.048417 0.824156 -0.046130
-0.044623 0.823175 -0.046083
-0.040924 0.824186 -0.046117
-0.037170 0.823978 -0.046100
-0.033394 0.822942 -0.046049
-0.029686 0.823974 -0.046083
-0.025918 0.822762 -0.046023
-0.022180 0.822565 -0.046005
-0.018479 0.824761 -0.046085
-0.014754 0.826506 -0.046146
-0.011005 0.826139 -0.046120
-0.007259 0.826650 -0.046129
-0.003513 0.826619 -0.046116
0.000197 0.822817 -0.045947
0.003915 0.822148 -0.045907
0.007648 0.822664 -0.045914
0.011510 0.828409 -0.046135
0.015260 0.828352 -0.046118
0.018946 0.826348 -0.046020
0.022679 0.826103 -0.045994
0.026422 0.826152 -0.045980
0.030117 0.825177 -0.045923
0.033791 0.823960 -0.045855
0.037588 0.825116 -0.045884
0.041319 0.825024 -0.045861
0.044901 0.822649 -0.045744
0.048578 0.821943 -0.045695
0.052333 0.822342 -0.045690
0.056110 0.822969 -0.045693
0.059928 0.824000 -0.045712
0.063970 0.827433 -0.045828
0.068028 0.830672 -0.045935
0.071566 0.828298 -0.045813
0.075176 0.826813 -0.045726
0.078766 0.825255 -0.045635
0.082552 0.825554 -0.045619
0.086239 0.824966 -0.045566
0.090004 0.825037 -0.045538
0.093924 0.826309 -0.045558
0.098064 0.829150 -0.045639
0.101077 0.823463 -0.045376
0.105511 0.828253 -0.045534
0.109010 0.826253 -0.045417
0.113362 0.830056 -0.045532
0.116077 0.822995 -0.045210
0.120203 0.825190 -0.045258
0.123865 0.824398 -0.045184
0.128431 0.828978 -0.045324
0.133241 0.834686 -0.045507
0.136017 0.828630 -0.045219
0.139973 0.829314 -0.045198
0.143740 0.828916 -0.045133
0.147470 0.828309 -0.045058
0.151546 0.829451 -0.045050
0.155772 0.831243 -0.045066
0.159406 0.830047 -0.044962
0.162876 0.828090 -0.044827
0.165945 0.824323 -0.044619
0.169930 0.824821 -0.044576
0.173884 0.825118 -0.044524
0.177934 0.825775 -0.044484
0.181834 0.825718 -0.044413
0.188612 0.837581 -0.044804
0.192370 0.836623 -0.044694
0.194372 0.828642 -0.044309
0.197661 0.825959 -0.044128
0.205505 0.840820 -0.044621
0.207937 0.834678 -0.044302
0.210458 0.829038 -0.044001
0.215530 0.832816 -0.044059
0.220376 0.835596 -0.044075
0.225585 0.839496 -0.044130
0.227831 0.833004 -0.043788
0.231516 0.831542 -0.043636
0.234805 0.828760 -0.043431
0.237717 0.824777 -0.043179
0.245351 0.836059 -0.043496
0.249341 0.835381 -0.043361
0.252663 0.832586 -0.043146
0.255857 0.829428 -0.042916
0.260107 0.829496 -0.042802
0.264249 0.829180 -0.042672
0.269695 0.832625 -0.042676
0.276333 0.839333 -0.042795
0.279520 0.836000 -0.042546
0.282174 0.831222 -0.042244
0.285102 0.827280 -0.041970
0.289548 0.827514 -0.041845
0.293400 0.826096 -0.041659
0.296905 0.823756 -0.041438
0.302713 0.827404 -0.041428
0.308697 0.831351 -0.041424
0.314059 0.833575 -0.041358
0.317633 0.831245 -0.041132
0.322585 0.832322 -0.041024
0.328258 0.835079 -0.040972
0.332420 0.834124 -0.040792
0.334990 0.829417 -0.040486
0.342791 0.836976 -0.040596
0.348960 0.840576 -0.040571
0.349736 0.831861 -0.040135
0.353955 0.831065 -0.039968
0.358818 0.831718 -0.039851
0.361871 0.828418 -0.039608
0.366949 0.829583 -0.039515
0.373689 0.834288 -0.039542
0.376183 0.829985 -0.039281
0.379875 0.828317 -0.039112
0.385209 0.830118 -0.039061
0.386156 0.823021 -0.038732
0.391363 0.824716 -0.038693
0.395864 0.825048 -0.038618
0.401836 0.828352 -0.038645
0.409566 0.835102 -0.038791
-0.487861 0.784850 -0.042635
-0.486326 0.789371 -0.042845
-0.482399 0.790192 -0.042920
-0.479466 0.792731 -0.043072
-0.473754 0.790811 -0.043059
-0.471421 0.794543 -0.043273
-0.466827 0.794607 -0.043353
-0.461972 0.794283 -0.043424
-0.457499 0.794648 -0.043528
-0.453226 0.795406 -0.043654
-0.448806 0.795951 -0.043776
-0.444620 0.796943 -0.043921
-0.440772 0.798577 -0.044096
-0.435495 0.797665 -0.044172
-0.430900 0.797981 -0.044300
-0.426203 0.798107 -0.044423
-0.421835 0.798841 -0.044572
-0.417542 0.799716 -0.044729
-0.413438 0.800947 -0.044900
-0.409318 0.802148 -0.045072
-0.404757 0.802477 -0.045207
-0.400087 0.802561 -0.045332
-0.395068 0.801903 -0.045426
-0.390842 0.802798 -0.045583
-0.387027 0.804512 -0.045773
-0.382121 0.803945 -0.045866
-0.377177 0.803232 -0.045952
-0.372855 0.803775 -0.046088
-0.367847 0.802794 -0.046158
-0.363524 0.803230 -0.046286
-0.359484 0.804249 -0.046436
-0.354901 0.804013 -0.046530
-0.350604 0.804367 -0.046648
-0.346470 0.805044 -0.046776
-0.342168 0.805289 -0.046884
-0.338281 0.806463 -0.047029
-0.333893 0.806406 -0.047119
-0.329192 0.805524 -0.047170
-0.325060 0.805966 -0.047276
-0.321118 0.806835 -0.047399
-0.316741 0.806568 -0.047469
-0.312585 0.806804 -0.047558
-0.308145 0.806250 -0.047610
-0.304029 0.806481 -0.047695
-0.300008 0.806916 -0.047785
-0.296243 0.808007 -0.047903
-0.291905 0.807494 -0.047947
-0.287908 0.807867 -0.048028
-0.283942 0.808285 -0.048109
-0.280117 0.809075 -0.048204
-0.276015 0.809026 -0.048259
-0.271911 0.808918 -0.048310
-0.267888 0.809003 -0.048367
-0.264047 0.809602 -0.048445
-0.260327 0.810549 -0.048537
-0.256136 0.809988 -0.048559
-0.252121 0.809929 -0.048602
-0.248351 0.810629 -0.048677
-0.244507 0.811058 -0.048737
-0.240807 0.811950 -0.048817
-0.236790 0.811737 -0.048846
-0.232734 0.811339 -0.048864
-0.228860 0.811537 -0.048907
-0.224611 0.810340 -0.048886
-0.221190 0.812118 -0.048998
-0.217596 0.813274 -0.049080
-0.213551 0.812710 -0.049082
-0.209608 0.812481 -0.049099
-0.206169 0.814221 -0.049203
-0.202520 0.815138 -0.049269
-0.199024 0.816692 -0.049363
-0.194796 0.815179 -0.049315
-0.190516 0.813346 -0.049251
-0.187268 0.815952 -0.049389
-0.183041 0.814229 -0.049328
-0.178911 0.812844 -0.049281
-0.175209 0.813383 -0.049321
-0.171640 0.814559 -0.049389
-0.167482 0.812850 -0.049324
-0.163863 0.813755 -0.049378
-0.160355 0.815256 -0.049458
-0.156632 0.815659 -0.049486
-0.152901 0.816013 -0.049512
-0.149205 0.816553 -0.049545
-0.145542 0.817287 -0.049587
-0.141614 0.816465 -0.049556
-0.137684 0.815559 -0.049520
-0.133947 0.815783 -0.049536
-0.130362 0.816980 -0.049595
-0.126706 0.817747 -0.049634
-0.122918 0.817638 -0.049632
-0.119077 0.817112 -0.049610
-0.115121 0.815676 -0.049546
-0.111424 0.816094 -0.049566
-0.107660 0.815988 -0.049562
-0.103921 0.816053 -0.049565
-0.100148 0.815810 -0.049553
-0.096478 0.816431 -0.049580
-0.092880 0.817761 -0.049639
-0.089233 0.818708 -0.049681
-0.085379 0.817608 -0.049627
-0.081552 0.816663 -0.049581
-0.077840 0.816885 -0.049587
-0.074236 0.818399 -0.049652
-0.070540 0.818907 -0.049671
-0.066878 0.819896 -0.049711
-0.063128 0.819737 -0.049698
-0.059419 0.820159 -0.049711
-0.055731 0.820960 -0.049741
-0.051908 0.819438 -0.049665
-0.048143 0.818756 -0.049626
-0.044501 0.820528 -0.049699
-0.040800 0.821257 -0.049724
-0.037034 0.820382 -0.049676
-0.033302 0.820257 -0.049661
-0.029559 0.819646 -0.049623
-0.025831 0.819378 -0.049601
-0.022123 0.820010 -0.049620
-0.018410 0.820614 -0.049637
-0.014692 0.821170 -0.049651
-0.010958 0.819023 -0.049541
-0.007244 0.819520 -0.049552
-0.003519 0.821483 -0.049629
0.000191 0.820005 -0.049548
0.003917 0.820735 -0.049568
0.007637 0.820757 -0.049555
0.011374 0.821530 -0.049576
0.015073 0.820740 -0.049525
0.018801 0.821031 -0.049522
0.022679 0.825257 -0.049699
0.026376 0.824292 -0.049638
0.030014 0.822241 -0.049527
0.033719 0.821860 -0.049492
0.037441 0.821836 -0.049473
0.041232 0.822945 -0.049504
0.044962 0.822961 -0.049485
0.048640 0.822213 -0.049430
0.052346 0.821937 -0.049396
0.056146 0.822858 -0.049416
0.059898 0.823093 -0.049404
0.063562 0.822294 -0.049345
0.067256 0.821886 -0.049302
0.071028 0.822294 -0.049295
0.074881 0.823439 -0.049321
0.078838 0.825423 -0.049384
0.082403 0.823743 -0.049280
0.086206 0.824203 -0.049272
0.089916 0.823847 -0.049226
0.093721 0.824241 -0.049213
0.097350 0.823245 -0.049136
0.101044 0.822769 -0.049082
0.104913 0.823544 -0.049082
0.108684 0.823573 -0.049048
0.112360 0.822934 -0.048983
0.116008 0.822130 -0.048909
0.119698 0.821601 -0.048847
0.124197 0.826014 -0.049004
0.127804 0.824853 -0.048910
0.131634 0.825018 -0.048874
0.135700 0.826461 -0.048894
0.139524 0.826469 -0.048848
0.143211 0.825717 -0.048767
0.146977 0.825370 -0.048702
0.150737 0.824975 -0.048634
0.154900 0.826561 -0.048651
0.158731 0.826422 -0.048591
0.162461 0.825773 -0.048506
0.166303 0.825630 -0.048442
0.170111 0.825298 -0.048368
0.173964 0.825136 -0.048299
0.177844 0.825051 -0.048232
0.181863 0.825514 -0.048187
0.185807 0.825603 -0.048123
0.189615 0.825083 -0.048031
0.193457 0.824677 -0.047942
0.197583 0.825345 -0.047897
0.201340 0.824519 -0.047785
0.205601 0.825575 -0.047753
0.209966 0.826924 -0.047730
0.213999 0.826963 -0.047649
0.217510 0.825090 -0.047483
0.221074 0.823410 -0.047324
0.225751 0.825563 -0.047325
0.229374 0.824023 -0.047167
0.233301 0.823488 -0.047049
0.238010 0.825471 -0.047036
0.242200 0.825663 -0.046943
0.246501 0.826139 -0.046861
0.250712 0.826261 -0.046760
0.254901 0.826252 -0.046652
0.259066 0.826112 -0.046535
0.263415 0.826461 -0.046436
0.267506 0.825986 -0.046301
0.271316 0.824660 -0.046128
0.275371 0.824008 -0.045980
0.280491 0.826290 -0.045951
0.284677 0.825879 -0.045808
0.289388 0.826846 -0.045720
0.293775 0.826864 -0.045591
0.297623 0.825414 -0.045400
0.301879 0.825009 -0.045251
0.307209 0.827313 -0.045208
0.312621 0.829714 -0.045166
0.317531 0.830754 -0.045069
0.322396 0.831618 -0.044963
0.326819 0.831354 -0.044812
0.332964 0.835174 -0.044821
0.336541 0.832818 -0.044588
0.339976 0.830172 -0.044346
0.346752 0.835243 -0.044402
0.350814 0.834029 -0.044217
0.352925 0.828480 -0.043869
0.357259 0.827984 -0.043718
0.362574 0.829649 -0.043651
0.369757 0.835317 -0.043738
0.375089 0.836937 -0.043676
0.376739 0.830812 -0.043329
0.381267 0.830857 -0.043218
0.387253 0.833948 -0.043227
0.390318 0.831096 -0.043021
0.394144 0.829904 -0.042885
0.399182 0.831225 -0.042849
0.401681 0.827608 -0.042640
0.404752 0.825270 -0.042487
-0.492399 0.791632 -0.046928
-0.487005 0.790057 -0.046892
-0.483156 0.791031 -0.046977
-0.477173 0.788621 -0.046920
-0.476457 0.794909 -0.047256
-0.470269 0.792287 -0.047206
-0.467155 0.794832 -0.047391
-0.462865 0.795485 -0.047499
-0.458317 0.795753 -0.047596
-0.453553 0.795685 -0.047683
-0.449483 0.796861 -0.047831
-0.444651 0.796733 -0.047924
-0.440848 0.798455 -0.048104
-0.435781 0.797935 -0.048187
-0.430928 0.797793 -0.048289
-0.426174 0.797823 -0.048400
-0.421582 0.798143 -0.048527
-0.416944 0.798363 -0.048650
-0.413416 0.800690 -0.048870
-0.409443 0.802180 -0.049053
-0.404703 0.802164 -0.049167
-0.400029 0.802241 -0.049284
-0.395486 0.802541 -0.049411
-0.390511 0.801924 -0.049494
-0.386021 0.802242 -0.049619
-0.381626 0.802717 -0.049750
-0.377938 0.804641 -0.049948
-0.373814 0.805629 -0.050101
-0.367462 0.801763 -0.050022
-0.363459 0.802891 -0.050177
-0.359357 0.803769 -0.050318
-0.355210 0.804512 -0.050451
-0.351327 0.805814 -0.050608
-0.346115 0.804025 -0.050615
-0.342656 0.806227 -0.050811
-0.339208 0.808455 -0.051006
-0.333720 0.805784 -0.050963
-0.329026 0.804916 -0.051004
-0.325052 0.805739 -0.051124
-0.321018 0.806376 -0.051233
-0.316914 0.806794 -0.051329
-0.312476 0.806309 -0.051379
-0.307949 0.805523 -0.051411
-0.303700 0.805392 -0.051473
-0.300389 0.807717 -0.051653
-0.296065 0.807298 -0.051696
-0.291990 0.807501 -0.051768
-0.287889 0.807585 -0.051831
-0.284075 0.808434 -0.051930
-0.280065 0.808693 -0.051998
-0.276081 0.808984 -0.052065
-0.271996 0.808935 -0.052114
-0.268156 0.809574 -0.052194
-0.264238 0.809946 -0.052260
-0.260041 0.809413 -0.052278
-0.256201 0.809949 -0.052348
-0.252305 0.810276 -0.052406
-0.248349 0.810373 -0.052450
-0.244557 0.810974 -0.052518
-0.240600 0.810996 -0.052555
-0.236712 0.811216 -0.052600
-0.232738 0.811098 -0.052627
-0.228644 0.810508 -0.052628
-0.224829 0.810870 -0.052676
-0.221350 0.812449 -0.052783
-0.217953 0.814355 -0.052906
-0.213921 0.813866 -0.052906
-0.209881 0.813285 -0.052901
-0.205837 0.812633 -0.052890
-0.202224 0.813669 -0.052964
-0.198384 0.813769 -0.052989
-0.194349 0.813019 -0.052970
-0.190548 0.813213 -0.052997
-0.187290 0.815780 -0.053143
-0.183250 0.814902 -0.053114
-0.179182 0.813826 -0.053074
-0.175408 0.814053 -0.053098
-0.171515 0.813686 -0.053092
-0.167823 0.814266 -0.053132
-0.164055 0.814460 -0.053152
-0.160287 0.814632 -0.053170
-0.156545 0.814930 -0.053193
-0.152713 0.814722 -0.053190
-0.149066 0.815509 -0.053237
-0.145376 0.816065 -0.053271
-0.141641 0.816359 -0.053291
-0.137741 0.815645 -0.053259
-0.133941 0.815482 -0.053254
-0.130155 0.815379 -0.053252
-0.126604 0.816809 -0.053327
-0.122846 0.816886 -0.053332
-0.119042 0.816613 -0.053319
-0.115303 0.816775 -0.053328
-0.111448 0.816033 -0.053290
-0.107736 0.816346 -0.053305
-0.103927 0.815870 -0.053279
-0.100159 0.815674 -0.053267
-0.096452 0.815980 -0.053280
-0.092850 0.817268 -0.053343
-0.089223 0.818403 -0.053397
-0.085535 0.819000 -0.053423
-0.081669 0.817726 -0.053354
-0.077972 0.818192 -0.053373
-0.074255 0.818452 -0.053381
-0.070586 0.819322 -0.053419
-0.066871 0.819653 -0.053429
-0.063153 0.819967 -0.053439
-0.059436 0.820303 -0.053449
-0.055630 0.819190 -0.053385
-0.051871 0.818717 -0.053353
-0.048117 0.818195 -0.053319
-0.044415 0.818675 -0.053334
-0.040770 0.820579 -0.053422
-0.037024 0.820209 -0.053394
-0.033249 0.818790 -0.053312
-0.029536 0.819070 -0.053316
-0.025817 0.819179 -0.053311
-0.022086 0.818574 -0.053270
-0.018396 0.820540 -0.053357
-0.014672 0.820602 -0.053349
-0.010953 0.821628 -0.053388
-0.007226 0.818794 -0.053233
-0.003507 0.819914 -0.053276
0.000212 0.820023 -0.053268
0.003945 0.821020 -0.053305
0.007667 0.821055 -0.053292
0.011377 0.820563 -0.053252
0.015087 0.820219 -0.053220
0.018807 0.820315 -0.053209
0.022582 0.821835 -0.053269
0.026336 0.822550 -0.053288
0.030102 0.823368 -0.053311
0.033743 0.821611 -0.053205
0.037445 0.821228 -0.053168
0.041183 0.821491 -0.053162
0.044966 0.822381 -0.053186
0.048703 0.822502 -0.053172
0.052465 0.822922 -0.053172
0.056207 0.823038 -0.053156
0.059973 0.823413 -0.053152
0.063731 0.823646 -0.053140
0.067432 0.823227 -0.053095
0.071098 0.822481 -0.053033
0.074861 0.822727 -0.053020
0.078654 0.823211 -0.053018
0.082473 0.823861 -0.053023
0.086143 0.823173 -0.052960
0.089873 0.823006 -0.052923
0.093633 0.823067 -0.052895
0.097449 0.823530 -0.052887
0.101220 0.823601 -0.052858
0.104945 0.823324 -0.052811
0.108691 0.823173 -0.052770
0.112447 0.823073 -0.052729
0.116249 0.823252 -0.052701
0.120210 0.824391 -0.052720
0.124004 0.824411 -0.052682
0.127729 0.823997 -0.052621
0.131646 0.824673 -0.052612
0.135619 0.825600 -0.052615
0.139527 0.826087 -0.052594
0.143341 0.826013 -0.052544
0.147138 0.825819 -0.052487
0.150852 0.825180 -0.052407
0.154682 0.825103 -0.052352
0.158570 0.825269 -0.052308
0.162386 0.825053 -0.052244
0.166240 0.824980 -0.052185
0.170137 0.825056 -0.052131
0.174056 0.825188 -0.052078
0.177924 0.825050 -0.052011
0.181796 0.824890 -0.051940
0.185777 0.825139 -0.051887
0.189600 0.824691 -0.051799
0.193391 0.824083 -0.051701
0.197473 0.824590 -0.051655
0.201799 0.825964 -0.051648
0.205981 0.826691 -0.051608
0.210093 0.827084 -0.051549
0.214178 0.827309 -0.051480
0.217877 0.826095 -0.051341
0.221616 0.825011 -0.051205
0.225860 0.825647 -0.051149
0.229832 0.825285 -0.051043
0.234542 0.827331 -0.051049
0.238627 0.827207 -0.050949
0.242618 0.826729 -0.050830
0.246662 0.826374 -0.050715
0.250723 0.826025 -0.050598
0.254928 0.826066 -0.050497
0.259100 0.825949 -0.050386
0.263298 0.825851 -0.050273
0.267371 0.825333 -0.050138
0.271395 0.824631 -0.049993
0.275320 0.823610 -0.049831
0.279626 0.823624 -0.049714
0.284830 0.826049 -0.049705
0.289656 0.827321 -0.049641
0.293930 0.827029 -0.049504
0.298158 0.826571 -0.049357
0.302354 0.825992 -0.049203
0.307050 0.826656 -0.049103
0.311498 0.826631 -0.048972
0.316759 0.828582 -0.048926
0.321525 0.829226 -0.048822
0.325520 0.827950 -0.048631
0.329805 0.827372 -0.048472
0.334493 0.827728 -0.048354
0.338955 0.827526 -0.048211
0.343517 0.827542 -0.048079
0.348780 0.829135 -0.048017
0.352150 0.826453 -0.047771
0.356151 0.825234 -0.047591
0.360907 0.825701 -0.047487
0.367148 0.829371 -0.047522
0.371554 0.829078 -0.047392
0.375273 0.827381 -0.047206
0.379090 0.825969 -0.047039
0.383988 0.826862 -0.046974
0.390645 0.831367 -0.047067
0.394963 0.831141 -0.046967
0.398470 0.829384 -0.046811
0.402203 0.828194 -0.046686
0.405248 0.825779 -0.046519
-0.493214 0.792505 -0.051007
-0.487009 0.789661 -0.050898
-0.484461 0.792750 -0.051089
-0.479477 0.792005 -0.051100
-0.473973 0.790460 -0.051078
-0.471399 0.793819 -0.051305
-0.467224 0.794616 -0.051413
-0.463435 0.796131 -0.051562
-0.458651 0.796017 -0.051636
-0.454019 0.796196 -0.051729
-0.449343 0.796330 -0.051824
-0.445479 0.797921 -0.051997
-0.440124 0.796893 -0.052041
-0.435943 0.797970 -0.052194
-0.430576 0.796898 -0.052241
-0.426679 0.798512 -0.052426
-0.420529 0.795933 -0.052399
-0.416793 0.797843 -0.052601
-0.413283 0.800206 -0.052827
-0.409908 0.802855 -0.053069
-0.404617 0.801774 -0.053120
-0.400255 0.802471 -0.053261
-0.395363 0.802078 -0.053346
-0.391242 0.803196 -0.053508
-0.386907 0.803853 -0.053644
-0.382291 0.803891 -0.053748
-0.377941 0.804437 -0.053876
-0.373611 0.804985 -0.054003
-0.367613 0.801880 -0.053936
-0.363412 0.802578 -0.054067
-0.359406 0.803667 -0.054216
-0.355639 0.805264 -0.054390
-0.350579 0.803898 -0.054406
-0.346676 0.805105 -0.054555
-0.342654 0.806006 -0.054687
-0.338416 0.806362 -0.054786
-0.333638 0.805369 -0.054812
-0.329432 0.805683 -0.054906
-0.325855 0.807496 -0.055077
-0.321026 0.806172 -0.055078
-0.316984 0.806747 -0.055178
-0.311907 0.804620 -0.055131
-0.307861 0.805064 -0.055220
-0.304040 0.806059 -0.055336
-0.300382 0.807462 -0.055473
-0.296210 0.807456 -0.055531
-0.292076 0.807500 -0.055589
-0.288456 0.808932 -0.055721
-0.283858 0.807575 -0.055700
-0.280051 0.808407 -0.055795
-0.276208 0.809110 -0.055882
-0.272364 0.809779 -0.055964
-0.268327 0.809841 -0.056012
-0.263902 0.808664 -0.055991
-0.259908 0.808746 -0.056036
-0.256149 0.809529 -0.056118
-0.252415 0.810372 -0.056201
-0.248365 0.810166 -0.056225
-0.244386 0.810146 -0.056258
-0.240341 0.809860 -0.056275
-0.236737 0.811036 -0.056370
-0.232903 0.811411 -0.056420
-0.228932 0.811269 -0.056440
-0.225103 0.811595 -0.056484
-0.221589 0.813063 -0.056590
-0.217837 0.813648 -0.056645
-0.214030 0.814010 -0.056688
-0.209974 0.813377 -0.056674
-0.205934 0.812743 -0.056658
-0.201939 0.812236 -0.056649
-0.198349 0.813349 -0.056727
-0.194443 0.813140 -0.056732
-0.190896 0.814441 -0.056819
-0.186838 0.813509 -0.056781
-0.183188 0.814345 -0.056840
-0.179414 0.814613 -0.056867
-0.175216 0.812871 -0.056782
-0.171568 0.813666 -0.056836
-0.167952 0.814626 -0.056898
-0.164175 0.814790 -0.056915
-0.160441 0.815156 -0.056942
-0.156579 0.814833 -0.056931
-0.152770 0.814757 -0.056932
-0.149090 0.815371 -0.056971
-0.145455 0.816246 -0.057024
-0.141712 0.816510 -0.057042
-0.137842 0.815991 -0.057016
-0.134058 0.815952 -0.057016
-0.130304 0.816081 -0.057024
-0.126453 0.815545 -0.056995
-0.122792 0.816251 -0.057034
-0.119070 0.816557 -0.057051
-0.115317 0.816623 -0.057053
-0.111622 0.817116 -0.057079
-0.107824 0.816797 -0.057059
-0.104025 0.816430 -0.057036
-0.100267 0.816364 -0.057029
-0.096480 0.815996 -0.057005
-0.092844 0.816982 -0.057056
-0.089283 0.818766 -0.057150
-0.085600 0.819457 -0.057183
-0.081851 0.819474 -0.057179
-0.078021 0.818560 -0.057122
-0.074319 0.819038 -0.057142
-0.070605 0.819397 -0.057155
-0.066908 0.820009 -0.057182
-0.063180 0.820215 -0.057186
-0.059367 0.819133 -0.057118
-0.055611 0.818792 -0.057091
-0.051861 0.818455 -0.057064
-0.048121 0.818235 -0.057043
-0.044418 0.818724 -0.057060
-0.040748 0.820098 -0.057127
-0.037037 0.820657 -0.057147
-0.033267 0.819498 -0.057073
-0.029536 0.819330 -0.057053
-0.025810 0.819253 -0.057037
-0.022108 0.820367 -0.057087
-0.018384 0.820578 -0.057087
-0.014660 0.820838 -0.057089
-0.010930 0.820204 -0.057041
-0.007207 0.820400 -0.057039
-0.003487 0.819877 -0.056997
0.000232 0.819781 -0.056978
0.003947 0.819547 -0.056950
0.007687 0.820780 -0.057003
0.011407 0.820679 -0.056983
0.015114 0.820176 -0.056939
0.018843 0.820477 -0.056940
0.022586 0.821098 -0.056957
0.026351 0.822103 -0.056996
0.030143 0.823483 -0.057054
0.033818 0.822329 -0.056972
0.037497 0.821445 -0.056905
0.041224 0.821483 -0.056888
0.044979 0.821944 -0.056893
0.048807 0.823360 -0.056950
0.052548 0.823432 -0.056933
0.056274 0.823287 -0.056904
0.060031 0.823530 -0.056894
0.063825 0.824138 -0.056905
0.067532 0.823748 -0.056859
0.071259 0.823580 -0.056826
0.074928 0.822840 -0.056760
0.078658 0.822728 -0.056728
0.082444 0.823092 -0.056721
0.086196 0.823120 -0.056695
0.089884 0.822602 -0.056638
0.093700 0.823116 -0.056636
0.097492 0.823381 -0.056620
0.101247 0.823331 -0.056586
0.105109 0.824022 -0.056591
0.108875 0.823984 -0.056555
0.112622 0.823793 -0.056510
0.116399 0.823781 -0.056474
0.120194 0.823850 -0.056441
0.123930 0.823527 -0.056386
0.127696 0.823371 -0.056338
0.131421 0.822957 -0.056275
0.135629 0.825240 -0.056356
0.139524 0.825660 -0.056336
0.143503 0.826468 -0.056335
0.147352 0.826532 -0.056292
0.150990 0.825483 -0.056189
0.154664 0.824622 -0.056094
0.158547 0.824774 -0.056052
0.162502 0.825218 -0.056024
0.166262 0.824706 -0.055943
0.170296 0.825407 -0.055925
0.174154 0.825259 -0.055860
0.178029 0.825145 -0.055796
0.181931 0.825104 -0.055733
0.185710 0.824509 -0.055640
0.189512 0.823988 -0.055548
0.193474 0.824073 -0.055487
0.197795 0.825510 -0.055495
0.201873 0.825912 -0.055447
0.206155 0.827018 -0.055433
0.210442 0.828047 -0.055413
0.214372 0.827690 -0.055318
0.218074 0.826481 -0.055176
0.221863 0.825562 -0.055048
0.225801 0.825133 -0.054943
0.230365 0.826782 -0.054945
0.234704 0.827566 -0.054898
0.238919 0.827864 -0.054824
0.242990 0.827630 -0.054720
0.246902 0.826840 -0.054585
0.251085 0.826861 -0.054490
0.255524 0.827605 -0.054430
0.259503 0.826882 -0.054292
0.263667 0.826668 -0.054177
0.267728 0.826102 -0.054043
0.271701 0.825237 -0.053891
0.275932 0.825071 -0.053773
0.280169 0.824869 -0.053651
0.284596 0.825137 -0.053550
0.290124 0.828322 -0.053594
0.294325 0.827815 -0.053450
0.298164 0.826321 -0.053255
0.302875 0.827075 -0.053171
0.307341 0.827131 -0.053050
0.311868 0.827295 -0.052933
0.316861 0.828564 -0.052870
0.321357 0.828542 -0.052742
0.325740 0.828207 -0.052597
0.330218 0.828077 -0.052463
0.334438 0.827314 -0.052298
0.338939 0.827199 -0.052164
0.343463 0.827125 -0.052034
0.348252 0.827639 -0.051933
0.353034 0.828120 -0.051832
0.356865 0.826493 -0.051631
0.360912 0.825385 -0.051458
0.365645 0.825799 -0.051362
0.371747 0.829140 -0.051407
0.375896 0.828330 -0.051260
0.379326 0.826087 -0.051049
0.384012 0.826525 -0.050971
0.388703 0.827022 -0.050901
0.394147 0.829087 -0.050910
0.398823 0.829655 -0.050856
0.403453 0.830204 -0.050809
0.409557 0.833698 -0.050905
-0.490275 0.787429 -0.054775
-0.487545 0.790112 -0.054950
-0.483128 0.790207 -0.054992
-0.479463 0.791603 -0.055111
-0.474963 0.791725 -0.055169
-0.470760 0.792406 -0.055263
-0.467868 0.795357 -0.055488
-0.463928 0.796640 -0.055627
-0.459217 0.796670 -0.055702
-0.453964 0.795795 -0.055733
-0.449632 0.796540 -0.055856
-0.445010 0.796805 -0.055957
-0.440536 0.797352 -0.056076
-0.436021 0.797839 -0.056195
-0.431550 0.798416 -0.056320
-0.426960 0.798776 -0.056436
-0.422826 0.799982 -0.056600
-0.416800 0.797610 -0.056565
-0.414059 0.801451 -0.056878
-0.409346 0.801527 -0.056981
-0.405276 0.802832 -0.057152
-0.400111 0.801953 -0.057200
-0.395685 0.802494 -0.057328
-0.390879 0.802230 -0.057409
-0.386863 0.803536 -0.057578
-0.382678 0.804471 -0.057724
-0.377702 0.803706 -0.057773
-0.373272 0.804034 -0.057882
-0.368524 0.803626 -0.057947
-0.363746 0.803085 -0.058002
-0.359776 0.804263 -0.058155
-0.355201 0.804052 -0.058225
-0.350919 0.804444 -0.058329
-0.346646 0.804807 -0.058428
-0.342632 0.805724 -0.058558
-0.338388 0.806062 -0.058652
-0.334177 0.806430 -0.058745
-0.330149 0.807190 -0.058860
-0.324972 0.805084 -0.058805
-0.320631 0.804948 -0.058862
-0.316776 0.805981 -0.058986
-0.312463 0.805808 -0.059037
-0.307896 0.804914 -0.059044
-0.303954 0.805588 -0.059141
-0.300231 0.806813 -0.059268
-0.296288 0.807420 -0.059357
-0.292094 0.807301 -0.059401
-0.287809 0.806870 -0.059425
-0.283792 0.807136 -0.059488
-0.280168 0.808490 -0.059613
-0.276276 0.809049 -0.059690
-0.272615 0.810265 -0.059804
-0.268532 0.810198 -0.059840
-0.264034 0.808807 -0.059796
-0.259994 0.808750 -0.059829
-0.256340 0.809868 -0.059930
-0.252683 0.810967 -0.060029
-0.248863 0.811526 -0.060094
-0.244306 0.809610 -0.060010
-0.240815 0.811190 -0.060133
-0.236749 0.810803 -0.060137
-0.233191 0.812142 -0.060243
-0.229370 0.812551 -0.060292
-0.225604 0.813136 -0.060350
-0.221484 0.812396 -0.060328
-0.217626 0.812577 -0.060359
-0.213883 0.813166 -0.060414
-0.210120 0.813666 -0.060462
-0.206424 0.814414 -0.060523
-0.202001 0.812206 -0.060407
-0.198173 0.812340 -0.060430
-0.194563 0.813367 -0.060505
-0.190907 0.814204 -0.060567
-0.187359 0.815522 -0.060658
-0.183308 0.814602 -0.060613
-0.179434 0.814423 -0.060612
-0.175310 0.813030 -0.060537
-0.171563 0.813357 -0.060565
-0.167754 0.813366 -0.060572
-0.164177 0.814515 -0.060648
-0.160319 0.814241 -0.060636
-0.156647 0.814916 -0.060682
-0.152735 0.814286 -0.060647
-0.149003 0.814605 -0.060670
-0.145407 0.815696 -0.060738
-0.141571 0.815399 -0.060722
-0.137793 0.815416 -0.060724
-0.134081 0.815824 -0.060749
-0.130280 0.815655 -0.060738
-0.126498 0.815571 -0.060732
-0.122785 0.815937 -0.060753
-0.118968 0.815569 -0.060729
-0.115249 0.815867 -0.060745
-0.111531 0.816162 -0.060759
-0.107810 0.816443 -0.060773
-0.104002 0.815998 -0.060742
-0.100208 0.815620 -0.060715
-0.096567 0.816539 -0.060765
-0.092872 0.817015 -0.060789
-0.089217 0.817902 -0.060836
-0.085655 0.819804 -0.060944
-0.081735 0.818033 -0.060831
-0.077975 0.817843 -0.060813
-0.074292 0.818533 -0.060847
-0.070625 0.819487 -0.060897
-0.066942 0.820303 -0.060938
-0.063209 0.820493 -0.060941
-0.059392 0.819401 -0.060866
-0.055598 0.818471 -0.060802
-0.051879 0.818706 -0.060806
-0.048125 0.818273 -0.060770
-0.044407 0.818483 -0.060773
-0.040705 0.819091 -0.060799
-0.037024 0.820388 -0.060866
-0.033274 0.819902 -0.060825
-0.029521 0.819067 -0.060764
-0.025807 0.819506 -0.060778
-0.022075 0.819165 -0.060746
-0.018365 0.820155 -0.060793
-0.014629 0.819078 -0.060715
-0.010909 0.819017 -0.060698
-0.007189 0.819597 -0.060720
-0.003468 0.819694 -0.060711
0.000249 0.819310 -0.060674
0.003967 0.819257 -0.060656
0.007708 0.820497 -0.060715
0.011428 0.820382 -0.060693
0.015141 0.820085 -0.060659
0.018873 0.820457 -0.060665
0.022604 0.820697 -0.060662
0.026357 0.821427 -0.060688
0.030109 0.821981 -0.060704
0.033845 0.822126 -0.060694
0.037579 0.822198 -0.060680
0.041318 0.822356 -0.060670
0.045057 0.822475 -0.060657
0.048841 0.823207 -0.060680
0.052574 0.823157 -0.060656
0.056295 0.822958 -0.060622
0.060044 0.823092 -0.060608
0.063780 0.823055 -0.060583
0.067496 0.822803 -0.060544
0.071258 0.823020 -0.060533
0.074980 0.822808 -0.060496
0.078637 0.822001 -0.060422
0.082292 0.821222 -0.060350
0.086131 0.822056 -0.060372
0.089970 0.822802 -0.060388
0.093715 0.822731 -0.060355
0.097450 0.822566 -0.060315
0.101748 0.826533 -0.060518
0.105476 0.826154 -0.060464
0.108818 0.823123 -0.060253
0.112565 0.822953 -0.060209
0.116308 0.822733 -0.060162
0.120080 0.822686 -0.060123
0.123882 0.822795 -0.060093
0.127682 0.822852 -0.060058
0.131525 0.823123 -0.060035
0.135363 0.823321 -0.060006
0.139417 0.824654 -0.060042
0.143409 0.825551 -0.060052
0.147228 0.825475 -0.060003
0.150880 0.824514 -0.059902
0.154454 0.823182 -0.059777
0.158351 0.823429 -0.059743
0.162538 0.824996 -0.059785
0.166772 0.826667 -0.059830
0.170572 0.826266 -0.059754
0.174303 0.825535 -0.059657
0.178167 0.825364 -0.059591
0.182073 0.825335 -0.059531
0.186051 0.825558 -0.059485
0.190102 0.826026 -0.059451
0.193938 0.825565 -0.059361
0.197730 0.824904 -0.059258
0.201971 0.825939 -0.059251
0.206080 0.826389 -0.059208
0.210224 0.826901 -0.059167
0.214258 0.826940 -0.059096
0.218065 0.826114 -0.058975
0.221765 0.824890 -0.058828
0.225684 0.824409 -0.058722
0.229766 0.824436 -0.058643
0.234213 0.825618 -0.058628
0.238980 0.827746 -0.058663
0.242826 0.826790 -0.058522
0.246787 0.826169 -0.058397
0.251106 0.826622 -0.058331
0.255281 0.826559 -0.058234
0.259736 0.827285 -0.058178
0.263875 0.826987 -0.058063
0.267848 0.826158 -0.057917
0.271926 0.825592 -0.057783
0.276092 0.825236 -0.057658
0.280357 0.825107 -0.057545
0.284639 0.824970 -0.057428
0.290379 0.828725 -0.057525
0.294384 0.827689 -0.057355
0.298513 0.826953 -0.057200
0.303769 0.829106 -0.057202
0.308140 0.828889 -0.057072
0.312259 0.827992 -0.056904
0.316937 0.828464 -0.056810
0.321589 0.828820 -0.056708
0.326149 0.828905 -0.056591
0.330293 0.827960 -0.056418
0.335066 0.828492 -0.056324
0.339172 0.827437 -0.056146
0.343775 0.827530 -0.056030
0.348461 0.827796 -0.055924
0.353332 0.828463 -0.055840
0.358251 0.829218 -0.055763
0.362678 0.828893 -0.055631
0.365904 0.826008 -0.055367
0.371580 0.828425 -0.055385
0.376225 0.828650 -0.055292
0.380928 0.829032 -0.055211
0.385046 0.828254 -0.055075
0.389284 0.827795 -0.054961
0.393966 0.828300 -0.054902
0.398709 0.828991 -0.054860
0.403804 0.830442 -0.054863
0.404678 0.823746 -0.054453
-0.493610 0.792288 -0.059088
-0.487394 0.789464 -0.058946
-0.483096 0.789760 -0.058997
-0.479321 0.790990 -0.059110
-0.474941 0.791320 -0.059176
-0.470889 0.792262 -0.059285
-0.467209 0.793903 -0.059442
-0.463826 0.796130 -0.059639
-0.459019 0.796004 -0.059699
-0.454456 0.796331 -0.059791
-0.449822 0.796565 -0.059881
-0.445399 0.797195 -0.059999
-0.440569 0.797120 -0.060076
