ply
format ascii 1.0
comment ---
element vertex 1765
property float x
property float y
property float z
element face 0
property list uchar uint vertex_indices
end_header
0.335722 0.795035 0.201230
0.340086 0.796629 0.201607
0.344086 0.796331 0.201604
0.347969 0.795451 0.201484
0.352080 0.795636 0.201579
0.356143 0.795557 0.201622
0.359636 0.792909 0.201147
0.363733 0.792971 0.201220
0.367754 0.792664 0.201218
0.372855 0.796835 0.202123
0.378904 0.804668 0.203770
0.380359 0.793787 0.201633
0.383464 0.789760 0.200882
0.389477 0.797034 0.202419
0.394137 0.798895 0.202862
0.398263 0.798672 0.202884
0.402869 0.800169 0.203255
0.408140 0.803949 0.204090
0.411885 0.802214 0.203809
0.416632 0.803955 0.204233
0.421662 0.806553 0.204832
0.424689 0.802382 0.204058
0.427235 0.796741 0.202985
0.431429 0.796546 0.203020
0.435765 0.796774 0.203142
0.440076 0.796883 0.203240
0.443742 0.794981 0.202931
0.450129 0.801292 0.204295
0.452131 0.794384 0.202967
0.455941 0.792928 0.202751
0.461622 0.796858 0.203635
0.467007 0.799796 0.204319
0.472297 0.802350 0.204925
0.477428 0.804354 0.205422
0.482576 0.806315 0.205912
0.486033 0.803668 0.205461
0.491073 0.805228 0.205872
0.494544 0.802635 0.205435
0.498077 0.800235 0.205038
0.501925 0.798660 0.204812
0.508384 0.803592 0.205921
0.513606 0.805317 0.206375
0.517745 0.804333 0.206276
0.520092 0.799047 0.205294
0.527666 0.806206 0.206872
0.537202 0.817710 0.209347
0.537208 0.806955 0.207245
0.538442 0.799220 0.205765
0.545627 0.804988 0.207069
0.549656 0.803580 0.206896
0.554124 0.803125 0.206922
0.558962 0.803440 0.207109
0.564512 0.805224 0.207603
0.573876 0.814966 0.209746
0.586443 0.831106 0.213220
0.590022 0.828308 0.212778
0.587105 0.812308 0.209601
0.587462 0.803222 0.207856
0.591324 0.801265 0.207592
0.596666 0.802214 0.207934
0.602537 0.804120 0.208479
0.607836 0.804835 0.208780
0.616005 0.810932 0.210206
0.620823 0.810551 0.210287
0.623622 0.806379 0.209580
0.630497 0.809727 0.210447
0.634765 0.808214 0.210302
0.638462 0.805655 0.209941
0.646893 0.811502 0.211346
0.653689 0.814295 0.212116
0.663035 0.821398 0.213797
0.666213 0.817690 0.213212
0.667799 0.811296 0.212064
0.674538 0.813642 0.212760
0.680074 0.813877 0.213016
0.686721 0.815872 0.213649
0.692529 0.816396 0.213976
0.697458 0.815428 0.213993
0.700375 0.811209 0.213324
0.706586 0.812206 0.213766
0.715227 0.816911 0.215001
0.720638 0.816463 0.215148
0.725471 0.815073 0.215098
0.731666 0.815702 0.215483
0.738345 0.816975 0.216012
0.743703 0.816196 0.216107
0.750798 0.817912 0.216741
0.758775 0.820802 0.217634
0.774613 0.834853 0.220934
0.776649 0.828931 0.219946
0.775704 0.818867 0.218064
0.780040 0.816293 0.217799
0.788956 0.820019 0.218900
0.794933 0.819594 0.219107
0.802764 0.821620 0.219850
0.807760 0.819753 0.219750
0.814602 0.820308 0.220180
0.822120 0.821681 0.220791
0.829390 0.822653 0.221317
0.836167 0.822924 0.221691
0.845276 0.826108 0.222705
0.859027 0.835032 0.224982
0.868363 0.838243 0.226008
0.878412 0.842240 0.227207
0.879486 0.835162 0.225960
0.880325 0.827918 0.224668
0.884868 0.825240 0.224377
0.889443 0.822648 0.224097
0.899090 0.826074 0.225145
0.905758 0.825974 0.225403
0.918076 0.832420 0.227111
0.925541 0.833219 0.227552
0.935475 0.836840 0.228612
0.944350 0.839245 0.229390
0.949743 0.837775 0.229286
0.953400 0.834468 0.228756
0.953488 0.827365 0.227356
-0.077209 0.755386 0.191309
-0.076752 0.765086 0.193254
-0.071193 0.759007 0.192049
-0.068702 0.762817 0.192802
-0.068211 0.773467 0.194907
-0.064404 0.773558 0.194901
-0.058815 0.767756 0.193713
-0.053639 0.763311 0.192788
-0.049516 0.762529 0.192585
-0.046172 0.764603 0.192942
-0.042389 0.765259 0.193011
-0.038366 0.765139 0.192921
-0.034528 0.765789 0.192978
-0.031185 0.768426 0.193424
-0.028795 0.774962 0.194640
-0.024235 0.773123 0.194191
-0.020661 0.775263 0.194528
-0.016642 0.775659 0.194517
-0.013705 0.780693 0.195422
-0.009929 0.782296 0.195646
-0.006634 0.786108 0.196306
-0.001027 0.779524 0.194911
0.002995 0.780008 0.194914
0.006469 0.783108 0.195433
0.010465 0.783756 0.195468
0.014400 0.784700 0.195563
0.020258 0.775707 0.193701
0.023780 0.778565 0.194176
0.027287 0.781597 0.194687
0.031255 0.782151 0.194712
0.035047 0.783679 0.194930
0.039453 0.781582 0.194438
0.043432 0.781890 0.194421
0.047737 0.780078 0.193990
0.051662 0.780549 0.194010
0.055644 0.780577 0.193946
0.059639 0.780438 0.193851
0.063908 0.778217 0.193352
0.068409 0.774018 0.192468
0.072209 0.774854 0.192573
0.076000 0.775737 0.192690
0.079712 0.777262 0.192935
0.083516 0.778020 0.193032
0.086766 0.783815 0.194118
0.090405 0.786342 0.194566
0.094674 0.782707 0.193812
0.099221 0.775684 0.192400
0.102718 0.779462 0.193101
0.106590 0.779176 0.193010
0.110428 0.779193 0.192981
0.114161 0.780498 0.193206
0.117729 0.784203 0.193902
0.121579 0.784106 0.193858
0.125513 0.782536 0.193529
0.129411 0.781254 0.193258
0.133176 0.782181 0.193421
0.136967 0.782655 0.193498
0.140630 0.786143 0.194165
0.144245 0.791643 0.195226
0.148201 0.788409 0.194586
0.152079 0.786698 0.194245
0.155891 0.786996 0.194298
0.159663 0.789415 0.194767
0.163564 0.784401 0.193788
0.167357 0.785379 0.193980
0.171147 0.788643 0.194619
0.174968 0.790686 0.195022
0.178821 0.795937 0.196052
0.182664 0.794514 0.195783
0.186355 0.782887 0.193525
0.190166 0.783755 0.193706
0.193994 0.784948 0.193952
0.197825 0.785771 0.194127
0.201618 0.785168 0.194025
0.205390 0.784082 0.193831
0.209531 0.792042 0.195403
0.213301 0.790339 0.195091
0.217312 0.793606 0.195751
0.221443 0.798424 0.196715
0.225481 0.800902 0.197224
0.229160 0.797477 0.196581
0.232800 0.793892 0.195909
0.236512 0.791689 0.195507
0.240435 0.792342 0.195664
0.244344 0.792704 0.195766
0.247999 0.790124 0.195293
0.251902 0.790392 0.195379
0.256126 0.793859 0.196091
0.260427 0.797693 0.196876
0.264069 0.795038 0.196393
0.268919 0.803275 0.198042
0.272445 0.799526 0.197347
0.276414 0.799654 0.197411
0.279624 0.793756 0.196297
0.283968 0.796829 0.196939
0.288052 0.797737 0.197159
0.291731 0.795682 0.196799
0.295350 0.793308 0.196377
0.299405 0.793925 0.196543
0.304601 0.801766 0.198126
0.306990 0.791660 0.196189
0.310784 0.790575 0.196023
0.314768 0.790621 0.196079
0.318860 0.791242 0.196249
0.323478 0.794695 0.196976
0.327755 0.796095 0.197301
0.331286 0.793461 0.196833
0.334882 0.791251 0.196450
0.339372 0.793576 0.196959
0.343736 0.795142 0.197319
0.347867 0.795480 0.197439
0.352273 0.797051 0.197802
0.356196 0.796315 0.197712
0.359883 0.794522 0.197414
0.363772 0.793655 0.197299
0.368392 0.795897 0.197798
0.372427 0.795569 0.197791
0.379152 0.806202 0.199946
0.382369 0.802341 0.199244
0.384652 0.794935 0.197843
0.389251 0.796684 0.198248
0.393400 0.796633 0.198300
0.397460 0.796224 0.198281
0.403304 0.802273 0.199540
0.407937 0.803751 0.199896
0.412024 0.803227 0.199858
0.417071 0.805992 0.200471
0.421673 0.807120 0.200762
0.424622 0.802685 0.199951
0.426206 0.793904 0.198280
0.431323 0.796731 0.198909
0.435709 0.797125 0.199058
0.439858 0.796732 0.199051
0.444481 0.797768 0.199329
0.449890 0.801108 0.200066
0.452226 0.795196 0.198966
0.456819 0.796021 0.199205
0.463418 0.802556 0.200582
0.468945 0.805822 0.201311
0.474382 0.808709 0.201966
0.480192 0.812499 0.202803
0.483133 0.808373 0.202064
0.487525 0.808202 0.202115
0.492144 0.808599 0.202280
0.498442 0.813309 0.203308
0.505064 0.818681 0.204470
0.507613 0.813582 0.203544
0.511344 0.811529 0.203227
0.515686 0.810996 0.203215
0.519511 0.809182 0.202948
0.523391 0.807511 0.202712
0.528139 0.807895 0.202889
0.532921 0.808310 0.203074
0.538412 0.810307 0.203579
0.540236 0.803875 0.202394
0.544456 0.802945 0.202315
0.549217 0.803194 0.202475
0.553923 0.803275 0.202603
0.558516 0.803070 0.202677
0.565151 0.807188 0.203623
0.574137 0.816127 0.205545
0.582444 0.823391 0.207135
0.586470 0.821616 0.206905
0.588717 0.816211 0.205943
0.589446 0.807830 0.204381
0.594061 0.807330 0.204414
0.600083 0.809557 0.205003
0.605470 0.810451 0.205325
0.608629 0.806994 0.204767
0.611741 0.803476 0.204200
0.617637 0.805214 0.204703
0.623031 0.805930 0.205002
0.630645 0.810655 0.206120
0.638041 0.814827 0.207132
0.642453 0.813491 0.207026
0.647275 0.812855 0.207065
0.653375 0.814424 0.207560
0.659331 0.815650 0.207988
0.661427 0.810155 0.207045
0.666144 0.809175 0.207029
0.674712 0.814638 0.208340
0.679608 0.813809 0.208364
0.684124 0.812310 0.208255
0.696168 0.823046 0.210670
0.701169 0.822136 0.210693
0.699842 0.811084 0.208626
0.707483 0.814357 0.209519
0.712638 0.813611 0.209588
0.717954 0.813062 0.209701
0.724725 0.814683 0.210269
0.730591 0.814832 0.210537
0.738044 0.817288 0.211290
0.744955 0.818821 0.211857
0.749765 0.817171 0.211766
0.754578 0.815489 0.211671
0.772243 0.832246 0.215440
0.776520 0.829545 0.215145
0.770332 0.812095 0.211756
0.776137 0.811647 0.211934
0.786604 0.817573 0.213460
0.795131 0.820666 0.214395
0.802092 0.821517 0.214862
0.808284 0.821259 0.215098
0.814223 0.820612 0.215254
0.821203 0.821286 0.215693
0.827437 0.820926 0.215913
0.835264 0.822569 0.216562
0.850056 0.832999 0.219087
0.856641 0.832838 0.219356
0.859931 0.828533 0.218736
0.865792 0.827456 0.218804
0.879676 0.836192 0.220976
0.883514 0.832564 0.220491
0.885878 0.827224 0.219631
0.886149 0.819489 0.218243
0.890805 0.817065 0.217993
0.904276 0.824983 0.219971
0.911548 0.825602 0.220364
0.927323 0.835978 0.222865
0.935566 0.837646 0.223469
0.943659 0.839155 0.224026
0.948587 0.837154 0.223807
0.952701 0.834342 0.223396
0.959877 0.834998 0.223726
-0.077282 0.755963 0.187661
-0.073767 0.756107 0.187700
-0.070859 0.758356 0.188138
-0.068863 0.763786 0.189184
-0.065526 0.765136 0.189428
-0.061402 0.764057 0.189193
-0.057416 0.763552 0.189060
-0.053569 0.763636 0.189035
-0.049982 0.764755 0.189203
-0.045943 0.764407 0.189080
-0.041864 0.763996 0.188939
-0.038128 0.764928 0.189053
-0.034330 0.765735 0.189138
-0.030373 0.766020 0.189117
-0.026781 0.767799 0.189382
-0.022919 0.768612 0.189457
-0.018798 0.768424 0.189336
-0.014536 0.767655 0.189101
-0.010641 0.768430 0.189162
-0.006831 0.769606 0.189300
-0.002564 0.768782 0.189051
0.001550 0.768600 0.188926
0.005749 0.767985 0.188718
0.009712 0.768434 0.188715
0.013477 0.769841 0.188898
0.017354 0.770705 0.188977
0.021507 0.770130 0.188780
0.025345 0.771145 0.188891
0.028987 0.773222 0.189207
0.032760 0.774608 0.189392
0.036918 0.773784 0.189155
0.041000 0.773294 0.188984
0.044678 0.775165 0.189268
0.048786 0.774363 0.189042
0.052636 0.775107 0.189115
0.056862 0.773285 0.188699
0.060733 0.773727 0.188718
0.064449 0.775231 0.188944
0.068291 0.775820 0.188997
0.072237 0.775547 0.188887
0.076004 0.776619 0.189038
0.079788 0.777542 0.189162
0.083736 0.777011 0.189011
0.087708 0.776132 0.188796
0.091617 0.775681 0.188666
0.095356 0.776796 0.188837
0.099164 0.777210 0.188877
0.102977 0.777520 0.188899
0.106847 0.777109 0.188787
0.110417 0.780267 0.189356
0.114599 0.775670 0.188451
0.118330 0.776709 0.188622
0.121994 0.778829 0.189001
0.125815 0.778620 0.188938
0.129565 0.779536 0.189093
0.133332 0.780195 0.189200
0.137128 0.780291 0.189202
0.140926 0.780277 0.189185
0.144748 0.779514 0.189028
0.148547 0.779146 0.188949
0.152330 0.779135 0.188939
0.156093 0.779826 0.189064
0.159852 0.780976 0.189279
0.163615 0.782491 0.189565
0.167406 0.782439 0.189555
0.171196 0.782397 0.189548
0.174985 0.782424 0.189556
0.178771 0.781709 0.189425
0.182551 0.781089 0.189314
0.186349 0.782230 0.189539
0.190162 0.783516 0.189793
0.193996 0.785167 0.190118
0.197805 0.785274 0.190152
0.201607 0.785123 0.190137
0.205428 0.785436 0.190212
0.209211 0.784738 0.190096
0.213118 0.786795 0.190506
0.216825 0.784510 0.190091
0.220625 0.784224 0.190057
0.224413 0.783735 0.189986
0.228233 0.783738 0.190010
0.232275 0.786869 0.190631
0.235952 0.784671 0.190238
0.239746 0.784155 0.190166
0.243655 0.785018 0.190359
0.247522 0.785260 0.190434
0.251370 0.785226 0.190457
0.255312 0.786097 0.190654
0.259385 0.788108 0.191070
0.263171 0.787238 0.190937
0.267158 0.788176 0.191150
0.271019 0.787916 0.191135
0.274784 0.786847 0.190966
0.279034 0.789630 0.191534
0.282764 0.788223 0.191303
0.286758 0.788799 0.191451
0.291020 0.791178 0.191945
0.295281 0.793355 0.192401
0.298715 0.789886 0.191778
0.302518 0.788947 0.191640
0.306925 0.791773 0.192223
0.310823 0.791326 0.192180
0.314776 0.791184 0.192196
0.318925 0.792124 0.192421
0.323025 0.792704 0.192577
0.327624 0.795905 0.193236
0.331552 0.795372 0.193180
0.334922 0.791971 0.192575
0.339322 0.793844 0.192982
0.343533 0.794665 0.193188
0.347886 0.796091 0.193511
0.352167 0.797075 0.193750
0.356127 0.796516 0.193693
0.359907 0.795147 0.193481
0.364312 0.796519 0.193797
0.368701 0.797728 0.194082
0.373916 0.802294 0.195013
0.378228 0.802952 0.195193
0.382270 0.802466 0.195155
0.385090 0.797169 0.194192
0.388329 0.793653 0.193571
0.392412 0.793424 0.193583
0.397730 0.797742 0.194472
0.403492 0.803479 0.195636
0.407993 0.804473 0.195888
0.412086 0.803967 0.195850
0.416319 0.803927 0.195904
0.420148 0.802490 0.195689
0.423429 0.799243 0.195124
0.426857 0.796552 0.194668
0.431063 0.796418 0.194706
0.435463 0.796871 0.194859
0.439885 0.797342 0.195016
0.445142 0.800321 0.195660
0.450490 0.803447 0.196333
0.454756 0.803228 0.196360
0.458524 0.801530 0.196102
0.463363 0.802931 0.196446
0.469747 0.808633 0.197625
0.474615 0.809902 0.197945
0.478167 0.807476 0.197551
0.483039 0.808662 0.197858
0.487298 0.808144 0.197837
0.491611 0.807743 0.197839
0.497311 0.810923 0.198539
0.504683 0.818266 0.200051
0.507650 0.814237 0.199352
0.509693 0.807972 0.198219
0.513440 0.806031 0.197928
0.520025 0.810994 0.198985
0.524899 0.811688 0.199213
0.528317 0.808884 0.198759
0.531154 0.804756 0.198048
0.536057 0.805455 0.198281
0.541592 0.807534 0.198786
0.545830 0.806607 0.198706
0.549183 0.803698 0.198239
0.553985 0.803994 0.198402
0.558419 0.803445 0.198402
0.562665 0.802466 0.198319
0.571120 0.810355 0.199980
0.576936 0.812506 0.200517
0.582330 0.813691 0.200869
0.586613 0.812536 0.200762
0.592716 0.815030 0.201377
0.597418 0.814628 0.201424
0.603503 0.816908 0.202003
0.605454 0.811046 0.200980
0.606664 0.803843 0.199692
0.611860 0.804330 0.199925
0.620544 0.811314 0.201447
0.624940 0.810120 0.201355
0.632383 0.814500 0.202371
0.641474 0.821724 0.203956
0.648717 0.825412 0.204846
0.650801 0.819790 0.203890
0.653382 0.815107 0.203122
0.653275 0.805792 0.201434
0.659693 0.807848 0.202013
0.665029 0.807958 0.202209
0.673241 0.812851 0.203364
0.678839 0.813223 0.203621
0.683411 0.811833 0.203529
0.696201 0.823813 0.206122
0.699110 0.819532 0.205461
0.711977 0.831175 0.208001
0.710717 0.820188 0.206000
0.714238 0.816839 0.205537
0.720446 0.817649 0.205915
0.727793 0.820119 0.206633
0.733726 0.820325 0.206899
0.742144 0.824187 0.207910
0.748147 0.824315 0.208171
0.752354 0.821733 0.207887
0.760125 0.824315 0.208655
0.769940 0.829715 0.210004
0.767383 0.817318 0.207731
0.768249 0.809931 0.206478
0.774391 0.809986 0.206746
0.786460 0.818157 0.208681
0.794329 0.820359 0.209400
0.802442 0.822782 0.210169
0.808025 0.821705 0.210222
0.812985 0.819765 0.210100
0.820062 0.820584 0.210548
0.826596 0.820627 0.210838
0.834521 0.822407 0.211489
0.841501 0.822903 0.211875
0.850239 0.825562 0.212712
0.852588 0.820153 0.211870
0.871587 0.818873 0.212437
0.874675 0.814528 0.211797
0.880077 0.813011 0.211744
0.888765 0.815395 0.212502
0.903544 0.824857 0.214744
0.910409 0.825002 0.215021
0.923993 0.832871 0.216917
0.929662 0.831635 0.216885
0.936036 0.831253 0.217022
0.948132 0.837313 0.218510
0.952353 0.834604 0.218129
0.947571 0.822117 0.215659
-0.077389 0.756645 0.184032
-0.074154 0.757702 0.184239
-0.071243 0.759991 0.184670
-0.068577 0.763302 0.185286
-0.065439 0.765325 0.185649
-0.061535 0.765003 0.185560
-0.057653 0.764884 0.185502
-0.053763 0.764859 0.185454
-0.049663 0.764217 0.185283
-0.045909 0.764893 0.185355
-0.041893 0.764732 0.185263
-0.038050 0.765293 0.185303
-0.034210 0.765957 0.185357
-0.031186 0.769846 0.186017
-0.026902 0.768989 0.185777
-0.022858 0.769100 0.185717
-0.018888 0.769543 0.185717
-0.014642 0.768860 0.185503
-0.010694 0.769432 0.185525
-0.007068 0.771433 0.185814
-0.002754 0.770430 0.185538
0.001626 0.769063 0.185193
0.004889 0.772833 0.185814
0.008901 0.773155 0.185788
0.013402 0.771043 0.185305
0.017416 0.771234 0.185256
0.021382 0.771628 0.185246
0.025388 0.771766 0.185190
0.028922 0.774434 0.185609
0.032968 0.774302 0.185506
0.036992 0.774221 0.185414
0.041029 0.773986 0.185295
0.045090 0.773510 0.185134
0.049192 0.772667 0.184907
0.053034 0.773380 0.184972
0.056846 0.774263 0.185072
0.060739 0.774559 0.185064
0.064613 0.774920 0.185071
0.068452 0.775484 0.185118
0.072258 0.776264 0.185207
0.076147 0.776343 0.185169
0.080105 0.775752 0.185008
0.083900 0.776452 0.185090
0.087774 0.776409 0.185036
0.091635 0.776387 0.184989
0.095485 0.776382 0.184947
0.099241 0.777282 0.185076
0.102977 0.778405 0.185248
0.106724 0.779432 0.185405
0.110610 0.778764 0.185250
0.114612 0.776400 0.184781
0.118320 0.777751 0.185005
0.122098 0.778158 0.185056
0.125890 0.778318 0.185063
0.129661 0.778772 0.185127
0.133423 0.779387 0.185222
0.137211 0.779504 0.185228
0.140981 0.779955 0.185297
0.144741 0.780717 0.185426
0.148556 0.779904 0.185264
0.152358 0.779223 0.185129
0.156141 0.778979 0.185077
0.159863 0.781644 0.185566
0.163632 0.782761 0.185770
0.167406 0.784181 0.186032
0.171206 0.783280 0.185865
0.174996 0.782574 0.185736
0.178778 0.781674 0.185572
0.182561 0.781773 0.185596
0.186351 0.782254 0.185691
0.190169 0.783992 0.186021
0.193980 0.784668 0.186156
0.197799 0.785370 0.186297
0.201601 0.785263 0.186290
0.205406 0.785244 0.186300
0.209266 0.786464 0.186541
0.213114 0.787151 0.186685
0.216888 0.786199 0.186525
0.220667 0.785430 0.186401
0.224473 0.785194 0.186377
0.228278 0.784917 0.186346
0.232100 0.784869 0.186359
0.235964 0.785326 0.186467
0.239744 0.784629 0.186362
0.243599 0.784846 0.186428
0.247427 0.784689 0.186424
0.251291 0.784883 0.186488
0.255330 0.786785 0.186869
0.259273 0.787534 0.187037
0.263156 0.787616 0.187083
0.267114 0.788299 0.187240
0.271015 0.788400 0.187291
0.274893 0.788253 0.187296
0.278733 0.787780 0.187241
0.282908 0.789825 0.187656
0.286753 0.789276 0.187589
0.290811 0.790220 0.187800
0.294730 0.790112 0.187816
0.298614 0.789734 0.187783
0.302763 0.791035 0.188063
0.306792 0.791467 0.188182
0.310832 0.791899 0.188302
0.314743 0.791508 0.188269
0.318732 0.791544 0.188317
0.322804 0.791995 0.188442
0.327078 0.793474 0.188760
0.331048 0.793240 0.188759
0.334837 0.792050 0.188580
0.338746 0.791481 0.188517
0.343072 0.792933 0.188833
0.347167 0.793179 0.188924
0.351430 0.794160 0.189153
0.355595 0.794612 0.189284
0.359622 0.794391 0.189289
0.363602 0.793943 0.189253
0.367537 0.793285 0.189178
0.371808 0.794020 0.189364
0.376039 0.794525 0.189508
0.380287 0.795041 0.189655
0.384108 0.793828 0.189479
0.388523 0.794916 0.189734
0.392025 0.792476 0.189329
0.396179 0.792512 0.189388
0.400027 0.791397 0.189232
0.404033 0.790856 0.189184
0.409358 0.794922 0.190003
0.414850 0.799391 0.190899
0.418302 0.796761 0.190461
0.422542 0.796812 0.190528
0.426650 0.796395 0.190508
0.430742 0.795905 0.190475
0.435622 0.797893 0.190909
0.439901 0.797913 0.190974
0.444377 0.798500 0.191147
0.449158 0.799957 0.191484
0.453457 0.799903 0.191538
0.457670 0.799564 0.191539
0.461729 0.798759 0.191454
0.465858 0.798144 0.191405
0.470335 0.798481 0.191537
0.474151 0.796958 0.191318
0.478581 0.797108 0.191417
0.482946 0.797047 0.191478
0.487635 0.797804 0.191694
0.492023 0.797722 0.191753
0.496577 0.798034 0.191888
0.501662 0.799646 0.192271
0.505654 0.798447 0.192123
0.510646 0.799709 0.192443
0.516194 0.802247 0.193007
0.521988 0.805273 0.193666
0.525573 0.802955 0.193311
0.528887 0.800024 0.192842
0.533853 0.800941 0.193105
0.538777 0.801696 0.193340
0.546338 0.808322 0.194696
0.549835 0.805719 0.194295
0.554062 0.804742 0.194207
0.558296 0.803760 0.194119
0.562509 0.802715 0.194021
0.567984 0.804318 0.194432
0.572471 0.803777 0.194435
0.580828 0.811192 0.195962
0.581569 0.802854 0.194478
0.590204 0.810574 0.196071
0.597641 0.815684 0.197168
0.601776 0.814126 0.196990
0.604878 0.810544 0.196426
0.607568 0.806198 0.195717
0.615064 0.811049 0.196778
0.623365 0.817253 0.198104
0.629172 0.818627 0.198504
0.629377 0.809612 0.196906
0.641249 0.821967 0.199431
0.646168 0.821485 0.199485
0.649844 0.818747 0.199106
0.651173 0.811879 0.197930
0.654757 0.809030 0.197534
0.658496 0.806450 0.197192
0.665637 0.809664 0.197978
0.671726 0.810976 0.198400
0.678080 0.812642 0.198894
0.682902 0.811682 0.198882
0.694020 0.820956 0.200869
0.699097 0.820215 0.200909
0.703465 0.818291 0.200723
0.712443 0.823632 0.201960
0.717978 0.823409 0.202115
0.724078 0.823996 0.202433
0.729224 0.823041 0.202453
0.735523 0.823786 0.202811
0.743065 0.826312 0.203524
0.748938 0.826237 0.203731
0.756247 0.828206 0.204345
0.764523 0.831470 0.205221
0.768941 0.829043 0.204976
0.767737 0.818582 0.203143
0.770592 0.813993 0.202472
0.776965 0.814340 0.202784
0.786403 0.818850 0.203929
0.793147 0.819517 0.204314
0.801494 0.822277 0.205120
0.809445 0.824389 0.205801
0.809745 0.816244 0.204432
0.813939 0.813319 0.204107
0.825627 0.820146 0.205741
0.830120 0.817521 0.205480
0.837366 0.818409 0.205925
0.842144 0.816122 0.205730
0.850615 0.818457 0.206467
0.843214 0.793056 0.201844
0.850995 0.794627 0.202415
0.857879 0.795073 0.202755
0.863949 0.794532 0.202889
0.891263 0.819067 0.208132
0.901306 0.822964 0.209167
0.915673 0.831809 0.211209
0.922797 0.832203 0.211517
0.930274 0.833020 0.211901
0.940337 0.836775 0.212879
0.945612 0.835159 0.212743
0.951306 0.834087 0.212706
0.952859 0.828545 0.211735
-0.078974 0.761904 0.181245
-0.074608 0.759507 0.180806
-0.070997 0.759614 0.180820
-0.068182 0.762463 0.181332
-0.064185 0.761671 0.181164
-0.061097 0.764034 0.181570
-0.057136 0.763647 0.181461
-0.053297 0.763794 0.181445
-0.049729 0.765016 0.181620
-0.045568 0.764263 0.181425
-0.041846 0.765175 0.181532
-0.038049 0.765926 0.181605
-0.034164 0.766438 0.181629
-0.030286 0.767056 0.181669
-0.026353 0.767529 0.181679
-0.022665 0.769036 0.181877
-0.018745 0.769682 0.181914
-0.014904 0.770700 0.182018
-0.010893 0.771034 0.181995
-0.006770 0.770891 0.181884
-0.002724 0.771073 0.181832
0.001626 0.769844 0.181522
0.005383 0.771307 0.181705
0.009128 0.772866 0.181906
0.013302 0.772341 0.181726
0.017329 0.772482 0.181669
0.021398 0.772356 0.181565
0.025030 0.774493 0.181876
0.029358 0.772875 0.181502
0.033185 0.773911 0.181615
0.037098 0.774442 0.181637
0.041053 0.774675 0.181607
0.045149 0.773978 0.181410
0.049176 0.773599 0.181273
0.053149 0.773462 0.181183
0.056905 0.774698 0.181344
0.060746 0.775338 0.181399
0.064671 0.775337 0.181340
0.068646 0.774867 0.181198
0.072498 0.775228 0.181209
0.076329 0.775706 0.181244
0.080014 0.777354 0.181494
0.083874 0.777519 0.181477
0.087826 0.776763 0.181295
0.091676 0.776825 0.181263
0.095590 0.776167 0.181104
0.099334 0.777131 0.181241
0.103003 0.778955 0.181536
0.106767 0.779774 0.181650
0.110652 0.779083 0.181494
0.114428 0.779663 0.181570
0.118316 0.778651 0.181360
0.122089 0.779142 0.181424
0.125898 0.779043 0.181383
0.129701 0.778921 0.181340
0.133474 0.779281 0.181386
0.137298 0.778539 0.181235
0.141066 0.778866 0.181279
0.144774 0.780760 0.181608
0.148547 0.781137 0.181665
0.152375 0.779623 0.181382
0.156115 0.781112 0.181643
0.159861 0.782892 0.181958
0.163683 0.780496 0.181521
0.167433 0.783048 0.181979
0.171214 0.783831 0.182120
0.175004 0.782655 0.181907
0.178787 0.782480 0.181878
0.182571 0.782666 0.181915
0.186363 0.783168 0.182010
0.190164 0.783923 0.182153
0.193979 0.784926 0.182341
0.197789 0.785375 0.182431
0.201589 0.785296 0.182427
0.205391 0.785243 0.182429
0.209224 0.785918 0.182564
0.213119 0.787706 0.182901
0.216955 0.787980 0.182966
0.220732 0.787091 0.182821
0.224536 0.786726 0.182773
0.228291 0.785603 0.182588
0.232114 0.785571 0.182601
0.235922 0.785279 0.182569
0.239808 0.785953 0.182712
0.243625 0.785669 0.182683
0.247457 0.785547 0.182685
0.251332 0.785844 0.182763
0.255341 0.787421 0.183073
0.259222 0.787563 0.183125
0.263128 0.787872 0.183208
0.267066 0.788397 0.183331
0.271002 0.788808 0.183434
0.274884 0.788703 0.183444
0.278867 0.789359 0.183593
0.282910 0.790367 0.183807
0.286832 0.790380 0.183841
0.290568 0.789028 0.183628
0.294599 0.789739 0.183789
0.298579 0.790024 0.183875
0.302725 0.791309 0.184142
0.306789 0.791969 0.184297
0.310797 0.792207 0.184376
0.314666 0.791578 0.184298
0.318644 0.791562 0.184332
0.323033 0.793785 0.184773
0.326998 0.793562 0.184771
0.330890 0.792927 0.184694
0.334811 0.792436 0.184644
0.338729 0.791908 0.184588
0.342815 0.792192 0.184680
0.347070 0.793234 0.184911
0.351142 0.793335 0.184971
0.355394 0.794213 0.185173
0.359397 0.793907 0.185160
0.363366 0.793428 0.185116
0.367473 0.793524 0.185177
0.371745 0.794271 0.185358
0.376013 0.794933 0.185524
0.379927 0.794113 0.185420
0.384204 0.794720 0.185577
0.388245 0.794359 0.185558
0.392538 0.794926 0.185709
0.396531 0.794327 0.185648
0.400683 0.794296 0.185691
0.406440 0.799967 0.186778
0.409689 0.796600 0.186213
0.413577 0.795518 0.186066
0.417994 0.796233 0.186249
0.422352 0.796695 0.186386
0.426492 0.796393 0.186384
0.430485 0.795596 0.186292
0.435258 0.797262 0.186652
0.439999 0.798739 0.186979
0.444602 0.799714 0.187214
0.448871 0.799614 0.187254
0.452685 0.798132 0.187041
0.456976 0.798060 0.187087
0.461234 0.797858 0.187111
0.465908 0.798811 0.187348
0.469968 0.797984 0.187258
0.474089 0.797315 0.187199
0.478282 0.796826 0.187174
0.482914 0.797493 0.187363
0.487819 0.798823 0.187675
0.492118 0.798505 0.187685
0.496451 0.798250 0.187708
0.501243 0.799126 0.187941
0.506044 0.799964 0.188169
0.511253 0.801749 0.188573
0.515978 0.802271 0.188745
0.520410 0.802040 0.188780
0.524521 0.801017 0.188670
0.528774 0.800315 0.188621
0.533627 0.800977 0.188826
0.538478 0.801576 0.189021
0.544098 0.803852 0.189529
0.549697 0.805982 0.190012
0.553766 0.804662 0.189857
0.557993 0.803676 0.189767
0.562755 0.803817 0.189887
0.567304 0.803460 0.189917
0.571730 0.802812 0.189895
0.575895 0.801595 0.189770
0.580790 0.801852 0.189920
0.585277 0.801234 0.189911
0.592442 0.805925 0.190893
0.597220 0.805755 0.190972
0.602545 0.806608 0.191245
0.607182 0.806066 0.191260
0.611981 0.805795 0.191328
0.617276 0.806414 0.191566
0.621929 0.805773 0.191571
0.626792 0.805479 0.191643
0.631743 0.805301 0.191741
0.637747 0.806969 0.192188
0.644122 0.809204 0.192745
0.648694 0.808161 0.192690
0.655498 0.810972 0.193364
0.660480 0.810523 0.193427
0.665619 0.810293 0.193536
0.672289 0.812592 0.194125
0.677820 0.812879 0.194339
0.682621 0.811894 0.194316
0.693048 0.820057 0.196029
0.698167 0.819405 0.196078
0.701811 0.816342 0.195673
0.708925 0.818770 0.196314
0.717902 0.823999 0.197493
0.724359 0.825147 0.197901
0.727878 0.821696 0.197437
0.734330 0.822700 0.197827
0.740574 0.823302 0.198144
0.745952 0.822536 0.198203
0.753878 0.825463 0.198975
0.761844 0.828319 0.199738
0.766806 0.826717 0.199650
0.768533 0.820464 0.198670
0.773436 0.818753 0.198566
0.779205 0.818219 0.198692
0.785456 0.818296 0.198940
0.793278 0.820456 0.199594
0.802744 0.824736 0.200663
0.810129 0.826075 0.201166
0.813280 0.821701 0.200563
0.809210 0.807860 0.198116
0.813292 0.804853 0.197775
0.831095 0.819540 0.200888
0.838423 0.820521 0.201331
0.844629 0.820021 0.201484
0.851231 0.819985 0.201728
0.845894 0.805124 0.199058
0.845998 0.797197 0.197742
0.855571 0.800908 0.198712
0.858431 0.796452 0.198069
0.865784 0.797427 0.198493
0.882620 0.809579 0.201123
0.900329 0.822533 0.203913
0.911851 0.828087 0.205235
0.919828 0.829489 0.205727
0.932299 0.836010 0.207229
0.938817 0.835734 0.207371
0.945091 0.835235 0.207457
0.949688 0.832935 0.207172
0.957491 0.834258 0.207597
-0.077218 0.756817 0.176552
-0.074145 0.758432 0.176842
-0.070958 0.759896 0.177096
-0.067363 0.760243 0.177142
-0.063879 0.761123 0.177276
-0.060180 0.761452 0.177304
-0.056630 0.762438 0.177444
-0.052856 0.762806 0.177465
-0.048975 0.762923 0.177436
-0.045345 0.764044 0.177581
-0.041681 0.765176 0.177724
-0.037917 0.766055 0.177816
-0.034118 0.766901 0.177899
-0.030153 0.767199 0.177880
-0.026225 0.767697 0.177894
-0.022300 0.768259 0.177918
-0.018441 0.769136 0.177995
-0.014273 0.768769 0.177849
-0.010232 0.768933 0.177796
-0.006508 0.770485 0.177991
-0.002542 0.771005 0.178001
0.001591 0.770758 0.177874
0.005510 0.771474 0.177919
0.009480 0.771943 0.177921
0.013460 0.772336 0.177910
0.017579 0.771996 0.177770
0.021311 0.773590 0.177975
0.025676 0.771838 0.177586
0.029607 0.772298 0.177592
0.033632 0.772189 0.177499
0.037334 0.773869 0.177725
0.041208 0.774546 0.177775
0.045205 0.774428 0.177686
0.049271 0.773791 0.177507
0.053184 0.774027 0.177485
0.056993 0.774899 0.177578
0.060762 0.776025 0.177718
0.064737 0.775653 0.177595
0.068711 0.775174 0.177455
0.072602 0.775215 0.177409
0.076281 0.776886 0.177654
0.079986 0.778386 0.177871
0.083965 0.777511 0.177670
0.087925 0.776647 0.177474
0.091872 0.775737 0.177272
0.095627 0.776581 0.177381
0.099465 0.776541 0.177337
0.103272 0.776748 0.177338
0.106895 0.779059 0.177712
0.110587 0.780687 0.177968
0.114526 0.779163 0.177671
0.118407 0.778174 0.177469
0.122149 0.779045 0.177598
0.125913 0.779599 0.177672
0.129744 0.778983 0.177543
0.133630 0.777088 0.177190
0.137383 0.777572 0.177258
0.141141 0.777923 0.177304
0.144887 0.778612 0.177411
0.148579 0.781040 0.177826
0.152361 0.780994 0.177808
0.156181 0.779234 0.177489
0.159956 0.778917 0.177426
0.163715 0.779348 0.177496
0.167470 0.780532 0.177700
0.171235 0.781699 0.177903
0.175011 0.782394 0.178024
0.178792 0.782906 0.178115
0.182578 0.783350 0.178194
0.186369 0.783827 0.178281
0.190169 0.784535 0.178410
0.193976 0.785176 0.178528
0.197791 0.785852 0.178654
0.201594 0.785897 0.178670
0.205386 0.785600 0.178627
0.209175 0.785217 0.178571
0.213064 0.787027 0.178901
0.216935 0.788084 0.179100
0.220787 0.788582 0.179201
0.224463 0.786036 0.178768
0.228284 0.786026 0.178782
0.232090 0.785742 0.178749
0.235961 0.786322 0.178869
0.239745 0.785678 0.178774
0.243585 0.785725 0.178802
0.247436 0.785843 0.178843
0.251379 0.786870 0.179045
0.255211 0.786625 0.179024
0.259130 0.787197 0.179148
0.263010 0.787314 0.179193
0.266894 0.787398 0.179232
0.270950 0.788898 0.179522
0.274852 0.788975 0.179562
0.279099 0.791714 0.180072
0.282567 0.788293 0.179496
0.286609 0.789269 0.179696
0.290615 0.789885 0.179834
0.294416 0.789012 0.179709
0.298380 0.789227 0.179777
0.302630 0.791224 0.180161
0.306718 0.792050 0.180338
0.310698 0.792135 0.180385
0.314698 0.792285 0.180444
0.318590 0.791774 0.180387
0.322765 0.792817 0.180605
0.326912 0.793615 0.180780
0.330840 0.793183 0.180739
0.334519 0.791453 0.180468
0.338753 0.792546 0.180697
0.343002 0.793622 0.180924
0.346989 0.793359 0.180915
0.351085 0.793580 0.180992
0.355290 0.794251 0.181149
0.359421 0.794527 0.181236
0.363283 0.793579 0.181107
0.367368 0.793588 0.181148
0.371887 0.795376 0.181506
0.375671 0.794046 0.181311
0.379576 0.793220 0.181205
0.383779 0.793563 0.181308
0.387947 0.793720 0.181379
0.392661 0.795904 0.181810
0.396845 0.796003 0.181871
0.400941 0.795746 0.181870
0.405821 0.798267 0.182363
0.409738 0.797285 0.182234
0.413491 0.795735 0.182005
0.417858 0.796287 0.182150
0.422398 0.797365 0.182390
0.426628 0.797354 0.182437
0.430571 0.796389 0.182314
0.434717 0.796064 0.182306
0.439558 0.797882 0.182681
0.444466 0.799816 0.183078
0.448529 0.799101 0.183003
0.452424 0.797876 0.182838
0.456524 0.797259 0.182782
0.460994 0.797689 0.182914
0.465781 0.798974 0.183200
0.470006 0.798615 0.183193
0.474022 0.797657 0.183080
0.478318 0.797450 0.183102
0.483295 0.799041 0.183447
0.487931 0.799649 0.183618
0.492388 0.799742 0.183697
0.496832 0.799760 0.183765
0.501489 0.800284 0.183924
0.506351 0.801269 0.184167
0.511205 0.802171 0.184397
0.515816 0.802421 0.184512
0.519974 0.801541 0.184425
0.524135 0.800652 0.184338
0.528523 0.800277 0.184345
0.533727 0.801759 0.184687
0.538769 0.802794 0.184951
0.543302 0.802617 0.184998
0.548867 0.804699 0.185454
0.553206 0.803998 0.185411
0.557920 0.804084 0.185511
0.562591 0.804036 0.185589
0.567319 0.804066 0.185683
0.571853 0.803644 0.185698
0.576988 0.804432 0.185933
0.581169 0.803206 0.185807
0.586019 0.803316 0.185924
0.591315 0.804267 0.186196
0.596438 0.804807 0.186396
0.601975 0.806094 0.186734
0.607221 0.806742 0.186959
0.612567 0.807517 0.187210
0.618055 0.808492 0.187500
0.622466 0.807386 0.187415
0.627050 0.806572 0.187385
0.632107 0.806584 0.187509
0.637359 0.806894 0.187689
0.643017 0.807867 0.187994
0.649737 0.810635 0.188630
0.655140 0.810988 0.188829
0.660201 0.810688 0.188912
0.666291 0.812091 0.189310
0.672131 0.812981 0.189617
0.677351 0.812757 0.189724
0.683441 0.813913 0.190088
0.691249 0.817791 0.190957
0.696686 0.817690 0.191098
0.702599 0.818287 0.191372
0.706860 0.816188 0.191152
0.711185 0.814170 0.190950
0.717106 0.814601 0.191205
0.724506 0.817226 0.191869
0.731262 0.818750 0.192334
0.736572 0.818002 0.192383
0.742315 0.817844 0.192544
0.748839 0.818769 0.192911
0.755645 0.820018 0.193343
0.763825 0.823154 0.194131
0.768364 0.820956 0.193928
0.774174 0.820532 0.194059
0.779286 0.819071 0.194000
0.786691 0.820748 0.194532
0.793347 0.821296 0.194856
0.800639 0.822632 0.195331
0.808694 0.824902 0.195985
0.816187 0.826318 0.196482
0.820264 0.823150 0.196117
0.824884 0.820697 0.195887
0.839056 0.830562 0.197989
0.844821 0.829444 0.198015
0.848089 0.825145 0.197436
0.854760 0.825150 0.197674
0.857393 0.820113 0.196950
0.860520 0.815749 0.196350
0.876158 0.826662 0.198663
0.871492 0.812891 0.196258
0.871836 0.805348 0.195034
0.884652 0.812683 0.196655
0.901327 0.824404 0.199117
0.911656 0.828560 0.200123
0.919438 0.829729 0.200549
0.930283 0.834394 0.201641
0.938544 0.836094 0.202154
0.942838 0.833367 0.201802
0.947860 0.831544 0.201613
0.954062 0.831108 0.201680
-0.078821 0.762136 0.173732
-0.074513 0.759962 0.173348
-0.070818 0.759850 0.173317
-0.066949 0.759328 0.173207
-0.063633 0.760763 0.173432
-0.060412 0.762704 0.173739
-0.056667 0.763061 0.173763
-0.052668 0.762674 0.173650
-0.049020 0.763622 0.173765
-0.045367 0.764684 0.173896
-0.041435 0.764859 0.173866
-0.037815 0.766277 0.174049
-0.034032 0.767197 0.174142
-0.030167 0.767888 0.174192
-0.026123 0.767944 0.174128
-0.022428 0.769438 0.174313
-0.018310 0.769278 0.174207
-0.013996 0.768298 0.173958
-0.010129 0.769192 0.174034
-0.006338 0.770447 0.174172
-0.002413 0.771144 0.174213
0.001275 0.772934 0.174443
0.005303 0.773179 0.174406
0.009810 0.771090 0.173964
0.013714 0.771827 0.174014
0.017669 0.772289 0.174017
0.021913 0.771219 0.173755
0.025931 0.771231 0.173683
0.029789 0.772058 0.173753
0.033288 0.774882 0.174170
0.037573 0.773241 0.173816
0.041378 0.774294 0.173930
0.045486 0.773466 0.173721
0.049404 0.773708 0.173699
0.053234 0.774459 0.173767
0.056854 0.776600 0.174076
0.060683 0.777340 0.174145
0.064651 0.777037 0.174037
0.068683 0.776140 0.173829
0.072510 0.776687 0.173872
0.076279 0.777661 0.173990
0.080091 0.778259 0.174046
0.084088 0.777182 0.173815
0.087988 0.776821 0.173710
0.091948 0.775757 0.173487
0.095723 0.776366 0.173553
0.099549 0.776402 0.173522
0.103384 0.776255 0.173462
0.107212 0.776072 0.173398
0.111056 0.775598 0.173286
0.114559 0.779469 0.173921
0.118425 0.778662 0.173755
0.122248 0.778290 0.173667
0.126044 0.778210 0.173630
0.130000 0.775197 0.173092
0.133665 0.777170 0.173410
0.137369 0.778614 0.173640
0.141142 0.778672 0.173633
0.144935 0.778103 0.173521
0.148650 0.779676 0.173777
0.152371 0.781422 0.174065
0.156251 0.777114 0.173317
0.159991 0.777932 0.173449
0.163705 0.780951 0.173959
0.167471 0.781462 0.174041
0.171238 0.782423 0.174201
0.175014 0.783171 0.174327
0.178792 0.782711 0.174247
0.182578 0.783596 0.174398
0.186375 0.784645 0.174579
0.190170 0.785002 0.174642
0.193963 0.785058 0.174656
0.197768 0.785516 0.174739
0.201597 0.786511 0.174915
0.205382 0.785990 0.174833
0.209167 0.785540 0.174764
0.213021 0.786613 0.174958
0.216891 0.787768 0.175166
0.220676 0.787135 0.175069
0.224431 0.786038 0.174893
0.228333 0.787305 0.175124
0.232190 0.787713 0.175208
0.235956 0.786800 0.175066
0.239796 0.786856 0.175092
0.243577 0.786165 0.174990
0.247420 0.786200 0.175014
0.251261 0.786152 0.175024
0.255195 0.787004 0.175190
0.259131 0.787745 0.175337
0.263012 0.787865 0.175378
0.266905 0.788035 0.175429
0.270670 0.787043 0.175281
0.274475 0.786420 0.175197
0.278889 0.790591 0.175936
0.282581 0.788929 0.175675
0.286204 0.786832 0.175340
0.290478 0.789442 0.175813
0.294330 0.788948 0.175754
0.298205 0.788592 0.175720
0.302488 0.790838 0.176133
0.306539 0.791462 0.176268
0.310605 0.792095 0.176405
0.314700 0.792821 0.176559
0.318594 0.792320 0.176502
0.322657 0.792741 0.176604
0.326863 0.793875 0.176830
0.330393 0.791348 0.176426
0.334299 0.790837 0.176370
0.338530 0.791947 0.176592
0.343069 0.794466 0.177059
0.346620 0.792117 0.176687
0.350651 0.792070 0.176713
0.355311 0.794864 0.177228
0.359303 0.794517 0.177203
0.362972 0.792738 0.176931
0.366974 0.792420 0.176912
0.371410 0.793896 0.177202
0.375165 0.792486 0.176995
0.379027 0.791528 0.176867
0.383427 0.792687 0.177105
0.387742 0.793441 0.177273
0.392184 0.794610 0.177513
0.396787 0.796301 0.177845
0.400869 0.795995 0.177832
0.404939 0.795626 0.177808
0.408992 0.795175 0.177772
0.413362 0.795801 0.177921
0.417467 0.795474 0.177907
0.422411 0.797919 0.178373
0.426449 0.797281 0.178306
0.430548 0.796827 0.178272
0.434802 0.796846 0.178320
0.439541 0.798344 0.178626
0.444031 0.798996 0.178785
0.448084 0.798272 0.178708
0.452312 0.798062 0.178719
0.456350 0.797264 0.178630
0.460989 0.798195 0.178841
0.465814 0.799589 0.179134
0.469940 0.798951 0.179075
0.473427 0.796536 0.178708
0.478952 0.799696 0.179311
0.483193 0.799293 0.179296
0.487488 0.799007 0.179302
0.492174 0.799713 0.179482
0.496762 0.800113 0.179610
0.501311 0.800366 0.179713
0.505311 0.799204 0.179572
0.510228 0.800299 0.179824
0.514878 0.800677 0.179954
0.519353 0.800590 0.180003
0.523688 0.800134 0.179989
0.528742 0.801333 0.180266
0.533186 0.801055 0.180287
0.538148 0.801927 0.180510
0.543111 0.802739 0.180724
0.547953 0.803222 0.180883
0.553064 0.804245 0.181137
0.558014 0.804850 0.181321
0.562724 0.804883 0.181406
0.567000 0.803955 0.181325
0.572176 0.804889 0.181572
0.577028 0.805087 0.181692
0.580779 0.802985 0.181410
0.584939 0.801712 0.181275
0.590115 0.802452 0.181497
0.595772 0.804077 0.181876
0.600954 0.804691 0.182080
0.606456 0.805861 0.182385
0.613275 0.809465 0.183122
0.618177 0.809324 0.183201
0.622386 0.807842 0.183046
0.626957 0.807009 0.183008
0.632193 0.807353 0.183180
0.637339 0.807476 0.183316
0.643203 0.808819 0.183672
0.649793 0.811360 0.184243
0.654566 0.810618 0.184235
0.659160 0.809526 0.184168
0.665235 0.810927 0.184547
0.671767 0.813012 0.185051
0.676925 0.812695 0.185131
0.682496 0.813005 0.185326
0.689486 0.815570 0.185927
0.695681 0.816729 0.186282
0.701294 0.816868 0.186458
0.707129 0.817290 0.186688
0.711869 0.815920 0.186601
0.717703 0.816210 0.186815
0.723480 0.816339 0.187004
0.729994 0.817518 0.187385
0.735917 0.817715 0.187594
0.741953 0.818008 0.187823
0.747719 0.817826 0.187971
0.753137 0.817072 0.188019
0.761101 0.819940 0.188726
0.767397 0.820295 0.188982
0.773517 0.820326 0.189183
0.780024 0.820830 0.189474
0.786942 0.821825 0.189857
0.792568 0.820961 0.189905
0.798220 0.820083 0.189953
0.807315 0.823789 0.190840
0.814216 0.824438 0.191173
0.819598 0.823014 0.191128
0.824463 0.820887 0.190956
0.832242 0.822511 0.191472
0.838958 0.822694 0.191725
0.848241 0.826077 0.192567
0.854495 0.825557 0.192692
0.860247 0.824385 0.192696
0.870176 0.828340 0.193644
0.876286 0.827545 0.193714
0.880454 0.824405 0.193346
0.888281 0.825682 0.193792
0.897369 0.828422 0.194506
0.907362 0.832174 0.195405
0.914299 0.832318 0.195627
0.920427 0.831547 0.195672
0.930969 0.835850 0.196656
0.936211 0.834120 0.196506
0.941583 0.832608 0.196386
0.946330 0.830478 0.196140
0.949880 0.827122 0.195653
-0.076823 0.756290 0.168964
-0.076910 0.767874 0.170930
-0.069800 0.756995 0.169065
-0.066394 0.757949 0.169206
-0.063547 0.760921 0.169685
-0.060910 0.764834 0.170317
-0.057777 0.767322 0.170700
-0.053506 0.766080 0.170444
-0.049464 0.765711 0.170330
-0.045374 0.765256 0.170198
-0.041367 0.765178 0.170125
-0.037515 0.765743 0.170158
-0.034543 0.769732 0.170768
-0.030096 0.768229 0.170444
-0.026384 0.769603 0.170605
-0.022780 0.771496 0.170852
-0.018793 0.771915 0.170847
-0.014255 0.770049 0.170455
-0.010998 0.773591 0.170977
-0.007594 0.776640 0.171414
-0.003425 0.776375 0.171291
0.001009 0.774855 0.170956
0.005055 0.775050 0.170911
0.009087 0.775279 0.170873
0.012867 0.776722 0.171040
0.016376 0.779551 0.171441
0.021372 0.774748 0.170559
0.025294 0.775352 0.170588
0.029236 0.775814 0.170595
0.033089 0.776729 0.170679
0.037073 0.776865 0.170634
0.040896 0.777896 0.170741
0.045255 0.775610 0.170294
0.049511 0.773753 0.169920
0.053401 0.774086 0.169916
0.056877 0.777170 0.170375
0.060767 0.777477 0.170370
0.064700 0.777406 0.170304
0.068491 0.778305 0.170402
0.072473 0.777696 0.170250
0.076272 0.778430 0.170324
0.080197 0.778074 0.170218
0.084005 0.778629 0.170267
0.087598 0.781117 0.170640
0.091526 0.780522 0.170501
0.095169 0.782655 0.170819
0.099366 0.779044 0.170179
0.103376 0.777044 0.169811
0.107101 0.778078 0.169951
0.110868 0.778624 0.170011
0.114591 0.779738 0.170168
0.118156 0.783151 0.170710
0.121685 0.787504 0.171410
0.125295 0.791116 0.171988
0.129313 0.788034 0.171453
0.133258 0.785694 0.171042
0.137165 0.783630 0.170679
0.141041 0.781714 0.170343
0.144916 0.779305 0.169927
0.148567 0.782855 0.170504
0.152303 0.784527 0.170770
0.155897 0.792688 0.172117
0.159642 0.796860 0.172802
0.163657 0.785001 0.170819
0.167444 0.784972 0.170808
0.171220 0.786784 0.171104
0.175014 0.788316 0.171354
0.178832 0.792471 0.172043
0.182617 0.788409 0.171365
0.186378 0.785403 0.170864
0.190165 0.785282 0.170845
0.193947 0.784900 0.170783
0.197731 0.784725 0.170757
0.201554 0.785718 0.170926
0.205378 0.786437 0.171050
0.209313 0.789621 0.171587
0.213152 0.790004 0.171657
0.217227 0.794903 0.172481
0.220856 0.790913 0.171826
0.224634 0.789952 0.171675
0.228481 0.790147 0.171719
0.232422 0.791600 0.171972
0.236270 0.791566 0.171979
0.240032 0.790399 0.171798
0.243654 0.787637 0.171352
0.247308 0.785485 0.171008
0.251243 0.786498 0.171193
0.255220 0.787803 0.171426
0.259332 0.790248 0.171851
0.263184 0.790007 0.171828
0.267091 0.790230 0.171884
0.270863 0.789231 0.171736
0.274607 0.788039 0.171557
0.278762 0.790126 0.171925
0.282428 0.788302 0.171642
0.286313 0.788168 0.171641
0.290186 0.787904 0.171619
0.294330 0.789481 0.171905
0.298500 0.791081 0.172195
0.302828 0.793551 0.172631
0.306618 0.792483 0.172477
0.310351 0.791087 0.172269
0.314273 0.790837 0.172252
0.318649 0.793154 0.172665
0.322796 0.794034 0.172838
0.326748 0.793771 0.172821
0.330394 0.791873 0.172531
0.334495 0.792363 0.172640
0.338616 0.792894 0.172757
0.342488 0.792143 0.172660
0.345930 0.789332 0.172219
0.350288 0.790893 0.172509
0.354913 0.793562 0.172986
0.358486 0.791382 0.172651
0.362809 0.792539 0.172876
0.366992 0.793007 0.172985
0.371134 0.793253 0.173058
0.375001 0.792324 0.172935
0.378992 0.791893 0.172895
0.383323 0.792788 0.173078
0.387761 0.794022 0.173319
0.391666 0.793159 0.173209
0.396525 0.795839 0.173693
0.401432 0.798559 0.174185
0.404940 0.796137 0.173814
0.409366 0.796997 0.173995
0.413308 0.796124 0.173885
0.417593 0.796408 0.173971
0.421279 0.794654 0.173714
0.426205 0.796990 0.174146
0.430173 0.796127 0.174040
0.434913 0.797707 0.174346
0.439562 0.798922 0.174591
0.443876 0.799033 0.174651
0.448354 0.799604 0.174790
0.452304 0.798552 0.174656
0.456379 0.797864 0.174584
0.460459 0.797179 0.174513
0.465728 0.799860 0.175010
0.469736 0.798898 0.174895
0.474732 0.800655 0.175238
0.478170 0.798090 0.174854
0.483191 0.799808 0.175193
0.487403 0.799304 0.175158
0.491696 0.798990 0.175156
0.496753 0.800614 0.175483
0.500716 0.799385 0.175329
0.505051 0.799082 0.175332
0.510012 0.800295 0.175593
0.515052 0.801634 0.175876
0.519142 0.800617 0.175763
0.524123 0.801702 0.176006
0.528556 0.801439 0.176022
0.533379 0.802044 0.176188
0.538058 0.802267 0.176289
0.542380 0.801640 0.176248
0.546826 0.801263 0.176251
0.552595 0.803766 0.176745
0.557935 0.805233 0.177064
0.562445 0.804843 0.177070
0.566907 0.804318 0.177055
0.571423 0.803876 0.177055
0.576191 0.803922 0.177140
0.581111 0.804231 0.177272
0.584588 0.801573 0.176900
0.589962 0.802720 0.177179
0.596054 0.805212 0.177690
0.600911 0.805188 0.177774
0.606662 0.806844 0.178146
0.611245 0.806183 0.178126
0.616697 0.807125 0.178382
0.621678 0.807119 0.178478
0.626317 0.806427 0.178459
0.631592 0.806862 0.178635
0.636520 0.806605 0.178696
0.642173 0.807594 0.178973
0.648947 0.810485 0.179580
0.653770 0.809850 0.179584
0.658357 0.808764 0.179513
0.664291 0.809943 0.179836
0.671645 0.813441 0.180561
0.676999 0.813457 0.180689
0.681862 0.812600 0.180670
0.688091 0.813935 0.181033
0.694421 0.815342 0.181411
0.699144 0.814080 0.181331
0.704682 0.814072 0.181472
0.711024 0.815260 0.181824
0.718009 0.817357 0.182337
0.723600 0.817199 0.182462
0.728570 0.816032 0.182415
0.735358 0.817558 0.182840
0.741951 0.818693 0.183201
0.747212 0.817772 0.183207
0.752435 0.816744 0.183197
0.758697 0.817168 0.183445
0.766560 0.819805 0.184084
0.772487 0.819577 0.184225
0.779122 0.820278 0.184531
0.785893 0.821087 0.184860
0.792491 0.821573 0.185136
0.799666 0.822769 0.185539
0.806554 0.823490 0.185862
0.813442 0.824134 0.186174
0.819097 0.823080 0.186187
0.824466 0.821617 0.186129
0.829765 0.820036 0.186051
0.838407 0.822716 0.186730
0.846130 0.824131 0.187186
0.854115 0.825805 0.187688
0.860779 0.825768 0.187885
0.869492 0.828220 0.188526
0.876572 0.828610 0.188797
0.883333 0.828587 0.188992
0.890498 0.829035 0.189268
0.898392 0.830331 0.189692
0.906460 0.831810 0.190145
0.913966 0.832617 0.190472
0.919938 0.831660 0.190475
0.926138 0.831005 0.190524
0.933204 0.831375 0.190751
0.940576 0.832121 0.191038
0.946211 0.830974 0.190972
0.948652 0.826381 0.190271
-0.087617 0.790116 0.170820
-0.079712 0.777063 0.168651
-0.072157 0.764910 0.166625
-0.066195 0.757712 0.165412
-0.066386 0.770705 0.167532
-0.063751 0.774799 0.168174
-0.058981 0.771898 0.167654
-0.052814 0.764181 0.166333
-0.049281 0.765580 0.166514
-0.045332 0.765639 0.166469
-0.041293 0.765452 0.166380
-0.037507 0.766280 0.166454
-0.034258 0.769232 0.166876
-0.031608 0.774668 0.167704
-0.027702 0.775409 0.167755
-0.023211 0.773851 0.167427
-0.018335 0.770662 0.166829
-0.014169 0.770326 0.166699
-0.010683 0.772887 0.167045
-0.007505 0.776907 0.167630
-0.004042 0.779810 0.168031
0.000725 0.776827 0.167466
0.005387 0.774164 0.166954
0.009394 0.774481 0.166932
0.012703 0.778215 0.167469
0.015642 0.783962 0.168337
0.019734 0.783955 0.168264
0.024884 0.778229 0.167257
0.029085 0.777334 0.167042
0.033157 0.777037 0.166927
0.037441 0.775422 0.166598
0.041163 0.776993 0.166790
0.045142 0.776995 0.166728
0.049691 0.773297 0.166066
0.053500 0.774129 0.166143
0.057086 0.776439 0.166463
0.061017 0.776410 0.166404
0.064919 0.776494 0.166365
0.068763 0.776941 0.166386
0.072586 0.777494 0.166427
0.076432 0.777815 0.166433
0.080276 0.778087 0.166432
0.084083 0.778617 0.166474
0.087258 0.784916 0.167456
0.090756 0.788595 0.168013
0.095125 0.783763 0.167191
0.099154 0.781941 0.166859
0.102901 0.782989 0.166995
0.106644 0.784114 0.167145
0.110594 0.782705 0.166885
0.114418 0.782684 0.166853
0.118086 0.784784 0.167166
0.121738 0.787347 0.167555
0.125845 0.782773 0.166790
0.129388 0.787337 0.167507
0.133203 0.787378 0.167492
0.137176 0.784020 0.166929
0.141246 0.777510 0.165858
0.144861 0.781359 0.166464
0.148546 0.784102 0.166893
0.152165 0.789964 0.167828
0.155920 0.792335 0.168199
0.159763 0.791175 0.168001
0.163664 0.785098 0.167008
0.167428 0.787135 0.167329
0.171189 0.793488 0.168349
0.175009 0.797809 0.169042
0.178835 0.793929 0.168410
0.182648 0.792560 0.168185
0.186369 0.785369 0.167020
0.190148 0.784947 0.166950
0.193922 0.784448 0.166869
0.197720 0.784907 0.166944
0.201521 0.785291 0.167008
0.205337 0.785923 0.167113
0.209366 0.791495 0.168018
0.213480 0.797694 0.169025
0.217332 0.797564 0.169010
0.221275 0.799027 0.169253
0.224929 0.795427 0.168678
0.228684 0.793838 0.168429
0.232473 0.792902 0.168287
0.236520 0.795499 0.168717
