ply
format ascii 1.0
comment ---
element vertex 1682
property float x
property float y
property float z
element face 0
property list uchar uint vertex_indices
end_header
0.384962 0.793579 -0.334965
0.390247 0.794637 -0.334948
0.395515 0.795410 -0.334867
0.400576 0.794422 -0.334395
0.407456 0.807388 -0.337018
0.413549 0.813558 -0.338130
0.417229 0.802007 -0.335315
0.421476 0.795071 -0.333527
0.426801 0.795718 -0.333416
0.432797 0.800590 -0.334237
0.440474 0.815648 -0.337301
0.446012 0.816710 -0.337276
0.449608 0.806154 -0.334695
0.454978 0.806309 -0.334471
0.460609 0.807829 -0.334547
0.467144 0.814111 -0.335665
0.472900 0.815855 -0.335787
0.477764 0.812817 -0.334861
0.484152 0.817519 -0.335628
0.488159 0.810207 -0.333769
0.493604 0.810054 -0.333474
0.498146 0.805592 -0.332240
0.502931 0.802360 -0.331276
0.507528 0.798340 -0.330141
0.513218 0.799192 -0.330065
0.518725 0.799133 -0.329790
0.524617 0.800606 -0.329847
0.532797 0.811305 -0.331898
0.537904 0.809141 -0.331164
0.543382 0.808435 -0.330744
0.550147 0.812633 -0.331382
0.555423 0.810957 -0.330752
0.562438 0.815710 -0.331504
0.569124 0.819007 -0.331941
0.574111 0.816038 -0.331031
0.578120 0.809682 -0.329394
0.584456 0.811491 -0.329509
0.591940 0.817051 -0.330425
0.599507 0.822630 -0.331341
0.605254 0.822030 -0.330935
0.611243 0.822182 -0.330689
0.614185 0.812689 -0.328388
0.617184 0.803657 -0.326190
0.623747 0.805766 -0.326362
0.628879 0.803503 -0.325606
0.634025 0.801352 -0.324874
0.640785 0.803969 -0.325151
0.651439 0.817666 -0.327770
0.659530 0.823764 -0.328778
0.663908 0.819426 -0.327581
0.674829 0.833170 -0.330196
0.673402 0.813305 -0.325734
0.682810 0.822892 -0.327471
0.691202 0.829655 -0.328612
0.700987 0.839955 -0.330492
0.708258 0.843698 -0.330995
0.710378 0.834508 -0.328793
0.715997 0.834414 -0.328497
-0.567984 0.739081 -0.377410
-0.567354 0.747316 -0.379298
-0.560881 0.748435 -0.379216
-0.552859 0.747685 -0.378615
-0.545791 0.748214 -0.378360
-0.537745 0.747548 -0.377773
-0.529711 0.746934 -0.377196
-0.525636 0.751565 -0.378049
-0.519343 0.753363 -0.378124
-0.510292 0.751508 -0.377200
-0.504769 0.754414 -0.377570
-0.496586 0.753731 -0.376962
-0.484990 0.748294 -0.375066
-0.482172 0.755010 -0.376464
-0.474884 0.755518 -0.376179
-0.469824 0.759185 -0.376747
-0.462179 0.759153 -0.376317
-0.455034 0.759801 -0.376071
-0.445627 0.757072 -0.374919
-0.439434 0.759011 -0.375023
-0.433632 0.761518 -0.375281
-0.426075 0.761336 -0.374820
-0.418597 0.761198 -0.374374
-0.411153 0.761035 -0.373923
-0.404126 0.761443 -0.373629
-0.395476 0.759200 -0.372631
-0.389561 0.761219 -0.372771
-0.382341 0.761078 -0.372340
-0.376306 0.762796 -0.372404
-0.369526 0.763227 -0.372130
-0.361743 0.761897 -0.371394
-0.354859 0.761977 -0.371034
-0.348329 0.762579 -0.370814
-0.341982 0.763426 -0.370662
-0.335577 0.764103 -0.370468
-0.327990 0.762610 -0.369708
-0.323018 0.765694 -0.370151
-0.317167 0.767170 -0.370173
-0.310533 0.767153 -0.369808
-0.304523 0.768215 -0.369728
-0.297932 0.768126 -0.369350
-0.291508 0.768270 -0.369035
-0.285624 0.769379 -0.368974
-0.279377 0.769726 -0.368717
-0.272038 0.767851 -0.367886
-0.265998 0.768445 -0.367699
-0.260618 0.770311 -0.367843
-0.254556 0.770753 -0.367620
-0.247830 0.769759 -0.367029
-0.241487 0.769471 -0.366623
-0.235255 0.769341 -0.366260
-0.229563 0.770297 -0.366178
-0.222232 0.767646 -0.365172
-0.217063 0.769617 -0.365355
-0.211244 0.770126 -0.365164
-0.205457 0.770653 -0.364980
-0.200689 0.773460 -0.365380
-0.196209 0.776945 -0.365953
-0.193946 0.785664 -0.367861
-0.188289 0.786482 -0.367752
-0.178028 0.776166 -0.364813
-0.170665 0.772587 -0.363594
-0.165376 0.773990 -0.363642
-0.160165 0.775570 -0.363736
-0.155890 0.779521 -0.364432
-0.155991 0.794820 -0.367997
-0.150407 0.795618 -0.367890
-0.142783 0.790972 -0.366411
-0.134337 0.783920 -0.364329
-0.124806 0.773646 -0.361442
-0.119547 0.774864 -0.361451
-0.115512 0.779512 -0.362324
-0.110002 0.780040 -0.362160
-0.104782 0.781373 -0.362200
-0.097739 0.777327 -0.360893
-0.091428 0.775298 -0.360093
-0.086132 0.776243 -0.360039
-0.080108 0.774920 -0.359420
-0.074109 0.773589 -0.358800
-0.070302 0.779168 -0.359903
-0.067999 0.789780 -0.362256
-0.059284 0.779523 -0.359417
-0.053764 0.779602 -0.359151
-0.048452 0.780354 -0.359053
-0.043016 0.780655 -0.358844
-0.037353 0.780122 -0.358428
-0.034011 0.787908 -0.360071
-0.031803 0.800116 -0.362802
-0.025988 0.799223 -0.362295
-0.018587 0.792183 -0.360275
-0.012953 0.791713 -0.359877
-0.009482 0.799786 -0.361580
-0.004281 0.801126 -0.361626
0.003352 0.792390 -0.359199
0.007603 0.797565 -0.360188
0.015203 0.788422 -0.357668
0.021792 0.783306 -0.356139
0.027271 0.782935 -0.355772
0.032636 0.783029 -0.355520
0.037662 0.784690 -0.355651
0.042933 0.785200 -0.355500
0.046805 0.792656 -0.357040
0.053056 0.788298 -0.355706
0.059203 0.784215 -0.354441
0.064655 0.783604 -0.354020
0.069520 0.786156 -0.354367
0.074490 0.788206 -0.354592
0.076849 0.805583 -0.358522
0.081706 0.808912 -0.359050
0.088647 0.799474 -0.356497
0.094346 0.797334 -0.355708
0.098292 0.806577 -0.357661
0.104203 0.802976 -0.356521
0.109117 0.806110 -0.357002
0.114010 0.809568 -0.357559
0.121350 0.794665 -0.353712
0.126850 0.793050 -0.353056
0.132401 0.790819 -0.352253
0.138119 0.786925 -0.351055
0.143596 0.784779 -0.350277
0.148688 0.785945 -0.350290
0.153966 0.785360 -0.349886
0.159032 0.786802 -0.349965
0.163844 0.791058 -0.350713
0.168696 0.795256 -0.351445
0.174134 0.792835 -0.350605
0.179692 0.788501 -0.349313
0.184948 0.787615 -0.348840
0.190131 0.787578 -0.348569
0.194486 0.800380 -0.351333
0.198555 0.819983 -0.355697
0.203873 0.819994 -0.355431
0.209350 0.816694 -0.354384
0.214552 0.818703 -0.354589
0.220103 0.812360 -0.352830
0.225633 0.804735 -0.350773
0.230831 0.805467 -0.350682
0.236077 0.804427 -0.350175
0.241361 0.800893 -0.349084
0.246657 0.794302 -0.347281
0.251772 0.797607 -0.347794
0.256931 0.798611 -0.347768
0.262115 0.790421 -0.345598
0.267240 0.790418 -0.345340
0.272364 0.790645 -0.345135
0.277480 0.790290 -0.344796
0.282640 0.792876 -0.345140
0.287967 0.802087 -0.347021
0.293098 0.800666 -0.346433
0.298032 0.793399 -0.344492
0.303045 0.790279 -0.343514
0.308272 0.793164 -0.343926
0.313509 0.795704 -0.344257
0.319381 0.810418 -0.347394
0.324394 0.806935 -0.346333
0.329007 0.797253 -0.343847
0.334137 0.797039 -0.343542
0.339350 0.798035 -0.343516
0.345078 0.805862 -0.345057
0.350684 0.811160 -0.346014
0.356247 0.815304 -0.346705
0.361616 0.816754 -0.346779
0.367167 0.819978 -0.347256
0.370298 0.798012 -0.341983
0.375878 0.802006 -0.342639
0.380230 0.794118 -0.340587
0.385384 0.794026 -0.340314
0.390636 0.794731 -0.340221
0.395750 0.794189 -0.339845
0.400909 0.793985 -0.339546
0.407423 0.804090 -0.341583
0.412909 0.805843 -0.341725
0.417093 0.798134 -0.339726
0.422008 0.795908 -0.338970
0.427249 0.795928 -0.338721
0.432684 0.797124 -0.338737
0.441250 0.817769 -0.343134
0.445603 0.811541 -0.341474
0.449997 0.805829 -0.339933
0.456483 0.812358 -0.341143
0.462971 0.818456 -0.342253
0.468234 0.817501 -0.341780
0.473680 0.817481 -0.341516
0.478777 0.815580 -0.340831
0.481230 0.800395 -0.337179
0.486292 0.798662 -0.336536
0.493039 0.804985 -0.337690
0.498280 0.803890 -0.337188
0.502683 0.798927 -0.335826
0.508053 0.798416 -0.335455
0.513701 0.799055 -0.335339
0.519434 0.799936 -0.335276
0.525395 0.801649 -0.335396
0.531954 0.805647 -0.336021
0.537371 0.804820 -0.335576
0.541987 0.800791 -0.334425
0.547391 0.799871 -0.333961
0.553082 0.799989 -0.333725
0.560648 0.806955 -0.334995
0.567505 0.811010 -0.335621
0.573181 0.810627 -0.335271
0.578023 0.807273 -0.334268
0.584544 0.809733 -0.334540
0.591459 0.813375 -0.335069
0.596131 0.809398 -0.333930
0.602582 0.811297 -0.334075
0.611261 0.820216 -0.335750
0.618901 0.825526 -0.336633
0.620123 0.810782 -0.333149
0.624129 0.804970 -0.331614
0.629602 0.803725 -0.331072
0.635651 0.804217 -0.330908
0.641730 0.804794 -0.330761
0.654598 0.824759 -0.334809
0.658928 0.820145 -0.333534
0.662552 0.813760 -0.331879
0.668077 0.812815 -0.331401
0.678962 0.810803 -0.330420
0.687384 0.817784 -0.331647
0.699861 0.835165 -0.335104
0.702916 0.828210 -0.333335
0.717239 0.849924 -0.337710
0.743082 0.899874 -0.348115
-0.571418 0.742383 -0.384577
-0.567297 0.746299 -0.385286
-0.559443 0.745682 -0.384712
-0.553443 0.747482 -0.384811
-0.545283 0.746621 -0.384156
-0.535788 0.744078 -0.383026
-0.532279 0.749345 -0.384076
-0.526408 0.751642 -0.384290
-0.517187 0.749558 -0.383277
-0.512633 0.753720 -0.384001
-0.501291 0.748765 -0.382187
-0.491618 0.745996 -0.380983
-0.491452 0.756320 -0.383406
-0.485276 0.758432 -0.383549
-0.475271 0.755151 -0.382202
-0.467909 0.755538 -0.381869
-0.463413 0.760025 -0.382666
-0.453893 0.757235 -0.381461
-0.448825 0.760889 -0.382028
-0.440157 0.759200 -0.381130
-0.433911 0.761054 -0.381206
-0.425079 0.758943 -0.380199
-0.419394 0.761553 -0.380485
-0.412995 0.763035 -0.380465
-0.403543 0.759671 -0.379128
-0.395388 0.758213 -0.378316
-0.388719 0.759026 -0.378123
-0.382565 0.760608 -0.378142
-0.376199 0.761792 -0.378056
-0.370021 0.763229 -0.378040
-0.360854 0.759593 -0.376659
-0.355083 0.761553 -0.376792
-0.348420 0.761937 -0.376502
-0.342168 0.762959 -0.376387
-0.336329 0.764641 -0.376452
-0.330252 0.765852 -0.376393
-0.324176 0.767007 -0.376322
-0.318331 0.768522 -0.376349
-0.311175 0.767581 -0.375724
-0.305102 0.768546 -0.375610
-0.297505 0.766586 -0.374720
-0.291146 0.766853 -0.374427
-0.284680 0.766839 -0.374062
-0.278876 0.768036 -0.374021
-0.271707 0.766495 -0.373257
-0.266269 0.768290 -0.373380
-0.260318 0.769017 -0.373222
-0.254856 0.770687 -0.373314
-0.248780 0.771054 -0.373066
-0.240967 0.767722 -0.371846
-0.234992 0.768131 -0.371614
-0.229466 0.769444 -0.371622
-0.224516 0.771973 -0.371950
-0.216517 0.767792 -0.370521
-0.211438 0.769941 -0.370753
-0.205889 0.771021 -0.370707
-0.201399 0.774484 -0.371283
-0.195973 0.775808 -0.371303
-0.192324 0.781272 -0.372401
-0.188630 0.786712 -0.373491
-0.179322 0.778720 -0.371092
-0.170910 0.772637 -0.369196
-0.165650 0.774127 -0.369266
-0.159525 0.773434 -0.368772
-0.155157 0.777133 -0.369416
-0.153720 0.788440 -0.372023
-0.149401 0.792478 -0.372751
-0.141493 0.787052 -0.371040
-0.134294 0.783324 -0.369771
-0.125955 0.776318 -0.367662
-0.120335 0.776594 -0.367429
-0.115485 0.778992 -0.367741
-0.111232 0.783119 -0.368496
-0.105060 0.781758 -0.367845
-0.097826 0.777178 -0.366374
-0.091026 0.773700 -0.365188
-0.085621 0.774309 -0.365047
-0.081314 0.778281 -0.365764
-0.075919 0.778923 -0.365632
-0.073189 0.788050 -0.367658
-0.069943 0.795765 -0.369322
-0.063110 0.791849 -0.368032
-0.054691 0.782422 -0.365349
-0.048280 0.779487 -0.364314
-0.042973 0.780245 -0.364217
-0.037497 0.780385 -0.363963
-0.032119 0.780842 -0.363791
-0.032107 0.801022 -0.368590
-0.027199 0.803566 -0.368939
-0.019641 0.796038 -0.366753
-0.014077 0.795942 -0.366440
-0.005359 0.783245 -0.362965
0.000072 0.783332 -0.362703
0.004984 0.785532 -0.362971
0.009018 0.791501 -0.364181
0.013226 0.796934 -0.365255
0.021366 0.785171 -0.362033
0.027044 0.783968 -0.361452
0.032375 0.784271 -0.361247
0.037679 0.784671 -0.361067
0.042495 0.787417 -0.361471
0.045752 0.798012 -0.363823
0.051515 0.796316 -0.363121
0.058582 0.787654 -0.360694
0.064263 0.785932 -0.359990
0.069727 0.785267 -0.359549
0.075043 0.785360 -0.359296
0.080407 0.785132 -0.358964
0.085507 0.786425 -0.359008
0.089493 0.794659 -0.360762
0.094122 0.799248 -0.361615
0.099154 0.801419 -0.361871
0.104283 0.803024 -0.361989
0.110602 0.796273 -0.360056
0.115547 0.799035 -0.360458
0.121119 0.797193 -0.359732
0.127133 0.791659 -0.358105
0.132164 0.793690 -0.358329
0.137882 0.789953 -0.357145
0.143564 0.786159 -0.355950
0.148768 0.786401 -0.355739
0.154002 0.786306 -0.355448
0.159329 0.785186 -0.354907
0.164010 0.790830 -0.356010
0.168808 0.795699 -0.356922
0.174419 0.791279 -0.355582
0.179899 0.787896 -0.354495
0.185130 0.787391 -0.354106
0.190250 0.788325 -0.354066
0.194550 0.802160 -0.357139
0.199577 0.805845 -0.357758
0.204599 0.810149 -0.358526
0.209597 0.815687 -0.359588
0.215221 0.808277 -0.357537
0.220400 0.810088 -0.357703
0.225721 0.808244 -0.356992
0.231163 0.801659 -0.355147
0.236291 0.804714 -0.355613
0.241584 0.801035 -0.354467
0.246880 0.794729 -0.352696
0.251975 0.800600 -0.353835
0.257170 0.799046 -0.353201
0.262360 0.790463 -0.350894
0.267490 0.790366 -0.350611
0.272618 0.790428 -0.350365
0.277743 0.790469 -0.350116
0.282917 0.793421 -0.350557
0.288168 0.798732 -0.351556
0.293298 0.797705 -0.351052
0.298186 0.789281 -0.348800
0.303298 0.789333 -0.348555
0.308508 0.791763 -0.348872
0.313900 0.797709 -0.350016
0.319236 0.801398 -0.350627
0.324631 0.805548 -0.351344
0.329531 0.800738 -0.349954
0.334617 0.799497 -0.349405
0.339577 0.796586 -0.348465
0.345062 0.801117 -0.349271
0.350933 0.809972 -0.351086
0.356632 0.815733 -0.352175
0.361951 0.816528 -0.352100
0.366181 0.805494 -0.349265
0.370582 0.797238 -0.347084
0.376802 0.807436 -0.349204
0.381231 0.799996 -0.347216
0.385687 0.793381 -0.345424
0.390832 0.793142 -0.345115
0.396057 0.793528 -0.344952
0.401294 0.793926 -0.344791
0.407204 0.799355 -0.345795
0.412970 0.803285 -0.346450
0.417658 0.799229 -0.345258
0.422309 0.795117 -0.344056
0.427726 0.796286 -0.344073
0.433702 0.800914 -0.344886
0.440920 0.812947 -0.347401
0.445677 0.809280 -0.346302
0.450493 0.806098 -0.345316
0.458225 0.819693 -0.348180
0.464609 0.824967 -0.349130
0.470251 0.825861 -0.349076
0.475392 0.823983 -0.348387
0.478968 0.814065 -0.345861
0.481693 0.800288 -0.342460
0.484183 0.785942 -0.338935
0.492595 0.800479 -0.341995
0.498793 0.803923 -0.342525
0.502834 0.797289 -0.340761
0.508629 0.798683 -0.340824
0.514366 0.799672 -0.340794
0.520021 0.800179 -0.340653
0.525995 0.801911 -0.340790
0.532012 0.803657 -0.340929
0.537145 0.801708 -0.340231
0.542374 0.800126 -0.339617
0.548042 0.800209 -0.339379
0.553548 0.799594 -0.338983
0.559213 0.799513 -0.338706
0.566865 0.806555 -0.340030
0.572811 0.807194 -0.339913
0.578717 0.807594 -0.339742
0.588287 0.820472 -0.342365
0.589960 0.806248 -0.338916
0.594664 0.802486 -0.337812
0.601205 0.804774 -0.338061
0.609778 0.813428 -0.339727
0.616748 0.816721 -0.340195
0.620804 0.810877 -0.338626
0.624882 0.805274 -0.337114
0.630417 0.804193 -0.336608
0.636398 0.804459 -0.336400
0.642496 0.805067 -0.336268
0.655227 0.824584 -0.340321
0.659343 0.819365 -0.338894
0.661960 0.810203 -0.336599
0.666051 0.805388 -0.335267
0.670671 0.802204 -0.334296
0.679925 0.811480 -0.336070
0.684575 0.808569 -0.335160
0.692772 0.814999 -0.336302
0.699694 0.818146 -0.336722
0.701122 0.807553 -0.334129
0.755844 0.929577 -0.360572
-0.575699 0.746715 -0.392096
-0.570947 0.749889 -0.392604
-0.561510 0.747324 -0.391454
-0.553105 0.746099 -0.390682
-0.545984 0.746564 -0.390390
-0.536220 0.743686 -0.389134
-0.530395 0.745937 -0.389341
-0.524502 0.748181 -0.389539
-0.518696 0.750613 -0.389785
-0.512952 0.753196 -0.390069
-0.502693 0.749722 -0.388629
-0.498477 0.754448 -0.389514
-0.493688 0.758469 -0.390195
-0.486026 0.758540 -0.389755
-0.474269 0.752803 -0.387678
-0.467961 0.754684 -0.387752
-0.460040 0.754238 -0.387170
-0.455263 0.758312 -0.387860
-0.446698 0.756843 -0.386994
-0.440626 0.758989 -0.387144
-0.433353 0.759310 -0.386784
-0.426260 0.759844 -0.386486
-0.418965 0.760005 -0.386087
-0.413241 0.762531 -0.386349
-0.406213 0.762988 -0.386037
-0.397969 0.761442 -0.385174
-0.392520 0.764266 -0.385525
-0.382376 0.759449 -0.383765
-0.376197 0.760942 -0.383755
-0.370015 0.762379 -0.383732
-0.363829 0.763753 -0.383694
-0.356630 0.763354 -0.383172
-0.350126 0.764049 -0.382954
-0.343367 0.764231 -0.382599
-0.337011 0.765037 -0.382418
-0.330635 0.765738 -0.382212
-0.324857 0.767443 -0.382283
-0.317521 0.766275 -0.381574
-0.312163 0.768625 -0.381826
-0.306074 0.769590 -0.381704
-0.296690 0.764304 -0.379887
-0.290906 0.765655 -0.379878
-0.284843 0.766420 -0.379712
-0.278449 0.766480 -0.379358
-0.273772 0.769845 -0.379900
-0.268794 0.772612 -0.380281
-0.260396 0.768475 -0.378803
-0.255005 0.770298 -0.378935
-0.249362 0.771573 -0.378922
-0.241956 0.769117 -0.377909
-0.236567 0.770802 -0.378010
-0.230200 0.770363 -0.377544
-0.223021 0.768080 -0.376588
-0.217648 0.769640 -0.376663
-0.211151 0.768675 -0.376065
-0.205647 0.769855 -0.376042
-0.201070 0.773121 -0.376576
-0.195987 0.775236 -0.376804
-0.193094 0.782480 -0.378395
-0.188498 0.785810 -0.378945
-0.181246 0.782776 -0.377810
-0.172048 0.774853 -0.375384
-0.165637 0.773545 -0.374714
-0.160165 0.774498 -0.374644
-0.153965 0.773573 -0.374079
-0.149422 0.776835 -0.374620
-0.143943 0.777689 -0.374527
-0.137473 0.775886 -0.373736
-0.132073 0.776859 -0.373678
-0.126609 0.777632 -0.373567
-0.121238 0.778634 -0.373518
-0.117329 0.783727 -0.374540
-0.113126 0.788088 -0.375370
-0.106153 0.784500 -0.374123
-0.099327 0.781182 -0.372949
-0.092767 0.778511 -0.371948
-0.086222 0.775749 -0.370925
-0.081079 0.777183 -0.370996
-0.076960 0.781832 -0.371903
-0.076074 0.796910 -0.375513
-0.069417 0.793720 -0.374382
-0.063318 0.792217 -0.373691
-0.056282 0.787469 -0.372163
-0.049476 0.783292 -0.370786
-0.043187 0.780720 -0.369826
-0.037366 0.779670 -0.369261
-0.032142 0.780691 -0.369231
-0.029891 0.792648 -0.372013
-0.023674 0.790149 -0.371076
-0.018402 0.791119 -0.371031
-0.013419 0.793214 -0.371276
-0.005593 0.784041 -0.368634
0.000493 0.781505 -0.367696
0.006017 0.781153 -0.367318
0.009079 0.791171 -0.369589
0.014306 0.792213 -0.369565
0.020979 0.786860 -0.367913
0.027209 0.783220 -0.366701
0.032505 0.783696 -0.366537
0.037708 0.784592 -0.366480
0.042058 0.789628 -0.367474
0.045088 0.801441 -0.370183
0.049434 0.807092 -0.371327
0.055978 0.801478 -0.369619
0.063052 0.792663 -0.367107
0.069466 0.786964 -0.365386
0.075321 0.784077 -0.364377
0.081024 0.781856 -0.363538
0.085575 0.786395 -0.364402
0.088332 0.802291 -0.368118
0.094191 0.799286 -0.367081
0.098881 0.803757 -0.367921
0.104799 0.800085 -0.366720
0.111767 0.788681 -0.363585
0.117444 0.785856 -0.362602
0.122558 0.787044 -0.362623
0.127361 0.790711 -0.363262
0.132419 0.792527 -0.363439
0.137966 0.790248 -0.362596
0.143670 0.786308 -0.361341
0.148880 0.786554 -0.361129
0.154131 0.786361 -0.360809
0.159549 0.784354 -0.360039
0.163991 0.792602 -0.361811
0.168725 0.798374 -0.362967
0.173670 0.802180 -0.363634
0.180035 0.788229 -0.359914
0.185187 0.788885 -0.359806
0.190250 0.790842 -0.360018
0.195227 0.794362 -0.360615
0.200438 0.794379 -0.360349
0.205778 0.791907 -0.359472
0.210992 0.791411 -0.359081
0.216133 0.792319 -0.359036
0.221335 0.791811 -0.358643
0.226438 0.793827 -0.358869
0.231406 0.800819 -0.360312
0.236490 0.805668 -0.361228
0.241681 0.807402 -0.361382
0.246993 0.802243 -0.359855
0.252234 0.798759 -0.358739
0.257414 0.799014 -0.358535
0.262607 0.790350 -0.356163
0.267742 0.790286 -0.355885
0.272881 0.791186 -0.355841
0.278014 0.791070 -0.355550
0.283205 0.794503 -0.356119
0.288481 0.800403 -0.357284
0.293582 0.797786 -0.356388
0.298506 0.790420 -0.354349
0.303589 0.789351 -0.353831
0.308769 0.790927 -0.353951
0.314176 0.797108 -0.355180
0.319453 0.799588 -0.355516
0.324721 0.801449 -0.355702
0.329976 0.802811 -0.355769
0.335069 0.801444 -0.355181
0.339924 0.796835 -0.353818
0.345316 0.800003 -0.354318
0.350958 0.805930 -0.355476
0.356761 0.813058 -0.356918
0.361805 0.810821 -0.356124
0.366489 0.804919 -0.354459
0.371711 0.805033 -0.354228
0.376342 0.799341 -0.352617
0.381898 0.802698 -0.353159
0.385881 0.791728 -0.350299
0.390965 0.790988 -0.349871
0.396264 0.792019 -0.349862
0.401630 0.793444 -0.349947
0.407615 0.799401 -0.351102
0.413179 0.801796 -0.351414
0.418249 0.800456 -0.350844
0.422591 0.794163 -0.349107
0.427937 0.794848 -0.349016
0.434200 0.801313 -0.350285
0.441296 0.812506 -0.352662
0.446723 0.812875 -0.352494
0.452075 0.812705 -0.352199
0.459121 0.822137 -0.354154
0.466232 0.831329 -0.356048
0.472574 0.835799 -0.356834
0.476876 0.829215 -0.355036
0.478786 0.810610 -0.350436
0.482569 0.802209 -0.348223
0.487683 0.800627 -0.347603
0.492555 0.797880 -0.346712
0.498702 0.801107 -0.347211
0.503648 0.798643 -0.346387
0.509311 0.799385 -0.346308
0.514951 0.799902 -0.346177
0.520565 0.800202 -0.345994
0.526917 0.803473 -0.346499
0.532519 0.803464 -0.346244
0.537383 0.800421 -0.345288
0.542701 0.799189 -0.344752
0.549042 0.801845 -0.345111
0.554569 0.801253 -0.344721
0.560151 0.800808 -0.344365
0.567256 0.805808 -0.345259
0.573230 0.806533 -0.345170
0.581430 0.814913 -0.346834
0.587020 0.813998 -0.346366
0.591345 0.808800 -0.344919
0.596555 0.806649 -0.344169
0.601951 0.805125 -0.343563
0.606766 0.801757 -0.342536
0.612150 0.800251 -0.341935
0.618822 0.802732 -0.342241
0.625133 0.804020 -0.342274
0.631180 0.804471 -0.342116
0.637669 0.806205 -0.342248
0.643679 0.806512 -0.342055
0.654595 0.820795 -0.345025
0.657374 0.811878 -0.342741
0.661540 0.807104 -0.341398
0.666090 0.803577 -0.340337
0.671285 0.801958 -0.339707
0.679853 0.809393 -0.341116
0.695811 0.836006 -0.346834
0.699818 0.831263 -0.345495
0.699282 0.815238 -0.341626
0.708730 0.824802 -0.343500
0.699467 0.787951 -0.334977
-0.566002 0.733803 -0.394614
-0.570088 0.747856 -0.398331
-0.567182 0.753476 -0.399554
-0.555232 0.747828 -0.397465
-0.547696 0.747787 -0.397013
-0.539208 0.746578 -0.396214
-0.533074 0.748461 -0.396311
-0.524991 0.747859 -0.395678
-0.518200 0.748989 -0.395544
-0.512314 0.751375 -0.395771
-0.506411 0.753794 -0.396002
-0.500285 0.755959 -0.396156
-0.493388 0.757092 -0.396008
-0.487010 0.758953 -0.396068
-0.474420 0.752066 -0.393608
-0.466834 0.752131 -0.393153
-0.460581 0.754075 -0.393238
-0.454910 0.756860 -0.393564
-0.446867 0.756159 -0.392892
-0.439987 0.757112 -0.392696
-0.434355 0.759894 -0.393023
-0.426584 0.759420 -0.392423
-0.419669 0.760176 -0.392176
-0.413070 0.761362 -0.392055
-0.405325 0.760698 -0.391412
-0.399019 0.762219 -0.391391
-0.393082 0.764284 -0.391526
-0.385019 0.762861 -0.390680
-0.375654 0.759188 -0.389205
-0.371677 0.764276 -0.390202
-0.364824 0.764571 -0.389853
-0.358587 0.765828 -0.389777
-0.350074 0.763126 -0.388595
-0.343698 0.763978 -0.388414
-0.338056 0.766049 -0.388577
-0.331100 0.765752 -0.388081
-0.324757 0.766461 -0.387870
-0.319062 0.768275 -0.387970
-0.312563 0.768573 -0.387651
-0.306156 0.768964 -0.387362
-0.297882 0.765776 -0.386084
-0.291388 0.765812 -0.385705
-0.285477 0.766889 -0.385617
-0.279290 0.767376 -0.385368
-0.274436 0.770416 -0.385827
-0.268665 0.771629 -0.385784
-0.261342 0.769666 -0.384870
-0.254833 0.769240 -0.384383
-0.248936 0.769994 -0.384223
-0.243129 0.770882 -0.384102
-0.237303 0.771682 -0.383959
-0.230686 0.770735 -0.383342
-0.224393 0.770398 -0.382894
-0.218351 0.770536 -0.382579
-0.213213 0.772623 -0.382797
-0.205255 0.768343 -0.381285
-0.200253 0.770633 -0.381563
-0.196232 0.775191 -0.382456
-0.193491 0.782804 -0.384176
-0.188049 0.784146 -0.384198
-0.180756 0.781012 -0.383011
-0.172584 0.775587 -0.381210
-0.166744 0.775721 -0.380913
-0.159754 0.772918 -0.379827
-0.153930 0.772945 -0.379506
-0.148547 0.774053 -0.379478
-0.143377 0.775694 -0.379594
-0.137260 0.774817 -0.379035
-0.131249 0.774148 -0.378535
-0.126631 0.777207 -0.379034
-0.125081 0.788806 -0.381814
-0.120973 0.793512 -0.382749
-0.114027 0.790209 -0.381549
-0.106106 0.783928 -0.379559
-0.099285 0.780637 -0.378369
-0.093353 0.779854 -0.377849
-0.087831 0.780246 -0.377642
-0.082152 0.780116 -0.377299
-0.077067 0.781800 -0.377437
-0.075587 0.795000 -0.380622
-0.070160 0.795791 -0.380521
-0.061132 0.784677 -0.377279
-0.055512 0.784574 -0.376947
-0.049586 0.783376 -0.376328
-0.043239 0.780628 -0.375303
-0.037222 0.778906 -0.374551
-0.031764 0.779091 -0.374301
-0.026577 0.780236 -0.374303
-0.021743 0.782704 -0.374653
-0.016752 0.784631 -0.374861
-0.011576 0.785863 -0.374887
-0.005481 0.783453 -0.373961
0.000967 0.779463 -0.372626
0.006246 0.780109 -0.372502
0.009634 0.788745 -0.374459
0.012777 0.798777 -0.376775
0.022295 0.781012 -0.371864
0.027181 0.783348 -0.372181
0.032694 0.782848 -0.371762
0.037957 0.783465 -0.371633
0.042173 0.789155 -0.372817
0.044630 0.803836 -0.376322
0.049168 0.808601 -0.377261
0.055919 0.801969 -0.375257
0.063023 0.793039 -0.372666
0.069566 0.786672 -0.370739
0.075203 0.785041 -0.370035
0.080526 0.785106 -0.369767
0.085746 0.785743 -0.369647
0.088839 0.799577 -0.372911
0.093802 0.802261 -0.373312
0.099362 0.801114 -0.372732
0.104721 0.801210 -0.372472
0.111763 0.789358 -0.369161
0.117396 0.786911 -0.368256
0.122683 0.786862 -0.367963
0.127729 0.788656 -0.368140
0.131658 0.799710 -0.370672
0.138311 0.788309 -0.367494
0.143915 0.785223 -0.366433
0.149024 0.786421 -0.366460
0.154146 0.787530 -0.366464
0.159217 0.789197 -0.366609
0.164253 0.791357 -0.366879
0.168928 0.797796 -0.368228
0.173884 0.801516 -0.368889
0.179070 0.802669 -0.368902
0.184722 0.797526 -0.367330
0.190288 0.792822 -0.365871
0.195685 0.789965 -0.364880
0.200936 0.789040 -0.364375
0.206138 0.788745 -0.364029
0.211354 0.787999 -0.363571
0.216516 0.788208 -0.363352
0.221662 0.788734 -0.363214
0.226853 0.787968 -0.362753
0.232001 0.788217 -0.362546
0.236820 0.801481 -0.365582
0.241898 0.808029 -0.366941
0.247183 0.805144 -0.365951
0.252440 0.801785 -0.364846
0.257686 0.794593 -0.362791
0.262857 0.789669 -0.361302
0.267992 0.789120 -0.360901
0.273151 0.792391 -0.361445
0.278311 0.793584 -0.361475
0.283486 0.795090 -0.361582
0.288709 0.798184 -0.362080
0.294097 0.806315 -0.363819
0.299223 0.803911 -0.362961
0.304160 0.796957 -0.360985
0.309234 0.794944 -0.360227
0.314360 0.794498 -0.359855
0.319604 0.796439 -0.360070
0.324853 0.798129 -0.360222
0.330076 0.799112 -0.360202
0.335308 0.800074 -0.360176
0.340264 0.796935 -0.359148
0.345327 0.795604 -0.358564
0.350815 0.799749 -0.359316
0.356379 0.804296 -0.360165
0.362047 0.809494 -0.361170
0.367685 0.813802 -0.361957
0.372689 0.811204 -0.361065
0.377418 0.806144 -0.359578
0.381280 0.793446 -0.356241
0.386114 0.790399 -0.355249
0.391254 0.790145 -0.354934
0.396591 0.791461 -0.354999
0.402112 0.794068 -0.355376
0.408859 0.805721 -0.357934
0.413715 0.802664 -0.356942
0.418288 0.797745 -0.355504
0.423015 0.794147 -0.354386
0.428115 0.793168 -0.353899
0.435508 0.806863 -0.356937
0.440752 0.806315 -0.356552
0.446647 0.809648 -0.357098
0.452936 0.815021 -0.358131
0.458182 0.814081 -0.357652
0.465838 0.826455 -0.360355
0.471902 0.829506 -0.360827
0.474671 0.815015 -0.357114
0.478509 0.806642 -0.354866
0.485456 0.814122 -0.356396
0.490468 0.811724 -0.355573
0.494673 0.805516 -0.353847
0.499076 0.800432 -0.352390
0.504323 0.799317 -0.351877
0.509598 0.798294 -0.351386
0.515364 0.799353 -0.351389
0.521023 0.799825 -0.351252
0.527774 0.804723 -0.352161
0.532202 0.799886 -0.350770
0.537236 0.797572 -0.349976
0.543241 0.799053 -0.350077
0.549606 0.801770 -0.350468
0.554850 0.800095 -0.349826
0.562473 0.807154 -0.351234
0.567835 0.805709 -0.350645
0.573998 0.807077 -0.350714
0.580985 0.811190 -0.351426
0.589467 0.820190 -0.353279
0.596308 0.823303 -0.353751
0.599873 0.815462 -0.351664
0.605366 0.814078 -0.351087
0.608413 0.804918 -0.348697
0.612969 0.800749 -0.347474
0.620399 0.805531 -0.348332
0.625357 0.802659 -0.347410
0.631707 0.804013 -0.347469
0.638623 0.806987 -0.347902
0.645847 0.810765 -0.348519
0.653616 0.816002 -0.349471
0.657337 0.809795 -0.347775
0.662501 0.807799 -0.347054
0.666940 0.803952 -0.345905
0.672252 0.802632 -0.345340
0.687227 0.826949 -0.350675
0.699600 0.843932 -0.354311
0.705667 0.844374 -0.354139
0.709477 0.839217 -0.352681
0.708949 0.823481 -0.348800
0.705128 0.800151 -0.343188
-0.570992 0.738992 -0.402425
-0.568806 0.745291 -0.403890
-0.565766 0.750722 -0.405080
-0.559532 0.752291 -0.405103
-0.550237 0.750053 -0.403980
-0.540180 0.746853 -0.402565
-0.534499 0.749335 -0.402837
-0.528381 0.751332 -0.402957
-0.518223 0.748040 -0.401502
-0.512192 0.750232 -0.401670
-0.506893 0.753467 -0.402140
-0.499360 0.753715 -0.401724
-0.492770 0.755260 -0.401688
-0.485437 0.755784 -0.401349
-0.478321 0.756596 -0.401094
-0.468208 0.753126 -0.399582
-0.461574 0.754546 -0.399507
-0.452699 0.752688 -0.398474
-0.449652 0.759300 -0.399917
-0.444803 0.763317 -0.400599
-0.433765 0.758067 -0.398584
-0.427333 0.759622 -0.398554
-0.419618 0.759169 -0.397943
-0.413389 0.760935 -0.397979
-0.407058 0.762500 -0.397960
-0.400504 0.763664 -0.397827
-0.393287 0.763710 -0.397375
-0.383580 0.759639 -0.395741
-0.378755 0.763384 -0.396363
-0.371985 0.763908 -0.396061
-0.365566 0.764943 -0.395909
-0.358866 0.765439 -0.395607
-0.352417 0.766286 -0.395409
-0.344460 0.764455 -0.394450
-0.338227 0.765513 -0.394321
-0.332048 0.766605 -0.394205
-0.325818 0.767543 -0.394048
-0.319867 0.768924 -0.394021
-0.312757 0.768126 -0.393379
-0.306602 0.768997 -0.393214
-0.298523 0.766196 -0.392016
-0.292584 0.767308 -0.391927
-0.285641 0.766438 -0.391283
-0.279932 0.767867 -0.391290
-0.273355 0.767544 -0.390808
-0.267948 0.769462 -0.390959
-0.261707 0.769672 -0.390632
-0.254488 0.767818 -0.389732
-0.248381 0.768140 -0.389444
-0.243007 0.769926 -0.389569
-0.237814 0.772069 -0.389795
-0.232225 0.773348 -0.389782
-0.224953 0.770940 -0.388745
-0.219273 0.771898 -0.388648
-0.212525 0.770439 -0.387883
-0.207084 0.771821 -0.387909
-0.201884 0.773723 -0.388080
-0.196082 0.774219 -0.387865
-0.192701 0.780337 -0.389204
-0.185550 0.777610 -0.388102
-0.178871 0.775882 -0.387279
-0.173779 0.777919 -0.387496
-0.167074 0.775965 -0.386617
-0.160849 0.775102 -0.386041
-0.154432 0.773672 -0.385312
-0.149028 0.774753 -0.385274
-0.143660 0.775907 -0.385257
-0.138162 0.776692 -0.385141
-0.131065 0.773152 -0.383845
-0.127340 0.778651 -0.385019
-0.125541 0.789596 -0.387674
-0.120961 0.793005 -0.388274
-0.113520 0.788302 -0.386669
-0.106356 0.784208 -0.385233
-0.099482 0.780788 -0.383984
-0.093320 0.779342 -0.383274
-0.088101 0.780666 -0.383315
-0.082968 0.782249 -0.383428
-0.077804 0.783739 -0.383515
-0.074714 0.791853 -0.385390
-0.069389 0.792944 -0.385369
-0.060593 0.782569 -0.382263
-0.054231 0.779959 -0.381251
-0.049485 0.782736 -0.381690
-0.042967 0.779405 -0.380489
-0.037359 0.779128 -0.380109
-0.031640 0.778401 -0.379610
-0.026368 0.779245 -0.379533
-0.021145 0.780260 -0.379502
-0.015749 0.780611 -0.379295
-0.009429 0.777330 -0.378119
-0.003499 0.775423 -0.377313
-0.003092 0.795817 -0.382441
0.004084 0.788968 -0.380319
0.007170 0.799101 -0.382710
0.012156 0.801412 -0.383022
0.021995 0.782311 -0.377661
0.027210 0.783216 -0.377605
0.032637 0.783138 -0.377290
0.037896 0.783806 -0.377173
0.042984 0.785298 -0.377274
0.044565 0.804277 -0.381983
0.048922 0.810006 -0.383194
0.056150 0.800943 -0.380513
0.063105 0.792817 -0.378083
0.069690 0.786241 -0.376065
0.075032 0.786306 -0.375793
0.080598 0.785021 -0.375168
0.086068 0.784183 -0.374660
0.091422 0.783969 -0.374317
0.096439 0.785844 -0.374521
0.101477 0.787652 -0.374706
0.106786 0.787679 -0.374427
0.112030 0.788111 -0.374254
0.117419 0.787454 -0.373798
0.122640 0.787968 -0.373648
0.127626 0.790328 -0.373976
0.130773 0.807922 -0.378254
0.138632 0.786580 -0.372438
0.144137 0.784351 -0.371580
0.149137 0.786569 -0.371873
0.154255 0.787788 -0.371907
0.159489 0.787856 -0.371644
0.164545 0.789789 -0.371863
0.169491 0.793117 -0.372440
0.174488 0.796132 -0.372935
0.179657 0.797243 -0.372941
0.185039 0.795504 -0.372215
0.190418 0.793466 -0.371413
0.195825 0.790580 -0.370396
0.201031 0.790568 -0.370117
0.206307 0.789143 -0.369476
0.211591 0.787160 -0.368695
0.216808 0.786137 -0.368160
0.221896 0.788023 -0.368368
0.227055 0.788234 -0.368149
0.232306 0.785285 -0.367127
0.237216 0.794648 -0.369235
0.242133 0.807935 -0.372335
0.247375 0.808048 -0.372089
0.252668 0.803164 -0.370576
0.257933 0.794426 -0.368091
0.263104 0.791873 -0.367176
0.268256 0.791455 -0.366801
0.273385 0.789048 -0.365925
0.278564 0.792479 -0.366523
0.283687 0.791046 -0.365895
0.289073 0.801882 -0.368355
0.294465 0.809250 -0.369939
0.299728 0.810499 -0.369983
0.304731 0.804403 -0.368184
0.309561 0.795567 -0.365702
0.314597 0.792980 -0.364790
0.319660 0.791407 -0.364133
0.324848 0.792329 -0.364101
0.329997 0.792443 -0.363868
0.335275 0.794495 -0.364119
0.340475 0.795147 -0.364020
0.345502 0.793375 -0.363319
0.350651 0.793323 -0.363046
0.356045 0.796135 -0.363486
0.363050 0.816658 -0.368322
0.369018 0.824029 -0.369887
0.373836 0.819010 -0.368379
0.377860 0.806731 -0.365078
0.381723 0.794008 -0.361672
0.386577 0.791070 -0.360691
0.392018 0.793288 -0.360984
0.397324 0.794180 -0.360950
0.402541 0.794249 -0.360714
0.411380 0.821617 -0.367197
0.414544 0.805625 -0.363006
0.418727 0.797832 -0.360837
0.423698 0.795859 -0.360101
0.428577 0.793329 -0.359229
0.434085 0.794905 -0.359365
0.439718 0.797087 -0.359650
0.444723 0.795290 -0.358961
0.450246 0.796544 -0.359018
0.456226 0.800249 -0.359674
0.462142 0.803319 -0.360173
0.467316 0.802156 -0.359641
0.473314 0.805286 -0.360154
0.480006 0.811721 -0.361470
0.487217 0.820333 -0.363312
0.492249 0.817855 -0.362459
0.495610 0.807479 -0.359693
0.500070 0.802591 -0.358261
0.504885 0.799445 -0.357254
0.510067 0.797975 -0.356653
0.515503 0.797581 -0.356313
0.522532 0.803861 -0.357584
0.526848 0.798541 -0.356056
0.531986 0.796693 -0.355367
0.537790 0.797483 -0.355313
0.543955 0.799557 -0.355568
0.549699 0.799860 -0.355397
0.556589 0.804360 -0.356233
0.561409 0.801005 -0.355183
0.568381 0.805450 -0.356003
0.573894 0.804499 -0.355530
0.581287 0.810035 -0.356608
0.589790 0.819083 -0.358522
0.598146 0.827255 -0.360222
0.603517 0.825273 -0.359498
0.605961 0.813852 -0.356526
0.611041 0.811148 -0.355633
0.616256 0.808917 -0.354853
0.621502 0.806831 -0.354107
0.626837 0.805061 -0.353437
0.633594 0.807567 -0.353781
0.640023 0.809036 -0.353877
0.647801 0.814355 -0.354882
0.654796 0.817319 -0.355327
0.657957 0.809524 -0.353229
0.663311 0.808046 -0.352624
0.668303 0.805691 -0.351811
0.673805 0.804845 -0.351354
0.690211 0.832853 -0.357681
0.696984 0.835157 -0.357955
0.698917 0.825105 -0.355327
0.703553 0.822294 -0.354400
0.707080 0.816928 -0.352874
-0.585616 0.756019 -0.413940
-0.570061 0.745873 -0.410397
-0.563256 0.746593 -0.410171
-0.559870 0.751729 -0.411280
-0.553469 0.753185 -0.411256
-0.545296 0.752449 -0.410556
-0.534132 0.747865 -0.408681
-0.527634 0.749356 -0.408645
-0.522365 0.752535 -0.409113
-0.513914 0.751540 -0.408313
-0.506550 0.752006 -0.407951
-0.500082 0.753705 -0.407957
-0.492492 0.753883 -0.407501
-0.484857 0.753983 -0.407021
-0.478487 0.755841 -0.407068
-0.471925 0.757430 -0.407032
-0.463627 0.756517 -0.406248
-0.455584 0.755906 -0.405556
-0.450024 0.758873 -0.405933
-0.439504 0.754485 -0.404122
-0.433248 0.756333 -0.404169
-0.426950 0.758087 -0.404190
-0.419933 0.758706 -0.403877
-0.413505 0.760173 -0.403818
-0.407419 0.762130 -0.403906
-0.401246 0.763910 -0.403944
-0.395336 0.766069 -0.404096
-0.387553 0.765159 -0.403349
-0.380063 0.764622 -0.402718
-0.372507 0.763876 -0.402030
-0.365288 0.763590 -0.401482
-0.359163 0.765061 -0.401452
-0.352383 0.765356 -0.401083
-0.346120 0.766465 -0.400954
-0.339229 0.766413 -0.400493
-0.332035 0.765736 -0.399854
-0.326317 0.767600 -0.399957
-0.320765 0.769721 -0.400138
-0.313527 0.768718 -0.399418
-0.306397 0.767808 -0.398731
-0.299669 0.767546 -0.398235
-0.292764 0.766861 -0.397622
-0.286833 0.767946 -0.397522
-0.279356 0.765977 -0.396550
-0.273948 0.767947 -0.396711
-0.267806 0.768427 -0.396449
-0.262053 0.769625 -0.396395
-0.255511 0.769169 -0.395872
-0.248702 0.768079 -0.395172
-0.243037 0.769276 -0.395127
-0.237970 0.771695 -0.395433
-0.232615 0.773486 -0.395562
-0.226463 0.773528 -0.395196
-0.219684 0.772126 -0.394425
-0.213659 0.772297 -0.394103
-0.207759 0.772686 -0.393846
-0.202598 0.774707 -0.394052
-0.197036 0.775790 -0.393994
-0.191216 0.776233 -0.393759
-0.184615 0.774779 -0.392993
-0.178761 0.775017 -0.392705
-0.175273 0.780964 -0.394022
-0.170144 0.782964 -0.394231
-0.163592 0.781401 -0.393444
-0.155693 0.776316 -0.391675
-0.149119 0.774444 -0.390810
-0.144144 0.776635 -0.391081
-0.138874 0.778057 -0.391138
-0.132952 0.777713 -0.390705
-0.126302 0.775321 -0.389705
-0.120567 0.775339 -0.389378
-0.114612 0.774688 -0.388867
-0.109767 0.777133 -0.389216
-0.106924 0.785404 -0.391177
-0.099919 0.781640 -0.389808
-0.093622 0.779824 -0.388981
-0.088124 0.780326 -0.388796
-0.083048 0.782101 -0.388963
-0.076806 0.780230 -0.388127
-0.073828 0.788659 -0.390126
-0.067523 0.786540 -0.389224
-0.061091 0.783881 -0.388176
-0.055706 0.784596 -0.388056
-0.050559 0.786106 -0.388155
-0.043082 0.779521 -0.386040
-0.037470 0.779259 -0.385657
-0.031763 0.778597 -0.385167
-0.025935 0.777422 -0.384539
-0.020482 0.777564 -0.384270
-0.014881 0.777105 -0.383840
-0.009321 0.776739 -0.383435
-0.003901 0.776877 -0.383169
-0.001004 0.787214 -0.385669
0.003708 0.790423 -0.386234
0.007889 0.795974 -0.387431
0.013160 0.797010 -0.387406
0.021433 0.784766 -0.383795
0.027302 0.782795 -0.382963
0.032532 0.783646 -0.382893
0.038012 0.783310 -0.382504
0.042284 0.788780 -0.383678
0.042983 0.812266 -0.389688
0.050935 0.799875 -0.386059
0.056372 0.799962 -0.385782
0.062736 0.795020 -0.384160
0.069525 0.787403 -0.381825
0.074923 0.787222 -0.381482
0.080458 0.786175 -0.380909
0.086221 0.783644 -0.379942
0.091410 0.784471 -0.379871
0.096677 0.784794 -0.379666
0.101736 0.786470 -0.379822
0.106789 0.788247 -0.380003
0.112316 0.786731 -0.379311
0.115773 0.800242 -0.382604
0.120276 0.806752 -0.384036
0.126394 0.800926 -0.382202
0.132098 0.797979 -0.381133
0.138351 0.790010 -0.378739
0.144128 0.785548 -0.377276
0.149246 0.786775 -0.377314
0.154444 0.787261 -0.377158
0.159677 0.787372 -0.376903
0.164891 0.787630 -0.376687
0.169836 0.790919 -0.377268
0.175196 0.789491 -0.376610
0.180434 0.789376 -0.376298
0.185569 0.790569 -0.376329
0.190786 0.790636 -0.376065
0.195988 0.790863 -0.375843
0.201158 0.791574 -0.375749
0.206296 0.792919 -0.375820
0.211586 0.791279 -0.375114
0.216883 0.789018 -0.374247
0.222083 0.788552 -0.373849
0.227160 0.791383 -0.374308
0.232132 0.798550 -0.375890
0.237110 0.808009 -0.378063
0.242283 0.812084 -0.378839
0.247556 0.811890 -0.378509
0.252936 0.800789 -0.375362
0.258162 0.797553 -0.374252
0.263356 0.792166 -0.372589
0.268513 0.791279 -0.372089
0.273661 0.790638 -0.371653
0.278832 0.792347 -0.371822
0.283933 0.789490 -0.370818
0.289531 0.809525 -0.375690
0.294781 0.810178 -0.375585
0.299757 0.802241 -0.373280
0.304777 0.797565 -0.371814
0.309868 0.795636 -0.371054
0.314871 0.792232 -0.369918
0.319947 0.790874 -0.369307
0.325043 0.790105 -0.368847
0.330207 0.790533 -0.368693
0.335474 0.792470 -0.368923
0.340693 0.793437 -0.368907
0.345825 0.793090 -0.368557
0.350958 0.792784 -0.368219
0.356438 0.796555 -0.368914
0.362312 0.804294 -0.370613
0.369824 0.828555 -0.376488
0.373544 0.812193 -0.372087
0.378620 0.810339 -0.371358
0.382593 0.798451 -0.368099
0.387335 0.794292 -0.366794
0.392456 0.793618 -0.366369
0.397778 0.794574 -0.366356
0.403222 0.796355 -0.366549
0.409881 0.807100 -0.368993
0.416105 0.813856 -0.370432
0.420654 0.808336 -0.368793
0.425607 0.805850 -0.367917
0.429526 0.796653 -0.365364
0.434534 0.794896 -0.364675
0.440192 0.797186 -0.364998
0.445362 0.796338 -0.364537
0.450706 0.796483 -0.364326
0.456162 0.797172 -0.364250
0.461654 0.797943 -0.364195
0.467126 0.798489 -0.364084
0.472590 0.798877 -0.363935
0.479606 0.807074 -0.365723
0.487077 0.817038 -0.367946
0.493220 0.819995 -0.368430
0.497494 0.813876 -0.366668
0.501511 0.806768 -0.364665
0.506474 0.804171 -0.363779
0.510624 0.798011 -0.362016
0.516184 0.798119 -0.361802
0.522411 0.800956 -0.362259
0.527633 0.799428 -0.361642
0.533791 0.801665 -0.361951
0.539704 0.802752 -0.361978
0.545053 0.801515 -0.361433
0.550802 0.801769 -0.361255
0.556493 0.801716 -0.361002
0.562020 0.800981 -0.360582
0.566972 0.798133 -0.359646
0.574426 0.804141 -0.360875
0.580953 0.806647 -0.361246
0.586073 0.804214 -0.360411
0.591866 0.804051 -0.360130
0.599873 0.811103 -0.361605
0.606891 0.814674 -0.362231
0.612271 0.812887 -0.361552
0.617094 0.809391 -0.360458
0.620293 0.801011 -0.358182
0.627096 0.803744 -0.358600
0.633820 0.806151 -0.358938
0.640195 0.807464 -0.359009
0.650467 0.819949 -0.361777
0.657364 0.822531 -0.362148
0.659580 0.812024 -0.359361
0.663091 0.805437 -0.357520
0.669523 0.807013 -0.357647
0.681128 0.822423 -0.361097
0.687959 0.824935 -0.361440
0.691021 0.817706 -0.359442
0.693274 0.808717 -0.357024
0.698954 0.808758 -0.356772
0.700811 0.799401 -0.354268
0.698377 0.779861 -0.349333
-0.577630 0.745213 -0.416987
-0.569797 0.744561 -0.416337
-0.565561 0.748487 -0.417104
-0.556329 0.746259 -0.415942
-0.551808 0.750065 -0.416646
-0.546450 0.752927 -0.417045
-0.539724 0.754121 -0.416916
-0.532575 0.754825 -0.416629
-0.522489 0.751687 -0.415148
-0.515620 0.752810 -0.414979
-0.507783 0.752659 -0.414412
-0.501267 0.754309 -0.414396
-0.494790 0.756039 -0.414400
-0.486606 0.755410 -0.413679
-0.478986 0.755536 -0.413188
-0.472567 0.757338 -0.413209
-0.463503 0.755340 -0.412071
-0.456258 0.755890 -0.411712
-0.449469 0.757068 -0.411544
-0.443298 0.759127 -0.411645
-0.433941 0.756393 -0.410296
-0.427290 0.757629 -0.410153
-0.420384 0.758429 -0.409880
-0.413769 0.759621 -0.409729
-0.407069 0.760627 -0.409524
-0.400352 0.761548 -0.409298
-0.393490 0.762174 -0.408987
-0.387204 0.763661 -0.408938
-0.380156 0.763849 -0.408504
-0.373056 0.763867 -0.408024
-0.366248 0.764288 -0.407669
-0.359014 0.763910 -0.407081
-0.353350 0.766119 -0.407266
-0.346286 0.765872 -0.406726
-0.340050 0.766977 -0.406592
-0.332374 0.765474 -0.405691
-0.326088 0.766335 -0.405494
-0.320642 0.768653 -0.405730
-0.315024 0.770622 -0.405867
-0.307070 0.768229 -0.404723
-0.299876 0.767118 -0.403964
-0.292973 0.766452 -0.403340
-0.287060 0.767586 -0.403248
-0.281240 0.768848 -0.403196
-0.274222 0.767708 -0.402447
-0.268411 0.768864 -0.402372
-0.262789 0.770349 -0.402397
-0.256507 0.770450 -0.402021
-0.250218 0.770465 -0.401625
-0.244018 0.770596 -0.401265
-0.237892 0.770812 -0.400934
-0.232226 0.771947 -0.400873
-0.226500 0.772910 -0.400764
-0.220558 0.773354 -0.400508
-0.214268 0.772971 -0.400017
-0.208414 0.773493 -0.399790
-0.203015 0.775000 -0.399849
-0.196857 0.774729 -0.399399
-0.193778 0.781589 -0.400999
-0.184826 0.774654 -0.398643
-0.178044 0.772680 -0.397715
-0.171374 0.770868 -0.396837
-0.172033 0.787031 -0.401096
-0.165611 0.785869 -0.400405
-0.156841 0.778662 -0.397995
-0.149782 0.775594 -0.396771
-0.143845 0.775313 -0.396343
-0.139180 0.778335 -0.396854
-0.133458 0.778553 -0.396571
-0.125893 0.773701 -0.394855
-0.120307 0.774127 -0.394636
-0.114796 0.774725 -0.394468
-0.108837 0.774014 -0.393932
-0.105955 0.782140 -0.395889
-0.100120 0.781788 -0.395456
-0.093834 0.780030 -0.394629
-0.088014 0.779579 -0.394172
-0.082259 0.779269 -0.393757
-0.077239 0.781205 -0.393974
-0.074382 0.790054 -0.396127
-0.071283 0.798374 -0.398128
-0.064083 0.793410 -0.396413
-0.056845 0.788097 -0.394605
-0.048840 0.779930 -0.392005
-0.043052 0.779131 -0.391465
-0.037148 0.777851 -0.390792
-0.031867 0.778724 -0.390719
-0.030461 0.793828 -0.394600
-0.028565 0.807639 -0.398115
-0.021020 0.800366 -0.395779
-0.011689 0.785797 -0.391429
-0.006150 0.785668 -0.391081
0.000348 0.781596 -0.389646
0.006589 0.778376 -0.388449
0.010343 0.785502 -0.390107
0.015218 0.788045 -0.390500
0.021272 0.785442 -0.389477
0.027074 0.783822 -0.388726
0.032763 0.782596 -0.388085
0.037543 0.785583 -0.388602
0.042494 0.787840 -0.388917
0.046384 0.795446 -0.390696
0.051383 0.797730 -0.391016
0.057649 0.793448 -0.389543
0.062214 0.798044 -0.390495
0.068391 0.793928 -0.389070
0.075184 0.786029 -0.386619
0.080294 0.787472 -0.386714
0.085755 0.786829 -0.386241
0.090975 0.787600 -0.386154
0.096531 0.786211 -0.385482
0.101763 0.786825 -0.385353
0.107043 0.787098 -0.385133
0.112305 0.787462 -0.384937
0.116168 0.798065 -0.387508
0.120497 0.805862 -0.389317
0.126362 0.802049 -0.387992
0.132549 0.795215 -0.385857
0.138130 0.792936 -0.384951
0.143792 0.789679 -0.383784
0.149172 0.788693 -0.383230
0.154697 0.786117 -0.382249
0.159930 0.786234 -0.381993
0.164579 0.792620 -0.383416
0.169204 0.799917 -0.385080
0.175403 0.788906 -0.381848
0.180642 0.788805 -0.381536
0.185849 0.789062 -0.381319
0.190969 0.790525 -0.381425
0.196066 0.792499 -0.381666
0.200946 0.798425 -0.382957
0.206111 0.799988 -0.383088
0.211437 0.798423 -0.382388
0.216602 0.800085 -0.382545
0.221818 0.800693 -0.382422
0.227104 0.799310 -0.381774
0.232122 0.806424 -0.383372
0.237224 0.812708 -0.384749
0.242437 0.816235 -0.385396
0.247899 0.805080 -0.382172
0.253167 0.802199 -0.381134
0.258419 0.796386 -0.379326
0.263611 0.791183 -0.377682
0.268774 0.791395 -0.377464
0.273944 0.792567 -0.377497
0.279043 0.787978 -0.376021
0.284389 0.799223 -0.378693
0.289823 0.809691 -0.381157
0.294849 0.802125 -0.378906
0.299698 0.791366 -0.375825
0.304902 0.792844 -0.375941
0.310114 0.794193 -0.376024
0.315319 0.795127 -0.375999
0.320415 0.793797 -0.375385
0.325551 0.793368 -0.375007
0.330669 0.792719 -0.374574
0.336029 0.795786 -0.375104
0.341190 0.795631 -0.374799
0.346220 0.793725 -0.374043
0.351431 0.794263 -0.373920
0.356829 0.796909 -0.374341
0.362396 0.801115 -0.375165
0.368140 0.806728 -0.376351
0.374470 0.817635 -0.378898
0.378254 0.803089 -0.374891
0.383065 0.799189 -0.373629
0.387750 0.794451 -0.372155
0.392801 0.793128 -0.371559
0.398227 0.794890 -0.371757
0.403826 0.797809 -0.372251
0.411724 0.817723 -0.377093
0.416084 0.810541 -0.374999
0.420737 0.805825 -0.373540
0.425809 0.804184 -0.372868
0.430212 0.798197 -0.371089
0.435287 0.796780 -0.370479
0.440706 0.797495 -0.370412
0.446271 0.798967 -0.370539
0.451215 0.796665 -0.369707
0.456568 0.796725 -0.369476
0.461932 0.796770 -0.369243
0.467370 0.797122 -0.369087
0.473091 0.798847 -0.369281
0.478992 0.801320 -0.369663
0.485125 0.804734 -0.370283
0.492315 0.813012 -0.372131
0.498550 0.816301 -0.372716
0.501991 0.806462 -0.369992
0.506197 0.800431 -0.368232
0.511569 0.799718 -0.367813
0.517027 0.799319 -0.367474
0.522602 0.799341 -0.367242
0.529671 0.805440 -0.368536
0.536925 0.811945 -0.369929
0.541526 0.807596 -0.368601
0.546654 0.805381 -0.367808
0.551225 0.801050 -0.366489
0.556515 0.799486 -0.365862
0.562131 0.799093 -0.365529
0.568494 0.801321 -0.365851
0.573553 0.798799 -0.364987
0.579305 0.798693 -0.364726
0.585901 0.801392 -0.365163
0.591807 0.801633 -0.364988
0.598908 0.805725 -0.365769
0.605666 0.808521 -0.366226
0.610853 0.806213 -0.365416
0.615552 0.802429 -0.364240
0.620076 0.798210 -0.362958
0.627660 0.803316 -0.363983
0.633435 0.802899 -0.363640
0.639464 0.803238 -0.363483
0.651823 0.821735 -0.367803
0.659496 0.826461 -0.368720
0.661263 0.814653 -0.365562
0.665229 0.809277 -0.363990
0.669545 0.805066 -0.362705
0.676007 0.806769 -0.362872
0.682275 0.808011 -0.362923
0.689063 0.810668 -0.363318
0.695203 0.811723 -0.363317
0.700683 0.811215 -0.362931
0.704897 0.807712 -0.361810
0.705716 0.796102 -0.358710
-0.579808 0.746903 -0.423898
-0.571750 0.745990 -0.423151
-0.563307 0.744670 -0.422263
-0.561705 0.752036 -0.424121
-0.549882 0.746601 -0.421906
-0.543978 0.748732 -0.422080
-0.539338 0.752597 -0.422790
-0.534409 0.756200 -0.423407
-0.524448 0.753253 -0.421951
-0.516817 0.753381 -0.421459
-0.509798 0.754350 -0.421226
-0.502123 0.754446 -0.420715
-0.495459 0.755930 -0.420635
-0.488076 0.756427 -0.420245
-0.480885 0.757179 -0.419931
-0.472465 0.756170 -0.419070
-0.467378 0.759881 -0.419676
-0.456713 0.755536 -0.417781
-0.450435 0.757473 -0.417837
-0.442667 0.757187 -0.417207
-0.435920 0.758358 -0.417030
-0.430638 0.761702 -0.417524
-0.421586 0.759281 -0.416245
-0.414636 0.759982 -0.415932
-0.407435 0.760227 -0.415482
-0.400069 0.760135 -0.414934
-0.393485 0.761208 -0.414747
-0.386085 0.760901 -0.414142
-0.379460 0.761768 -0.413901
-0.373061 0.762942 -0.413757
-0.366696 0.764111 -0.413615
-0.360652 0.765760 -0.413623
-0.353491 0.765451 -0.413043
-0.347380 0.766863 -0.412988
-0.340578 0.767008 -0.412555
-0.332951 0.765614 -0.411662
-0.325629 0.764645 -0.410905
-0.320253 0.767087 -0.411178
-0.314893 0.769528 -0.411454
-0.307263 0.767744 -0.410466
-0.300155 0.766810 -0.409740
-0.292737 0.765184 -0.408812
-0.287014 0.766687 -0.408824
-0.282198 0.769904 -0.409350
-0.272585 0.763707 -0.407077
-0.269029 0.769308 -0.408319
-0.263398 0.770801 -0.408341
-0.257318 0.771339 -0.408084
-0.250809 0.770932 -0.407551
-0.244661 0.771196 -0.407221
-0.237976 0.770258 -0.406539
-0.231903 0.770535 -0.406220
-0.226450 0.772090 -0.406281
-0.220376 0.772255 -0.405936
-0.214119 0.771952 -0.405456
-0.208399 0.772781 -0.405313
-0.203096 0.774516 -0.405437
-0.198086 0.776909 -0.405756
