ply
format ascii 1.0
comment ---
element vertex 1686
property float x
property float y
property float z
element face 0
property list uchar uint vertex_indices
end_header
-0.014169 0.608376 -0.175301
-0.011047 0.613096 -0.176537
-0.007495 0.610317 -0.176002
-0.003841 0.604778 -0.174813
-0.000332 0.601460 -0.174148
0.002908 0.604597 -0.175010
0.006293 0.604160 -0.175026
0.009534 0.608842 -0.176255
0.012834 0.612936 -0.177346
0.016239 0.613378 -0.177572
0.019636 0.614946 -0.178065
0.023116 0.608383 -0.176624
0.026508 0.609581 -0.177028
0.029914 0.611902 -0.177700
0.033327 0.611579 -0.177743
0.036720 0.609459 -0.177357
0.040067 0.605550 -0.176543
0.043443 0.604818 -0.176486
0.046833 0.604869 -0.176616
0.050247 0.605655 -0.176922
0.053714 0.607663 -0.177520
0.057284 0.611727 -0.178612
0.060874 0.615330 -0.179594
0.064021 0.609165 -0.178235
0.067179 0.604254 -0.177175
0.070534 0.603472 -0.177105
0.073994 0.604404 -0.177446
0.077327 0.603332 -0.177305
0.080814 0.604449 -0.177691
0.084290 0.605263 -0.178005
0.087990 0.608641 -0.178936
0.091608 0.610699 -0.179550
0.095246 0.612708 -0.180153
0.098548 0.611058 -0.179874
0.101692 0.607984 -0.179249
0.104979 0.606493 -0.179006
0.108534 0.607500 -0.179367
0.112082 0.608331 -0.179686
0.115159 0.605205 -0.179046
0.118249 0.602402 -0.178484
0.121902 0.604050 -0.179000
0.125463 0.604888 -0.179321
0.129010 0.605547 -0.179598
0.133081 0.609721 -0.180730
0.136013 0.606056 -0.179956
0.139398 0.605509 -0.179940
0.142600 0.603830 -0.179648
0.146047 0.603709 -0.179735
0.149400 0.603019 -0.179683
0.152948 0.603453 -0.179905
0.156595 0.604385 -0.180250
0.160063 0.604285 -0.180342
0.163558 0.604305 -0.180463
0.166988 0.603969 -0.180498
0.170444 0.603754 -0.180561
0.175686 0.612223 -0.182753
0.178824 0.610268 -0.182391
0.181284 0.605230 -0.181272
0.184932 0.605785 -0.181525
0.186952 0.599069 -0.179990
0.191065 0.601704 -0.180753
0.194953 0.603249 -0.181249
0.198524 0.603380 -0.181397
0.202069 0.603379 -0.181512
0.206080 0.605212 -0.182080
0.209946 0.606379 -0.182484
0.216928 0.619430 -0.185822
0.217841 0.609109 -0.183390
0.219991 0.603719 -0.182173
0.222619 0.600229 -0.181425
0.226319 0.600656 -0.181645
0.230636 0.603197 -0.182389
0.233861 0.601867 -0.182173
0.241755 0.616316 -0.185872
0.243178 0.608768 -0.184115
0.245812 0.605393 -0.183392
0.248489 0.602237 -0.182722
0.250858 0.598182 -0.181827
0.255290 0.600629 -0.182550
0.259276 0.601599 -0.182904
0.262573 0.600436 -0.182728
0.266286 0.600504 -0.182858
0.269998 0.600533 -0.182978
0.274169 0.601844 -0.183418
0.277522 0.600763 -0.183261
0.281361 0.601032 -0.183441
0.285396 0.601793 -0.183744
0.288824 0.600852 -0.183621
0.293617 0.603536 -0.184406
0.301464 0.614127 -0.187173
0.301270 0.603548 -0.184634
0.304401 0.601718 -0.184287
0.307722 0.600371 -0.184060
0.311880 0.601098 -0.184355
0.316076 0.601855 -0.184657
0.319816 0.601443 -0.184665
0.323971 0.601986 -0.184912
0.327961 0.602081 -0.185048
0.332350 0.603052 -0.185404
0.334922 0.599783 -0.184691
0.336852 0.595097 -0.183619
0.340919 0.595258 -0.183769
0.345497 0.596490 -0.184190
0.349613 0.596636 -0.184337
0.353350 0.595912 -0.184264
0.365689 0.613426 -0.188808
0.366568 0.606413 -0.187144
0.368120 0.600915 -0.185862
0.370776 0.597754 -0.185170
0.374902 0.597591 -0.185239
0.379461 0.598243 -0.185515
0.384802 0.600367 -0.186165
0.388534 0.599251 -0.185991
0.392699 0.598943 -0.186024
0.396687 0.598252 -0.185958
0.400765 0.597693 -0.185927
0.404686 0.596806 -0.185811
0.408816 0.596271 -0.185785
0.414685 0.598859 -0.186557
0.420342 0.600958 -0.187205
0.424149 0.599680 -0.186990
0.426568 0.595950 -0.186149
0.432004 0.597496 -0.186657
0.436171 0.596792 -0.186590
0.441461 0.597973 -0.187005
0.446223 0.598208 -0.187180
0.459086 0.611851 -0.190794
0.453469 0.594845 -0.186547
0.457688 0.594153 -0.186485
0.462704 0.594741 -0.186752
0.467890 0.595576 -0.187084
0.474514 0.598651 -0.187994
0.477610 0.596176 -0.187476
0.481605 0.595145 -0.187331
0.484750 0.592854 -0.186861
0.490783 0.594988 -0.187534
0.495796 0.595585 -0.187812
0.481822 0.568117 -0.180839
0.483377 0.563971 -0.179888
0.491850 0.569988 -0.181566
0.507178 0.585804 -0.185786
-0.315336 0.601953 -0.165145
-0.311226 0.601071 -0.165091
-0.306923 0.599863 -0.164966
-0.304684 0.603073 -0.165836
-0.300981 0.603314 -0.166044
-0.298615 0.606523 -0.166922
-0.294328 0.605674 -0.166892
-0.289097 0.602772 -0.166401
-0.285660 0.603871 -0.166813
-0.281879 0.604260 -0.167067
-0.278148 0.604808 -0.167359
-0.274361 0.605267 -0.167632
-0.270412 0.605373 -0.167827
-0.266501 0.605585 -0.168046
-0.262424 0.605405 -0.168178
-0.258677 0.606028 -0.168491
-0.254979 0.606784 -0.168836
-0.251012 0.606863 -0.169027
-0.247068 0.606985 -0.169227
-0.243510 0.608091 -0.169652
-0.239216 0.607253 -0.169632
-0.235282 0.607320 -0.169819
-0.231629 0.608118 -0.170172
-0.227962 0.608861 -0.170511
-0.223825 0.608263 -0.170543
-0.219477 0.607000 -0.170421
-0.215818 0.607642 -0.170735
-0.211844 0.607330 -0.170828
-0.207857 0.606914 -0.170896
-0.203968 0.606731 -0.171017
-0.200605 0.608112 -0.171497
-0.197001 0.608730 -0.171801
-0.193097 0.608353 -0.171873
-0.189122 0.607676 -0.171874
-0.185378 0.607681 -0.172032
-0.181856 0.608381 -0.172350
-0.177791 0.607189 -0.172228
-0.174395 0.608229 -0.172622
-0.170135 0.606185 -0.172299
-0.166796 0.607343 -0.172719
-0.162797 0.606056 -0.172569
-0.158982 0.605354 -0.172553
-0.155560 0.606082 -0.172870
-0.152363 0.607666 -0.173385
-0.148644 0.607180 -0.173417
-0.145208 0.607773 -0.173699
-0.141273 0.606267 -0.173490
-0.137808 0.606641 -0.173719
-0.134361 0.607063 -0.173959
-0.130413 0.605237 -0.173670
-0.127089 0.606108 -0.174014
-0.123724 0.606783 -0.174310
-0.120517 0.608193 -0.174779
-0.117107 0.608647 -0.175023
-0.113307 0.607137 -0.174803
-0.109837 0.607193 -0.174951
-0.106542 0.608126 -0.175305
-0.103049 0.608008 -0.175411
-0.099320 0.606541 -0.175197
-0.096051 0.607561 -0.175570
-0.092747 0.608404 -0.175901
-0.089247 0.608084 -0.175957
-0.085765 0.607820 -0.176024
-0.082012 0.605781 -0.175670
-0.078618 0.605945 -0.175838
-0.075292 0.606545 -0.176109
-0.071955 0.607080 -0.176364
-0.068602 0.607515 -0.176595
-0.065186 0.607473 -0.176711
-0.061697 0.606831 -0.176685
-0.058264 0.606577 -0.176750
-0.054951 0.607288 -0.177046
-0.051492 0.606752 -0.177043
-0.047978 0.605647 -0.176903
-0.044721 0.606886 -0.177324
-0.041364 0.607217 -0.177528
-0.037994 0.607432 -0.177703
-0.034657 0.608024 -0.177968
-0.031395 0.609543 -0.178456
-0.028128 0.611180 -0.178973
-0.024979 0.614575 -0.179912
-0.021356 0.611718 -0.179348
-0.017817 0.609717 -0.178990
-0.014394 0.609280 -0.179007
-0.011097 0.611028 -0.179550
-0.007648 0.610142 -0.179459
-0.004147 0.607969 -0.179056
-0.000620 0.604709 -0.178390
0.002793 0.603692 -0.178265
0.006129 0.604733 -0.178637
0.009494 0.605145 -0.178857
0.012802 0.608292 -0.179739
0.016239 0.605965 -0.179296
0.019633 0.605332 -0.179262
0.023035 0.603204 -0.178866
0.026406 0.604304 -0.179252
0.029787 0.604104 -0.179323
0.033160 0.602389 -0.179025
0.036572 0.605839 -0.179984
0.039957 0.605262 -0.179963
0.043341 0.604811 -0.179972
0.046744 0.605181 -0.180182
0.050172 0.606231 -0.180557
0.053610 0.607224 -0.180919
0.057120 0.609743 -0.181655
0.060617 0.611374 -0.182173
0.064015 0.610619 -0.182109
0.067146 0.605001 -0.180853
0.070453 0.603248 -0.180542
0.073828 0.602816 -0.180555
0.077372 0.604857 -0.181174
0.080715 0.603862 -0.181049
0.084204 0.604834 -0.181406
0.087791 0.606827 -0.182015
0.091496 0.609921 -0.182896
0.095102 0.611593 -0.183428
0.098249 0.608353 -0.182749
0.101293 0.604391 -0.181891
0.104767 0.604769 -0.182103
0.108236 0.605047 -0.182291
0.111653 0.604828 -0.182356
0.115057 0.604495 -0.182392
0.119242 0.610325 -0.183954
0.123527 0.616455 -0.185591
0.126389 0.611699 -0.184533
0.129277 0.607421 -0.183593
0.132190 0.603585 -0.182760
0.135562 0.603006 -0.182735
0.139097 0.603491 -0.182974
0.142896 0.605558 -0.183606
0.145982 0.603179 -0.183133
0.149605 0.604059 -0.183471
0.153059 0.603906 -0.183551
0.156483 0.603569 -0.183586
0.160046 0.603978 -0.183806
0.163329 0.602873 -0.183649
0.166687 0.602187 -0.183596
0.170207 0.602313 -0.183746
0.176258 0.614732 -0.186971
0.178295 0.607465 -0.185272
0.181082 0.603991 -0.184521
0.184313 0.602662 -0.184306
0.186832 0.598212 -0.183308
0.191276 0.602282 -0.184447
0.195216 0.604019 -0.185001
0.198752 0.603972 -0.185108
0.202273 0.603844 -0.185194
0.205732 0.603442 -0.185211
0.211293 0.611260 -0.187298
0.214924 0.611340 -0.187437
0.216861 0.605016 -0.185962
0.219856 0.602806 -0.185522
0.222510 0.599416 -0.184784
0.226387 0.600475 -0.185169
0.230017 0.600600 -0.185318
0.234052 0.602082 -0.185810
0.240703 0.612308 -0.188517
0.244164 0.611579 -0.188451
0.247060 0.608998 -0.187916
0.249389 0.604654 -0.186933
0.251491 0.599707 -0.185795
0.255466 0.600694 -0.186163
0.259139 0.600696 -0.186280
0.262781 0.600571 -0.186365
0.266918 0.601879 -0.186815
0.270538 0.601603 -0.186862
0.274223 0.601490 -0.186950
0.278051 0.601744 -0.187132
0.282126 0.602644 -0.187479
0.285678 0.602042 -0.187442
0.289586 0.602384 -0.187647
0.294178 0.604497 -0.188304
0.299270 0.607820 -0.189272
0.302713 0.606741 -0.189114
0.304484 0.601383 -0.187859
0.307530 0.599340 -0.187452
0.312337 0.601679 -0.188168
0.316277 0.601788 -0.188314
0.320207 0.601827 -0.188441
0.323954 0.601381 -0.188443
0.328158 0.601974 -0.188712
0.332214 0.602163 -0.188878
0.335854 0.601345 -0.188785
0.339094 0.599594 -0.188451
0.341713 0.596451 -0.187757
0.345953 0.596912 -0.187993
0.349819 0.596498 -0.188003
0.354132 0.597002 -0.188249
0.363860 0.608935 -0.191451
0.367789 0.608366 -0.191423
0.369182 0.602507 -0.190025
0.371531 0.598691 -0.189155
0.375783 0.598760 -0.189291
0.379651 0.598006 -0.189213
0.385474 0.601073 -0.190127
0.389254 0.600031 -0.189975
0.392952 0.598805 -0.189776
0.397164 0.598529 -0.189823
0.400703 0.596945 -0.189530
0.404899 0.596566 -0.189550
0.409143 0.596232 -0.189583
0.415613 0.599896 -0.190658
0.421435 0.602266 -0.191397
0.424384 0.599440 -0.190781
0.424661 0.591949 -0.188946
0.432563 0.597802 -0.190596
0.436475 0.596646 -0.190416
0.443361 0.600520 -0.191553
0.447420 0.599537 -0.191419
0.450362 0.596695 -0.190799
0.454266 0.595466 -0.190601
0.458102 0.594135 -0.190377
0.467871 0.602335 -0.192656
0.473145 0.603216 -0.193015
0.475210 0.599034 -0.192043
0.478539 0.596905 -0.191612
0.481771 0.594681 -0.191155
0.485339 0.593027 -0.190848
0.497386 0.604208 -0.193927
0.491003 0.587692 -0.189701
0.488001 0.576531 -0.186884
0.485649 0.566577 -0.184382
0.492723 0.570522 -0.185554
0.505471 0.582596 -0.188879
-0.312891 0.595819 -0.167383
-0.312291 0.602125 -0.168968
-0.308758 0.602549 -0.169211
-0.304682 0.601928 -0.169218
-0.301723 0.603755 -0.169789
-0.298395 0.604901 -0.170207
-0.294454 0.604805 -0.170342
-0.290285 0.604262 -0.170376
-0.286693 0.605044 -0.170718
-0.283348 0.606452 -0.171206
-0.278593 0.604691 -0.170963
-0.273654 0.602483 -0.170618
-0.271033 0.605698 -0.171528
-0.266525 0.604503 -0.171419
-0.263066 0.605820 -0.171891
-0.259205 0.606183 -0.172144
-0.255281 0.606390 -0.172360
-0.251430 0.606773 -0.172617
-0.247582 0.607154 -0.172873
-0.243503 0.606919 -0.172986
-0.239526 0.606916 -0.173152
-0.235449 0.606612 -0.173248
-0.231780 0.607369 -0.173590
-0.228041 0.607915 -0.173883
-0.223933 0.607398 -0.173926
-0.219529 0.605979 -0.173756
-0.216130 0.607370 -0.174244
-0.212741 0.608788 -0.174738
-0.208312 0.607090 -0.174499
-0.204622 0.607529 -0.174761
-0.201086 0.608402 -0.175124
-0.197218 0.608210 -0.175236
-0.193601 0.608756 -0.175520
-0.189669 0.608240 -0.175553
-0.185756 0.607716 -0.175582
-0.182135 0.608095 -0.175824
-0.178880 0.609687 -0.176352
-0.175358 0.610348 -0.176659
-0.170382 0.605821 -0.175734
-0.166861 0.606329 -0.176002
-0.163291 0.606620 -0.176218
-0.159364 0.605525 -0.176103
-0.156174 0.607160 -0.176636
-0.152406 0.606547 -0.176634
-0.148497 0.605299 -0.176478
-0.145514 0.607712 -0.177196
-0.142297 0.609204 -0.177693
-0.138097 0.606543 -0.177197
-0.134855 0.607868 -0.177653
-0.131307 0.607847 -0.177787
-0.127663 0.607349 -0.177805
-0.124155 0.607406 -0.177955
-0.120643 0.607410 -0.178092
-0.117333 0.608342 -0.178451
-0.113651 0.607435 -0.178368
-0.110062 0.606913 -0.178376
-0.106658 0.607289 -0.178600
-0.103183 0.607264 -0.178726
-0.099629 0.606767 -0.178738
-0.096195 0.606881 -0.178897
-0.092943 0.608028 -0.179304
-0.089517 0.608161 -0.179467
-0.085761 0.606235 -0.179130
-0.082567 0.607735 -0.179623
-0.078810 0.605599 -0.179233
-0.075449 0.605982 -0.179454
-0.072085 0.606333 -0.179667
-0.068800 0.607258 -0.180019
-0.065456 0.607783 -0.180273
-0.062053 0.607857 -0.180418
-0.058570 0.607264 -0.180400
-0.055112 0.606812 -0.180415
-0.051632 0.606109 -0.180369
-0.048305 0.606722 -0.180644
-0.044936 0.606969 -0.180829
-0.041564 0.607200 -0.181010
-0.038166 0.607164 -0.181125
-0.034844 0.607943 -0.181440
-0.031835 0.612474 -0.182673
-0.028687 0.615808 -0.183614
-0.025156 0.614489 -0.183416
-0.021642 0.613231 -0.183231
-0.017861 0.607733 -0.182005
-0.014410 0.606770 -0.181891
-0.011007 0.606485 -0.181943
-0.007592 0.605919 -0.181926
-0.004215 0.606052 -0.182081
-0.001244 0.615855 -0.184619
0.002286 0.613236 -0.184096
0.005657 0.614745 -0.184591
0.009281 0.607710 -0.182977
0.012712 0.606165 -0.182716
0.016103 0.606062 -0.182812
0.019508 0.604967 -0.182662
0.022905 0.603775 -0.182488
0.026286 0.603939 -0.182649
0.029671 0.604903 -0.183009
0.033060 0.604736 -0.183088
0.036460 0.605601 -0.183424
0.039851 0.605241 -0.183455
0.043240 0.604820 -0.183471
0.046653 0.605460 -0.183751
0.050077 0.606195 -0.184054
0.053539 0.607769 -0.184567
0.057077 0.610824 -0.185450
0.060668 0.614388 -0.186461
0.064044 0.612786 -0.186183
0.067064 0.604820 -0.184314
0.070406 0.603616 -0.184133
0.073830 0.603857 -0.184314
0.077335 0.605203 -0.184771
0.080739 0.604968 -0.184833
0.084124 0.604469 -0.184828
0.087668 0.605931 -0.185315
0.091649 0.612169 -0.187002
0.094653 0.607176 -0.185869
0.097935 0.605497 -0.185568
0.101230 0.604083 -0.185333
0.104651 0.603943 -0.185418
0.108197 0.604907 -0.185781
0.111610 0.604621 -0.185830
0.114959 0.603808 -0.185745
0.119854 0.615238 -0.188751
0.123315 0.614890 -0.188785
0.126527 0.612720 -0.188359
0.129492 0.608931 -0.187523
0.132014 0.602342 -0.185976
0.135790 0.604447 -0.186629
0.139481 0.605856 -0.187107
0.142881 0.605347 -0.187099
0.146377 0.605422 -0.187239
0.149781 0.604929 -0.187234
0.153314 0.605176 -0.187418
0.156808 0.605170 -0.187537
0.159920 0.603087 -0.187128
0.163291 0.602442 -0.187084
0.166563 0.601304 -0.186914
0.170211 0.602070 -0.187230
0.176048 0.613428 -0.190249
0.179302 0.611955 -0.189995
0.181731 0.606698 -0.188774
0.184833 0.604706 -0.188385
0.187888 0.602569 -0.187960
0.191345 0.602242 -0.187996
0.195018 0.602826 -0.188267
0.199015 0.604701 -0.188868
0.202290 0.603537 -0.188690
0.205682 0.602862 -0.188638
0.211386 0.611224 -0.190907
0.214109 0.607811 -0.190151
0.216863 0.604612 -0.189450
0.219730 0.601925 -0.188879
0.223500 0.602578 -0.189168
0.226033 0.598781 -0.188310
0.230042 0.600248 -0.188809
0.233727 0.600520 -0.188999
0.239085 0.606390 -0.190636
0.243218 0.607974 -0.191167
0.247866 0.611152 -0.192110
0.248993 0.602908 -0.190100
0.252094 0.601124 -0.189759
0.255737 0.601048 -0.189860
0.259365 0.600891 -0.189940
0.263164 0.601221 -0.190146
0.267229 0.602293 -0.190546
0.271129 0.602814 -0.190802
0.275203 0.603782 -0.191175
0.278234 0.601741 -0.190766
0.281966 0.601672 -0.190869
0.285846 0.601972 -0.191069
0.289398 0.601339 -0.191025
0.293940 0.603319 -0.191663
0.300829 0.611361 -0.193884
0.303969 0.609437 -0.193505
0.305272 0.602839 -0.191904
0.307927 0.599782 -0.191227
0.312846 0.602379 -0.192028
0.316375 0.601461 -0.191910
0.320323 0.601534 -0.192052
0.324562 0.602254 -0.192363
0.328848 0.603016 -0.192686
0.332969 0.603328 -0.192892
0.336539 0.602325 -0.192752
0.339692 0.600353 -0.192357
0.340688 0.593573 -0.190696
0.346031 0.596488 -0.191586
0.350292 0.596926 -0.191824
0.355877 0.600147 -0.192797
0.362582 0.605608 -0.194362
0.366183 0.604381 -0.194164
0.371422 0.606520 -0.194855
0.372419 0.599885 -0.193227
0.376235 0.599048 -0.193131
0.380256 0.598585 -0.193135
0.385697 0.600878 -0.193868
0.389403 0.599685 -0.193679
0.393139 0.598525 -0.193498
0.397773 0.599043 -0.193763
0.402236 0.599177 -0.193926
0.406528 0.598939 -0.193991
0.410845 0.598701 -0.194056
0.415635 0.599275 -0.194338
0.421001 0.600821 -0.194880
0.425291 0.600379 -0.194893
0.428831 0.598587 -0.194545
0.432967 0.597825 -0.194473
0.436886 0.596672 -0.194297
0.441279 0.596307 -0.194331
0.447159 0.598408 -0.195026
0.449673 0.594859 -0.194210
0.454552 0.595238 -0.194445
0.458206 0.593603 -0.194140
0.462096 0.592365 -0.193943
0.469652 0.596956 -0.195310
0.474733 0.597563 -0.195610
0.480503 0.599229 -0.196195
0.482228 0.594653 -0.195102
0.491221 0.601239 -0.197013
0.493465 0.597552 -0.196159
0.494872 0.592720 -0.194995
0.491566 0.581060 -0.191988
0.492334 0.575620 -0.190655
0.493473 0.570869 -0.189508
0.508804 0.586619 -0.193903
-0.318050 0.605184 -0.173194
-0.311923 0.600217 -0.172172
-0.309063 0.602034 -0.172742
-0.305609 0.602730 -0.173053
-0.301676 0.602503 -0.173149
-0.298286 0.603515 -0.173539
-0.294952 0.604739 -0.173981
-0.291106 0.604921 -0.174180
-0.287666 0.606066 -0.174608
-0.283915 0.606579 -0.174889
-0.280640 0.608231 -0.175439
-0.275160 0.604831 -0.174798
-0.272020 0.606866 -0.175441
-0.268036 0.606954 -0.175625
-0.263693 0.606179 -0.175605
-0.259725 0.606298 -0.175796
-0.255624 0.606082 -0.175908
-0.251820 0.606592 -0.176193
-0.248024 0.607117 -0.176481
-0.243828 0.606594 -0.176519
-0.239906 0.606746 -0.176717
-0.236300 0.607714 -0.177109
-0.232015 0.606830 -0.177059
-0.228430 0.607806 -0.177453
-0.224212 0.606997 -0.177418
-0.221127 0.609336 -0.178137
-0.217275 0.609485 -0.178331
-0.212786 0.607721 -0.178064
-0.209011 0.607973 -0.178281
-0.205077 0.607704 -0.178371
-0.201252 0.607702 -0.178524
-0.197615 0.608237 -0.178805
-0.193662 0.607725 -0.178834
-0.189951 0.607926 -0.179033
-0.186108 0.607641 -0.179114
-0.182433 0.607854 -0.179314
-0.178983 0.608788 -0.179688
-0.175392 0.609210 -0.179937
-0.171407 0.608194 -0.179837
-0.167097 0.605915 -0.179429
-0.163550 0.606299 -0.179665
-0.160330 0.607866 -0.180189
-0.156481 0.607041 -0.180130
-0.153011 0.607608 -0.180409
-0.149098 0.606381 -0.180251
-0.145063 0.604562 -0.179947
-0.141727 0.605511 -0.180316
-0.138589 0.607288 -0.180888
-0.135000 0.607142 -0.180990
-0.131535 0.607492 -0.181212
-0.128103 0.607963 -0.181463
-0.124441 0.607344 -0.181446
-0.121290 0.609069 -0.182004
-0.117380 0.607157 -0.181669
-0.113707 0.606284 -0.181588
-0.110328 0.606825 -0.181853
-0.106887 0.607023 -0.182034
-0.103389 0.606895 -0.182134
-0.099750 0.605942 -0.182030
-0.096282 0.605867 -0.182142
-0.092929 0.606414 -0.182406
-0.089572 0.606941 -0.182666
-0.086115 0.606852 -0.182773
-0.082495 0.605685 -0.182613
-0.079261 0.606939 -0.183051
-0.075691 0.605975 -0.182940
-0.072261 0.605894 -0.183047
-0.068956 0.606685 -0.183370
-0.065657 0.607553 -0.183712
-0.062218 0.607370 -0.183793
-0.058796 0.607284 -0.183898
-0.055424 0.607594 -0.184101
-0.051887 0.606464 -0.183945
-0.048517 0.606732 -0.184137
-0.045165 0.607183 -0.184375
-0.041759 0.607119 -0.184484
-0.038384 0.607361 -0.184668
-0.035138 0.609032 -0.185210
-0.031916 0.611172 -0.185869
-0.028713 0.613781 -0.186646
-0.025136 0.611792 -0.186274
-0.021716 0.611731 -0.186383
-0.018193 0.610101 -0.186099
-0.014521 0.605795 -0.185143
-0.011149 0.606053 -0.185331
-0.007765 0.606116 -0.185469
-0.004346 0.605478 -0.185432
-0.001559 0.619581 -0.189100
0.001872 0.620186 -0.189378
0.005512 0.614630 -0.188104
0.009117 0.608458 -0.186673
0.012593 0.605333 -0.186008
0.015976 0.605698 -0.186222
0.019338 0.607877 -0.186894
0.022733 0.608930 -0.187283
0.026161 0.604591 -0.186308
0.029553 0.605452 -0.186648
0.032950 0.605526 -0.186789
0.036341 0.604793 -0.186725
0.039733 0.604430 -0.186755
0.043139 0.604846 -0.186982
0.046551 0.605272 -0.187212
0.049965 0.605588 -0.187414
0.053425 0.607060 -0.187910
0.057137 0.614567 -0.189942
0.060654 0.615929 -0.190412
0.063902 0.611479 -0.189403
0.067012 0.605226 -0.187932
0.070321 0.603342 -0.187573
0.073814 0.604623 -0.188022
0.077278 0.605269 -0.188309
0.080654 0.604579 -0.188254
0.084032 0.603963 -0.188219
0.088052 0.611148 -0.190179
0.091499 0.610973 -0.190257
0.094904 0.610317 -0.190213
0.098014 0.606677 -0.189402
0.101319 0.605266 -0.189162
0.104732 0.604956 -0.189205
0.108289 0.605935 -0.189579
0.111931 0.607531 -0.190111
0.115087 0.604983 -0.189579
0.119792 0.614835 -0.192238
0.123498 0.616334 -0.192748
0.126474 0.612351 -0.191845
0.129551 0.609332 -0.191190
0.131749 0.600486 -0.189030
0.135685 0.603679 -0.189976
0.139384 0.605138 -0.190476
0.142945 0.605620 -0.190723
0.146227 0.604374 -0.190523
0.149819 0.604986 -0.190804
0.153297 0.604896 -0.190904
0.156869 0.605306 -0.191133
0.160171 0.604217 -0.190973
0.163744 0.604583 -0.191191
0.167008 0.603326 -0.190987
0.170446 0.602976 -0.191019
0.176698 0.616301 -0.194610
0.179971 0.614833 -0.194352
0.183046 0.612486 -0.193866
0.185812 0.608819 -0.193034
0.187787 0.601789 -0.191324
0.191007 0.600433 -0.191092
0.195662 0.605202 -0.192461
0.199035 0.604417 -0.192379
0.202490 0.603977 -0.192388
0.205773 0.602839 -0.192213
0.211814 0.612497 -0.194867
0.215012 0.610861 -0.194563
0.217734 0.607471 -0.193799
0.220875 0.605723 -0.193464
0.222108 0.597109 -0.191326
0.225791 0.597486 -0.191548
0.229830 0.599062 -0.192085
0.234178 0.601613 -0.192880
0.238852 0.605144 -0.193934
0.242073 0.603712 -0.193681
0.244941 0.601146 -0.193129
0.248457 0.600711 -0.193138
0.252282 0.601230 -0.193399
0.256580 0.603165 -0.194035
0.260138 0.602749 -0.194050
0.263920 0.602983 -0.194237
0.267581 0.602820 -0.194319
0.271988 0.604792 -0.194967
0.275624 0.604464 -0.195006
0.278423 0.601746 -0.194410
0.281022 0.598516 -0.193678
0.285607 0.600779 -0.194405
0.289735 0.601704 -0.194777
0.295556 0.607068 -0.196330
0.301353 0.612173 -0.197817
0.303880 0.608643 -0.197005
0.308479 0.610448 -0.197614
0.307235 0.597474 -0.194282
0.312755 0.601580 -0.195504
0.316581 0.601388 -0.195581
0.320814 0.602137 -0.195909
0.324815 0.602268 -0.196073
0.328859 0.602451 -0.196250
0.334386 0.606019 -0.197335
0.335960 0.600400 -0.195959
0.337975 0.595877 -0.194875
0.345827 0.604426 -0.197299
0.351443 0.607791 -0.198333
0.355121 0.606807 -0.198201
0.356028 0.599852 -0.196462
0.359547 0.598552 -0.196244
0.364660 0.600566 -0.196918
0.368332 0.599499 -0.196763
0.372708 0.599841 -0.196987
0.376692 0.599332 -0.196983
0.380547 0.598526 -0.196899
0.384665 0.598201 -0.196945
0.389363 0.598958 -0.197284
0.393334 0.598247 -0.197227
0.397664 0.598179 -0.197344
0.405367 0.604391 -0.199164
0.408884 0.602643 -0.198828
0.412139 0.600403 -0.198358
0.416632 0.600408 -0.198498
0.421582 0.601183 -0.198848
0.426226 0.601351 -0.199033
0.429982 0.599915 -0.198783
0.433242 0.597613 -0.198296
0.437191 0.596500 -0.198134
0.441566 0.596095 -0.198165
0.447193 0.597761 -0.198762
0.455663 0.604063 -0.200627
0.464104 0.610156 -0.202438
0.459885 0.595606 -0.198602
0.464689 0.595798 -0.198799
0.470140 0.597001 -0.199274
0.474742 0.596843 -0.199376
0.478525 0.595421 -0.199131
0.480838 0.591779 -0.198277
0.487049 0.594148 -0.199073
0.490505 0.592346 -0.198724
0.489162 0.583462 -0.196423
0.493682 0.583432 -0.196560
0.492626 0.575300 -0.194461
0.491484 0.567244 -0.192380
0.478477 0.542390 -0.185656
-0.316871 0.601626 -0.176019
-0.314022 0.603377 -0.176579
-0.309669 0.602136 -0.176425
-0.305944 0.602275 -0.176604
-0.302652 0.603419 -0.177026
-0.299219 0.604360 -0.177401
-0.295695 0.605193 -0.177753
-0.292266 0.606315 -0.178176
-0.287622 0.604802 -0.177967
-0.284661 0.607097 -0.178676
-0.280825 0.607483 -0.178926
-0.276217 0.606115 -0.178753
-0.272162 0.606028 -0.178890
-0.268308 0.606427 -0.179145
-0.264267 0.606391 -0.179294
-0.260461 0.606924 -0.179582
-0.256637 0.607418 -0.179861
-0.252695 0.607614 -0.180067
-0.248959 0.608321 -0.180397
-0.245070 0.608628 -0.180630
-0.241067 0.608610 -0.180783
-0.236700 0.607589 -0.180692
-0.232786 0.607722 -0.180880
-0.229052 0.608317 -0.181181
-0.225521 0.609451 -0.181613
-0.221165 0.608232 -0.181469
-0.216937 0.607297 -0.181393
-0.213048 0.607274 -0.181540
-0.209253 0.607477 -0.181741
-0.205652 0.608216 -0.182073
-0.201727 0.607933 -0.182153
-0.197653 0.607121 -0.182102
-0.193836 0.607041 -0.182230
-0.189932 0.606621 -0.182274
-0.186403 0.607362 -0.182602
-0.182899 0.608160 -0.182944
-0.178749 0.606726 -0.182735
-0.175366 0.607846 -0.183155
-0.171589 0.607559 -0.183227
-0.167847 0.607334 -0.183313
-0.163997 0.606647 -0.183284
-0.160545 0.607372 -0.183604
-0.156970 0.607601 -0.183800
-0.153274 0.607312 -0.183867
-0.149279 0.605777 -0.183623
-0.146286 0.608186 -0.184360
-0.142203 0.606139 -0.183987
-0.138625 0.606084 -0.184109
-0.135223 0.606740 -0.184407
-0.131750 0.607065 -0.184623
-0.128292 0.607426 -0.184847
-0.125007 0.608556 -0.185263
-0.121384 0.608098 -0.185282
-0.117628 0.606930 -0.185122
-0.114013 0.606362 -0.185112
-0.110595 0.606724 -0.185334
-0.107336 0.607893 -0.185758
-0.103784 0.607515 -0.185794
-0.100166 0.606722 -0.185725
-0.096385 0.604929 -0.185404
-0.093052 0.605593 -0.185700
-0.089782 0.606634 -0.186090
-0.086310 0.606468 -0.186177
-0.082732 0.605583 -0.186082
-0.079457 0.606593 -0.186464
-0.076106 0.607124 -0.186726
-0.072514 0.605984 -0.186565
-0.069118 0.606150 -0.186734
-0.065808 0.606943 -0.187061
-0.062451 0.607400 -0.187303
-0.059056 0.607568 -0.187472
-0.055537 0.606686 -0.187374
-0.052154 0.606898 -0.187554
-0.048714 0.606595 -0.187602
-0.045322 0.606690 -0.187751
-0.041974 0.607222 -0.188012
-0.038620 0.607726 -0.188265
-0.035285 0.608480 -0.188582
-0.032037 0.610328 -0.189178
-0.028602 0.610061 -0.189235
-0.025254 0.610897 -0.189573
-0.021834 0.610839 -0.189683
-0.018438 0.611116 -0.189879
-0.014715 0.606143 -0.188732
-0.011331 0.606297 -0.188895
-0.007968 0.606858 -0.189163
-0.004573 0.606877 -0.189291
-0.001592 0.616627 -0.191915
0.001879 0.615907 -0.191855
0.005380 0.614112 -0.191520
0.008986 0.608006 -0.190076
0.012461 0.605007 -0.189429
0.015814 0.607110 -0.190093
0.019207 0.607814 -0.190398
0.022626 0.606577 -0.190203
0.026038 0.604574 -0.189810
0.029433 0.604731 -0.189974
0.032835 0.605494 -0.190293
0.036223 0.604067 -0.190048
0.039621 0.604031 -0.190162
0.043072 0.606667 -0.190967
0.046449 0.605145 -0.190696
0.049867 0.605456 -0.190900
0.053261 0.604920 -0.190884
0.057024 0.613894 -0.193335
0.060467 0.613563 -0.193373
0.063758 0.610138 -0.192609
0.066987 0.606127 -0.191691
0.070300 0.604169 -0.191305
0.073781 0.605135 -0.191680
0.077198 0.604990 -0.191765
0.080590 0.604478 -0.191756
0.084088 0.605359 -0.192109
0.087864 0.609466 -0.193304
0.091380 0.610122 -0.193599
0.094775 0.609363 -0.193526
0.097986 0.606762 -0.192970
0.101284 0.605227 -0.192693
0.104678 0.604707 -0.192681
0.108187 0.605225 -0.192940
0.111669 0.605449 -0.193123
0.115113 0.605309 -0.193210
0.120347 0.619301 -0.197007
0.123831 0.618914 -0.197032
0.126772 0.614549 -0.196011
0.129224 0.606998 -0.194151
0.131794 0.600745 -0.192630
0.135615 0.603148 -0.193387
0.139280 0.604369 -0.193833
0.142815 0.604694 -0.194043
0.146288 0.604600 -0.194142
0.149705 0.604156 -0.194150
0.153127 0.603742 -0.194165
0.156521 0.603176 -0.194140
0.160077 0.603487 -0.194347
0.163671 0.603961 -0.194597
0.167196 0.604031 -0.194741
0.170498 0.602965 -0.194583
0.176840 0.616704 -0.198353
0.179963 0.614489 -0.197893
0.183121 0.612513 -0.197495
0.185870 0.608756 -0.196623
0.187324 0.599399 -0.194260
0.192274 0.605576 -0.196029
0.195651 0.604792 -0.195946
0.199066 0.604176 -0.195908
0.202515 0.603696 -0.195906
0.205940 0.603113 -0.195877
0.212233 0.613726 -0.198838
0.216153 0.614814 -0.199256
0.219081 0.612109 -0.198661
0.222049 0.609621 -0.198124
0.224740 0.606195 -0.197334
0.228941 0.608230 -0.198007
0.231996 0.606167 -0.197582
0.235280 0.604930 -0.197377
0.238359 0.603014 -0.196991
0.241349 0.600841 -0.196534
0.245267 0.601727 -0.196900
0.248653 0.600850 -0.196791
0.254776 0.608584 -0.199002
0.258806 0.609554 -0.199393
0.262006 0.607929 -0.199084
0.266331 0.609698 -0.199691
0.271375 0.613496 -0.200847
0.275137 0.613417 -0.200957
0.277087 0.608115 -0.199655
0.278742 0.602108 -0.198161
0.281696 0.599845 -0.197678
0.286554 0.602823 -0.198615
0.290010 0.601892 -0.198493
0.295154 0.605436 -0.199585
0.300489 0.609339 -0.200777
0.304433 0.609496 -0.200952
0.303880 0.598158 -0.198004
0.307061 0.596462 -0.197674
0.313138 0.601945 -0.199298
0.316391 0.600337 -0.198993
0.320881 0.601706 -0.199500
0.324719 0.601443 -0.199562
0.332812 0.611125 -0.202339
0.333240 0.602754 -0.200189
0.335159 0.597962 -0.199015
0.339279 0.598209 -0.199218
0.345138 0.602272 -0.200466
0.351574 0.607450 -0.202021
0.354515 0.604860 -0.201450
0.355074 0.597177 -0.199481
0.359023 0.596809 -0.199518
0.363452 0.597402 -0.199819
0.368450 0.599101 -0.200425
0.372810 0.599404 -0.200648
0.377370 0.600050 -0.200967
0.381751 0.600268 -0.201169
0.385479 0.599144 -0.201001
0.389377 0.598323 -0.200917
0.393120 0.597170 -0.200742
0.396013 0.594379 -0.200115
0.406143 0.605166 -0.203242
0.410549 0.605045 -0.203355
0.414208 0.603507 -0.203077
0.418050 0.602285 -0.202887
0.422318 0.601805 -0.202902
0.425662 0.599656 -0.202455
0.430110 0.599438 -0.202544
0.433804 0.597881 -0.202261
0.437774 0.596789 -0.202107
0.442137 0.596350 -0.202136
0.450178 0.602033 -0.203872
0.457608 0.606549 -0.205285
0.459073 0.601194 -0.203945
0.460054 0.595150 -0.202411
0.464286 0.594420 -0.202360
0.469159 0.594710 -0.202595
0.473948 0.594857 -0.202790
0.482370 0.600631 -0.204562
0.484466 0.596593 -0.203586
0.488065 0.594934 -0.203275
0.489040 0.589386 -0.201871
0.488889 0.582302 -0.200033
0.494126 0.583327 -0.200473
0.497752 0.582023 -0.200257
0.488928 0.562803 -0.194992
0.492620 0.561908 -0.194885
-0.318893 0.604567 -0.180406
-0.314241 0.602659 -0.180079
-0.310876 0.603474 -0.180421
-0.307427 0.604219 -0.180747
-0.303609 0.604278 -0.180907
-0.299655 0.604124 -0.181016
-0.296280 0.605289 -0.181451
-0.292541 0.605739 -0.181712
-0.288738 0.606109 -0.181954
-0.284624 0.605830 -0.182037
-0.280567 0.605707 -0.182159
-0.276137 0.604745 -0.182075
-0.273381 0.607700 -0.182958
-0.268261 0.605127 -0.182476
-0.264457 0.605657 -0.182761
-0.260681 0.606267 -0.183066
-0.256959 0.607021 -0.183407
-0.253316 0.607975 -0.183797
-0.249481 0.608450 -0.184068
-0.245483 0.608489 -0.184231
-0.241739 0.609165 -0.184552
-0.238372 0.610833 -0.185120
-0.234229 0.610412 -0.185167
-0.229774 0.609080 -0.184986
-0.226029 0.609643 -0.185277
-0.222633 0.611165 -0.185807
-0.217198 0.606820 -0.184870
-0.213694 0.607929 -0.185295
-0.209859 0.608038 -0.185470
-0.205887 0.607685 -0.185528
-0.202050 0.607680 -0.185672
-0.198178 0.607508 -0.185774
-0.193863 0.605869 -0.185506
-0.190077 0.605827 -0.185639
-0.186707 0.607093 -0.186099
-0.183137 0.607681 -0.186389
-0.179356 0.607514 -0.186488
-0.175401 0.606679 -0.186418
-0.171764 0.606886 -0.186609
-0.167968 0.606470 -0.186643
-0.164513 0.607231 -0.186973
-0.160712 0.606679 -0.186971
-0.157106 0.606794 -0.187137
-0.153636 0.607389 -0.187424
-0.150129 0.607805 -0.187665
-0.146111 0.606126 -0.187374
-0.142443 0.605771 -0.187419
-0.139161 0.606977 -0.187859
-0.135622 0.607079 -0.188018
-0.132146 0.607417 -0.188237
-0.128525 0.607072 -0.188282
-0.125045 0.607314 -0.188475
-0.121612 0.607742 -0.188716
-0.117876 0.606688 -0.188578
-0.114331 0.606482 -0.188656
-0.110880 0.606701 -0.188842
-0.107464 0.607075 -0.189068
-0.103954 0.606921 -0.189158
-0.100518 0.607134 -0.189342
-0.097028 0.607012 -0.189439
-0.093534 0.606831 -0.189522
-0.090115 0.607042 -0.189704
-0.086605 0.606681 -0.189739
-0.083058 0.606029 -0.189699
-0.079693 0.606491 -0.189945
-0.076388 0.607357 -0.190296
-0.072933 0.607208 -0.190384
-0.069371 0.606248 -0.190264
-0.065978 0.606452 -0.190443
-0.062639 0.607071 -0.190729
-0.059245 0.607266 -0.190905
-0.055827 0.607248 -0.191027
-0.052319 0.606433 -0.190942
-0.048881 0.606162 -0.190997
-0.045488 0.606272 -0.191151
-0.042136 0.606782 -0.191409
-0.038774 0.607227 -0.191650
-0.035433 0.607931 -0.191958
-0.032102 0.608815 -0.192313
-0.028745 0.609471 -0.192608
-0.025280 0.608796 -0.192558
-0.021969 0.610163 -0.193039
-0.018501 0.609383 -0.192962
-0.014889 0.606167 -0.192249
-0.011493 0.606174 -0.192375
-0.008089 0.606018 -0.192459
-0.004676 0.605662 -0.192491
-0.001537 0.611643 -0.194178
0.001819 0.613415 -0.194767
0.005284 0.612458 -0.194642
0.008710 0.612594 -0.194804
0.012227 0.608988 -0.193984
0.015675 0.607258 -0.193656
0.019074 0.607892 -0.193946
0.022492 0.607248 -0.193902
0.025908 0.605906 -0.193674
0.029315 0.607485 -0.194214
0.032729 0.607359 -0.194306
0.036125 0.605332 -0.193897
0.039573 0.608012 -0.194727
0.043031 0.609831 -0.195332
0.046463 0.609767 -0.195440
0.049860 0.608463 -0.195221
0.053413 0.612014 -0.196284
0.056851 0.611699 -0.196327
0.060262 0.610789 -0.196212
0.063651 0.609559 -0.196012
0.066928 0.606395 -0.195300
0.070253 0.604555 -0.194937
0.073709 0.605025 -0.195187
0.077134 0.604938 -0.195288
0.080579 0.605107 -0.195458
0.083990 0.604779 -0.195496
0.087594 0.606795 -0.196157
0.091141 0.607894 -0.196575
0.094413 0.605878 -0.196164
0.097778 0.604983 -0.196051
0.101122 0.603954 -0.195902
0.104494 0.603243 -0.195838
0.108039 0.604112 -0.196195
0.111559 0.604663 -0.196468
0.115075 0.605122 -0.196716
0.120158 0.617886 -0.200257
0.123824 0.618901 -0.200656
0.126604 0.613327 -0.199292
0.128891 0.604624 -0.197087
0.132169 0.603257 -0.196846
0.135597 0.602952 -0.196890
0.139207 0.603803 -0.197245
0.142624 0.603379 -0.197257
0.146221 0.604044 -0.197562
0.149650 0.603667 -0.197587
0.153049 0.603112 -0.197564
0.156412 0.602367 -0.197490
0.160011 0.602910 -0.197763
0.163713 0.603938 -0.198167
0.167266 0.604128 -0.198346
0.170692 0.603656 -0.198345
0.176037 0.612508 -0.200866
0.179655 0.612721 -0.201053
0.182624 0.609893 -0.200416
0.185338 0.606013 -0.199494
0.187377 0.599296 -0.197801
0.192124 0.604572 -0.199360
0.195575 0.604104 -0.199361
0.199000 0.603522 -0.199332
0.202556 0.603475 -0.199447
0.206455 0.604767 -0.199928
0.211698 0.611225 -0.201814
0.215392 0.611478 -0.202014
0.219379 0.612797 -0.202504
0.222051 0.609189 -0.201651
0.225229 0.607521 -0.201327
0.228518 0.606276 -0.201118
0.232671 0.608057 -0.201735
0.235672 0.605803 -0.201250
0.237657 0.600179 -0.199842
0.241440 0.600659 -0.200103
0.245666 0.602535 -0.200748
0.249291 0.602397 -0.200842
0.256430 0.613277 -0.203959
0.259146 0.610090 -0.203218
0.262693 0.609502 -0.203190
0.267442 0.612498 -0.204148
0.271690 0.613889 -0.204665
0.274128 0.609944 -0.203714
0.276680 0.606409 -0.202875
0.278708 0.601465 -0.201647
0.281931 0.599949 -0.201363
0.286344 0.601693 -0.201978
0.290911 0.603758 -0.202684
0.295648 0.606177 -0.203489
0.300574 0.608983 -0.204402
0.302612 0.604214 -0.203220
0.304479 0.599101 -0.201940
0.307941 0.598089 -0.201797
0.313395 0.601990 -0.203017
0.317392 0.602185 -0.203209
0.321016 0.601431 -0.203139
0.325279 0.602167 -0.203483
0.332171 0.609003 -0.205526
0.334460 0.604961 -0.204543
0.335419 0.597939 -0.202728
0.341106 0.601705 -0.203920
0.346281 0.604185 -0.204755
0.350324 0.604066 -0.204865
0.353761 0.602585 -0.204596
0.355090 0.596572 -0.203060
0.359025 0.596172 -0.203092
0.364085 0.598075 -0.203771
0.368709 0.598981 -0.204171
0.372286 0.597679 -0.203954
0.377802 0.600256 -0.204825
0.382212 0.600518 -0.205048
0.385743 0.598992 -0.204770
0.389532 0.597950 -0.204627
0.393133 0.596517 -0.204375
0.396376 0.594388 -0.203927
0.405188 0.602683 -0.206420
0.409901 0.603148 -0.206706
0.414681 0.603671 -0.207010
0.419461 0.604132 -0.207298
0.422821 0.601996 -0.206852
0.426339 0.600141 -0.206485
0.429762 0.598117 -0.206070
0.434761 0.598815 -0.206428
0.438527 0.597354 -0.206173
0.442163 0.595668 -0.205855
0.453431 0.606728 -0.209161
0.455074 0.601624 -0.207872
0.456148 0.595676 -0.206342
0.459233 0.593084 -0.205766
0.462808 0.591314 -0.205423
0.467420 0.591212 -0.205557
0.476315 0.597804 -0.207602
0.478930 0.594542 -0.206833
0.484614 0.596056 -0.207430
0.488933 0.595482 -0.207429
0.495989 0.599049 -0.208614
0.494547 0.589947 -0.206166
0.494854 0.583632 -0.204514
0.503082 0.589020 -0.206220
0.499537 0.577361 -0.203026
0.493229 0.562025 -0.198767
-0.319466 0.604555 -0.184095
-0.314523 0.602064 -0.183612
-0.311218 0.603006 -0.183988
-0.308089 0.604426 -0.184485
-0.303713 0.603319 -0.184351
-0.299811 0.603276 -0.184485
-0.295873 0.603218 -0.184616
-0.292886 0.605307 -0.185287
-0.288904 0.605288 -0.185429
-0.284515 0.604393 -0.185352
-0.280962 0.605414 -0.185757
-0.277619 0.606973 -0.186299
-0.273594 0.606995 -0.186454
-0.268779 0.605156 -0.186139
-0.265767 0.607605 -0.186906
-0.260471 0.604547 -0.186283
-0.257199 0.606403 -0.186901
-0.253473 0.607153 -0.187240
-0.249560 0.607431 -0.187459
-0.245804 0.608094 -0.187775
-0.241742 0.607946 -0.187885
-0.238313 0.609443 -0.188412
-0.234227 0.609172 -0.188491
-0.230003 0.608472 -0.188459
-0.226393 0.609415 -0.188845
-0.222835 0.610488 -0.189263
-0.218033 0.607973 -0.188766
-0.213995 0.607557 -0.188804
-0.210273 0.608010 -0.189062
-0.206528 0.608359 -0.189294
-0.202498 0.607787 -0.189289
-0.198945 0.608629 -0.189646
-0.194121 0.605418 -0.188963
-0.191096 0.607834 -0.189722
-0.187246 0.607578 -0.189795
-0.183346 0.607087 -0.189808
-0.179565 0.606926 -0.189904
-0.175709 0.606443 -0.189917
-0.171916 0.606111 -0.189967
-0.168296 0.606331 -0.190160
-0.164850 0.607142 -0.190504
-0.161377 0.607828 -0.190816
-0.157555 0.607160 -0.190778
-0.153787 0.606625 -0.190773
-0.149883 0.605476 -0.190610
-0.146702 0.607149 -0.191175
-0.143147 0.607300 -0.191346
-0.139649 0.607644 -0.191568
-0.136245 0.608362 -0.191885
-0.132468 0.607426 -0.191774
-0.128712 0.606497 -0.191664
-0.125242 0.606788 -0.191869
-0.121750 0.606951 -0.192042
-0.118319 0.607367 -0.192280
-0.114617 0.606425 -0.192164
-0.111207 0.606873 -0.192410
-0.107606 0.606313 -0.192393
-0.104130 0.606348 -0.192530
-0.100663 0.606396 -0.192671
-0.097272 0.606835 -0.192914
-0.093785 0.606713 -0.193010
-0.090329 0.606727 -0.193141
-0.086976 0.607340 -0.193429
-0.083446 0.606848 -0.193427
-0.079989 0.606763 -0.193532
-0.076582 0.606977 -0.193715
-0.073147 0.606984 -0.193844
-0.069674 0.606693 -0.193894
-0.066240 0.606642 -0.194007
-0.062831 0.606754 -0.194163
-0.059387 0.606570 -0.194241
-0.055956 0.606457 -0.194337
-0.052561 0.606623 -0.194507
-0.049076 0.605969 -0.194460
-0.045658 0.605870 -0.194560
-0.042374 0.607076 -0.195004
-0.038971 0.607156 -0.195151
-0.035544 0.606953 -0.195223
-0.032260 0.608379 -0.195726
-0.029018 0.610468 -0.196405
-0.025392 0.607809 -0.195827
-0.021948 0.607323 -0.195823
-0.018619 0.608468 -0.196253
-0.015087 0.606540 -0.195867
-0.011637 0.605707 -0.195771
-0.008212 0.605197 -0.195761
-0.004834 0.605587 -0.195990
-0.001770 0.613354 -0.198183
0.001651 0.613758 -0.198418
0.005119 0.612883 -0.198311
0.008552 0.612994 -0.198468
0.011967 0.613931 -0.198845
0.015368 0.616138 -0.199561
0.018766 0.620113 -0.200751
0.022290 0.615004 -0.199513
0.025734 0.616824 -0.200127
0.029196 0.614361 -0.199595
0.032648 0.614448 -0.199745
0.036095 0.613694 -0.199670
0.039560 0.614552 -0.200028
0.043080 0.617698 -0.201000
0.046582 0.618752 -0.201412
0.049963 0.615270 -0.200603
0.053312 0.611746 -0.199783
0.056757 0.611538 -0.199854
0.060157 0.610275 -0.199641
0.063423 0.606472 -0.198742
0.066891 0.607101 -0.199038
0.070199 0.604827 -0.198551
0.073605 0.604424 -0.198568
0.077158 0.606196 -0.199174
0.080495 0.604736 -0.198905
0.083998 0.605557 -0.199254
0.087720 0.608910 -0.200290
0.091235 0.609486 -0.200573
0.094487 0.607109 -0.200056
0.098142 0.609103 -0.200725
0.101030 0.603362 -0.199293
0.104403 0.602638 -0.199223
0.108018 0.604126 -0.199755
0.111556 0.604798 -0.200065
0.115063 0.605139 -0.200285
0.119789 0.615052 -0.203114
0.123258 0.614644 -0.203133
0.126351 0.611479 -0.202398
0.129098 0.606072 -0.201051
0.132122 0.602888 -0.200309
0.135773 0.604035 -0.200750
0.138861 0.601483 -0.200180
0.142557 0.602841 -0.200680
0.146128 0.603334 -0.200943
0.149696 0.603764 -0.201189
0.153088 0.603141 -0.201147
0.156735 0.603941 -0.201495
0.160254 0.603988 -0.201637
0.163868 0.604502 -0.201908
0.167304 0.604063 -0.201916
0.170652 0.603180 -0.201803
0.175711 0.610625 -0.203983
0.178903 0.608844 -0.203623
0.182011 0.606731 -0.203171
0.184967 0.604001 -0.202548
0.187903 0.601280 -0.201927
0.192090 0.604065 -0.202827
0.195553 0.603641 -0.202840
0.199032 0.603278 -0.202871
0.202864 0.604333 -0.203294
0.207084 0.606867 -0.204128
0.211222 0.608952 -0.204838
0.214808 0.608820 -0.204935
0.218414 0.608737 -0.205045
0.221825 0.607915 -0.204950
0.224633 0.604916 -0.204249
0.229298 0.608584 -0.205403
0.232849 0.608209 -0.205433
0.234837 0.602470 -0.203968
0.237530 0.599270 -0.203210
0.241686 0.600986 -0.203822
0.245890 0.602769 -0.204454
0.249492 0.602536 -0.204524
0.255583 0.610098 -0.206773
0.259248 0.609885 -0.206851
0.263003 0.609917 -0.206997
0.267117 0.610987 -0.207435
0.269591 0.607160 -0.206500
0.272211 0.603836 -0.205706
0.275303 0.601925 -0.205307
0.278786 0.601135 -0.205224
0.281430 0.598002 -0.204481
0.285557 0.598977 -0.204894
0.290644 0.602468 -0.206016
0.295604 0.605483 -0.207006
0.299654 0.605991 -0.207291
0.302773 0.604040 -0.206882
0.305592 0.601340 -0.206263
0.307902 0.597398 -0.205291
0.313655 0.602030 -0.206743
0.317628 0.602153 -0.206922
0.321802 0.602710 -0.207225
0.325462 0.601986 -0.207165
0.332071 0.608141 -0.209057
0.335065 0.605729 -0.208521
0.339089 0.605683 -0.208656
0.342380 0.603938 -0.208310
0.347240 0.605673 -0.208953
0.350335 0.603442 -0.208469
0.354323 0.603151 -0.208537
0.356529 0.599001 -0.207507
0.361049 0.599792 -0.207885
0.364520 0.598323 -0.207618
0.368559 0.598007 -0.207682
0.373552 0.599586 -0.208289
0.378023 0.600023 -0.208570
0.382734 0.600873 -0.208971
0.387087 0.600945 -0.209150
0.390640 0.599411 -0.208870
0.397525 0.604241 -0.210417
0.400754 0.601984 -0.209930
0.403889 0.599549 -0.209393
0.406929 0.596943 -0.208807
0.412369 0.598731 -0.209486
0.419465 0.603420 -0.211002
0.422777 0.601195 -0.210528
0.426983 0.600553 -0.210510
0.430927 0.599421 -0.210352
0.434413 0.597483 -0.209961
0.439819 0.598823 -0.210518
0.443706 0.597533 -0.210315
0.456749 0.611506 -0.214537
0.457029 0.604094 -0.212562
0.456175 0.594968 -0.210085
0.456486 0.587901 -0.208203
0.471323 0.604150 -0.213100
0.473965 0.600787 -0.212296
0.474688 0.594493 -0.210636
0.475565 0.588571 -0.209080
0.480163 0.588471 -0.209222
0.488057 0.593377 -0.210825
0.499088 0.602909 -0.213783
0.501251 0.599117 -0.212845
0.493121 0.580309 -0.207507
0.497785 0.580524 -0.207734
0.504274 0.583415 -0.208745
0.485598 0.550365 -0.199204
-0.317981 0.600371 -0.186731
-0.315026 0.601915 -0.187262
-0.311605 0.602623 -0.187581
-0.307790 0.602613 -0.187719
-0.303524 0.601729 -0.187634
-0.299642 0.601721 -0.187773
-0.296289 0.602925 -0.188224
-0.292818 0.603957 -0.188631
-0.288689 0.603605 -0.188684
-0.284752 0.603720 -0.188857
-0.281201 0.604747 -0.189265
-0.277830 0.606245 -0.189795
-0.274039 0.606818 -0.190087
-0.270280 0.607494 -0.190406
-0.266372 0.607834 -0.190638
-0.262521 0.608318 -0.190908
-0.257726 0.606476 -0.190577
-0.253714 0.606525 -0.190733
-0.249725 0.606613 -0.190899
-0.246024 0.607422 -0.191252
-0.242400 0.608425 -0.191654
-0.238021 0.607418 -0.191536
-0.234525 0.608722 -0.192016
-0.230453 0.608449 -0.192086
-0.226411 0.608206 -0.192164
-0.222494 0.608261 -0.192319
-0.219012 0.609516 -0.192785
-0.214061 0.606481 -0.192134
-0.211281 0.609722 -0.193117
-0.206889 0.608166 -0.192850
-0.203124 0.608421 -0.193054
-0.199211 0.608168 -0.193125
-0.195184 0.607491 -0.193084
-0.191397 0.607506 -0.193224
-0.187944 0.608560 -0.193635
-0.183672 0.606866 -0.193327
-0.180085 0.607377 -0.193595
-0.176119 0.606542 -0.193510
-0.172379 0.606414 -0.193609
-0.168842 0.606957 -0.193885
-0.165192 0.607050 -0.194042
-0.161681 0.607609 -0.194321
-0.158085 0.607816 -0.194507
-0.153734 0.605059 -0.193912
-0.150497 0.606531 -0.194431
-0.147061 0.607216 -0.194742
-0.143424 0.607046 -0.194828
-0.139916 0.607367 -0.195042
-0.136475 0.607937 -0.195323
-0.133065 0.608623 -0.195634
-0.128964 0.606197 -0.195121
-0.125475 0.606416 -0.195308
-0.122220 0.607699 -0.195776
-0.118723 0.607838 -0.195942
-0.115118 0.607413 -0.195957
-0.111669 0.607711 -0.196164
-0.108116 0.607441 -0.196221
-0.104381 0.606156 -0.196007
-0.100990 0.606640 -0.196263
-0.097453 0.606291 -0.196297
-0.093914 0.605876 -0.196314
-0.090558 0.606490 -0.196604
-0.087306 0.607735 -0.197063
-0.083870 0.607869 -0.197226
-0.080279 0.606982 -0.197116
-0.076820 0.606879 -0.197215
-0.073302 0.606340 -0.197197
-0.069870 0.606347 -0.197326
-0.066457 0.606474 -0.197486
-0.063072 0.606794 -0.197698
-0.059561 0.606113 -0.197642
-0.056041 0.605276 -0.197543
-0.052802 0.606786 -0.198075
-0.049435 0.607243 -0.198324
-0.046003 0.607120 -0.198417
-0.042634 0.607582 -0.198667
-0.039231 0.607718 -0.198830
-0.035775 0.607276 -0.198838
-0.032324 0.606832 -0.198844
-0.029044 0.608421 -0.199399
-0.025427 0.605812 -0.198821
-0.022308 0.609751 -0.200012
-0.019079 0.612618 -0.200914
-0.015213 0.605745 -0.199181
-0.011795 0.605477 -0.199235
-0.008403 0.605649 -0.199408
-0.005031 0.606293 -0.199708
-0.002034 0.615730 -0.202395
0.001447 0.614999 -0.202325
0.004891 0.615157 -0.202496
0.008376 0.613968 -0.202301
0.011853 0.612697 -0.202083
0.015238 0.615617 -0.203005
0.018687 0.616140 -0.203276
0.022127 0.618347 -0.204006
0.025609 0.616328 -0.203585
0.029073 0.616879 -0.203864
0.032550 0.618563 -0.204452
0.035999 0.615484 -0.203740
0.039470 0.615864 -0.203973
0.042973 0.617601 -0.204578
0.046460 0.617928 -0.204797
0.049877 0.615624 -0.204295
0.053287 0.613739 -0.203907
0.056731 0.613132 -0.203870
0.060083 0.610513 -0.203279
0.063448 0.608618 -0.202887
0.066851 0.607753 -0.202778
0.070115 0.604586 -0.202035
0.073533 0.604324 -0.202091
0.077037 0.605319 -0.202493
0.080513 0.605767 -0.202744
0.083986 0.606091 -0.202962
0.087745 0.609803 -0.204115
0.091596 0.614128 -0.205438
0.095218 0.615470 -0.205939
0.098405 0.612183 -0.205161
0.101135 0.604693 -0.203218
0.104478 0.603600 -0.203044
0.107940 0.603636 -0.203183
0.111448 0.604037 -0.203423
0.114937 0.604223 -0.203604
0.119098 0.609675 -0.205247
0.123052 0.613119 -0.206334
0.126192 0.610328 -0.205689
0.129064 0.605801 -0.204561
0.132114 0.602778 -0.203849
0.135594 0.602772 -0.203977
0.139256 0.603912 -0.204425
0.142510 0.602419 -0.204139
0.145968 0.602220 -0.204213
0.149821 0.604321 -0.204930
0.153373 0.604570 -0.205130
0.156837 0.604296 -0.205185
0.160485 0.604998 -0.205512
0.164044 0.605179 -0.205694
0.167416 0.604367 -0.205598
0.170432 0.601804 -0.205012
0.175610 0.609836 -0.207397
0.178868 0.608363 -0.207116
0.182111 0.606867 -0.206829
0.185007 0.603841 -0.206111
0.188379 0.603036 -0.206018
0.191872 0.602761 -0.206073
0.195750 0.604099 -0.206583
0.199334 0.604142 -0.206729
0.203316 0.605772 -0.207322
0.207437 0.607863 -0.208047
0.211502 0.609623 -0.208680
0.215178 0.609804 -0.208867
0.218295 0.607851 -0.208450
0.221535 0.606402 -0.208176
0.225625 0.608043 -0.208778
0.230092 0.610931 -0.209733
0.233057 0.608457 -0.209169
0.235228 0.603329 -0.207851
0.237918 0.600090 -0.207069
0.241964 0.601411 -0.207581
0.245687 0.601606 -0.207774
0.249935 0.603442 -0.208435
0.256363 0.612026 -0.211019
0.260198 0.612292 -0.211235
0.263540 0.611014 -0.211013
0.266282 0.607949 -0.210280
0.269322 0.605821 -0.209814
0.272017 0.602723 -0.209071
0.276120 0.603700 -0.209492
0.278106 0.598661 -0.208193
0.283377 0.602833 -0.209530
0.287385 0.603397 -0.209836
0.292227 0.606146 -0.210769
0.295915 0.605719 -0.210792
0.300066 0.606474 -0.211155
0.302900 0.603771 -0.210526
0.306206 0.602301 -0.210250
0.309143 0.599902 -0.209708
0.313991 0.602248 -0.210532
0.318044 0.602549 -0.210768
0.321468 0.601284 -0.210554
0.325500 0.601448 -0.210752
0.332270 0.607968 -0.212788
0.336017 0.607287 -0.212745
0.339153 0.605183 -0.212292
0.342107 0.602674 -0.211721
0.346383 0.603115 -0.212005
0.350887 0.603994 -0.212417
0.355178 0.604339 -0.212675
0.359955 0.605661 -0.213219
0.364554 0.606521 -0.213630
0.366421 0.601612 -0.212364
0.370320 0.600954 -0.212335
0.376827 0.605563 -0.213841
0.380942 0.605198 -0.213900
0.385162 0.604996 -0.214008
0.388100 0.602232 -0.213368
0.392796 0.602884 -0.213727
0.396702 0.601955 -0.213625
0.401279 0.602262 -0.213885
0.403074 0.597310 -0.212605
0.406433 0.595310 -0.212191
0.409864 0.593435 -0.211813
