ply
format ascii 1.0
comment ---
element vertex 1749
property float x
property float y
property float z
element face 0
property list uchar uint vertex_indices
end_header
0.164196 0.603220 0.196217
0.167982 0.606579 0.196960
0.171856 0.610475 0.197825
0.175455 0.611346 0.198007
0.177830 0.600871 0.195629
0.181833 0.605583 0.196683
0.185488 0.606942 0.196981
0.189103 0.607850 0.197179
0.191602 0.599946 0.195389
0.195074 0.599913 0.195378
0.198657 0.600658 0.195545
0.202330 0.601965 0.195841
0.205464 0.599496 0.195286
0.208765 0.598253 0.195009
0.212925 0.602539 0.195984
0.216658 0.603896 0.196299
0.220878 0.608074 0.197254
0.224124 0.606306 0.196867
0.226670 0.600635 0.195601
0.229877 0.598890 0.195224
0.233484 0.599361 0.195350
0.236691 0.597681 0.194992
0.240406 0.598647 0.195235
0.244384 0.600850 0.195759
0.247292 0.597712 0.195079
0.252253 0.604448 0.196635
0.254666 0.599014 0.195441
0.258241 0.599062 0.195489
0.261118 0.595980 0.194832
0.264253 0.594116 0.194453
0.268687 0.597825 0.195339
0.272576 0.599078 0.195672
0.275746 0.597310 0.195324
0.279402 0.597523 0.195428
0.282357 0.594946 0.194902
0.286498 0.596990 0.195428
0.289431 0.594366 0.194898
0.293473 0.595907 0.195317
0.297779 0.598314 0.195937
0.303105 0.604236 0.197360
0.306758 0.604046 0.197398
0.310235 0.603216 0.197294
0.313726 0.602423 0.197203
0.317295 0.601875 0.197171
0.320758 0.600958 0.197059
0.324282 0.600226 0.196993
0.327565 0.598711 0.196753
0.334272 0.607857 0.198951
0.337882 0.607185 0.198913
0.341400 0.606211 0.198811
0.343644 0.601445 0.197845
0.345980 0.597047 0.196966
0.349793 0.596986 0.197085
0.354448 0.599263 0.197745
0.357443 0.596796 0.197322
0.359667 0.592233 0.196421
0.363470 0.592031 0.196525
0.366156 0.588808 0.195940
0.370782 0.590730 0.196544
0.374402 0.589941 0.196528
0.381602 0.598277 0.198624
0.385028 0.596815 0.198464
0.389933 0.599023 0.199158
0.392030 0.594232 0.198236
0.394874 0.591330 0.197755
0.398034 0.589212 0.197460
0.401988 0.588968 0.197604
0.405433 0.587500 0.197467
0.412478 0.594272 0.199254
0.417665 0.596619 0.200017
0.423371 0.600014 0.201030
0.426361 0.597292 0.200618
0.429367 0.594627 0.200221
0.435028 0.597690 0.201169
0.438539 0.596075 0.201023
0.442760 0.595947 0.201227
0.446769 0.595345 0.201322
0.455826 0.605044 0.203848
0.460968 0.606568 0.204449
0.463964 0.603745 0.204023
0.464289 0.595700 0.202356
0.468179 0.594765 0.202370
0.473553 0.596692 0.203059
0.480919 0.602352 0.204635
0.481627 0.595352 0.203194
0.486540 0.596324 0.203644
0.489766 0.594176 0.203344
0.493195 0.592452 0.203135
0.499604 0.596138 0.204212
0.502377 0.593294 0.203715
0.506682 0.593231 0.203874
0.511310 0.593764 0.204162
0.514897 0.592528 0.204013
0.516239 0.587528 0.202943
0.517492 0.582525 0.201856
0.522449 0.583867 0.202278
0.526105 0.583087 0.202172
0.529331 0.581678 0.201897
0.531775 0.579092 0.201319
0.541141 0.587770 0.203437
0.549769 0.595191 0.205233
0.551613 0.591825 0.204408
0.556709 0.593701 0.204826
0.561849 0.595695 0.205251
-0.270877 0.597226 0.208381
-0.267774 0.597823 0.208550
-0.264935 0.599065 0.208857
-0.261389 0.599017 0.208827
-0.258143 0.599681 0.208951
-0.253740 0.598086 0.208503
-0.250479 0.598922 0.208629
-0.247468 0.600394 0.208892
-0.244753 0.602616 0.209317
-0.240234 0.601111 0.208815
-0.236593 0.601553 0.208770
-0.232565 0.601231 0.208523
-0.228974 0.601940 0.208510
-0.225572 0.603151 0.208605
-0.222130 0.604358 0.208684
-0.218269 0.604681 0.208535
-0.214349 0.604916 0.208353
-0.210129 0.604485 0.208000
-0.206003 0.604295 0.207696
-0.202000 0.604422 0.207460
-0.199012 0.607057 0.207821
-0.193260 0.602891 0.206539
-0.189727 0.604215 0.206573
-0.186084 0.605290 0.206543
-0.181270 0.603343 0.205785
-0.177927 0.605203 0.205937
-0.174444 0.606726 0.206005
-0.170547 0.607144 0.205809
-0.166532 0.607221 0.205531
-0.161511 0.604454 0.204580
-0.158394 0.606977 0.204885
-0.153787 0.605236 0.204183
-0.149862 0.605401 0.203934
-0.145157 0.603199 0.203130
-0.141525 0.604133 0.203069
-0.137772 0.604677 0.202919
-0.133740 0.604313 0.202560
-0.129812 0.604220 0.202268
-0.125775 0.603717 0.201885
-0.121753 0.603191 0.201502
-0.118098 0.603830 0.201395
-0.114305 0.603961 0.201174
-0.110347 0.603467 0.200813
-0.106420 0.603013 0.200467
-0.102568 0.602754 0.200171
-0.098933 0.603231 0.200050
-0.095295 0.603659 0.199923
-0.091510 0.603486 0.199662
-0.087891 0.603900 0.199541
-0.084085 0.603530 0.199245
-0.080598 0.604390 0.199236
-0.077113 0.605235 0.199229
-0.073539 0.605690 0.199136
-0.069774 0.605282 0.198850
-0.066323 0.606196 0.198872
-0.062917 0.607303 0.198942
-0.058539 0.603907 0.197989
-0.054772 0.603200 0.197654
-0.051218 0.603437 0.197540
-0.047697 0.603805 0.197459
-0.044376 0.605163 0.197608
-0.040731 0.604848 0.197380
-0.036754 0.602690 0.196738
-0.033229 0.602860 0.196629
-0.030169 0.605628 0.197113
-0.027425 0.610343 0.198039
-0.024223 0.612546 0.198400
-0.020390 0.610947 0.197905
-0.015973 0.605491 0.196543
-0.012277 0.604378 0.196166
-0.008516 0.602718 0.195670
-0.004872 0.601718 0.195326
-0.001374 0.601666 0.195199
0.001397 0.607035 0.196295
0.004738 0.608327 0.196476
0.008231 0.608454 0.196398
0.011730 0.608497 0.196304
0.014288 0.616766 0.198058
0.018321 0.612230 0.196942
0.022725 0.603687 0.194932
0.026641 0.599189 0.193832
0.029457 0.605782 0.195219
0.032744 0.607825 0.195589
0.036354 0.606290 0.195161
0.040347 0.599793 0.193627
0.043744 0.600297 0.193660
0.046802 0.605609 0.194769
0.050199 0.606543 0.194903
0.053771 0.604761 0.194432
0.057228 0.604670 0.194340
0.060643 0.605342 0.194422
0.064025 0.606820 0.194684
0.067361 0.609688 0.195257
0.070958 0.606366 0.194455
0.074494 0.603927 0.193851
0.077950 0.603473 0.193691
0.081383 0.603755 0.193696
0.084854 0.602167 0.193287
0.088311 0.600583 0.192882
0.091705 0.603798 0.193544
0.095126 0.607782 0.194379
0.098586 0.607931 0.194363
0.102042 0.606755 0.194054
0.105448 0.601239 0.192784
0.108862 0.600000 0.192466
0.112290 0.600189 0.192465
0.115761 0.602038 0.192835
0.119266 0.604479 0.193336
0.122807 0.607276 0.193919
0.126203 0.605462 0.193480
0.129600 0.604059 0.193134
0.132918 0.601236 0.192476
0.136437 0.602777 0.192785
0.140078 0.606194 0.193511
0.143649 0.607911 0.193862
0.146907 0.604602 0.193102
0.150232 0.602673 0.192650
0.154379 0.611848 0.194655
0.157766 0.610440 0.194320
0.160874 0.605867 0.193287
0.164358 0.605950 0.193286
0.168156 0.609322 0.194013
0.171683 0.609611 0.194060
0.175082 0.608625 0.193827
0.178097 0.604166 0.192827
0.181476 0.603255 0.192614
0.185749 0.609960 0.194085
0.189145 0.608991 0.193863
0.191424 0.599332 0.191721
0.194854 0.599016 0.191646
0.198683 0.601602 0.192214
0.202077 0.600929 0.192064
0.205477 0.600320 0.191929
0.209123 0.601338 0.192157
0.212597 0.601168 0.192123
0.216373 0.602851 0.192501
0.220231 0.604905 0.192964
0.223801 0.605134 0.193024
0.226010 0.597592 0.191370
0.229903 0.599732 0.191857
0.233196 0.598504 0.191603
0.235949 0.594478 0.190731
0.239747 0.595964 0.191081
0.246390 0.611548 0.194552
0.247708 0.600423 0.192118
0.253781 0.612405 0.194798
0.255854 0.605216 0.193239
0.258362 0.600293 0.192184
0.261015 0.596200 0.191314
0.264136 0.594287 0.190930
0.268656 0.598374 0.191878
0.273065 0.601801 0.192683
0.276300 0.600256 0.192389
0.277455 0.590415 0.190259
0.282180 0.594933 0.191315
0.285952 0.595578 0.191516
0.289162 0.594039 0.191236
0.293593 0.597044 0.191968
0.297935 0.599577 0.192599
0.301644 0.599723 0.192704
0.306856 0.605097 0.193975
0.309971 0.603017 0.193592
0.312250 0.598136 0.192590
0.315477 0.596540 0.192322
0.320283 0.600121 0.193211
0.323882 0.599659 0.193204
0.327735 0.599972 0.193374
0.331306 0.599358 0.193341
0.337649 0.607213 0.195204
0.341646 0.607699 0.195427
0.344593 0.605004 0.194943
0.345907 0.597577 0.193404
0.349327 0.596391 0.193265
0.353024 0.595982 0.193304
0.356835 0.595852 0.193411
0.361303 0.597489 0.193919
0.363592 0.593124 0.193084
0.366937 0.591657 0.192903
0.370702 0.591286 0.192975
0.374180 0.590134 0.192874
0.377946 0.589703 0.192941
0.383239 0.593089 0.193875
0.388471 0.596177 0.194748
0.390585 0.591478 0.193865
0.393968 0.589929 0.193698
0.396531 0.586412 0.193089
0.404409 0.595465 0.195338
0.410093 0.599129 0.196371
0.413803 0.598115 0.196345
0.418598 0.599537 0.196879
0.422769 0.599480 0.197079
0.426748 0.598953 0.197176
0.428287 0.593078 0.196051
0.434369 0.597078 0.197191
0.438375 0.596527 0.197290
0.442064 0.595283 0.197233
0.446307 0.595180 0.197439
0.452476 0.598983 0.198547
0.459527 0.604443 0.200041
0.462218 0.601034 0.199488
0.463299 0.594504 0.198209
0.467621 0.594422 0.198420
0.473462 0.597251 0.199305
0.477687 0.596921 0.199454
0.484331 0.601144 0.200658
0.487359 0.598533 0.200267
0.489893 0.595073 0.199670
0.494209 0.594938 0.199840
0.498661 0.595060 0.200062
0.501306 0.591980 0.199526
0.505123 0.591052 0.199481
0.507411 0.587508 0.198811
0.511451 0.587092 0.198861
0.516450 0.588362 0.199293
0.519628 0.586574 0.198992
0.522542 0.584431 0.198591
0.525900 0.583123 0.198369
0.534417 0.590368 0.200144
0.538226 0.589887 0.200082
0.534430 0.577231 0.197132
0.548796 0.593879 0.201069
0.551160 0.591313 0.200457
0.554367 0.590196 0.200167
0.557992 0.589830 0.200033
-0.269562 0.594495 0.204099
-0.268215 0.598565 0.205089
-0.264832 0.598770 0.205131
-0.261775 0.599738 0.205337
-0.257973 0.599318 0.205189
-0.255115 0.600926 0.205508
-0.250653 0.599342 0.205043
-0.247772 0.601128 0.205366
-0.244486 0.602183 0.205495
-0.240809 0.602510 0.205432
-0.236700 0.601989 0.205149
-0.232815 0.602019 0.204982
-0.229153 0.602611 0.204934
-0.225743 0.603842 0.205023
-0.221260 0.602720 0.204539
-0.218079 0.604611 0.204759
-0.212863 0.601849 0.203864
-0.209716 0.603932 0.204108
-0.205601 0.603780 0.203813
-0.201911 0.604672 0.203758
-0.197485 0.603792 0.203277
-0.193193 0.603228 0.202867
-0.189563 0.604321 0.202841
-0.185605 0.604599 0.202621
-0.181299 0.603966 0.202184
-0.178092 0.606201 0.202416
-0.173808 0.605592 0.201982
-0.170164 0.606682 0.201944
-0.166004 0.606350 0.201576
-0.161515 0.605050 0.200984
-0.157739 0.605704 0.200848
-0.153958 0.606323 0.200705
-0.149736 0.605623 0.200260
-0.145564 0.605007 0.199837
-0.141481 0.604591 0.199465
-0.137636 0.604845 0.199251
-0.133628 0.604548 0.198914
-0.129656 0.604306 0.198594
-0.125650 0.603888 0.198239
-0.122105 0.604927 0.198220
-0.118135 0.604516 0.197876
-0.114229 0.604257 0.197571
-0.110074 0.603069 0.197059
-0.106366 0.603364 0.196891
-0.102605 0.603423 0.196673
-0.098996 0.603991 0.196575
-0.095368 0.604452 0.196458
-0.091427 0.603678 0.196067
-0.087805 0.604065 0.195943
-0.084493 0.605645 0.196092
-0.080390 0.604021 0.195525
-0.076716 0.604057 0.195336
-0.073277 0.605037 0.195363
-0.069718 0.605488 0.195277
-0.066351 0.606757 0.195378
-0.062873 0.607528 0.195371
-0.058679 0.604967 0.194625
-0.054791 0.603689 0.194170
-0.051142 0.603458 0.193954
-0.048000 0.605691 0.194290
-0.044457 0.605941 0.194189
-0.040805 0.605586 0.193957
-0.036816 0.603362 0.193315
-0.033018 0.602017 0.192872
-0.029969 0.604804 0.193349
-0.027048 0.608448 0.194019
-0.023985 0.611404 0.194539
-0.020268 0.610459 0.194199
-0.015928 0.605457 0.192967
-0.012443 0.605707 0.192899
-0.009076 0.606728 0.193005
-0.004922 0.602266 0.191905
-0.001653 0.603875 0.192146
0.001578 0.605845 0.192470
0.004902 0.607195 0.192660
0.008547 0.606021 0.192297
0.011207 0.613004 0.193729
0.014709 0.613157 0.193664
0.018258 0.612859 0.193501
0.022510 0.605775 0.191854
0.026109 0.604527 0.191490
0.029595 0.604304 0.191353
0.032602 0.609347 0.192371
0.036255 0.607357 0.191852
0.040042 0.603439 0.190915
0.043380 0.604920 0.191160
0.046540 0.609069 0.191990
0.050106 0.607668 0.191609
0.053825 0.603567 0.190642
0.057318 0.602700 0.190383
0.060680 0.604162 0.190634
0.063858 0.609762 0.191788
0.067291 0.610621 0.191911
0.071060 0.602886 0.190163
0.074456 0.604081 0.190363
0.077946 0.602361 0.189930
0.081395 0.601665 0.189722
0.084849 0.600409 0.189393
0.088280 0.599820 0.189212
0.091628 0.607206 0.190765
0.095091 0.605632 0.190373
0.098538 0.609070 0.191071
0.102000 0.608446 0.190888
0.105393 0.600795 0.189181
0.108813 0.600325 0.189035
0.112241 0.600479 0.189026
0.115680 0.601001 0.189098
0.119223 0.605031 0.189932
0.122762 0.607756 0.190485
0.126305 0.609884 0.190909
0.129695 0.607851 0.190433
0.132984 0.604041 0.189573
0.136428 0.603916 0.189513
0.140066 0.607223 0.190198
0.143580 0.607961 0.190328
0.146820 0.604406 0.189530
0.150499 0.607517 0.190176
0.154236 0.610976 0.190899
0.157440 0.607352 0.190091
0.160821 0.606196 0.189818
0.164767 0.611443 0.190932
0.168471 0.613561 0.191370
0.171912 0.612802 0.191187
0.174902 0.607749 0.190078
0.178042 0.604493 0.189358
0.181347 0.602936 0.189008
0.185734 0.610633 0.190660
0.189487 0.612559 0.191066
0.191293 0.599072 0.188142
0.194754 0.599015 0.188123
0.198239 0.599118 0.188140
0.201839 0.599996 0.188326
0.205166 0.598930 0.188094
0.208632 0.598820 0.188070
0.212742 0.602807 0.188934
0.216751 0.605901 0.189606
0.219974 0.604067 0.189215
0.222916 0.600661 0.188487
0.225916 0.597746 0.187867
0.229712 0.599359 0.188227
0.232958 0.597901 0.187926
0.235879 0.594784 0.187269
0.240727 0.601656 0.188773
0.245475 0.607663 0.190093
0.249780 0.611196 0.190881
0.252637 0.607640 0.190138
0.256378 0.608331 0.190316
0.258734 0.602655 0.189118
0.261216 0.597760 0.188092
0.264669 0.597270 0.188022
0.268948 0.600289 0.188715
0.273134 0.602763 0.189293
0.276168 0.600390 0.188824
0.279356 0.598696 0.188505
0.283452 0.600600 0.188969
0.286975 0.600191 0.188934
0.290738 0.600667 0.189095
0.294722 0.601911 0.189426
0.297862 0.599996 0.189074
0.302003 0.601694 0.189511
0.306068 0.603024 0.189871
0.310316 0.604902 0.190355
0.311700 0.596965 0.188707
0.315299 0.596640 0.188719
0.318831 0.596069 0.188681
0.322521 0.595980 0.188751
0.326448 0.596606 0.188982
0.331202 0.599746 0.189765
0.337135 0.606361 0.191313
0.342219 0.610157 0.192251
0.345081 0.607187 0.191715
0.345968 0.598485 0.189928
0.349154 0.596626 0.189642
0.352704 0.595808 0.189587
0.357161 0.597504 0.190089
0.362462 0.601428 0.191085
0.365284 0.598462 0.190573
0.367299 0.593374 0.189599
0.371153 0.593228 0.189715
0.374564 0.591888 0.189573
0.378572 0.592067 0.189770
0.383279 0.593956 0.190350
0.384815 0.587841 0.189167
0.392119 0.596021 0.191148
0.394693 0.592461 0.190537
0.397017 0.588349 0.189808
0.401433 0.589232 0.190189
0.411091 0.602244 0.193272
0.415407 0.602592 0.193548
0.416952 0.596601 0.192416
0.423208 0.601257 0.193660
0.426289 0.598733 0.193307
0.428389 0.594089 0.192482
0.433062 0.595055 0.192913
0.437558 0.595578 0.193249
0.441981 0.595891 0.193541
0.445622 0.594538 0.193460
0.459696 0.614549 0.198192
0.457940 0.602008 0.195596
0.461740 0.600844 0.195561
0.462143 0.592969 0.194008
0.468895 0.597648 0.195292
0.472876 0.596849 0.195335
0.477944 0.598127 0.195846
0.480998 0.595566 0.195481
0.483695 0.592391 0.194971
0.485193 0.587077 0.193965
0.494210 0.595580 0.196104
0.500837 0.599600 0.197215
0.502376 0.594481 0.196228
0.503137 0.588118 0.194944
0.510126 0.592781 0.196174
0.511444 0.587590 0.195132
0.514953 0.586286 0.194968
0.523904 0.594257 0.196921
0.527430 0.593033 0.196747
0.528488 0.587798 0.195633
0.525497 0.576072 0.193008
0.523612 0.566431 0.190842
0.537931 0.583156 0.194731
0.547311 0.591760 0.196731
0.550283 0.590143 0.196358
0.553550 0.589096 0.196097
0.556338 0.587405 0.195667
-0.271327 0.597795 0.201258
-0.268212 0.598446 0.201415
-0.265808 0.600635 0.201913
-0.261734 0.599616 0.201639
-0.259636 0.602689 0.202306
-0.254829 0.600373 0.201688
-0.251205 0.600555 0.201638
-0.247713 0.601111 0.201657
-0.244508 0.602373 0.201823
-0.241409 0.603973 0.202050
-0.236870 0.602570 0.201559
-0.232636 0.601873 0.201218
-0.229061 0.602685 0.201214
-0.225771 0.604216 0.201364
-0.221567 0.603758 0.201037
-0.217493 0.603631 0.200777
-0.213915 0.604696 0.200783
-0.209191 0.603110 0.200165
-0.205643 0.604322 0.200186
-0.201900 0.605109 0.200102
-0.197692 0.604784 0.199755
-0.193439 0.604342 0.199377
-0.189328 0.604242 0.199074
-0.186100 0.606397 0.199284
-0.181929 0.606144 0.198940
-0.177219 0.604444 0.198264
-0.173483 0.605280 0.198167
-0.169110 0.604379 0.197675
-0.165324 0.605041 0.197539
-0.161690 0.606114 0.197497
-0.157649 0.606025 0.197193
-0.153964 0.606918 0.197114
-0.150079 0.607210 0.196901
-0.145278 0.604729 0.196066
-0.141330 0.604707 0.195790
-0.137143 0.603896 0.195340
-0.133449 0.604553 0.195225
-0.129571 0.604597 0.194975
-0.125742 0.604744 0.194753
-0.122064 0.605345 0.194637
-0.117851 0.604109 0.194116
-0.114143 0.604505 0.193963
-0.110098 0.603685 0.193545
-0.106150 0.603120 0.193189
-0.102936 0.605136 0.193409
-0.099694 0.607069 0.193616
-0.094935 0.603323 0.192570
-0.091310 0.603719 0.192446
-0.088081 0.605618 0.192658
-0.083630 0.602674 0.191808
-0.080014 0.602951 0.191672
-0.076723 0.604535 0.191828
-0.072923 0.603974 0.191517
-0.069419 0.604621 0.191476
-0.066045 0.605817 0.191559
-0.062758 0.607412 0.191733
-0.058561 0.604813 0.190995
-0.054403 0.602228 0.190265
-0.051161 0.603915 0.190472
-0.047693 0.604516 0.190446
-0.044409 0.606038 0.190624
-0.040342 0.603496 0.189922
-0.036548 0.602233 0.189503
-0.032844 0.601363 0.189173
-0.029647 0.603268 0.189449
-0.026967 0.608250 0.190393
-0.023756 0.610296 0.190705
-0.019996 0.609028 0.190303
-0.015329 0.601875 0.188633
-0.012364 0.605400 0.189274
-0.008276 0.601500 0.188316
-0.004705 0.600927 0.188079
-0.001623 0.603815 0.188591
0.001398 0.607335 0.189241
0.004574 0.609878 0.189682
0.008075 0.609948 0.189594
0.011562 0.610100 0.189527
0.014954 0.611074 0.189639
0.018753 0.608367 0.188963
0.022354 0.607276 0.188637
0.026001 0.605593 0.188187
0.029617 0.604029 0.187766
0.032715 0.608019 0.188536
0.036170 0.608240 0.188501
0.039874 0.605377 0.187809
0.042986 0.609906 0.188699
0.046185 0.613802 0.189456
0.049910 0.610326 0.188639
0.053731 0.604731 0.187373
0.057372 0.601338 0.186580
0.060508 0.606960 0.187712
0.063724 0.611982 0.188717
0.067304 0.609594 0.188144
0.071195 0.598481 0.185715
0.074418 0.604156 0.186863
0.077893 0.602952 0.186549
0.081358 0.601607 0.186206
0.084804 0.600651 0.185948
0.088215 0.601362 0.186046
0.091618 0.603719 0.186495
0.095057 0.603329 0.186362
0.098487 0.614262 0.188635
0.101971 0.613621 0.188451
0.105336 0.600189 0.185554
0.108764 0.600670 0.185611
0.112198 0.601120 0.185664
0.115638 0.601642 0.185734
0.119130 0.603827 0.186157
0.122673 0.606896 0.186769
0.126185 0.608333 0.187035
0.129610 0.607353 0.186791
0.132993 0.605647 0.186395
0.136434 0.605343 0.186298
0.140082 0.608742 0.186985
0.143357 0.605477 0.186263
0.146798 0.605172 0.186169
0.150414 0.607378 0.186608
0.153843 0.606785 0.186456
0.157081 0.603848 0.185809
0.160510 0.603467 0.185705
0.164807 0.612817 0.187660
0.168530 0.615091 0.188119
0.171633 0.610857 0.187204
0.174809 0.607700 0.186519
0.177668 0.601866 0.185269
0.181218 0.602604 0.185410
0.184700 0.602680 0.185412
0.189307 0.611876 0.187343
0.191253 0.599513 0.184720
0.194630 0.598822 0.184566
0.198193 0.599517 0.184705
0.201644 0.599344 0.184663
0.204979 0.598373 0.184454
0.208344 0.597629 0.184295
0.212836 0.604113 0.185664
0.217090 0.608710 0.186637
0.219989 0.604849 0.185825
0.223113 0.602496 0.185333
0.225859 0.598100 0.184411
0.229367 0.598123 0.184426
0.233227 0.600021 0.184838
0.236616 0.599321 0.184704
0.240330 0.600291 0.184925
0.244590 0.603914 0.185708
0.248865 0.607406 0.186467
0.252672 0.608474 0.186716
0.256172 0.608040 0.186649
0.258981 0.604440 0.185916
0.261762 0.600850 0.185187
0.263958 0.594829 0.183945
0.268874 0.600633 0.185209
0.273081 0.603201 0.185791
0.276210 0.601220 0.185413
0.279177 0.598640 0.184910
0.284237 0.604351 0.186167
0.289250 0.609628 0.187336
0.293377 0.611319 0.187749
0.294905 0.603257 0.186096
0.298075 0.601444 0.185772
0.301927 0.602095 0.185973
0.306314 0.604567 0.186565
0.310168 0.605074 0.186744
0.311705 0.597661 0.185242
0.315082 0.596600 0.185094
0.318933 0.597087 0.185279
0.322459 0.596469 0.185232
0.326223 0.596586 0.185346
0.331428 0.601152 0.186412
0.336347 0.604649 0.187256
0.341339 0.608217 0.188120
0.344174 0.605210 0.187585
0.344621 0.595255 0.185568
0.348546 0.595589 0.185754
0.352778 0.596739 0.186119
0.356123 0.595326 0.185940
0.361659 0.599951 0.187059
0.365552 0.599926 0.187187
0.368729 0.597937 0.186898
0.372463 0.597425 0.186931
0.376873 0.598639 0.187339
0.380921 0.598838 0.187534
0.384212 0.597068 0.187310
0.389525 0.600339 0.188178
0.393032 0.599028 0.188062
0.396521 0.597656 0.187937
0.398698 0.593131 0.187133
0.403736 0.595435 0.187812
0.411163 0.603192 0.189681
0.413276 0.598476 0.188847
0.416747 0.596915 0.188702
0.421228 0.597608 0.189051
0.425734 0.598289 0.189402
0.428876 0.595928 0.189093
0.432966 0.595624 0.189235
0.437055 0.595282 0.189372
0.441045 0.594697 0.189458
0.445349 0.594739 0.189684
0.452957 0.601515 0.191392
0.458761 0.604435 0.192256
0.461340 0.600800 0.191678
0.462084 0.593591 0.190308
0.465915 0.592558 0.190299
0.471662 0.595229 0.191107
0.478485 0.599869 0.192352
0.481779 0.597733 0.192092
0.480284 0.586704 0.189849
0.484304 0.586090 0.189913
0.492864 0.593768 0.191819
0.503492 0.605010 0.194518
0.505018 0.599787 0.193535
0.507572 0.596510 0.192976
0.512280 0.597087 0.193268
0.516515 0.596863 0.193368
0.516122 0.588770 0.191692
0.522751 0.592766 0.192712
0.528687 0.595568 0.193450
0.526558 0.584991 0.191168
0.521258 0.569464 0.187753
0.523497 0.566565 0.187160
0.533774 0.576747 0.189491
0.548757 0.594335 0.193471
0.550661 0.590971 0.192720
0.554440 0.590690 0.192642
0.559363 0.592276 0.192966
-0.270225 0.595511 0.197098
-0.268900 0.599706 0.198057
-0.265788 0.600533 0.198223
-0.262581 0.601290 0.198354
-0.259385 0.602189 0.198498
-0.255370 0.601528 0.198265
-0.251624 0.601505 0.198160
-0.247736 0.601276 0.197990
-0.243801 0.601028 0.197799
-0.240241 0.601659 0.197792
-0.236792 0.602621 0.197844
-0.233097 0.603137 0.197779
-0.229022 0.602884 0.197525
-0.225263 0.603389 0.197431
-0.221740 0.604495 0.197461
-0.217587 0.604217 0.197165
-0.213861 0.604965 0.197093
-0.210186 0.605881 0.197049
-0.205448 0.604294 0.196431
-0.201570 0.604767 0.196273
-0.197724 0.605340 0.196132
-0.193783 0.605691 0.195936
-0.189615 0.605474 0.195609
-0.185568 0.605550 0.195345
-0.182228 0.607454 0.195488
-0.177474 0.605656 0.194802
-0.173407 0.605621 0.194510
-0.169274 0.605378 0.194173
-0.165250 0.605394 0.193894
-0.161347 0.605713 0.193684
-0.156816 0.604212 0.193073
-0.153509 0.606163 0.193229
-0.149178 0.605123 0.192725
-0.145076 0.604683 0.192359
-0.140923 0.604027 0.191949
-0.136986 0.603964 0.191673
-0.133096 0.603994 0.191421
-0.129112 0.603675 0.191098
-0.125148 0.603355 0.190779
-0.121131 0.602790 0.190411
-0.117737 0.604251 0.190490
-0.113660 0.603369 0.190062
-0.109825 0.603241 0.189804
-0.106041 0.603236 0.189577
-0.101921 0.601960 0.189080
-0.098518 0.603219 0.189136
-0.094820 0.603365 0.188957
-0.091153 0.603585 0.188797
-0.087520 0.603887 0.188661
-0.083694 0.603376 0.188354
-0.080338 0.604706 0.188447
-0.076224 0.602888 0.187868
-0.072775 0.603763 0.187873
-0.069326 0.604621 0.187878
-0.065848 0.605340 0.187857
-0.062193 0.605235 0.187664
-0.057772 0.601525 0.186706
-0.054043 0.600874 0.186406
-0.050769 0.602360 0.186566
-0.047606 0.604415 0.186850
-0.044176 0.605170 0.186860
-0.040499 0.604622 0.186598
-0.036664 0.603155 0.186145
-0.032958 0.602271 0.185819
-0.029581 0.603162 0.185874
-0.026856 0.607856 0.186736
-0.023912 0.611473 0.187373
-0.020002 0.609294 0.186787
-0.015445 0.602820 0.185298
-0.011992 0.603149 0.185250
-0.008584 0.603764 0.185265
-0.004812 0.601830 0.184746
-0.001281 0.601476 0.184564
-0.000027 0.618165 0.187969
0.004776 0.608402 0.185812
0.008029 0.610399 0.186131
0.011913 0.607212 0.185363
0.015650 0.605007 0.184805
0.018980 0.606306 0.184985
0.022775 0.603242 0.184253
0.026040 0.605159 0.184567
0.029600 0.604139 0.184269
0.033049 0.604211 0.184201
0.036422 0.605157 0.184318
0.039541 0.609326 0.185111
0.043052 0.608825 0.184929
0.045875 0.617884 0.186746
0.049423 0.617317 0.186554
0.053686 0.605086 0.183931
0.057243 0.603159 0.183461
0.060574 0.605159 0.183811
0.063667 0.612550 0.185286
0.067136 0.612774 0.185269
0.070879 0.605866 0.183769
0.074372 0.604473 0.183420
0.077803 0.604757 0.183421
0.081268 0.603711 0.183147
0.084748 0.601373 0.182606
0.088168 0.601628 0.182606
0.091573 0.603637 0.182972
0.094980 0.609024 0.184040
0.098438 0.612813 0.184777
0.101921 0.613917 0.184958
0.105249 0.596317 0.181261
0.108649 0.596170 0.181186
0.112149 0.601502 0.182249
0.115604 0.602673 0.182450
0.119064 0.603594 0.182600
0.122480 0.602861 0.182409
0.125822 0.600284 0.181837
0.129177 0.598576 0.181447
0.132692 0.600617 0.181834
0.136368 0.605384 0.182787
0.139935 0.607379 0.183167
0.143266 0.605150 0.182674
0.146694 0.604706 0.182552
0.150118 0.604224 0.182424
0.153437 0.602395 0.182018
0.156934 0.602978 0.182112
0.160480 0.604062 0.182311
0.163644 0.600719 0.181597
0.166957 0.599266 0.181274
0.170356 0.598816 0.181160
0.173634 0.597197 0.180807
0.177643 0.602450 0.181874
0.180937 0.600917 0.181540
0.184860 0.604814 0.182330
0.188479 0.605908 0.182542
0.191129 0.599293 0.181164
0.194360 0.597520 0.180787
0.198488 0.602397 0.181785
0.201657 0.600158 0.181315
0.204771 0.597661 0.180794
0.208122 0.596863 0.180625
0.212853 0.604921 0.182286
0.216217 0.603981 0.182091
0.220277 0.607268 0.182771
0.223399 0.604849 0.182275
0.226939 0.604918 0.182294
0.230605 0.605650 0.182451
0.233979 0.604741 0.182273
0.237164 0.602857 0.181895
0.239465 0.596507 0.180597
0.243388 0.598556 0.181035
0.247312 0.600478 0.181449
0.251231 0.602260 0.181837
0.255709 0.606535 0.182742
0.259061 0.605456 0.182544
0.260476 0.595762 0.180568
0.263520 0.593559 0.180142
0.268579 0.600020 0.181509
0.273035 0.603660 0.182296
0.276020 0.601093 0.181803
0.279208 0.599411 0.181495
0.281629 0.594742 0.180572
0.285201 0.594659 0.180601
0.289780 0.598361 0.181416
0.293549 0.598876 0.181575
0.297803 0.601109 0.182093
0.301350 0.600692 0.182066
0.305920 0.603846 0.182782
0.310234 0.605973 0.183290
0.311369 0.597187 0.181536
0.315430 0.598428 0.181866
0.319336 0.599080 0.182078
0.322165 0.596194 0.181558
0.325833 0.596025 0.181607
0.331491 0.602035 0.182945
0.335437 0.602545 0.183144
0.337218 0.596451 0.181970
0.342940 0.602237 0.183277
0.347076 0.603146 0.183571
0.347677 0.593780 0.181725
0.352622 0.597002 0.182511
0.356187 0.596215 0.182464
0.359650 0.595123 0.182357
0.364227 0.597045 0.182886
0.368379 0.597723 0.183159
0.372929 0.599384 0.183644
0.377788 0.601756 0.184283
0.380355 0.598125 0.183665
0.385686 0.601539 0.184534
0.389692 0.601504 0.184682
0.393363 0.600594 0.184651
0.398115 0.602280 0.185172
0.401178 0.599826 0.184823
0.404526 0.598058 0.184623
0.409321 0.599662 0.185141
0.414164 0.601284 0.185668
0.416422 0.596940 0.184934
0.419493 0.594481 0.184602
0.423649 0.594440 0.184787
0.429201 0.597403 0.185617
0.433089 0.596653 0.185658
0.436163 0.594143 0.185327
0.440757 0.594849 0.185685
0.444459 0.593644 0.185637
0.452561 0.601461 0.187525
0.457283 0.602195 0.187898
0.460393 0.599648 0.187566
0.462293 0.594735 0.186723
0.465964 0.593375 0.186643
0.470842 0.594356 0.187067
0.474722 0.593386 0.187068
0.482045 0.598924 0.188475
0.484319 0.594901 0.187808
0.487556 0.592739 0.187538
0.494520 0.597425 0.188751
0.503109 0.604946 0.190577
0.508108 0.605904 0.190968
0.510479 0.602217 0.190337
0.516875 0.605663 0.191253
0.517868 0.599726 0.190107
0.520020 0.595930 0.189415
0.524330 0.595905 0.189535
0.528063 0.594961 0.189440
0.527096 0.586284 0.187633
0.527110 0.579446 0.186212
0.525185 0.569642 0.184122
0.537209 0.582589 0.187010
0.549386 0.595615 0.189899
0.553160 0.595171 0.189812
0.556241 0.593726 0.189486
0.560463 0.594164 0.189555
-0.271800 0.598468 0.194135
-0.269217 0.600245 0.194522
-0.266016 0.600936 0.194645
-0.262359 0.600829 0.194571
-0.258690 0.600800 0.194495
-0.255698 0.602257 0.194734
-0.252041 0.602460 0.194674
-0.248203 0.602378 0.194533
-0.244115 0.601854 0.194275
-0.239838 0.600990 0.193926
-0.237038 0.603380 0.194289
-0.233630 0.604562 0.194367
-0.229634 0.604530 0.194160
-0.225474 0.604181 0.193871
-0.221676 0.604694 0.193761
-0.217540 0.604478 0.193480
-0.213516 0.604553 0.193254
-0.209036 0.603577 0.192788
-0.205653 0.605221 0.192894
-0.201093 0.604061 0.192375
-0.197495 0.605247 0.192367
-0.193824 0.606279 0.192322
-0.189795 0.606429 0.192078
-0.186162 0.607587 0.192054
-0.179803 0.601655 0.190477
-0.177430 0.606068 0.191162
-0.173408 0.606158 0.190901
-0.169064 0.605345 0.190445
-0.164956 0.605123 0.190119
-0.160493 0.603858 0.189569
-0.156545 0.603983 0.189323
-0.152865 0.604843 0.189238
-0.148957 0.605014 0.189007
-0.144701 0.604102 0.188546
-0.140793 0.604168 0.188300
-0.136882 0.604176 0.188045
-0.132876 0.603834 0.187719
-0.128982 0.603782 0.187460
-0.124952 0.603236 0.187099
-0.121080 0.603136 0.186839
-0.117057 0.602467 0.186462
-0.113383 0.602916 0.186327
-0.109728 0.603395 0.186204
-0.106017 0.603632 0.186033
-0.102006 0.602740 0.185628
-0.098304 0.602894 0.185450
-0.094735 0.603502 0.185372
-0.090989 0.603400 0.185148
-0.087218 0.603140 0.184896
-0.085098 0.609409 0.186022
-0.079777 0.602839 0.184453
-0.076135 0.602923 0.184287
-0.072854 0.604492 0.184437
-0.069574 0.606083 0.184595
-0.065426 0.603842 0.183955
-0.061918 0.604353 0.183895
-0.057708 0.601579 0.183155
-0.054256 0.602225 0.183132
-0.050761 0.602646 0.183066
-0.047677 0.605087 0.183424
-0.044182 0.605503 0.183363
-0.040585 0.605361 0.183191
-0.036918 0.604792 0.182934
-0.033036 0.602964 0.182420
-0.029863 0.605007 0.182711
-0.027069 0.609334 0.183478
-0.024062 0.612593 0.184025
-0.020421 0.612082 0.183797
-0.015461 0.603109 0.181826
-0.012112 0.604112 0.181918
-0.008915 0.606165 0.182228
-0.005628 0.607694 0.182433
-0.001433 0.602699 0.181299
0.002196 0.601564 0.180962
0.005298 0.604424 0.181449
0.008951 0.603004 0.181059
0.012462 0.602630 0.180887
0.015606 0.605413 0.181365
0.018864 0.607357 0.181672
0.022489 0.605944 0.181294
0.026103 0.604474 0.180907
0.029797 0.601977 0.180313
0.032969 0.604986 0.180846
0.035262 0.618561 0.183540
0.039726 0.606839 0.181068
0.043235 0.606186 0.180859
0.046781 0.604906 0.180524
0.050289 0.603986 0.180265
0.053855 0.601949 0.179781
0.057282 0.602003 0.179724
0.060495 0.606128 0.180498
0.063668 0.611863 0.181601
0.067179 0.610987 0.181360
0.070888 0.604723 0.180025
0.074326 0.604749 0.179971
0.077749 0.605282 0.180021
0.081192 0.605188 0.179946
0.084688 0.602314 0.179308
0.088132 0.601124 0.179013
0.091503 0.606043 0.179960
0.094930 0.609330 0.180576
0.098390 0.609806 0.180623
0.101828 0.603918 0.179382
0.105233 0.600369 0.178616
0.108620 0.597982 0.178088
0.112158 0.605058 0.179478
0.115658 0.607551 0.179940
0.119028 0.604434 0.179268
0.122367 0.601256 0.178585
0.125712 0.599013 0.178093
0.129136 0.599120 0.178078
0.132520 0.598333 0.177883
0.135956 0.598673 0.177917
0.139382 0.598739 0.177897
0.143415 0.608767 0.179891
0.146899 0.608939 0.179895
0.149863 0.601659 0.178394
0.153244 0.600835 0.178199
0.157080 0.605784 0.179171
0.160806 0.608846 0.179763
0.163495 0.599949 0.177942
0.166906 0.599599 0.177848
0.170218 0.598262 0.177557
0.173667 0.598338 0.177551
0.177441 0.601392 0.178148
0.181132 0.603434 0.178541
0.184957 0.606416 0.179126
0.188998 0.610903 0.180015
0.191729 0.604746 0.178760
0.194243 0.597367 0.177260
0.198310 0.601820 0.178146
0.201610 0.600530 0.177877
0.204813 0.598642 0.177489
0.208319 0.598851 0.177524
0.212408 0.602755 0.178307
0.216309 0.605232 0.178803
0.219559 0.603617 0.178476
0.223467 0.605916 0.178940
0.226567 0.603458 0.178447
0.230440 0.605396 0.178842
0.234260 0.606916 0.179155
0.237093 0.603135 0.178401
0.240125 0.600538 0.177888
0.243488 0.599695 0.177730
0.246916 0.599181 0.177641
0.250176 0.597864 0.177392
0.254536 0.601707 0.178186
0.258808 0.604943 0.178860
0.261284 0.600000 0.177887
0.264413 0.598088 0.177527
0.268607 0.600774 0.178098
0.272000 0.599967 0.177966
0.275864 0.601089 0.178226
0.279401 0.600821 0.178209
0.281916 0.596506 0.177377
0.285870 0.597880 0.177696
0.289504 0.597954 0.177757
0.294216 0.601999 0.178622
0.297603 0.601025 0.178477
0.300947 0.599891 0.178302
0.305041 0.601404 0.178666
0.310996 0.609264 0.180319
0.311111 0.596961 0.177892
0.315062 0.597854 0.178141
0.318757 0.597837 0.178209
0.323092 0.599850 0.178692
0.325475 0.595549 0.177898
0.329411 0.596204 0.178114
0.333983 0.598750 0.178718
0.338216 0.600148 0.179093
0.344341 0.607096 0.180601
0.348249 0.607280 0.180738
0.350699 0.603200 0.180011
0.353504 0.600205 0.179509
0.357184 0.599705 0.179519
0.359621 0.595741 0.178825
0.364258 0.597835 0.179373
0.367914 0.597184 0.179365
0.371811 0.597143 0.179486
0.376027 0.597887 0.179772
0.378879 0.595052 0.179329
0.383131 0.595796 0.179625
0.388078 0.598204 0.180267
0.393145 0.600792 0.180953
0.395066 0.595610 0.180043
0.398612 0.594412 0.179958
0.403292 0.595881 0.180427
0.407841 0.596954 0.180819
0.412688 0.598635 0.181341
0.418237 0.601817 0.182180
0.420753 0.598058 0.181585
0.423212 0.594220 0.180976
0.428167 0.595893 0.181514
0.430507 0.591827 0.180862
0.436431 0.595461 0.181816
0.440257 0.594542 0.181825
0.444591 0.594661 0.182052
0.451785 0.600611 0.183502
0.455834 0.599995 0.183581
0.461904 0.603413 0.184507
0.464345 0.599523 0.183900
0.466349 0.594842 0.183124
0.469976 0.593384 0.183024
0.474590 0.593826 0.183322
0.482929 0.601280 0.185100
0.488224 0.602864 0.185637
0.491002 0.599753 0.185176
0.494877 0.598714 0.185147
0.500913 0.601603 0.185946
0.506013 0.602765 0.186372
0.511817 0.605161 0.187053
0.519408 0.610649 0.188385
0.523399 0.609822 0.188361
0.523234 0.601931 0.186818
0.520465 0.589826 0.184358
0.519966 0.581819 0.182758
0.530476 0.592305 0.185098
0.526917 0.579501 0.182439
0.527602 0.573917 0.181309
0.529782 0.570915 0.180715
0.547972 0.593641 0.185616
0.552517 0.594406 0.185795
0.556775 0.594784 0.185872
0.559322 0.592575 0.185377
-0.276506 0.607543 0.192484
-0.269152 0.600046 0.190817
-0.265553 0.599978 0.190764
-0.261887 0.599879 0.190685
-0.258294 0.600027 0.190642
-0.255277 0.601460 0.190862
-0.252415 0.603336 0.191162
-0.247007 0.600008 0.190305
-0.245034 0.603968 0.191027
-0.241845 0.605489 0.191199
-0.237401 0.604400 0.190786
-0.233329 0.604165 0.190546
-0.229177 0.603806 0.190266
-0.226085 0.605873 0.190502
-0.221888 0.605519 0.190201
-0.217568 0.604912 0.189835
-0.212697 0.603031 0.189186
-0.208850 0.603546 0.189048
-0.204965 0.604002 0.188890
-0.200139 0.602190 0.188239
-0.197351 0.605353 0.188653
-0.193675 0.606385 0.188605
-0.190030 0.607512 0.188573
-0.186275 0.608376 0.188483
-0.181353 0.606202 0.187742
-0.175798 0.602263 0.186627
-0.172775 0.604978 0.186930
-0.168794 0.605131 0.186688
-0.164376 0.604043 0.186184
-0.160511 0.604436 0.185997
-0.156339 0.603922 0.185620
-0.152344 0.603861 0.185342
-0.149122 0.606029 0.185536
-0.145805 0.607932 0.185676
-0.140580 0.604041 0.184603
-0.136827 0.604523 0.184453
-0.132956 0.604597 0.184221
-0.129028 0.604437 0.183944
-0.125142 0.604353 0.183688
-0.120900 0.603034 0.183179
-0.117159 0.603300 0.183005
-0.113270 0.603008 0.182719
-0.109923 0.604546 0.182818
-0.106248 0.604920 0.182679
-0.102296 0.604246 0.182328
-0.098568 0.604317 0.182136
-0.094079 0.601471 0.181348
-0.090776 0.603010 0.181468
-0.087270 0.603763 0.181430
-0.083118 0.601913 0.180862
-0.080150 0.604754 0.181261
-0.076735 0.605804 0.181297
-0.072529 0.603488 0.180647
-0.068984 0.603886 0.180558
-0.065325 0.603745 0.180363
-0.061782 0.604077 0.180268
-0.058404 0.605136 0.180325
-0.054639 0.604363 0.180013
-0.050926 0.603752 0.179738
-0.047622 0.605103 0.179866
-0.044246 0.606111 0.179927
-0.040503 0.605204 0.179603
-0.036538 0.603006 0.179022
-0.033151 0.603838 0.179059
-0.029959 0.605777 0.179322
-0.027883 0.614294 0.180915
-0.024700 0.616623 0.181261
-0.019700 0.607819 0.179366
-0.015517 0.603633 0.178406
-0.013024 0.610253 0.179625
-0.010044 0.613959 0.180260
-0.006815 0.616131 0.180587
-0.002150 0.608000 0.178848
0.001826 0.604433 0.178030
0.005420 0.603537 0.177751
0.008980 0.602811 0.177509
0.012567 0.601763 0.177206
0.015468 0.606625 0.178088
0.018493 0.610732 0.178820
0.022065 0.609948 0.178575
0.025946 0.605970 0.177695
0.029536 0.604622 0.177343
0.032578 0.609172 0.178171
0.035285 0.618112 0.179876
0.039305 0.611832 0.178546
0.043359 0.604298 0.176969
0.046930 0.602507 0.176540
0.050273 0.603867 0.176741
0.053780 0.602747 0.176449
0.057283 0.601491 0.176132
0.060659 0.602428 0.176254
0.063801 0.608414 0.177380
0.067040 0.613424 0.178313
0.070851 0.604764 0.176532
0.074294 0.604572 0.176435
0.077740 0.604234 0.176310
0.081183 0.603831 0.176174
0.084633 0.602919 0.175939
0.088071 0.602204 0.175745
0.091439 0.607776 0.176797
0.094874 0.610744 0.177334
0.098341 0.607819 0.176706
0.101786 0.606104 0.176318
0.105219 0.604893 0.176032
0.108751 0.611779 0.177349
0.112200 0.610483 0.177048
0.115640 0.609295 0.176770
0.118953 0.603875 0.175658
0.122361 0.602946 0.175434
0.125695 0.600236 0.174860
0.129080 0.599319 0.174641
0.132462 0.598480 0.174439
0.135804 0.597008 0.174113
0.139386 0.600038 0.174677
0.143148 0.605548 0.175730
0.146838 0.609119 0.176403
0.150074 0.605714 0.175700
0.153384 0.603695 0.175272
0.157075 0.606683 0.175833
0.160718 0.608748 0.176212
0.163284 0.598473 0.174162
0.166714 0.598417 0.174126
0.170099 0.597897 0.174001
0.173403 0.596604 0.173724
0.177431 0.602103 0.174786
0.180918 0.602316 0.174808
0.185459 0.611453 0.176588
0.189176 0.613119 0.176899
0.191000 0.599758 0.174253
0.194546 0.600383 0.174362
0.198188 0.601640 0.174597
0.201558 0.600864 0.174433
0.204990 0.600546 0.174361
0.208717 0.602169 0.174672
0.212296 0.602716 0.174773
0.216087 0.604524 0.175123
0.219329 0.602889 0.174798
0.222319 0.599845 0.174198
0.227144 0.607403 0.175685
0.230454 0.606123 0.175435
0.234056 0.606459 0.175505
0.237632 0.606619 0.175542
0.240204 0.601580 0.174558
0.243463 0.600204 0.174297
0.246801 0.599249 0.174121
0.250087 0.598063 0.173901
0.255845 0.608444 0.175960
0.259431 0.608419 0.175973
0.263089 0.608682 0.176046
0.266114 0.606139 0.175568
0.269338 0.604525 0.175276
0.272725 0.603626 0.175127
0.276299 0.603500 0.175133
0.279761 0.602896 0.175047
0.281898 0.597056 0.173932
0.285854 0.598442 0.174243
0.289415 0.598243 0.174245
0.292892 0.597703 0.174183
0.297800 0.602375 0.175152
0.301395 0.602133 0.175155
0.305613 0.604058 0.175588
0.309520 0.604802 0.175792
0.311857 0.600136 0.174931
0.315414 0.599673 0.174903
0.319307 0.600291 0.175092
0.322087 0.597249 0.174560
0.325471 0.596187 0.174424
0.329601 0.597452 0.174752
0.335311 0.603498 0.176031
0.339210 0.603823 0.176182
0.345212 0.610369 0.177571
0.349032 0.610258 0.177643
0.351422 0.605970 0.176890
0.355193 0.605697 0.176938
0.357939 0.602510 0.176411
0.360387 0.598543 0.175731
0.364000 0.597822 0.175702
0.368308 0.598938 0.176043
0.372273 0.599065 0.176192
0.375109 0.596194 0.175746
0.379530 0.597433 0.176125
0.383335 0.597022 0.176179
0.388037 0.598817 0.176680
0.391789 0.598168 0.176696
0.396245 0.599200 0.177053
0.398291 0.594363 0.176236
0.401990 0.593524 0.176226
0.403882 0.588430 0.175362
0.413714 0.601736 0.178212
0.418561 0.603295 0.178700
0.420785 0.598868 0.177982
0.424536 0.597892 0.177965
0.426913 0.593884 0.177337
0.431381 0.594450 0.177638
0.436391 0.596111 0.178166
0.440312 0.595393 0.178213
0.444128 0.594427 0.178212
0.450546 0.598796 0.179301
0.456087 0.601240 0.180001
0.466723 0.613812 0.182775
0.468267 0.608017 0.181795
0.470390 0.603464 0.181066
0.473637 0.601167 0.180798
0.476964 0.599054 0.180565
0.480149 0.596702 0.180279
0.483889 0.595424 0.180211
0.488746 0.596233 0.180570
0.493898 0.597558 0.181031
0.496383 0.594032 0.180483
0.500384 0.593300 0.180505
0.504997 0.593680 0.180750
0.508946 0.592906 0.180748
0.513626 0.593440 0.181006
0.517136 0.591989 0.180842
0.516862 0.584189 0.179342
0.517927 0.578835 0.178338
0.521630 0.578019 0.178265
0.530151 0.585203 0.179847
0.529536 0.577416 0.178289
0.533741 0.577623 0.178384
0.544678 0.588664 0.180726
0.551574 0.593172 0.181687
0.556555 0.594670 0.182001
0.560563 0.594706 0.181992
-0.271039 0.596788 0.186485
-0.268857 0.599407 0.187019
-0.265467 0.599781 0.187054
-0.261995 0.600104 0.187059
-0.258455 0.600395 0.187040
-0.255196 0.601368 0.187149
-0.252235 0.603071 0.187397
-0.248789 0.603883 0.187438
-0.242317 0.598382 0.186114
-0.241016 0.603918 0.187133
-0.236054 0.601712 0.186485
-0.232715 0.603081 0.186586
-0.229328 0.604433 0.186670
-0.224538 0.602711 0.186091
-0.221494 0.604966 0.186344
-0.217886 0.606010 0.186332
-0.213077 0.604304 0.185729
-0.208743 0.603699 0.185353
-0.204847 0.604142 0.185192
-0.200912 0.604508 0.185010
-0.197000 0.604942 0.184837
-0.193603 0.606672 0.184933
-0.189949 0.607787 0.184896
-0.184803 0.605078 0.184059
-0.179471 0.601784 0.183101
-0.176800 0.605414 0.183586
-0.173012 0.606121 0.183462
-0.168667 0.605294 0.183020
-0.164808 0.605751 0.182846
-0.160490 0.604888 0.182402
-0.156373 0.604530 0.182065
-0.152178 0.603891 0.181673
-0.148436 0.604515 0.181544
-0.144800 0.605429 0.181478
-0.140603 0.604613 0.181060
-0.136755 0.604800 0.180852
-0.132953 0.605083 0.180668
-0.129010 0.604869 0.180386
-0.124294 0.602076 0.179584
-0.120863 0.603386 0.179622
-0.117302 0.604248 0.179572
-0.113522 0.604336 0.179370
-0.110017 0.605329 0.179355
-0.105879 0.604051 0.178886
-0.102578 0.605705 0.179013
-0.098592 0.604832 0.178635
-0.093981 0.601519 0.177771
-0.090652 0.602942 0.177864
-0.087046 0.603283 0.177745
-0.083388 0.603378 0.177580
-0.079816 0.603770 0.177479
-0.076431 0.604907 0.177531
-0.073165 0.606549 0.177688
-0.069040 0.604475 0.177107
-0.065500 0.604859 0.177020
-0.061673 0.603906 0.176672
-0.058371 0.605297 0.176793
-0.054226 0.602698 0.176126
-0.051014 0.604469 0.176330
-0.047719 0.605862 0.176463
-0.043961 0.604918 0.176136
-0.040147 0.603587 0.175736
-0.036574 0.603436 0.175573
-0.033026 0.603369 0.175431
-0.030227 0.607511 0.176122
-0.028175 0.616197 0.177710
-0.024335 0.614613 0.177276
-0.019530 0.606935 0.175647
-0.016346 0.609068 0.175952
-0.013209 0.611605 0.176339
-0.010893 0.619840 0.177847
-0.007464 0.620785 0.177925
-0.001932 0.606503 0.175021
0.002066 0.602692 0.174174
0.005411 0.603648 0.174264
0.009150 0.601459 0.173741
0.012539 0.602007 0.173756
0.015337 0.607749 0.174788
0.017933 0.615811 0.176274
0.021628 0.614058 0.175845
0.025352 0.611819 0.175324
0.028562 0.614735 0.175810
0.031761 0.618055 0.176377
0.035243 0.618410 0.176367
0.038887 0.616762 0.175970
0.043368 0.603902 0.173394
0.046952 0.601882 0.172930
0.050390 0.601732 0.172831
0.054009 0.598609 0.172157
0.057413 0.598717 0.172112
0.060724 0.600598 0.172413
0.063824 0.607235 0.173637
0.066981 0.613981 0.174883
0.070802 0.605063 0.173094
0.074272 0.604070 0.172843
0.077718 0.603593 0.172694
0.081158 0.603121 0.172547
0.084596 0.602576 0.172387
0.088106 0.596776 0.171213
0.091440 0.603004 0.172365
0.094832 0.609363 0.173544
0.098289 0.608900 0.173405
0.101743 0.608523 0.173284
0.105231 0.612461 0.173997
0.108674 0.610174 0.173510
0.112166 0.611752 0.173770
0.115578 0.609159 0.173226
0.118855 0.602480 0.171896
0.122269 0.602006 0.171764
0.125647 0.600635 0.171460
0.129039 0.599852 0.171271
0.132371 0.597946 0.170867
0.135965 0.601456 0.171507
0.139452 0.602456 0.171664
0.142930 0.603111 0.171756
0.146401 0.603538 0.171806
0.150013 0.605899 0.172228
0.153427 0.605284 0.172079
0.157003 0.606755 0.172332
0.160422 0.606165 0.172190
0.163187 0.598270 0.170646
0.166589 0.597953 0.170559
0.169976 0.597475 0.170442
0.173255 0.595984 0.170133
0.177680 0.605204 0.171881
0.181237 0.605924 0.171998
0.184985 0.608191 0.172413
0.188628 0.609393 0.172625
0.190721 0.598287 0.170476
0.194665 0.601995 0.171172
0.198002 0.600985 0.170964
0.201400 0.600447 0.170847
0.204519 0.598008 0.170368
0.207973 0.597916 0.170340
0.212029 0.601674 0.171052
0.215258 0.600031 0.170730
0.218336 0.597548 0.170248
0.222247 0.600066 0.170727
0.225758 0.600136 0.170738
0.230521 0.607140 0.172081
0.234007 0.606832 0.172024
0.237082 0.604352 0.171551
0.239405 0.598097 0.170356
0.243153 0.599270 0.170588
0.246332 0.597570 0.170271
0.251050 0.603285 0.171378
0.255072 0.605458 0.171808
0.259885 0.611112 0.172909
0.263335 0.610404 0.172791
0.266784 0.609687 0.172673
0.269646 0.606459 0.172076
0.273093 0.605783 0.171970
0.276886 0.606526 0.172140
0.281243 0.609475 0.172736
0.282105 0.598484 0.170657
0.285563 0.597929 0.170585
0.289383 0.598737 0.170778
0.292519 0.596929 0.170470
0.297484 0.601842 0.171458
0.302096 0.605274 0.172165
0.306567 0.608051 0.172749
0.309947 0.606911 0.172583
0.310933 0.597619 0.170849
0.314713 0.597958 0.170973
0.318796 0.599245 0.171283
0.322061 0.597799 0.171069
0.325781 0.597810 0.171141
0.329736 0.598516 0.171349
0.337246 0.610113 0.173666
0.340953 0.609766 0.173680
0.340467 0.596865 0.171270
0.346213 0.602638 0.172475
0.350516 0.604012 0.172833
0.354582 0.604624 0.173048
0.358843 0.605722 0.173362
0.359603 0.597048 0.171783
0.363603 0.597416 0.171963
0.367314 0.596948 0.171984
0.372139 0.599397 0.172577
0.375572 0.598089 0.172444
0.378927 0.596572 0.172274
0.383844 0.599010 0.172879
0.387196 0.597411 0.172701
0.391030 0.596997 0.172759
0.394658 0.596042 0.172715
0.398170 0.594781 0.172616
0.402311 0.594993 0.172809
0.403831 0.589018 0.171792
0.406454 0.585694 0.171297
0.415168 0.596287 0.173543
0.421988 0.602296 0.174896
0.424951 0.599537 0.174526
0.428331 0.597712 0.174342
0.431975 0.596456 0.174274
0.436995 0.598125 0.174788
0.440085 0.595633 0.174480
0.443884 0.594636 0.174471
0.448833 0.595989 0.174931
0.455416 0.600593 0.176040
0.461863 0.604772 0.177068
0.467891 0.607987 0.177907
0.470164 0.603724 0.177254
0.473733 0.602046 0.177116
0.477299 0.600377 0.176977
0.480194 0.597454 0.176585
0.483794 0.595901 0.176463
0.487977 0.595451 0.176560
0.492975 0.596496 0.176953
0.496416 0.594699 0.176768
0.499920 0.593058 0.176608
0.504453 0.593286 0.176817
0.509855 0.595045 0.177329
0.514008 0.594626 0.177391
0.517558 0.593212 0.177240
0.520501 0.590831 0.176882
0.517515 0.578582 0.174507
0.522472 0.579831 0.174859
0.529639 0.584748 0.175943
0.537949 0.591491 0.177385
0.541295 0.590151 0.177167
0.544784 0.589134 0.176999
0.552181 0.594405 0.178095
0.556274 0.594468 0.178113
0.561544 0.596443 0.178503
-0.272969 0.600473 0.183618
-0.268879 0.599402 0.183359
-0.265146 0.599128 0.183249
-0.261987 0.600106 0.183384
-0.258475 0.600487 0.183377
-0.255265 0.601592 0.183503
-0.252365 0.603454 0.183772
-0.246251 0.598711 0.182645
-0.243851 0.601811 0.183140
-0.240973 0.604033 0.183436
-0.237418 0.604908 0.183438
-0.232770 0.603467 0.182946
-0.228279 0.602392 0.182519
-0.224161 0.602179 0.182260
-0.220287 0.602554 0.182114
-0.217026 0.604388 0.182260
-0.212514 0.603370 0.181810
-0.209276 0.605361 0.181973
-0.204479 0.603675 0.181374
-0.200869 0.604836 0.181355
-0.196857 0.605036 0.181135
-0.193472 0.606801 0.181233
-0.189746 0.607741 0.181158
-0.185451 0.607221 0.180785
-0.180129 0.603983 0.179858
-0.176716 0.605681 0.179936
-0.172139 0.604265 0.179383
-0.168263 0.604686 0.179203
-0.164760 0.606115 0.179229
-0.160703 0.605986 0.178941
-0.156478 0.605328 0.178550
-0.152347 0.604875 0.178204
-0.148441 0.605022 0.177981
-0.144746 0.605758 0.177880
-0.140055 0.603430 0.177170
-0.136659 0.604982 0.177239
-0.132231 0.603283 0.176663
-0.128814 0.604710 0.176715
-0.124536 0.603323 0.176211
-0.120994 0.604276 0.176176
-0.116269 0.601213 0.175351
-0.113175 0.603585 0.175605
-0.109354 0.603445 0.175367
-0.106062 0.605126 0.175492
-0.102508 0.605867 0.175436
-0.097850 0.602496 0.174576
-0.094489 0.603829 0.174646
-0.090538 0.602893 0.174274
-0.087066 0.603741 0.174256
-0.083717 0.605059 0.174334
-0.080141 0.605457 0.174236
-0.076656 0.606195 0.174209
-0.073056 0.606422 0.174085
-0.069001 0.604630 0.173573
-0.065973 0.607275 0.173928
-0.062306 0.607083 0.173734
-0.058541 0.606377 0.173446
-0.054549 0.604512 0.172936
-0.050896 0.604164 0.172725
-0.047273 0.603897 0.172533
-0.043741 0.604038 0.172424
-0.040153 0.603845 0.172253
-0.036518 0.603353 0.172028
-0.032991 0.603383 0.171908
-0.030551 0.609536 0.172968
-0.027355 0.611588 0.173241
-0.023564 0.610147 0.172846
-0.020330 0.612026 0.173091
-0.016687 0.611369 0.172853
-0.013499 0.613628 0.173176
-0.010709 0.618693 0.174038
-0.007149 0.618661 0.173927
-0.001692 0.604829 0.171180
0.001740 0.605184 0.171150
0.005698 0.601434 0.170338
0.009015 0.602560 0.170460
0.012540 0.601978 0.170259
