ply
format ascii 1.0
comment ---
element vertex 1771
property float x
property float y
property float z
element face 0
property list uchar uint vertex_indices
end_header
0.496200 0.600139 0.224312
0.498831 0.600414 0.224490
0.501974 0.604390 0.225612
0.504664 0.604906 0.225856
0.507037 0.603230 0.225543
0.509751 0.603909 0.225832
0.512535 0.604986 0.226224
0.514894 0.603386 0.225935
0.517371 0.602582 0.225851
0.520302 0.604453 0.226453
0.522540 0.602316 0.226031
0.525063 0.601857 0.226040
0.527638 0.601693 0.226127
0.531117 0.606237 0.227426
0.533490 0.604938 0.227226
0.535896 0.603863 0.227085
0.538783 0.605152 0.227556
0.541567 0.605886 0.227886
0.543548 0.602884 0.227253
0.547207 0.607549 0.228604
0.550441 0.610124 0.229419
0.553265 0.610820 0.229750
0.558092 0.619891 0.232258
0.557056 0.604429 0.228398
0.559281 0.602737 0.228113
0.562002 0.603056 0.228354
0.564719 0.603333 0.228586
0.567321 0.603143 0.228698
0.569599 0.601736 0.228494
0.571926 0.600541 0.228347
0.572705 0.593813 0.226752
0.576817 0.599060 0.228296
0.582621 0.609954 0.231329
0.585775 0.611433 0.231894
0.588281 0.610670 0.231873
0.593964 0.620351 0.234607
0.593064 0.608416 0.231643
0.595727 0.608169 0.231762
0.600232 0.613664 0.233404
0.602566 0.612281 0.233228
0.604440 0.609526 0.232689
0.606968 0.608781 0.232684
0.609696 0.608617 0.232836
0.612323 0.608139 0.232905
0.614994 0.607776 0.233007
0.616950 0.605391 0.232571
0.619263 0.604037 0.232410
0.621910 0.603603 0.232497
0.625364 0.605315 0.233162
0.628558 0.606265 0.233625
0.630346 0.603498 0.233090
0.632592 0.601957 0.232885
0.634550 0.599699 0.232487
0.637108 0.598975 0.232505
0.639863 0.598726 0.232652
0.643623 0.600897 0.233458
0.646931 0.601895 0.233948
0.649766 0.601722 0.234123
0.652970 0.602383 0.234526
0.657292 0.605574 0.235623
0.661863 0.609219 0.236849
0.665811 0.611343 0.237664
0.670177 0.614309 0.238713
0.672528 0.612758 0.238525
0.674995 0.611467 0.238409
0.678642 0.612698 0.238989
0.682209 0.613696 0.239508
0.680008 0.602629 0.236692
0.682398 0.601243 0.236550
0.684817 0.599922 0.236427
0.688698 0.601536 0.237121
0.690332 0.598623 0.236557
0.692384 0.596566 0.236231
0.695114 0.595844 0.236278
0.702353 0.603744 0.238741
0.705793 0.604237 0.239136
0.707786 0.601982 0.238761
0.713712 0.607024 0.240440
0.717232 0.607520 0.240843
0.717455 0.602010 0.239552
0.720123 0.600966 0.239522
0.723752 0.601614 0.239973
0.726435 0.600562 0.239943
0.727622 0.596916 0.239175
0.730742 0.596626 0.239363
0.737012 0.601641 0.241068
0.744480 0.608522 0.243315
0.743948 0.601977 0.241722
0.745148 0.598381 0.240970
0.750821 0.602077 0.242316
0.754813 0.602968 0.242859
0.753345 0.595148 0.240889
0.755145 0.592592 0.240436
0.757122 0.590333 0.240068
0.761388 0.591608 0.240728
0.763529 0.589594 0.240433
0.771991 0.597107 0.242918
0.772509 0.592598 0.241900
0.776800 0.593714 0.242526
0.780269 0.593576 0.242789
0.785300 0.595666 0.243709
0.790076 0.597318 0.244505
0.794952 0.599046 0.245329
0.798247 0.598491 0.245482
0.802471 0.599204 0.246013
0.805528 0.598267 0.246057
0.810156 0.599452 0.246735
0.813330 0.598623 0.246817
0.816602 0.597909 0.246935
0.820558 0.598078 0.247320
0.823995 0.597531 0.247493
0.827280 0.596764 0.247603
0.832367 0.598289 0.248407
0.835897 0.597772 0.248599
0.838696 0.596312 0.248508
0.845049 0.599271 0.249761
0.849475 0.599762 0.250271
0.853495 0.599711 0.250620
0.856013 0.597808 0.250406
0.862496 0.600657 0.251650
0.864793 0.598446 0.251348
0.868020 0.597332 0.251385
0.873238 0.598522 0.252136
0.876510 0.597406 0.252180
0.880429 0.597012 0.252450
0.884602 0.596874 0.252805
0.889323 0.597315 0.253345
0.893568 0.597177 0.253710
0.898536 0.597798 0.254317
0.903542 0.598409 0.254928
0.907916 0.598283 0.255313
0.913177 0.599067 0.255991
0.917233 0.598517 0.256254
0.921341 0.597988 0.256528
0.926619 0.598643 0.257185
0.930596 0.597900 0.257403
0.934218 0.596764 0.257500
0.940584 0.598376 0.258485
0.944935 0.597894 0.258805
0.948339 0.596435 0.258815
0.956249 0.599382 0.260258
0.959825 0.598008 0.260309
0.963126 0.596344 0.260271
0.968857 0.596981 0.260990
0.974579 0.597547 0.261695
0.978694 0.596544 0.261894
0.983718 0.596351 0.262366
0.987574 0.595034 0.262475
0.993775 0.595822 0.263289
1.005315 0.601356 0.265696
1.011450 0.601899 0.266456
1.017703 0.602478 0.267238
1.018533 0.598234 0.266409
1.021697 0.596037 0.266271
1.026493 0.595225 0.266609
1.033576 0.596314 0.267602
1.041344 0.597898 0.268778
1.046673 0.597351 0.269238
1.052175 0.596893 0.269739
1.058493 0.597048 0.270463
1.062858 0.595549 0.270625
1.069696 0.595999 0.271473
1.075384 0.595458 0.271990
1.080186 0.594162 0.272251
1.087707 0.594942 0.273253
1.093455 0.594270 0.273756
1.098923 0.593328 0.274174
1.106106 0.593631 0.275046
1.113121 0.593732 0.275859
1.119793 0.593508 0.276567
1.128604 0.594786 0.277830
1.137430 0.595979 0.279079
1.141784 0.593866 0.279138
1.146682 0.592115 0.279334
1.155593 0.593157 0.280563
1.166235 0.595317 0.282219
1.170667 0.593087 0.282263
1.179508 0.593849 0.283424
1.185431 0.592565 0.283829
1.198519 0.596037 0.286028
1.206372 0.595922 0.286888
1.212987 0.594947 0.287426
1.224469 0.597097 0.289157
1.231222 0.596128 0.289702
1.236862 0.594432 0.289965
1.243090 0.593106 0.290363
1.251509 0.593139 0.291283
1.260438 0.593461 0.292311
1.272091 0.595416 0.293974
1.279571 0.594801 0.294624
1.287072 0.594203 0.295267
1.299818 0.596714 0.297133
1.307413 0.596163 0.297771
1.312870 0.594391 0.297903
1.318234 0.592612 0.298009
0.425389 0.573369 0.211948
0.427261 0.596837 0.217803
0.429394 0.605299 0.220015
0.431632 0.611969 0.221791
0.433842 0.600292 0.219089
0.436104 0.599380 0.219006
0.438393 0.598617 0.218953
0.440729 0.598989 0.219174
0.443128 0.600626 0.219701
0.445525 0.600718 0.219846
0.447918 0.599938 0.219773
0.450413 0.601411 0.220250
0.452318 0.588455 0.217177
0.455268 0.599368 0.219970
0.457859 0.601206 0.220530
0.460282 0.599565 0.220231
0.462779 0.599146 0.220231
0.466483 0.616459 0.224607
0.468633 0.609856 0.223080
0.470778 0.603926 0.221716
0.473260 0.602692 0.221512
0.475783 0.602000 0.221440
0.478244 0.600655 0.221207
0.480167 0.593874 0.219625
0.482891 0.595547 0.220139
0.485803 0.598792 0.221045
0.489032 0.604546 0.222577
0.491610 0.604251 0.222607
0.494082 0.603114 0.222428
0.496791 0.603918 0.222734
0.499263 0.602867 0.222579
0.502146 0.604877 0.223189
0.504928 0.606042 0.223590
0.507249 0.604000 0.223191
0.509969 0.604708 0.223482
0.512541 0.604436 0.223529
0.515030 0.603670 0.223453
0.517715 0.604120 0.223685
0.520369 0.604367 0.223868
0.522998 0.604452 0.224012
0.525122 0.601767 0.223461
0.527657 0.601413 0.223498
0.530385 0.602078 0.223793
0.533379 0.604046 0.224420
0.535528 0.601745 0.223972
0.538262 0.602361 0.224262
0.540067 0.598575 0.223440
0.543037 0.600301 0.224015
0.547671 0.609416 0.226467
0.551084 0.612754 0.227460
0.554533 0.616087 0.228455
0.558428 0.621142 0.229893
0.556883 0.603575 0.225571
0.559304 0.602707 0.225501
0.561845 0.602329 0.225558
0.564917 0.604007 0.226142
0.567419 0.603440 0.226155
0.569801 0.602425 0.226055
0.572037 0.600897 0.225824
0.572959 0.594690 0.224392
0.576987 0.599633 0.225827
0.581451 0.605889 0.227606
0.587247 0.616438 0.230497
0.591087 0.620060 0.231609
0.594751 0.622957 0.232538
0.592550 0.606784 0.228533
0.594283 0.603619 0.227892
0.596430 0.601828 0.227607
0.599051 0.601529 0.227711
0.601197 0.599779 0.227438
0.602684 0.596091 0.226662
0.608846 0.606205 0.229487
0.612699 0.609314 0.230491
0.615327 0.608818 0.230555
0.617482 0.606986 0.230270
0.619747 0.605483 0.230072
0.622206 0.604523 0.230018
0.624084 0.602008 0.229556
0.625211 0.597552 0.228582
0.629478 0.601372 0.229791
0.631897 0.600312 0.229715
0.634232 0.599039 0.229583
0.636488 0.597576 0.229402
0.639544 0.598096 0.229748
0.642591 0.598550 0.230079
0.646887 0.601956 0.231199
0.650340 0.603252 0.231760
0.653608 0.604049 0.232190
0.659763 0.611452 0.234392
0.662384 0.610593 0.234387
0.665186 0.610131 0.234489
0.668376 0.610514 0.234820
0.672857 0.613680 0.235902
0.675597 0.612976 0.235946
0.678699 0.613028 0.236194
0.681768 0.612980 0.236418
0.679672 0.602141 0.233716
0.682126 0.600901 0.233614
0.684833 0.600173 0.233652
0.687445 0.599240 0.233636
0.691300 0.600768 0.234292
0.693615 0.599210 0.234108
0.695491 0.596804 0.233692
0.702475 0.604214 0.235969
0.706641 0.606084 0.236732
0.708992 0.604481 0.236542
0.712308 0.604672 0.236848
0.716058 0.605622 0.237365
0.718541 0.604226 0.237235
0.722232 0.604994 0.237707
0.727909 0.609227 0.239144
0.727786 0.603186 0.237726
0.729555 0.600522 0.237247
0.732797 0.600405 0.237479
0.735135 0.598732 0.237277
0.742713 0.605838 0.239537
0.744234 0.602726 0.238936
0.750610 0.607607 0.240583
0.753136 0.606110 0.240439
0.754231 0.602318 0.239647
0.756678 0.600722 0.239475
0.758243 0.597740 0.238910
0.760102 0.595250 0.238484
0.762987 0.594357 0.238512
0.770864 0.601048 0.240706
0.774190 0.600717 0.240901
0.777625 0.600523 0.241138
0.781745 0.601311 0.241660
0.783326 0.598343 0.241104
0.788282 0.600284 0.241962
0.792899 0.601670 0.242665
0.796459 0.601497 0.242920
0.799216 0.600168 0.242844
0.802454 0.599503 0.242961
0.805004 0.597871 0.242798
0.810278 0.599947 0.243719
0.812428 0.597739 0.243392
0.815823 0.597202 0.243555
0.818843 0.596147 0.243569
0.821257 0.594287 0.243347
0.824091 0.592974 0.243288
0.827428 0.592298 0.243418
0.835002 0.596985 0.245140
0.838035 0.595833 0.245137
0.840305 0.593718 0.244851
0.844710 0.594243 0.245352
0.852291 0.598606 0.247004
0.854599 0.596464 0.246718
0.857879 0.595493 0.246785
0.864009 0.597891 0.247868
0.866809 0.596288 0.247751
0.870553 0.595776 0.247967
0.877112 0.598488 0.249164
0.880644 0.597649 0.249289
0.884365 0.597001 0.249477
0.889680 0.598115 0.250206
0.893359 0.597349 0.250367
0.898183 0.597820 0.250910
0.903350 0.598613 0.251559
0.907547 0.598303 0.251875
0.911161 0.597333 0.251991
0.915643 0.597260 0.252389
0.920529 0.597569 0.252911
0.924588 0.596968 0.253157
0.930965 0.598723 0.254144
0.935145 0.598157 0.254413
0.940039 0.598279 0.254903
0.944260 0.597677 0.255173
0.949601 0.598150 0.255788
0.953344 0.596997 0.255895
0.958456 0.597149 0.256422
0.962130 0.595862 0.256498
0.968761 0.597375 0.257475
0.974150 0.597633 0.258060
0.978555 0.596910 0.258337
0.981514 0.594807 0.258176
0.985830 0.593937 0.258419
0.991730 0.594473 0.259125
0.999947 0.597036 0.260502
1.005395 0.597017 0.261050
1.011114 0.597183 0.261667
1.017637 0.597991 0.262506
1.022147 0.596976 0.262754
1.026301 0.595613 0.262895
1.034865 0.597974 0.264282
1.040330 0.597611 0.264776
1.046086 0.597436 0.265342
1.051810 0.597173 0.265890
1.057575 0.596884 0.266439
1.062293 0.595686 0.266691
1.069866 0.596737 0.267717
1.077049 0.597391 0.268622
1.082292 0.596436 0.268989
1.087859 0.595683 0.269435
1.093822 0.595181 0.269977
1.097776 0.593083 0.269977
1.108815 0.596321 0.271842
1.113600 0.594736 0.272042
1.118362 0.593097 0.272230
1.122831 0.591206 0.272335
1.135673 0.595367 0.274594
1.141544 0.594361 0.275036
1.146714 0.592808 0.275290
1.154962 0.593387 0.276317
1.162107 0.593119 0.277050
1.172389 0.594957 0.278556
1.177244 0.592987 0.278690
1.185033 0.592981 0.279544
1.198618 0.596793 0.281810
1.204698 0.595503 0.282210
1.215232 0.597106 0.283684
1.221990 0.596178 0.284225
1.231524 0.597006 0.285422
1.237893 0.595766 0.285845
1.244764 0.594831 0.286379
1.251117 0.593562 0.286781
1.264734 0.596768 0.288880
1.271331 0.595607 0.289313
1.279449 0.595373 0.290090
1.287651 0.595185 0.290875
1.298356 0.596477 0.292223
1.306111 0.596017 0.292879
1.311447 0.594168 0.292976
1.316033 0.591935 0.292900
0.425251 0.593110 0.214364
0.427346 0.594155 0.214763
0.429467 0.607157 0.218013
0.431715 0.611628 0.219226
0.433935 0.601187 0.216870
0.436200 0.599760 0.216662
0.438501 0.599314 0.216685
0.440846 0.599760 0.216917
0.443209 0.599640 0.217009
0.445628 0.600514 0.217337
0.448033 0.600018 0.217333
0.450456 0.599518 0.217324
0.452445 0.588724 0.214830
0.455367 0.598943 0.217399
0.458055 0.602591 0.218384
0.460660 0.603967 0.218820
0.463148 0.603057 0.218701
0.466815 0.619467 0.222773
0.468621 0.607964 0.220089
0.470791 0.602486 0.218860
0.473315 0.601863 0.218806
0.475919 0.602159 0.218976
0.478401 0.601039 0.218801
0.480336 0.594404 0.217285
0.483044 0.595904 0.217747
0.486247 0.601844 0.219291
0.489301 0.605921 0.220385
0.491808 0.604986 0.220258
0.494323 0.604188 0.220165
0.496888 0.603843 0.220184
0.499522 0.604035 0.220336
0.502263 0.604991 0.220676
0.504772 0.604259 0.220604
0.506772 0.600129 0.219700
0.509704 0.602372 0.220360
0.512539 0.603862 0.220839
0.514782 0.601623 0.220402
0.517466 0.602146 0.220646
0.520495 0.604642 0.221379
0.523202 0.605180 0.221631
0.525709 0.604592 0.221608
0.527866 0.602165 0.221132
0.530166 0.600602 0.220871
0.532541 0.599497 0.220724
0.535456 0.601100 0.221250
0.537409 0.597994 0.220610
0.541017 0.602798 0.221935
0.543107 0.600407 0.221476
0.547646 0.609102 0.223776
0.551496 0.614378 0.225231
0.554796 0.617052 0.226042
0.557304 0.616267 0.225993
0.557148 0.604540 0.223212
0.559507 0.603412 0.223078
0.562091 0.603205 0.223176
0.564952 0.604062 0.223542
0.567504 0.603694 0.223604
0.569637 0.601762 0.223274
0.571547 0.599064 0.222752
0.573462 0.596466 0.222256
0.577998 0.603180 0.224109
0.581320 0.605430 0.224841
0.585149 0.609308 0.225987
0.591520 0.621523 0.229249
0.595172 0.624367 0.230145
0.591810 0.604428 0.225262
0.594204 0.603414 0.225178
0.596797 0.603030 0.225255
0.599233 0.602151 0.225208
0.601346 0.600299 0.224914
0.602233 0.594824 0.223694
0.606954 0.600742 0.225388
0.611454 0.605814 0.226871
0.615138 0.608382 0.227718
0.617476 0.607076 0.227572
0.620048 0.606427 0.227596
0.621679 0.603212 0.226960
0.624406 0.602998 0.227099
0.627299 0.603202 0.227347
0.629383 0.601262 0.227042
0.630905 0.597906 0.226370
0.634157 0.598998 0.226852
0.637959 0.601403 0.227678
0.640576 0.600796 0.227723
0.642959 0.599608 0.227619
0.646434 0.601040 0.228199
0.650618 0.604084 0.229204
0.655122 0.607764 0.230379
0.656251 0.603541 0.229486
0.664505 0.615608 0.232872
0.663475 0.606482 0.230691
0.666613 0.606801 0.230995
0.671766 0.611494 0.232455
0.676489 0.615110 0.233637
0.677478 0.610631 0.232679
0.683762 0.617401 0.234703
0.679348 0.601682 0.230759
0.682619 0.602133 0.231106
0.685048 0.600830 0.230989
0.687960 0.600498 0.231131
0.690822 0.600046 0.231243
0.692698 0.597638 0.230831
0.696000 0.598023 0.231169
0.702446 0.604396 0.233120
0.708023 0.608944 0.234586
0.711540 0.609500 0.234981
0.714056 0.608156 0.234865
0.717112 0.607802 0.235018
0.720694 0.608376 0.235424
0.728339 0.616182 0.237797
0.730553 0.614167 0.237507
0.727898 0.603643 0.234896
0.728572 0.599081 0.233905
0.733075 0.601147 0.234726
0.734339 0.597650 0.234025
0.735977 0.594825 0.233507
0.746363 0.606528 0.236987
0.750041 0.606953 0.237371
0.756972 0.612615 0.239204
0.754909 0.603689 0.237008
0.758610 0.604074 0.237386
0.762195 0.604236 0.237705
0.762678 0.599541 0.236675
0.774171 0.606380 0.239139
0.776205 0.604050 0.238771
0.777977 0.601348 0.238298
0.782472 0.602689 0.238961
0.786858 0.603810 0.239566
0.783760 0.594052 0.237105
0.794000 0.603558 0.240081
0.797818 0.603739 0.240430
0.799592 0.601014 0.239956
0.801646 0.598699 0.239598
0.805505 0.598882 0.239953
0.808673 0.598087 0.240031
0.811522 0.596845 0.239983
0.813610 0.594578 0.239642
0.817009 0.594056 0.239803
0.822212 0.595874 0.240640
0.823068 0.591986 0.239836
0.825401 0.590035 0.239590
0.832878 0.594632 0.241244
0.837050 0.594942 0.241661
0.840882 0.594788 0.241946
0.843298 0.592854 0.241716
0.852174 0.598824 0.243798
0.854846 0.597128 0.243645
0.856742 0.594496 0.243218
0.861414 0.595179 0.243768
0.865897 0.595589 0.244242
0.869011 0.594357 0.244235
0.873062 0.594194 0.244547
0.879664 0.596915 0.245721
0.883148 0.596014 0.245824
0.887030 0.595536 0.246057
0.894046 0.598514 0.247328
0.897989 0.598011 0.247564
0.902444 0.598034 0.247962
0.907166 0.598306 0.248440
0.910307 0.596837 0.248397
0.916962 0.599082 0.249485
0.920086 0.597531 0.249426
0.923401 0.596164 0.249427
0.930428 0.598608 0.250597
0.935224 0.598681 0.251051
0.939456 0.598136 0.251320
0.945101 0.598973 0.252021
0.949671 0.598679 0.252380
0.953224 0.597341 0.252422
0.956603 0.595812 0.252409
0.961208 0.595445 0.252763
0.969506 0.598568 0.254215
0.973531 0.597532 0.254376
0.977435 0.596350 0.254496
0.981708 0.595481 0.254721
0.985654 0.594275 0.254846
0.993837 0.596903 0.256194
0.999589 0.597228 0.256823
1.003842 0.596149 0.257012
1.009309 0.596110 0.257542
1.014599 0.595859 0.258012
1.021086 0.596594 0.258810
1.025470 0.595443 0.259008
1.030750 0.595019 0.259450
1.039025 0.597070 0.260709
1.044978 0.597077 0.261314
1.051956 0.597869 0.262187
1.056950 0.596953 0.262510
1.062751 0.596644 0.263042
1.064817 0.593270 0.262566
1.076809 0.597802 0.264732
1.081608 0.596504 0.264967
1.086380 0.595141 0.265189
1.091953 0.594355 0.265614
1.099213 0.594806 0.266468
1.105729 0.594615 0.267116
1.113060 0.594969 0.267962
1.118785 0.594052 0.268385
1.129014 0.596395 0.269941
1.135411 0.595832 0.270509
1.141512 0.594997 0.270992
1.148288 0.594591 0.271633
1.155410 0.594369 0.272349
1.160579 0.592722 0.272572
1.170908 0.594609 0.274050
1.179307 0.595073 0.275037
1.184694 0.593428 0.275281
1.190699 0.592171 0.275666
1.203740 0.595550 0.277724
1.212564 0.596038 0.278753
1.222066 0.596908 0.279926
1.231920 0.597940 0.281163
1.238265 0.596678 0.281563
1.245547 0.595994 0.282173
1.252041 0.594801 0.282589
1.260308 0.594698 0.283404
1.271132 0.596138 0.284791
1.280895 0.596891 0.285917
1.289271 0.596789 0.286714
1.296904 0.596243 0.287333
1.304137 0.595474 0.287853
1.311381 0.594731 0.288367
1.313946 0.591321 0.287841
0.425161 0.608647 0.215617
0.427415 0.594358 0.212426
0.429555 0.600906 0.214099
0.431797 0.611113 0.216628
0.434033 0.602676 0.214785
0.436311 0.601401 0.214615
0.438606 0.599936 0.214396
0.440952 0.600072 0.214549
0.443342 0.600777 0.214832
0.445762 0.601401 0.215093
0.448139 0.599906 0.214851
0.450486 0.597408 0.214369
0.452713 0.592261 0.213257
0.455444 0.598122 0.214744
0.458183 0.602769 0.215945
0.460767 0.603744 0.216276
0.463877 0.612677 0.218492
0.467060 0.621236 0.220622
0.468600 0.606001 0.217104
0.470937 0.602818 0.216444
0.473430 0.601813 0.216300
0.475944 0.601088 0.216222
0.478538 0.601258 0.216358
0.480516 0.595081 0.214981
0.483403 0.598302 0.215844
0.486166 0.600058 0.216359
0.489191 0.603973 0.217391
0.491728 0.603398 0.217352
0.494180 0.602172 0.217158
0.496638 0.601081 0.216997
0.499332 0.601853 0.217284
0.502125 0.603288 0.217732
0.504495 0.601664 0.217446
0.506462 0.597423 0.216533
0.509448 0.600129 0.217291
0.512356 0.602167 0.217891
0.514839 0.601478 0.217835
0.517235 0.600307 0.217666
0.520212 0.602571 0.218327
0.523235 0.604962 0.219021
0.526137 0.606560 0.219526
0.528424 0.604792 0.219219
0.530267 0.600810 0.218377
0.532550 0.599252 0.218123
0.534942 0.598299 0.218017
0.538378 0.602409 0.219143
0.540050 0.598031 0.218207
0.544404 0.606155 0.220316
0.547268 0.607218 0.220710
0.550801 0.611156 0.221808
0.554155 0.614142 0.222678
0.557631 0.617506 0.223643
0.557297 0.605035 0.220735
0.559549 0.603480 0.220498
0.562178 0.603464 0.220640
0.564948 0.603976 0.220913
0.567493 0.603594 0.220969
0.569664 0.601817 0.220682
0.571796 0.599941 0.220373
0.573197 0.595491 0.219428
0.576988 0.599609 0.220601
0.580920 0.604048 0.221857
0.585038 0.608941 0.223231
0.589399 0.614455 0.224763
0.595539 0.625606 0.227701
0.591852 0.604605 0.222651
0.594273 0.603683 0.222590
0.596919 0.603470 0.222707
0.599315 0.602469 0.222629
0.600841 0.598845 0.221896
0.602034 0.594313 0.220935
0.606500 0.599499 0.222409
0.610180 0.602229 0.223273
0.614253 0.605968 0.224393
0.617963 0.608554 0.225228
0.619625 0.605379 0.224613
0.621534 0.602941 0.224185
0.624542 0.603493 0.224512
0.627674 0.604329 0.224913
0.629581 0.601920 0.224494
0.631069 0.598472 0.223811
0.634315 0.599549 0.224277
0.638417 0.602707 0.225276
0.641671 0.603658 0.225717
0.644066 0.602464 0.225612
0.647014 0.602603 0.225848
0.650306 0.603519 0.226286
0.652907 0.602770 0.226299
0.657628 0.606900 0.227566
0.660040 0.605637 0.227451
0.663017 0.605646 0.227664
0.665611 0.604775 0.227651
0.671454 0.611014 0.229479
0.675336 0.612823 0.230165
0.681808 0.620095 0.232272
0.682792 0.615571 0.231322
0.679979 0.603209 0.228329
0.682287 0.601665 0.228147
0.685686 0.602348 0.228548
0.688221 0.601247 0.228485
0.690825 0.600279 0.228456
0.693486 0.599413 0.228456
0.695515 0.597313 0.228132
0.700017 0.599975 0.229062
0.705532 0.604464 0.230478
0.711779 0.610193 0.232227
0.715945 0.611905 0.232920
0.718392 0.610397 0.232763
0.724264 0.615097 0.234254
0.730059 0.619522 0.235679
0.732407 0.617714 0.235449
0.729619 0.606917 0.232818
0.727210 0.596983 0.230409
0.731784 0.599199 0.231249
0.733493 0.596481 0.230768
0.735214 0.593812 0.230300
0.742111 0.599752 0.232151
0.746204 0.600936 0.232725
0.749126 0.600163 0.232773
0.753939 0.602413 0.233642
0.757771 0.603024 0.234070
0.763036 0.605847 0.235102
0.767028 0.606597 0.235575
0.762834 0.594697 0.232596
0.776440 0.610135 0.237085
0.776991 0.605536 0.236102
0.777435 0.600838 0.235088
0.779631 0.598795 0.234802
0.783841 0.599706 0.235331
0.788840 0.601709 0.236164
0.793465 0.603104 0.236834
0.799439 0.606353 0.238022
0.797531 0.598435 0.236113
0.802006 0.599517 0.236704
0.805906 0.599755 0.237063
0.808503 0.598179 0.236918
0.810237 0.595436 0.236447
0.813238 0.594409 0.236457
0.822431 0.601561 0.238769
0.829550 0.605822 0.240278
0.827835 0.598506 0.238524
0.829489 0.595626 0.238021
0.834065 0.596484 0.238578
0.838393 0.596981 0.239036
0.840254 0.594354 0.238608
0.847418 0.598298 0.240057
0.851657 0.598550 0.240457
0.856056 0.598957 0.240906
0.857345 0.595583 0.240272
0.859645 0.593441 0.239992
0.863242 0.592832 0.240156
0.867355 0.592799 0.240489
0.871848 0.593170 0.240944
0.876115 0.593236 0.241315
0.880115 0.592960 0.241590
0.885138 0.593802 0.242196
0.889976 0.594381 0.242731
0.897168 0.597507 0.244019
0.899755 0.595504 0.243807
0.903708 0.594974 0.244031
0.906117 0.592760 0.243761
0.917486 0.600059 0.246315
0.920885 0.598795 0.246339
0.924893 0.598146 0.246549
0.928595 0.597149 0.246660
0.933399 0.597253 0.247106
0.938121 0.597227 0.247518
0.942631 0.596943 0.247859
0.949617 0.599079 0.248938
0.952317 0.596906 0.248720
0.956082 0.595765 0.248818
0.961246 0.595948 0.249326
0.969257 0.598805 0.250658
0.972893 0.597406 0.250697
0.976266 0.595736 0.250658
0.981532 0.595807 0.251161
0.986354 0.595414 0.251528
0.994511 0.598020 0.252833
0.999506 0.597661 0.253228
1.003539 0.596392 0.253347
1.008698 0.596088 0.253774
1.014375 0.596187 0.254337
1.020682 0.596775 0.255063
1.025652 0.596139 0.255412
1.030890 0.595683 0.255827
1.037433 0.596276 0.256585
1.044883 0.597557 0.257574
1.050795 0.597472 0.258138
1.056940 0.597517 0.258754
1.062179 0.596758 0.259121
1.067526 0.596033 0.259508
1.072943 0.595312 0.259905
1.078540 0.594679 0.260341
1.084410 0.594204 0.260838
1.090527 0.593860 0.261388
1.097057 0.593770 0.262034
1.105411 0.594995 0.263127
1.112214 0.594962 0.263815
1.119925 0.595533 0.264718
1.127440 0.595878 0.265557
1.133585 0.595147 0.266045
1.139723 0.594356 0.266521
1.146392 0.593892 0.267117
1.154475 0.594367 0.268044
1.159353 0.592524 0.268185
1.171238 0.595502 0.269996
1.177268 0.594345 0.270390
1.185419 0.594588 0.271276
1.191447 0.593342 0.271649
1.200488 0.594064 0.272717
1.208039 0.593740 0.273422
1.220454 0.596534 0.275239
1.230911 0.597965 0.276581
1.237541 0.596886 0.277030
1.244238 0.595834 0.277486
1.252901 0.595997 0.278376
1.259289 0.594723 0.278742
1.270871 0.596627 0.280259
1.279374 0.596614 0.281072
1.287585 0.596413 0.281809
1.295956 0.596305 0.282571
1.303494 0.595710 0.283139
1.311389 0.595338 0.283776
1.321484 0.596252 0.284879
0.425432 0.587876 0.208421
0.427463 0.598270 0.210939
0.429621 0.607870 0.213277
0.431876 0.609633 0.213816
0.434115 0.602103 0.212216
0.436397 0.601003 0.212087
0.438711 0.600509 0.212093
0.441042 0.599657 0.212014
0.443446 0.600833 0.212398
0.445838 0.600395 0.212407
0.448293 0.601211 0.212702
0.450680 0.599530 0.212418
0.452782 0.591316 0.210617
0.455648 0.599972 0.212721
0.458210 0.601110 0.213083
0.460978 0.605341 0.214162
0.463872 0.610710 0.215505
0.466855 0.616457 0.216937
0.468814 0.607324 0.214908
0.471150 0.604058 0.214241
0.473580 0.602233 0.213909
0.476071 0.601237 0.213769
0.478589 0.600596 0.213712
0.480837 0.597228 0.213019
0.483236 0.595633 0.212738
0.486627 0.603340 0.214634
0.489043 0.601728 0.214352
0.491611 0.601526 0.214401
0.494334 0.602603 0.214750
0.496618 0.600166 0.214277
0.499032 0.598887 0.214075
0.501818 0.600394 0.214530
0.504319 0.599806 0.214493
0.506578 0.597628 0.214083
0.509724 0.601386 0.215074
0.512802 0.604487 0.215912
0.515334 0.604042 0.215915
0.517600 0.602041 0.215553
0.520179 0.601969 0.215648
0.523337 0.605151 0.216515
0.526382 0.607542 0.217198
0.529295 0.609097 0.217685
0.530971 0.604160 0.216633
0.533445 0.603498 0.216597
0.535985 0.603187 0.216646
0.537882 0.599792 0.215963
0.540720 0.600966 0.216368
0.543950 0.603880 0.217191
0.547522 0.608182 0.218350
0.549922 0.607141 0.218234
0.553176 0.609801 0.219006
0.557261 0.615825 0.220587
0.557054 0.603928 0.217874
0.559655 0.603819 0.217988
0.562037 0.602829 0.217892
0.564484 0.602114 0.217863
0.567538 0.603714 0.218393
0.569892 0.602629 0.218279
0.572113 0.601078 0.218053
0.573539 0.596708 0.217146
0.576745 0.598751 0.217791
0.580210 0.601596 0.218634
0.584552 0.607306 0.220176
0.588927 0.612906 0.221696
0.593742 0.619740 0.223521
0.591935 0.604920 0.220077
0.594533 0.604565 0.220154
0.596756 0.603023 0.219943
0.599189 0.602154 0.219897
0.601305 0.600327 0.219617
0.601998 0.594290 0.218306
0.605195 0.595764 0.218837
0.610413 0.603006 0.220789
0.614053 0.605509 0.221580
0.616804 0.605419 0.221736
0.619732 0.605797 0.222009
0.622060 0.604500 0.221869
0.624234 0.602800 0.221631
0.626323 0.600893 0.221341
0.628894 0.600272 0.221372
0.631915 0.600795 0.221688
0.634729 0.600752 0.221864
0.638235 0.602409 0.222467
0.641667 0.603811 0.223009
0.644471 0.603619 0.223154
0.647681 0.604375 0.223539
0.650006 0.602987 0.223388
0.653569 0.604500 0.223966
0.656659 0.604853 0.224256
0.660684 0.607296 0.225073
0.663768 0.607530 0.225337
0.666341 0.606593 0.225307
0.668314 0.604336 0.224943
0.676181 0.614863 0.227821
0.681307 0.619238 0.229147
0.683681 0.617666 0.228965
0.679922 0.603306 0.225523
0.682937 0.603224 0.225717
0.685427 0.602043 0.225630
0.688438 0.601907 0.225813
0.691760 0.602364 0.226148
0.693478 0.599628 0.225666
0.694232 0.595054 0.224709
0.699351 0.598932 0.225929
0.704943 0.603588 0.227356
0.710339 0.607739 0.228657
0.716489 0.613164 0.230293
0.714043 0.602680 0.227807
0.716328 0.600973 0.227595
0.718639 0.599323 0.227398
0.720803 0.597417 0.227135
0.722741 0.595126 0.226770
0.727982 0.598580 0.227910
0.731912 0.599682 0.228438
0.733403 0.596593 0.227867
0.736209 0.595746 0.227886
0.740993 0.598170 0.228768
0.745771 0.600499 0.229629
0.748240 0.599001 0.229481
0.750021 0.596398 0.229040
0.752737 0.595305 0.229000
0.762971 0.606031 0.232107
0.767143 0.607066 0.232642
0.770563 0.606890 0.232856
0.776087 0.609893 0.233924
0.780065 0.610471 0.234346
0.779384 0.604047 0.232890
0.780609 0.600540 0.232214
0.783912 0.600112 0.232368
0.788172 0.601048 0.232892
0.793336 0.603230 0.233756
0.800021 0.607494 0.235190
0.799353 0.601309 0.233791
0.801187 0.598695 0.233360
0.804849 0.598619 0.233621
0.808303 0.598227 0.233799
0.811178 0.597029 0.233758
0.813791 0.595472 0.233619
0.820595 0.599463 0.235008
0.822196 0.596519 0.234492
0.830420 0.602198 0.236358
0.835486 0.603674 0.237070
0.838560 0.602550 0.237065
0.841891 0.601738 0.237149
0.840345 0.594815 0.235532
0.841773 0.591669 0.234965
0.854182 0.602001 0.238169
0.853734 0.596499 0.236948
0.856116 0.594469 0.236700
0.859505 0.593638 0.236791
0.862610 0.592454 0.236784
0.867837 0.593733 0.237477
0.875067 0.597268 0.238815
0.878941 0.596853 0.239039
0.881331 0.594724 0.238778
0.890165 0.599841 0.240588
0.891905 0.596922 0.240108
0.893052 0.593362 0.239445
0.900499 0.596717 0.240771
0.906479 0.598380 0.241619
0.912343 0.599845 0.242417
0.918652 0.601714 0.243339
0.920974 0.599309 0.243026
0.924783 0.598456 0.243167
0.928997 0.597992 0.243426
0.931726 0.595973 0.243234
0.934852 0.594350 0.243161
0.939075 0.593813 0.243412
0.945064 0.594998 0.244176
0.951423 0.596477 0.245036
0.954187 0.594370 0.244839
0.961269 0.596432 0.245886
0.966046 0.596197 0.246258
0.971718 0.596765 0.246878
0.975503 0.595497 0.246953
0.979351 0.594258 0.247042
0.984654 0.594334 0.247534
0.988159 0.592711 0.247519
0.998423 0.597183 0.249363
1.004436 0.597703 0.250017
1.008371 0.596310 0.250095
1.014016 0.596391 0.250631
1.020077 0.596773 0.251270
1.025020 0.596125 0.251599
1.031228 0.596508 0.252257
1.036670 0.596175 0.252701
1.044870 0.598098 0.253860
1.049407 0.596878 0.254047
1.053467 0.595226 0.254106
1.062091 0.597256 0.255334
1.067834 0.596858 0.255807
1.072371 0.595437 0.255964
1.076406 0.593579 0.255990
1.081334 0.592389 0.256236
1.091284 0.595046 0.257728
1.096691 0.594095 0.258071
1.103501 0.594158 0.258753
1.110584 0.594355 0.259489
1.116470 0.593587 0.259922
1.126717 0.595977 0.261400
1.131388 0.594181 0.261516
1.138655 0.594226 0.262247
1.144601 0.593256 0.262651
1.150376 0.592116 0.263006
1.158400 0.592508 0.263880
1.168591 0.594326 0.265247
1.176472 0.594459 0.266056
1.182917 0.593552 0.266521
1.191415 0.593982 0.267447
1.199187 0.593863 0.268193
1.210593 0.596084 0.269750
1.217170 0.595063 0.270196
1.222953 0.593504 0.270455
1.235614 0.596321 0.272239
1.242124 0.595159 0.272637
1.252209 0.596219 0.273814
1.259401 0.595441 0.274340
1.269953 0.596711 0.275589
1.278911 0.596971 0.276475
1.287369 0.596914 0.277241
1.295187 0.596471 0.277858
1.302490 0.595731 0.278357
1.312329 0.596488 0.279385
1.316429 0.593928 0.279191
0.425233 0.615068 0.212172
0.427501 0.604366 0.209909
0.429695 0.610486 0.211417
0.431968 0.612682 0.212040
0.434189 0.600475 0.209418
0.436475 0.599975 0.209425
0.438779 0.598923 0.209303
0.441154 0.600369 0.209741
0.443517 0.599689 0.209696
0.445934 0.600147 0.209906
0.448370 0.600380 0.210062
0.450802 0.599906 0.210055
0.452595 0.584634 0.206689
0.455570 0.596108 0.209388
0.458358 0.601768 0.210768
0.461173 0.606721 0.211988
0.464012 0.611098 0.213077
0.467077 0.617987 0.214740
0.468895 0.606871 0.212300
0.470883 0.599205 0.210643
0.473556 0.600599 0.211051
0.476155 0.600944 0.211220
0.478650 0.600082 0.211113
0.480496 0.592679 0.209510
0.483267 0.594926 0.210114
0.486878 0.604696 0.212443
0.489344 0.603488 0.212260
0.491720 0.601614 0.211923
0.494635 0.604262 0.212626
0.496708 0.600140 0.211775
0.499176 0.599289 0.211676
0.501885 0.600240 0.211993
0.504101 0.597690 0.211504
0.506809 0.598633 0.211822
0.510169 0.603777 0.213111
0.513364 0.607554 0.214089
0.516339 0.609753 0.214704
0.518551 0.607280 0.214241
0.520476 0.603293 0.213427
0.523265 0.604384 0.213791
0.525931 0.604743 0.213987
0.528317 0.603589 0.213834
0.532003 0.609220 0.215260
0.534568 0.608911 0.215307
0.536775 0.606840 0.214945
0.538354 0.601846 0.213903
0.540932 0.601769 0.214008
0.544463 0.606054 0.215134
0.547009 0.605722 0.215184
0.550630 0.610102 0.216339
0.554064 0.613486 0.217264
0.558195 0.619637 0.218843
0.557751 0.606702 0.215942
0.559684 0.603853 0.215408
0.562134 0.603146 0.215379
0.564529 0.602236 0.215304
0.567603 0.603920 0.215842
0.570010 0.603041 0.215778
0.572027 0.600747 0.215379
0.573169 0.595373 0.214252
0.576501 0.597895 0.214996
0.581059 0.604553 0.216725
0.584447 0.606973 0.217452
0.589812 0.615899 0.219730
0.593109 0.617703 0.220319
0.592178 0.605758 0.217630
0.594721 0.605223 0.217661
0.596847 0.603378 0.217380
0.599107 0.601979 0.217207
0.601452 0.600856 0.217100
0.602251 0.595136 0.215891
0.606609 0.600012 0.217227
0.611407 0.605982 0.218832
0.613692 0.604593 0.218668
0.616533 0.604778 0.218884
0.619984 0.606615 0.219502
0.623592 0.608799 0.220206
0.624760 0.604345 0.219305
0.625961 0.600078 0.218447
0.629181 0.601166 0.218890
0.632518 0.602495 0.219394
0.635712 0.603398 0.219796
0.638308 0.602753 0.219823
0.641257 0.602965 0.220060
0.644362 0.603523 0.220384
0.647165 0.603312 0.220521
0.650479 0.604287 0.220951
0.652080 0.601201 0.220384
0.657739 0.607533 0.222136
0.660484 0.607032 0.222209
0.664429 0.609214 0.222946
0.667598 0.609585 0.223239
0.668180 0.604246 0.222117
0.671816 0.605621 0.222660
0.680500 0.617729 0.225874
0.680695 0.611576 0.224552
0.680322 0.604359 0.222960
0.682311 0.602153 0.222617
0.685250 0.601905 0.222763
0.687701 0.600649 0.222658
0.691160 0.601400 0.223057
0.693068 0.599052 0.222679
0.694068 0.594966 0.221863
0.700166 0.600732 0.223531
0.706608 0.606989 0.225329
0.711161 0.609527 0.226193
0.715162 0.610954 0.226779
0.713485 0.601905 0.224706
0.716229 0.601045 0.224711
0.718662 0.599617 0.224572
0.720793 0.597653 0.224297
0.722461 0.594892 0.223818
0.729273 0.601078 0.225630
0.732247 0.600519 0.225718
0.733580 0.597157 0.225087
0.736699 0.596835 0.225237
0.742989 0.601753 0.226741
0.749131 0.606293 0.228153
0.752218 0.605740 0.228253
0.746580 0.591143 0.224711
0.753312 0.596497 0.226342
0.760372 0.602227 0.228077
0.769584 0.611159 0.230655
0.772461 0.610108 0.230635
0.776119 0.610240 0.230925
0.781916 0.613567 0.232056
0.782814 0.609471 0.231241
0.782872 0.604187 0.230112
0.787024 0.604970 0.230580
0.789257 0.602925 0.230304
0.793498 0.603772 0.230793
0.800070 0.607878 0.232150
0.798911 0.601001 0.230594
0.801196 0.599022 0.230338
0.804145 0.597966 0.230329
0.808242 0.598464 0.230736
0.811896 0.598322 0.230975
0.814386 0.596593 0.230791
0.816733 0.594676 0.230556
0.822409 0.597129 0.231500
0.830674 0.602866 0.233336
0.837019 0.605987 0.234474
0.842837 0.608344 0.235411
0.844387 0.605234 0.234867
0.841948 0.597163 0.232971
0.841033 0.591099 0.231618
0.849245 0.596305 0.233343
0.856062 0.599682 0.234576
0.857822 0.596879 0.234118
0.860985 0.595762 0.234125
0.864788 0.595388 0.234339
0.871122 0.597941 0.235366
0.877885 0.600905 0.236514
0.880814 0.599379 0.236422
0.884882 0.599137 0.236689
0.882892 0.592044 0.235047
0.889070 0.594150 0.235974
0.897503 0.598668 0.237586
0.903249 0.600123 0.238346
0.907472 0.599858 0.238628
0.911924 0.599803 0.238973
0.918139 0.601583 0.239843
0.919338 0.598001 0.239198
0.923302 0.597330 0.239381
0.928435 0.597836 0.239905
0.931720 0.596395 0.239877
0.941123 0.601145 0.241629
0.939569 0.594744 0.240186
0.941606 0.591993 0.239791
0.948029 0.593575 0.240652
0.954546 0.595172 0.241526
0.958016 0.593739 0.241527
0.964232 0.594918 0.242294
0.968051 0.593748 0.242382
0.975406 0.595877 0.243444
0.978769 0.594192 0.243393
0.983303 0.593568 0.243660
0.989160 0.594112 0.244279
0.995920 0.595410 0.245131
1.001406 0.595484 0.245628
1.009848 0.598130 0.246902
1.012977 0.595988 0.246753
1.017531 0.595071 0.246978
1.024105 0.595858 0.247723
1.029422 0.595494 0.248130
1.036703 0.596740 0.249035
1.044665 0.598470 0.250100
1.049575 0.597568 0.250372
1.053094 0.595473 0.250285
1.057600 0.594158 0.250444
1.065928 0.595888 0.251552
1.071461 0.595283 0.251949
1.076174 0.593973 0.252136
1.084257 0.595263 0.253143
1.090250 0.594836 0.253625
1.096336 0.594419 0.254119
1.102860 0.594273 0.254709
1.111602 0.595730 0.255818
1.116845 0.594480 0.256079
1.121993 0.593114 0.256309
1.131933 0.595204 0.257659
1.138353 0.594638 0.258166
1.144077 0.593516 0.258502
1.150403 0.592773 0.258968
1.158666 0.593336 0.259869
1.168080 0.594619 0.261017
1.174459 0.593727 0.261459
1.180990 0.592894 0.261927
1.186371 0.591244 0.262127
1.197259 0.593236 0.263546
1.210386 0.596606 0.265440
1.216589 0.595342 0.265785
1.221219 0.593040 0.265778
1.228440 0.592396 0.266331
1.240215 0.594604 0.267858
1.246344 0.593200 0.268150
1.260981 0.597063 0.270253
1.269255 0.596924 0.270978
1.276827 0.596342 0.271542
1.285658 0.596514 0.272363
1.293584 0.596136 0.272982
1.302779 0.596512 0.273856
1.311062 0.596350 0.274529
1.323034 0.598331 0.275950
0.425509 0.593366 0.204941
0.427562 0.606432 0.207940
0.429775 0.608847 0.208599
0.432049 0.612411 0.209508
0.434269 0.599803 0.206850
0.436557 0.599477 0.206892
0.438889 0.600059 0.207132
0.441260 0.600836 0.207412
0.443638 0.600546 0.207453
0.446024 0.599773 0.207384
0.448431 0.599154 0.207346
0.450868 0.598904 0.207388
0.452781 0.586487 0.204726
0.455678 0.596123 0.206958
0.458477 0.601948 0.208346
0.461237 0.605930 0.209323
0.464188 0.612097 0.210788
0.467430 0.621470 0.212969
0.469036 0.607282 0.209894
0.471254 0.602555 0.208928
0.473790 0.602117 0.208918
0.476268 0.601023 0.208761
0.478760 0.600143 0.208652
0.480548 0.592182 0.206957
0.483368 0.594934 0.207662
0.487023 0.605111 0.210033
0.488902 0.598738 0.208694
0.491822 0.601681 0.209446
0.494541 0.602756 0.209780
0.497224 0.603465 0.210033
0.499839 0.603607 0.210160
0.502336 0.602894 0.210095
0.504354 0.598892 0.209290
0.506858 0.598438 0.209286
0.510228 0.603662 0.210566
0.513465 0.607728 0.211587
0.516361 0.609452 0.212082
0.518668 0.607574 0.211762
0.520415 0.602575 0.210736
0.523115 0.603202 0.210986
0.525627 0.602766 0.210997
0.528151 0.602417 0.211029
0.531793 0.607868 0.212383
0.534966 0.610672 0.213137
0.537100 0.608216 0.212695
0.539253 0.605963 0.212300
0.541169 0.602698 0.211674
0.543594 0.601903 0.211614
0.548263 0.611196 0.213865
0.550816 0.610788 0.213898
0.553475 0.610842 0.214039
0.557255 0.615586 0.215259
0.557494 0.605559 0.213086
0.559973 0.604947 0.213078
0.562238 0.603500 0.212878
0.565065 0.604266 0.213190
0.567636 0.604014 0.213269
0.569760 0.602090 0.212962
0.571611 0.599215 0.212437
0.573549 0.596741 0.212004
0.576533 0.598021 0.212442
0.581489 0.606062 0.214455
0.586134 0.612744 0.216157
0.590254 0.617420 0.217398
0.593247 0.618207 0.217735
0.592292 0.606185 0.215084
0.594286 0.603906 0.214705
0.597000 0.603930 0.214865
0.599027 0.601814 0.214526
0.601253 0.600344 0.214339
0.601426 0.592770 0.212717
0.606400 0.599498 0.214459
0.609076 0.599353 0.214586
0.612546 0.601447 0.215243
0.616208 0.603989 0.216009
0.620028 0.606866 0.216857
0.622948 0.607180 0.217102
0.625245 0.605787 0.216943
0.626897 0.602697 0.216382
0.629227 0.601435 0.216255
0.634016 0.606504 0.217637
0.636161 0.604697 0.217384
0.638216 0.602688 0.217082
0.640881 0.602206 0.217146
0.643642 0.601943 0.217264
0.646133 0.601010 0.217222
0.648966 0.600883 0.217374
0.654625 0.607339 0.219113
0.656648 0.605205 0.218787
0.660642 0.607587 0.219551
0.664313 0.609151 0.220121
0.665776 0.605741 0.219488
0.668405 0.604943 0.219488
0.672925 0.608232 0.220482
0.677372 0.611252 0.221415
0.683111 0.616900 0.222991
0.679960 0.603819 0.220002
0.682296 0.602341 0.219841
0.684836 0.601283 0.219784
0.687917 0.601310 0.219993
0.691194 0.601695 0.220291
0.693571 0.600272 0.220146
0.694759 0.596540 0.219433
0.699576 0.599836 0.220453
0.704403 0.603044 0.221455
0.714022 0.615142 0.224662
0.718937 0.618207 0.225641
0.712972 0.601213 0.221640
0.715660 0.600263 0.221620
0.718432 0.599455 0.221635
0.720552 0.597480 0.221360
0.722223 0.594728 0.220890
0.729859 0.602356 0.223021
0.733056 0.602170 0.223198
0.734484 0.598955 0.222616
0.738312 0.599809 0.223056
0.745883 0.606831 0.225056
0.749631 0.607390 0.225430
0.751440 0.604754 0.224997
0.753359 0.602320 0.224615
0.752620 0.595675 0.223163
0.760268 0.602348 0.225096
0.768598 0.609913 0.227265
0.763166 0.596067 0.223972
0.775933 0.610252 0.227843
0.780556 0.611812 0.228492
0.782515 0.609326 0.228105
0.784013 0.606176 0.227547
0.786302 0.604217 0.227294
0.789069 0.602958 0.227223
0.793897 0.604653 0.227917
0.802822 0.612103 0.230108
0.797709 0.599622 0.227130
0.800426 0.598264 0.227037
0.805115 0.599619 0.227652
0.808895 0.599674 0.227932
0.811842 0.598570 0.227910
0.814573 0.597167 0.227811
0.817094 0.595478 0.227638
0.827520 0.604168 0.230200
0.834038 0.607575 0.231380
0.838735 0.608538 0.231919
0.841932 0.607535 0.231941
0.845080 0.606456 0.231945
0.846432 0.603115 0.231348
0.848003 0.600075 0.230831
0.851998 0.600033 0.231115
0.857858 0.602220 0.231999
0.859821 0.599642 0.231609
0.859899 0.594828 0.230618
0.863042 0.593688 0.230616
0.871289 0.598504 0.232225
0.875897 0.598976 0.232667
0.879297 0.598014 0.232724
0.881884 0.596109 0.232526
0.882187 0.591628 0.231628
0.886102 0.591223 0.231842
0.898853 0.600551 0.234727
0.903285 0.600558 0.235068
0.900866 0.593093 0.233356
0.904714 0.592461 0.233524
0.916582 0.600335 0.236050
0.919553 0.598640 0.235936
0.921285 0.595638 0.235462
0.927235 0.597014 0.236209
0.931489 0.596581 0.236457
0.935253 0.595614 0.236561
0.936613 0.592201 0.235981
0.940584 0.591408 0.236140
0.950986 0.596934 0.238088
0.954977 0.596038 0.238231
0.955509 0.591758 0.237417
0.961640 0.592885 0.238143
0.970084 0.596141 0.239486
0.974126 0.595138 0.239620
0.978579 0.594485 0.239860
0.981460 0.592338 0.239675
0.990278 0.595617 0.241061
0.996177 0.596131 0.241659
1.002427 0.596895 0.242338
1.005830 0.595055 0.242267
1.012793 0.596330 0.243112
1.020968 0.598582 0.244253
1.024217 0.596472 0.244123
1.030004 0.596514 0.244633
1.036313 0.596938 0.245265
1.042151 0.596896 0.245768
1.048605 0.597303 0.246414
1.054285 0.597001 0.246858
1.058355 0.595325 0.246898
1.064474 0.595272 0.247433
1.069462 0.594249 0.247685
1.077297 0.595433 0.248614
1.082422 0.594400 0.248880
1.089898 0.595145 0.249699
1.094813 0.593836 0.249898
1.100405 0.592998 0.250249
1.111512 0.596264 0.251880
1.116364 0.594727 0.252036
1.123305 0.594693 0.252667
1.133860 0.597232 0.254116
1.137850 0.594896 0.254046
1.143171 0.593492 0.254275
1.150758 0.593653 0.255006
1.160200 0.595046 0.256140
1.164827 0.592998 0.256185
1.175830 0.595310 0.257635
1.181800 0.594088 0.257957
1.189458 0.593965 0.258640
1.198951 0.595010 0.259709
1.205750 0.594200 0.260180
1.216756 0.596100 0.261544
1.222075 0.594239 0.261676
1.234439 0.596875 0.263295
1.240568 0.595472 0.263578
1.247748 0.594720 0.264075
1.261868 0.598254 0.266007
1.267740 0.596630 0.266207
1.274123 0.595329 0.266506
1.283390 0.595774 0.267390
1.290705 0.595039 0.267865
1.300323 0.595672 0.268797
1.309377 0.595967 0.269604
1.309679 0.591203 0.268651
0.425366 0.615566 0.207348
0.427661 0.601275 0.204401
0.429853 0.607142 0.205786
0.432122 0.609714 0.206460
0.434345 0.598876 0.204236
0.436644 0.599407 0.204461
0.438983 0.600276 0.204756
0.441368 0.601509 0.205127
0.443727 0.600252 0.204956
0.446124 0.599819 0.204961
0.448554 0.599793 0.205052
0.451008 0.599861 0.205161
0.452931 0.587582 0.202583
0.455781 0.596100 0.204525
0.458450 0.599493 0.205352
0.461247 0.604288 0.206485
0.464205 0.610668 0.207964
0.467303 0.618045 0.209662
0.468949 0.604663 0.206828
0.471439 0.603574 0.206676
0.473954 0.602839 0.206602
0.476448 0.601899 0.206482
0.478874 0.600294 0.206216
0.480688 0.592618 0.204620
0.484382 0.603794 0.207157
0.486853 0.602666 0.206997
0.489584 0.603924 0.207362
0.491714 0.600003 0.206589
0.494346 0.600460 0.206780
0.497635 0.605992 0.208089
0.500266 0.606183 0.208224
0.502540 0.603791 0.207791
0.505052 0.603222 0.207760
0.507333 0.601141 0.207397
0.510018 0.601825 0.207645
0.512479 0.601063 0.207576
0.515975 0.606682 0.208921
0.517688 0.601375 0.207847
0.520443 0.602388 0.208175
0.522854 0.601419 0.208065
0.525525 0.601915 0.208281
0.528509 0.604043 0.208863
0.531757 0.607431 0.209728
0.535040 0.610812 0.210594
0.536969 0.607365 0.209940
0.538299 0.601194 0.208677
0.540850 0.601030 0.208756
0.543813 0.602757 0.209260
0.547639 0.608263 0.210613
0.550469 0.609148 0.210934
0.553416 0.610484 0.211359
0.557807 0.617817 0.213133
0.557645 0.606108 0.210628
0.560037 0.605145 0.210540
0.562684 0.605213 0.210685
0.564520 0.602122 0.210118
0.567353 0.602917 0.210430
0.569752 0.602047 0.210368
0.571476 0.598720 0.209749
0.573494 0.596552 0.209394
0.577049 0.599858 0.210281
0.581658 0.606679 0.211972
0.586439 0.613822 0.213741
0.590610 0.618659 0.214990
0.593320 0.618504 0.215104
0.591955 0.605158 0.212206
0.594167 0.603599 0.211998
0.596359 0.602005 0.211783
0.598936 0.601622 0.211846
0.601093 0.599950 0.211614
0.601824 0.594054 0.210412
0.604924 0.595271 0.210845
0.608170 0.596848 0.211364
0.611513 0.598624 0.211930
0.615983 0.603484 0.213213
0.619453 0.605409 0.213820
0.622169 0.605197 0.213935
0.624426 0.603730 0.213760
0.626725 0.602387 0.213614
0.630098 0.603859 0.214124
0.633491 0.605311 0.214631
0.636558 0.605865 0.214932
0.638980 0.604763 0.214847
0.641517 0.603947 0.214830
0.644589 0.604424 0.215117
0.646363 0.601742 0.214664
0.650127 0.603817 0.215329
0.652700 0.603023 0.215321
0.656218 0.604402 0.215826
0.659253 0.604615 0.216059
0.662536 0.605351 0.216417
0.664704 0.603559 0.216178
0.667897 0.604033 0.216476
0.672946 0.608488 0.217722
0.677594 0.611942 0.218734
0.682103 0.614989 0.219654
0.679874 0.603859 0.217194
0.682292 0.602553 0.217075
0.684756 0.601342 0.216979
0.687623 0.600943 0.217079
0.691396 0.602327 0.217607
0.693320 0.600009 0.217248
0.694010 0.595317 0.216317
0.698173 0.597376 0.217012
0.704066 0.602646 0.218486
0.711303 0.610287 0.220540
0.720313 0.621015 0.223350
0.713244 0.601959 0.218936
0.715522 0.600262 0.218732
0.718124 0.599155 0.218671
0.720468 0.597584 0.218498
0.722263 0.595054 0.218090
0.729965 0.602801 0.220199
0.732332 0.601192 0.220020
0.734503 0.599252 0.219761
0.741397 0.605258 0.221457
0.744606 0.604982 0.221610
0.748371 0.605594 0.221985
0.750359 0.603273 0.221636
0.749839 0.596933 0.220291
0.753725 0.597712 0.220709
0.757347 0.598028 0.221015
0.766655 0.607175 0.223523
0.769928 0.606787 0.223660
0.773693 0.607127 0.223982
0.775872 0.605031 0.223695
0.778594 0.603759 0.223615
0.780109 0.600695 0.223085
0.782911 0.599548 0.223037
0.786379 0.599359 0.223232
0.792384 0.602787 0.224343
0.801575 0.610644 0.226582
0.797053 0.599008 0.223882
0.801224 0.599686 0.224305
0.804325 0.598844 0.224343
0.809079 0.600244 0.224956
0.812412 0.599661 0.225064
0.814166 0.596942 0.224627
0.819311 0.598743 0.225350
0.832268 0.610737 0.228701
0.837210 0.612038 0.229309
0.829211 0.596609 0.225599
0.835259 0.599364 0.226583
0.838863 0.598945 0.226749
0.843639 0.599967 0.227292
0.849107 0.601791 0.228048
0.854665 0.603657 0.228819
0.858709 0.603610 0.229096
0.857385 0.597064 0.227672
0.857590 0.592430 0.226746
0.862231 0.593089 0.227211
0.863894 0.590215 0.226748
0.871659 0.594431 0.228160
0.876201 0.594831 0.228569
0.878149 0.592234 0.228186
0.880885 0.590536 0.228043
0.888811 0.594626 0.229446
0.892508 0.593923 0.229576
0.897650 0.594777 0.230126
0.893164 0.585124 0.227858
0.904085 0.592179 0.230083
0.914994 0.599048 0.232271
0.918132 0.597547 0.232206
0.925530 0.600485 0.233349
0.926283 0.596442 0.232602
0.931315 0.596821 0.233059
0.933797 0.594556 0.232800
0.938601 0.594627 0.233182
0.947151 0.598387 0.234584
0.962897 0.609144 0.237926
0.959813 0.601215 0.236125
0.959269 0.595848 0.235028
0.965304 0.596854 0.235699
0.974622 0.600917 0.237230
0.974402 0.595857 0.236224
0.974788 0.591407 0.235388
0.983511 0.594704 0.236728
0.984326 0.590636 0.236005
0.986283 0.587628 0.235581
0.999206 0.594486 0.237957
1.006174 0.595853 0.238790
1.006485 0.591262 0.237933
1.011086 0.590450 0.238157
1.021126 0.594305 0.239727
1.028140 0.595432 0.240527
1.035994 0.597189 0.241520
1.042768 0.597943 0.242233
1.047692 0.597077 0.242485
1.054646 0.597839 0.243220
1.059911 0.597141 0.243537
1.064509 0.595851 0.243689
1.068879 0.594337 0.243781
1.076445 0.595320 0.244618
1.083586 0.595882 0.245342
1.089342 0.595287 0.245732
1.094687 0.594317 0.246019
1.107975 0.599353 0.248118
1.111585 0.596913 0.247983
1.115200 0.594454 0.247847
1.120195 0.592995 0.248018
1.132530 0.596868 0.249825
1.136818 0.594761 0.249817
1.144899 0.595347 0.250642
1.152783 0.595712 0.251410
1.159603 0.595253 0.251932
1.163999 0.593050 0.251918
1.176933 0.596704 0.253740
1.182538 0.595226 0.253966
1.191832 0.596203 0.254971
1.198381 0.595269 0.255378
1.207255 0.595834 0.256265
1.214090 0.595001 0.256712
1.223170 0.595588 0.257616
1.229826 0.594565 0.258005
1.241480 0.596689 0.259412
1.249959 0.596742 0.260151
1.257770 0.596347 0.260742
1.266360 0.596413 0.261481
1.272604 0.595029 0.261739
1.280570 0.594695 0.262334
1.290863 0.595744 0.263381
1.297781 0.594777 0.263750
1.303941 0.593387 0.263964
1.309328 0.591583 0.264025
0.425667 0.590528 0.199619
0.427730 0.601661 0.202080
0.429928 0.608863 0.203714
0.432204 0.610381 0.204149
0.434433 0.599532 0.201969
0.436727 0.599245 0.202014
0.439051 0.598999 0.202066
0.441422 0.599725 0.202319
0.443828 0.600518 0.202585
