ply
format ascii 1.0
comment ---
element vertex 1711
property float x
property float y
property float z
element face 0
property list uchar uint vertex_indices
end_header
0.703714 0.605830 -0.002904
0.708288 0.611958 -0.003939
0.711492 0.605791 -0.003348
0.715372 0.605634 -0.003554
0.719425 0.606809 -0.003939
0.723347 0.606853 -0.004175
0.727357 0.607489 -0.004491
0.730785 0.603895 -0.004242
0.734503 0.602490 -0.004286
0.738261 0.601399 -0.004373
0.742989 0.606592 -0.005308
0.745234 0.595867 -0.004096
0.750307 0.602937 -0.005289
0.753690 0.599569 -0.005071
0.757538 0.599016 -0.005235
0.761114 0.596932 -0.005191
0.764558 0.594195 -0.005058
0.768808 0.595830 -0.005523
0.775560 0.610290 -0.007750
0.779073 0.607654 -0.007635
0.782358 0.603982 -0.007378
0.786143 0.602846 -0.007470
0.790651 0.605122 -0.008035
0.793731 0.600696 -0.007672
0.796519 0.595117 -0.007148
0.800213 0.593720 -0.007204
0.804136 0.593330 -0.007401
0.808071 0.592968 -0.007603
0.811912 0.592196 -0.007748
0.816005 0.592439 -0.008037
0.821495 0.598167 -0.009100
0.826142 0.600364 -0.009669
0.830001 0.599436 -0.009799
0.833431 0.596908 -0.009702
0.837149 0.595487 -0.009763
0.840313 0.592090 -0.009542
0.842368 0.584854 -0.008772
0.847158 0.587347 -0.009391
0.852278 0.590845 -0.010158
0.855691 0.588457 -0.010082
0.862949 0.598810 -0.011842
0.867459 0.599858 -0.012266
0.870201 0.595197 -0.011866
0.871708 0.586771 -0.010918
0.877994 0.593351 -0.012149
0.882729 0.594972 -0.012662
0.885857 0.591693 -0.012463
0.890321 0.592422 -0.012849
0.898614 0.604214 -0.014863
0.901549 0.600291 -0.014574
0.903853 0.594668 -0.014033
0.907977 0.594230 -0.014256
0.913034 0.596324 -0.014857
0.916572 0.594222 -0.014838
0.920021 0.591908 -0.014787
0.924258 0.591693 -0.015051
0.928280 0.590889 -0.015229
0.931843 0.588899 -0.015230
0.942265 0.604190 -0.017832
0.946590 0.603895 -0.018097
0.949258 0.599512 -0.017746
0.948711 0.587435 -0.016228
0.953300 0.587888 -0.016608
0.958442 0.589594 -0.017181
0.964374 0.593056 -0.018027
0.970318 0.596421 -0.018864
0.977065 0.601479 -0.019967
0.982695 0.603872 -0.020666
0.987207 0.603694 -0.020973
0.990809 0.601490 -0.020970
0.995449 0.601538 -0.021318
0.999822 0.600974 -0.021575
1.002412 0.596626 -0.021244
1.006312 0.595064 -0.021348
1.016607 0.606645 -0.023518
1.022496 0.608956 -0.024243
1.026256 0.606892 -0.024284
1.027817 0.600463 -0.023636
1.031124 0.597561 -0.023546
1.033373 0.592625 -0.023135
1.036321 0.589093 -0.022947
1.040467 0.587865 -0.023129
1.046891 0.590889 -0.023998
1.052504 0.592291 -0.024613
1.056861 0.591309 -0.024849
1.061621 0.591028 -0.025203
1.066643 0.591171 -0.025631
1.071232 0.590488 -0.025930
1.075434 0.589087 -0.026116
1.080196 0.588635 -0.026461
1.087049 0.591727 -0.027396
1.092242 0.591877 -0.027853
1.097003 0.591240 -0.028187
1.101990 0.590934 -0.028581
1.107122 0.590815 -0.029011
1.112665 0.591307 -0.029551
1.117692 0.590897 -0.029946
1.122539 0.590146 -0.030290
1.128183 0.590606 -0.030844
1.133586 0.590618 -0.031330
1.138751 0.590197 -0.031748
1.144856 0.591160 -0.032410
1.150380 0.591156 -0.032914
1.155692 0.590771 -0.033360
1.161343 0.590830 -0.033889
1.166576 0.590206 -0.034308
1.173330 0.591739 -0.035107
1.179043 0.591678 -0.035638
1.184700 0.591472 -0.036150
1.191242 0.592449 -0.036877
1.197020 0.592276 -0.037409
1.201980 0.590912 -0.037736
1.208031 0.591000 -0.038327
1.214284 0.591296 -0.038961
1.221668 0.593037 -0.039862
1.227921 0.593184 -0.040482
1.233496 0.592380 -0.040936
1.241139 0.594221 -0.041875
1.246096 0.592517 -0.042172
1.254614 0.595330 -0.043299
1.258949 0.592766 -0.043443
1.266095 0.593718 -0.044235
1.272729 0.593979 -0.044901
1.279441 0.594295 -0.045577
1.286300 0.594753 -0.046280
1.292331 0.594184 -0.046787
1.298496 0.593768 -0.047320
1.304779 0.593485 -0.047872
1.310785 0.592880 -0.048356
1.317940 0.593614 -0.049088
1.323802 0.592863 -0.049527
1.329638 0.592111 -0.049955
1.336651 0.592720 -0.050632
1.343010 0.592617 -0.051160
1.349024 0.592172 -0.051606
1.355493 0.592277 -0.052143
1.361213 0.591616 -0.052514
1.371621 0.596072 -0.053869
0.369375 0.593013 0.008117
0.374428 0.588004 0.008519
0.378888 0.585048 0.008683
0.382726 0.584335 0.008586
0.385581 0.587216 0.008061
0.388390 0.590531 0.007490
0.392201 0.590481 0.007336
0.395861 0.591140 0.007104
0.399922 0.590455 0.007042
0.404494 0.587921 0.007214
0.407970 0.589680 0.006867
0.411238 0.592441 0.006402
0.414872 0.593923 0.006098
0.419644 0.590839 0.006361
0.423537 0.591407 0.006179
0.427511 0.591707 0.006033
0.431380 0.592533 0.005825
0.435041 0.594365 0.005496
0.438974 0.595044 0.005311
0.443154 0.594607 0.005265
0.447195 0.594821 0.005140
0.450978 0.596321 0.004857
0.455453 0.594353 0.005004
0.459114 0.596512 0.004638
0.463302 0.595926 0.004614
0.467665 0.594307 0.004717
0.471531 0.595361 0.004488
0.474820 0.599782 0.003836
0.480118 0.592360 0.004662
0.483755 0.594689 0.004269
0.487424 0.596886 0.003890
0.491927 0.593670 0.004187
0.495976 0.593243 0.004133
0.499815 0.594193 0.003904
0.503733 0.594549 0.003747
0.507779 0.593871 0.003719
0.511735 0.593772 0.003615
0.515657 0.593843 0.003487
0.519503 0.594482 0.003285
0.523351 0.595053 0.003090
0.527520 0.592617 0.003272
0.531512 0.591576 0.003276
0.534861 0.596848 0.002476
0.538615 0.598247 0.002164
0.542572 0.597426 0.002132
0.546539 0.596280 0.002138
0.550291 0.597589 0.001830
0.554149 0.597560 0.001689
0.558114 0.595894 0.001755
0.561993 0.595200 0.001695
0.565820 0.595150 0.001550
0.569666 0.594642 0.001461
0.573511 0.593952 0.001394
0.576921 0.602316 0.000157
0.580541 0.607423 -0.000665
0.584250 0.611343 -0.001338
0.588239 0.607685 -0.001034
0.592299 0.600166 -0.000229
0.596171 0.597531 -0.000059
0.599877 0.602304 -0.000853
0.603622 0.607270 -0.001677
0.607456 0.607507 -0.001888
0.611303 0.605403 -0.001795
0.615128 0.606524 -0.002126
0.618957 0.606408 -0.002297
0.622781 0.605983 -0.002430
0.626635 0.607954 -0.002880
0.630402 0.604212 -0.002580
0.634145 0.600938 -0.002341
0.637889 0.598730 -0.002244
0.641763 0.601161 -0.002763
0.645594 0.601785 -0.003045
0.649439 0.602565 -0.003351
0.653218 0.601700 -0.003438
0.656959 0.600217 -0.003445
0.660841 0.601457 -0.003818
0.664650 0.601260 -0.004000
0.668343 0.599245 -0.003939
0.671995 0.596853 -0.003828
0.675813 0.596970 -0.004056
0.679537 0.595815 -0.004114
0.683344 0.595744 -0.004320
0.687144 0.595548 -0.004510
0.690926 0.595135 -0.004672
0.694676 0.594377 -0.004789
0.699036 0.599605 -0.005724
0.703710 0.607262 -0.006995
0.707339 0.604873 -0.006896
0.711168 0.604339 -0.007051
0.714986 0.603718 -0.007195
0.719057 0.605097 -0.007616
0.722828 0.604040 -0.007703
0.726411 0.601622 -0.007602
0.730089 0.599993 -0.007610
0.733781 0.598533 -0.007642
0.738505 0.604003 -0.008641
0.742510 0.604441 -0.008941
0.746730 0.606159 -0.009422
0.749051 0.596163 -0.008263
0.752902 0.595747 -0.008445
0.756604 0.594453 -0.008505
0.760807 0.595995 -0.008965
0.764369 0.593920 -0.008916
0.767695 0.590654 -0.008698
0.772037 0.592777 -0.009245
0.778350 0.604706 -0.011190
0.781746 0.601642 -0.011005
0.786075 0.603175 -0.011476
0.790186 0.603575 -0.011787
0.793641 0.600901 -0.011659
0.796587 0.596016 -0.011212
0.800112 0.593852 -0.011155
0.804114 0.593796 -0.011403
0.808068 0.593500 -0.011618
0.811868 0.592548 -0.011738
0.816199 0.593741 -0.012170
0.820677 0.595432 -0.012678
0.825069 0.596692 -0.013125
0.829048 0.596287 -0.013330
0.832723 0.594728 -0.013367
0.836443 0.593354 -0.013431
0.840413 0.592895 -0.013631
0.844047 0.591229 -0.013654
0.846626 0.585918 -0.013137
0.849998 0.583464 -0.013042
0.858297 0.597611 -0.015416
0.861532 0.594524 -0.015232
0.865966 0.595398 -0.015639
0.868318 0.589557 -0.015043
0.872548 0.589772 -0.015354
0.877378 0.591799 -0.015939
0.883550 0.597817 -0.017128
0.887120 0.595812 -0.017111
0.892223 0.598360 -0.017784
0.897841 0.602291 -0.018671
0.899901 0.595887 -0.017990
0.902355 0.590746 -0.017498
0.908959 0.597252 -0.018786
0.913170 0.596982 -0.019042
0.914863 0.589887 -0.018251
0.919438 0.590629 -0.018665
0.923497 0.589957 -0.018862
0.927671 0.589566 -0.019105
0.931784 0.588993 -0.019322
0.940464 0.599899 -0.021326
0.945507 0.601440 -0.021881
0.948557 0.598022 -0.021665
0.948582 0.587338 -0.020310
0.952968 0.587302 -0.020622
0.958531 0.590006 -0.021368
0.963135 0.590369 -0.021750
0.970116 0.596145 -0.022991
0.976011 0.599271 -0.023821
0.980479 0.599086 -0.024128
0.986869 0.603115 -0.025112
0.990904 0.601859 -0.025257
0.996658 0.604300 -0.025997
1.002161 0.606107 -0.026641
1.004975 0.602161 -0.026362
1.008253 0.599233 -0.026249
1.014526 0.602488 -0.027139
1.023064 0.610229 -0.028766
1.025834 0.606154 -0.028477
1.027297 0.599530 -0.027773
1.030310 0.596057 -0.027583
1.032691 0.591387 -0.027197
1.036246 0.589026 -0.027193
1.041070 0.589080 -0.027590
1.046282 0.589811 -0.028105
1.051399 0.590298 -0.028584
1.055358 0.588601 -0.028705
1.061427 0.590718 -0.029467
1.066946 0.591747 -0.030055
1.071466 0.590929 -0.030338
1.076220 0.590486 -0.030689
1.080392 0.588987 -0.030867
1.084659 0.587626 -0.031072
1.091918 0.591325 -0.032145
1.096341 0.590117 -0.032388
1.101892 0.590754 -0.032953
1.106753 0.590183 -0.033318
1.112670 0.591282 -0.033976
1.117196 0.590057 -0.034240
1.121942 0.589147 -0.034564
1.128147 0.590495 -0.035288
1.133730 0.590781 -0.035835
1.139553 0.591369 -0.036442
1.144572 0.590649 -0.036827
1.150365 0.591051 -0.037416
1.156342 0.591655 -0.038049
1.161428 0.590859 -0.038441
1.167539 0.591519 -0.039100
1.173347 0.591657 -0.039673
1.178391 0.590627 -0.040043
1.183918 0.590241 -0.040535
1.189417 0.589755 -0.041016
1.196246 0.591067 -0.041832
1.202278 0.591188 -0.042438
1.207438 0.590052 -0.042819
1.215614 0.592951 -0.043951
1.223645 0.595538 -0.045035
1.228511 0.593819 -0.045326
1.234336 0.593333 -0.045851
1.241827 0.594965 -0.046777
1.247556 0.594244 -0.047266
1.253566 0.593846 -0.047819
1.259658 0.593512 -0.048385
1.266050 0.593516 -0.049017
1.273041 0.594222 -0.049785
1.278568 0.593089 -0.050199
1.286099 0.594378 -0.051078
1.293122 0.595009 -0.051829
1.298898 0.594129 -0.052282
1.305708 0.594472 -0.052968
1.312559 0.594853 -0.053655
1.319089 0.594857 -0.054261
1.324173 0.593216 -0.054531
1.329585 0.591993 -0.054872
1.336913 0.592971 -0.055636
1.343178 0.592777 -0.056154
1.349484 0.592670 -0.056673
1.355116 0.591871 -0.057037
1.361748 0.592222 -0.057614
1.366301 0.590386 -0.057730
0.373158 0.579955 0.005968
0.374649 0.586636 0.004924
0.378627 0.585260 0.004899
0.382069 0.585876 0.004634
0.384070 0.591738 0.003715
0.387382 0.593295 0.003347
0.391521 0.592071 0.003338
0.394614 0.594812 0.002835
0.398449 0.595010 0.002662
0.402814 0.593324 0.002736
0.406648 0.593761 0.002546
0.410025 0.596136 0.002116
0.412246 0.603386 0.001068
0.416251 0.603651 0.000916
0.421770 0.597608 0.001575
0.425021 0.601142 0.001013
0.428412 0.604262 0.000507
0.434408 0.595831 0.001485
0.438925 0.593846 0.001639
0.442791 0.594857 0.001411
0.446764 0.595402 0.001244
0.451448 0.592451 0.001528
0.454086 0.599718 0.000496
0.457731 0.602097 0.000093
0.461994 0.601266 0.000104
0.466040 0.601545 -0.000029
0.469842 0.603175 -0.000337
0.474177 0.601745 -0.000251
0.478219 0.601927 -0.000374
0.482453 0.600875 -0.000339
0.486804 0.598941 -0.000191
0.490836 0.598909 -0.000292
0.494948 0.598250 -0.000312
0.498710 0.599928 -0.000639
0.502238 0.603341 -0.001195
0.506860 0.598676 -0.000700
0.510268 0.603073 -0.001390
0.514200 0.603455 -0.001559
0.518805 0.598087 -0.000977
0.523026 0.595552 -0.000768
0.526913 0.595776 -0.000922
0.530988 0.594110 -0.000831
0.534308 0.599820 -0.001713
0.537665 0.605610 -0.002609
0.541741 0.603885 -0.002519
0.546254 0.596701 -0.001710
0.550136 0.596457 -0.001819
0.553817 0.598745 -0.002266
0.557961 0.594667 -0.001872
0.561808 0.594434 -0.001990
0.565620 0.594609 -0.002165
0.569449 0.594411 -0.002292
0.573269 0.594238 -0.002426
0.576553 0.605328 -0.004066
0.580360 0.606408 -0.004374
0.584256 0.605258 -0.004386
0.588186 0.602658 -0.004206
0.592074 0.600537 -0.004092
0.595905 0.599865 -0.004174
0.599737 0.598666 -0.004188
0.603470 0.603368 -0.004999
0.607267 0.605823 -0.005512
0.611091 0.607170 -0.005877
0.614927 0.606988 -0.006038
0.618759 0.606541 -0.006165
0.622582 0.605550 -0.006221
0.626422 0.606551 -0.006549
0.630239 0.605742 -0.006633
0.633914 0.599039 -0.005912
0.637719 0.599310 -0.006146
0.641486 0.598276 -0.006203
0.645319 0.599245 -0.006537
0.649185 0.600784 -0.006951
0.652944 0.599630 -0.006997
0.656747 0.599493 -0.007185
0.660526 0.598919 -0.007314
0.664255 0.597551 -0.007334
0.668048 0.597323 -0.007514
0.671988 0.599186 -0.007987
0.675783 0.598814 -0.008151
0.679403 0.596219 -0.008005
0.683077 0.594504 -0.007983
0.686924 0.594897 -0.008257
0.690765 0.595133 -0.008511
0.694590 0.595136 -0.008735
0.698861 0.599452 -0.009568
0.702634 0.598678 -0.009686
0.706531 0.599041 -0.009966
0.710555 0.600414 -0.010391
0.714318 0.599475 -0.010489
0.717743 0.595872 -0.010208
0.721535 0.595303 -0.010360
0.725935 0.599214 -0.011155
0.729640 0.597859 -0.011198
0.734180 0.602305 -0.012076
0.738508 0.605016 -0.012707
0.742830 0.607465 -0.013304
0.746076 0.602971 -0.012899
0.749187 0.597867 -0.012404
0.752640 0.595041 -0.012238
0.756587 0.595172 -0.012503
0.760911 0.597369 -0.013070
0.764699 0.596483 -0.013190
0.768420 0.595243 -0.013258
0.773000 0.598477 -0.013983
0.777130 0.599240 -0.014348
0.781528 0.601245 -0.014898
0.785082 0.599049 -0.014830
0.789203 0.599589 -0.015167
0.792544 0.596474 -0.014963
0.796175 0.594763 -0.014967
0.799947 0.593709 -0.015070
0.803743 0.592764 -0.015189
0.807757 0.592740 -0.015447
0.812001 0.593631 -0.015843
0.815895 0.593029 -0.016017
0.820481 0.595165 -0.016604
0.824782 0.596070 -0.017008
0.828291 0.593880 -0.016946
0.831932 0.592236 -0.016966
0.835966 0.592055 -0.017209
0.840285 0.592876 -0.017606
0.844828 0.594429 -0.018117
0.846905 0.587304 -0.017303
0.850624 0.586012 -0.017379
0.854981 0.586869 -0.017787
0.863366 0.600975 -0.020237
0.865388 0.593900 -0.019429
0.869740 0.594469 -0.019800
0.874048 0.594846 -0.020144
0.879711 0.599371 -0.021134
0.883211 0.597128 -0.021075
0.889341 0.602805 -0.022253
0.893504 0.602468 -0.022496
0.896416 0.598470 -0.022166
0.897743 0.590016 -0.021134
0.902298 0.590884 -0.021568
0.908883 0.597333 -0.022885
0.912759 0.596140 -0.023000
0.913807 0.587310 -0.021904
0.918495 0.588383 -0.022379
0.922993 0.588892 -0.022767
0.927562 0.589535 -0.023179
0.932086 0.590008 -0.023567
0.936403 0.589909 -0.023866
0.942832 0.595026 -0.025007
0.947221 0.594969 -0.025320
0.949124 0.588859 -0.024656
0.953207 0.588079 -0.024855
0.957732 0.588318 -0.025222
0.962484 0.589043 -0.025671
0.971017 0.598396 -0.027533
0.975488 0.598260 -0.027852
0.977948 0.593584 -0.027429
0.980689 0.589605 -0.027120
0.993564 0.607825 -0.030476
0.999041 0.609591 -0.031127
1.002751 0.607504 -0.031145
1.007021 0.606604 -0.031362
1.007787 0.598386 -0.030361
1.015212 0.604016 -0.031674
1.021292 0.606736 -0.032507
1.026615 0.607825 -0.033074
1.029878 0.604750 -0.032943
1.031419 0.598319 -0.032246
1.033933 0.593875 -0.031885
1.036265 0.589134 -0.031473
1.041447 0.589857 -0.031995
1.045813 0.588986 -0.032249
1.050569 0.588806 -0.032626
1.055400 0.588718 -0.033024
1.061735 0.591308 -0.033890
1.066404 0.590799 -0.034227
1.071660 0.591290 -0.034744
1.076041 0.590181 -0.034987
1.080853 0.589788 -0.035361
1.086718 0.591158 -0.036050
1.091611 0.590789 -0.036440
1.096904 0.591043 -0.036946
1.103025 0.592610 -0.037692
1.107842 0.591938 -0.038048
1.112372 0.590754 -0.038320
1.116787 0.589348 -0.038556
1.122287 0.589639 -0.039103
1.128679 0.591268 -0.039899
1.133519 0.590378 -0.040248
1.140211 0.592305 -0.041114
1.145250 0.591599 -0.041512
1.150475 0.591122 -0.041957
1.155674 0.590554 -0.042393
1.161896 0.591445 -0.043104
1.167326 0.591091 -0.043594
1.173253 0.591399 -0.044214
1.178802 0.591092 -0.044727
1.184821 0.591392 -0.045361
1.191691 0.592819 -0.046213
1.197578 0.592781 -0.046800
1.202541 0.591404 -0.047140
1.209794 0.593119 -0.048071
1.215692 0.592903 -0.048644
1.223136 0.594700 -0.049607
1.228522 0.593674 -0.050037
1.233519 0.592101 -0.050365
1.241731 0.594677 -0.051498
1.247622 0.594167 -0.052039
1.253763 0.593936 -0.052637
1.260142 0.593963 -0.053287
1.265843 0.593102 -0.053764
1.271867 0.592620 -0.054315
1.278572 0.592948 -0.055026
1.284677 0.592514 -0.055583
1.293761 0.595643 -0.056849
1.298919 0.594030 -0.057164
1.305235 0.593800 -0.057749
1.312586 0.594781 -0.058571
1.318665 0.594276 -0.059084
1.324130 0.593089 -0.059448
1.330665 0.593157 -0.060054
1.336747 0.592738 -0.060548
1.343094 0.592654 -0.061095
1.349410 0.592576 -0.061628
1.354660 0.591379 -0.061911
1.360228 0.590597 -0.062260
1.376925 0.601877 -0.065104
0.367764 0.597163 0.000008
0.367388 0.610292 -0.001916
0.371243 0.609652 -0.002041
0.375358 0.608283 -0.002061
0.379797 0.605922 -0.001940
0.386551 0.595422 -0.000742
0.391267 0.592106 -0.000473
0.395051 0.592266 -0.000652
0.398663 0.593220 -0.000928
0.401682 0.596608 -0.001517
0.404780 0.599940 -0.002093
0.407532 0.604882 -0.002876
0.411994 0.603211 -0.002780
0.415718 0.604606 -0.003084
0.419214 0.607093 -0.003528
0.422774 0.609475 -0.003954
0.427967 0.604838 -0.003445
0.433894 0.596733 -0.002470
0.438616 0.593824 -0.002182
0.442644 0.594061 -0.002311
0.446627 0.594534 -0.002470
0.451074 0.592737 -0.002325
0.454011 0.598485 -0.003187
0.457724 0.600475 -0.003547
0.461503 0.602194 -0.003871
0.465502 0.602761 -0.004042
0.469238 0.604802 -0.004412
0.473511 0.603790 -0.004373
0.477507 0.604325 -0.004543
0.481436 0.605238 -0.004766
0.485801 0.603375 -0.004617
0.491090 0.595264 -0.003628
0.495122 0.595055 -0.003704
0.499258 0.594021 -0.003671
0.502852 0.596764 -0.004150
0.505441 0.607174 -0.005669
0.509757 0.604815 -0.005465
0.513969 0.603026 -0.005340
0.518699 0.596626 -0.004592
0.523162 0.591940 -0.004077
0.527000 0.592487 -0.004275
0.530586 0.595413 -0.004799
0.534326 0.596970 -0.005141
0.537775 0.601660 -0.005913
0.541661 0.601884 -0.006080
0.545881 0.598102 -0.005702
0.549958 0.595542 -0.005492
0.553804 0.595634 -0.005648
0.557772 0.593899 -0.005556
0.561529 0.595009 -0.005857
0.565337 0.595349 -0.006055
0.569208 0.594535 -0.006097
0.573043 0.594156 -0.006202
0.576485 0.601897 -0.007431
0.580333 0.601684 -0.007565
0.584279 0.598725 -0.007321
0.588105 0.598439 -0.007449
0.591913 0.598567 -0.007638
0.595767 0.596646 -0.007543
0.599602 0.594668 -0.007442
0.603353 0.597017 -0.007947
0.607097 0.602002 -0.008825
0.610895 0.605382 -0.009482
0.614724 0.605943 -0.009747
0.618542 0.602384 -0.009436
0.622358 0.602563 -0.009652
0.626151 0.600911 -0.009612
0.629947 0.600286 -0.009718
0.633904 0.607042 -0.010871
0.637548 0.599935 -0.010064
0.641342 0.599569 -0.010213
0.645144 0.599499 -0.010405
0.648894 0.598128 -0.010415
0.652604 0.596138 -0.010337
0.656451 0.597172 -0.010693
0.660176 0.595759 -0.010701
0.664005 0.596279 -0.010987
0.667922 0.598044 -0.011455
0.671928 0.600804 -0.012068
0.675806 0.601421 -0.012376
0.679275 0.596714 -0.011916
0.682872 0.594022 -0.011747
0.686662 0.593782 -0.011934
0.690510 0.594133 -0.012209
0.694321 0.594016 -0.012417
0.698165 0.594197 -0.012670
0.701969 0.593930 -0.012860
0.705792 0.593821 -0.013074
0.709844 0.595637 -0.013572
0.713631 0.595074 -0.013723
0.717332 0.593822 -0.013774
0.721078 0.592958 -0.013882
0.724921 0.592832 -0.014101
0.729976 0.601332 -0.015600
0.734022 0.602253 -0.015980
0.738348 0.604941 -0.016624
0.742439 0.605896 -0.017014
0.746005 0.603447 -0.016896
0.749426 0.600209 -0.016660
0.752737 0.596462 -0.016347
0.757043 0.598623 -0.016922
0.760857 0.597856 -0.017058
0.765434 0.601261 -0.017825
0.769521 0.601843 -0.018168
0.774138 0.605101 -0.018919
0.777339 0.600994 -0.018554
0.781219 0.600398 -0.018722
0.785449 0.601477 -0.019147
0.788366 0.596285 -0.018615
0.792135 0.595206 -0.018712
0.795807 0.593705 -0.018744
0.799627 0.592877 -0.018880
0.803405 0.591870 -0.018989
0.807933 0.594029 -0.019588
0.811792 0.593301 -0.019743
0.815751 0.592968 -0.019960
0.820096 0.594142 -0.020413
0.824452 0.595278 -0.020861
0.828235 0.594148 -0.020958
0.831796 0.592192 -0.020927
0.836465 0.594345 -0.021540
0.840747 0.594987 -0.021919
0.843946 0.591731 -0.021685
0.849390 0.596376 -0.022698
0.851628 0.589852 -0.021949
0.862585 0.612833 -0.025876
0.866162 0.610609 -0.025814
0.867434 0.600928 -0.024565
0.871147 0.599338 -0.024602
0.875153 0.598683 -0.024790
0.878918 0.597267 -0.024857
0.884539 0.601518 -0.025835
0.889771 0.604432 -0.026603
0.893822 0.603732 -0.026792
0.896447 0.598876 -0.026310
0.898281 0.591862 -0.025476
0.902901 0.592882 -0.025945
0.907468 0.593689 -0.026382
0.912100 0.594615 -0.026842
0.914616 0.589765 -0.026358
0.918084 0.587550 -0.026306
0.922799 0.588638 -0.026798
0.927724 0.590200 -0.027371
0.932192 0.590517 -0.027743
0.936620 0.590686 -0.028092
0.942975 0.595604 -0.029233
0.945495 0.590953 -0.028788
0.949405 0.589747 -0.028917
0.953552 0.589100 -0.029142
0.957581 0.588155 -0.029318
0.962258 0.588703 -0.029748
0.971368 0.599381 -0.031890
0.974675 0.596587 -0.031767
0.975906 0.589172 -0.030862
0.985995 0.601498 -0.033308
0.996560 0.614520 -0.035886
0.999790 0.611349 -0.035715
1.002886 0.607926 -0.035502
1.005319 0.603143 -0.035056
1.009398 0.601858 -0.035212
1.008044 0.589379 -0.033440
1.021187 0.606625 -0.036803
1.024355 0.603377 -0.036632
1.027964 0.601037 -0.036620
1.032288 0.600104 -0.036856
1.033888 0.593857 -0.036166
1.035367 0.587471 -0.035451
1.040336 0.587804 -0.035916
1.046371 0.590078 -0.036729
1.049991 0.587773 -0.036740
1.056692 0.591118 -0.037756
1.061405 0.590733 -0.038118
1.066138 0.590338 -0.038483
1.070464 0.589177 -0.038717
1.075119 0.588562 -0.039053
1.081087 0.590188 -0.039799
1.086194 0.590243 -0.040269
1.092327 0.591982 -0.041050
1.097499 0.592012 -0.041530
1.102769 0.592145 -0.042035
1.108141 0.592383 -0.042566
1.112499 0.590905 -0.042789
1.119148 0.593089 -0.043693
1.122628 0.590112 -0.043652
1.128796 0.591375 -0.044402
1.133822 0.590767 -0.044812
1.138927 0.590229 -0.045242
1.144792 0.590799 -0.045887
1.149708 0.589857 -0.046256
1.156745 0.592044 -0.047222
1.162038 0.591536 -0.047689
1.167644 0.591431 -0.048238
1.173843 0.592124 -0.048948
1.178937 0.591147 -0.049347
1.184934 0.591409 -0.049990
1.191413 0.592277 -0.050758
1.197454 0.592453 -0.051400
1.202833 0.591648 -0.051859
1.207822 0.590263 -0.052210
1.217515 0.595200 -0.053806
1.222352 0.593481 -0.054104
1.228054 0.592882 -0.054627
1.234620 0.593372 -0.055370
1.241562 0.594285 -0.056203
1.247557 0.593910 -0.056783
1.253948 0.594000 -0.057459
1.260240 0.593918 -0.058103
1.265850 0.592945 -0.058567
1.272634 0.593406 -0.059321
1.278261 0.592411 -0.059778
1.284246 0.591844 -0.060318
1.293366 0.595028 -0.061627
1.298484 0.593382 -0.061937
1.302982 0.591028 -0.062092
1.309534 0.591112 -0.062742
1.317729 0.593100 -0.063782
1.323679 0.592492 -0.064269
1.329751 0.592054 -0.064778
1.337908 0.593995 -0.065776
1.344668 0.594378 -0.066431
1.348807 0.591898 -0.066460
1.355283 0.592068 -0.067034
1.359878 0.590244 -0.067161
1.367376 0.591638 -0.067956
0.372481 0.581057 -0.001629
0.371212 0.596882 -0.003980
0.376871 0.589881 -0.003244
0.380472 0.589938 -0.003451
0.386518 0.581623 -0.002512
0.389764 0.583167 -0.002899
0.391418 0.590679 -0.004089
0.395420 0.589973 -0.004153
0.398942 0.591188 -0.004471
0.401779 0.595193 -0.005163
0.403356 0.604369 -0.006555
0.409146 0.597336 -0.005724
0.412265 0.600912 -0.006339
0.416550 0.599922 -0.006322
0.420217 0.601565 -0.006662
0.424550 0.600491 -0.006624
0.427721 0.604519 -0.007284
0.433414 0.597458 -0.006414
0.438537 0.592721 -0.005860
0.442508 0.593193 -0.006021
0.446440 0.593885 -0.006211
0.450475 0.594100 -0.006334
0.455072 0.591477 -0.006064
0.458271 0.595951 -0.006775
0.461879 0.598460 -0.007215
0.465811 0.599302 -0.007425
0.469505 0.601486 -0.007822
0.473752 0.600543 -0.007786
0.477824 0.600537 -0.007881
0.481678 0.601813 -0.008156
0.486216 0.598766 -0.007831
0.491003 0.593831 -0.007244
0.495487 0.590537 -0.006887
0.499040 0.593445 -0.007398
0.502232 0.599093 -0.008294
0.505443 0.604923 -0.009219
0.509244 0.606522 -0.009557
0.515090 0.591617 -0.007584
0.519116 0.590730 -0.007576
0.522885 0.591928 -0.007864
0.526723 0.592499 -0.008067
0.530552 0.593123 -0.008280
0.534245 0.595072 -0.008683
0.538078 0.595644 -0.008895
0.541664 0.598908 -0.009490
0.545660 0.597645 -0.009449
0.549545 0.597502 -0.009569
0.553407 0.597542 -0.009718
0.557381 0.595907 -0.009632
0.561260 0.595373 -0.009705
0.565092 0.595398 -0.009860
0.569008 0.593854 -0.009794
0.572848 0.593375 -0.009883
0.576407 0.598601 -0.010789
0.580207 0.599234 -0.011042
0.584075 0.598134 -0.011051
0.587871 0.598738 -0.011306
0.591749 0.596590 -0.011168
0.595606 0.594298 -0.011012
0.599426 0.592732 -0.010961
0.603160 0.595679 -0.011564
0.606908 0.599884 -0.012353
0.610697 0.603224 -0.013021
0.614520 0.603224 -0.013208
0.618340 0.602862 -0.013345
0.622106 0.596515 -0.012614
0.625896 0.596535 -0.012810
0.629799 0.602980 -0.013946
0.633676 0.605523 -0.014517
0.637531 0.606374 -0.014843
0.641305 0.604376 -0.014754
0.644931 0.598768 -0.014136
0.648621 0.595948 -0.013928
0.652126 0.589629 -0.013204
0.656017 0.592097 -0.013777
0.660050 0.596706 -0.014670
0.663813 0.596015 -0.014782
0.667674 0.596891 -0.015128
0.671631 0.598994 -0.015659
0.675574 0.600600 -0.016119
0.679262 0.598714 -0.016060
0.682783 0.594966 -0.015724
0.686495 0.593756 -0.015767
0.690208 0.592629 -0.015824
0.694025 0.592645 -0.016055
0.697939 0.593553 -0.016421
0.701843 0.594245 -0.016757
0.705660 0.594053 -0.016961
0.709456 0.593644 -0.017134
0.713402 0.594462 -0.017494
0.717145 0.593555 -0.017594
0.720890 0.592681 -0.017701
0.724777 0.592885 -0.017972
0.729549 0.599361 -0.019206
0.733803 0.601778 -0.019822
0.737658 0.601321 -0.020000
0.741569 0.601214 -0.020233
0.745923 0.603856 -0.020891
0.749844 0.603655 -0.021113
0.752639 0.596738 -0.020296
0.756844 0.598296 -0.020791
0.761443 0.601948 -0.021614
0.765018 0.599766 -0.021532
0.770079 0.605562 -0.022696
0.773826 0.604211 -0.022747
0.777217 0.601079 -0.022518
0.781140 0.600690 -0.022721
0.785473 0.602255 -0.023232
0.790897 0.608847 -0.024538
0.794124 0.604985 -0.024197
0.795824 0.594378 -0.022787
0.799392 0.592426 -0.022746
0.803260 0.591808 -0.022916
0.807804 0.594034 -0.023541
0.811720 0.593536 -0.023734
0.815557 0.592699 -0.023873
0.820436 0.595998 -0.024677
0.825101 0.598299 -0.025323
0.828791 0.596749 -0.025353
0.832669 0.595929 -0.025501
0.836550 0.595112 -0.025651
0.840480 0.594466 -0.025829
0.844941 0.595692 -0.026312
0.850976 0.602320 -0.027677
0.856725 0.607705 -0.028846
0.862608 0.613320 -0.030058
0.866492 0.612096 -0.030155
0.869143 0.606869 -0.029596
0.871441 0.600648 -0.028870
0.876231 0.602434 -0.029463
0.881136 0.604483 -0.030103
0.884413 0.601473 -0.029908
0.886775 0.595778 -0.029266
0.892806 0.601058 -0.030450
0.897196 0.601367 -0.030809
0.899765 0.596415 -0.030292
0.903633 0.595242 -0.030406
0.907726 0.594692 -0.030627
0.910804 0.591340 -0.030377
0.913998 0.588362 -0.030191
0.917365 0.585894 -0.030090
0.923031 0.589495 -0.031019
0.927992 0.591136 -0.031621
0.931983 0.590218 -0.031790
0.937363 0.592787 -0.032557
0.940839 0.590516 -0.032500
0.947436 0.595924 -0.033762
0.949969 0.591313 -0.033308
0.953434 0.589013 -0.033252
0.957761 0.588765 -0.033552
0.962406 0.589226 -0.033977
0.970507 0.597575 -0.035776
0.972441 0.591683 -0.035107
0.976448 0.590542 -0.035265
0.986224 0.602154 -0.037657
0.993450 0.607868 -0.039029
0.997424 0.606377 -0.039142
1.001120 0.604286 -0.039152
1.003875 0.600218 -0.038815
1.004576 0.591927 -0.037730
1.007289 0.587927 -0.037404
1.011019 0.586043 -0.037455
1.015736 0.586144 -0.037864
1.025250 0.595723 -0.039977
1.031732 0.599082 -0.040986
1.033973 0.594084 -0.040498
1.035036 0.586891 -0.039612
1.039716 0.586674 -0.039989
1.043960 0.585595 -0.040214
1.051415 0.590445 -0.041525
1.056694 0.591145 -0.042087
1.061128 0.590245 -0.042363
1.065753 0.589654 -0.042700
1.070226 0.588752 -0.042986
1.074585 0.587617 -0.043233
1.081040 0.590089 -0.044156
1.086692 0.591072 -0.044810
1.091654 0.590805 -0.045239
1.095725 0.588987 -0.045383
1.102792 0.592134 -0.046466
1.108781 0.593379 -0.047201
1.114156 0.593538 -0.047739
1.117956 0.591095 -0.047791
1.123663 0.591682 -0.048424
1.129009 0.591623 -0.048942
1.134096 0.591098 -0.049378
1.139241 0.590610 -0.049829
1.144466 0.590190 -0.050300
1.149432 0.589320 -0.050691
1.157307 0.592760 -0.051927
1.162066 0.591446 -0.052248
1.166678 0.589876 -0.052525
1.173914 0.592081 -0.053550
1.179015 0.591108 -0.053958
1.184485 0.590613 -0.054467
1.192060 0.593025 -0.055562
1.197458 0.592292 -0.056040
1.202353 0.590815 -0.056375
1.208278 0.590710 -0.056990
1.217548 0.595066 -0.058513
1.223161 0.594382 -0.059027
1.228630 0.593462 -0.059497
1.234649 0.593226 -0.060110
1.240836 0.593158 -0.060762
1.247207 0.593277 -0.061456
1.253799 0.593628 -0.062201
1.259910 0.593322 -0.062812
1.266868 0.594040 -0.063637
1.273973 0.594890 -0.064491
1.280257 0.594689 -0.065124
1.286768 0.594742 -0.065807
1.292537 0.593885 -0.066293
1.297303 0.591840 -0.066520
1.303253 0.591220 -0.067041
1.309695 0.591187 -0.067678
1.317008 0.592167 -0.068524
1.323358 0.592040 -0.069120
1.330048 0.592323 -0.069791
1.338856 0.595011 -0.070972
1.343848 0.593432 -0.071209
1.352701 0.596189 -0.072375
1.358327 0.595411 -0.072750
1.361447 0.591979 -0.072519
1.359546 0.583251 -0.071093
0.396506 0.501437 0.005726
0.378188 0.572978 -0.004455
0.378881 0.582407 -0.005983
0.382305 0.582914 -0.006255
0.388094 0.575352 -0.005387
0.389260 0.584136 -0.006801
0.391211 0.590547 -0.007875
0.393912 0.594580 -0.008607
0.398584 0.591536 -0.008334
0.401623 0.594739 -0.008934
0.406024 0.592907 -0.008814
0.408208 0.599886 -0.009934
0.413426 0.595018 -0.009371
0.417623 0.594248 -0.009381
0.421536 0.594717 -0.009561
0.425350 0.595702 -0.009810
0.429612 0.594820 -0.009790
0.432373 0.600670 -0.010724
0.438350 0.592094 -0.009600
0.442322 0.592532 -0.009758
0.446103 0.593927 -0.010051
0.450301 0.593340 -0.010059
0.454709 0.591657 -0.009909
0.458256 0.594326 -0.010382
0.461630 0.598034 -0.011004
0.465420 0.599641 -0.011325
0.469937 0.597221 -0.011070
0.474561 0.593993 -0.010699
0.479081 0.591142 -0.010383
0.482901 0.592351 -0.010652
0.486245 0.596581 -0.011357
0.490591 0.594478 -0.011153
0.494620 0.594298 -0.011228
0.498364 0.596021 -0.011580
0.501451 0.602523 -0.012625
0.505079 0.605370 -0.013145
0.510614 0.593558 -0.011548
0.515530 0.585718 -0.010525
0.518795 0.591008 -0.011407
0.522338 0.594220 -0.011991
0.526053 0.596053 -0.012379
0.529832 0.597341 -0.012691
0.534556 0.589212 -0.011636
0.537830 0.595393 -0.012666
0.541582 0.596851 -0.013012
0.545578 0.595514 -0.012954
0.549266 0.597727 -0.013417
0.553105 0.598126 -0.013618
0.557132 0.595850 -0.013430
0.561012 0.595334 -0.013503
0.564845 0.595407 -0.013665
0.568751 0.594104 -0.013627
0.572576 0.593996 -0.013768
0.576310 0.595679 -0.014176
0.580077 0.596824 -0.014508
0.583840 0.598228 -0.014882
0.587660 0.598215 -0.015049
0.591666 0.591726 -0.014257
0.595454 0.591512 -0.014399
0.599207 0.592775 -0.014762
0.603003 0.591853 -0.014803
0.606717 0.597669 -0.015852
0.610511 0.598856 -0.016214
0.614316 0.599132 -0.016443
0.618113 0.596835 -0.016289
0.621928 0.599487 -0.016879
0.625754 0.601084 -0.017314
0.629548 0.599980 -0.017346
0.633457 0.604571 -0.018238
0.637430 0.609896 -0.019246
0.641074 0.603161 -0.018434
0.644659 0.596454 -0.017624
0.648179 0.589656 -0.016799
0.651919 0.589078 -0.016920
0.655837 0.592131 -0.017596
0.659737 0.594283 -0.018138
0.663655 0.596349 -0.018669
0.667429 0.595811 -0.018805
0.671468 0.599170 -0.019541
0.675368 0.600160 -0.019916
0.678829 0.595360 -0.019402
0.682679 0.595748 -0.019688
0.686376 0.594299 -0.019692
0.690372 0.596200 -0.020216
0.693964 0.593701 -0.020060
0.697846 0.594239 -0.020376
0.701870 0.596011 -0.020886
0.705862 0.597307 -0.021325
0.709730 0.597373 -0.021574
0.713285 0.594789 -0.021410
0.716996 0.593601 -0.021465
0.720820 0.593329 -0.021665
0.724793 0.594130 -0.022036
0.729344 0.598981 -0.023047
0.733251 0.598999 -0.023299
0.737099 0.598578 -0.023483
0.740565 0.595651 -0.023270
0.743806 0.591446 -0.022854
0.750115 0.606212 -0.025460
0.753632 0.603497 -0.025285
0.756375 0.596422 -0.024413
0.760788 0.599074 -0.025097
0.765141 0.601212 -0.025701
0.768831 0.599668 -0.025716
0.773345 0.602441 -0.026427
0.776756 0.599452 -0.026210
0.780745 0.599419 -0.026472
0.785747 0.604239 -0.027522
0.790394 0.607127 -0.028263
0.793962 0.604867 -0.028169
0.795900 0.595324 -0.026886
0.799457 0.593293 -0.026826
0.803278 0.592451 -0.026961
0.808057 0.595654 -0.027762
0.811609 0.593612 -0.027703
0.815641 0.593561 -0.027973
0.820683 0.597487 -0.028901
0.825338 0.599719 -0.029553
0.829242 0.598954 -0.029711
0.832144 0.594427 -0.029244
0.835758 0.592651 -0.029234
0.840115 0.593589 -0.029678
0.844611 0.594951 -0.030195
0.850761 0.601994 -0.031667
0.855972 0.605539 -0.032558
0.860619 0.607031 -0.033108
0.864478 0.605825 -0.033205
0.868351 0.604671 -0.033312
0.871035 0.599716 -0.032775
0.877627 0.607190 -0.034349
0.881894 0.607184 -0.034656
0.881166 0.591913 -0.032360
0.884914 0.590519 -0.032428
0.889377 0.591246 -0.032861
0.895877 0.597839 -0.034304
0.900673 0.599318 -0.034874
0.904097 0.596842 -0.034765
0.906686 0.592080 -0.034260
0.911249 0.592832 -0.034711
0.912946 0.585783 -0.033809
0.918434 0.588996 -0.034691
0.923041 0.589769 -0.035152
0.927719 0.590667 -0.035638
0.932647 0.592142 -0.036229
0.935556 0.588455 -0.035917
0.939838 0.588240 -0.036216
0.947288 0.595767 -0.037885
0.951844 0.596050 -0.038282
0.953716 0.589876 -0.037535
0.957650 0.588686 -0.037674
0.963551 0.592064 -0.038629
0.967942 0.591847 -0.038948
0.970591 0.587644 -0.038556
0.973675 0.584478 -0.038350
0.985714 0.601169 -0.041723
0.991575 0.603906 -0.042594
0.995720 0.602826 -0.042781
0.999582 0.601125 -0.042858
1.001756 0.595865 -0.042289
1.004525 0.591923 -0.041961
1.006426 0.586246 -0.041316
1.011197 0.586492 -0.041757
1.015517 0.585781 -0.042026
1.021341 0.588027 -0.042845
1.031077 0.597859 -0.045075
1.035712 0.597516 -0.045432
1.035652 0.588120 -0.044111
1.040068 0.587380 -0.044399
1.046229 0.589881 -0.045299
1.051342 0.590331 -0.045822
1.055722 0.589375 -0.046087
1.061143 0.590277 -0.046708
1.066530 0.591046 -0.047310
1.070496 0.589221 -0.047428
1.075338 0.588919 -0.047839
1.081002 0.589995 -0.048520
1.087121 0.591774 -0.049344
1.091426 0.590374 -0.049565
1.095970 0.589348 -0.049865
1.102370 0.591372 -0.050760
1.107977 0.591989 -0.051391
1.113604 0.592563 -0.052023
1.118542 0.591955 -0.052432
1.123197 0.590846 -0.052750
1.128236 0.590304 -0.053185
1.134213 0.591173 -0.053907
1.139482 0.590867 -0.054404
1.144323 0.589848 -0.054768
1.151050 0.591639 -0.055698
1.156403 0.591268 -0.056207
1.161759 0.590846 -0.056713
1.166976 0.590162 -0.057174
1.174319 0.592510 -0.058255
1.179614 0.591804 -0.058728
1.185417 0.591770 -0.059344
1.191706 0.592353 -0.060094
1.197202 0.591756 -0.060611
1.202617 0.590996 -0.061099
1.209422 0.592084 -0.061977
1.217932 0.595393 -0.063324
1.223654 0.594848 -0.063879
1.229351 0.594222 -0.064421
1.235084 0.593600 -0.064968
1.240599 0.592655 -0.065449
1.247940 0.594024 -0.066424
1.254269 0.594034 -0.067114
1.260426 0.593782 -0.067750
1.267019 0.594043 -0.068496
1.273842 0.594547 -0.069294
1.280219 0.594469 -0.069965
1.286381 0.594109 -0.070572
1.291662 0.592681 -0.070940
1.298005 0.592530 -0.071580
1.303934 0.591891 -0.072105
1.310901 0.592476 -0.072889
1.317581 0.592726 -0.073590
1.324167 0.592881 -0.074257
1.329264 0.591365 -0.074539
1.337519 0.593457 -0.075609
1.343669 0.593201 -0.076139
1.350931 0.594222 -0.076937
1.358503 0.595614 -0.077801
1.363058 0.593760 -0.077911
1.369467 0.593996 -0.078470
0.370903 0.585152 -0.009678
0.377931 0.573245 -0.008192
0.377726 0.585667 -0.010202
0.380380 0.588825 -0.010867
0.385522 0.583579 -0.010305
0.390927 0.577406 -0.009595
0.391305 0.589325 -0.011504
0.394363 0.591981 -0.012058
0.398598 0.590488 -0.011999
0.403545 0.586379 -0.011549
0.408113 0.583713 -0.011300
0.409514 0.593563 -0.012874
0.413013 0.595466 -0.013280
0.418271 0.590318 -0.012646
0.421708 0.592676 -0.013106
0.425542 0.593510 -0.013338
0.428416 0.598635 -0.014196
0.431930 0.601177 -0.014672
0.438472 0.590030 -0.013128
0.441752 0.593648 -0.013756
0.445749 0.594028 -0.013905
0.449763 0.594340 -0.014042
0.454063 0.593230 -0.013968
0.458231 0.592730 -0.013984
0.461145 0.598829 -0.014975
0.464653 0.601997 -0.015534
0.469838 0.595914 -0.014723
0.474640 0.591642 -0.014181
0.478965 0.589901 -0.014014
0.482931 0.590188 -0.014149
0.485775 0.597503 -0.015331
0.489606 0.598806 -0.015622
0.494092 0.595725 -0.015263
0.498044 0.596065 -0.015415
0.501678 0.598643 -0.015904
0.506254 0.594302 -0.015363
0.511013 0.588135 -0.014550
0.515840 0.580849 -0.013572
0.517751 0.597276 -0.016143
0.521792 0.596440 -0.016136
0.525478 0.598654 -0.016588
0.529337 0.599338 -0.016815
0.533207 0.599879 -0.017023
0.537358 0.597435 -0.016786
0.541240 0.597594 -0.016943
0.545455 0.593803 -0.016508
0.549230 0.594884 -0.016809
0.552610 0.601164 -0.017900
0.556876 0.595813 -0.017237
0.560776 0.595059 -0.017270
0.564660 0.594337 -0.017312
0.568399 0.595922 -0.017706
0.572245 0.595657 -0.017823
0.576022 0.596643 -0.018133
0.579794 0.597842 -0.018479
0.583607 0.598180 -0.018697
0.587461 0.597257 -0.018725
0.591367 0.594165 -0.018424
0.595187 0.593210 -0.018452
0.598929 0.595568 -0.018990
0.602724 0.595794 -0.019205
0.606525 0.595407 -0.019328
0.610312 0.596413 -0.019668
0.614113 0.592748 -0.019290
0.617902 0.596069 -0.019994
0.621729 0.600493 -0.020872
0.625574 0.603058 -0.021466
0.629323 0.598609 -0.020975
0.633198 0.601841 -0.021679
0.637070 0.603812 -0.022191
0.640681 0.596771 -0.021299
0.644246 0.590263 -0.020489
0.648123 0.592901 -0.021110
0.651802 0.590579 -0.020957
0.655710 0.593256 -0.021591
0.659398 0.591397 -0.021514
0.663104 0.590076 -0.021523
0.667168 0.594514 -0.022443
0.671326 0.599678 -0.023482
0.675271 0.601228 -0.023953
0.678725 0.596232 -0.023388
0.682432 0.594820 -0.023392
0.686387 0.596368 -0.023869
0.690107 0.595141 -0.023906
0.693970 0.595469 -0.024192
0.697858 0.595973 -0.024509
0.701881 0.597648 -0.025016
0.706163 0.601480 -0.025872
0.709623 0.597829 -0.025527
0.713140 0.594902 -0.025299
0.716833 0.593550 -0.025325
0.720668 0.593347 -0.025538
0.724805 0.595367 -0.026113
0.728922 0.597054 -0.026637
0.732678 0.596079 -0.026730
0.736477 0.595410 -0.026874
0.740678 0.597360 -0.027447
0.743309 0.589236 -0.026373
0.748948 0.599974 -0.028391
0.752910 0.600079 -0.028669
0.755891 0.594461 -0.028006
0.760409 0.597752 -0.028811
0.765074 0.601629 -0.029717
0.768501 0.598665 -0.029493
0.772097 0.596688 -0.029432
0.776283 0.597760 -0.029879
0.780398 0.598389 -0.030255
0.785034 0.601466 -0.031041
0.789381 0.602996 -0.031572
0.792836 0.600299 -0.031396
0.796170 0.597143 -0.031143
0.799604 0.594525 -0.030980
0.803631 0.594542 -0.031261
0.807526 0.593964 -0.031443
0.811591 0.594073 -0.031743
0.816091 0.595907 -0.032337
0.821174 0.599950 -0.033310
0.825924 0.602497 -0.034032
0.829077 0.598806 -0.033692
0.831476 0.592387 -0.032884
0.835135 0.590810 -0.032903
0.839110 0.590398 -0.033124
0.843870 0.592751 -0.033822
0.849224 0.597057 -0.034861
0.853780 0.598440 -0.035399
0.858845 0.601457 -0.036223
0.862539 0.599797 -0.036239
0.866452 0.598871 -0.036383
0.871930 0.602946 -0.037401
0.874940 0.599085 -0.037036
0.880177 0.602212 -0.037895
0.882747 0.597069 -0.037306
0.883238 0.585810 -0.035638
0.888562 0.589148 -0.036539
0.893695 0.591794 -0.037322
0.898392 0.593077 -0.037869
0.903154 0.594465 -0.038437
0.907400 0.594345 -0.038740
0.910639 0.591428 -0.038547
0.914220 0.589484 -0.038528
0.918925 0.590554 -0.039050
0.923475 0.591151 -0.039491
0.927961 0.591527 -0.039895
0.931909 0.590485 -0.040046
0.942058 0.605062 -0.043025
0.943449 0.597430 -0.041992
0.944749 0.589739 -0.040945
0.951149 0.594561 -0.042174
0.958356 0.601149 -0.043734
0.960642 0.595918 -0.043139
0.963291 0.591627 -0.042715
0.967236 0.590385 -0.042852
0.971727 0.590373 -0.043218
0.975876 0.589554 -0.043438
0.987294 0.604805 -0.046641
0.994777 0.611037 -0.048186
0.994746 0.600844 -0.046681
0.997547 0.596897 -0.046337
1.001552 0.595539 -0.046478
1.003335 0.589540 -0.045752
1.006493 0.586469 -0.045575
1.011762 0.587719 -0.046216
1.015729 0.586278 -0.046353
1.021074 0.587560 -0.047011
1.029250 0.594326 -0.048718
1.035492 0.597135 -0.049683
1.036013 0.588850 -0.048534
1.040989 0.589158 -0.049030
1.046140 0.589735 -0.049584
1.050914 0.589550 -0.049997
1.055943 0.589786 -0.050498
1.062646 0.593001 -0.051583
1.067089 0.592036 -0.051865
1.071797 0.591509 -0.052237
1.075349 0.588910 -0.052210
1.080730 0.589486 -0.052810
1.087638 0.592616 -0.053921
1.091921 0.591161 -0.054137
1.096692 0.590499 -0.054515
1.101831 0.590405 -0.055013
1.107370 0.590910 -0.055637
1.113281 0.591950 -0.056378
1.118435 0.591687 -0.056865
1.123202 0.590751 -0.057225
1.128100 0.589979 -0.057624
1.133663 0.590196 -0.058231
1.139833 0.591282 -0.059024
1.145411 0.591376 -0.059624
1.150662 0.590909 -0.060117
1.156310 0.590980 -0.060728
1.161215 0.589884 -0.061107
1.169218 0.593285 -0.062425
1.175177 0.593586 -0.063111
1.180425 0.592793 -0.063577
1.185791 0.592119 -0.064075
1.191743 0.592218 -0.064742
1.197441 0.591897 -0.065328
1.202823 0.591084 -0.065817
1.209883 0.592514 -0.066789
1.215430 0.591810 -0.067314
1.223306 0.594177 -0.068502
1.229587 0.594327 -0.069223
1.234979 0.593256 -0.069684
1.240749 0.592643 -0.070247
1.247468 0.593213 -0.071070
1.254299 0.593869 -0.071916
1.260567 0.593761 -0.072596
1.266855 0.593644 -0.073274
1.272966 0.593278 -0.073896
1.279235 0.593085 -0.074553
1.285541 0.592920 -0.075212
1.291970 0.592889 -0.075896
1.298140 0.592541 -0.076503
1.304961 0.592963 -0.077274
1.311270 0.592784 -0.077900
1.317158 0.592131 -0.078406
1.323080 0.591546 -0.078914
1.331710 0.594068 -0.080118
1.336630 0.592405 -0.080347
1.343732 0.593240 -0.081132
1.349406 0.592528 -0.081541
1.354355 0.591082 -0.081759
1.362542 0.593235 -0.082790
1.372329 0.597138 -0.084208
0.362659 0.611713 -0.017373
0.372347 0.591281 -0.014577
0.376915 0.587767 -0.014280
0.381895 0.582918 -0.013770
0.387608 0.575546 -0.012869
0.389038 0.583293 -0.014220
0.392736 0.583292 -0.014400
0.395816 0.585722 -0.014936
0.400650 0.581844 -0.014514
0.404758 0.580727 -0.014497
0.408727 0.580239 -0.014566
0.411848 0.583196 -0.015147
0.413611 0.591839 -0.016581
0.417886 0.590626 -0.016519
0.422280 0.588958 -0.016382
0.424142 0.598111 -0.017879
0.426742 0.604505 -0.018956
0.430625 0.605507 -0.019210
0.437167 0.594467 -0.017631
0.441496 0.593271 -0.017544
0.445452 0.593824 -0.017720
0.449580 0.593570 -0.017771
0.453646 0.593617 -0.017867
0.457502 0.594735 -0.018126
0.460999 0.597790 -0.018680
0.464428 0.601362 -0.019314
0.470028 0.592965 -0.018119
0.474323 0.591544 -0.017991
0.478622 0.589968 -0.017839
0.482613 0.590117 -0.017953
0.485246 0.598755 -0.019371
0.489003 0.600597 -0.019749
0.493394 0.598232 -0.019484
0.498570 0.590203 -0.018350
0.502229 0.592414 -0.018792
0.506271 0.591851 -0.018810
0.510193 0.592098 -0.018955
0.513315 0.598681 -0.020080
0.517410 0.597601 -0.020027
0.521600 0.595516 -0.019821
0.525698 0.593983 -0.019704
0.528964 0.600113 -0.020775
0.532803 0.601034 -0.021044
0.536852 0.599761 -0.020976
0.540860 0.598701 -0.020944
0.545270 0.592772 -0.020157
0.549096 0.593200 -0.020362
0.552518 0.598846 -0.021382
0.556785 0.593413 -0.020680
0.560568 0.594296 -0.020965
0.564439 0.593787 -0.021036
0.568272 0.593756 -0.021185
0.572049 0.594640 -0.021480
0.575741 0.597358 -0.022066
0.579527 0.598398 -0.022393
0.583324 0.599280 -0.022699
0.587178 0.598625 -0.022765
0.591143 0.593906 -0.022193
0.594925 0.594547 -0.022469
0.598708 0.595348 -0.022774
0.602494 0.596198 -0.023089
0.606209 0.604068 -0.024521
0.610095 0.596345 -0.023482
0.613894 0.596246 -0.023655
0.617699 0.599094 -0.024301
0.621530 0.601896 -0.024943
0.625372 0.603467 -0.025392
0.629122 0.598805 -0.024847
0.632938 0.599182 -0.025111
0.636722 0.598164 -0.025152
0.640354 0.592546 -0.024456
0.644176 0.593693 -0.024849
0.647961 0.593612 -0.025047
0.651731 0.593175 -0.025190
0.655456 0.591882 -0.025196
0.659104 0.589346 -0.025002
0.662952 0.590563 -0.025419
0.667006 0.594810 -0.026331
0.671210 0.600617 -0.027502
0.674808 0.597314 -0.027191
0.678383 0.594081 -0.026892
0.682234 0.594516 -0.027194
0.686096 0.594987 -0.027504
0.690001 0.595832 -0.027878
0.693777 0.595203 -0.028011
0.697570 0.594765 -0.028178
0.702036 0.600665 -0.029393
0.705467 0.596668 -0.028976
0.709635 0.599338 -0.029663
0.713031 0.595318 -0.029243
0.716787 0.594445 -0.029345
0.720563 0.593749 -0.029478
0.724600 0.594994 -0.029937
0.728549 0.595482 -0.030272
0.731867 0.591501 -0.029859
0.735976 0.593057 -0.030376
0.741100 0.601090 -0.031985
0.745476 0.603861 -0.032714
0.748136 0.595902 -0.031633
0.751277 0.591229 -0.031105
0.757319 0.603564 -0.033460
0.761208 0.603064 -0.033644
0.764610 0.599874 -0.033371
0.768704 0.600506 -0.033750
0.771731 0.595516 -0.033169
0.775954 0.596800 -0.033661
0.779827 0.596247 -0.033841
0.784280 0.598487 -0.034501
0.788415 0.599079 -0.034881
0.792520 0.599469 -0.035228
0.795362 0.594100 -0.034581
0.799326 0.593886 -0.034825
0.803251 0.593468 -0.035035
0.807066 0.592568 -0.035163
0.811367 0.593680 -0.035642
0.815723 0.594935 -0.036148
0.821247 0.600747 -0.037455
0.825852 0.602713 -0.038093
0.829090 0.599336 -0.037795
0.831115 0.591497 -0.036710
0.834759 0.589875 -0.036719
0.839489 0.592205 -0.037427
0.843624 0.592304 -0.037743
0.847991 0.593171 -0.038197
0.851508 0.591058 -0.038124
0.855293 0.589889 -0.038219
0.862112 0.598769 -0.040111
0.863268 0.588873 -0.038649
0.868157 0.591229 -0.039380
0.874750 0.598840 -0.041061
0.878970 0.598812 -0.041372
0.882826 0.597641 -0.041479
0.885198 0.592013 -0.040781
0.887806 0.587221 -0.040232
0.893050 0.590218 -0.041098
0.897456 0.590683 -0.041507
0.903129 0.594681 -0.042564
0.908676 0.598172 -0.043534
0.912972 0.598094 -0.043854
0.915667 0.593653 -0.043376
0.919219 0.591586 -0.043333
0.923366 0.591102 -0.043584
0.927454 0.590444 -0.043805
0.931894 0.590667 -0.044192
0.939143 0.597930 -0.045892
0.945957 0.603876 -0.047356
0.946685 0.594688 -0.046000
0.950421 0.592988 -0.046041
0.957468 0.599207 -0.047572
0.962552 0.600597 -0.048203
0.963508 0.592296 -0.047010
0.967566 0.591297 -0.047194
0.972011 0.591164 -0.047546
0.975631 0.589142 -0.047542
0.985634 0.601263 -0.050235
0.992410 0.605983 -0.051530
0.995179 0.601894 -0.051147
0.998204 0.598403 -0.050879
1.000570 0.593566 -0.050353
1.003019 0.588971 -0.049874
1.006147 0.585837 -0.049678
1.010939 0.586116 -0.050145
1.015852 0.586587 -0.050655
1.026678 0.598750 -0.053452
1.031054 0.597916 -0.053724
1.032641 0.591638 -0.052934
1.036128 0.589100 -0.052877
1.040741 0.588708 -0.053247
1.045746 0.589008 -0.053760
1.050960 0.589639 -0.054344
1.056674 0.591122 -0.055105
1.062496 0.592716 -0.055895
1.066752 0.591410 -0.056114
1.070821 0.589746 -0.056267
1.076885 0.591567 -0.057125
1.082000 0.591642 -0.057641
1.087540 0.592391 -0.058300
1.092031 0.591284 -0.058590
1.096423 0.589974 -0.058845
1.101797 0.590267 -0.059434
1.107924 0.591732 -0.060271
1.113259 0.591815 -0.060833
1.118541 0.591751 -0.061373
1.123554 0.591196 -0.061820
1.128198 0.590009 -0.062143
1.134810 0.591853 -0.063104
1.141182 0.593225 -0.063978
1.145941 0.592038 -0.064325
1.150845 0.591031 -0.064716
1.156472 0.591060 -0.065333
1.163770 0.593498 -0.066471
1.168819 0.592524 -0.066893
1.174350 0.592204 -0.067463
1.179815 0.591729 -0.068007
1.185971 0.592180 -0.068758
1.193160 0.594012 -0.069816
1.198237 0.592801 -0.070224
1.204193 0.592763 -0.070893
1.210355 0.592945 -0.071617
1.215761 0.592044 -0.072110
1.222106 0.592356 -0.072875
1.228220 0.592300 -0.073564
1.234904 0.592939 -0.074412
1.240837 0.592541 -0.075034
1.247358 0.592856 -0.075819
1.253370 0.592475 -0.076449
1.260536 0.593515 -0.077400
1.266596 0.593119 -0.078028
1.272659 0.592704 -0.078649
1.279662 0.593420 -0.079525
1.285039 0.592135 -0.079939
1.291542 0.592209 -0.080658
1.299136 0.593569 -0.081668
1.305163 0.593060 -0.082237
1.311707 0.593168 -0.082938
1.317078 0.591930 -0.083313
1.322975 0.591336 -0.083823
1.331351 0.593589 -0.084986
1.335880 0.591511 -0.085113
1.343741 0.593220 -0.086115
1.349269 0.592368 -0.086491
1.353732 0.590414 -0.086583
1.359291 0.589742 -0.086955
1.365989 0.590369 -0.087613
0.363859 0.607233 -0.020559
0.372660 0.589657 -0.018112
0.375711 0.591200 -0.018582
0.381845 0.582400 -0.017448
0.387063 0.576704 -0.016777
