ply
format ascii 1.0
comment ---
element vertex 1678
property float x
property float y
property float z
element face 0
property list uchar uint vertex_indices
end_header
0.083039 0.608031 -0.182168
0.086256 0.609594 -0.182607
0.089341 0.610193 -0.182809
0.091972 0.607931 -0.182309
0.094922 0.607698 -0.182308
0.098191 0.609324 -0.182764
0.101783 0.612668 -0.183645
0.104992 0.613699 -0.183957
0.107926 0.613172 -0.183886
0.110694 0.611783 -0.183604
0.113339 0.609811 -0.183178
0.115354 0.604772 -0.181996
0.118412 0.605027 -0.182120
0.121496 0.605368 -0.182265
0.124648 0.605982 -0.182479
0.127927 0.607122 -0.182824
0.131203 0.608170 -0.183147
0.134643 0.609857 -0.183629
0.139550 0.617681 -0.185630
0.140988 0.610719 -0.183976
0.143467 0.608253 -0.183433
0.146888 0.609618 -0.183840
0.150206 0.610495 -0.184127
0.152566 0.607630 -0.183488
0.155123 0.605584 -0.183052
0.157430 0.602658 -0.182399
0.160581 0.602868 -0.182524
0.163721 0.603000 -0.182631
0.167276 0.604541 -0.183089
0.170360 0.604376 -0.183125
0.175764 0.612013 -0.185102
0.178965 0.612041 -0.185189
0.181169 0.608780 -0.184459
0.183626 0.606399 -0.183948
0.185900 0.603482 -0.183305
0.188990 0.603151 -0.183306
0.192271 0.603373 -0.183447
0.196160 0.605374 -0.184034
0.199489 0.605617 -0.184183
0.202266 0.604201 -0.183919
0.207639 0.610225 -0.185518
0.210707 0.609520 -0.185435
0.214392 0.610504 -0.185777
0.217474 0.609762 -0.185688
0.220335 0.608402 -0.185446
0.223412 0.607609 -0.185347
0.226108 0.605796 -0.184993
0.231893 0.611964 -0.186645
0.235493 0.612348 -0.186847
0.234941 0.602255 -0.184415
0.238051 0.601458 -0.184321
0.241315 0.601014 -0.184318
0.244525 0.600406 -0.184274
0.250593 0.606553 -0.185936
0.254708 0.607918 -0.186395
0.257932 0.607141 -0.186314
0.260066 0.603856 -0.185600
0.264251 0.605231 -0.186065
0.267355 0.604127 -0.185904
0.271651 0.605627 -0.186404
0.275011 0.605024 -0.186372
0.276690 0.600813 -0.185425
0.280713 0.601617 -0.185751
0.284261 0.601383 -0.185813
0.288019 0.601560 -0.185981
0.296500 0.611300 -0.188583
0.297097 0.604970 -0.187095
0.297766 0.598921 -0.185674
0.302858 0.601667 -0.186496
0.306193 0.600942 -0.186431
0.310131 0.601389 -0.186664
0.314059 0.601811 -0.186889
0.317690 0.601680 -0.186971
0.321774 0.602405 -0.187269
0.326395 0.604122 -0.187819
0.328441 0.601176 -0.187171
0.330782 0.598857 -0.186679
0.335759 0.601293 -0.187404
0.342791 0.607324 -0.189049
0.341589 0.599020 -0.187005
0.342437 0.594459 -0.185917
-0.364302 0.596118 -0.178627
-0.363237 0.600106 -0.179631
-0.359880 0.600312 -0.179705
-0.357186 0.601738 -0.180074
-0.353419 0.601375 -0.180001
-0.350747 0.602996 -0.180410
-0.347776 0.604167 -0.180704
-0.344108 0.604145 -0.180704
-0.340618 0.604484 -0.180789
-0.337081 0.604775 -0.180859
-0.333137 0.604334 -0.180748
-0.329830 0.605106 -0.180931
-0.326462 0.605789 -0.181090
-0.322703 0.605736 -0.181068
-0.319379 0.606534 -0.181252
-0.316328 0.607885 -0.181570
-0.312261 0.607219 -0.181395
-0.308153 0.606441 -0.181191
-0.304841 0.607257 -0.181376
-0.301446 0.607895 -0.181518
-0.297615 0.607604 -0.181433
-0.293064 0.605738 -0.180962
-0.289755 0.606475 -0.181128
-0.286467 0.607240 -0.181302
-0.282849 0.607254 -0.181292
-0.279363 0.607525 -0.181346
-0.276225 0.608554 -0.181586
-0.272688 0.608645 -0.181597
-0.268759 0.607777 -0.181375
-0.265285 0.607916 -0.181400
-0.261385 0.606991 -0.181166
-0.257966 0.607164 -0.181202
-0.254445 0.607044 -0.181166
-0.251463 0.608224 -0.181450
-0.247771 0.607584 -0.181290
-0.244346 0.607567 -0.181284
-0.240291 0.605852 -0.180863
-0.237329 0.606943 -0.181130
-0.234291 0.607813 -0.181343
-0.230897 0.607691 -0.181316
-0.226750 0.605424 -0.180765
-0.224300 0.607831 -0.181358
-0.221052 0.607980 -0.181400
-0.216558 0.604467 -0.180549
-0.213469 0.604948 -0.180675
-0.211362 0.608351 -0.181515
-0.207607 0.606791 -0.181144
-0.204482 0.607094 -0.181230
-0.201365 0.607389 -0.181314
-0.198100 0.607183 -0.181278
-0.195156 0.607972 -0.181485
-0.192040 0.608182 -0.181552
-0.189043 0.608760 -0.181710
-0.185713 0.608177 -0.181585
-0.182356 0.607444 -0.181424
-0.179134 0.607130 -0.181367
-0.176283 0.608111 -0.181627
-0.172951 0.607319 -0.181455
-0.169930 0.607630 -0.181553
-0.167099 0.608653 -0.181827
-0.163875 0.608145 -0.181726
-0.160835 0.608320 -0.181794
-0.157623 0.607769 -0.181684
-0.154548 0.607736 -0.181703
-0.151590 0.608171 -0.181836
-0.148695 0.608862 -0.182033
-0.145748 0.609332 -0.182177
-0.142723 0.609439 -0.182233
-0.139325 0.607796 -0.181860
-0.136536 0.608937 -0.182170
-0.133645 0.609611 -0.182367
-0.130644 0.609750 -0.182433
-0.127606 0.609679 -0.182448
-0.124388 0.608640 -0.182226
-0.121235 0.607875 -0.182072
-0.118287 0.608176 -0.182180
-0.115490 0.609325 -0.182496
-0.112680 0.610440 -0.182806
-0.109516 0.609479 -0.182605
-0.106497 0.609336 -0.182606
-0.103484 0.609203 -0.182611
-0.100470 0.609034 -0.182606
-0.097410 0.608528 -0.182519
-0.094436 0.608566 -0.182567
-0.091499 0.608861 -0.182678
-0.088624 0.609628 -0.182905
-0.085563 0.608979 -0.182785
-0.082560 0.608741 -0.182766
-0.079605 0.608866 -0.182836
-0.076733 0.609724 -0.183088
-0.073764 0.609747 -0.183134
-0.070728 0.609104 -0.183017
-0.067839 0.609883 -0.183250
-0.064822 0.609359 -0.183162
-0.061789 0.608590 -0.183014
-0.058866 0.609015 -0.183161
-0.055893 0.608856 -0.183165
-0.052872 0.608018 -0.183000
-0.050007 0.609281 -0.183355
-0.047118 0.610358 -0.183664
-0.044181 0.610798 -0.183816
-0.041151 0.609621 -0.183569
-0.038122 0.608222 -0.183267
-0.035177 0.608362 -0.183346
-0.032465 0.614184 -0.184830
-0.029513 0.614933 -0.185060
-0.026415 0.611250 -0.184194
-0.023420 0.610101 -0.183954
-0.020550 0.614146 -0.185001
-0.017603 0.615965 -0.185497
-0.014608 0.615266 -0.185370
-0.011632 0.616193 -0.185646
-0.008647 0.616842 -0.185854
-0.005672 0.609531 -0.184087
-0.002715 0.609798 -0.184199
0.000234 0.609164 -0.184088
0.003176 0.608405 -0.183947
0.006124 0.608304 -0.183968
0.009138 0.610727 -0.184617
0.012119 0.611332 -0.184815
0.015048 0.610305 -0.184608
0.017998 0.610050 -0.184592
0.021033 0.611694 -0.185049
0.024068 0.613004 -0.185423
0.027158 0.615076 -0.185988
0.030216 0.616274 -0.186335
0.033120 0.614900 -0.186043
0.035785 0.610260 -0.184936
0.038609 0.608350 -0.184510
0.041520 0.607765 -0.184414
0.044459 0.607564 -0.184414
0.047374 0.607103 -0.184349
0.050625 0.610266 -0.185189
0.053598 0.610284 -0.185244
0.057002 0.614450 -0.186336
0.060329 0.617515 -0.187154
0.062962 0.614168 -0.186370
0.065254 0.608192 -0.184929
0.068313 0.608914 -0.185163
0.071106 0.607487 -0.184859
0.074212 0.608512 -0.185169
0.077108 0.607913 -0.185074
0.080067 0.607787 -0.185097
0.083090 0.608080 -0.185225
0.086618 0.611667 -0.186180
0.089128 0.608517 -0.185446
0.092016 0.607878 -0.185343
0.095266 0.609426 -0.185788
0.098502 0.610792 -0.186189
0.101574 0.611124 -0.186331
0.104724 0.611855 -0.186574
0.107806 0.612153 -0.186709
0.110698 0.611422 -0.186586
0.112913 0.607249 -0.185599
0.115590 0.605561 -0.185236
0.118592 0.605507 -0.185285
0.121683 0.605851 -0.185435
0.124733 0.605964 -0.185527
0.127676 0.605565 -0.185492
0.132140 0.611900 -0.187154
0.134844 0.610296 -0.186817
0.138300 0.611930 -0.187297
0.142810 0.617844 -0.188859
0.145235 0.615000 -0.188212
0.147289 0.610762 -0.187213
0.149813 0.608494 -0.186712
0.153103 0.609225 -0.186970
0.155214 0.605458 -0.186091
0.157659 0.603029 -0.185551
0.160797 0.603172 -0.185663
0.164073 0.603767 -0.185891
0.167294 0.604116 -0.186057
0.170631 0.604812 -0.186313
0.175255 0.609792 -0.187658
0.178579 0.610251 -0.187857
0.181139 0.608169 -0.187413
0.183709 0.606151 -0.186985
0.186017 0.603333 -0.186355
0.189185 0.603233 -0.186418
0.192781 0.604401 -0.186804
0.196277 0.605192 -0.187096
0.199185 0.604180 -0.186931
0.202975 0.605721 -0.187418
0.206035 0.605081 -0.187350
0.210659 0.608829 -0.188405
0.213605 0.607756 -0.188230
0.216305 0.605999 -0.187882
0.219796 0.606380 -0.188082
0.223101 0.606211 -0.188143
0.226530 0.606325 -0.188278
0.230394 0.607514 -0.188690
0.233564 0.606854 -0.188631
0.235300 0.602573 -0.187643
0.238539 0.602080 -0.187628
0.241612 0.601151 -0.187503
0.245171 0.601369 -0.187675
0.250535 0.605817 -0.188937
0.254304 0.606368 -0.189198
0.258270 0.607313 -0.189563
0.263066 0.610082 -0.190400
0.265873 0.608265 -0.190055
0.267987 0.604919 -0.189315
0.270438 0.602355 -0.188778
0.275914 0.606358 -0.189941
0.277772 0.602508 -0.189071
0.280908 0.601412 -0.188915
0.284919 0.602137 -0.189231
0.287969 0.600842 -0.189023
0.295029 0.607690 -0.190932
0.297942 0.606045 -0.190633
0.302972 0.608614 -0.191431
0.303039 0.601408 -0.189682
0.306793 0.601491 -0.189829
0.310136 0.600788 -0.189770
0.314386 0.601821 -0.190162
0.318109 0.601860 -0.190293
0.321673 0.601621 -0.190348
0.327789 0.606069 -0.191627
0.332025 0.607058 -0.191998
0.334847 0.605537 -0.191708
0.337417 0.603645 -0.191316
0.339595 0.601159 -0.190762
0.341621 0.598513 -0.190161
0.349772 0.606479 -0.192342
-0.368925 0.603181 -0.183660
-0.363601 0.600004 -0.182893
-0.360746 0.601068 -0.183181
-0.358064 0.602517 -0.183561
-0.353935 0.601529 -0.183327
-0.350802 0.602334 -0.183537
-0.347801 0.603441 -0.183819
-0.344634 0.604318 -0.184039
-0.341176 0.604718 -0.184137
-0.337655 0.605043 -0.184212
-0.334458 0.606003 -0.184444
-0.330136 0.604880 -0.184152
-0.326546 0.605140 -0.184204
-0.323149 0.605783 -0.184350
-0.319973 0.606876 -0.184607
-0.316273 0.606950 -0.184608
-0.312420 0.606711 -0.184529
-0.308474 0.606262 -0.184397
-0.305197 0.607155 -0.184601
-0.301905 0.608015 -0.184795
-0.298269 0.608146 -0.184808
-0.293330 0.605470 -0.184119
-0.289691 0.605500 -0.184107
-0.286413 0.606284 -0.184283
-0.283204 0.607204 -0.184494
-0.279742 0.607538 -0.184559
-0.276268 0.607813 -0.184611
-0.272903 0.608303 -0.184716
-0.269290 0.608180 -0.184670
-0.265288 0.607088 -0.184383
-0.262187 0.608084 -0.184618
-0.257981 0.606367 -0.184178
-0.254824 0.607146 -0.184361
-0.251547 0.607601 -0.184465
-0.248197 0.607834 -0.184514
-0.244628 0.607463 -0.184415
-0.240988 0.606847 -0.184255
-0.237553 0.606709 -0.184216
-0.234532 0.607635 -0.184444
-0.230161 0.604852 -0.183748
-0.227314 0.606166 -0.184075
-0.224149 0.606579 -0.184178
-0.221364 0.608049 -0.184547
-0.217102 0.605228 -0.183846
-0.214793 0.608035 -0.184551
-0.211383 0.607589 -0.184445
-0.207807 0.606581 -0.184200
-0.204799 0.607256 -0.184377
-0.201610 0.607342 -0.184407
-0.198364 0.607207 -0.184384
-0.195449 0.608107 -0.184620
-0.192442 0.608690 -0.184778
-0.189096 0.608117 -0.184649
-0.185575 0.606884 -0.184356
-0.182522 0.607203 -0.184452
-0.179599 0.607961 -0.184658
-0.176361 0.607570 -0.184578
-0.173173 0.607314 -0.184533
-0.170063 0.607308 -0.184552
-0.167103 0.607845 -0.184707
-0.164231 0.608712 -0.184945
-0.161111 0.608593 -0.184938
-0.157685 0.607194 -0.184612
-0.154647 0.607317 -0.184667
-0.151874 0.608540 -0.184998
-0.148865 0.608766 -0.185080
-0.145963 0.609443 -0.185277
-0.142694 0.608468 -0.185060
-0.139554 0.608017 -0.184976
-0.136647 0.608617 -0.185155
-0.133749 0.609267 -0.185348
-0.130705 0.609202 -0.185362
-0.127491 0.608240 -0.185152
-0.124353 0.607600 -0.185024
-0.121384 0.607812 -0.185109
-0.118405 0.607959 -0.185179
-0.115625 0.609211 -0.185526
-0.112777 0.610125 -0.185790
-0.109783 0.610191 -0.185841
-0.106650 0.609390 -0.185676
-0.103586 0.608955 -0.185602
-0.100549 0.608649 -0.185562
-0.097614 0.608993 -0.185685
-0.094541 0.608381 -0.185569
-0.091628 0.608868 -0.185729
-0.088621 0.608660 -0.185715
-0.085616 0.608442 -0.185698
-0.082683 0.608770 -0.185820
-0.079714 0.608803 -0.185867
-0.076761 0.608971 -0.185949
-0.073816 0.609204 -0.186048
-0.070746 0.608251 -0.185849
-0.067949 0.609941 -0.186314
-0.064973 0.609879 -0.186340
-0.061998 0.609825 -0.186368
-0.059048 0.610033 -0.186462
-0.056062 0.609812 -0.186449
-0.052941 0.607745 -0.185970
-0.050037 0.608477 -0.186197
-0.047140 0.609407 -0.186475
-0.044209 0.609910 -0.186644
-0.041234 0.609702 -0.186636
-0.038231 0.608889 -0.186474
-0.035229 0.607913 -0.186272
-0.032537 0.614236 -0.187911
-0.029639 0.616545 -0.188539
-0.026531 0.612900 -0.187664
-0.023498 0.610738 -0.187163
-0.020611 0.614281 -0.188103
-0.017663 0.616181 -0.188629
-0.014684 0.617134 -0.188916
-0.011694 0.617760 -0.189120
-0.008698 0.618189 -0.189276
-0.005714 0.610318 -0.187331
-0.002755 0.609897 -0.187271
0.000198 0.609313 -0.187170
0.003145 0.608693 -0.187060
0.006091 0.608298 -0.187006
0.009107 0.610684 -0.187658
0.012121 0.612260 -0.188105
0.015024 0.610323 -0.187662
0.017968 0.609836 -0.187587
0.021040 0.612242 -0.188245
0.024146 0.614869 -0.188961
0.027166 0.615454 -0.189159
0.030190 0.615990 -0.189344
0.033057 0.614028 -0.188896
0.035764 0.610023 -0.187928
0.038606 0.608330 -0.187548
0.041550 0.608118 -0.187544
0.044504 0.608047 -0.187576
0.047367 0.606945 -0.187347
0.050439 0.608170 -0.187710
0.053603 0.610196 -0.188277
0.056519 0.609618 -0.188182
0.060193 0.616083 -0.189881
0.063052 0.614763 -0.189598
0.065179 0.607337 -0.187759
0.068096 0.606919 -0.187705
0.071223 0.608154 -0.188075
0.074100 0.607402 -0.187937
0.077090 0.607506 -0.188019
0.080094 0.607687 -0.188120
0.082978 0.607017 -0.188005
0.086893 0.613167 -0.189633
0.089701 0.611849 -0.189354
0.093444 0.616374 -0.190569
0.095677 0.611553 -0.189395
0.098423 0.609980 -0.189052
0.101422 0.609904 -0.189092
0.104693 0.611313 -0.189514
0.107776 0.611616 -0.189653
0.110753 0.611322 -0.189640
0.112945 0.607022 -0.188600
0.115661 0.605514 -0.188276
0.118533 0.604811 -0.188160
0.121694 0.605488 -0.188398
0.124694 0.605363 -0.188432
0.128084 0.606985 -0.188915
0.131853 0.610190 -0.189807
0.135214 0.611461 -0.190203
0.138545 0.612518 -0.190545
0.142801 0.617350 -0.191860
0.145123 0.614084 -0.191092
0.147517 0.611202 -0.190423
0.150469 0.610590 -0.190340
0.153841 0.611576 -0.190669
0.156061 0.608163 -0.189866
0.157797 0.603058 -0.188626
0.160956 0.603261 -0.188756
0.164201 0.603732 -0.188958
0.167611 0.604721 -0.189294
0.171236 0.606383 -0.189807
0.175274 0.609340 -0.190656
0.178447 0.609296 -0.190731
0.181274 0.608086 -0.190505
0.183633 0.605380 -0.189892
0.186029 0.602842 -0.189323
0.189394 0.603348 -0.189546
0.193080 0.604773 -0.190009
0.196040 0.603936 -0.189886
0.199225 0.603748 -0.189933
0.202484 0.603740 -0.190029
0.208142 0.610550 -0.191901
0.210753 0.608524 -0.191476
0.213336 0.606440 -0.191036
0.216045 0.604716 -0.190692
0.219676 0.605481 -0.190998
0.224621 0.609663 -0.192199
0.227644 0.608652 -0.192046
0.230609 0.607475 -0.191852
0.233501 0.606099 -0.191606
0.235408 0.602248 -0.190714
0.238971 0.602548 -0.190910
0.242428 0.602537 -0.191026
0.245886 0.602482 -0.191132
0.249296 0.602268 -0.191199
0.252888 0.602443 -0.191369
0.256392 0.602364 -0.191474
0.259507 0.601360 -0.191337
0.262913 0.600994 -0.191369
0.266028 0.599952 -0.191224
0.269594 0.599885 -0.191337
0.273455 0.600422 -0.191611
0.279123 0.604758 -0.192890
0.281676 0.602402 -0.192401
0.284890 0.601447 -0.192283
0.288317 0.600927 -0.192280
0.296587 0.610213 -0.194878
0.299491 0.608514 -0.194563
0.300596 0.603283 -0.193308
0.303622 0.601921 -0.193079
0.307326 0.601897 -0.193204
0.311152 0.602109 -0.193391
0.314757 0.601906 -0.193464
0.318669 0.602290 -0.193692
0.321805 0.601255 -0.193539
0.327691 0.605282 -0.194734
0.331242 0.605042 -0.194786
0.335227 0.605619 -0.195052
0.337471 0.603155 -0.194500
0.338608 0.598857 -0.193450
0.341568 0.597854 -0.193277
0.344531 0.596938 -0.193122
-0.365520 0.596751 -0.185331
-0.363924 0.599830 -0.186143
-0.361675 0.601922 -0.186698
-0.357603 0.600974 -0.186471
-0.354276 0.601369 -0.186582
-0.350810 0.601583 -0.186642
-0.347771 0.602613 -0.186907
-0.344768 0.603774 -0.187201
-0.341880 0.605209 -0.187561
-0.338611 0.606003 -0.187754
-0.334381 0.605051 -0.187497
-0.329820 0.603471 -0.187078
-0.326910 0.605015 -0.187454
-0.323589 0.605808 -0.187636
-0.319821 0.605748 -0.187599
-0.315951 0.605480 -0.187507
-0.312403 0.605839 -0.187574
-0.308767 0.606014 -0.187593
-0.305785 0.607516 -0.187951
-0.302291 0.607970 -0.188040
-0.298101 0.606944 -0.187752
-0.295122 0.608440 -0.188108
-0.291205 0.607917 -0.187949
-0.286841 0.606370 -0.187528
-0.283174 0.606286 -0.187482
-0.279961 0.607177 -0.187686
-0.276596 0.607708 -0.187798
-0.273075 0.607846 -0.187811
-0.269116 0.606923 -0.187555
-0.265788 0.607422 -0.187662
-0.261981 0.606739 -0.187469
-0.259421 0.609024 -0.188034
-0.254881 0.606440 -0.187360
-0.251595 0.606874 -0.187455
-0.248265 0.607162 -0.187515
-0.244728 0.606876 -0.187430
-0.241045 0.606154 -0.187236
-0.237719 0.606307 -0.187266
-0.234401 0.606441 -0.187292
-0.231530 0.607753 -0.187619
-0.227627 0.606198 -0.187219
-0.224650 0.607154 -0.187458
-0.221643 0.608008 -0.187673
-0.217997 0.606991 -0.187414
-0.214860 0.607399 -0.187518
-0.211864 0.608196 -0.187723
-0.208344 0.607385 -0.187520
-0.205157 0.607532 -0.187562
-0.202156 0.608225 -0.187744
-0.198752 0.607617 -0.187597
-0.195534 0.607549 -0.187588
-0.192310 0.607422 -0.187565
-0.188982 0.606902 -0.187444
-0.185682 0.606422 -0.187333
-0.182525 0.606386 -0.187337
-0.179640 0.607276 -0.187578
-0.176691 0.607932 -0.187761
-0.173738 0.608566 -0.187939
-0.170372 0.607638 -0.187720
-0.167395 0.608129 -0.187864
-0.164311 0.608186 -0.187898
-0.161080 0.607634 -0.187778
-0.158071 0.607928 -0.187874
-0.155153 0.608579 -0.188062
-0.151980 0.608152 -0.187977
-0.149069 0.608805 -0.188168
-0.145993 0.608734 -0.188175
-0.142967 0.608855 -0.188232
-0.139769 0.608162 -0.188082
-0.136754 0.608275 -0.188138
-0.133690 0.608128 -0.188129
-0.130887 0.609246 -0.188444
-0.128018 0.610057 -0.188680
-0.124874 0.609456 -0.188558
-0.121570 0.607940 -0.188202
-0.118557 0.607917 -0.188228
-0.115677 0.608627 -0.188442
-0.112822 0.609501 -0.188698
-0.109802 0.609413 -0.188709
-0.106722 0.608936 -0.188622
-0.103650 0.608457 -0.188534
-0.100719 0.608850 -0.188670
-0.097773 0.609152 -0.188784
-0.094747 0.608893 -0.188754
-0.091661 0.608167 -0.188605
-0.088748 0.608665 -0.188770
-0.085778 0.608742 -0.188827
-0.082804 0.608778 -0.188875
-0.079833 0.608823 -0.188925
-0.076833 0.608600 -0.188907
-0.073923 0.609171 -0.189093
-0.070965 0.609316 -0.189170
-0.067901 0.608394 -0.188974
-0.065088 0.610026 -0.189434
-0.062108 0.609950 -0.189455
-0.059138 0.609962 -0.189500
-0.056159 0.609868 -0.189517
-0.053154 0.609380 -0.189434
-0.050088 0.607969 -0.189114
-0.047187 0.608835 -0.189379
-0.044246 0.609177 -0.189510
-0.041270 0.608947 -0.189494
-0.038297 0.608714 -0.189478
-0.035383 0.609689 -0.189772
-0.032599 0.614025 -0.190932
-0.029706 0.616537 -0.191623
-0.026677 0.615465 -0.191392
-0.023600 0.612272 -0.190615
-0.020595 0.610867 -0.190298
-0.017704 0.615350 -0.191499
-0.014728 0.616343 -0.191801
-0.011726 0.615292 -0.191576
-0.008733 0.613767 -0.191229
-0.005758 0.610313 -0.190385
-0.002800 0.609333 -0.190178
0.000162 0.609492 -0.190266
0.003104 0.608328 -0.190013
0.006048 0.607763 -0.189914
0.009136 0.612924 -0.191294
0.012057 0.611082 -0.190866
0.014967 0.609402 -0.190480
0.017934 0.609495 -0.190553
0.020984 0.611412 -0.191097
0.024173 0.615704 -0.192257
0.027176 0.615865 -0.192348
0.030124 0.615054 -0.192188
0.033045 0.613945 -0.191951
0.035694 0.609058 -0.190735
0.038558 0.607691 -0.190431
0.041573 0.608387 -0.190662
0.044491 0.607828 -0.190568
0.047416 0.607402 -0.190509
0.050386 0.607478 -0.190580
0.053440 0.608392 -0.190869
0.056343 0.607747 -0.190754
0.059799 0.612251 -0.191977
0.062640 0.610912 -0.191683
0.065012 0.605699 -0.190382
0.068052 0.606319 -0.190597
0.071045 0.606505 -0.190700
0.074063 0.606856 -0.190847
0.077114 0.607401 -0.191044
0.080161 0.607860 -0.191220
0.083194 0.608184 -0.191362
0.086962 0.613297 -0.192751
0.090111 0.614133 -0.193028
0.092939 0.612914 -0.192770
0.095953 0.612857 -0.192815
0.098251 0.608615 -0.191768
0.101085 0.607626 -0.191571
0.104325 0.608902 -0.191966
0.107439 0.609419 -0.192164
0.110421 0.609193 -0.192168
0.113170 0.607771 -0.191860
0.115634 0.604972 -0.191193
0.118520 0.604339 -0.191093
0.121579 0.604526 -0.191208
0.124860 0.605705 -0.191584
0.128553 0.608677 -0.192431
0.131047 0.606177 -0.191845
0.133978 0.605654 -0.191779
0.137130 0.606065 -0.191958
0.140102 0.605680 -0.191930
0.143157 0.605616 -0.191987
0.146493 0.606650 -0.192333
0.148818 0.603660 -0.191623
0.152120 0.604497 -0.191921
0.155151 0.604254 -0.191935
0.158185 0.603996 -0.191947
0.161297 0.603996 -0.192028
0.164511 0.604328 -0.192198
0.167870 0.605118 -0.192490
0.171696 0.607441 -0.193188
0.175849 0.610752 -0.194149
0.178896 0.610251 -0.194106
0.181681 0.608876 -0.193834
0.184643 0.608075 -0.193714
0.186046 0.602355 -0.192295
0.189591 0.603411 -0.192669
0.192777 0.603299 -0.192736
0.195988 0.603227 -0.192815
0.199624 0.604365 -0.193217
0.202604 0.603524 -0.193095
0.208227 0.610217 -0.194976
0.211584 0.610287 -0.195101
0.213544 0.606435 -0.194186
0.215161 0.601717 -0.193040
0.217788 0.599811 -0.192644
0.221154 0.599874 -0.192773
0.225453 0.602329 -0.193542
0.229129 0.603061 -0.193854
0.232349 0.602570 -0.193841
0.237988 0.608097 -0.195439
0.242093 0.609641 -0.195975
0.246389 0.611558 -0.196614
0.248976 0.609278 -0.196132
0.249316 0.601694 -0.194229
0.252703 0.601385 -0.194276
0.256184 0.601257 -0.194373
0.259571 0.600875 -0.194404
0.262920 0.600378 -0.194404
0.266965 0.601392 -0.194813
0.270558 0.601357 -0.194941
0.273770 0.600463 -0.194838
0.279244 0.604373 -0.196032
0.282151 0.602757 -0.195736
0.285369 0.601799 -0.195618
0.289053 0.601795 -0.195758
0.296227 0.608835 -0.197804
0.299295 0.607474 -0.197577
0.300349 0.602156 -0.196276
0.303237 0.600534 -0.195975
0.308458 0.603449 -0.196903
0.311615 0.602361 -0.196743
0.315500 0.602679 -0.196963
0.319121 0.602511 -0.197048
0.322458 0.601843 -0.196993
0.327190 0.603756 -0.197638
0.330937 0.603885 -0.197794
0.334989 0.604595 -0.198103
0.337159 0.602013 -0.197508
0.339706 0.600193 -0.197116
0.342296 0.598543 -0.196763
0.345943 0.598793 -0.196924
-0.365809 0.596525 -0.188557
-0.364600 0.600249 -0.189553
-0.361927 0.601615 -0.189928
-0.357923 0.600777 -0.189723
-0.354323 0.600691 -0.189708
-0.351189 0.601480 -0.189917
-0.347718 0.601737 -0.189981
-0.345170 0.603707 -0.190489
-0.341877 0.604401 -0.190659
-0.338241 0.604511 -0.190673
-0.334250 0.603990 -0.190520
-0.330689 0.604284 -0.190576
-0.327126 0.604596 -0.190634
-0.324376 0.606488 -0.191102
-0.319947 0.605152 -0.190726
-0.316372 0.605466 -0.190778
-0.313294 0.606770 -0.191088
-0.309709 0.607067 -0.191134
-0.305625 0.606332 -0.190911
-0.302147 0.606809 -0.191003
-0.298914 0.607790 -0.191226
-0.294737 0.606757 -0.190925
-0.291704 0.608129 -0.191251
-0.288008 0.608054 -0.191200
-0.284659 0.608706 -0.191338
-0.280306 0.607087 -0.190888
-0.276916 0.607567 -0.190983
-0.273223 0.607323 -0.190892
-0.269334 0.606568 -0.190669
-0.266360 0.607912 -0.190993
-0.262944 0.608186 -0.191040
-0.259389 0.608084 -0.190991
-0.256249 0.608952 -0.191195
-0.251728 0.606350 -0.190499
-0.248369 0.606569 -0.190537
-0.244732 0.606030 -0.190381
-0.241563 0.606652 -0.190527
-0.238030 0.606278 -0.190416
-0.235177 0.607674 -0.190766
-0.231298 0.606268 -0.190390
-0.228068 0.606569 -0.190459
-0.224910 0.607036 -0.190573
-0.221771 0.607526 -0.190694
-0.218642 0.608013 -0.190815
-0.215171 0.607468 -0.190670
-0.211910 0.607489 -0.190674
-0.208480 0.606954 -0.190535
-0.205432 0.607536 -0.190687
-0.202338 0.607953 -0.190798
-0.199187 0.608164 -0.190857
-0.195190 0.605593 -0.190194
-0.192441 0.607015 -0.190570
-0.189236 0.606916 -0.190552
-0.185942 0.606472 -0.190446
-0.182671 0.606056 -0.190349
-0.179828 0.607104 -0.190632
-0.176930 0.607953 -0.190866
-0.173741 0.607734 -0.190823
-0.170660 0.607874 -0.190874
-0.167499 0.607684 -0.190841
-0.164439 0.607845 -0.190901
-0.161232 0.607395 -0.190802
-0.158324 0.608108 -0.191007
-0.155335 0.608485 -0.191125
-0.152186 0.608173 -0.191066
-0.149097 0.608076 -0.191063
-0.146140 0.608528 -0.191204
-0.142953 0.607940 -0.191075
-0.139871 0.607776 -0.191058
-0.136863 0.607927 -0.191123
-0.133892 0.608241 -0.191232
-0.131085 0.609359 -0.191550
-0.128167 0.609940 -0.191730
-0.125095 0.609730 -0.191705
-0.121928 0.608974 -0.191538
-0.118818 0.608469 -0.191437
-0.115782 0.608331 -0.191433
-0.112840 0.608709 -0.191563
-0.109981 0.609584 -0.191824
-0.106696 0.607872 -0.191411
-0.103813 0.608578 -0.191629
-0.100867 0.608902 -0.191748
-0.097856 0.608783 -0.191752
-0.094748 0.607967 -0.191575
-0.091838 0.608499 -0.191750
-0.088893 0.608800 -0.191865
-0.085893 0.608672 -0.191869
-0.082904 0.608603 -0.191889
-0.079924 0.608596 -0.191925
-0.077015 0.609189 -0.192119
-0.074019 0.609021 -0.192114
-0.071088 0.609452 -0.192266
-0.068094 0.609276 -0.192260
-0.065143 0.609520 -0.192364
-0.062168 0.609502 -0.192400
-0.059163 0.609120 -0.192341
-0.056214 0.609383 -0.192451
-0.053210 0.608931 -0.192375
-0.050228 0.608711 -0.192359
-0.047275 0.608894 -0.192450
-0.044331 0.609232 -0.192581
-0.041326 0.608530 -0.192440
-0.038362 0.608506 -0.192477
-0.035431 0.609157 -0.192691
-0.032737 0.615661 -0.194441
-0.029796 0.617146 -0.194875
-0.026754 0.615847 -0.194579
-0.023657 0.612078 -0.193635
-0.020576 0.607390 -0.192449
-0.017616 0.606995 -0.192391
-0.014653 0.606088 -0.192198
-0.011699 0.605241 -0.192021
-0.008760 0.606573 -0.192417
-0.005802 0.610795 -0.193573
-0.002815 0.613278 -0.194273
0.000161 0.612674 -0.194161
0.003119 0.611389 -0.193870
0.006114 0.612398 -0.194183
0.008993 0.608609 -0.193233
0.011903 0.606962 -0.192847
0.014821 0.605974 -0.192635
0.017756 0.605630 -0.192593
0.020776 0.607233 -0.193064
0.023743 0.607455 -0.193171
0.026714 0.607695 -0.193284
0.029611 0.606645 -0.193056
0.032716 0.608956 -0.193716
0.035617 0.608004 -0.193515
0.038522 0.607211 -0.193357
0.041462 0.606954 -0.193339
0.044493 0.607784 -0.193610
0.047414 0.607280 -0.193529
0.050416 0.607676 -0.193686
0.053391 0.607750 -0.193758
0.056851 0.612485 -0.195064
0.059565 0.609899 -0.194433
0.062473 0.609228 -0.194310
0.065284 0.607779 -0.193981
0.068075 0.606259 -0.193633
0.071138 0.606978 -0.193879
0.074134 0.607118 -0.193972
0.077100 0.607009 -0.194000
0.080135 0.607380 -0.194155
0.083299 0.608585 -0.194533
0.086665 0.611021 -0.195238
0.089739 0.611424 -0.195405
0.092924 0.612469 -0.195743
0.095943 0.612443 -0.195797
0.098585 0.610196 -0.195261
0.100664 0.604865 -0.193906
0.103872 0.606025 -0.194277
0.106837 0.605796 -0.194280
0.109902 0.606083 -0.194420
0.112784 0.605397 -0.194303
0.117205 0.612370 -0.196228
0.120279 0.612450 -0.196317
0.122976 0.610713 -0.195922
0.126013 0.610607 -0.195964
0.128016 0.605802 -0.194752
0.130581 0.603667 -0.194252
0.133832 0.604570 -0.194566
0.136777 0.604107 -0.194515
0.139777 0.603860 -0.194524
0.143050 0.604708 -0.194826
0.145968 0.604079 -0.194735
0.148683 0.602649 -0.194430
0.151678 0.602316 -0.194420
0.155112 0.603609 -0.194848
0.158674 0.605295 -0.195382
0.162014 0.606081 -0.195677
0.164951 0.605376 -0.195573
0.167905 0.604720 -0.195484
0.172220 0.608709 -0.196645
0.176257 0.611588 -0.197510
0.179298 0.611040 -0.197455
0.182197 0.610009 -0.197271
0.184861 0.608223 -0.196886
0.186608 0.603573 -0.195730
0.189593 0.602861 -0.195636
0.193114 0.603764 -0.195979
0.196535 0.604297 -0.196225
0.198841 0.601487 -0.195570
0.201552 0.599897 -0.195245
0.208337 0.609945 -0.198072
0.211954 0.610735 -0.198396
0.214054 0.607256 -0.197567
0.215241 0.601342 -0.196077
0.218064 0.599958 -0.195817
0.221135 0.599225 -0.195735
0.225739 0.602467 -0.196735
0.229618 0.603705 -0.197194
0.232776 0.603036 -0.197136
0.238214 0.608035 -0.198624
0.242649 0.610378 -0.199391
0.246276 0.610646 -0.199596
0.247952 0.606183 -0.198511
0.249305 0.601033 -0.197239
0.253017 0.601480 -0.197496
0.256443 0.601212 -0.197560
0.259862 0.600894 -0.197612
0.264158 0.602507 -0.198195
0.267822 0.602639 -0.198373
0.270942 0.601544 -0.198216
0.275660 0.603883 -0.199003
0.279031 0.603265 -0.198979
0.283066 0.604025 -0.199335
0.286122 0.602707 -0.199119
0.290639 0.604390 -0.199730
0.295464 0.606633 -0.200496
0.298644 0.605517 -0.200336
0.300583 0.601967 -0.199500
0.303664 0.600721 -0.199300
0.308227 0.602357 -0.199895
0.312625 0.603644 -0.200393
0.316046 0.603068 -0.200372
0.318998 0.601649 -0.200113
0.322199 0.600742 -0.199993
0.326208 0.601348 -0.200289
0.331531 0.604340 -0.201246
0.333484 0.601307 -0.200520
0.337587 0.602170 -0.200874
0.339662 0.599531 -0.200246
0.342103 0.597633 -0.199818
0.344312 0.595439 -0.199300
-0.370549 0.603749 -0.193772
-0.365460 0.600972 -0.193056
-0.362087 0.601145 -0.193119
-0.359165 0.602166 -0.193402
-0.354963 0.601040 -0.193108
-0.351840 0.601849 -0.193323
-0.348958 0.603156 -0.193666
-0.345197 0.602955 -0.193602
-0.341632 0.603146 -0.193638
-0.338081 0.603399 -0.193687
-0.335021 0.604598 -0.193984
-0.331585 0.605136 -0.194101
-0.328204 0.605806 -0.194251
-0.324871 0.606592 -0.194430
-0.321245 0.606827 -0.194459
-0.316772 0.605398 -0.194044
-0.313573 0.606463 -0.194292
-0.309668 0.606117 -0.194163
-0.305115 0.604419 -0.193674
-0.302672 0.607026 -0.194329
-0.299283 0.607688 -0.194466
-0.294938 0.606308 -0.194062
-0.291808 0.607475 -0.194334
-0.288411 0.608052 -0.194450
-0.284554 0.607595 -0.194292
-0.280770 0.607247 -0.194164
-0.277504 0.608022 -0.194335
-0.273316 0.606659 -0.193939
-0.269924 0.607066 -0.194015
-0.266627 0.607665 -0.194143
-0.263452 0.608525 -0.194341
-0.259749 0.608082 -0.194196
-0.256276 0.608144 -0.194185
-0.252101 0.606409 -0.193701
-0.248725 0.606600 -0.193728
-0.245082 0.606063 -0.193563
-0.241833 0.606488 -0.193656
-0.238915 0.607752 -0.193972
-0.234817 0.605843 -0.193450
-0.231919 0.607096 -0.193766
-0.228445 0.606750 -0.193661
-0.225058 0.606589 -0.193607
-0.221911 0.607063 -0.193722
-0.218821 0.607672 -0.193874
-0.215713 0.608202 -0.194008
-0.211790 0.606273 -0.193491
-0.208645 0.606598 -0.193573
-0.205435 0.606691 -0.193596
-0.202360 0.607170 -0.193721
-0.199169 0.607252 -0.193744
-0.195989 0.607335 -0.193768
-0.193105 0.608355 -0.194041
-0.189924 0.608376 -0.194052
-0.186451 0.607361 -0.193789
-0.182992 0.606322 -0.193522
-0.180100 0.607217 -0.193768
-0.177158 0.607925 -0.193966
-0.173856 0.607304 -0.193813
-0.170700 0.607176 -0.193791
-0.167669 0.607481 -0.193886
-0.164636 0.607758 -0.193975
-0.161537 0.607754 -0.193990
-0.158450 0.607766 -0.194010
-0.155435 0.608043 -0.194103
-0.152274 0.607686 -0.194027
-0.149215 0.607727 -0.194059
-0.146084 0.607423 -0.194000
-0.143101 0.607742 -0.194107
-0.140100 0.607969 -0.194191
-0.137129 0.608319 -0.194308
-0.134129 0.608518 -0.194386
-0.131138 0.608749 -0.194474
-0.128252 0.609494 -0.194698
-0.125220 0.609499 -0.194728
-0.122037 0.608672 -0.194537
-0.118989 0.608523 -0.194527
-0.115965 0.608469 -0.194543
-0.113013 0.608817 -0.194666
-0.109928 0.608366 -0.194578
-0.106857 0.607948 -0.194499
-0.103872 0.608034 -0.194555
-0.100981 0.608719 -0.194771
-0.097950 0.608485 -0.194743
-0.094942 0.608382 -0.194750
-0.092013 0.608815 -0.194901
-0.089052 0.609025 -0.194993
-0.086006 0.608580 -0.194911
-0.083005 0.608439 -0.194910
-0.080077 0.608883 -0.195066
-0.077090 0.608831 -0.195091
-0.074091 0.608655 -0.195082
-0.071081 0.608341 -0.195038
-0.068171 0.608978 -0.195247
-0.065211 0.609148 -0.195332
-0.062254 0.609347 -0.195425
-0.059282 0.609381 -0.195475
-0.056227 0.608367 -0.195245
-0.053289 0.608761 -0.195392
-0.050285 0.608274 -0.195304
-0.047338 0.608551 -0.195420
-0.044396 0.608954 -0.195570
-0.041409 0.608603 -0.195519
-0.038422 0.608181 -0.195449
-0.035462 0.608243 -0.195509
-0.032869 0.617133 -0.197929
-0.029893 0.617927 -0.198186
-0.026846 0.616695 -0.197901
-0.023784 0.614494 -0.197358
-0.020682 0.609505 -0.196068
-0.017682 0.607611 -0.195607
-0.014717 0.607007 -0.195490
-0.011768 0.607702 -0.195722
-0.008809 0.607391 -0.195685
-0.005842 0.612846 -0.197192
-0.002851 0.614058 -0.197564
0.000122 0.612690 -0.197245
0.003097 0.612234 -0.197170
0.006150 0.615626 -0.198128
0.008967 0.608722 -0.196323
0.011901 0.607753 -0.196112
0.014857 0.607649 -0.196132
0.017789 0.606948 -0.195992
0.020730 0.606603 -0.195949
0.023766 0.608205 -0.196428
0.026687 0.607419 -0.196267
0.029748 0.609077 -0.196762
0.032705 0.608883 -0.196761
0.035644 0.608436 -0.196691
0.038499 0.606899 -0.196329
0.041451 0.606768 -0.196345
0.044434 0.607014 -0.196463
0.047491 0.608041 -0.196792
0.050578 0.609275 -0.197177
0.053878 0.612528 -0.198107
0.056588 0.609766 -0.197417
0.059764 0.611529 -0.197947
0.062315 0.607615 -0.196945
0.065226 0.607048 -0.196848
0.068202 0.607047 -0.196903
0.071190 0.607118 -0.196979
0.074124 0.606759 -0.196938
0.077057 0.606400 -0.196899
0.080131 0.607044 -0.197131
0.083211 0.607661 -0.197357
0.086830 0.611772 -0.198529
0.089585 0.610097 -0.198136
0.092731 0.610924 -0.198421
0.095957 0.612159 -0.198818
0.098649 0.610196 -0.198349
0.101036 0.606593 -0.197436
0.103947 0.606051 -0.197353
0.106964 0.606079 -0.197426
0.109779 0.605035 -0.197208
0.112759 0.604856 -0.197226
0.116994 0.610895 -0.198934
0.120354 0.612380 -0.199407
0.123367 0.612128 -0.199409
0.126014 0.610167 -0.198947
0.128112 0.605785 -0.197828
0.131017 0.605142 -0.197726
0.134018 0.604912 -0.197738
0.136858 0.603979 -0.197559
0.139928 0.604013 -0.197645
0.143265 0.605097 -0.198018
0.146425 0.605406 -0.198182
0.149288 0.604516 -0.198019
0.152300 0.604196 -0.198014
0.155718 0.605379 -0.198421
0.158949 0.605795 -0.198620
0.162109 0.605906 -0.198737
0.165125 0.605470 -0.198706
0.168231 0.605324 -0.198756
0.171977 0.607339 -0.199399
0.176759 0.612730 -0.200970
0.179563 0.611363 -0.200691
0.182332 0.609890 -0.200385
0.185608 0.610047 -0.200527
0.186718 0.603357 -0.198790
0.189873 0.603161 -0.198838
0.193338 0.603873 -0.199138
0.196921 0.604874 -0.199519
0.200337 0.605310 -0.199747
0.203529 0.605041 -0.199784
0.208277 0.609176 -0.201036
0.211503 0.608862 -0.201064
0.213796 0.605934 -0.200373
0.216659 0.604602 -0.200124
0.218793 0.601307 -0.199333
0.222014 0.600935 -0.199353
0.225589 0.601457 -0.199621
0.229294 0.602247 -0.199967
0.234245 0.606126 -0.201172
0.238414 0.607897 -0.201796
0.242812 0.610135 -0.202552
0.245632 0.608433 -0.202216
0.247011 0.603282 -0.200921
0.249298 0.600371 -0.200250
0.253582 0.602145 -0.200885
0.256656 0.601048 -0.200723
0.260500 0.601685 -0.201045
0.264626 0.602893 -0.201529
0.267911 0.602173 -0.201476
0.271154 0.601343 -0.201393
0.275059 0.601923 -0.201707
0.279383 0.603346 -0.202257
0.282637 0.602455 -0.202160
0.286327 0.602464 -0.202315
0.290949 0.604355 -0.203000
0.294371 0.603753 -0.202984
0.297536 0.602639 -0.202823
0.301736 0.603578 -0.203239
0.303896 0.600516 -0.202525
0.307914 0.601100 -0.202838
0.312740 0.603209 -0.203580
0.316205 0.602720 -0.203585
0.320119 0.603093 -0.203831
0.322032 0.599802 -0.203035
0.325107 0.598720 -0.202860
0.327747 0.596914 -0.202475
0.336731 0.606472 -0.205310
0.339104 0.604238 -0.204793
0.339456 0.598582 -0.203296
0.341479 0.595977 -0.202658
0.342454 0.591698 -0.201535
-0.366149 0.595668 -0.194914
-0.366102 0.601325 -0.196474
-0.363033 0.602013 -0.196676
-0.359676 0.602287 -0.196760
-0.356501 0.602947 -0.196943
-0.352686 0.602555 -0.196833
-0.349390 0.603127 -0.196980
-0.346496 0.604482 -0.197335
-0.344120 0.606845 -0.197959
-0.338990 0.604243 -0.197228
-0.335216 0.604125 -0.197170
-0.332365 0.605757 -0.197583
-0.329111 0.606677 -0.197799
-0.325405 0.606758 -0.197785
-0.320794 0.605085 -0.197292
-0.317070 0.605115 -0.197260
-0.313661 0.605764 -0.197395
-0.310411 0.606738 -0.197617
-0.306244 0.605847 -0.197331
-0.303669 0.608202 -0.197926
-0.300510 0.609368 -0.198198
-0.294936 0.605416 -0.197082
-0.292247 0.607527 -0.197611
-0.288564 0.607494 -0.197558
-0.284229 0.605985 -0.197107
-0.281106 0.607106 -0.197369
-0.278148 0.608587 -0.197730
-0.273958 0.607239 -0.197326
-0.269923 0.606174 -0.196999
-0.266593 0.606692 -0.197103
-0.263351 0.607391 -0.197257
-0.259911 0.607585 -0.197276
-0.256161 0.606974 -0.197078
-0.252894 0.607499 -0.197190
-0.249060 0.606563 -0.196909
-0.246222 0.608104 -0.197298
-0.242321 0.606876 -0.196941
-0.238781 0.606519 -0.196822
-0.235956 0.608017 -0.197205
-0.232212 0.607018 -0.196915
-0.228857 0.607012 -0.196895
-0.225509 0.606980 -0.196871
-0.222171 0.606933 -0.196844
-0.219081 0.607552 -0.196998
-0.215734 0.607394 -0.196944
-0.212348 0.607071 -0.196848
-0.209031 0.606902 -0.196794
-0.205627 0.606418 -0.196658
-0.202210 0.605836 -0.196496
-0.199216 0.606538 -0.196683
-0.196369 0.607702 -0.196996
-0.193405 0.608479 -0.197206
-0.190195 0.608421 -0.197192
-0.186565 0.606889 -0.196782
-0.183189 0.606148 -0.196587
-0.180207 0.606733 -0.196751
-0.177363 0.607802 -0.197047
-0.174289 0.608034 -0.197119
-0.171086 0.607756 -0.197054
-0.168334 0.609151 -0.197442
-0.165214 0.609143 -0.197453
-0.161754 0.607752 -0.197091
-0.158596 0.607493 -0.197037
-0.155525 0.607550 -0.197068
-0.152521 0.607866 -0.197171
-0.149231 0.606931 -0.196938
-0.146341 0.607684 -0.197161
-0.143287 0.607709 -0.197188
-0.140321 0.608113 -0.197319
-0.137324 0.608362 -0.197409
-0.134280 0.608368 -0.197435
-0.131268 0.608508 -0.197498
-0.128257 0.608635 -0.197558
-0.125199 0.608500 -0.197548
-0.122132 0.608287 -0.197517
-0.119070 0.608066 -0.197486
-0.116094 0.608298 -0.197578
-0.113088 0.608343 -0.197620
-0.110073 0.608314 -0.197643
-0.106879 0.607168 -0.197364
-0.104268 0.609617 -0.198059
-0.101127 0.608740 -0.197854
-0.098099 0.608552 -0.197836
-0.095224 0.609393 -0.198098
-0.092243 0.609516 -0.198166
-0.089123 0.608588 -0.197950
-0.086167 0.608845 -0.198055
-0.083144 0.608569 -0.198017
-0.080164 0.608606 -0.198064
-0.077132 0.608178 -0.197985
-0.074182 0.608447 -0.198096
-0.071138 0.607827 -0.197966
-0.068208 0.608275 -0.198127
-0.065335 0.609355 -0.198459
-0.062364 0.609449 -0.198525
-0.059396 0.609567 -0.198597
-0.056381 0.609108 -0.198513
-0.053365 0.608558 -0.198405
-0.050376 0.608308 -0.198378
-0.047390 0.608049 -0.198350
-0.044412 0.607864 -0.198342
-0.041461 0.608122 -0.198454
-0.038470 0.607621 -0.198361
-0.035482 0.607084 -0.198258
-0.032874 0.615534 -0.200602
-0.029965 0.618019 -0.201323
-0.026962 0.618282 -0.201439
-0.024008 0.620449 -0.202075
-0.020781 0.611306 -0.199629
-0.017751 0.608363 -0.198872
-0.014787 0.608378 -0.198921
-0.011811 0.606887 -0.198561
-0.008853 0.606571 -0.198520
-0.005886 0.613222 -0.200382
-0.002876 0.616590 -0.201348
0.000066 0.611189 -0.199921
0.003055 0.611814 -0.200139
0.006031 0.611550 -0.200115
0.008885 0.606698 -0.198837
0.011868 0.607545 -0.199117
0.014843 0.607918 -0.199267
0.017846 0.608860 -0.199574
0.020788 0.608268 -0.199461
0.023686 0.606890 -0.199134
0.026732 0.608441 -0.199608
0.029707 0.608545 -0.199687
0.032726 0.609288 -0.199942
0.035630 0.608275 -0.199715
0.038547 0.607540 -0.199566
0.041511 0.607492 -0.199604
0.044405 0.606586 -0.199408
0.047510 0.608152 -0.199891
0.050674 0.610159 -0.200495
0.053917 0.612764 -0.201264
0.057090 0.614432 -0.201777
0.059099 0.605191 -0.199294
0.062314 0.607385 -0.199952
0.065171 0.606344 -0.199722
0.068196 0.606736 -0.199886
0.071363 0.608193 -0.200344
0.074151 0.606679 -0.199985
0.077135 0.606672 -0.200041
0.080207 0.607261 -0.200263
0.083173 0.607079 -0.200272
0.087025 0.612712 -0.201885
0.089478 0.609069 -0.200943
0.092129 0.606847 -0.200392
0.095668 0.610055 -0.201340
0.098612 0.609599 -0.201279
0.101184 0.607044 -0.200638
0.104120 0.606604 -0.200582
0.107109 0.606455 -0.200607
0.110023 0.605893 -0.200519
0.112894 0.605122 -0.200374
0.116796 0.609479 -0.201649
0.119835 0.609424 -0.201705
0.123055 0.610200 -0.201992
0.126221 0.610667 -0.202194
0.128162 0.605553 -0.200851
0.131374 0.606253 -0.201121
0.134240 0.605399 -0.200960
0.137178 0.604858 -0.200888
0.140529 0.606019 -0.201289
0.143657 0.606198 -0.201419
0.146602 0.605614 -0.201338
0.149611 0.605269 -0.201326
0.152871 0.605868 -0.201577
0.155872 0.605438 -0.201544
0.159100 0.605825 -0.201739
0.162031 0.605095 -0.201625
0.165165 0.605077 -0.201711
0.168438 0.605505 -0.201923
0.172199 0.607550 -0.202588
0.176434 0.611081 -0.203671
0.179788 0.611544 -0.203900
0.182470 0.609769 -0.203504
0.184284 0.605250 -0.202343
0.186992 0.603644 -0.201998
0.190123 0.603353 -0.202022
0.193204 0.602883 -0.201998
0.197146 0.604957 -0.202689
0.200156 0.604182 -0.202584
0.203229 0.603571 -0.202526
0.208983 0.610575 -0.204610
0.210651 0.605856 -0.203403
0.213571 0.604695 -0.203198
0.216965 0.604813 -0.203354
0.219661 0.603012 -0.202972
0.222219 0.600852 -0.202491
0.226448 0.603060 -0.203243
0.230136 0.603771 -0.203576
0.232951 0.602205 -0.203268
0.238496 0.607449 -0.204887
0.242011 0.607506 -0.205043
0.246058 0.608804 -0.205553
0.247393 0.603536 -0.204204
0.249351 0.599834 -0.203299
0.253607 0.601538 -0.203930
0.256891 0.600921 -0.203903
0.260076 0.600052 -0.203807
0.264533 0.602011 -0.204517
0.268140 0.602004 -0.204669
0.271441 0.601291 -0.204621
0.275443 0.602069 -0.205000
0.279165 0.602202 -0.205195
0.282885 0.602295 -0.205380
0.286115 0.601347 -0.205268
0.291915 0.605646 -0.206659
0.293631 0.601582 -0.205653
0.297170 0.601233 -0.205710
0.302136 0.603692 -0.206574
0.304096 0.600237 -0.205736
0.308140 0.600869 -0.206071
0.311790 0.600743 -0.206186
0.317008 0.603573 -0.207150
0.320611 0.603357 -0.207233
0.324475 0.603648 -0.207458
0.327407 0.602266 -0.207195
0.322440 0.586762 -0.202842
0.333553 0.600202 -0.206855
0.339654 0.604595 -0.208247
0.343124 0.604371 -0.208296
0.344781 0.601085 -0.207449
0.344535 0.594682 -0.205689
-0.368106 0.598223 -0.198922
-0.366158 0.600683 -0.199626
-0.363590 0.602211 -0.200065
-0.360358 0.602696 -0.200207
-0.356911 0.602882 -0.200259
-0.352808 0.601981 -0.200004
-0.349551 0.602612 -0.200168
-0.346607 0.603867 -0.200499
-0.343476 0.604851 -0.200749
-0.339631 0.604583 -0.200648
-0.336215 0.605133 -0.200770
-0.332588 0.605321 -0.200787
-0.329557 0.606661 -0.201119
-0.326150 0.607318 -0.201260
-0.322317 0.607169 -0.201175
-0.317777 0.605626 -0.200702
-0.314548 0.606644 -0.200937
-0.310531 0.606090 -0.200735
-0.307004 0.606503 -0.200800
-0.303851 0.607678 -0.201075
-0.300728 0.608921 -0.201368
-0.297144 0.609192 -0.201393
-0.292278 0.606689 -0.200652
-0.288729 0.606946 -0.200674
-0.285091 0.606979 -0.200634
-0.281357 0.606760 -0.200526
-0.278099 0.607569 -0.200703
-0.274887 0.608463 -0.200905
-0.270077 0.605629 -0.200079
-0.266381 0.605291 -0.199944
-0.263285 0.606332 -0.200190
-0.260010 0.606922 -0.200314
-0.256535 0.606990 -0.200295
-0.252998 0.606860 -0.200224
-0.249947 0.607905 -0.200478
-0.245979 0.606584 -0.200082
-0.242936 0.607581 -0.200327
-0.239425 0.607324 -0.200228
-0.235635 0.606268 -0.199911
-0.232758 0.607610 -0.200256
-0.229292 0.607324 -0.200155
-0.225954 0.607341 -0.200139
-0.222721 0.607611 -0.200195
-0.219423 0.607656 -0.200190
-0.215898 0.606994 -0.199993
-0.212485 0.606599 -0.199871
-0.209217 0.606588 -0.199857
-0.205866 0.606278 -0.199762
-0.202615 0.606228 -0.199741
-0.199523 0.606642 -0.199848
-0.196657 0.607758 -0.200151
-0.193543 0.608057 -0.200230
-0.190115 0.607278 -0.200014
-0.186827 0.606911 -0.199914
-0.183634 0.606822 -0.199891
-0.180551 0.607079 -0.199965
-0.177465 0.607300 -0.200031
-0.174317 0.607266 -0.200028
-0.171393 0.608033 -0.200247
-0.168586 0.609239 -0.200588
-0.165331 0.608723 -0.200456
-0.162163 0.608496 -0.200405
-0.158939 0.608004 -0.200283
-0.155747 0.607592 -0.200184
-0.152556 0.607140 -0.200076
-0.149737 0.608230 -0.200392
-0.146551 0.607734 -0.200274
-0.143550 0.608015 -0.200370
-0.140502 0.608065 -0.200404
-0.137481 0.608216 -0.200467
-0.134388 0.608004 -0.200431
-0.131339 0.607970 -0.200444
-0.128315 0.608036 -0.200487
-0.125279 0.608020 -0.200508
-0.122244 0.607984 -0.200524
-0.119262 0.608217 -0.200615
-0.116202 0.607998 -0.200582
-0.113220 0.608194 -0.200665
-0.110123 0.607696 -0.200557
-0.107296 0.608802 -0.200892
-0.104321 0.609016 -0.200982
-0.101290 0.608866 -0.200973
-0.098214 0.608383 -0.200872
-0.095292 0.608912 -0.201051
-0.092252 0.608620 -0.201004
-0.089209 0.608259 -0.200939
-0.086218 0.608259 -0.200974
-0.083331 0.609075 -0.201236
-0.080167 0.607624 -0.200871
-0.077262 0.608289 -0.201091
-0.074331 0.608771 -0.201262
-0.071341 0.608707 -0.201282
-0.068351 0.608625 -0.201298
-0.065391 0.608842 -0.201397
-0.062425 0.608994 -0.201478
-0.059391 0.608350 -0.201340
-0.056410 0.608276 -0.201360
-0.053427 0.608157 -0.201367
-0.050431 0.607824 -0.201316
-0.047500 0.608409 -0.201520
-0.044575 0.609178 -0.201775
-0.041504 0.607463 -0.201342
-0.038508 0.606880 -0.201223
-0.035585 0.607707 -0.201495
-0.032861 0.613500 -0.203145
-0.029942 0.615516 -0.203748
-0.027069 0.619562 -0.204915
-0.024002 0.617914 -0.204503
-0.020858 0.612115 -0.202939
-0.017824 0.609306 -0.202204
-0.014846 0.608813 -0.202113
-0.011866 0.607471 -0.201786
-0.008899 0.606222 -0.201485
-0.005937 0.609110 -0.202334
-0.002934 0.613993 -0.203738
0.000027 0.611090 -0.202979
0.002996 0.610405 -0.202836
0.005995 0.611411 -0.203164
0.008867 0.607137 -0.202023
0.011817 0.606748 -0.201963
0.014797 0.607275 -0.202158
0.017778 0.607690 -0.202323
0.020743 0.607654 -0.202363
0.023674 0.606950 -0.202216
0.026627 0.606732 -0.202206
0.029698 0.608524 -0.202756
0.032643 0.608089 -0.202686
0.035551 0.607166 -0.202480
0.038533 0.607344 -0.202582
0.041491 0.607190 -0.202591
0.044487 0.607477 -0.202724
0.047378 0.606549 -0.202518
0.050452 0.607653 -0.202881
0.053711 0.610512 -0.203734
0.056551 0.609039 -0.203378
0.059603 0.609638 -0.203601
0.062557 0.609301 -0.203563
0.065156 0.605968 -0.202687
0.068183 0.606370 -0.202857
0.071378 0.608035 -0.203381
0.074348 0.607866 -0.203393
0.077228 0.607038 -0.203220
0.080234 0.607135 -0.203307
0.083254 0.607301 -0.203414
0.087202 0.613527 -0.205223
0.089450 0.608536 -0.203885
0.092240 0.607171 -0.203565
0.095712 0.609944 -0.204409
0.098497 0.608547 -0.204081
0.101086 0.606095 -0.203458
0.104084 0.606002 -0.203499
0.107168 0.606358 -0.203667
0.110158 0.606181 -0.203686
0.113218 0.606340 -0.203801
0.118778 0.618872 -0.207402
0.119409 0.606916 -0.204106
0.122597 0.607581 -0.204367
0.125826 0.608382 -0.204668
0.128048 0.604574 -0.203669
0.131219 0.605096 -0.203894
0.134463 0.605882 -0.204194
0.137695 0.606553 -0.204463
0.140767 0.606508 -0.204532
0.143763 0.606127 -0.204507
0.146754 0.605709 -0.204473
0.149946 0.606062 -0.204659
0.152995 0.605818 -0.204677
0.155999 0.605385 -0.204643
0.159210 0.605699 -0.204822
0.162470 0.606140 -0.205040
0.165076 0.604214 -0.204588
0.168383 0.604761 -0.204838
0.172253 0.607176 -0.205622
0.176260 0.609928 -0.206504
0.179466 0.609905 -0.206600
0.182058 0.607856 -0.206121
0.184952 0.606799 -0.205926
0.187353 0.604191 -0.205291
0.190446 0.603760 -0.205277
0.194091 0.604978 -0.205736
0.197189 0.604482 -0.205709
0.200175 0.603629 -0.205581
0.203317 0.603213 -0.205581
0.209712 0.612026 -0.208223
0.210263 0.604145 -0.206091
0.212865 0.602117 -0.205635
0.217599 0.605903 -0.206848
0.220992 0.605942 -0.206989
0.225279 0.608289 -0.207797
0.228176 0.606907 -0.207535
0.230516 0.604093 -0.206864
0.233392 0.602664 -0.206592
0.236505 0.601821 -0.206491
0.240430 0.602951 -0.206961
0.243030 0.600795 -0.206485
0.246319 0.600297 -0.206490
0.252745 0.607160 -0.208625
0.256741 0.608146 -0.209064
0.260434 0.608366 -0.209285
0.262974 0.605929 -0.208737
0.269717 0.612898 -0.210918
0.270902 0.607401 -0.209485
0.275730 0.609930 -0.210383
0.274971 0.600365 -0.207766
0.279812 0.602881 -0.208662
0.283228 0.602320 -0.208663
0.287484 0.603484 -0.209168
0.291696 0.604504 -0.209631
0.294823 0.603295 -0.209443
0.297943 0.602085 -0.209253
0.301308 0.601377 -0.209208
0.304083 0.599533 -0.208829
0.308465 0.600820 -0.209365
0.312077 0.600619 -0.209461
0.316502 0.601958 -0.210008
0.320634 0.602741 -0.210387
0.324503 0.603047 -0.210623
0.326926 0.600751 -0.210087
0.321067 0.583681 -0.205190
0.333228 0.599004 -0.209835
0.338634 0.602187 -0.210897
0.340674 0.599506 -0.210220
0.344131 0.599376 -0.210289
0.353477 0.609349 -0.213338
-0.369035 0.599053 -0.202479
-0.367583 0.602347 -0.203431
-0.364299 0.602665 -0.203535
-0.360706 0.602527 -0.203502
-0.357460 0.603054 -0.203650
-0.353686 0.602725 -0.203549
-0.349642 0.601968 -0.203321
-0.346629 0.603087 -0.203617
-0.343464 0.603996 -0.203849
-0.340214 0.604808 -0.204048
-0.337312 0.606310 -0.204437
-0.333186 0.605578 -0.204191
-0.329639 0.605943 -0.204251
-0.326261 0.606650 -0.204404
-0.322373 0.606391 -0.204282
-0.318832 0.606803 -0.204347
-0.314898 0.606442 -0.204193
-0.311147 0.606427 -0.204134
-0.307552 0.606713 -0.204160
-0.303740 0.606540 -0.204055
-0.300816 0.608190 -0.204464
-0.297345 0.608698 -0.204551
-0.293631 0.608669 -0.204487
-0.289225 0.607106 -0.203992
-0.285403 0.606747 -0.203836
-0.282061 0.607410 -0.203969
-0.278515 0.607588 -0.203967
-0.274487 0.606628 -0.203646
-0.271355 0.607673 -0.203891
