ply
format ascii 1.0
comment ---
element vertex 1771
property float x
property float y
property float z
element face 0
property list uchar uint vertex_indices
end_header
0.195921 0.607557 0.110887
0.198624 0.606842 0.110862
0.201327 0.606134 0.110834
0.203760 0.604366 0.110789
0.206281 0.602979 0.110747
0.209665 0.604894 0.110749
0.213778 0.609436 0.110786
0.216944 0.610321 0.110769
0.220807 0.613653 0.110784
0.224582 0.616529 0.110790
0.225524 0.609449 0.110654
0.227947 0.607639 0.110591
0.231833 0.610764 0.110593
0.234852 0.610902 0.110552
0.237055 0.608358 0.110473
0.240187 0.608837 0.110432
0.243650 0.610309 0.110403
0.247013 0.611399 0.110367
0.250106 0.611605 0.110317
0.253577 0.612910 0.110279
0.256216 0.611690 0.110206
0.258139 0.608395 0.110105
0.260101 0.605279 0.110005
0.262614 0.603782 0.109924
0.268015 0.610335 0.109944
0.270330 0.608209 0.109851
0.271604 0.603294 0.109723
0.274663 0.603252 0.109654
0.279448 0.607718 0.109638
0.282234 0.606850 0.109556
0.286264 0.609158 0.109509
0.289452 0.609247 0.109435
0.291577 0.606660 0.109327
0.294892 0.607034 0.109252
0.300861 0.613808 0.109250
0.305403 0.616960 0.109202
0.308852 0.617416 0.109122
0.310412 0.613425 0.108991
0.310715 0.606604 0.108829
0.312334 0.602920 0.108701
0.315051 0.601764 0.108599
0.319058 0.603473 0.108526
0.322319 0.603472 0.108433
0.325322 0.602883 0.108332
0.328867 0.603440 0.108241
0.334900 0.609216 0.108200
0.338852 0.610476 0.108111
0.341228 0.608420 0.107989
0.344080 0.607356 0.107875
0.346652 0.605719 0.107755
0.350705 0.607043 0.107660
0.357354 0.613427 0.107606
0.358100 0.608128 0.107449
0.359759 0.604678 0.107307
0.361418 0.601274 0.107165
0.365201 0.601919 0.107054
0.371074 0.606415 0.106972
0.379269 0.615064 0.106916
0.380712 0.611179 0.106763
0.382573 0.608101 0.106615
0.386018 0.607885 0.106487
0.385426 0.600517 0.106308
0.389070 0.600672 0.106179
0.395489 0.605588 0.106077
0.400740 0.608372 0.105958
0.403946 0.607606 0.105815
0.402586 0.599178 0.105627
0.406942 0.600364 0.105491
0.412214 0.602997 0.105360
0.418175 0.606661 0.105230
0.425412 0.612269 0.105103
0.429325 0.612443 0.104948
0.435427 0.616027 0.104803
0.429938 0.601439 0.104586
0.432691 0.599827 0.104418
0.437281 0.601018 0.104257
0.440847 0.600604 0.104088
0.444303 0.599998 0.103915
0.450907 0.604037 0.103749
0.456597 0.606621 0.103575
0.459491 0.605053 0.103388
0.464218 0.606118 0.103202
0.462618 0.598108 0.103003
0.467138 0.598855 0.102810
0.470845 0.598413 0.102613
0.473656 0.596704 0.102412
0.478805 0.598196 0.102207
0.484585 0.600477 0.101996
0.490369 0.602682 0.101778
0.494749 0.602935 0.101558
0.497666 0.601214 0.101336
0.501511 0.600697 0.101107
0.503817 0.598157 0.100880
0.506731 0.596404 0.100646
0.514503 0.600813 0.100388
0.519488 0.601591 0.100135
0.527788 0.606442 0.099858
0.520745 0.592212 0.099662
0.527341 0.594889 0.099384
0.534991 0.598750 0.099091
0.540249 0.599622 0.098808
0.549328 0.604976 0.098487
0.552621 0.603366 0.098204
0.554841 0.600486 0.097926
0.558473 0.599244 0.097631
0.561417 0.597189 0.097337
0.567954 0.599201 0.097001
0.573583 0.600105 0.096667
0.582278 0.604357 0.096289
0.583740 0.600496 0.095989
0.587330 0.598981 0.095658
0.591306 0.597861 0.095317
0.592456 0.593676 0.095009
0.591265 0.587028 0.094732
0.594729 0.585351 0.094386
0.607088 0.592934 0.093897
0.614740 0.595456 0.093469
0.621211 0.596666 0.093051
0.623827 0.593889 0.092691
0.621884 0.586528 0.092408
0.622743 0.582039 0.092076
0.631619 0.585483 0.091592
0.638175 0.586544 0.091143
0.652239 0.594793 0.090539
0.661405 0.598139 0.090019
0.667051 0.598026 0.089565
0.671026 0.596289 0.089142
0.676046 0.595505 0.088694
0.682309 0.595831 0.088215
0.688139 0.595704 0.087743
0.694087 0.595637 0.087267
0.702037 0.597319 0.086741
0.705812 0.595214 0.086315
0.714920 0.597800 0.085758
0.709597 0.587712 0.085570
0.723840 0.594676 0.084884
0.722709 0.588319 0.084604
0.722671 0.582974 0.084305
0.725714 0.580287 0.083933
0.738914 0.586079 0.083287
0.749703 0.589756 0.082713
0.750451 0.585143 0.082433
0.759551 0.587364 0.081926
0.765428 0.586950 0.081524
0.770834 0.586164 0.081151
0.782450 0.590287 0.080607
0.794232 0.594470 0.080073
0.799103 0.593237 0.079763
0.806487 0.593966 0.079396
0.801781 0.585494 0.079421
0.812157 0.588570 0.079003
0.821825 0.591089 0.078628
0.824398 0.588323 0.078494
0.829305 0.587351 0.078311
0.784064 0.549771 0.079711
0.007504 0.611454 0.106148
0.009971 0.607712 0.105994
0.012243 0.606845 0.105871
0.014441 0.607554 0.105770
0.016735 0.607467 0.105676
0.018753 0.612576 0.105624
0.021202 0.611434 0.105549
0.023786 0.608225 0.105477
0.026289 0.606905 0.105427
0.028785 0.606276 0.105393
0.031226 0.607717 0.105380
0.033658 0.610655 0.105387
0.036193 0.612059 0.105396
0.038784 0.612877 0.105412
0.041411 0.613565 0.105438
0.044113 0.611806 0.105460
0.046859 0.607197 0.105476
0.049544 0.607253 0.105523
0.052233 0.610750 0.105595
0.054971 0.612776 0.105667
0.057732 0.612528 0.105732
0.060505 0.612360 0.105802
0.063332 0.615165 0.105894
0.066171 0.616691 0.105983
0.068840 0.610070 0.106025
0.071631 0.609636 0.106107
0.074453 0.610089 0.106196
0.077263 0.609936 0.106283
0.080066 0.609549 0.106369
0.082829 0.608334 0.106449
0.085598 0.607395 0.106531
0.088453 0.608070 0.106624
0.091418 0.610415 0.106728
0.094406 0.612742 0.106832
0.097336 0.613941 0.106926
0.100082 0.612571 0.107000
0.102712 0.609923 0.107061
0.105575 0.610297 0.107143
0.108553 0.611909 0.107233
0.111370 0.611668 0.107306
0.114210 0.611687 0.107378
0.116769 0.609034 0.107425
0.119602 0.609120 0.107492
0.122462 0.609436 0.107558
0.125202 0.608724 0.107612
0.128043 0.608885 0.107670
0.130949 0.609543 0.107730
0.133783 0.609618 0.107782
0.136593 0.609509 0.107829
0.139541 0.610371 0.107881
0.142663 0.612358 0.107941
0.145057 0.609430 0.107952
0.147945 0.609827 0.107991
0.150883 0.610495 0.108029
0.153520 0.609318 0.108046
0.156475 0.610044 0.108078
0.159008 0.608333 0.108084
0.161922 0.608800 0.108108
0.164591 0.607914 0.108115
0.167655 0.609127 0.108140
0.170813 0.610753 0.108165
0.173759 0.611220 0.108177
0.177405 0.615068 0.108218
0.180760 0.617331 0.108241
0.183802 0.618015 0.108246
0.186937 0.619075 0.108252
0.188784 0.614331 0.108198
0.190253 0.608112 0.108128
0.193011 0.607639 0.108110
0.195693 0.606845 0.108087
0.198450 0.606372 0.108064
0.201080 0.605380 0.108034
0.203692 0.604330 0.108001
0.206199 0.602894 0.107961
0.210035 0.606533 0.107968
0.214419 0.612055 0.107989
0.216327 0.608290 0.107920
0.220364 0.612286 0.107922
0.224059 0.614910 0.107908
0.224724 0.606898 0.107794
0.227524 0.606417 0.107748
0.231032 0.608303 0.107720
0.233977 0.608240 0.107673
0.236012 0.605197 0.107597
0.238726 0.604394 0.107540
0.242593 0.607213 0.107511
0.246395 0.609713 0.107478
0.249845 0.611036 0.107432
0.252906 0.611125 0.107373
0.255277 0.609144 0.107296
0.257138 0.605709 0.107205
0.259919 0.604984 0.107135
0.262698 0.604245 0.107062
0.266413 0.606106 0.107009
0.270566 0.609086 0.106962
0.272744 0.606610 0.106871
0.275404 0.605461 0.106788
0.277887 0.603848 0.106701
0.281031 0.603963 0.106625
0.285951 0.608595 0.106579
0.289959 0.610769 0.106513
0.292966 0.610361 0.106427
0.295399 0.608524 0.106330
0.299018 0.609583 0.106251
0.304244 0.614434 0.106193
0.307565 0.614627 0.106104
0.309406 0.611329 0.105992
0.310212 0.605696 0.105865
0.312564 0.603696 0.105759
0.315063 0.602046 0.105655
0.318236 0.601903 0.105557
0.321628 0.602215 0.105459
0.325525 0.603583 0.105366
0.328541 0.603004 0.105260
0.334705 0.609070 0.105184
0.336583 0.606000 0.105063
0.339160 0.604416 0.104948
0.342785 0.604981 0.104840
0.344774 0.602200 0.104717
0.346797 0.599519 0.104594
0.349538 0.598287 0.104475
0.352538 0.597557 0.104357
0.358351 0.602240 0.104253
0.360557 0.599908 0.104125
0.364683 0.601220 0.104006
0.370906 0.606383 0.103895
0.377211 0.611555 0.103779
0.382569 0.614855 0.103654
0.383760 0.610531 0.103512
0.383037 0.602851 0.103364
0.386943 0.603482 0.103228
0.390565 0.603571 0.103090
0.394178 0.603611 0.102949
0.401273 0.609576 0.102809
0.404210 0.608346 0.102661
0.405847 0.604931 0.102511
0.406754 0.600344 0.102359
0.414810 0.607550 0.102204
0.420114 0.610107 0.102044
0.423173 0.608969 0.101884
0.431455 0.616132 0.101711
0.433628 0.613495 0.101546
0.429521 0.601084 0.101396
0.433285 0.601039 0.101225
0.437090 0.601021 0.101050
0.441034 0.601182 0.100872
0.444567 0.600689 0.100692
0.452040 0.606015 0.100490
0.456474 0.606737 0.100297
0.461241 0.607894 0.100099
0.463691 0.605656 0.099910
0.463941 0.600286 0.099732
0.467068 0.599049 0.099535
0.470966 0.598874 0.099328
0.474080 0.597582 0.099123
0.478980 0.598726 0.098900
0.484906 0.601205 0.098664
0.488326 0.600224 0.098444
0.490198 0.597159 0.098235
0.494692 0.597575 0.097997
0.497438 0.595656 0.097773
0.500889 0.594648 0.097537
0.508914 0.599487 0.097246
0.517081 0.604373 0.096944
0.522055 0.605104 0.096672
0.515020 0.590799 0.096548
0.520536 0.592227 0.096263
0.523049 0.589910 0.096012
0.526391 0.588596 0.095746
0.537132 0.596150 0.095368
0.547183 0.602697 0.094988
0.551963 0.602862 0.094678
0.555122 0.601083 0.094389
0.558223 0.599222 0.094096
0.562835 0.599077 0.093772
0.569887 0.601659 0.093399
0.575013 0.601974 0.093052
0.582078 0.604394 0.092663
0.582736 0.599645 0.092386
0.587003 0.598879 0.092037
0.591735 0.598579 0.091672
0.598374 0.600279 0.091262
0.607473 0.604510 0.090792
0.605999 0.597468 0.090538
0.601329 0.587168 0.090355
0.613177 0.594085 0.089803
0.620724 0.596413 0.089337
0.623085 0.593381 0.088984
0.622223 0.587111 0.088706
0.622985 0.582519 0.088389
0.627872 0.582028 0.087966
0.639594 0.588173 0.087363
0.648747 0.591661 0.086815
0.665567 0.602382 0.086054
0.666939 0.598174 0.085697
0.670272 0.595836 0.085287
0.676270 0.595974 0.084800
0.681410 0.595266 0.084335
0.688202 0.596032 0.083820
0.692716 0.594672 0.083370
0.699127 0.594993 0.082864
0.706108 0.595771 0.082339
0.712816 0.596250 0.081824
0.713290 0.591243 0.081508
0.717900 0.589867 0.081067
0.727321 0.592601 0.080475
0.727299 0.587245 0.080198
0.729277 0.583640 0.079866
0.744586 0.591181 0.079095
0.751306 0.591477 0.078620
0.767747 0.599701 0.077820
0.773121 0.598796 0.077411
0.774122 0.594389 0.077170
0.775507 0.590363 0.076932
0.783016 0.591239 0.076496
0.791254 0.592676 0.076050
0.795786 0.591224 0.075755
0.804519 0.593039 0.075328
0.810964 0.593097 0.075004
0.814249 0.590785 0.074816
0.819202 0.589786 0.074589
0.833217 0.595568 0.074054
0.835477 0.592617 0.073971
0.785649 0.551622 0.075806
0.009260 0.592192 0.103583
0.010275 0.606587 0.103472
0.012436 0.607024 0.103344
0.014616 0.607803 0.103230
0.016737 0.610215 0.103130
0.018953 0.611987 0.103042
0.021459 0.609534 0.102961
0.023887 0.608888 0.102896
0.026215 0.610989 0.102845
0.028576 0.613501 0.102806
0.031268 0.609056 0.102774
0.033805 0.608802 0.102757
0.036276 0.611626 0.102753
0.038832 0.613194 0.102758
0.041433 0.614637 0.102773
0.044156 0.611304 0.102795
0.046846 0.609949 0.102827
0.049535 0.609863 0.102867
0.052231 0.612393 0.102917
0.054968 0.613805 0.102973
0.057725 0.613435 0.103034
0.060489 0.612582 0.103099
0.063308 0.615296 0.103174
0.066254 0.622741 0.103259
0.068819 0.610758 0.103321
0.071602 0.610096 0.103400
0.074416 0.610366 0.103483
0.077232 0.610449 0.103568
0.079990 0.609016 0.103651
0.082764 0.608144 0.103734
0.085366 0.604067 0.103811
0.088377 0.607820 0.103905
0.091407 0.611250 0.103999
0.094415 0.613851 0.104091
0.097349 0.615046 0.104178
0.100196 0.614943 0.104260
0.102554 0.608806 0.104320
0.105453 0.609664 0.104401
0.108467 0.611709 0.104483
0.111436 0.613086 0.104561
0.113983 0.610103 0.104620
0.117048 0.612353 0.104697
0.119548 0.609248 0.104749
0.122367 0.609201 0.104811
0.125188 0.609172 0.104869
0.127901 0.608280 0.104921
0.130840 0.609216 0.104977
0.133986 0.611639 0.105037
0.136977 0.612766 0.105089
0.139499 0.610535 0.105122
0.142060 0.608712 0.105153
0.144968 0.609270 0.105192
0.147657 0.608399 0.105221
0.150308 0.607338 0.105245
0.153332 0.608565 0.105278
0.156312 0.609458 0.105305
0.159093 0.609165 0.105324
0.161658 0.607682 0.105334
0.164654 0.608584 0.105352
0.167607 0.609201 0.105366
0.170489 0.609408 0.105374
0.174193 0.613694 0.105400
0.177323 0.614967 0.105408
0.180605 0.616884 0.105416
0.183935 0.618924 0.105422
0.186407 0.616943 0.105405
0.188714 0.614291 0.105381
0.190509 0.609496 0.105344
0.192658 0.606393 0.105313
0.195431 0.606007 0.105293
0.198186 0.605538 0.105269
0.200980 0.605222 0.105244
0.203769 0.604881 0.105216
0.206192 0.603107 0.105178
0.209149 0.603407 0.105148
0.213098 0.607368 0.105133
0.217093 0.611330 0.105114
0.219663 0.610003 0.105069
0.221725 0.606899 0.105014
0.224413 0.606051 0.104966
0.227022 0.604932 0.104915
0.228972 0.601616 0.104853
0.233135 0.605688 0.104820
0.235307 0.603135 0.104757
0.237778 0.601593 0.104697
0.241747 0.604779 0.104652
0.245392 0.606838 0.104601
0.248521 0.607233 0.104541
0.251416 0.606886 0.104477
0.253413 0.603866 0.104401
0.257470 0.606906 0.104344
0.260040 0.605560 0.104271
0.262735 0.604580 0.104197
0.267869 0.610394 0.104141
0.270919 0.610292 0.104065
0.274343 0.611175 0.103990
0.276122 0.607612 0.103902
0.279000 0.607013 0.103820
0.282046 0.606838 0.103737
0.285404 0.607434 0.103654
0.289218 0.609140 0.103571
0.292685 0.609907 0.103484
0.295497 0.609011 0.103392
0.299077 0.609973 0.103302
0.302775 0.611164 0.103210
0.306360 0.612029 0.103115
0.309157 0.610999 0.103016
0.309897 0.605221 0.102912
0.312103 0.602898 0.102810
0.315092 0.602365 0.102708
0.318356 0.602426 0.102605
0.321415 0.602005 0.102500
0.324529 0.601683 0.102393
0.328190 0.602514 0.102284
0.332222 0.604078 0.102173
0.334762 0.602455 0.102061
0.338451 0.603218 0.101947
0.342585 0.604840 0.101829
0.344144 0.601195 0.101714
0.346707 0.599609 0.101597
0.350004 0.599477 0.101475
0.352589 0.597927 0.101355
0.355769 0.597533 0.101231
0.359830 0.598796 0.101101
0.364132 0.600458 0.100967
0.370241 0.605424 0.100822
0.377952 0.613207 0.100664
0.380512 0.611387 0.100530
0.379800 0.603667 0.100415
0.380804 0.599146 0.100290
0.384264 0.599032 0.100147
0.392060 0.606470 0.099971
0.391398 0.599089 0.099853
0.398087 0.604413 0.099678
0.405847 0.611410 0.099489
0.406777 0.606780 0.099354
0.407292 0.601524 0.099222
0.409591 0.599273 0.099073
0.415093 0.602242 0.098891
0.419789 0.603820 0.098713
0.424545 0.605429 0.098530
0.429861 0.607855 0.098338
0.430311 0.602608 0.098197
0.433486 0.601639 0.098023
0.437102 0.601332 0.097841
0.441418 0.602055 0.097648
0.445019 0.601658 0.097460
0.450859 0.604555 0.097240
0.455806 0.606049 0.097026
0.460638 0.607311 0.096810
0.463134 0.605146 0.096623
0.463856 0.600455 0.096459
0.467118 0.599406 0.096255
0.470978 0.599179 0.096039
0.473916 0.597639 0.095834
0.478344 0.598138 0.095601
0.483264 0.599257 0.095356
0.486330 0.597820 0.095137
0.488887 0.595692 0.094923
0.489195 0.590594 0.094746
0.495603 0.593535 0.094457
0.500771 0.594771 0.094184
0.508186 0.598829 0.093863
0.517584 0.605291 0.093497
0.514911 0.596382 0.093358
0.516849 0.593351 0.093128
0.518201 0.589609 0.092906
0.520275 0.586778 0.092667
0.521912 0.583426 0.092433
0.527693 0.585072 0.092106
0.544479 0.599745 0.091527
0.551080 0.602084 0.091163
0.554703 0.600855 0.090860
0.558790 0.600136 0.090540
0.564215 0.600917 0.090183
0.567718 0.599450 0.089866
0.574064 0.601160 0.089473
0.578793 0.600985 0.089113
0.581889 0.598959 0.088789
0.587469 0.599636 0.088395
0.592031 0.599146 0.088021
0.596347 0.598347 0.087647
0.603079 0.600080 0.087200
0.591999 0.582954 0.087248
0.605549 0.591811 0.086599
0.611291 0.592372 0.086162
0.621285 0.597226 0.085593
0.625407 0.595975 0.085190
0.624589 0.589724 0.084934
0.622307 0.582076 0.084723
0.630020 0.584381 0.084198
0.635984 0.584881 0.083722
0.651230 0.594305 0.082938
0.661785 0.599000 0.082295
0.666139 0.597661 0.081851
0.672307 0.598002 0.081343
0.676454 0.596400 0.080902
0.687169 0.600845 0.080230
0.691766 0.599560 0.079768
0.695692 0.597642 0.079331
0.699091 0.595241 0.078916
0.704960 0.595039 0.078412
0.708267 0.592543 0.078005
0.714979 0.593026 0.077476
0.720280 0.592246 0.077003
0.724333 0.590377 0.076585
0.735460 0.594519 0.075899
0.743625 0.596068 0.075334
0.748610 0.594918 0.074902
0.753906 0.594026 0.074469
0.761044 0.594643 0.073975
0.767864 0.594982 0.073505
0.773031 0.593980 0.073117
0.778149 0.592955 0.072747
0.785716 0.593884 0.072294
0.789836 0.592105 0.072000
0.796241 0.592140 0.071631
0.798812 0.589239 0.071442
0.808529 0.591857 0.070976
0.815724 0.592544 0.070636
0.820401 0.591355 0.070424
0.836983 0.599077 0.069737
0.838232 0.595381 0.069714
0.752157 0.527779 0.073352
0.007751 0.614355 0.101098
0.010413 0.607743 0.100961
0.012706 0.606182 0.100827
0.014784 0.608228 0.100695
0.016919 0.610223 0.100576
0.019193 0.610817 0.100473
0.021691 0.608134 0.100395
0.023937 0.610623 0.100311
0.026154 0.614902 0.100233
0.028598 0.615595 0.100180
0.031156 0.614379 0.100147
0.033748 0.612854 0.100126
0.036308 0.612911 0.100111
0.038869 0.614079 0.100103
0.041558 0.611166 0.100121
0.044186 0.611627 0.100135
0.046847 0.611827 0.100160
0.049549 0.609943 0.100200
0.052245 0.610438 0.100240
0.054966 0.615712 0.100270
0.057719 0.614618 0.100329
0.060475 0.613199 0.100395
0.063268 0.614370 0.100457
0.066178 0.620484 0.100508
0.068788 0.611082 0.100611
0.071573 0.610621 0.100690
0.074379 0.610690 0.100768
0.077197 0.610911 0.100849
0.079929 0.608916 0.100936
0.082692 0.607883 0.101021
0.085457 0.607002 0.101106
0.088399 0.609332 0.101184
0.091389 0.612034 0.101262
0.094261 0.612558 0.101343
0.097391 0.616626 0.101418
0.100399 0.618552 0.101495
0.102470 0.608640 0.101588
0.105200 0.607537 0.101665
0.107897 0.606196 0.101739
0.110670 0.605790 0.101810
0.112984 0.600814 0.101883
0.116798 0.610662 0.101940
0.119609 0.610469 0.102003
0.122335 0.609550 0.102064
0.124791 0.606434 0.102123
0.127624 0.606617 0.102176
0.130672 0.608457 0.102226
0.133947 0.611873 0.102273
0.136941 0.613017 0.102318
0.139492 0.610973 0.102359
0.141900 0.608091 0.102397
0.144755 0.608324 0.102432
0.147937 0.610612 0.102463
0.150761 0.610556 0.102491
0.153524 0.610122 0.102516
0.156309 0.609828 0.102537
0.159003 0.609028 0.102555
0.161612 0.607789 0.102569
0.164416 0.607649 0.102581
0.167642 0.609725 0.102590
0.170837 0.611519 0.102596
0.173835 0.612230 0.102598
0.176659 0.612040 0.102597
0.179176 0.610379 0.102593
0.182094 0.610643 0.102586
0.185833 0.614619 0.102577
0.188336 0.612892 0.102563
0.190086 0.607926 0.102546
0.192567 0.606276 0.102527
0.195328 0.605841 0.102506
0.198116 0.605514 0.102481
0.200980 0.605483 0.102454
0.203773 0.605150 0.102425
0.206220 0.603464 0.102393
0.209299 0.604223 0.102358
0.213738 0.610003 0.102320
0.216822 0.610585 0.102279
0.219337 0.609074 0.102237
0.221699 0.607048 0.102193
0.224027 0.604946 0.102146
0.225902 0.601345 0.102099
0.228124 0.599003 0.102048
0.231657 0.601043 0.101993
0.234875 0.601965 0.101936
0.237655 0.601431 0.101878
0.240942 0.602481 0.101817
0.244687 0.604889 0.101751
0.247804 0.605280 0.101685
0.250510 0.604399 0.101619
0.254279 0.606660 0.101547
0.257392 0.606912 0.101474
0.260572 0.607323 0.101400
0.264230 0.609042 0.101321
0.267342 0.609163 0.101242
0.271322 0.611638 0.101157
0.274081 0.610706 0.101077
0.276134 0.607885 0.100999
0.278862 0.606889 0.100916
0.281850 0.606569 0.100829
0.285227 0.607224 0.100738
0.288579 0.607769 0.100645
0.291205 0.606460 0.100556
0.293679 0.604783 0.100466
0.297521 0.606443 0.100364
0.301631 0.608674 0.100257
0.306398 0.612370 0.100142
0.308667 0.610107 0.100047
0.309196 0.603857 0.099968
0.311863 0.602606 0.099867
0.314706 0.601752 0.099764
0.318059 0.602021 0.099653
0.321259 0.601919 0.099543
0.324265 0.601370 0.099433
0.327733 0.601795 0.099316
0.332113 0.604110 0.099186
0.336323 0.605987 0.099056
0.338073 0.602702 0.098954
0.344164 0.608336 0.098797
0.345164 0.603523 0.098701
0.347622 0.601704 0.098586
0.350902 0.601520 0.098459
0.353857 0.600675 0.098334
0.357938 0.601991 0.098191
0.360298 0.599963 0.098071
0.365419 0.603162 0.097910
0.372907 0.610679 0.097710
0.377086 0.611891 0.097557
0.376220 0.603832 0.097477
0.377568 0.599916 0.097364
0.379993 0.597977 0.097233
0.381651 0.594693 0.097112
0.386626 0.597251 0.096936
0.396900 0.608893 0.096668
0.398508 0.605420 0.096541
0.403202 0.607218 0.096360
0.406841 0.607175 0.096194
0.407083 0.601463 0.096086
0.408148 0.597189 0.095963
0.412747 0.598716 0.095773
0.417619 0.600617 0.095575
0.420565 0.599380 0.095410
0.427531 0.604472 0.095165
0.430377 0.602999 0.094996
0.433031 0.601224 0.094828
0.437030 0.601509 0.094631
0.441070 0.601815 0.094430
0.443887 0.600248 0.094251
0.449489 0.602810 0.094010
0.454439 0.604329 0.093778
0.459945 0.606591 0.093531
0.464665 0.607640 0.093296
0.463778 0.600628 0.093183
0.467558 0.600312 0.092963
0.470390 0.598638 0.092761
0.473703 0.597625 0.092545
0.478048 0.598011 0.092300
0.483872 0.600364 0.092015
0.487900 0.600213 0.091769
0.489992 0.597442 0.091567
0.491614 0.594063 0.091374
0.496632 0.595154 0.091091
0.502533 0.597328 0.090779
0.507568 0.598307 0.090485
0.508346 0.593810 0.090299
0.513829 0.595285 0.089982
0.514889 0.591169 0.089782
0.520910 0.593220 0.089440
0.521688 0.588767 0.089240
0.520911 0.582465 0.089081
0.529094 0.587010 0.088662
0.549174 0.605595 0.087884
0.548058 0.598775 0.087720
0.554776 0.601194 0.087317
0.559665 0.601401 0.086963
0.563086 0.599872 0.086648
0.567971 0.599986 0.086283
0.573449 0.600715 0.085891
0.578041 0.600391 0.085522
0.582148 0.599487 0.085162
0.587839 0.600282 0.084745
0.591509 0.598818 0.084388
0.595987 0.598197 0.083998
0.599281 0.596274 0.083643
0.600504 0.592150 0.083356
0.596876 0.582982 0.083237
0.611671 0.592996 0.082461
0.625666 0.601949 0.081699
0.628767 0.599617 0.081323
0.629852 0.595246 0.081018
0.633921 0.593876 0.080599
0.636737 0.591240 0.080224
0.638457 0.587528 0.079889
0.642095 0.585690 0.079478
0.654358 0.592112 0.078724
0.665917 0.597692 0.077988
0.671398 0.597392 0.077490
0.676607 0.596793 0.077000
0.685189 0.599274 0.076369
0.691966 0.600006 0.075810
0.696511 0.598655 0.075345
0.699820 0.596174 0.074933
0.702975 0.593560 0.074532
0.710278 0.594612 0.073956
0.719370 0.597169 0.073304
0.720578 0.592824 0.073003
0.726792 0.592820 0.072488
0.738618 0.597554 0.071728
0.743544 0.596371 0.071286
0.748351 0.595089 0.070859
0.756166 0.596300 0.070306
0.762374 0.596160 0.069839
0.765550 0.593553 0.069526
0.765943 0.588750 0.069359
0.776113 0.591826 0.068754
0.784235 0.593234 0.068261
0.793594 0.595594 0.067727
0.798570 0.594520 0.067419
0.803201 0.593215 0.067148
0.794569 0.581818 0.067524
0.808202 0.587499 0.066872
0.817570 0.589908 0.066443
0.823221 0.589536 0.066213
0.831065 0.590821 0.065902
0.777637 0.547157 0.068491
0.008861 0.603312 0.098647
0.010432 0.610572 0.098438
0.012533 0.611677 0.098280
0.014790 0.611157 0.098146
0.017196 0.608837 0.098039
0.019537 0.607960 0.097935
0.021841 0.608291 0.097835
0.023983 0.612546 0.097716
0.026372 0.613082 0.097639
0.028750 0.614798 0.097566
0.031225 0.615242 0.097514
0.033771 0.614720 0.097483
0.036363 0.613596 0.097468
0.039010 0.611098 0.097477
0.041581 0.612358 0.097464
0.044157 0.615481 0.097447
0.046903 0.609609 0.097513
0.049579 0.608378 0.097550
0.052262 0.607814 0.097589
0.054961 0.611468 0.097601
0.057703 0.613751 0.097632
0.060447 0.612341 0.097698
0.063276 0.616828 0.097724
0.066146 0.620618 0.097760
0.068690 0.608602 0.097921
0.071521 0.610390 0.097980
0.074323 0.610523 0.098054
0.077108 0.609989 0.098135
0.079869 0.608860 0.098222
0.082666 0.608620 0.098303
0.085353 0.606230 0.098400
0.088151 0.606138 0.098481
0.091246 0.610850 0.098530
0.094244 0.613383 0.098593
0.097275 0.616021 0.098656
0.100421 0.619830 0.098710
0.102400 0.608700 0.098854
0.105148 0.607814 0.098933
0.107815 0.606126 0.099014
0.110615 0.606006 0.099084
0.113452 0.606275 0.099148
0.116134 0.605026 0.099219
0.119562 0.610739 0.099250
0.122350 0.610349 0.099310
0.124958 0.608476 0.099375
0.127421 0.605577 0.099442
0.130596 0.608448 0.099477
0.133569 0.609599 0.099517
0.136380 0.609484 0.099561
0.139191 0.609376 0.099601
0.141940 0.608857 0.099639
0.145062 0.610818 0.099663
0.148145 0.612401 0.099685
0.151286 0.614241 0.099703
0.154195 0.614580 0.099724
0.156499 0.611348 0.099758
0.158479 0.606448 0.099796
0.161682 0.608559 0.099800
0.164802 0.610102 0.099802
0.167755 0.610677 0.099806
0.171018 0.612796 0.099800
0.173485 0.610817 0.099808
0.175928 0.608801 0.099814
0.178545 0.607689 0.099812
0.182071 0.610850 0.099789
0.185678 0.614222 0.099761
0.188685 0.614749 0.099743
0.189805 0.606990 0.099759
0.192646 0.606898 0.099738
0.195394 0.606396 0.099716
0.198248 0.606331 0.099689
0.201003 0.605844 0.099662
0.203580 0.604654 0.099634
0.206378 0.604340 0.099601
0.210359 0.608512 0.099542
0.214621 0.613557 0.099477
0.216820 0.610831 0.099446
0.219195 0.608811 0.099410
0.222438 0.609908 0.099356
0.224372 0.606392 0.099323
0.227368 0.606596 0.099269
0.230039 0.605679 0.099218
0.232177 0.603001 0.099174
0.234918 0.602343 0.099118
0.237835 0.602246 0.099056
0.241171 0.603438 0.098984
0.244109 0.603337 0.098918
0.247358 0.604158 0.098843
0.249964 0.602996 0.098779
0.252897 0.602810 0.098707
0.256761 0.605312 0.098615
0.261306 0.609667 0.098508
0.264268 0.609392 0.098429
0.267800 0.610682 0.098337
0.269183 0.606001 0.098285
0.271587 0.604190 0.098211
0.275399 0.606164 0.098109
0.278997 0.607487 0.098008
0.281272 0.605310 0.097932
0.284867 0.606548 0.097828
0.287823 0.606105 0.097735
0.290322 0.604506 0.097650
0.292906 0.603128 0.097561
0.296074 0.603177 0.097459
0.301257 0.608027 0.097313
0.305957 0.611580 0.097175
0.309532 0.612384 0.097059
0.309449 0.604696 0.097018
0.311520 0.602078 0.096931
0.314658 0.601897 0.096819
0.317745 0.601579 0.096707
0.320876 0.601336 0.096592
0.324245 0.601586 0.096471
0.327358 0.601252 0.096353
0.332229 0.604620 0.096194
0.337810 0.609365 0.096018
0.342806 0.612761 0.095851
0.343065 0.606356 0.095792
0.344937 0.603333 0.095694
0.348120 0.602968 0.095564
0.351592 0.603153 0.095426
0.351935 0.597190 0.095360
0.357477 0.601372 0.095170
0.362344 0.604142 0.094992
0.366831 0.606103 0.094822
0.372617 0.610416 0.094617
0.373914 0.606314 0.094521
0.375107 0.602077 0.094426
0.375725 0.596862 0.094344
0.380580 0.599304 0.094154
0.385539 0.601847 0.093958
0.389005 0.601692 0.093798
0.391787 0.600325 0.093654
0.396956 0.603045 0.093445
0.397859 0.598444 0.093346
0.403504 0.601862 0.093120
0.408500 0.604100 0.092907
0.411569 0.603093 0.092744
0.415383 0.603286 0.092558
0.420078 0.604859 0.092344
0.424943 0.606639 0.092123
0.429041 0.607140 0.091920
0.430020 0.602726 0.091803
0.432619 0.600872 0.091637
0.436466 0.600930 0.091433
0.440561 0.601328 0.091219
0.443229 0.599542 0.091043
0.445821 0.597645 0.090867
0.453983 0.603942 0.090522
0.460923 0.608300 0.090208
0.465283 0.608816 0.089968
0.465088 0.602779 0.089862
0.467969 0.601172 0.089661
0.471400 0.600331 0.089439
0.474211 0.598606 0.089233
0.478604 0.599050 0.088973
0.483679 0.600377 0.088687
0.486639 0.598787 0.088465
0.490686 0.598640 0.088204
0.492487 0.595485 0.088012
0.499029 0.598559 0.087660
0.504134 0.599671 0.087350
0.507948 0.599061 0.087078
0.511205 0.597711 0.086821
0.511827 0.593021 0.086650
0.518139 0.595485 0.086278
0.520749 0.593277 0.086030
0.523447 0.591175 0.085775
0.528438 0.591852 0.085434
0.537583 0.597468 0.084936
0.549964 0.606789 0.084312
0.551191 0.602723 0.084087
0.553750 0.600242 0.083810
0.558368 0.600145 0.083451
0.562485 0.599424 0.083105
0.566435 0.598480 0.082759
0.572815 0.600240 0.082314
0.577465 0.599985 0.081930
0.580673 0.598091 0.081596
0.585086 0.597501 0.081209
0.591204 0.598718 0.080748
0.595989 0.598428 0.080334
0.599684 0.596930 0.079959
0.600267 0.592123 0.079708
0.604015 0.590661 0.079322
0.619242 0.601055 0.078445
0.625090 0.601583 0.077954
0.629467 0.600553 0.077522
0.633617 0.599259 0.077095
0.637423 0.597591 0.076678
0.643006 0.597655 0.076179
0.643792 0.592972 0.075891
0.638775 0.582698 0.075867
0.649310 0.587496 0.075135
0.664770 0.596838 0.074167
0.670463 0.596752 0.073645
0.677477 0.597851 0.073058
0.682073 0.596645 0.072584
0.689283 0.597809 0.071986
0.694212 0.596836 0.071496
0.701953 0.598366 0.070872
0.705597 0.596178 0.070449
0.709763 0.594453 0.070006
0.722710 0.600398 0.069131
0.728084 0.599644 0.068636
0.728457 0.594584 0.068401
0.736582 0.596179 0.067784
0.740457 0.594143 0.067393
0.748195 0.595349 0.066814
0.753396 0.594421 0.066378
0.760841 0.595336 0.065839
0.765645 0.594084 0.065451
0.766277 0.589492 0.065298
0.771815 0.588897 0.064906
0.782443 0.592343 0.064265
0.794392 0.596775 0.063573
0.799013 0.595446 0.063286
0.803362 0.593946 0.063034
0.799018 0.585843 0.063261
0.785680 0.571074 0.063983
0.803026 0.579654 0.063114
0.817535 0.586008 0.062418
0.817048 0.581187 0.062532
0.840425 0.594009 0.061422
0.010151 0.589914 0.096322
0.010723 0.609862 0.095937
0.012319 0.617874 0.095687
0.014796 0.614187 0.095579
0.017362 0.609275 0.095500
0.019553 0.610695 0.095362
0.021668 0.614390 0.095209
0.024277 0.609751 0.095169
0.026610 0.610917 0.095072
0.028931 0.613406 0.094971
0.031384 0.613916 0.094907
0.033881 0.614236 0.094858
0.036458 0.613059 0.094840
0.039009 0.613636 0.094811
0.041608 0.613580 0.094801
0.044300 0.609652 0.094851
0.046911 0.611199 0.094841
0.049614 0.606476 0.094920
0.052270 0.607691 0.094932
0.054958 0.609725 0.094942
0.057684 0.612020 0.094956
0.060453 0.614943 0.094968
0.063244 0.616512 0.095004
0.066138 0.622001 0.094997
0.068658 0.608967 0.095220
0.071451 0.609537 0.095281
0.074250 0.609891 0.095348
0.077029 0.609393 0.095427
0.079811 0.608927 0.095507
0.082614 0.608883 0.095584
0.085311 0.606723 0.095686
0.088110 0.606641 0.095764
0.091215 0.611522 0.095787
0.094180 0.613544 0.095841
0.097208 0.616155 0.095890
0.100251 0.618622 0.095939
0.102362 0.609199 0.096114
0.105094 0.608107 0.096197
0.107854 0.607435 0.096273
0.110536 0.606016 0.096355
0.113305 0.605598 0.096424
0.116448 0.608807 0.096454
0.119452 0.610461 0.096497
0.122575 0.613028 0.096529
0.125478 0.613539 0.096578
0.127795 0.609250 0.096670
0.130421 0.607700 0.096733
0.133358 0.608600 0.096769
0.136175 0.608558 0.096810
0.138848 0.607515 0.096857
0.142349 0.612155 0.096848
0.145175 0.612062 0.096881
0.148045 0.612249 0.096907
0.151164 0.613953 0.096915
0.153851 0.612962 0.096946
0.155556 0.606271 0.097024
0.158518 0.607081 0.097031
0.161765 0.609419 0.097020
0.164860 0.610806 0.097015
0.167792 0.611250 0.097015
0.170659 0.611325 0.097016
0.173719 0.612348 0.097004
0.175981 0.609406 0.097025
0.179130 0.610814 0.097003
0.182532 0.613327 0.096968
0.185820 0.615192 0.096936
0.188862 0.615855 0.096911
0.189697 0.606822 0.096973
0.192550 0.606783 0.096949
0.195550 0.607344 0.096917
0.198262 0.606673 0.096893
0.200896 0.605695 0.096869
0.203396 0.604199 0.096848
0.206217 0.603987 0.096811
0.209746 0.606447 0.096746
0.213740 0.610533 0.096663
0.216478 0.609840 0.096622
0.219675 0.610801 0.096563
0.223384 0.613515 0.096484
0.224683 0.607727 0.096487
0.227398 0.606950 0.096437
0.230232 0.606576 0.096382
0.232728 0.605067 0.096335
0.234915 0.602580 0.096297
0.238244 0.603798 0.096218
0.242068 0.606507 0.096120
0.245197 0.606952 0.096043
0.246501 0.601788 0.096026
0.249402 0.601552 0.095953
0.252177 0.600920 0.095882
0.255616 0.602217 0.095788
0.260081 0.606395 0.095658
0.264466 0.610194 0.095529
0.266427 0.607097 0.095477
0.267365 0.601247 0.095457
0.271235 0.603481 0.095340
0.276212 0.608579 0.095185
0.280507 0.611713 0.095050
0.282730 0.609346 0.094981
0.283797 0.604050 0.094948
0.288050 0.606927 0.094810
0.290383 0.604904 0.094732
0.292340 0.601981 0.094666
0.295960 0.603148 0.094543
0.300435 0.606307 0.094391
0.305913 0.611731 0.094204
0.308732 0.610770 0.094102
0.310198 0.606680 0.094044
0.312060 0.603565 0.093970
0.314475 0.601742 0.093877
0.317502 0.601296 0.093763
0.321183 0.602269 0.093625
0.324319 0.602005 0.093504
0.326419 0.599497 0.093415
0.332525 0.605510 0.093192
0.337894 0.609807 0.092991
0.342752 0.612917 0.092806
0.343408 0.607326 0.092759
0.344914 0.603554 0.092682
0.347615 0.602227 0.092563
0.350159 0.600590 0.092449
0.353109 0.599752 0.092319
0.356004 0.598797 0.092189
0.361465 0.602737 0.091970
0.368516 0.609563 0.091695
0.366131 0.598575 0.091740
0.370880 0.600982 0.091539
0.373644 0.599679 0.091404
0.378444 0.602053 0.091198
0.382136 0.602364 0.091027
0.387280 0.605207 0.090803
0.389289 0.602468 0.090687
0.390018 0.597539 0.090614
0.390657 0.592527 0.090543
0.394219 0.592548 0.090367
0.398874 0.594369 0.090149
0.410000 0.606873 0.089697
0.415097 0.609174 0.089457
0.418341 0.608380 0.089281
0.423778 0.611101 0.089023
0.427735 0.611375 0.088816
0.429427 0.608033 0.088688
0.430570 0.603868 0.088579
0.432843 0.601499 0.088426
0.435805 0.600197 0.088245
0.440365 0.601310 0.088001
0.443141 0.599688 0.087821
0.445519 0.597472 0.087654
0.458193 0.610417 0.087093
0.462582 0.610997 0.086841
0.464039 0.607300 0.086697
0.464539 0.602271 0.086589
0.467824 0.601242 0.086370
0.471378 0.600572 0.086137
0.474435 0.599188 0.085920
0.478615 0.599335 0.085655
0.480647 0.596517 0.085471
0.484646 0.596368 0.085205
0.488523 0.596016 0.084941
0.495515 0.599754 0.084545
0.501321 0.601825 0.084193
0.504313 0.600165 0.083950
0.507053 0.598170 0.083713
0.508257 0.594214 0.083537
0.512081 0.593595 0.083248
0.513965 0.590522 0.083036
0.515723 0.587305 0.082825
0.526736 0.595455 0.082215
0.533488 0.598231 0.081780
0.542448 0.603567 0.081241
0.548818 0.605670 0.080808
0.549580 0.601063 0.080615
0.553441 0.600120 0.080281
0.557418 0.599281 0.079936
0.562237 0.599375 0.079548
0.565704 0.597882 0.079216
0.570437 0.597792 0.078821
0.576590 0.599239 0.078354
0.580809 0.598469 0.077970
0.586830 0.599636 0.077496
0.591273 0.599017 0.077090
0.596381 0.599071 0.076647
0.598783 0.596190 0.076327
0.601264 0.593392 0.076000
0.607497 0.594517 0.075486
0.614295 0.596151 0.074937
0.623337 0.600004 0.074271
0.627243 0.598511 0.073853
0.631477 0.597323 0.073414
0.638634 0.599017 0.072823
0.641360 0.596249 0.072453
0.644484 0.593868 0.072060
0.646646 0.590547 0.071715
0.659502 0.597508 0.070811
0.666286 0.598511 0.070218
0.667951 0.594620 0.069893
0.677595 0.598203 0.069144
0.681297 0.596175 0.068710
0.688399 0.597254 0.068094
0.693632 0.596573 0.067580
0.697698 0.594813 0.067133
0.704050 0.595084 0.066563
0.709967 0.594928 0.066021
0.721411 0.599574 0.065176
0.728952 0.600720 0.064553
0.728062 0.594582 0.064412
0.731636 0.592328 0.064030
0.739396 0.593622 0.063422
0.744716 0.592837 0.062964
0.754310 0.595590 0.062273
0.760263 0.595299 0.061805
0.763119 0.592489 0.061530
0.769784 0.592797 0.061053
0.773812 0.590995 0.060745
0.782485 0.592909 0.060188
0.789635 0.593605 0.059738
0.796306 0.593929 0.059336
0.803445 0.594627 0.058929
0.803333 0.589782 0.058964
0.791477 0.576123 0.059702
0.805294 0.582047 0.058975
0.818859 0.587718 0.058286
0.817574 0.582320 0.058479
0.841239 0.595396 0.057261
0.011748 0.572459 0.094178
0.011571 0.601655 0.093564
0.012457 0.619224 0.093123
0.015001 0.614352 0.093038
0.017584 0.608913 0.092978
0.019684 0.611616 0.092802
0.021977 0.611895 0.092678
0.024465 0.609114 0.092617
0.026861 0.608584 0.092533
0.029071 0.613086 0.092378
0.031511 0.613544 0.092302
0.034074 0.611499 0.092282
0.036514 0.613968 0.092197
0.039063 0.614252 0.092161
0.041683 0.612737 0.092168
0.044309 0.611624 0.092178
0.046995 0.607261 0.092255
0.049624 0.607624 0.092259
0.052281 0.607357 0.092284
0.054958 0.610565 0.092257
0.057679 0.613088 0.092250
0.060419 0.613399 0.092287
0.063256 0.619228 0.092238
0.066101 0.621938 0.092247
0.068621 0.609130 0.092521
0.071398 0.609338 0.092580
0.074191 0.609689 0.092640
0.076970 0.609353 0.092715
0.079754 0.609057 0.092791
0.082492 0.607701 0.092885
0.085201 0.605936 0.092987
0.088078 0.607361 0.093038
0.091068 0.610358 0.093065
0.094090 0.613366 0.093093
0.097112 0.615933 0.093127
0.100300 0.620358 0.093132
0.102308 0.609539 0.093370
0.105060 0.608673 0.093452
0.107805 0.607818 0.093533
0.110547 0.607008 0.093610
0.113176 0.605136 0.093701
0.116301 0.608202 0.093716
0.119414 0.610890 0.093735
0.122651 0.614442 0.093738
0.125416 0.613721 0.093801
0.127818 0.610114 0.093903
0.130569 0.609506 0.093957
0.133444 0.609864 0.093995
0.136212 0.609427 0.094041
0.139216 0.610671 0.094059
0.142015 0.610437 0.094095
0.145057 0.611811 0.094106
0.148088 0.613033 0.094115
0.150850 0.612501 0.094145
0.153629 0.612098 0.094169
0.155616 0.607074 0.094254
0.158571 0.607819 0.094256
0.161594 0.608896 0.094250
0.164956 0.611732 0.094217
0.167866 0.612037 0.094214
0.170674 0.611785 0.094217
0.173197 0.610105 0.094235
0.176697 0.613269 0.094183
0.179535 0.613106 0.094174
0.182633 0.614146 0.094145
0.185662 0.614807 0.094118
0.188651 0.615243 0.094091
0.189493 0.606248 0.094193
0.192556 0.607122 0.094153
0.195326 0.606708 0.094129
0.198145 0.606492 0.094099
0.200697 0.605182 0.094082
0.203390 0.604463 0.094054
0.205389 0.601057 0.094061
0.209490 0.605754 0.093949
0.212894 0.607648 0.093875
0.216732 0.611045 0.093775
0.220881 0.615417 0.093658
0.223607 0.614571 0.093614
0.224724 0.608132 0.093651
0.226900 0.605509 0.093629
0.229707 0.605066 0.093572
0.232401 0.604242 0.093519
0.234862 0.602659 0.093475
0.238809 0.605855 0.093356
0.243891 0.612501 0.093180
0.245417 0.607883 0.093175
0.247777 0.605928 0.093128
0.250150 0.604044 0.093078
0.252948 0.603449 0.093005
0.256116 0.603922 0.092913
0.260024 0.606477 0.092784
0.262634 0.605257 0.092715
0.264157 0.601011 0.092694
0.268104 0.603525 0.092558
0.272566 0.607335 0.092398
0.277391 0.611982 0.092220
0.281488 0.614551 0.092074
0.281722 0.606975 0.092102
0.285509 0.608690 0.091967
0.289337 0.610434 0.091829
0.291213 0.607228 0.091777
0.292673 0.603052 0.091741
0.296104 0.603750 0.091616
0.300132 0.605833 0.091462
0.304463 0.608553 0.091294
0.308794 0.611173 0.091124
0.310514 0.607665 0.091069
0.312258 0.604273 0.091010
0.314583 0.602241 0.090925
0.317371 0.601262 0.090817
0.321071 0.602281 0.090667
0.323887 0.601327 0.090555
0.327046 0.601102 0.090426
0.332071 0.604811 0.090214
0.336012 0.606129 0.090047
0.340454 0.608427 0.089857
0.345961 0.612820 0.089619
0.344604 0.603193 0.089680
0.347043 0.601349 0.089573
0.349918 0.600379 0.089446
0.352774 0.599365 0.089317
0.355549 0.598187 0.089190
0.361537 0.603145 0.088921
0.367194 0.607338 0.088663
0.365811 0.598248 0.088714
0.369883 0.599413 0.088523
0.375473 0.603296 0.088263
0.377738 0.601050 0.088148
0.382924 0.604048 0.087902
0.387119 0.605198 0.087697
0.389603 0.603294 0.087566
0.387923 0.594182 0.087618
0.388903 0.589791 0.087550
0.392011 0.589073 0.087386
0.396612 0.590845 0.087153
0.409679 0.606619 0.086539
0.414492 0.608461 0.086290
0.418041 0.608173 0.086096
0.422581 0.609455 0.085854
0.427716 0.611625 0.085583
0.428942 0.607548 0.085485
0.430018 0.603281 0.085392
0.432652 0.601479 0.085226
0.435874 0.600578 0.085031
0.440101 0.601185 0.084786
0.443187 0.600032 0.084591
0.445724 0.598050 0.084419
0.456865 0.608739 0.083846
0.465395 0.615376 0.083389
0.467301 0.612284 0.083234
0.463628 0.601239 0.083337
0.467134 0.600535 0.083103
0.470432 0.599515 0.082874
0.473803 0.598576 0.082639
0.479101 0.600268 0.082309
0.481183 0.597510 0.082128
0.480998 0.591707 0.082051
0.489159 0.597125 0.081572
0.495888 0.600507 0.081156
0.501691 0.602568 0.080779
0.504698 0.600920 0.080533
0.506721 0.597996 0.080330
0.507621 0.593653 0.080180
0.511244 0.592787 0.079891
0.514955 0.592002 0.079594
0.523350 0.596991 0.079059
0.527337 0.596434 0.078737
0.532249 0.596967 0.078364
0.542257 0.603579 0.077727
0.548419 0.605434 0.077277
0.549617 0.601343 0.077075
0.552719 0.599508 0.076772
0.557226 0.599289 0.076391
0.561113 0.598313 0.076036
0.564760 0.597033 0.075689
0.570105 0.597641 0.075247
0.575616 0.598372 0.074791
0.581545 0.599502 0.074305
0.586195 0.599158 0.073882
0.591702 0.599698 0.073407
0.596634 0.599559 0.072957
0.600803 0.598555 0.072543
0.602247 0.594641 0.072273
0.611062 0.598455 0.071593
0.616485 0.598630 0.071093
0.621620 0.598453 0.070604
0.628280 0.599776 0.070025
0.635304 0.601388 0.069418
0.638904 0.599499 0.069002
0.642512 0.597600 0.068583
0.645385 0.594965 0.068203
0.651793 0.595756 0.067617
0.664266 0.602308 0.066671
0.667351 0.599751 0.066271
0.671331 0.598037 0.065819
0.676705 0.597609 0.065284
0.681885 0.596963 0.064761
0.687789 0.596947 0.064195
0.693812 0.596998 0.063624
0.697588 0.594986 0.063192
0.702860 0.594305 0.062673
0.709975 0.595230 0.062045
0.715794 0.594970 0.061504
0.723147 0.596016 0.060873
0.725608 0.592815 0.060556
0.728665 0.590156 0.060213
0.734557 0.589918 0.059703
0.750180 0.597799 0.058592
0.757474 0.598631 0.058018
0.758903 0.594625 0.057830
0.760338 0.590691 0.057658
0.762635 0.587521 0.057449
0.770239 0.588653 0.056921
0.780085 0.591549 0.056270
0.785568 0.590978 0.055917
0.794081 0.592793 0.055391
0.799949 0.592552 0.055056
0.808115 0.594098 0.054597
0.801381 0.579794 0.055209
0.820648 0.589790 0.054119
0.830458 0.592641 0.053652
0.843496 0.597860 0.053008
0.007558 0.630187 0.090760
0.011055 0.612041 0.090909
0.013175 0.612345 0.090719
0.015274 0.613582 0.090524
0.017751 0.609521 0.090448
0.019910 0.611020 0.090273
0.022219 0.610679 0.090150
0.024676 0.608115 0.090086
0.026857 0.611764 0.089906
0.029139 0.614574 0.089755
0.031649 0.612989 0.089711
0.034169 0.611674 0.089673
0.036692 0.610980 0.089636
0.039158 0.613432 0.089542
0.041726 0.613526 0.089511
0.044314 0.614071 0.089482
0.046957 0.612797 0.089502
0.049627 0.609943 0.089566
0.052282 0.610023 0.089577
0.054959 0.611052 0.089575
0.057664 0.611777 0.089588
0.060397 0.612976 0.089598
0.063204 0.617486 0.089544
0.066079 0.622616 0.089483
0.068582 0.609231 0.089822
0.071361 0.609739 0.089869
0.074133 0.609574 0.089933
0.076940 0.610135 0.089986
0.079707 0.609444 0.090067
0.082424 0.607701 0.090172
0.085169 0.606686 0.090263
0.087997 0.607253 0.090322
0.090963 0.609909 0.090339
0.093860 0.611101 0.090387
0.097079 0.616650 0.090346
0.100114 0.619017 0.090370
0.102291 0.610389 0.090611
0.104977 0.608710 0.090712
0.107686 0.607456 0.090802
0.110454 0.606945 0.090875
0.113162 0.605879 0.090957
0.115958 0.605753 0.091018
0.119099 0.608810 0.091015
0.122340 0.612481 0.090998
0.125132 0.612074 0.091056
0.127769 0.610425 0.091135
0.130629 0.610651 0.091175
0.133393 0.610134 0.091226
0.136156 0.609642 0.091273
0.139137 0.610713 0.091288
0.141963 0.610659 0.091320
0.144754 0.610372 0.091353
0.147827 0.611897 0.091349
0.151017 0.614052 0.091330
0.153188 0.609936 0.091423
0.155830 0.608801 0.091458
0.158446 0.607566 0.091491
0.161650 0.609652 0.091459
0.164809 0.611368 0.091431
0.167804 0.612126 0.091417
0.170241 0.609965 0.091454
0.172787 0.608443 0.091475
0.175808 0.609299 0.091449
0.179061 0.611209 0.091400
0.182189 0.612430 0.091360
0.185610 0.614922 0.091294
0.188218 0.613648 0.091294
0.189400 0.606171 0.091407
0.192298 0.606338 0.091374
0.195197 0.606483 0.091339
0.197817 0.605450 0.091322
0.200834 0.606038 0.091273
0.203542 0.605361 0.091244
0.206352 0.605083 0.091204
0.209002 0.604182 0.091174
0.212428 0.606190 0.091085
0.216887 0.611896 0.090922
0.221113 0.616532 0.090775
0.223529 0.614570 0.090754
0.224215 0.606631 0.090847
0.226671 0.604991 0.090815
0.229359 0.604159 0.090765
0.231825 0.602597 0.090727
0.234883 0.602985 0.090647
0.238313 0.604527 0.090542
0.242313 0.607787 0.090399
0.246185 0.610521 0.090263
0.249431 0.611233 0.090166
0.252755 0.612130 0.090062
0.255086 0.610031 0.090018
0.257960 0.609552 0.089938
0.260941 0.609366 0.089850
0.262560 0.605300 0.089842
0.264009 0.600848 0.089842
0.268331 0.604400 0.089667
0.272581 0.607628 0.089496
0.277015 0.611230 0.089313
0.279020 0.608295 0.089272
0.281185 0.605831 0.089219
0.283877 0.604755 0.089133
0.289006 0.609851 0.088906
0.291626 0.608513 0.088821
0.293422 0.605150 0.088782
0.296652 0.605335 0.088660
0.300688 0.607422 0.088490
0.304743 0.609473 0.088318
0.309972 0.614190 0.088079
0.310328 0.607495 0.088111
0.312339 0.604714 0.088049
0.314553 0.602431 0.087974
0.317552 0.601921 0.087853
0.320670 0.601659 0.087725
0.323909 0.601634 0.087588
0.326271 0.599699 0.087497
0.330888 0.602564 0.087282
0.336235 0.606862 0.087025
0.341169 0.610174 0.086790
0.344901 0.610918 0.086619
0.344130 0.602500 0.086691
0.346905 0.601340 0.086569
0.349631 0.600078 0.086447
0.352560 0.599214 0.086313
0.355587 0.598526 0.086171
0.362580 0.605409 0.085814
0.364902 0.603276 0.085707
0.366088 0.599036 0.085660
0.371311 0.602324 0.085393
0.375871 0.604296 0.085161
0.378892 0.603410 0.085009
0.382822 0.604141 0.084806
0.387390 0.605953 0.084568
0.390324 0.604833 0.084414
0.389563 0.597297 0.084457
0.388365 0.589137 0.084521
0.392238 0.589727 0.084312
0.398449 0.594201 0.083974
0.405120 0.599316 0.083610
0.414278 0.608386 0.083109
0.417996 0.608377 0.082898
0.420572 0.606493 0.082746
0.425556 0.608457 0.082462
0.430592 0.610430 0.082172
0.430035 0.603583 0.082180
0.432477 0.601481 0.082025
0.435777 0.600702 0.081821
0.440069 0.601408 0.081560
0.443330 0.600517 0.081351
0.445692 0.598270 0.081189
0.456270 0.608134 0.080577
0.465059 0.615161 0.080058
0.468997 0.615006 0.079799
0.464026 0.602074 0.080024
0.466247 0.599543 0.079853
0.470047 0.599236 0.079592
0.473512 0.598433 0.079346
0.480442 0.602374 0.078905
0.481016 0.597541 0.078811
0.484156 0.596222 0.078572
0.492106 0.601319 0.078061
0.495997 0.600905 0.077771
0.499254 0.599626 0.077512
0.505638 0.602392 0.077074
0.506756 0.598288 0.076927
0.510587 0.597677 0.076623
0.514923 0.597672 0.076286
0.517300 0.595174 0.076055
0.522029 0.595592 0.075687
0.527821 0.597263 0.075251
0.528540 0.592691 0.075103
0.536873 0.597329 0.074510
0.547822 0.604954 0.073759
0.549555 0.601498 0.073536
0.552355 0.599307 0.073247
0.556914 0.599150 0.072850
0.560796 0.598169 0.072487
0.564674 0.597152 0.072119
0.573784 0.602005 0.071434
0.576779 0.599886 0.071107
0.581501 0.599667 0.070672
0.586183 0.599356 0.070233
0.590697 0.598817 0.069800
0.595919 0.598997 0.069317
0.603694 0.601842 0.068672
0.605523 0.598304 0.068387
0.611371 0.598982 0.067849
0.616621 0.598975 0.067343
0.622687 0.599753 0.066781
0.627841 0.599534 0.066271
0.634483 0.600766 0.065662
0.638733 0.599535 0.065201
0.642686 0.597980 0.064756
0.648183 0.597915 0.064209
0.656211 0.600255 0.063495
0.662037 0.600385 0.062921
0.666736 0.599389 0.062418
0.671190 0.598132 0.061931
0.679136 0.600115 0.061215
0.682510 0.597782 0.060800
0.687535 0.596964 0.060278
0.692941 0.596466 0.059734
0.695982 0.593809 0.059351
0.701635 0.593494 0.058799
0.708804 0.594490 0.058149
0.716333 0.595751 0.057481
0.722172 0.595496 0.056935
0.725929 0.593432 0.056541
0.716633 0.580270 0.057052
0.731061 0.587346 0.055951
0.729771 0.581137 0.055941
0.752115 0.594616 0.054317
0.756165 0.592824 0.053969
0.758280 0.589484 0.053771
0.758812 0.584927 0.053701
0.759367 0.580472 0.053648
0.775212 0.588231 0.052556
0.787072 0.592737 0.051762
0.793768 0.593156 0.051345
0.798190 0.591826 0.051109
0.799158 0.587891 0.051132
0.773772 0.563983 0.052989
0.783273 0.566826 0.052466
0.815298 0.586529 0.050429
0.828779 0.592172 0.049690
0.829731 0.588519 0.049828
0.009281 0.611281 0.088645
0.011295 0.612271 0.088414
0.013429 0.612180 0.088221
0.015603 0.612046 0.088042
0.017363 0.619207 0.087698
0.019929 0.614093 0.087667
0.022568 0.607612 0.087686
0.024863 0.607689 0.087556
0.026922 0.613630 0.087291
0.029373 0.612289 0.087223
0.031961 0.608041 0.087243
0.034391 0.608328 0.087160
0.036870 0.608147 0.087102
0.039347 0.609160 0.087026
0.041805 0.612838 0.086892
0.044317 0.616867 0.086759
0.046933 0.617574 0.086724
0.049626 0.613098 0.086835
0.052289 0.611797 0.086873
0.054963 0.611812 0.086885
0.057658 0.612032 0.086900
0.060373 0.612198 0.086925
0.063145 0.615151 0.086884
0.065957 0.617935 0.086854
0.068535 0.609017 0.087132
0.071306 0.609508 0.087171
0.074097 0.610129 0.087211
0.076871 0.609908 0.087277
0.079689 0.610590 0.087322
0.082441 0.609551 0.087413
0.085019 0.605216 0.087588
0.088099 0.610437 0.087524
0.090999 0.611820 0.087558
0.093930 0.613429 0.087587
0.096969 0.616309 0.087584
0.099991 0.618559 0.087597
0.102256 0.611056 0.087848
0.104795 0.607623 0.087996
0.107630 0.607833 0.088055
0.110343 0.606735 0.088142
0.113065 0.605819 0.088223
0.115859 0.605677 0.088283
0.118871 0.607547 0.088293
0.122022 0.610491 0.088274
0.124889 0.610789 0.088316
0.127872 0.612013 0.088333
0.130677 0.611738 0.088382
0.133373 0.610666 0.088447
0.136122 0.610052 0.088497
