ply
format ascii 1.0
comment ---
element vertex 1771
property float x
property float y
property float z
element face 0
property list uchar uint vertex_indices
end_header
0.789795 0.602151 0.221458
0.796934 0.608024 0.223305
0.806164 0.616998 0.225992
0.799414 0.601126 0.222019
0.802278 0.600211 0.222056
0.805281 0.599494 0.222148
0.808375 0.598897 0.222273
0.810601 0.596994 0.222047
0.812665 0.594861 0.221758
0.816648 0.595520 0.222229
0.823081 0.599647 0.223648
0.828870 0.602744 0.224792
0.833431 0.604020 0.225445
0.834252 0.600034 0.224659
0.837558 0.599518 0.224824
0.839965 0.597753 0.224647
0.840236 0.593106 0.223675
0.844289 0.593572 0.224115
0.848880 0.594709 0.224745
0.855035 0.597842 0.225934
0.863439 0.603799 0.227916
0.863346 0.598683 0.226817
0.863660 0.594151 0.225878
0.873341 0.601481 0.228264
0.874285 0.597727 0.227546
0.876489 0.595568 0.227275
0.881009 0.596252 0.227809
0.884758 0.595953 0.228068
0.887237 0.594099 0.227889
0.897668 0.601707 0.230405
0.902422 0.602443 0.230973
0.905785 0.601506 0.231068
0.909905 0.601424 0.231411
0.917498 0.605285 0.232891
0.921627 0.605106 0.233217
0.920391 0.598863 0.231794
0.923262 0.597271 0.231714
0.926660 0.596252 0.231802
0.931522 0.596813 0.232353
0.934788 0.595597 0.232391
0.941775 0.598354 0.233595
0.947465 0.599642 0.234376
0.954348 0.602120 0.235516
0.966233 0.609724 0.238178
0.971167 0.609969 0.238678
0.972911 0.606903 0.238202
0.973689 0.602873 0.237440
0.972625 0.597025 0.236133
0.971020 0.590705 0.234681
0.970369 0.585398 0.233529
0.988231 0.598212 0.237831
0.984630 0.589994 0.235808
0.985781 0.586434 0.235189
0.992268 0.587958 0.236115
1.003747 0.594099 0.238459
1.008305 0.593633 0.238800
1.012068 0.592395 0.238911
1.018269 0.593358 0.239704
1.027096 0.596631 0.241221
1.031476 0.595802 0.241481
1.036018 0.595083 0.241782
1.043385 0.596809 0.242853
1.048582 0.596558 0.243317
1.053001 0.595585 0.243563
1.058233 0.595270 0.244023
1.064253 0.595573 0.244688
1.070249 0.595791 0.245336
1.077065 0.596629 0.246192
1.081124 0.595122 0.246310
1.086016 0.594263 0.246644
1.096296 0.597707 0.248373
1.101980 0.597348 0.248891
1.105822 0.595475 0.248928
1.111575 0.595071 0.249451
1.121696 0.597999 0.251076
1.125751 0.596140 0.251148
1.131762 0.595738 0.251707
1.137463 0.595041 0.252181
1.144463 0.595257 0.252970
1.149680 0.594079 0.253308
1.155922 0.593602 0.253890
1.161721 0.592742 0.254356
1.169949 0.593564 0.255404
1.176956 0.593429 0.256143
1.182361 0.592096 0.256486
1.190474 0.592595 0.257469
1.194964 0.590516 0.257578
1.205886 0.592779 0.259203
1.213487 0.592681 0.260026
1.223496 0.594110 0.261399
1.231970 0.594420 0.262398
1.238114 0.593123 0.262844
1.248101 0.594257 0.264165
1.254262 0.592845 0.264593
1.265711 0.594729 0.266215
1.271870 0.593189 0.266619
1.281745 0.593906 0.267851
1.294383 0.596225 0.269683
1.306278 0.597975 0.271326
1.315717 0.598148 0.272404
1.322307 0.596565 0.272838
1.330400 0.595833 0.273593
1.339839 0.595839 0.274627
1.350144 0.596287 0.275833
1.357377 0.594933 0.276360
1.367040 0.594926 0.277397
1.375521 0.594223 0.278165
1.390614 0.597130 0.280322
1.401050 0.597415 0.281468
1.409864 0.596799 0.282258
1.412243 0.592755 0.281693
1.427911 0.595777 0.283884
1.434618 0.594061 0.284199
1.441108 0.592268 0.284462
1.464214 0.598993 0.288106
0.490619 0.604714 0.200898
0.492232 0.594312 0.198705
0.494703 0.601386 0.200455
0.496865 0.601224 0.200564
0.499018 0.600327 0.200503
0.501283 0.600731 0.200731
0.503562 0.600814 0.200883
0.505757 0.599310 0.200669
0.508250 0.601421 0.201274
0.510651 0.601831 0.201488
0.512605 0.596819 0.200462
0.515046 0.597331 0.200692
0.517586 0.598578 0.201088
0.520033 0.598600 0.201201
0.522649 0.600041 0.201637
0.525207 0.600682 0.201889
0.528048 0.603580 0.202657
0.530559 0.603412 0.202720
0.532978 0.602442 0.202599
0.535365 0.601232 0.202421
0.537594 0.598883 0.201979
0.540145 0.598917 0.202086
0.542812 0.599700 0.202366
0.545721 0.601997 0.202995
0.548986 0.606386 0.204110
0.552351 0.611092 0.205300
0.556000 0.617196 0.206816
0.556057 0.602015 0.203405
0.558629 0.601910 0.203484
0.561297 0.602327 0.203686
0.563820 0.601938 0.203702
0.566320 0.601446 0.203696
0.568943 0.601589 0.203838
0.571470 0.601247 0.203870
0.571654 0.589615 0.201270
0.576069 0.598458 0.203446
0.580422 0.606591 0.205462
0.583655 0.609315 0.206218
0.586621 0.610740 0.206674
0.589724 0.612683 0.207253
0.591618 0.609452 0.206622
0.592639 0.602758 0.205179
0.595086 0.602079 0.205148
0.597558 0.601515 0.205146
0.599617 0.599368 0.204773
0.600969 0.594607 0.203784
0.602702 0.591435 0.203170
0.608202 0.602132 0.205835
0.610724 0.601743 0.205884
0.613024 0.600573 0.205750
0.616098 0.602109 0.206259
0.618874 0.602561 0.206515
0.620895 0.600459 0.206165
0.623752 0.601157 0.206482
0.625994 0.599830 0.206320
0.628652 0.599849 0.206480
0.632458 0.603431 0.207494
0.635103 0.603313 0.207627
0.637953 0.603798 0.207906
0.640617 0.603695 0.208047
0.643144 0.603173 0.208089
0.646632 0.605416 0.208798
0.649883 0.606895 0.209327
0.651685 0.604252 0.208864
0.654054 0.603228 0.208793
0.657022 0.603836 0.209118
0.660403 0.605509 0.209703
0.663049 0.605169 0.209804
0.665550 0.604437 0.209811
0.667981 0.603519 0.209774
0.672401 0.607636 0.210965
0.678916 0.616846 0.213406
0.681517 0.616137 0.213430
0.679975 0.605352 0.210988
0.681375 0.601881 0.210334
0.684133 0.601688 0.210484
0.686676 0.600969 0.210507
0.689658 0.601254 0.210778
0.692250 0.600613 0.210824
0.693689 0.597372 0.210227
0.695098 0.594116 0.209627
0.701713 0.602320 0.211869
0.707720 0.608977 0.213735
0.712693 0.613231 0.215010
0.716613 0.615126 0.215703
0.714525 0.604418 0.213252
0.716335 0.601967 0.212859
0.718334 0.599930 0.212570
0.720554 0.598355 0.212397
0.722655 0.596552 0.212167
0.726095 0.597392 0.212604
0.733123 0.605148 0.214789
0.736356 0.605412 0.215088
0.740362 0.607106 0.215752
0.741242 0.602866 0.214913
0.742361 0.599133 0.214202
0.744758 0.597798 0.214100
0.749112 0.600011 0.214903
0.751911 0.599354 0.214978
0.754593 0.598476 0.214996
0.760341 0.602961 0.216392
0.764164 0.603977 0.216903
0.767799 0.604619 0.217320
0.769386 0.601739 0.216832
0.772367 0.601229 0.216955
0.777683 0.604578 0.218079
0.782422 0.606874 0.218936
0.788044 0.610525 0.220149
0.787840 0.604698 0.218898
0.789768 0.602354 0.218553
0.797350 0.608929 0.220541
0.807543 0.619403 0.223561
0.799706 0.601828 0.219225
0.802215 0.600370 0.219115
0.805135 0.599530 0.219169
0.808220 0.598922 0.219286
0.810568 0.597205 0.219110
0.812713 0.595193 0.218857
0.817289 0.596713 0.219543
0.823053 0.599875 0.220671
0.829511 0.603927 0.222043
0.834128 0.605276 0.222698
0.834241 0.600295 0.221659
0.837285 0.599420 0.221721
0.838720 0.596334 0.221188
0.839790 0.592782 0.220529
0.844922 0.594702 0.221349
0.850199 0.596741 0.222207
0.856370 0.599883 0.223369
0.860330 0.600056 0.223729
0.864324 0.600237 0.224095
0.869999 0.602521 0.225039
0.871453 0.599402 0.224507
0.873766 0.597381 0.224276
0.876433 0.595803 0.224168
0.882413 0.598280 0.225181
0.882661 0.593719 0.224251
0.885096 0.591837 0.224063
0.890709 0.593741 0.224929
0.904172 0.604830 0.228363
0.908636 0.605161 0.228808
0.910089 0.601966 0.228269
0.915408 0.603224 0.228980
0.922215 0.606111 0.230156
0.919784 0.598517 0.228380
0.923321 0.597676 0.228509
0.927041 0.597015 0.228693
0.931202 0.596809 0.229009
0.934057 0.595155 0.228916
0.942578 0.599569 0.230561
0.948306 0.600895 0.231332
0.953568 0.601664 0.231950
0.962387 0.606087 0.233628
0.965624 0.604620 0.233614
0.965757 0.599960 0.232677
0.970834 0.600359 0.233209
0.969997 0.594766 0.232000
0.960848 0.580963 0.228384
0.976816 0.592134 0.232079
0.984496 0.594959 0.233343
0.988546 0.594176 0.233553
0.986007 0.587046 0.231889
0.993718 0.589735 0.233135
1.000908 0.591838 0.234217
1.006796 0.592642 0.234922
1.013539 0.594171 0.235852
1.025326 0.600236 0.238157
1.029520 0.599258 0.238356
1.032342 0.597017 0.238179
1.036224 0.595708 0.238288
1.043187 0.597083 0.239221
1.048149 0.596634 0.239607
1.052083 0.595250 0.239714
1.058743 0.596171 0.240537
1.063246 0.595189 0.240783
1.069679 0.595790 0.241526
1.075824 0.596081 0.242185
1.081618 0.596017 0.242743
1.087145 0.595678 0.243224
1.092125 0.594841 0.243559
1.101754 0.597677 0.245063
1.106248 0.596327 0.245257
1.109068 0.593624 0.245029
1.119977 0.597193 0.246809
1.126135 0.596971 0.247395
1.130914 0.595634 0.247633
1.136491 0.594856 0.248060
1.143056 0.594761 0.248720
1.149293 0.594354 0.249291
1.154986 0.593485 0.249722
1.162238 0.593690 0.250518
1.169897 0.594109 0.251399
1.175554 0.593022 0.251795
1.181091 0.591797 0.252156
1.191516 0.593921 0.253650
1.196185 0.591962 0.253790
1.206167 0.593585 0.255150
1.212532 0.592657 0.255662
1.220804 0.592943 0.256601
1.230506 0.594088 0.257850
1.236374 0.592626 0.258218
1.242208 0.591093 0.258570
1.259806 0.597040 0.261539
1.263674 0.594095 0.261425
1.271386 0.593543 0.262157
1.281659 0.594514 0.263439
1.296926 0.598450 0.265793
1.305435 0.598135 0.266650
1.311263 0.596150 0.266915
1.321871 0.596976 0.268199
1.331410 0.597094 0.269237
1.337684 0.595255 0.269565
1.348809 0.596186 0.270909
1.357149 0.595464 0.271649
1.365478 0.594704 0.272375
1.376154 0.595223 0.273575
1.385594 0.595016 0.274502
1.399538 0.597231 0.276339
1.408775 0.596841 0.277190
1.417542 0.596190 0.277932
1.428663 0.596779 0.279137
1.435747 0.595243 0.279512
1.442649 0.593641 0.279843
1.464426 0.599675 0.283124
0.490932 0.611049 0.199919
0.492823 0.605818 0.198915
0.494575 0.597995 0.197328
0.496809 0.599262 0.197748
0.498883 0.597113 0.197407
0.501063 0.596352 0.197368
0.503640 0.600943 0.198516
0.506033 0.602048 0.198885
0.508102 0.598537 0.198222
0.510698 0.601418 0.198981
0.513079 0.601257 0.199058
0.515025 0.596159 0.198027
0.517527 0.597046 0.198332
0.520053 0.597890 0.198625
0.522687 0.599510 0.199090
0.525167 0.599466 0.199181
0.528314 0.605020 0.200529
0.530970 0.605983 0.200844
0.533376 0.604805 0.200677
0.535633 0.602522 0.200261
0.537786 0.599570 0.199692
0.540405 0.600077 0.199902
0.543311 0.602453 0.200535
0.546112 0.603948 0.200970
0.549278 0.607644 0.201904
0.552265 0.609981 0.202532
0.556274 0.618285 0.204514
0.556172 0.602174 0.200963
0.558791 0.602344 0.201102
0.561367 0.602257 0.201185
0.563932 0.602111 0.201255
0.566503 0.601994 0.201333
0.569086 0.601936 0.201426
0.571582 0.601448 0.201423
0.572334 0.592568 0.199506
0.575767 0.596724 0.200565
0.579996 0.604342 0.202419
0.583481 0.608262 0.203432
0.585843 0.607069 0.203277
0.590700 0.616638 0.205592
0.590994 0.606614 0.203415
0.591770 0.598989 0.201786
0.595178 0.602270 0.202665
0.597672 0.601801 0.202684
0.599419 0.598453 0.202041
0.601377 0.596025 0.201610
0.604090 0.596488 0.201849
0.608314 0.602438 0.203359
0.610871 0.602181 0.203437
0.613706 0.602897 0.203742
0.616758 0.604326 0.204215
0.618438 0.601027 0.203592
0.620486 0.599054 0.203278
0.622921 0.598400 0.203273
0.626458 0.601309 0.204100
0.630445 0.605528 0.205237
0.633081 0.605376 0.205356
0.635476 0.604470 0.205301
0.637252 0.601699 0.204809
0.640034 0.601988 0.205037
0.643402 0.603965 0.205664
0.646702 0.605662 0.206228
0.649330 0.605377 0.206328
0.651447 0.603647 0.206088
0.653071 0.600584 0.205535
0.656025 0.601200 0.205852
0.660676 0.606321 0.207240
0.663575 0.606647 0.207495
0.666260 0.606379 0.207611
0.668005 0.603680 0.207149
0.673427 0.610341 0.208921
0.678733 0.616503 0.210580
0.682187 0.617908 0.211107
0.679197 0.603585 0.207868
0.681521 0.602361 0.207764
0.683838 0.601124 0.207658
0.686842 0.601495 0.207941
0.690099 0.602413 0.208357
0.692357 0.601005 0.208215
0.694467 0.599272 0.207994
0.695344 0.594816 0.207115
0.703798 0.607051 0.210284
0.707149 0.607908 0.210700
0.711836 0.611570 0.211801
0.715362 0.612663 0.212280
0.715262 0.606133 0.210899
0.716011 0.601480 0.209974
0.718354 0.600153 0.209863
0.720602 0.598639 0.209706
0.722919 0.597265 0.209585
0.725877 0.597154 0.209775
0.731430 0.602058 0.211206
0.736862 0.606584 0.212549
0.739568 0.605802 0.212583
0.740998 0.602614 0.212021
0.742802 0.600159 0.211640
0.745553 0.599466 0.211697
0.750209 0.602214 0.212615
0.752516 0.600656 0.212461
0.754942 0.599313 0.212360
0.758501 0.599956 0.212759
0.763786 0.603547 0.213902
0.767776 0.604807 0.214463
0.770364 0.603630 0.214412
0.774036 0.604265 0.214820
0.776917 0.603541 0.214886
0.781297 0.605266 0.215575
0.785865 0.607226 0.216328
0.789832 0.608148 0.216820
0.791606 0.605525 0.216410
0.796675 0.608117 0.217333
0.802720 0.612143 0.218629
0.799854 0.602308 0.216371
0.802082 0.600420 0.216150
0.804582 0.598951 0.216037
0.808017 0.598877 0.216286
0.811146 0.598319 0.216411
0.812440 0.595053 0.215835
0.815871 0.594920 0.216072
0.821994 0.598622 0.217312
0.829070 0.603572 0.218883
0.835836 0.607954 0.220314
0.833727 0.599854 0.218478
0.836784 0.599005 0.218541
0.838642 0.596504 0.218171
0.840224 0.593646 0.217706
0.845299 0.595488 0.218484
0.852154 0.599618 0.219873
0.857751 0.601984 0.220801
0.861575 0.601966 0.221100
0.867692 0.604866 0.222180
0.870609 0.603597 0.222152
0.871040 0.599180 0.221280
0.870750 0.593911 0.220178
0.874719 0.593984 0.220510
0.878337 0.593589 0.220720
0.881829 0.593015 0.220883
0.881073 0.587307 0.219657
0.887656 0.590416 0.220824
0.898888 0.598917 0.223468
0.906583 0.603088 0.224943
0.911932 0.604426 0.225652
0.917150 0.605553 0.226308
0.922782 0.607091 0.227083
0.919228 0.598226 0.224993
0.922110 0.596663 0.224915
0.927084 0.597402 0.225477
0.930176 0.596030 0.225457
0.933295 0.594674 0.225444
0.949566 0.607422 0.229375
0.951106 0.604228 0.228863
0.952652 0.601059 0.228357
0.953929 0.597628 0.227777
0.955493 0.594517 0.227287
0.960639 0.595090 0.227841
0.967506 0.597357 0.228883
0.971749 0.596902 0.229158
0.964850 0.585317 0.226257
0.964378 0.580245 0.225210
0.985684 0.596509 0.230290
0.986567 0.592652 0.229605
0.991259 0.592474 0.229983
0.992523 0.588997 0.229410
0.993018 0.584814 0.228632
1.000243 0.586939 0.229693
1.016490 0.597314 0.233178
1.023703 0.599176 0.234191
1.027797 0.598126 0.234357
1.030445 0.595746 0.234135
1.037538 0.597314 0.235087
1.043108 0.597457 0.235626
1.047608 0.596610 0.235878
1.052364 0.595946 0.236191
1.058906 0.596770 0.236958
1.064159 0.596429 0.237384
1.068975 0.595669 0.237693
1.074280 0.595273 0.238119
1.083257 0.597852 0.239460
1.088273 0.597088 0.239795
1.093288 0.596275 0.240123
1.099355 0.596259 0.240705
1.104143 0.595166 0.240964
1.108628 0.593791 0.241144
1.119008 0.596962 0.242749
1.124227 0.596030 0.243089
1.130615 0.595940 0.243703
1.135514 0.594658 0.243952
1.143838 0.595892 0.245008
1.149501 0.595061 0.245422
1.155159 0.594171 0.245828
1.162054 0.594122 0.246515
1.168788 0.593885 0.247154
1.175513 0.593571 0.247781
1.182806 0.593588 0.248528
1.189127 0.592851 0.249042
1.200416 0.595476 0.250672
1.204599 0.593121 0.250682
1.212223 0.593060 0.251458
1.222225 0.594510 0.252751
1.229855 0.594282 0.253502
1.235725 0.592830 0.253854
1.241448 0.591233 0.254166
1.255230 0.594754 0.256225
1.264629 0.595345 0.257308
1.270156 0.593420 0.257543
1.279460 0.593803 0.258580
1.285239 0.591941 0.258850
1.303094 0.597377 0.261670
1.309734 0.595893 0.262094
1.319541 0.596255 0.263172
1.330134 0.597008 0.264397
1.336150 0.595024 0.264657
1.343628 0.593866 0.265210
1.358080 0.596647 0.267181
1.365594 0.595418 0.267713
1.376163 0.595873 0.268854
1.384678 0.595150 0.269563
1.394846 0.595310 0.270591
1.402944 0.594325 0.271191
1.415881 0.595920 0.272739
1.424751 0.595321 0.273465
1.433316 0.594567 0.274118
1.442600 0.594196 0.274900
1.453420 0.594620 0.275967
0.491323 0.619127 0.199262
0.492887 0.606259 0.196623
0.494839 0.602150 0.195872
0.496560 0.593890 0.194214
0.498646 0.592238 0.193983
0.501375 0.600182 0.195835
0.503868 0.603238 0.196623
0.505660 0.596030 0.195170
0.508489 0.602489 0.196694
0.510817 0.601877 0.196672
0.513528 0.605403 0.197552
0.515860 0.604232 0.197402
0.517691 0.597827 0.196102
0.520112 0.597593 0.196151
0.522619 0.598025 0.196344
0.525504 0.601647 0.197237
0.528286 0.603969 0.197844
0.530960 0.605117 0.198192
0.533710 0.606693 0.198634
0.536099 0.605332 0.198429
0.538133 0.601427 0.197661
0.540866 0.602666 0.198028
0.543903 0.605858 0.198827
0.546400 0.605245 0.198786
0.549291 0.607157 0.199305
0.552272 0.609478 0.199915
0.556720 0.620424 0.202440
0.556460 0.603366 0.198754
0.558758 0.601697 0.198481
0.561328 0.601613 0.198562
0.563936 0.601725 0.198687
0.566618 0.602205 0.198896
0.569145 0.601877 0.198926
0.571152 0.598988 0.198386
0.572699 0.594021 0.197383
0.575110 0.593346 0.197338
0.580537 0.606549 0.200401
0.582843 0.605141 0.200199
0.585648 0.605979 0.200501
0.588498 0.606964 0.200839
0.591773 0.609687 0.201569
0.592616 0.602285 0.200025
0.594851 0.600789 0.199809
0.597631 0.601494 0.200091
0.600086 0.600902 0.200083
0.600301 0.591822 0.198158
0.603249 0.593254 0.198608
0.608354 0.602491 0.200829
0.611273 0.603542 0.201200
0.614252 0.604754 0.201610
0.616924 0.604844 0.201769
0.618542 0.601334 0.201110
0.620088 0.597694 0.200421
0.623333 0.599731 0.201028
0.627434 0.604445 0.202249
0.630997 0.607281 0.203044
0.633659 0.607190 0.203174
0.634346 0.601015 0.201911
0.636665 0.599950 0.201819
0.639509 0.600462 0.202091
0.641923 0.599675 0.202066
0.645771 0.603026 0.202997
0.648977 0.604433 0.203482
0.651453 0.603729 0.203483
0.653873 0.602867 0.203448
0.657361 0.604912 0.204089
0.659138 0.602287 0.203649
0.665443 0.611673 0.206001
0.665825 0.605347 0.204704
0.668788 0.605796 0.204984
0.672863 0.609025 0.205915
0.679336 0.618129 0.208222
0.683294 0.620762 0.209024
0.679292 0.603943 0.205269
0.681678 0.602868 0.205201
0.684048 0.601756 0.205125
0.686624 0.601127 0.205164
0.689667 0.601563 0.205456
0.692235 0.600876 0.205484
0.693599 0.597473 0.204871
0.695702 0.595769 0.204660
0.700242 0.599419 0.205720
0.707031 0.607821 0.207915
0.711314 0.610629 0.208786
0.714104 0.610183 0.208884
0.716050 0.607957 0.208559
0.715744 0.601111 0.207128
0.718131 0.599885 0.207041
0.720899 0.599424 0.207138
0.722941 0.597500 0.206885
0.724717 0.595067 0.206509
0.733078 0.605459 0.209229
0.736100 0.605324 0.209414
0.738904 0.604749 0.209494
0.741064 0.602945 0.209277
0.743510 0.601683 0.209192
0.746125 0.600728 0.209183
0.750494 0.602947 0.209949
0.754559 0.604540 0.210566
0.755389 0.600326 0.209763
0.757853 0.599040 0.209678
0.761974 0.600628 0.210299
0.767121 0.603913 0.211342
0.769921 0.603109 0.211380
0.772190 0.601397 0.211196
0.775187 0.600903 0.211313
0.779837 0.603105 0.212101
0.785706 0.607210 0.213366
0.788137 0.605665 0.213229
0.791065 0.604911 0.213290
0.797358 0.609444 0.214675
0.801553 0.610579 0.215214
0.800434 0.603456 0.213684
0.801630 0.599984 0.213067
0.804045 0.598394 0.212923
0.807513 0.598381 0.213177
0.810984 0.598339 0.213427
0.813121 0.596311 0.213175
0.813601 0.591888 0.212314
0.818087 0.593276 0.212931
0.833408 0.610011 0.217467
0.837850 0.611064 0.218014
0.832475 0.598382 0.215044
0.835406 0.597380 0.215062
0.838070 0.595999 0.214984
0.840512 0.594313 0.214828
0.843868 0.593852 0.214990
0.849762 0.596731 0.216018
0.856865 0.601110 0.217442
0.863766 0.605107 0.218774
0.861610 0.597329 0.217043
0.865025 0.596773 0.217193
0.867206 0.594635 0.216931
0.869510 0.592658 0.216711
0.874227 0.593674 0.217279
0.877066 0.592333 0.217230
0.879885 0.590957 0.217173
0.883871 0.590979 0.217488
0.888424 0.591642 0.217976
0.896445 0.596350 0.219545
0.903760 0.600108 0.220870
0.911125 0.603818 0.222190
0.917141 0.605872 0.223074
0.923375 0.608099 0.224012
0.918724 0.597990 0.221632
0.922265 0.597169 0.221751
0.926607 0.597212 0.222107
0.929678 0.595825 0.222079
0.932577 0.594239 0.221999
0.943682 0.601456 0.224323
0.951557 0.605065 0.225674
0.951667 0.600379 0.224759
0.953265 0.597293 0.224283
0.955676 0.595066 0.224043
0.959412 0.594196 0.224180
0.967193 0.597409 0.225453
0.969955 0.595471 0.225303
0.968380 0.589204 0.223949
0.967178 0.583379 0.222714
0.975465 0.586899 0.224095
0.987833 0.594266 0.226569
0.991043 0.592658 0.226530
0.987721 0.584823 0.224733
0.985422 0.578052 0.223230
0.996105 0.583477 0.225193
1.014758 0.596124 0.229233
1.018305 0.594651 0.229259
1.021367 0.592714 0.229155
1.026503 0.592629 0.229589
1.038207 0.598342 0.231706
1.042695 0.597532 0.231949
1.048070 0.597457 0.232413
1.054212 0.597994 0.233063
1.059258 0.597526 0.233428
1.063487 0.596317 0.233582
1.067962 0.595281 0.233794
1.074339 0.595791 0.234470
1.078575 0.594466 0.234611
1.087241 0.596727 0.235828
1.093780 0.597163 0.236513
1.098392 0.595983 0.236724
1.102332 0.594228 0.236769
1.108490 0.594188 0.237339
1.112587 0.592477 0.237413
1.123562 0.596038 0.239101
1.127643 0.594197 0.239155
1.135141 0.594908 0.240000
1.144581 0.596989 0.241282
1.150638 0.596449 0.241768
1.156235 0.595512 0.242142
1.162028 0.594661 0.242553
1.167206 0.593312 0.242818
1.176576 0.594899 0.244018
1.183014 0.594313 0.244547
1.189487 0.593685 0.245075
1.196364 0.593272 0.245683
1.205865 0.594582 0.246856
1.209934 0.592115 0.246828
1.223390 0.595900 0.248834
1.229805 0.594865 0.249294
1.236588 0.594015 0.249825
1.244089 0.593568 0.250500
1.257137 0.596608 0.252340
1.263115 0.595022 0.252664
1.268864 0.593248 0.252933
1.281482 0.595701 0.254628
1.289319 0.595091 0.255308
1.298631 0.595317 0.256281
1.306094 0.594358 0.256859
1.317390 0.595631 0.258209
1.327948 0.596377 0.259390
1.333889 0.594360 0.259622
1.342748 0.594008 0.260432
1.355392 0.595766 0.261984
1.365320 0.595908 0.262976
1.374793 0.595750 0.263863
1.384298 0.595574 0.264741
1.392574 0.594699 0.265366
1.399892 0.593298 0.265794
1.412138 0.594535 0.267164
1.422071 0.594509 0.268071
1.431418 0.594166 0.268852
1.440707 0.593797 0.269609
1.441582 0.589128 0.268765
0.491002 0.610895 0.195080
0.492897 0.605554 0.194087
0.494803 0.600519 0.193153
0.496939 0.599669 0.193101
0.499184 0.600154 0.193328
0.501648 0.603402 0.194141
0.504155 0.606375 0.194892
0.506524 0.606724 0.195081
0.508727 0.604553 0.194728
0.511179 0.605277 0.194991
0.513541 0.604622 0.194956
0.516087 0.605774 0.195305
0.518007 0.600179 0.194205
0.520175 0.597352 0.193695
0.522865 0.599484 0.194248
0.525660 0.602231 0.194933
0.528294 0.603259 0.195247
0.530835 0.603341 0.195357
0.533314 0.602849 0.195342
0.535733 0.601872 0.195222
0.538328 0.602187 0.195381
0.541152 0.604053 0.195874
0.543900 0.605229 0.196220
0.546522 0.605475 0.196364
0.549016 0.604855 0.196322
0.552200 0.608515 0.197209
0.556358 0.617755 0.199308
0.556538 0.603352 0.196277
0.559021 0.602751 0.196241
0.561347 0.601309 0.196024
0.564024 0.601810 0.196231
0.566662 0.602074 0.196387
0.568859 0.600087 0.196054
0.571120 0.598513 0.195812
0.572411 0.592341 0.194566
0.576165 0.598034 0.195914
0.580118 0.604368 0.197407
0.583258 0.606765 0.198041
0.585947 0.607067 0.198219
0.590079 0.613544 0.199754
0.591413 0.607990 0.198650
0.592627 0.602165 0.197485
0.594806 0.600456 0.197226
0.597603 0.601247 0.197520
0.600271 0.601495 0.197696
0.600557 0.592690 0.195873
0.604162 0.596559 0.196852
0.608593 0.603285 0.198467
0.611296 0.603555 0.198656
0.613970 0.603702 0.198820
0.617026 0.605151 0.199275
0.618875 0.602432 0.198805
0.620886 0.600333 0.198474
0.624486 0.603501 0.199319
0.628126 0.606676 0.200169
0.630104 0.604453 0.199815
0.631296 0.599829 0.198925
0.634153 0.600447 0.199209
0.637240 0.601723 0.199642
0.637759 0.595293 0.198347
0.641577 0.598709 0.199266
0.644849 0.600422 0.199804
0.648342 0.602692 0.200471
0.651756 0.604648 0.201071
0.654955 0.605930 0.201521
0.656982 0.603967 0.201238
0.660701 0.606568 0.201991
0.661408 0.601113 0.200918
0.663755 0.600059 0.200844
0.668154 0.604278 0.201973
0.674428 0.613105 0.204158
0.677227 0.612983 0.204306
0.683731 0.621968 0.206540
0.679580 0.604774 0.202781
0.681854 0.603427 0.202650
0.684086 0.601986 0.202498
0.686743 0.601549 0.202578
0.689451 0.601214 0.202683
0.692110 0.600745 0.202759
0.694453 0.599550 0.202668
0.696337 0.597338 0.202342
0.700453 0.600047 0.203158
0.705949 0.605648 0.204651
0.711746 0.611728 0.206261
0.716162 0.614711 0.207155
0.715217 0.606400 0.205415
0.715584 0.600964 0.204343
0.718310 0.600434 0.204418
0.720621 0.599053 0.204295
0.721843 0.595506 0.203663
0.724638 0.595106 0.203771
0.730560 0.600764 0.205310
0.734596 0.602636 0.205960
0.737086 0.601501 0.205902
0.740250 0.601624 0.206143
0.743492 0.601860 0.206413
0.746197 0.601072 0.206440
0.750120 0.602484 0.206994
0.753902 0.603579 0.207475
0.757707 0.604662 0.207955
0.757727 0.599042 0.206831
0.761685 0.600352 0.207369
0.766342 0.602804 0.208184
0.768203 0.600421 0.207838
0.771189 0.599948 0.207952
0.774916 0.600687 0.208361
0.781265 0.605692 0.209808
0.784630 0.605702 0.210047
0.786670 0.603547 0.209761
0.788688 0.601370 0.209469
0.794520 0.605219 0.210650
0.799864 0.608197 0.211623
0.800879 0.604395 0.210938
0.801719 0.600372 0.210197
0.804027 0.598621 0.210013
0.807349 0.598391 0.210205
0.810491 0.597868 0.210327
0.813366 0.596931 0.210347
0.815272 0.594575 0.210016
0.823738 0.601660 0.212033
0.827060 0.601253 0.212192
0.838036 0.611604 0.215040
0.832173 0.598233 0.211964
0.835092 0.597221 0.211976
0.838018 0.596204 0.211987
0.840801 0.594981 0.211948
0.844166 0.594529 0.212105
0.848676 0.595573 0.212642
0.854737 0.598602 0.213685
0.859432 0.599760 0.214259
0.862841 0.599206 0.214401
0.860154 0.590851 0.212555
0.866790 0.594403 0.213746
0.873519 0.597970 0.214949
0.876659 0.596987 0.214989
0.876419 0.591839 0.213959
0.879778 0.591129 0.214071
0.886930 0.594967 0.215361
0.896737 0.601864 0.217451
0.897256 0.597621 0.216659
0.905682 0.602676 0.218286
0.911640 0.604739 0.219142
0.915150 0.603914 0.219248
0.922907 0.607900 0.220618
0.918578 0.598155 0.218387
0.922635 0.597914 0.218651
0.926500 0.597429 0.218855
0.929342 0.595794 0.218757
0.931511 0.593421 0.218465
0.943203 0.601289 0.220900
0.950684 0.604488 0.222104
0.955740 0.605029 0.222605
0.952970 0.597341 0.220904
0.955855 0.595609 0.220798
0.960814 0.595995 0.221266
0.967417 0.598004 0.222178
0.970314 0.596202 0.222064
0.963574 0.584779 0.219335
0.967578 0.584142 0.219536
0.977300 0.589070 0.221264
0.986808 0.593656 0.222911
0.989380 0.591448 0.222701
0.986546 0.584090 0.221073
0.987706 0.580589 0.220506
1.007394 0.594415 0.224747
1.009810 0.591953 0.224484
1.019600 0.596250 0.226110
1.013519 0.586001 0.223677
1.027871 0.594278 0.226437
1.037461 0.598107 0.227965
1.042744 0.598008 0.228396
1.048235 0.598040 0.228872
1.053683 0.597980 0.229329
1.058692 0.597489 0.229671
1.062788 0.596176 0.229785
1.067351 0.595224 0.230008
1.075092 0.596883 0.230991
1.079693 0.595858 0.231209
1.084442 0.594914 0.231457
1.092659 0.596737 0.232520
1.098294 0.596391 0.232961
1.102939 0.595202 0.233163
1.108339 0.594567 0.233536
1.115330 0.595118 0.234269
1.120877 0.594478 0.234660
1.127276 0.594435 0.235239
1.131469 0.592654 0.235307
1.142015 0.595599 0.236804
1.147508 0.594666 0.237149
1.153047 0.593715 0.237497
1.161322 0.594699 0.238444
1.168245 0.594616 0.239080
1.176350 0.595302 0.239965
1.183071 0.594922 0.240535
1.189587 0.594331 0.241051
1.194765 0.592749 0.241270
1.202161 0.592639 0.241957
1.210369 0.593002 0.242807
1.214053 0.590249 0.242686
1.228310 0.594482 0.244787
1.239663 0.596643 0.246253
1.245809 0.595300 0.246617
1.252421 0.594207 0.247069
1.262227 0.595086 0.248168
1.267480 0.593008 0.248321
1.279606 0.595172 0.249865
1.287469 0.594592 0.250526
1.299035 0.596205 0.251920
1.304976 0.594327 0.252170
1.312417 0.593315 0.252711
1.325903 0.595819 0.254436
1.334554 0.595391 0.255188
1.344147 0.595456 0.256111
1.356466 0.597020 0.257549
1.362933 0.595201 0.257836
1.374250 0.596082 0.259047
1.381232 0.594512 0.259413
1.392082 0.595053 0.260505
1.402203 0.595160 0.261443
1.409839 0.593915 0.261900
1.420711 0.594389 0.262953
1.430247 0.594143 0.263741
1.440661 0.594352 0.264680
1.453001 0.595544 0.265959
0.491262 0.615941 0.193725
0.492916 0.605040 0.191600
0.495111 0.605490 0.191822
0.497343 0.605884 0.192028
0.499705 0.607759 0.192539
0.502069 0.608890 0.192891
0.504488 0.610200 0.193278
0.506868 0.610399 0.193431
0.509218 0.609838 0.193421
0.511480 0.607962 0.193133
0.513982 0.608719 0.193393
0.516031 0.604282 0.192562
0.518228 0.601590 0.192094
0.520515 0.599847 0.191821
0.523324 0.602959 0.192567
0.525827 0.602946 0.192655
0.528410 0.603495 0.192860
0.530793 0.602283 0.192694
0.532924 0.599092 0.192110
0.535380 0.598541 0.192081
0.538304 0.601389 0.192769
0.541204 0.603814 0.193369
0.543659 0.603020 0.193289
0.546097 0.602135 0.193190
0.548974 0.604072 0.193689
0.552790 0.611652 0.195386
0.556421 0.617656 0.196752
0.556452 0.602417 0.193609
0.559005 0.602249 0.193666
0.561476 0.601628 0.193627
0.564208 0.602425 0.193892
0.566684 0.601849 0.193865
0.569004 0.600507 0.193676
0.571338 0.599294 0.193516
0.572371 0.591876 0.192031
0.576019 0.597094 0.193246
0.579660 0.602029 0.194405
0.583299 0.606725 0.195517
0.586929 0.611170 0.196578
0.590962 0.617142 0.197971
0.591159 0.606751 0.195851
0.592589 0.601855 0.194911
0.595284 0.602242 0.195108
0.597763 0.601756 0.195119
0.600081 0.600651 0.194998
0.601163 0.594894 0.193873
0.604131 0.596360 0.194310
0.608167 0.601656 0.195578
0.610989 0.602396 0.195863
0.613910 0.603444 0.196217
0.617342 0.606207 0.196946
0.620387 0.607544 0.197368
0.623280 0.608309 0.197668
0.626320 0.609513 0.198066
0.627857 0.605813 0.197396
0.629765 0.603389 0.197005
0.631597 0.600789 0.196576
0.634124 0.600388 0.196628
0.637306 0.601962 0.197116
0.640327 0.602982 0.197485
0.642719 0.602111 0.197440
0.646747 0.605962 0.198437
0.648548 0.603348 0.198011
0.651982 0.605358 0.198608
0.654715 0.605353 0.198761
0.656723 0.603352 0.198475
0.658197 0.599953 0.197878
0.661276 0.600865 0.198239
0.664007 0.600823 0.198390
0.665469 0.597493 0.197810
0.669330 0.600309 0.198601
0.677334 0.613376 0.201685
0.679929 0.612730 0.201711
0.680046 0.606042 0.200386
0.681925 0.603735 0.200041
0.684251 0.602521 0.199941
0.686896 0.602054 0.200011
0.689665 0.601857 0.200142
0.692405 0.601572 0.200256
0.694777 0.600438 0.200178
0.695463 0.595558 0.199254
0.701156 0.601756 0.200840
0.706096 0.606140 0.202020
0.711248 0.610841 0.203277
0.713953 0.610223 0.203327
0.713743 0.603505 0.201986
0.716160 0.602337 0.201911
0.718354 0.600712 0.201732
0.720925 0.599854 0.201729
0.722423 0.596852 0.201234
0.724614 0.595252 0.201061
0.729033 0.597993 0.201890
0.732929 0.599635 0.202468
0.735809 0.599279 0.202588
0.738298 0.598166 0.202533
0.741932 0.599173 0.202971
0.746606 0.602037 0.203843
0.749850 0.602210 0.204093
0.753068 0.602301 0.204325
0.755168 0.600374 0.204087
0.759800 0.602906 0.204894
0.761286 0.599885 0.204401
0.765701 0.601931 0.205099
0.768686 0.601472 0.205211
0.770964 0.599802 0.205037
0.776306 0.603234 0.206070
0.780484 0.604645 0.206630
0.782597 0.602633 0.206380
0.783879 0.599293 0.205814
0.787441 0.599626 0.206122
0.792929 0.602958 0.207148
0.799671 0.608148 0.208622
0.800961 0.604774 0.208052
0.801722 0.600629 0.207296
0.804434 0.599491 0.207261
0.807298 0.598571 0.207279
0.810132 0.597593 0.207285
0.813373 0.597200 0.207432
0.815474 0.595128 0.207175
0.819571 0.595934 0.207616
0.825602 0.599447 0.208719
0.834142 0.606392 0.210664
0.832353 0.598756 0.209056
0.835303 0.597785 0.209074
0.838106 0.596598 0.209040
0.840805 0.595263 0.208970
0.845176 0.596162 0.209452
0.849794 0.597338 0.210006
0.854022 0.597946 0.210423
0.860266 0.601134 0.211482
0.864270 0.601339 0.211806
0.868280 0.601513 0.212125
0.874899 0.604949 0.213261
0.877850 0.603691 0.213229
0.879485 0.600790 0.212786
0.876907 0.592736 0.211049
0.880503 0.592312 0.211227
0.888641 0.597335 0.212781
0.896355 0.601721 0.214183
0.903699 0.605551 0.215451
0.907519 0.605146 0.215652
0.911515 0.604915 0.215899
0.916017 0.605235 0.216291
0.922967 0.608298 0.217387
0.918377 0.598255 0.215130
0.922714 0.598332 0.215465
0.926392 0.597642 0.215606
0.928787 0.595521 0.215380
0.931802 0.594074 0.215330
0.943143 0.601570 0.217604
0.950675 0.604830 0.218789
0.955525 0.605156 0.219217
0.953102 0.597832 0.217647
0.955900 0.596010 0.217516
0.959947 0.595464 0.217722
0.968810 0.599784 0.219215
0.965394 0.591611 0.217415
0.963408 0.584975 0.216015
0.966494 0.583435 0.215966
0.979319 0.591420 0.218459
0.982485 0.589840 0.218412
0.987746 0.590260 0.218903
1.000599 0.597857 0.221331
0.996567 0.589334 0.219429
0.992404 0.580799 0.217516
1.013508 0.595779 0.221974
1.012073 0.589751 0.220746
1.023053 0.595072 0.222612
1.028381 0.595153 0.223059
1.034603 0.595981 0.223718
1.040903 0.596809 0.224385
1.047809 0.598100 0.225188
1.051965 0.596929 0.225319
1.057400 0.596823 0.225751
1.062413 0.596305 0.226076
1.068403 0.596563 0.226625
1.075632 0.597793 0.227455
1.079903 0.596495 0.227584
1.083214 0.594377 0.227487
1.091765 0.596488 0.228595
1.097633 0.596342 0.229073
1.104204 0.596695 0.229703
1.108776 0.595402 0.229871
1.113510 0.594196 0.230071
1.120856 0.594965 0.230850
1.125978 0.593951 0.231123
1.131140 0.592919 0.231398
1.139970 0.594588 0.232474
1.146572 0.594500 0.233047
1.151840 0.593362 0.233322
1.157454 0.592425 0.233665
1.169123 0.595796 0.235299
1.173868 0.594087 0.235436
1.181636 0.594471 0.236208
1.187721 0.593593 0.236614
1.194829 0.593365 0.237226
1.198439 0.590668 0.237099
1.210155 0.593441 0.238649
1.215070 0.591518 0.238777
1.222770 0.591404 0.239471
1.237397 0.595761 0.241563
1.245256 0.595550 0.242258
1.249166 0.592727 0.242146
1.259076 0.593701 0.243233
1.269120 0.594660 0.244329
1.276367 0.593782 0.244856
1.287733 0.595384 0.246184
1.295402 0.594626 0.246769
1.305573 0.595321 0.247829
1.311831 0.593599 0.248117
1.327532 0.597417 0.250214
1.336452 0.597134 0.250986
1.346016 0.597171 0.251867
1.355609 0.597167 0.252740
1.362566 0.595626 0.253103
1.372964 0.595993 0.254101
1.381259 0.595150 0.254693
1.395068 0.597303 0.256294
1.400494 0.594848 0.256332
1.408770 0.593946 0.256886
1.419670 0.594434 0.257908
1.432170 0.595738 0.259204
1.439196 0.594170 0.259498
1.448166 0.593632 0.260133
0.491218 0.614034 0.190919
0.493316 0.612447 0.190726
0.495189 0.606056 0.189553
0.497501 0.607731 0.190013
0.499836 0.608956 0.190378
0.502114 0.608628 0.190423
0.504460 0.608847 0.190577
0.506831 0.608970 0.190708
0.509197 0.608654 0.190746
0.511692 0.609595 0.191038
0.514034 0.608422 0.190896
0.516291 0.606228 0.190542
0.518536 0.603917 0.190161
0.521243 0.606131 0.190705
0.523539 0.604181 0.190394
0.525946 0.603256 0.190292
0.528541 0.603895 0.190510
0.530828 0.601879 0.190181
0.532949 0.598638 0.189598
0.535504 0.598851 0.189727
0.538498 0.602197 0.190501
0.541121 0.602655 0.190681
0.543451 0.601060 0.190436
0.546061 0.601379 0.190587
0.549087 0.604298 0.191277
0.552009 0.606376 0.191795
0.556641 0.618519 0.194401
0.556570 0.602687 0.191206
0.559068 0.602211 0.191197
0.561670 0.602321 0.191310
0.564179 0.601926 0.191320
0.566603 0.601108 0.191243
0.569131 0.600849 0.191283
0.571667 0.600640 0.191335
0.572266 0.591121 0.189444
0.576114 0.597303 0.190833
0.579752 0.602229 0.191963
0.582642 0.603578 0.192347
0.585570 0.605024 0.192754
0.590068 0.613134 0.194561
0.591205 0.606789 0.193338
0.593143 0.603994 0.192859
0.595397 0.602572 0.192671
0.597771 0.601676 0.192594
0.599895 0.599834 0.192319
0.601436 0.595847 0.191592
0.604295 0.596900 0.191930
0.608132 0.601469 0.193015
0.611409 0.603854 0.193641
0.614082 0.604014 0.193797
0.617993 0.608432 0.194859
0.621671 0.611888 0.195721
0.624566 0.612596 0.196002
0.626895 0.611405 0.195880
0.628712 0.608581 0.195412
0.630841 0.606825 0.195171
0.633368 0.606347 0.195205
0.635359 0.604221 0.194887
0.636577 0.599802 0.194078
0.640794 0.604427 0.195210
0.643770 0.605251 0.195529
0.646846 0.606316 0.195902
0.649735 0.606796 0.196152
0.650509 0.601313 0.195116
0.653846 0.603044 0.195638
0.655860 0.601097 0.195367
0.657890 0.599230 0.195114
0.661507 0.601582 0.195777
0.664562 0.602380 0.196105
0.666982 0.601498 0.196069
0.671251 0.605298 0.197055
0.677361 0.613572 0.199021
0.680741 0.614865 0.199469
0.679795 0.605570 0.197602
0.681875 0.603756 0.197370
0.684183 0.602504 0.197263
0.686933 0.602289 0.197384
0.689790 0.602301 0.197556
0.692452 0.601837 0.197625
0.694564 0.600121 0.197419
0.691808 0.587600 0.194824
0.701464 0.602602 0.198317
0.706835 0.607917 0.199674
0.709584 0.607458 0.199753
0.713610 0.609681 0.200430
0.714450 0.605165 0.199609
0.716082 0.602363 0.199168
0.718652 0.601507 0.199163
0.720934 0.600065 0.199027
0.722105 0.596411 0.198395
0.724374 0.594977 0.198261
0.728641 0.597431 0.199002
0.733927 0.601759 0.200169
0.736351 0.600516 0.200084
0.738488 0.598731 0.199876
0.742556 0.600543 0.200483
0.746706 0.602436 0.201112
0.749833 0.602397 0.201305
0.754273 0.604686 0.202029
0.756840 0.603566 0.201979
0.757231 0.598616 0.201054
0.761006 0.599624 0.201492
0.765217 0.601329 0.202091
0.769168 0.602523 0.202576
0.774624 0.606193 0.203634
0.776446 0.603703 0.203276
0.779791 0.603744 0.203502
0.781430 0.600974 0.203079
0.783844 0.599478 0.202951
0.787091 0.599311 0.203132
0.794449 0.605604 0.204819
0.801291 0.610929 0.206287
0.801181 0.605366 0.205217
0.800820 0.599502 0.204074
0.803985 0.599065 0.204200
0.807599 0.599277 0.204480
0.810432 0.598295 0.204481
0.812679 0.596441 0.204277
0.815017 0.594723 0.204106
0.821348 0.598754 0.205296
0.827273 0.602094 0.206329
0.832516 0.604371 0.207114
0.833177 0.600176 0.206360
0.835629 0.598507 0.206208
0.838046 0.596790 0.206045
0.840575 0.595226 0.205919
0.844659 0.595747 0.206294
0.850668 0.598780 0.207277
0.858547 0.604182 0.208837
0.863604 0.605770 0.209482
0.864445 0.601854 0.208798
0.872469 0.607157 0.210351
0.877058 0.607977 0.210821
0.877323 0.603329 0.209960
0.877771 0.598963 0.209167
0.880445 0.597381 0.209053
0.885360 0.598523 0.209609
0.889404 0.598560 0.209896
0.896434 0.602125 0.211057
0.902410 0.604341 0.211891
0.906481 0.604247 0.212158
0.909371 0.602749 0.212080
0.912501 0.601516 0.212069
0.917964 0.602929 0.212719
0.918916 0.599188 0.212086
0.921499 0.597303 0.211917
0.925658 0.597160 0.212187
0.929364 0.596485 0.212326
0.931923 0.594540 0.212147
0.937876 0.596244 0.212893
0.948521 0.602881 0.214896
0.953037 0.602880 0.215223
0.952587 0.597642 0.214219
0.955942 0.596406 0.214235
0.959876 0.595747 0.214402
0.968344 0.599671 0.215750
0.967955 0.594553 0.214777
0.967347 0.589268 0.213759
0.977656 0.594841 0.215551
0.974002 0.586579 0.213762
0.976133 0.584044 0.213458
0.992560 0.595269 0.216749
0.997024 0.594836 0.217009
0.990710 0.584188 0.214589
0.998987 0.587341 0.215795
0.999323 0.583030 0.215039
1.009897 0.588151 0.216781
1.020051 0.592748 0.218398
1.032736 0.599490 0.220601
1.035687 0.597365 0.220450
1.039544 0.596030 0.220514
1.047196 0.597992 0.221469
1.051694 0.597125 0.221671
1.058003 0.597779 0.222291
1.062297 0.596648 0.222434
1.067188 0.595985 0.222710
1.073050 0.596089 0.223203
1.078615 0.595888 0.223620
1.084570 0.595949 0.224117
1.091215 0.596511 0.224761
1.094444 0.594253 0.224632
1.104599 0.597490 0.226038
1.108765 0.595879 0.226105
1.112863 0.594181 0.226154
1.121364 0.595855 0.227158
1.125565 0.594137 0.227217
1.131830 0.593949 0.227716
1.139924 0.595069 0.228597
1.146818 0.595204 0.229211
1.152707 0.594526 0.229601
1.158010 0.593361 0.229861
1.164032 0.592666 0.230266
1.173591 0.594435 0.231396
1.181219 0.594728 0.232111
1.190109 0.595822 0.233074
1.194245 0.593524 0.233053
1.199384 0.591882 0.233232
1.209814 0.593785 0.234472
1.215437 0.592343 0.234730
1.223219 0.592286 0.235412
1.235381 0.595031 0.236951
1.241665 0.593815 0.237310
1.252558 0.595512 0.238564
1.256231 0.592497 0.238393
1.268830 0.595090 0.239949
1.274121 0.592998 0.240076
1.286411 0.595190 0.241537
1.296734 0.596061 0.242603
1.304919 0.595552 0.243249
1.313423 0.595175 0.243942
1.322889 0.595307 0.244804
1.334133 0.596412 0.245982
1.345651 0.597591 0.247194
1.355113 0.597514 0.248009
1.364717 0.597467 0.248837
1.372352 0.596274 0.249294
1.383165 0.596822 0.250316
1.391817 0.596140 0.250934
1.400017 0.595197 0.251460
1.405972 0.593047 0.251579
1.418749 0.594539 0.252897
1.431173 0.595802 0.254136
1.438334 0.594299 0.254438
1.439788 0.589894 0.253742
0.490532 0.597529 0.185245
0.492538 0.595371 0.184936
0.494796 0.597635 0.185500
0.497052 0.598886 0.185860
0.499299 0.599237 0.186039
0.501604 0.599931 0.186282
0.503907 0.600034 0.186405
0.506288 0.600781 0.186654
0.508714 0.601664 0.186927
0.511425 0.605539 0.187796
0.513886 0.605903 0.187961
0.516289 0.605380 0.187948
0.518353 0.601260 0.187211
0.521305 0.605956 0.188239
0.523477 0.602866 0.187705
0.525834 0.601545 0.187524
0.528392 0.601942 0.187687
0.531228 0.604483 0.188281
0.533465 0.602056 0.187875
0.536024 0.602182 0.187983
0.538633 0.602611 0.188151
0.541031 0.601484 0.188006
0.543570 0.601355 0.188062
0.546778 0.605588 0.189000
0.549413 0.605896 0.189146
0.552159 0.606856 0.189424
0.556970 0.620053 0.192183
0.556676 0.602915 0.188797
0.559243 0.602830 0.188867
0.561780 0.602584 0.188904
0.564252 0.601997 0.188874
0.566732 0.601477 0.188858
0.569391 0.601883 0.189032
0.571900 0.601528 0.189052
0.572527 0.592136 0.187231
0.576492 0.598857 0.188696
0.579948 0.602923 0.189624
0.582758 0.603908 0.189924
0.585069 0.602658 0.189769
0.590452 0.614621 0.192322
0.590694 0.604503 0.190352
0.591702 0.597949 0.189112
0.595349 0.602268 0.190105
0.597782 0.601622 0.190080
0.599967 0.600031 0.189862
0.601252 0.595078 0.188952
0.605260 0.600428 0.190168
0.609675 0.607053 0.191651
0.612651 0.608267 0.192020
0.615748 0.609849 0.192467
0.618242 0.609275 0.192469
0.622035 0.613115 0.193390
0.625412 0.615420 0.193994
0.627666 0.613945 0.193815
0.630220 0.613470 0.193846
0.633061 0.613902 0.194067
0.635366 0.612623 0.193932
0.637926 0.612152 0.193968
0.640015 0.610250 0.193705
0.642437 0.609378 0.193659
0.644930 0.608718 0.193659
0.646482 0.605340 0.193089
0.648629 0.603731 0.192891
0.651059 0.602942 0.192866
0.653327 0.601703 0.192748
0.656000 0.601578 0.192866
0.659447 0.603509 0.193420
0.662439 0.604155 0.193704
0.665493 0.604920 0.194017
0.668386 0.605226 0.194233
0.672620 0.608896 0.195167
0.677036 0.612894 0.196174
0.681283 0.616340 0.197068
0.680424 0.607241 0.195286
0.681804 0.603731 0.194695
0.683958 0.602119 0.194510
0.686754 0.602022 0.194651
0.689428 0.601620 0.194727
0.691783 0.600472 0.194645
0.694627 0.600426 0.194801
0.694667 0.594119 0.193607
0.700898 0.601529 0.195375
0.706501 0.607369 0.196810
0.711823 0.612433 0.198082
0.713054 0.608690 0.197446
0.714197 0.604821 0.196782
0.716137 0.602662 0.196490
0.718327 0.601036 0.196313
0.720455 0.599291 0.196111
0.722041 0.596480 0.195676
0.723950 0.594337 0.195387
0.730649 0.601539 0.197151
0.734683 0.603418 0.197750
0.737569 0.603040 0.197854
0.741554 0.604705 0.198411
0.744716 0.604771 0.198617
0.746584 0.602428 0.198291
0.752626 0.607690 0.199652
0.756965 0.609746 0.200306
0.757288 0.604586 0.199357
0.757858 0.599941 0.198520
0.759651 0.597493 0.198171
0.765568 0.602162 0.199416
0.770931 0.605754 0.200424
0.774200 0.605715 0.200620
0.775488 0.602346 0.200070
0.776663 0.598830 0.199485
0.780162 0.599146 0.199764
0.784422 0.600652 0.200314
0.787013 0.599430 0.200249
0.793294 0.604029 0.201506
0.800484 0.609922 0.203063
0.800643 0.604787 0.202113
0.800583 0.599392 0.201101
0.803810 0.599053 0.201243
0.807474 0.599346 0.201531
0.810499 0.598651 0.201595
0.812438 0.596345 0.201289
0.813981 0.593477 0.200853
0.822743 0.601026 0.202822
0.829738 0.605873 0.204175
0.837385 0.611511 0.205717
0.833587 0.601020 0.203519
0.835724 0.598911 0.203265
0.837821 0.596756 0.203000
0.840312 0.595144 0.202862
0.843598 0.594599 0.202974
0.850435 0.598751 0.204191
0.859914 0.606268 0.206205
0.863985 0.606556 0.206524
0.866567 0.604883 0.206384
0.870225 0.604583 0.206568
0.874803 0.605421 0.207025
0.876013 0.601983 0.206469
0.878592 0.600280 0.206324
0.886061 0.604586 0.207615
0.890316 0.604862 0.207949
0.891154 0.600975 0.207288
0.893816 0.599305 0.207158
0.902271 0.604490 0.208679
0.902674 0.600100 0.207898
0.902454 0.595033 0.206951
0.908927 0.597725 0.207883
0.917117 0.602287 0.209276
0.918280 0.598793 0.208714
0.921333 0.597443 0.208675
0.925315 0.597108 0.208886
0.929237 0.596676 0.209076
0.932423 0.595415 0.209065
0.936586 0.595191 0.209312
0.953593 0.603815 0.212062
0.953137 0.598565 0.211077
0.956084 0.596903 0.210982
0.959242 0.595447 0.210940
0.965522 0.597157 0.211693
0.971438 0.598425 0.212341
0.977219 0.599493 0.212945
0.976484 0.594046 0.211912
0.978570 0.591424 0.211590
0.978578 0.586787 0.210758
0.989386 0.592590 0.212580
0.994152 0.592478 0.212906
0.997287 0.590780 0.212832
0.994374 0.583405 0.211304
1.001824 0.585734 0.212267
1.002932 0.582143 0.211711
1.021088 0.594093 0.215176
1.030028 0.597458 0.216438
1.035925 0.597991 0.216975
1.038344 0.595384 0.216698
1.047308 0.598513 0.217926
1.051995 0.597814 0.218160
1.057823 0.598056 0.218648
1.062556 0.597305 0.218880
1.067828 0.596967 0.219228
1.072959 0.596460 0.219538
1.078401 0.596162 0.219910
1.085621 0.597269 0.220667
1.090036 0.596015 0.220798
1.097767 0.597393 0.221646
1.102675 0.596431 0.221871
1.107666 0.595491 0.222109
1.112618 0.594473 0.222333
1.120213 0.595455 0.223111
1.125697 0.594733 0.223433
1.131589 0.594266 0.223833
1.136655 0.593120 0.224054
1.145672 0.594865 0.225086
1.152112 0.594607 0.225574
1.157816 0.593744 0.225901
1.162937 0.592404 0.226104
1.172263 0.594023 0.227150
1.176975 0.592269 0.227254
1.186961 0.594168 0.228406
1.192882 0.593134 0.228735
1.202747 0.594749 0.229834
1.209067 0.593845 0.230221
1.213865 0.591858 0.230304
1.224912 0.593989 0.231593
1.234356 0.594942 0.232554
1.240671 0.593757 0.232901
1.251557 0.595462 0.234111
1.258448 0.594507 0.234546
1.267055 0.594576 0.235295
1.274137 0.593614 0.235747
1.281419 0.592721 0.236226
1.298433 0.597715 0.238495
1.305439 0.596484 0.238893
1.312258 0.595098 0.239249
1.320128 0.594296 0.239788
1.331143 0.595286 0.240884
1.340806 0.595412 0.241721
1.356742 0.599069 0.243665
1.363559 0.597433 0.243963
1.373083 0.597300 0.244732
1.380237 0.595815 0.245071
1.389697 0.595588 0.245806
1.398370 0.594908 0.246393
1.409293 0.595423 0.247357
1.415249 0.593272 0.247455
1.425999 0.593669 0.248367
1.438158 0.594781 0.249504
1.439124 0.590113 0.248738
0.490568 0.597477 0.182905
0.492578 0.595308 0.182599
0.494619 0.593384 0.182336
0.497078 0.598444 0.183423
0.499335 0.598943 0.183623
0.501643 0.599638 0.183859
0.503964 0.599976 0.184023
0.506143 0.597991 0.183731
0.508407 0.596954 0.183621
0.510713 0.596232 0.183570
0.513184 0.597182 0.183843
0.515645 0.597710 0.184032
0.518002 0.596928 0.183964
0.520470 0.597123 0.184084
0.522925 0.597045 0.184150
0.524371 0.587918 0.182441
0.528310 0.600599 0.185008
0.531147 0.603199 0.185598
0.534316 0.608121 0.186645
0.536398 0.604432 0.185999
0.538394 0.600328 0.185270
0.541044 0.601059 0.185493
0.543974 0.603597 0.186073
0.546860 0.605659 0.186560
0.549644 0.606926 0.186891
0.552406 0.607956 0.187177
0.557272 0.621449 0.189928
0.556749 0.602970 0.186356
0.559309 0.602858 0.186418
0.561908 0.602963 0.186523
0.564284 0.601868 0.186392
0.566937 0.602262 0.186557
0.569499 0.602171 0.186628
0.572139 0.602463 0.186775
0.572427 0.591438 0.184671
0.576144 0.597020 0.185874
0.580318 0.604432 0.187446
0.583222 0.605813 0.187817
0.585503 0.604402 0.187633
0.588627 0.606657 0.188182
0.589828 0.600746 0.187099
0.591973 0.598948 0.186840
0.593684 0.595471 0.186244
0.597016 0.598513 0.186958
0.598982 0.596147 0.186587
0.601254 0.595022 0.186467
0.607856 0.610032 0.189599
0.611306 0.612968 0.190304
0.613339 0.610703 0.189961
0.616584 0.612770 0.190495
0.619487 0.613570 0.190774
0.622013 0.613041 0.190787
0.624973 0.613968 0.191096
0.630963 0.624784 0.193415
0.634279 0.626595 0.193911
0.634819 0.619517 0.192599
0.636213 0.615313 0.191871
0.638592 0.614252 0.191784
0.641364 0.614391 0.191944
0.644158 0.614568 0.192113
0.646132 0.612317 0.191786
0.646950 0.606771 0.190784
0.648376 0.603098 0.190165
0.650555 0.601620 0.189997
0.653659 0.602716 0.190360
0.657059 0.604561 0.190879
0.660554 0.606584 0.191438
0.663021 0.605808 0.191420
0.665375 0.604733 0.191342
0.668224 0.604934 0.191529
0.671155 0.605310 0.191755
0.675608 0.609458 0.192765
0.682579 0.619680 0.195044
0.680185 0.606801 0.192516
0.681032 0.602022 0.191672
0.684186 0.602811 0.191991
0.686749 0.602166 0.192011
0.689297 0.601478 0.192024
0.691678 0.600394 0.191954
0.694951 0.601321 0.192308
0.695640 0.596448 0.191443
0.702580 0.605396 0.193490
0.707804 0.610373 0.194706
0.711633 0.612208 0.195263
0.713018 0.608798 0.194710
0.714106 0.604818 0.194036
0.715462 0.601458 0.193493
0.717987 0.600534 0.193467
0.720290 0.599154 0.193345
