ply
format ascii 1.0
comment ---
element vertex 1676
property float x
property float y
property float z
element face 0
property list uchar uint vertex_indices
end_header
-0.261837 0.611656 -0.080621
-0.259024 0.612945 -0.080861
-0.255412 0.612280 -0.080956
-0.252437 0.613137 -0.081162
-0.249270 0.613493 -0.081329
-0.245728 0.612865 -0.081420
-0.242791 0.613738 -0.081621
-0.239415 0.613443 -0.081733
-0.236267 0.613703 -0.081883
-0.233239 0.614251 -0.082053
-0.229355 0.612429 -0.082042
-0.226431 0.613172 -0.082221
-0.223352 0.613456 -0.082363
-0.220250 0.613640 -0.082495
-0.217052 0.613504 -0.082600
-0.213952 0.613610 -0.082720
-0.210572 0.612839 -0.082771
-0.207552 0.613095 -0.082897
-0.204450 0.613060 -0.082999
-0.201245 0.612659 -0.083070
-0.198317 0.613087 -0.083202
-0.195757 0.614683 -0.083422
-0.192441 0.613797 -0.083448
-0.189433 0.613873 -0.083545
-0.185966 0.612346 -0.083515
-0.183338 0.613640 -0.083703
-0.180318 0.613554 -0.083781
-0.177391 0.613765 -0.083880
-0.174328 0.613447 -0.083934
-0.171325 0.613302 -0.084001
-0.168416 0.613475 -0.084090
-0.165827 0.614860 -0.084273
-0.162994 0.615300 -0.084379
-0.160088 0.615429 -0.084459
-0.157177 0.615511 -0.084533
-0.154265 0.615559 -0.084602
-0.151180 0.614837 -0.084608
-0.148443 0.615572 -0.084729
-0.145683 0.616208 -0.084839
-0.142821 0.616377 -0.084911
-0.139491 0.614336 -0.084805
-0.136808 0.615264 -0.084934
-0.134043 0.615810 -0.085031
-0.131245 0.616187 -0.085113
-0.128346 0.616038 -0.085152
-0.125397 0.615590 -0.085165
-0.122581 0.615811 -0.085230
-0.119741 0.615891 -0.085283
-0.116834 0.615562 -0.085301
-0.113981 0.615515 -0.085341
-0.111147 0.615547 -0.085385
-0.108143 0.614517 -0.085343
-0.105432 0.615260 -0.085443
-0.102739 0.616153 -0.085554
-0.099968 0.616552 -0.085624
-0.097155 0.616662 -0.085669
-0.094230 0.615949 -0.085647
-0.091395 0.615834 -0.085672
-0.088544 0.615575 -0.085684
-0.085702 0.615346 -0.085698
-0.082867 0.615137 -0.085712
-0.080060 0.615143 -0.085743
-0.077337 0.615900 -0.085835
-0.074328 0.613972 -0.085707
-0.071714 0.615800 -0.085884
-0.068955 0.616270 -0.085949
-0.066084 0.615539 -0.085916
-0.063319 0.615933 -0.085974
-0.060528 0.616048 -0.086009
-0.057716 0.615886 -0.086020
-0.054885 0.615432 -0.086007
-0.052096 0.615526 -0.086037
-0.049371 0.616619 -0.086149
-0.046578 0.616719 -0.086179
-0.043779 0.616704 -0.086199
-0.040988 0.616858 -0.086233
-0.038182 0.616676 -0.086238
-0.035173 0.611273 -0.085814
-0.032656 0.618580 -0.086433
-0.029991 0.623234 -0.086833
-0.027133 0.622001 -0.086750
-0.024274 0.620135 -0.086614
-0.021441 0.618785 -0.086521
-0.018636 0.618732 -0.086533
-0.015831 0.618719 -0.086548
-0.013029 0.619654 -0.086640
-0.010211 0.622991 -0.086929
-0.007372 0.624869 -0.087099
-0.004630 0.617258 -0.086486
-0.001853 0.615956 -0.086392
0.000934 0.615700 -0.086384
0.003728 0.615780 -0.086403
0.006519 0.615715 -0.086410
0.009414 0.618611 -0.086660
0.012740 0.631601 -0.087742
0.015620 0.631877 -0.087776
0.018551 0.633117 -0.087888
0.021456 0.633636 -0.087940
0.024164 0.630698 -0.087707
0.027044 0.630907 -0.087733
0.029816 0.629482 -0.087623
0.032635 0.628880 -0.087581
0.035527 0.629275 -0.087620
0.037410 0.617305 -0.086638
0.039115 0.604574 -0.085592
0.041862 0.604532 -0.085593
0.044669 0.605093 -0.085643
0.047510 0.605928 -0.085715
0.050438 0.607508 -0.085849
0.053775 0.612632 -0.086274
0.056880 0.615315 -0.086497
0.060242 0.619918 -0.086878
0.063256 0.621351 -0.086996
0.065997 0.620551 -0.086929
0.067960 0.613973 -0.086383
0.070778 0.614002 -0.086383
0.073599 0.614032 -0.086382
0.076358 0.613623 -0.086343
0.079098 0.613098 -0.086295
0.081509 0.610491 -0.086073
0.084197 0.609730 -0.086003
0.087803 0.614491 -0.086387
0.091017 0.616686 -0.086559
0.094028 0.617592 -0.086623
0.097207 0.619353 -0.086756
0.101649 0.627793 -0.087439
0.102412 0.616504 -0.086494
0.107270 0.626688 -0.087318
0.110075 0.626108 -0.087253
0.112405 0.623220 -0.086997
0.114996 0.621684 -0.086851
0.115467 0.610321 -0.085895
0.117081 0.604635 -0.085405
0.119629 0.603333 -0.085275
0.123185 0.606452 -0.085506
0.125063 0.602253 -0.085135
0.129207 0.607674 -0.085552
0.130611 0.601622 -0.085026
0.133286 0.600887 -0.084935
0.136432 0.602004 -0.084994
0.139797 0.603897 -0.085114
0.142687 0.603891 -0.085077
0.145754 0.604509 -0.085090
0.148124 0.602528 -0.084888
0.150591 0.600932 -0.084716
0.153230 0.599966 -0.084593
0.157672 0.605253 -0.084978
0.162047 0.610093 -0.085324
0.165603 0.611996 -0.085428
0.168477 0.611550 -0.085338
0.170468 0.608225 -0.085013
0.174253 0.610687 -0.085156
0.178775 0.615343 -0.085473
0.182091 0.616093 -0.085471
0.185608 0.617391 -0.085511
0.188517 0.616792 -0.085395
0.189039 0.609142 -0.084709
0.192258 0.609504 -0.084667
0.195231 0.609112 -0.084561
0.198143 0.608520 -0.084437
0.200463 0.606261 -0.084178
0.203151 0.605033 -0.083998
0.206808 0.606408 -0.084024
0.210212 0.607028 -0.083987
0.213880 0.608282 -0.083998
0.218492 0.611891 -0.084192
0.222636 0.614166 -0.084277
0.226320 0.615185 -0.084260
0.230390 0.617089 -0.084310
0.234512 0.619024 -0.084359
0.238930 0.621580 -0.084454
0.235019 0.604241 -0.082990
0.238663 0.605030 -0.082945
0.241999 0.605049 -0.082838
0.245169 0.604650 -0.082696
0.248971 0.605653 -0.082662
0.251923 0.604703 -0.082476
0.255409 0.604922 -0.082379
0.259190 0.605744 -0.082327
0.262827 0.606215 -0.082248
0.266063 0.605798 -0.082100
0.269302 0.605380 -0.081953
0.272609 0.605096 -0.081817
0.275222 0.603391 -0.081574
0.279904 0.605887 -0.081652
0.282357 0.603881 -0.081391
0.291550 0.615193 -0.082136
0.294077 0.613275 -0.081887
0.292413 0.603347 -0.081041
0.294263 0.600343 -0.080721
0.300252 0.605218 -0.080995
0.308014 0.613316 -0.081513
0.306916 0.604953 -0.080811
0.310510 0.605357 -0.080769
0.313338 0.604413 -0.080634
0.315962 0.603174 -0.080484
0.317879 0.600762 -0.080257
0.319409 0.597777 -0.079996
0.318389 0.590490 -0.079427
-0.342579 0.605079 -0.080121
-0.341624 0.608945 -0.080451
-0.337895 0.607938 -0.080434
-0.335764 0.609902 -0.080645
-0.332792 0.610418 -0.080758
-0.329528 0.610461 -0.080845
-0.326040 0.610139 -0.080913
-0.322713 0.610167 -0.081015
-0.319480 0.610420 -0.081140
-0.316484 0.611181 -0.081310
-0.312921 0.610875 -0.081406
-0.309785 0.611438 -0.081572
-0.306631 0.612000 -0.081743
-0.302907 0.611430 -0.081833
-0.299488 0.611485 -0.081973
-0.296542 0.612531 -0.082192
-0.293246 0.612865 -0.082359
-0.289516 0.612271 -0.082457
-0.285934 0.611973 -0.082579
-0.282747 0.612521 -0.082766
-0.279531 0.612997 -0.082949
-0.275976 0.612702 -0.083072
-0.272552 0.612671 -0.083215
-0.269226 0.612839 -0.083373
-0.265712 0.612537 -0.083494
-0.262364 0.612590 -0.083640
-0.258931 0.612404 -0.083767
-0.255940 0.613252 -0.083973
-0.252780 0.613666 -0.084143
-0.248944 0.612358 -0.084176
-0.245837 0.612824 -0.084346
-0.242729 0.613258 -0.084512
-0.239559 0.613500 -0.084660
-0.236097 0.612931 -0.084741
-0.233432 0.614444 -0.084986
-0.229307 0.611971 -0.084909
-0.226277 0.612414 -0.085063
-0.223445 0.613384 -0.085258
-0.220436 0.613836 -0.085408
-0.217541 0.614584 -0.085580
-0.214003 0.613418 -0.085593
-0.211064 0.613966 -0.085744
-0.207990 0.614077 -0.085856
-0.204708 0.613505 -0.085910
-0.201614 0.613463 -0.086005
-0.198594 0.613612 -0.086113
-0.195492 0.613460 -0.086194
-0.192641 0.614090 -0.086336
-0.189538 0.613854 -0.086405
-0.186382 0.613389 -0.086453
-0.183287 0.613082 -0.086511
-0.180764 0.614748 -0.086731
-0.177836 0.614976 -0.086829
-0.174188 0.612543 -0.086704
-0.171628 0.614038 -0.086904
-0.168492 0.613367 -0.086920
-0.165816 0.614414 -0.087079
-0.163043 0.615085 -0.087204
-0.160101 0.615070 -0.087270
-0.157059 0.614611 -0.087297
-0.154129 0.614569 -0.087356
-0.151424 0.615454 -0.087492
-0.148555 0.615634 -0.087567
-0.145821 0.616387 -0.087689
-0.142945 0.616500 -0.087755
-0.139733 0.615024 -0.087685
-0.136701 0.614305 -0.087677
-0.134068 0.615480 -0.087829
-0.131297 0.615988 -0.087922
-0.128458 0.616147 -0.087984
-0.125493 0.615627 -0.087988
-0.122595 0.615419 -0.088016
-0.119791 0.615690 -0.088084
-0.117052 0.616321 -0.088181
-0.114205 0.616339 -0.088225
-0.111316 0.616075 -0.088243
-0.108422 0.615749 -0.088255
-0.105626 0.616002 -0.088315
-0.102854 0.616406 -0.088387
-0.100069 0.616722 -0.088451
-0.097113 0.615852 -0.088412
-0.094219 0.615342 -0.088403
-0.091395 0.615310 -0.088433
-0.088612 0.615568 -0.088488
-0.085819 0.615750 -0.088535
-0.082967 0.615429 -0.088538
-0.080184 0.615676 -0.088589
-0.077152 0.613648 -0.088444
-0.074468 0.614737 -0.088566
-0.071724 0.615324 -0.088644
-0.069020 0.616358 -0.088760
-0.066200 0.616216 -0.088774
-0.063372 0.615947 -0.088776
-0.060566 0.615895 -0.088796
-0.057764 0.615878 -0.088819
-0.054959 0.615813 -0.088836
-0.052188 0.616216 -0.088894
-0.049388 0.616208 -0.088915
-0.046650 0.617256 -0.089028
-0.043850 0.617309 -0.089053
-0.041009 0.616527 -0.089006
-0.038189 0.616034 -0.088983
-0.035224 0.611755 -0.088631
-0.032529 0.614041 -0.088848
-0.029952 0.620996 -0.089470
-0.027168 0.622290 -0.089600
-0.024291 0.619717 -0.089394
-0.021466 0.618920 -0.089342
-0.018651 0.618284 -0.089303
-0.015856 0.619646 -0.089438
-0.013047 0.620695 -0.089544
-0.010221 0.624446 -0.089886
-0.007375 0.626194 -0.090053
-0.004652 0.616205 -0.089198
-0.001873 0.615221 -0.089125
0.000924 0.615467 -0.089160
0.003724 0.615774 -0.089199
0.006511 0.615525 -0.089190
0.009313 0.615754 -0.089221
0.012148 0.616735 -0.089318
0.014964 0.617069 -0.089358
0.017766 0.617056 -0.089367
0.020550 0.616698 -0.089346
0.023307 0.615908 -0.089286
0.026035 0.614782 -0.089197
0.028818 0.614602 -0.089189
0.031723 0.616107 -0.089328
0.034164 0.611419 -0.088926
0.037124 0.613578 -0.089121
0.040054 0.615141 -0.089263
0.042853 0.615099 -0.089265
0.045533 0.613809 -0.089157
0.048409 0.614568 -0.089227
0.051082 0.613322 -0.089122
0.053907 0.613543 -0.089144
0.056960 0.615709 -0.089335
0.060211 0.619352 -0.089655
0.063420 0.622359 -0.089918
0.066332 0.622831 -0.089959
0.067961 0.613672 -0.089158
0.070891 0.614508 -0.089229
0.073692 0.614368 -0.089215
0.076424 0.613758 -0.089158
0.079062 0.612545 -0.089048
0.081662 0.611150 -0.088921
0.084177 0.609294 -0.088752
0.087615 0.613047 -0.089073
0.091295 0.617983 -0.089495
0.094186 0.618165 -0.089502
0.097429 0.620255 -0.089673
0.101204 0.625074 -0.090082
0.101808 0.613022 -0.089018
0.104370 0.611543 -0.088876
0.107224 0.611565 -0.088863
0.110241 0.612358 -0.088915
0.112548 0.609714 -0.088668
0.115600 0.610625 -0.088728
0.118518 0.610865 -0.088729
0.121105 0.609599 -0.088597
0.123992 0.609664 -0.088580
0.127557 0.612592 -0.088810
0.129586 0.608952 -0.088468
0.132242 0.608005 -0.088358
0.135833 0.610815 -0.088572
0.137846 0.607276 -0.088235
0.142554 0.614254 -0.088807
0.143954 0.608398 -0.088265
0.146588 0.607320 -0.088136
0.149977 0.609005 -0.088244
0.152475 0.607405 -0.088066
0.154267 0.603337 -0.087674
0.158959 0.609423 -0.088155
0.163070 0.613290 -0.088443
0.165552 0.611537 -0.088244
0.168044 0.609844 -0.088049
0.171280 0.610574 -0.088060
0.177074 0.619394 -0.088763
0.179421 0.617091 -0.088508
0.180571 0.611130 -0.087938
0.185166 0.615774 -0.088275
0.187823 0.614445 -0.088097
0.188584 0.607538 -0.087442
0.191695 0.607609 -0.087381
0.195108 0.608498 -0.087387
0.198008 0.607879 -0.087262
0.200747 0.606792 -0.087095
0.203501 0.605733 -0.086928
0.208160 0.609791 -0.087192
0.210150 0.606610 -0.086841
0.213521 0.607090 -0.086797
0.218696 0.612163 -0.087137
0.222805 0.614344 -0.087230
0.223967 0.609033 -0.086692
0.226950 0.608329 -0.086539
0.230880 0.609913 -0.086575
0.233710 0.608764 -0.086380
0.234091 0.601791 -0.085700
0.236836 0.600502 -0.085491
0.240122 0.600460 -0.085385
0.243671 0.600981 -0.085323
0.248883 0.605203 -0.085565
0.252397 0.605504 -0.085482
0.255443 0.604739 -0.085310
0.259706 0.606604 -0.085353
0.262693 0.605661 -0.085165
0.266186 0.605790 -0.085065
0.269806 0.606159 -0.084985
0.273648 0.606959 -0.084939
0.276823 0.606366 -0.084782
0.288350 0.622606 -0.085987
0.289207 0.617214 -0.085443
0.293474 0.618657 -0.085454
0.294106 0.613002 -0.084898
0.293350 0.604814 -0.084145
0.296068 0.603432 -0.083942
0.301255 0.606744 -0.084118
0.308832 0.614458 -0.084650
0.307516 0.605668 -0.083873
0.310228 0.604439 -0.083705
0.313564 0.604401 -0.083638
0.316009 0.602822 -0.083457
0.318041 0.600597 -0.083232
0.318907 0.596434 -0.082863
0.320055 0.592901 -0.082553
-0.343684 0.606469 -0.083214
-0.340363 0.606129 -0.083235
-0.339208 0.609774 -0.083578
-0.335870 0.609571 -0.083629
-0.332836 0.609991 -0.083737
-0.329721 0.610328 -0.083847
-0.326591 0.610700 -0.083967
-0.322965 0.610184 -0.084025
-0.319817 0.610620 -0.084164
-0.316575 0.610922 -0.084299
-0.313295 0.611188 -0.084436
-0.309917 0.611291 -0.084566
-0.306947 0.612236 -0.084768
-0.303437 0.612120 -0.084888
-0.299898 0.611948 -0.085007
-0.296622 0.612327 -0.085173
-0.293481 0.612996 -0.085365
-0.289978 0.612901 -0.085496
-0.286359 0.612542 -0.085608
-0.282814 0.612320 -0.085731
-0.279497 0.612579 -0.085893
-0.276052 0.612535 -0.086031
-0.272686 0.612641 -0.086180
-0.269441 0.613000 -0.086350
-0.266021 0.612929 -0.086483
-0.262516 0.612620 -0.086595
-0.259092 0.612461 -0.086719
-0.256083 0.613270 -0.086921
-0.253247 0.614490 -0.087156
-0.249527 0.613488 -0.087203
-0.245926 0.612718 -0.087267
-0.242720 0.612903 -0.087409
-0.239606 0.613289 -0.087566
-0.236107 0.612620 -0.087631
-0.233119 0.613264 -0.087805
-0.229675 0.612637 -0.087869
-0.226291 0.612111 -0.087938
-0.223312 0.612665 -0.088097
-0.220648 0.614091 -0.088329
-0.217352 0.613686 -0.088401
-0.214404 0.614246 -0.088554
-0.211346 0.614452 -0.088674
-0.208360 0.614838 -0.088807
-0.204964 0.613929 -0.088826
-0.201855 0.613850 -0.088914
-0.198803 0.613907 -0.089011
-0.195513 0.613153 -0.089035
-0.192657 0.613764 -0.089176
-0.189731 0.614120 -0.089292
-0.186565 0.613629 -0.089332
-0.183745 0.614282 -0.089470
-0.181040 0.615328 -0.089641
-0.177765 0.614325 -0.089629
-0.174197 0.612174 -0.089514
-0.171350 0.612596 -0.089623
-0.168543 0.613150 -0.089743
-0.165674 0.613451 -0.089837
-0.163036 0.614638 -0.090009
-0.160374 0.615745 -0.090172
-0.157025 0.614044 -0.090084
-0.154319 0.614934 -0.090224
-0.151536 0.615499 -0.090334
-0.148710 0.615870 -0.090425
-0.145846 0.616055 -0.090497
-0.142948 0.616065 -0.090553
-0.139663 0.614242 -0.090443
-0.136855 0.614587 -0.090525
-0.134134 0.615337 -0.090642
-0.131385 0.615960 -0.090747
-0.128554 0.616171 -0.090813
-0.125614 0.615789 -0.090824
-0.122662 0.615300 -0.090825
-0.119888 0.615740 -0.090908
-0.117156 0.616424 -0.091012
-0.114355 0.616720 -0.091079
-0.111415 0.616169 -0.091069
-0.108439 0.615350 -0.091034
-0.105677 0.615813 -0.091113
-0.103019 0.616976 -0.091255
-0.100164 0.616851 -0.091279
-0.096784 0.613019 -0.090967
-0.094275 0.615215 -0.091199
-0.091442 0.615123 -0.091224
-0.088508 0.614213 -0.091173
-0.085884 0.615722 -0.091340
-0.083087 0.615880 -0.091385
-0.080047 0.613913 -0.091235
-0.077227 0.613765 -0.091250
-0.074478 0.614262 -0.091323
-0.071765 0.615144 -0.091430
-0.068999 0.615538 -0.091492
-0.066202 0.615624 -0.091525
-0.063393 0.615565 -0.091545
-0.060587 0.615531 -0.091566
-0.057826 0.616047 -0.091636
-0.055051 0.616429 -0.091694
-0.052248 0.616439 -0.091718
-0.049451 0.616525 -0.091747
-0.046614 0.615923 -0.091714
-0.043871 0.616974 -0.091830
-0.041040 0.616407 -0.091799
-0.038164 0.614684 -0.091661
-0.035294 0.612697 -0.091498
-0.032494 0.612146 -0.091467
-0.029864 0.617108 -0.091939
-0.027135 0.619960 -0.092217
-0.024292 0.618612 -0.092111
-0.021476 0.618131 -0.092084
-0.018683 0.619255 -0.092203
-0.015881 0.620617 -0.092344
-0.013062 0.619922 -0.092296
-0.010245 0.620921 -0.092403
-0.007385 0.626479 -0.092927
-0.004678 0.614872 -0.091877
-0.001880 0.615251 -0.091926
0.000916 0.615382 -0.091951
0.003722 0.615810 -0.092003
0.006529 0.616149 -0.092046
0.009320 0.615915 -0.092037
0.012130 0.616220 -0.092076
0.014941 0.616461 -0.092110
0.017744 0.616469 -0.092121
0.020547 0.616471 -0.092131
0.023326 0.616052 -0.092102
0.026080 0.615278 -0.092040
0.028885 0.615355 -0.092056
0.031691 0.615425 -0.092071
0.034187 0.611466 -0.091714
0.037017 0.612009 -0.091771
0.040029 0.614581 -0.092014
0.043068 0.617168 -0.092258
0.045951 0.617869 -0.092328
0.048613 0.616301 -0.092188
0.051432 0.616333 -0.092196
0.054242 0.616282 -0.092194
0.057089 0.616526 -0.092220
0.060214 0.619068 -0.092456
0.063370 0.621641 -0.092694
0.066050 0.620338 -0.092575
0.068182 0.615005 -0.092084
0.070937 0.614523 -0.092039
0.073769 0.614587 -0.092043
0.076498 0.613933 -0.091980
0.079115 0.612570 -0.091852
0.081754 0.611412 -0.091741
0.084295 0.609699 -0.091578
0.088375 0.617269 -0.092269
0.091164 0.616891 -0.092227
0.094249 0.618190 -0.092338
0.097732 0.621595 -0.092642
0.101294 0.625227 -0.092966
0.101855 0.612941 -0.091825
0.104551 0.612143 -0.091740
0.107432 0.612279 -0.091739
0.109889 0.610320 -0.091544
0.112623 0.609745 -0.091476
0.115711 0.610819 -0.091557
0.118986 0.612677 -0.091709
0.121681 0.611842 -0.091613
0.125126 0.614286 -0.091816
0.128671 0.617026 -0.092044
0.130940 0.614299 -0.091770
0.133804 0.614087 -0.091725
0.136969 0.615060 -0.091787
0.140075 0.615738 -0.091820
0.142961 0.615513 -0.091769
0.145846 0.615258 -0.091714
0.148087 0.612588 -0.091436
0.151024 0.612527 -0.091395
0.154506 0.614386 -0.091527
0.158111 0.616583 -0.091688
0.163107 0.623487 -0.092276
0.163709 0.615167 -0.091475
0.166354 0.613926 -0.091317
0.168985 0.612645 -0.091154
0.173236 0.616613 -0.091465
0.176885 0.618498 -0.091585
0.177155 0.609703 -0.090735
0.180785 0.611503 -0.090843
0.184328 0.612947 -0.090916
0.188011 0.614723 -0.091016
0.188799 0.607892 -0.090338
0.191954 0.608084 -0.090292
0.194991 0.607890 -0.090208
0.198041 0.607701 -0.090123
0.200856 0.606824 -0.089974
0.203835 0.606378 -0.089861
0.207429 0.607556 -0.089891
0.210734 0.607895 -0.089844
0.213723 0.607354 -0.089715
0.218222 0.610677 -0.089929
0.223076 0.614770 -0.090208
0.223515 0.607640 -0.089487
0.226361 0.606614 -0.089307
0.230030 0.607578 -0.089301
0.231122 0.602277 -0.088739
0.237445 0.609493 -0.089281
0.239702 0.606957 -0.088960
0.244323 0.609912 -0.089120
0.250380 0.616028 -0.089555
0.249871 0.607163 -0.088676
0.252586 0.605660 -0.088442
0.255979 0.605648 -0.088336
0.259882 0.606713 -0.088324
0.263251 0.606581 -0.088207
0.266511 0.606197 -0.088068
0.269349 0.604920 -0.087852
0.274206 0.607819 -0.087996
0.276979 0.606387 -0.087769
0.279446 0.604363 -0.087492
0.282596 0.603740 -0.087337
0.285738 0.603113 -0.087185
0.290020 0.604722 -0.087226
0.293693 0.605132 -0.087168
0.297310 0.605439 -0.087105
0.303293 0.610208 -0.087425
0.308357 0.613188 -0.087597
0.307073 0.604460 -0.086783
0.310435 0.604407 -0.086710
0.315551 0.607557 -0.086914
0.315827 0.602061 -0.086395
0.318924 0.601705 -0.086318
0.319990 0.597863 -0.085955
0.322698 0.597000 -0.085851
-0.345406 0.608950 -0.086418
-0.341979 0.608466 -0.086426
-0.339145 0.609117 -0.086538
-0.336169 0.609591 -0.086644
-0.332487 0.608838 -0.086656
-0.329556 0.609526 -0.086796
-0.326579 0.610197 -0.086942
-0.323430 0.610602 -0.087072
-0.319908 0.610342 -0.087153
-0.316691 0.610708 -0.087293
-0.313506 0.611174 -0.087446
-0.310421 0.611875 -0.087624
-0.307010 0.611955 -0.087753
-0.303724 0.612305 -0.087910
-0.299804 0.611367 -0.087958
-0.296718 0.612145 -0.088157
-0.293593 0.612857 -0.088351
-0.289934 0.612438 -0.088450
-0.286583 0.612664 -0.088606
-0.283438 0.613329 -0.088800
-0.279251 0.611678 -0.088793
-0.275571 0.611103 -0.088879
-0.272537 0.611955 -0.089089
-0.269246 0.612207 -0.089247
-0.266146 0.612878 -0.089440
-0.262904 0.613198 -0.089601
-0.259185 0.612342 -0.089657
-0.255888 0.612453 -0.089796
-0.253045 0.613649 -0.090030
-0.249139 0.612175 -0.090025
-0.246233 0.613156 -0.090237
-0.242695 0.612494 -0.090300
-0.239689 0.613159 -0.090479
-0.236778 0.614050 -0.090676
-0.232890 0.612297 -0.090634
-0.230099 0.613442 -0.090849
-0.226621 0.612672 -0.090890
-0.223287 0.612239 -0.090959
-0.220205 0.612467 -0.091084
-0.217709 0.614355 -0.091359
-0.214479 0.614100 -0.091436
-0.211526 0.614620 -0.091582
-0.208369 0.614494 -0.091667
-0.205271 0.614502 -0.091761
-0.201932 0.613714 -0.091780
-0.198897 0.613825 -0.091879
-0.195656 0.613230 -0.091911
-0.192765 0.613727 -0.092041
-0.189952 0.614466 -0.092191
-0.186761 0.613900 -0.092219
-0.183724 0.613808 -0.092288
-0.180790 0.614042 -0.092385
-0.177789 0.614002 -0.092455
-0.174393 0.612482 -0.092386
-0.171516 0.612800 -0.092485
-0.168764 0.613568 -0.092624
-0.165729 0.613240 -0.092659
-0.163004 0.614086 -0.092802
-0.160710 0.616665 -0.093106
-0.157477 0.615461 -0.093054
-0.154406 0.614857 -0.093056
-0.151655 0.615560 -0.093180
-0.148764 0.615657 -0.093245
-0.145804 0.615417 -0.093276
-0.142914 0.615453 -0.093332
-0.139992 0.615315 -0.093371
-0.137103 0.615302 -0.093419
-0.134296 0.615658 -0.093501
-0.131504 0.616081 -0.093588
-0.128597 0.615911 -0.093618
-0.125659 0.615541 -0.093627
-0.122797 0.615536 -0.093670
-0.120052 0.616158 -0.093771
-0.117283 0.616646 -0.093858
-0.114389 0.616415 -0.093876
-0.111328 0.615142 -0.093793
-0.108469 0.615021 -0.093819
-0.105763 0.615843 -0.093934
-0.103060 0.616719 -0.094053
-0.100189 0.616489 -0.094065
-0.097191 0.615342 -0.093990
-0.094376 0.615409 -0.094029
-0.091510 0.615087 -0.094030
-0.088783 0.615800 -0.094129
-0.085885 0.615176 -0.094099
-0.082825 0.613124 -0.093933
-0.080339 0.615891 -0.094225
-0.077305 0.613901 -0.094063
-0.074562 0.614476 -0.094145
-0.071827 0.615164 -0.094237
-0.068992 0.614869 -0.094234
-0.066243 0.615460 -0.094316
-0.063377 0.614757 -0.094273
-0.060651 0.615677 -0.094385
-0.057905 0.616419 -0.094479
-0.055076 0.616114 -0.094472
-0.052268 0.616051 -0.094488
-0.049375 0.614620 -0.094373
-0.046570 0.614452 -0.094377
-0.043850 0.615834 -0.094531
-0.041078 0.616402 -0.094605
-0.038250 0.615826 -0.094569
-0.035208 0.609673 -0.093997
-0.032578 0.613668 -0.094399
-0.029881 0.616694 -0.094708
-0.027123 0.618423 -0.094892
-0.024301 0.617820 -0.094852
-0.021485 0.617262 -0.094815
-0.018698 0.618696 -0.094969
-0.015896 0.620025 -0.095113
-0.013077 0.619196 -0.095049
-0.010262 0.619879 -0.095130
-0.007401 0.626026 -0.095737
-0.004691 0.614645 -0.094654
-0.001888 0.615279 -0.094729
0.000919 0.615807 -0.094794
0.003727 0.616154 -0.094840
0.006538 0.616479 -0.094884
0.009337 0.616389 -0.094888
0.012110 0.615644 -0.094828
0.014895 0.615304 -0.094806
0.017702 0.615465 -0.094833
0.020544 0.616246 -0.094919
0.023346 0.616204 -0.094925
0.026121 0.615721 -0.094887
0.028911 0.615515 -0.094877
0.031761 0.616144 -0.094946
0.034351 0.613335 -0.094683
0.036915 0.610512 -0.094417
0.039992 0.613889 -0.094751
0.043128 0.617538 -0.095110
0.045918 0.617234 -0.095087
0.048720 0.617066 -0.095076
0.051489 0.616578 -0.095033
0.054414 0.617533 -0.095130
0.057311 0.618148 -0.095193
0.060254 0.619082 -0.095286
0.063159 0.619630 -0.095342
0.065856 0.618508 -0.095235
0.068136 0.614342 -0.094832
0.070988 0.614567 -0.094854
0.073797 0.614452 -0.094842
0.076520 0.613752 -0.094773
0.079265 0.613219 -0.094720
0.081777 0.611229 -0.094524
0.084523 0.610769 -0.094476
0.088022 0.614822 -0.094863
0.091179 0.616643 -0.095033
0.094119 0.617118 -0.095072
0.097809 0.621683 -0.095506
0.100857 0.622543 -0.095580
0.101742 0.612015 -0.094553
0.104413 0.611105 -0.094454
0.107169 0.610633 -0.094397
0.109799 0.609552 -0.094279
0.112425 0.608478 -0.094161
0.115977 0.611727 -0.094460
0.119958 0.616760 -0.094929
0.122957 0.617186 -0.094952
0.125703 0.616466 -0.094863
0.128991 0.618062 -0.094996
0.131988 0.618346 -0.095001
0.134619 0.617097 -0.094857
0.137087 0.615211 -0.094650
0.139670 0.613824 -0.094490
0.142366 0.612894 -0.094373
0.145480 0.613555 -0.094407
0.148496 0.613793 -0.094399
0.151512 0.613992 -0.094385
0.154561 0.614269 -0.094377
0.157166 0.612945 -0.094213
0.160324 0.613541 -0.094232
0.165186 0.619880 -0.094799
0.166751 0.614948 -0.094285
0.169944 0.615494 -0.094293
0.173793 0.618111 -0.094497
0.176239 0.616140 -0.094261
0.178280 0.612927 -0.093904
0.180918 0.611618 -0.093728
0.184680 0.613718 -0.093874
0.187366 0.612504 -0.093702
0.189462 0.609553 -0.093364
0.192328 0.608880 -0.093240
0.195204 0.608215 -0.093114
0.198153 0.607732 -0.093004
0.200964 0.606841 -0.092854
0.203779 0.605945 -0.092700
0.207227 0.606736 -0.092704
0.210872 0.607984 -0.092748
0.214137 0.608160 -0.092689
0.217816 0.609356 -0.092724
0.221156 0.609617 -0.092668
0.223084 0.606289 -0.092274
0.226104 0.605706 -0.092135
0.228481 0.603531 -0.091846
0.231315 0.602474 -0.091659
0.236227 0.606332 -0.091929
0.240929 0.609558 -0.092136
0.246837 0.615446 -0.092588
0.250496 0.616015 -0.092544
0.249939 0.607042 -0.091616
0.252765 0.605781 -0.091401
0.255817 0.605015 -0.091232
0.259698 0.606032 -0.091225
0.263238 0.606267 -0.091146
0.266388 0.605646 -0.090989
0.269678 0.605310 -0.090857
0.273612 0.606293 -0.090847
0.276625 0.605359 -0.090662
0.279414 0.603986 -0.090439
0.282339 0.602907 -0.090244
0.286349 0.603986 -0.090247
0.289139 0.602671 -0.090036
0.293392 0.604204 -0.090086
0.297778 0.605967 -0.090159
0.303944 0.611055 -0.090536
0.307696 0.611570 -0.090504
0.307085 0.604084 -0.089760
0.310180 0.603533 -0.089644
0.314082 0.604485 -0.089669
0.317764 0.605073 -0.089668
0.319250 0.601827 -0.089332
0.320325 0.597984 -0.088950
0.320561 0.592823 -0.088458
-0.344079 0.606028 -0.089174
-0.342093 0.608114 -0.089408
-0.339335 0.608919 -0.089537
-0.335820 0.608427 -0.089560
-0.333022 0.609312 -0.089712
-0.329381 0.608703 -0.089739
-0.326467 0.609502 -0.089898
-0.323913 0.611050 -0.090131
-0.320504 0.611030 -0.090230
-0.316823 0.610517 -0.090290
-0.313781 0.611278 -0.090470
-0.310601 0.611808 -0.090633
-0.307224 0.611971 -0.090766
-0.303896 0.612250 -0.090914
-0.300333 0.612057 -0.091022
-0.296868 0.612066 -0.091150
-0.293790 0.612889 -0.091354
-0.290029 0.612265 -0.091428
-0.286479 0.612066 -0.091541
-0.283787 0.613725 -0.091825
-0.280641 0.614399 -0.092019
-0.276158 0.612060 -0.091936
-0.272272 0.610993 -0.091968
-0.269521 0.612484 -0.092236
-0.266276 0.612827 -0.092397
-0.262967 0.612991 -0.092541
-0.259193 0.612008 -0.092576
-0.256058 0.612513 -0.092748
-0.252981 0.613135 -0.092929
-0.249464 0.612633 -0.093003
-0.245875 0.611890 -0.093053
-0.242580 0.611841 -0.093165
-0.239824 0.613152 -0.093404
-0.236456 0.612836 -0.093487
-0.233307 0.613055 -0.093618
-0.230012 0.612839 -0.093706
-0.227214 0.613947 -0.093917
-0.223397 0.612180 -0.093852
-0.220524 0.613005 -0.094032
-0.217745 0.614084 -0.094235
-0.214951 0.615108 -0.094430
-0.211080 0.612907 -0.094313
-0.208102 0.613299 -0.094442
-0.205357 0.614380 -0.094636
-0.202187 0.614121 -0.094699
-0.198798 0.613114 -0.094687
-0.195886 0.613578 -0.094815
-0.192949 0.613935 -0.094931
-0.189955 0.614069 -0.095023
-0.186887 0.613918 -0.095085
-0.183519 0.612687 -0.095040
-0.180624 0.613040 -0.095147
-0.178002 0.614345 -0.095345
-0.174717 0.613241 -0.095307
-0.171840 0.613580 -0.095407
-0.169073 0.614309 -0.095544
-0.166621 0.616252 -0.095798
-0.163659 0.616228 -0.095857
-0.160112 0.613818 -0.095681
-0.157303 0.614301 -0.095787
-0.154531 0.614929 -0.095905
-0.151782 0.615649 -0.096032
-0.148896 0.615772 -0.096098
-0.145694 0.614463 -0.096021
-0.142894 0.614895 -0.096114
-0.140212 0.615868 -0.096260
-0.137365 0.616075 -0.096329
-0.134567 0.616500 -0.096417
-0.131444 0.615298 -0.096344
-0.128699 0.615942 -0.096452
-0.125616 0.614822 -0.096384
-0.122929 0.615751 -0.096518
-0.120199 0.616467 -0.096630
-0.117333 0.616424 -0.096665
-0.114486 0.616469 -0.096708
-0.111468 0.615468 -0.096646
-0.108616 0.615409 -0.096676
-0.105882 0.616075 -0.096778
-0.102862 0.614891 -0.096694
-0.100135 0.615591 -0.096798
-0.097365 0.616015 -0.096873
-0.094386 0.614941 -0.096797
-0.091527 0.614666 -0.096800
-0.088704 0.614636 -0.096828
-0.085967 0.615277 -0.096921
-0.082994 0.613974 -0.096819
-0.080278 0.614788 -0.096928
-0.077395 0.614129 -0.096890
-0.074702 0.615211 -0.097024
-0.071966 0.615946 -0.097124
-0.069172 0.616129 -0.097167
-0.066259 0.615018 -0.097080
-0.063497 0.615521 -0.097155
-0.060710 0.615759 -0.097202
-0.057880 0.615447 -0.097194
-0.055100 0.615776 -0.097249
-0.052207 0.614474 -0.097140
-0.049388 0.614131 -0.097126
-0.046651 0.615120 -0.097246
-0.043875 0.615559 -0.097311
-0.041088 0.615838 -0.097359
-0.038312 0.616403 -0.097435
-0.035286 0.610802 -0.096889
-0.032731 0.617157 -0.097548
-0.030027 0.620530 -0.097907
-0.027182 0.619647 -0.097835
-0.024325 0.617759 -0.097662
-0.021488 0.616038 -0.097505
-0.018707 0.617719 -0.097691
-0.015914 0.620014 -0.097939
-0.013094 0.619431 -0.097896
-0.010276 0.619963 -0.097965
-0.007425 0.624455 -0.098433
-0.004707 0.614089 -0.097400
-0.001912 0.614267 -0.097432
0.000901 0.615201 -0.097540
0.003722 0.616082 -0.097643
0.006531 0.616311 -0.097679
0.009306 0.615497 -0.097609
0.012083 0.614891 -0.097559
0.014838 0.613916 -0.097472
0.017616 0.613577 -0.097449
0.020516 0.615545 -0.097659
0.023357 0.616187 -0.097735
0.026026 0.613997 -0.097523
0.028913 0.615303 -0.097665
0.031734 0.615534 -0.097697
0.034083 0.609622 -0.097106
0.036872 0.609719 -0.097124
0.040210 0.616111 -0.097780
0.043199 0.618029 -0.097981
0.045929 0.617058 -0.097889
0.048640 0.615968 -0.097785
0.051410 0.615523 -0.097745
0.054314 0.616316 -0.097831
0.057138 0.616332 -0.097837
0.060176 0.618115 -0.098021
0.063181 0.619484 -0.098163
0.065946 0.618876 -0.098104
0.068184 0.614371 -0.097648
0.070953 0.613982 -0.097610
0.073789 0.614066 -0.097619
0.076643 0.614247 -0.097637
0.079428 0.613952 -0.097605
0.081993 0.612259 -0.097432
0.084198 0.608438 -0.097041
0.088053 0.614668 -0.097670
0.091333 0.617198 -0.097922
0.094318 0.617903 -0.097988
0.097361 0.618871 -0.098080
0.101013 0.623031 -0.098494
0.101600 0.610935 -0.097259
0.104084 0.609085 -0.097062
0.107033 0.609621 -0.097106
0.109741 0.608931 -0.097025
0.111917 0.605727 -0.096688
0.115895 0.611010 -0.097209
0.120360 0.618248 -0.097927
0.122996 0.617023 -0.097787
0.125477 0.615145 -0.097579
0.128566 0.615912 -0.097638
0.131850 0.617432 -0.097772
0.135043 0.618495 -0.097858
0.136741 0.613491 -0.097329
0.138867 0.610335 -0.096986
0.141894 0.610745 -0.097002
0.144848 0.610831 -0.096983
0.148401 0.613114 -0.097185
0.151458 0.613469 -0.097191
0.154308 0.613040 -0.097115
0.156738 0.611113 -0.096887
0.159750 0.611235 -0.096865
0.163516 0.613882 -0.097094
0.166888 0.615089 -0.097176
0.170381 0.616615 -0.097289
0.173922 0.618213 -0.097406
0.175942 0.614884 -0.097027
0.178048 0.611891 -0.096681
0.181473 0.613019 -0.096745
0.184916 0.614129 -0.096806
0.187514 0.612644 -0.096605
0.189729 0.610037 -0.096290
0.192418 0.608842 -0.096114
0.195389 0.608445 -0.096016
0.198283 0.607802 -0.095892
0.201320 0.607535 -0.095803
0.203920 0.606040 -0.095590
0.207208 0.606396 -0.095558
0.211004 0.608044 -0.095653
0.214835 0.609696 -0.095745
0.218439 0.610675 -0.095769
0.220819 0.608476 -0.095476
0.223005 0.605808 -0.095135
0.225785 0.604635 -0.094940
0.228554 0.603428 -0.094740
0.231107 0.601693 -0.094486
0.236097 0.605741 -0.094799
0.239704 0.606408 -0.094777
0.242661 0.605515 -0.094601
0.250739 0.616279 -0.095562
0.249674 0.606159 -0.094482
0.252601 0.605128 -0.094289
0.255631 0.604316 -0.094116
0.259197 0.604654 -0.094054
0.262827 0.605090 -0.094001
0.266351 0.605268 -0.093923
0.269790 0.605240 -0.093825
0.273398 0.605539 -0.093758
0.276881 0.605563 -0.093666
0.279505 0.603846 -0.093407
0.282718 0.603332 -0.093266
0.285117 0.601228 -0.092974
0.290668 0.605294 -0.093275
0.293494 0.604043 -0.093070
0.298423 0.606825 -0.093254
0.303179 0.609237 -0.093405
0.307788 0.611347 -0.093531
0.307169 0.603836 -0.092748
0.309966 0.602729 -0.092580
0.314705 0.605178 -0.092754
0.317387 0.603958 -0.092586
0.319316 0.601488 -0.092308
0.320385 0.597620 -0.091905
0.333794 0.615216 -0.093536
-0.346085 0.609006 -0.092459
-0.342209 0.607765 -0.092392
-0.339151 0.608043 -0.092476
-0.336519 0.609174 -0.092648
-0.332808 0.608404 -0.092648
-0.330962 0.611140 -0.092985
-0.327348 0.610668 -0.093028
-0.322874 0.608599 -0.092925
-0.320936 0.611394 -0.093287
-0.317214 0.610824 -0.093336
-0.313722 0.610720 -0.093435
-0.310627 0.611426 -0.093614
-0.307417 0.611935 -0.093778
-0.303917 0.611877 -0.093891
-0.300689 0.612384 -0.094060
-0.297490 0.612962 -0.094239
-0.292940 0.610703 -0.094147
-0.290003 0.611819 -0.094380
-0.286841 0.612465 -0.094569
-0.284030 0.613877 -0.094833
-0.279845 0.612256 -0.094803
-0.276913 0.613383 -0.095039
-0.273371 0.613124 -0.095141
-0.270190 0.613656 -0.095318
-0.266901 0.613918 -0.095468
-0.262799 0.612227 -0.095426
-0.259860 0.613243 -0.095647
-0.256961 0.614343 -0.095876
-0.254181 0.615727 -0.096131
-0.249836 0.613196 -0.095998
-0.246578 0.613305 -0.096123
-0.242766 0.611950 -0.096101
-0.240111 0.613531 -0.096369
-0.236548 0.612707 -0.096395
-0.233319 0.612713 -0.096502
-0.230249 0.613109 -0.096645
-0.227130 0.613333 -0.096770
-0.224226 0.614125 -0.096949
-0.220762 0.613300 -0.096963
-0.217768 0.613764 -0.097105
-0.214117 0.612270 -0.097047
-0.211029 0.612361 -0.097147
-0.208390 0.613775 -0.097378
-0.205428 0.614199 -0.097507
-0.202366 0.614278 -0.097599
-0.199170 0.613893 -0.097642
-0.195649 0.612404 -0.097571
-0.192936 0.613479 -0.097758
-0.190327 0.614899 -0.097979
-0.186686 0.612818 -0.097840
-0.183528 0.612296 -0.097859
-0.180543 0.612328 -0.097932
-0.177874 0.613458 -0.098116
-0.175157 0.614415 -0.098280
-0.172112 0.614153 -0.098318
-0.169430 0.615222 -0.098491
-0.166278 0.614484 -0.098476
-0.163304 0.614380 -0.098525
-0.160329 0.614239 -0.098568
-0.157499 0.614648 -0.098667
-0.154621 0.614847 -0.098742
-0.151776 0.615161 -0.098828
-0.149053 0.615990 -0.098965
-0.145805 0.614486 -0.098860
-0.142987 0.614846 -0.098947
-0.140194 0.615309 -0.099042
-0.137529 0.616372 -0.099199
-0.134290 0.614664 -0.099067
-0.131449 0.614830 -0.099128
-0.128692 0.615410 -0.099231
-0.125963 0.616143 -0.099349
-0.123005 0.615657 -0.099339
-0.120184 0.615872 -0.099400
-0.117473 0.616707 -0.099526
-0.114158 0.614038 -0.099285
-0.111416 0.614633 -0.099383
-0.108734 0.615613 -0.099521
-0.105848 0.615332 -0.099526
-0.103003 0.615279 -0.099554
-0.100236 0.615730 -0.099633
-0.097462 0.616147 -0.099709
-0.094575 0.615753 -0.099699
-0.091666 0.615148 -0.099665
-0.088786 0.614709 -0.099649
-0.085951 0.614577 -0.099663
-0.083257 0.615595 -0.099798
-0.080405 0.615309 -0.099795
-0.077468 0.614210 -0.099706
-0.074830 0.615828 -0.099902
-0.072021 0.615885 -0.099933
-0.069192 0.615730 -0.099942
-0.066362 0.615528 -0.099945
-0.063509 0.615018 -0.099914
-0.060695 0.614922 -0.099927
-0.057941 0.615572 -0.100018
-0.055061 0.614562 -0.099934
-0.052298 0.615119 -0.100014
-0.049470 0.614725 -0.099993
-0.046702 0.615268 -0.100071
-0.043905 0.615358 -0.100100
-0.041095 0.615186 -0.100102
-0.038195 0.612955 -0.099885
-0.035358 0.611748 -0.099777
-0.032820 0.618780 -0.100537
-0.030074 0.621099 -0.100800
-0.027222 0.620115 -0.100713
-0.024322 0.616409 -0.100339
-0.021503 0.615518 -0.100262
-0.018731 0.617974 -0.100538
-0.015947 0.621978 -0.100977
-0.013118 0.622846 -0.101085
-0.010297 0.617399 -0.100524
-0.007450 0.622701 -0.101100
-0.004744 0.611841 -0.099966
-0.001981 0.610607 -0.099849
0.000780 0.609785 -0.099776
0.003566 0.610213 -0.099834
0.006370 0.611095 -0.099941
0.009128 0.610414 -0.099881
0.011899 0.610213 -0.099872
0.014730 0.611378 -0.100007
0.017435 0.609766 -0.099848
0.020241 0.610285 -0.099914
0.023045 0.610683 -0.099967
0.025822 0.610564 -0.099965
0.028658 0.611328 -0.100055
0.031166 0.607486 -0.099657
0.033893 0.606900 -0.099604
0.036750 0.607968 -0.099726
0.040223 0.615984 -0.100584
0.043355 0.619433 -0.100958
0.046011 0.617610 -0.100772
0.048595 0.615222 -0.100525
0.051407 0.615180 -0.100526
0.054224 0.615182 -0.100532
0.056723 0.612409 -0.100243
0.059903 0.615513 -0.100577
0.063407 0.620960 -0.101159
0.066105 0.619774 -0.101036
0.068136 0.613679 -0.100392
0.070958 0.613683 -0.100394
0.073785 0.613696 -0.100397
0.076667 0.614072 -0.100437
0.079530 0.614278 -0.100459
0.082263 0.613629 -0.100389
0.084360 0.609089 -0.099905
0.087559 0.611371 -0.100145
0.091552 0.618123 -0.100858
0.094391 0.617969 -0.100838
0.097225 0.617771 -0.100812
0.099977 0.617123 -0.100737
0.100983 0.607365 -0.099694
0.103579 0.606166 -0.099559
0.106395 0.606097 -0.099543
0.108952 0.604751 -0.099390
0.111272 0.602318 -0.099121
0.115595 0.609273 -0.099847
0.119445 0.613747 -0.100308
0.121980 0.612159 -0.100126
0.124806 0.611881 -0.100081
0.128166 0.613863 -0.100274
0.131290 0.614753 -0.100350
0.133659 0.612494 -0.100091
0.137267 0.615258 -0.100363
0.140251 0.615435 -0.100360
0.142522 0.612830 -0.100061
0.145343 0.612372 -0.099988
0.148542 0.613302 -0.100060
0.151994 0.615091 -0.100221
0.154871 0.614725 -0.100152
0.157422 0.613190 -0.099959
0.160307 0.612835 -0.099889
0.163212 0.612522 -0.099822
0.166368 0.613023 -0.099839
0.170155 0.615546 -0.100067
0.173119 0.615292 -0.100000
0.175176 0.612127 -0.099626
0.177852 0.610961 -0.099460
0.182398 0.615548 -0.099897
0.185978 0.617029 -0.100005
0.188035 0.613883 -0.099626
0.189572 0.609263 -0.099091
0.192452 0.608632 -0.098973
0.195497 0.608445 -0.098899
0.198634 0.608483 -0.098846
0.201275 0.607105 -0.098644
0.203572 0.604791 -0.098342
0.207378 0.606552 -0.098463
0.211492 0.609038 -0.098657
0.215633 0.611479 -0.098844
0.219949 0.614260 -0.099064
0.219840 0.605693 -0.098104
0.222357 0.603890 -0.097844
0.225327 0.603211 -0.097700
0.228158 0.602171 -0.097516
0.230630 0.600256 -0.097240
0.236089 0.605429 -0.097694
0.239170 0.604862 -0.097554
0.242437 0.604703 -0.097454
0.248591 0.611084 -0.098024
0.248332 0.602843 -0.097092
0.252023 0.603546 -0.097077
0.255419 0.603550 -0.096989
0.258867 0.603635 -0.096908
0.262188 0.603419 -0.096796
0.265872 0.603946 -0.096760
0.269777 0.604896 -0.096766
0.273385 0.605192 -0.096706
0.276892 0.605259 -0.096622
0.280102 0.604715 -0.096478
0.282288 0.602139 -0.096131
0.284782 0.600225 -0.095852
0.290261 0.604149 -0.096164
0.294993 0.606556 -0.096325
0.298990 0.607525 -0.096344
0.302743 0.608031 -0.096320
0.305256 0.606248 -0.096070
0.307359 0.603779 -0.095757
0.311956 0.605925 -0.095911
0.315168 0.605577 -0.095820
0.317393 0.603524 -0.095565
0.319644 0.601608 -0.095331
0.322273 0.600445 -0.095179
0.324693 0.599001 -0.095005
-0.345420 0.607258 -0.095313
-0.342445 0.607627 -0.095399
-0.339597 0.608304 -0.095523
-0.335169 0.606186 -0.095378
-0.332266 0.606889 -0.095519
-0.331433 0.611509 -0.096056
-0.327227 0.609947 -0.095985
-0.322873 0.608118 -0.095893
-0.319664 0.608484 -0.096025
-0.317114 0.610171 -0.096294
-0.314378 0.611559 -0.096537
-0.309854 0.609453 -0.096435
-0.307355 0.611378 -0.096739
-0.304282 0.612195 -0.096936
-0.301047 0.612702 -0.097104
-0.297714 0.613017 -0.097255
-0.293826 0.612165 -0.097289
-0.290645 0.612790 -0.097474
-0.287032 0.612484 -0.097565
-0.283967 0.613346 -0.097775
-0.280907 0.614222 -0.097987
-0.276427 0.611907 -0.097872
-0.273399 0.612804 -0.098086
-0.270324 0.613585 -0.098286
-0.266516 0.612640 -0.098309
-0.263476 0.613449 -0.098510
-0.259872 0.612893 -0.098570
-0.256974 0.613995 -0.098799
-0.253392 0.613402 -0.098851
-0.250236 0.613815 -0.099006
-0.247070 0.614172 -0.099153
-0.243367 0.613112 -0.099151
-0.240089 0.613088 -0.099254
-0.236229 0.611478 -0.099190
-0.233365 0.612449 -0.099393
-0.230280 0.612805 -0.099530
-0.227137 0.612963 -0.099644
-0.224093 0.613357 -0.099781
-0.220943 0.613420 -0.099881
-0.217331 0.612100 -0.099832
-0.214243 0.612237 -0.099936
-0.211272 0.612683 -0.100070
-0.208360 0.613278 -0.100217
-0.205593 0.614295 -0.100408
-0.202448 0.614120 -0.100470
-0.198955 0.612792 -0.100408
-0.195764 0.612356 -0.100438
-0.192958 0.613127 -0.100594
-0.190156 0.613902 -0.100750
-0.187318 0.614536 -0.100889
-0.184232 0.614301 -0.100933
-0.180749 0.612618 -0.100820
-0.177975 0.613380 -0.100967
-0.175189 0.614091 -0.101107
-0.172382 0.614710 -0.101235
-0.169825 0.616269 -0.101463
-0.166136 0.613480 -0.101222
-0.163263 0.613762 -0.101310
-0.160799 0.615660 -0.101570
-0.157958 0.616064 -0.101668
-0.154583 0.614218 -0.101522
-0.151680 0.614280 -0.101580
-0.148755 0.614216 -0.101623
-0.146231 0.615901 -0.101854
-0.143148 0.615092 -0.101813
-0.140167 0.614693 -0.101816
-0.137239 0.614501 -0.101840
-0.134550 0.615435 -0.101985
-0.131518 0.614675 -0.101945
-0.128753 0.615219 -0.102045
-0.125994 0.615798 -0.102149
-0.123078 0.615534 -0.102159
-0.120221 0.615562 -0.102200
-0.117426 0.615916 -0.102276
-0.114302 0.614354 -0.102142
-0.111540 0.614848 -0.102231
-0.108757 0.615216 -0.102305
-0.105935 0.615344 -0.102352
-0.103137 0.615610 -0.102414
-0.100382 0.616171 -0.102507
-0.097552 0.616215 -0.102543
-0.094692 0.616036 -0.102553
-0.091757 0.615264 -0.102498
-0.088869 0.614778 -0.102474
-0.086088 0.615103 -0.102537
-0.083343 0.615732 -0.102633
-0.080602 0.616429 -0.102736
-0.077773 0.616372 -0.102756
-0.074884 0.615736 -0.102712
-0.072032 0.615376 -0.102697
-0.069205 0.615241 -0.102706
-0.066375 0.615029 -0.102706
-0.063532 0.614643 -0.102687
-0.060751 0.614950 -0.102743
-0.057965 0.615222 -0.102795
-0.055142 0.614995 -0.102792
-0.052301 0.614462 -0.102755
-0.049564 0.615484 -0.102888
-0.046734 0.615072 -0.102863
-0.043948 0.615404 -0.102919
-0.041089 0.614293 -0.102816
-0.038293 0.614333 -0.102839
-0.035395 0.611828 -0.102582
-0.032753 0.615947 -0.103054
-0.030021 0.618359 -0.103338
-0.027184 0.617536 -0.103264
-0.024348 0.616417 -0.103158
-0.021532 0.615861 -0.103113
-0.018776 0.620003 -0.103587
-0.015979 0.623779 -0.104020
-0.013144 0.626702 -0.104358
-0.010296 0.623528 -0.104023
-0.007507 0.616403 -0.103252
-0.004722 0.614569 -0.103064
-0.001950 0.612947 -0.102899
0.000835 0.612602 -0.102874
0.003654 0.613749 -0.103015
0.006423 0.612863 -0.102930
0.009272 0.614451 -0.103118
0.012024 0.613262 -0.103000
0.014809 0.613020 -0.102985
0.017801 0.617015 -0.103439
0.020563 0.616052 -0.103344
0.023155 0.612339 -0.102944
0.025963 0.612561 -0.102979
0.028685 0.611490 -0.102871
0.031411 0.610594 -0.102781
0.034073 0.608966 -0.102610
0.037179 0.612905 -0.103056
0.040315 0.616750 -0.103490
0.043410 0.619736 -0.103829
0.046176 0.619009 -0.103757
0.048954 0.618459 -0.103703
0.051531 0.616035 -0.103441
0.054759 0.619700 -0.103854
0.057283 0.616940 -0.103553
0.060075 0.616616 -0.103523
0.063341 0.620100 -0.103914
0.066338 0.621235 -0.104043
0.068299 0.614552 -0.103306
0.071002 0.613659 -0.103209
0.073796 0.613431 -0.103186
0.076612 0.613353 -0.103179
0.079501 0.613741 -0.103223
0.082127 0.612417 -0.103076
0.084252 0.608080 -0.102594
0.087701 0.611868 -0.103013
0.091149 0.615429 -0.103406
0.094567 0.618606 -0.103755
0.097324 0.617959 -0.103680
0.099693 0.615247 -0.103374
0.102321 0.614002 -0.103230
0.104759 0.611828 -0.102983
0.108031 0.613886 -0.103204
0.111147 0.615062 -0.103326
0.113422 0.612175 -0.102996
0.116719 0.614134 -0.103203
0.120271 0.617142 -0.103524
0.122914 0.615954 -0.103380
0.125119 0.612890 -0.103027
0.128132 0.613365 -0.103065
0.130789 0.612314 -0.102932
0.133806 0.612744 -0.102962
0.136767 0.612905 -0.102962
0.140919 0.617713 -0.103474
0.144358 0.619558 -0.103656
0.145751 0.613567 -0.102971
0.149152 0.615220 -0.103130
0.152438 0.616365 -0.103231
0.155352 0.616105 -0.103175
0.157836 0.614308 -0.102948
0.160687 0.613809 -0.102863
0.163237 0.612269 -0.102662
0.166268 0.612353 -0.102638
0.169137 0.611869 -0.102550
0.172095 0.611653 -0.102490
0.174700 0.610283 -0.102301
0.177953 0.610947 -0.102334
0.183345 0.618134 -0.103082
0.187402 0.621013 -0.103355
0.187489 0.611929 -0.102312
0.189703 0.609327 -0.101980
0.192528 0.608529 -0.101843
0.195780 0.608933 -0.101837
0.198861 0.608802 -0.101770
0.201543 0.607531 -0.101576
0.203868 0.605285 -0.101275
0.209391 0.611643 -0.101910
0.212154 0.610478 -0.101722
0.215347 0.610422 -0.101654
0.219978 0.614023 -0.101981
0.219380 0.604219 -0.100849
0.221781 0.602145 -0.100556
0.224804 0.601617 -0.100429
0.227502 0.600273 -0.100212
0.229959 0.598343 -0.099931
0.236955 0.607174 -0.100811
0.240430 0.607503 -0.100769
0.243770 0.607472 -0.100687
0.247354 0.607958 -0.100659
0.246125 0.597577 -0.099461
0.250678 0.600253 -0.099667
0.254289 0.600762 -0.099639
0.258442 0.602403 -0.099731
0.261213 0.601019 -0.099499
0.264435 0.600592 -0.099368
0.268241 0.601371 -0.099367
0.271334 0.600641 -0.099204
0.275571 0.602238 -0.099290
0.278283 0.600719 -0.099045
0.281966 0.601153 -0.099009
0.284450 0.599221 -0.098723
0.288572 0.600510 -0.098781
0.294683 0.605588 -0.099241
0.299382 0.607885 -0.099410
0.301999 0.606244 -0.099165
0.305466 0.606235 -0.099097
0.308249 0.604999 -0.098904
0.311175 0.604083 -0.098749
0.314789 0.604459 -0.098736
0.317952 0.604068 -0.098647
0.320971 0.603483 -0.098544
0.323301 0.601763 -0.098329
0.326318 0.601320 -0.098254
-0.346075 0.607844 -0.098397
-0.342523 0.607208 -0.098380
-0.339334 0.607284 -0.098445
-0.335295 0.605883 -0.098363
-0.332847 0.607436 -0.098594
-0.330072 0.608473 -0.098779
-0.327446 0.609860 -0.099006
-0.322942 0.607763 -0.098874
-0.319763 0.608200 -0.099013
-0.317198 0.609867 -0.099285
-0.314531 0.611401 -0.099547
-0.310774 0.610830 -0.099592
-0.307025 0.610276 -0.099641
-0.304539 0.612284 -0.099964
-0.301574 0.613359 -0.100190
-0.297661 0.612487 -0.100213
-0.294279 0.612705 -0.100351
-0.290885 0.612891 -0.100488
-0.287246 0.612540 -0.100568
-0.283771 0.612516 -0.100683
-0.280579 0.613097 -0.100862
-0.277167 0.613171 -0.100987
-0.273390 0.612390 -0.101020
-0.270311 0.613161 -0.101218
-0.266947 0.613253 -0.101342
-0.263402 0.612884 -0.101416
-0.259864 0.612482 -0.101484
-0.256667 0.612858 -0.101635
-0.253691 0.613747 -0.101841
-0.250302 0.613587 -0.101930
-0.247233 0.614190 -0.102101
-0.243530 0.613139 -0.102090
-0.240382 0.613457 -0.102226
-0.236073 0.610671 -0.102021
-0.233354 0.612022 -0.102266
-0.230495 0.612989 -0.102467
-0.227192 0.612711 -0.102530
-0.223955 0.612565 -0.102605
-0.220574 0.611962 -0.102628
-0.217437 0.611999 -0.102719
-0.214607 0.612893 -0.102903
-0.211766 0.613740 -0.103079
-0.208493 0.613263 -0.103108
-0.205482 0.613533 -0.103217
-0.202343 0.613367 -0.103276
-0.199105 0.612844 -0.103293
-0.196199 0.613330 -0.103420
-0.193148 0.613320 -0.103491
-0.190120 0.613343 -0.103563
-0.187188 0.613655 -0.103666
-0.184270 0.613986 -0.103769
-0.181247 0.613925 -0.103827
-0.178091 0.613348 -0.103825
-0.175076 0.613223 -0.103872
-0.172213 0.613627 -0.103977
-0.169837 0.615852 -0.104285
-0.166251 0.613462 -0.104073
-0.163374 0.613733 -0.104159
-0.160518 0.614064 -0.104249
-0.158038 0.615913 -0.104510
-0.154548 0.613595 -0.104299
-0.151559 0.613282 -0.104313
-0.149209 0.615702 -0.104635
-0.146494 0.616581 -0.104781
-0.143172 0.614710 -0.104615
-0.140242 0.614548 -0.104641
-0.137351 0.614534 -0.104683
-0.134462 0.614501 -0.104721
-0.131669 0.614923 -0.104810
-0.128819 0.615047 -0.104864
-0.125996 0.615289 -0.104930
-0.123092 0.615090 -0.104945
-0.120332 0.615649 -0.105045
-0.117540 0.616033 -0.105125
-0.114624 0.615696 -0.105122
-0.111715 0.615355 -0.105117
-0.108967 0.615969 -0.105220
-0.106058 0.615575 -0.105208
-0.103232 0.615684 -0.105252
-0.100467 0.616183 -0.105339
-0.097612 0.616074 -0.105357
-0.094735 0.615775 -0.105352
-0.091833 0.615254 -0.105322
-0.088980 0.615060 -0.105327
-0.086206 0.615467 -0.105401
-0.083431 0.615874 -0.105474
-0.080632 0.616093 -0.105525
-0.077886 0.616798 -0.105631
-0.074907 0.615339 -0.105489
-0.072063 0.615065 -0.105482
-0.069234 0.614908 -0.105488
-0.066436 0.615067 -0.105529
-0.063608 0.614877 -0.105530
-0.060800 0.614890 -0.105554
-0.057999 0.614984 -0.105586
-0.055169 0.614680 -0.105573
-0.052363 0.614684 -0.105594
-0.049557 0.614666 -0.105612
-0.046807 0.615586 -0.105738
-0.043971 0.615056 -0.105697
-0.041212 0.615997 -0.105824
-0.038330 0.614348 -0.105653
-0.035364 0.610180 -0.105193
-0.032589 0.610363 -0.105232
-0.029989 0.616321 -0.105934
-0.027211 0.617524 -0.106090
-0.024381 0.616746 -0.106018
-0.021573 0.616917 -0.106054
-0.018786 0.619000 -0.106310
-0.015993 0.623054 -0.106793
-0.013153 0.623066 -0.106810
-0.010317 0.620970 -0.106584
-0.007490 0.620496 -0.106545
-0.004673 0.619489 -0.106444
-0.001886 0.617282 -0.106204
0.000917 0.616763 -0.106158
0.003754 0.617695 -0.106280
0.006646 0.620183 -0.106580
0.009522 0.621517 -0.106747
0.012227 0.618240 -0.106382
0.015028 0.617801 -0.106344
0.017864 0.618131 -0.106394
0.020745 0.619236 -0.106534
0.023663 0.620763 -0.106722
0.026437 0.619796 -0.106621
0.029267 0.619769 -0.106629
0.031991 0.618280 -0.106467
0.034688 0.616612 -0.106284
0.037428 0.615643 -0.106182
0.040543 0.619069 -0.106587
0.043318 0.618430 -0.106522
0.046434 0.621374 -0.106871
0.049230 0.620867 -0.106820
