ply
format ascii 1.0
comment ---
element vertex 1771
property float x
property float y
property float z
element face 0
property list uchar uint vertex_indices
end_header
0.616052 0.602283 0.131339
0.619504 0.602771 0.131360
0.622200 0.601818 0.131275
0.624985 0.601025 0.131201
0.627815 0.600303 0.131132
0.631396 0.600917 0.131161
0.635106 0.601720 0.131203
0.637928 0.600919 0.131127
0.642029 0.602327 0.131213
0.643805 0.599686 0.131001
0.646641 0.598874 0.130923
0.650940 0.600513 0.131024
0.654514 0.600881 0.131031
0.657820 0.600775 0.131003
0.661628 0.601458 0.131033
0.664565 0.600695 0.130956
0.667733 0.600287 0.130904
0.672188 0.601893 0.130999
0.675473 0.601607 0.130955
0.678395 0.600735 0.130867
0.680862 0.599153 0.130727
0.683719 0.598165 0.130630
0.688194 0.599597 0.130708
0.692331 0.600469 0.130745
0.695923 0.600489 0.130719
0.698856 0.599515 0.130620
0.700783 0.597077 0.130413
0.704752 0.597575 0.130419
0.708977 0.598394 0.130448
0.711751 0.597128 0.130324
0.715047 0.596580 0.130251
0.719756 0.597952 0.130316
0.723248 0.597606 0.130256
0.727029 0.597622 0.130221
0.730551 0.597257 0.130157
0.734982 0.598067 0.130177
0.739654 0.599141 0.130215
0.742794 0.598169 0.130104
0.745593 0.596740 0.129959
0.748875 0.595916 0.129856
0.753223 0.596415 0.129847
0.756968 0.596111 0.129779
0.761080 0.596228 0.129739
0.766916 0.598418 0.129846
0.770568 0.597873 0.129756
0.774029 0.597067 0.129646
0.777567 0.596326 0.129540
0.782487 0.597188 0.129545
0.787113 0.597647 0.129520
0.791063 0.597270 0.129434
0.795878 0.597848 0.129414
0.799421 0.596922 0.129286
0.803132 0.596158 0.129167
0.808424 0.597125 0.129168
0.812151 0.596296 0.129042
0.817617 0.597340 0.129044
0.821341 0.596424 0.128907
0.826467 0.596982 0.128871
0.831176 0.597035 0.128798
0.835425 0.596551 0.128685
0.839509 0.595851 0.128555
0.845563 0.597151 0.128562
0.850777 0.597513 0.128501
0.854913 0.596718 0.128358
0.859748 0.596587 0.128259
0.863277 0.595102 0.128065
0.867228 0.594006 0.127896
0.873543 0.595188 0.127880
0.879008 0.595470 0.127800
0.883190 0.594458 0.127631
0.891129 0.596982 0.127698
0.895141 0.595705 0.127507
0.899233 0.594472 0.127317
0.904457 0.594254 0.127194
0.912915 0.596943 0.127264
0.916853 0.595435 0.127051
0.922750 0.595661 0.126953
0.926768 0.594163 0.126740
0.938322 0.599279 0.126962
0.942088 0.597461 0.126726
0.946395 0.596101 0.126521
0.952032 0.595863 0.126389
0.959929 0.597505 0.126380
0.965105 0.596798 0.126219
0.970022 0.595859 0.126044
0.976339 0.596062 0.125945
0.979899 0.593990 0.125701
0.982852 0.591449 0.125431
0.992443 0.594252 0.125506
0.994135 0.590733 0.125182
0.999988 0.590542 0.125073
1.010599 0.594059 0.125203
1.015337 0.592990 0.125049
1.019881 0.591803 0.124892
1.029280 0.594331 0.124975
0.271293 0.603735 0.127468
0.274068 0.599095 0.127164
0.276458 0.597972 0.127096
0.278746 0.598061 0.127113
0.281088 0.597940 0.127120
0.283261 0.599892 0.127268
0.285718 0.599213 0.127245
0.288186 0.598625 0.127232
0.290260 0.603101 0.127558
0.292829 0.601945 0.127512
0.295320 0.601986 0.127548
0.298003 0.599432 0.127414
0.300248 0.603705 0.127737
0.302887 0.602113 0.127670
0.305387 0.603049 0.127774
0.307984 0.602341 0.127768
0.310533 0.602753 0.127839
0.313084 0.603368 0.127924
0.315630 0.604410 0.128039
0.318228 0.604144 0.128066
0.320817 0.604218 0.128116
0.323411 0.604128 0.128155
0.326011 0.603613 0.128165
0.328591 0.604426 0.128264
0.331185 0.604008 0.128280
0.333772 0.604026 0.128325
0.336357 0.603954 0.128363
0.338936 0.603724 0.128390
0.341532 0.604999 0.128518
0.344099 0.604258 0.128508
0.346666 0.603983 0.128529
0.349224 0.603580 0.128541
0.351787 0.603571 0.128578
0.354349 0.603618 0.128618
0.356964 0.604958 0.128746
0.359471 0.603855 0.128705
0.361983 0.603101 0.128687
0.364538 0.603285 0.128732
0.367065 0.603034 0.128746
0.369615 0.603192 0.128787
0.372164 0.603366 0.128828
0.374727 0.603717 0.128881
0.377253 0.603601 0.128900
0.379796 0.603719 0.128934
0.382293 0.603335 0.128932
0.384793 0.603027 0.128934
0.387283 0.602661 0.128932
0.389997 0.604479 0.129079
0.392588 0.605025 0.129137
0.395095 0.604777 0.129140
0.397586 0.604422 0.129134
0.400002 0.603472 0.129085
0.402837 0.605873 0.129268
0.405325 0.605475 0.129256
0.407800 0.604997 0.129238
0.410312 0.604802 0.129238
0.412934 0.605362 0.129289
0.415485 0.605401 0.129304
0.418030 0.605379 0.129313
0.420678 0.605988 0.129366
0.423239 0.606018 0.129377
0.425611 0.604923 0.129310
0.428153 0.604831 0.129311
0.430800 0.605316 0.129351
0.433370 0.605332 0.129358
0.436186 0.606620 0.129453
0.438630 0.605915 0.129409
0.441015 0.604923 0.129344
0.443492 0.604400 0.129310
0.446181 0.604897 0.129347
0.448810 0.605064 0.129361
0.451681 0.606306 0.129448
0.454419 0.606876 0.129488
0.456690 0.605344 0.129381
0.459518 0.606242 0.129443
0.462322 0.606974 0.129493
0.464757 0.606134 0.129432
0.467376 0.606039 0.129423
0.469933 0.605675 0.129395
0.472539 0.605488 0.129378
0.475004 0.604746 0.129322
0.477463 0.603979 0.129264
0.480361 0.604822 0.129318
0.482961 0.604530 0.129292
0.485654 0.604554 0.129288
0.488378 0.604652 0.129288
0.491093 0.604691 0.129284
0.493905 0.605026 0.129300
0.496713 0.605306 0.129312
0.499103 0.604190 0.129226
0.501848 0.604218 0.129219
0.504661 0.604431 0.129225
0.507517 0.604740 0.129238
0.510974 0.606843 0.129374
0.512593 0.603338 0.129121
0.515576 0.603940 0.129152
0.518177 0.603386 0.129103
0.521175 0.603956 0.129132
0.523817 0.603476 0.129087
0.526835 0.604030 0.129114
0.529853 0.604537 0.129137
0.532574 0.604202 0.129102
0.535130 0.603407 0.129034
0.538017 0.603474 0.129026
0.541082 0.603974 0.129048
0.544511 0.605362 0.129130
0.547316 0.605114 0.129100
0.550089 0.604763 0.129061
0.553524 0.606019 0.129134
0.556004 0.604900 0.129042
0.558549 0.603941 0.128961
0.561410 0.603724 0.128931
0.564138 0.603174 0.128878
0.567308 0.603627 0.128894
0.570710 0.604570 0.128943
0.573467 0.604015 0.128889
0.576249 0.603503 0.128837
0.579641 0.604309 0.128876
0.582686 0.604320 0.128860
0.585387 0.603569 0.128791
0.588232 0.603114 0.128742
0.591865 0.604282 0.128804
0.594590 0.603528 0.128735
0.596767 0.601652 0.128587
0.599826 0.601566 0.128563
0.603696 0.603063 0.128646
0.606603 0.602611 0.128596
0.609468 0.602059 0.128538
0.612167 0.601174 0.128457
0.615677 0.601822 0.128481
0.618995 0.602069 0.128477
0.622090 0.601868 0.128442
0.624540 0.600463 0.128324
0.627560 0.600096 0.128277
0.630122 0.598888 0.128172
0.633944 0.599914 0.128218
0.637579 0.600566 0.128239
0.640122 0.599276 0.128127
0.643299 0.599077 0.128089
0.646816 0.599433 0.128088
0.649728 0.598736 0.128015
0.653086 0.598768 0.127991
0.657797 0.601001 0.128115
0.660964 0.600642 0.128063
0.664280 0.600501 0.128025
0.667767 0.600610 0.128003
0.671821 0.601582 0.128039
0.675079 0.601260 0.127987
0.677663 0.599871 0.127862
0.680545 0.598937 0.127767
0.684044 0.598928 0.127734
0.687846 0.599346 0.127728
0.691236 0.599111 0.127678
0.694136 0.598128 0.127576
0.697035 0.597132 0.127473
0.700767 0.597327 0.127449
0.705379 0.598746 0.127506
0.708606 0.598142 0.127426
0.711716 0.597353 0.127333
0.715042 0.596847 0.127257
0.719400 0.597737 0.127274
0.723079 0.597651 0.127224
0.726328 0.596952 0.127133
0.729772 0.596493 0.127056
0.734015 0.597064 0.127046
0.738036 0.597297 0.127013
0.741904 0.597291 0.126962
0.745596 0.597021 0.126892
0.749193 0.596598 0.126811
0.753232 0.596703 0.126763
0.756888 0.596288 0.126679
0.760324 0.595569 0.126574
0.764728 0.596013 0.126544
0.770228 0.597738 0.126595
0.774353 0.597736 0.126532
0.777934 0.597042 0.126422
0.781842 0.596704 0.126333
0.786919 0.597699 0.126329
0.790961 0.597431 0.126240
0.793876 0.595827 0.126064
0.798968 0.596686 0.126045
0.803183 0.596495 0.125956
0.807114 0.595942 0.125841
0.814013 0.598636 0.125933
0.818126 0.598177 0.125820
0.820987 0.596319 0.125615
0.824211 0.594835 0.125433
0.830356 0.596442 0.125445
0.835503 0.596913 0.125382
0.838995 0.595593 0.125204
0.843250 0.595036 0.125071
0.851979 0.599028 0.125222
0.855400 0.597494 0.125023
0.859927 0.597049 0.124890
0.863342 0.595448 0.124683
0.868137 0.595186 0.124557
0.872547 0.594497 0.124402
0.877512 0.594303 0.124276
0.882904 0.594468 0.124170
0.887438 0.593759 0.124007
0.893929 0.594851 0.123952
0.897988 0.593599 0.123753
0.907083 0.596971 0.123831
0.913090 0.597398 0.123729
0.916974 0.595840 0.123506
0.925450 0.598383 0.123527
0.927666 0.595261 0.123210
0.934711 0.596404 0.123144
0.941195 0.596990 0.123045
0.945417 0.595568 0.122827
0.953959 0.597827 0.122825
0.957420 0.595700 0.122568
0.964377 0.596513 0.122482
0.968836 0.595204 0.122274
0.972638 0.593351 0.122039
0.975968 0.591125 0.121784
0.972327 0.583289 0.121216
0.976158 0.581568 0.120999
0.988113 0.586316 0.121152
0.990811 0.583697 0.120893
1.001320 0.587211 0.120983
1.013468 0.591935 0.121145
1.017057 0.590038 0.120943
1.025724 0.592042 0.120963
0.272119 0.597267 0.124665
0.274162 0.598842 0.124761
0.276315 0.599856 0.124828
0.278801 0.598067 0.124725
0.281049 0.598837 0.124785
0.283607 0.596739 0.124671
0.285801 0.598754 0.124815
0.288093 0.600146 0.124925
0.290693 0.598192 0.124830
0.293198 0.597521 0.124818
0.295469 0.600267 0.125020
0.297752 0.603475 0.125253
0.300514 0.599754 0.125058
0.302917 0.601854 0.125227
0.305458 0.601936 0.125272
0.308001 0.602196 0.125330
0.310530 0.602992 0.125421
0.313084 0.603511 0.125497
0.315678 0.603104 0.125515
0.318245 0.603626 0.125592
0.320830 0.603700 0.125641
0.323431 0.603025 0.125642
0.325965 0.606554 0.125909
0.328595 0.603642 0.125769
0.331180 0.603973 0.125834
0.333766 0.603324 0.125835
0.336349 0.603804 0.125908
0.338925 0.603372 0.125922
0.341485 0.602280 0.125893
0.344080 0.603745 0.126026
0.346639 0.603233 0.126033
0.349208 0.603396 0.126081
0.351780 0.603669 0.126135
0.354349 0.603909 0.126186
0.356939 0.604671 0.126269
0.359391 0.602440 0.126160
0.361966 0.603030 0.126230
0.364505 0.602931 0.126255
0.367049 0.602989 0.126289
0.369490 0.601528 0.126224
0.372142 0.603250 0.126362
0.374692 0.603461 0.126402
0.377221 0.603397 0.126423
0.379688 0.602645 0.126399
0.382224 0.602752 0.126429
0.384735 0.602596 0.126440
0.387186 0.601862 0.126414
0.389842 0.603165 0.126517
0.392508 0.604456 0.126619
0.394983 0.603954 0.126604
0.397437 0.603320 0.126579
0.399997 0.603593 0.126612
0.402652 0.604583 0.126690
0.405226 0.604884 0.126723
0.407693 0.604376 0.126702
0.410120 0.603606 0.126663
0.412873 0.605099 0.126770
0.415470 0.605452 0.126802
0.417839 0.604314 0.126736
0.420724 0.606431 0.126880
0.423023 0.604869 0.126785
0.425444 0.604096 0.126741
0.428173 0.605100 0.126810
0.430790 0.605412 0.126834
0.433660 0.607053 0.126943
0.436179 0.606741 0.126925
0.438639 0.606120 0.126886
0.441007 0.605040 0.126816
0.443540 0.604793 0.126800
0.446019 0.604279 0.126765
0.448596 0.604223 0.126760
0.451442 0.605374 0.126832
0.453978 0.605064 0.126809
0.456464 0.604519 0.126770
0.459641 0.606934 0.126922
0.461749 0.604733 0.126774
0.464760 0.606316 0.126870
0.467335 0.606043 0.126846
0.469916 0.605777 0.126822
0.472357 0.604955 0.126761
0.474864 0.604383 0.126716
0.477790 0.605372 0.126771
0.480326 0.604868 0.126729
0.482669 0.603656 0.126641
0.485496 0.604171 0.126664
0.488186 0.604165 0.126653
0.490861 0.604080 0.126636
0.493728 0.604616 0.126659
0.496191 0.603769 0.126592
0.499003 0.604052 0.126598
0.501887 0.604531 0.126616
0.504706 0.604762 0.126617
0.507267 0.604159 0.126564
0.509887 0.603723 0.126522
0.512907 0.604477 0.126556
0.515118 0.602785 0.126432
0.518419 0.604288 0.126513
0.520866 0.603271 0.126432
0.523662 0.603243 0.126414
0.526604 0.603592 0.126420
0.529902 0.604878 0.126486
0.532475 0.604141 0.126421
0.535061 0.603432 0.126358
0.537476 0.602265 0.126265
0.541203 0.604501 0.126391
0.543680 0.603456 0.126305
0.546878 0.604228 0.126336
0.549892 0.604492 0.126334
0.553428 0.606003 0.126411
0.556057 0.605251 0.126343
0.558535 0.604132 0.126252
0.561226 0.603516 0.126192
0.564000 0.603079 0.126143
0.566926 0.602979 0.126116
0.569745 0.602609 0.126071
0.573119 0.603467 0.126104
0.575459 0.601988 0.125988
0.579326 0.603855 0.126085
0.582404 0.603948 0.126068
0.585609 0.604281 0.126066
0.588337 0.603573 0.125998
0.591250 0.603243 0.125953
0.594587 0.603764 0.125962
0.596976 0.602320 0.125846
0.599176 0.600501 0.125706
0.602997 0.601921 0.125771
0.606244 0.602152 0.125760
0.608720 0.600854 0.125652
0.611573 0.600283 0.125590
0.614660 0.600143 0.125554
0.619061 0.602444 0.125672
0.621447 0.600929 0.125549
0.624263 0.600208 0.125476
0.627179 0.599658 0.125412
0.630346 0.599544 0.125376
0.632558 0.597710 0.125231
0.637317 0.600362 0.125368
0.639998 0.599318 0.125271
0.642647 0.598215 0.125171
0.647678 0.601159 0.125323
0.649962 0.599391 0.125180
0.654769 0.601834 0.125299
0.657860 0.601369 0.125236
0.660846 0.600713 0.125161
0.663781 0.599962 0.125078
0.667787 0.600907 0.125101
0.671550 0.601420 0.125096
0.674499 0.600619 0.125008
0.677507 0.599896 0.124925
0.680785 0.599572 0.124865
0.685011 0.600666 0.124892
0.687910 0.599712 0.124792
0.690433 0.598184 0.124655
0.694038 0.598252 0.124616
0.697071 0.597453 0.124523
0.700037 0.596542 0.124421
0.704548 0.597828 0.124454
0.708212 0.597855 0.124408
0.711597 0.597458 0.124335
0.715167 0.597293 0.124274
0.719585 0.598265 0.124282
0.723010 0.597830 0.124203
0.726221 0.597080 0.124104
0.728833 0.595508 0.123953
0.731988 0.594651 0.123844
0.735565 0.594328 0.123767
0.740718 0.596022 0.123809
0.745810 0.597571 0.123841
0.751804 0.600202 0.123936
0.753633 0.597483 0.123708
0.756267 0.595785 0.123540
0.759776 0.595163 0.123435
0.764526 0.596037 0.123417
0.769321 0.596910 0.123397
0.774395 0.598061 0.123392
0.779507 0.599193 0.123383
0.783298 0.598701 0.123275
0.787438 0.598582 0.123188
0.790491 0.597159 0.123022
0.793851 0.596072 0.122874
0.797058 0.594784 0.122712
0.802249 0.595713 0.122678
0.806685 0.595735 0.122588
0.809186 0.593566 0.122369
0.818363 0.598712 0.122570
0.821243 0.596870 0.122365
0.826098 0.597138 0.122280
0.831404 0.597832 0.122215
0.831435 0.592889 0.121827
0.843108 0.600170 0.122132
0.850460 0.602783 0.122167
0.850539 0.597825 0.121772
0.857318 0.599720 0.121761
0.861029 0.598434 0.121569
0.862440 0.594822 0.121245
0.868720 0.596037 0.121187
0.875964 0.598118 0.121174
0.883402 0.600292 0.121162
0.885351 0.597096 0.120854
0.886984 0.593604 0.120528
0.893701 0.594916 0.120461
0.900226 0.595969 0.120378
0.906261 0.596494 0.120263
0.912667 0.597296 0.120162
0.917796 0.596873 0.119992
0.922920 0.596402 0.119819
0.927413 0.595329 0.119613
0.932256 0.594537 0.119422
0.932326 0.589550 0.119012
0.939471 0.590731 0.118923
0.945691 0.591058 0.118789
0.953270 0.592494 0.118713
0.952671 0.587000 0.118284
0.952417 0.581867 0.117878
0.958345 0.581900 0.117737
0.960458 0.578796 0.117440
0.962565 0.575729 0.117151
0.963318 0.571621 0.116814
0.967415 0.570237 0.116618
0.980684 0.576090 0.116780
0.989343 0.578245 0.116765
0.995331 0.578306 0.116653
1.004405 0.580741 0.116662
1.025983 0.592642 0.117131
0.271128 0.606385 0.122815
0.273894 0.601812 0.122549
0.276206 0.601418 0.122526
0.278383 0.602623 0.122600
0.280863 0.601208 0.122528
0.282878 0.604885 0.122752
0.285436 0.603220 0.122674
0.287864 0.603205 0.122694
0.290211 0.604481 0.122792
0.292395 0.608323 0.123040
0.295088 0.605861 0.122929
0.297504 0.607428 0.123053
0.300224 0.604637 0.122927
0.302557 0.608282 0.123175
0.305000 0.610735 0.123356
0.307728 0.607973 0.123236
0.310273 0.608985 0.123337
0.313122 0.602553 0.123006
0.315696 0.602580 0.123050
0.318251 0.603355 0.123138
0.320837 0.603252 0.123176
0.323427 0.602979 0.123203
0.326009 0.603117 0.123254
0.328587 0.603619 0.123327
0.331177 0.602749 0.123319
0.333756 0.605036 0.123495
0.336339 0.603951 0.123473
0.338914 0.603364 0.123479
0.341485 0.603131 0.123505
0.344044 0.602492 0.123506
0.346629 0.603369 0.123596
0.349197 0.603486 0.123640
0.351782 0.604173 0.123716
0.354402 0.605704 0.123842
0.356773 0.601139 0.123604
0.359312 0.601118 0.123635
0.361914 0.602347 0.123739
0.364548 0.603985 0.123867
0.366821 0.599569 0.123632
0.369541 0.602553 0.123837
0.371978 0.601201 0.123783
0.374475 0.600839 0.123786
0.377074 0.601806 0.123867
0.379651 0.602434 0.123927
0.382156 0.602201 0.123934
0.384635 0.601742 0.123926
0.387186 0.602055 0.123964
0.390027 0.605132 0.124166
0.392474 0.604332 0.124134
0.394837 0.602855 0.124061
0.397269 0.602086 0.124028
0.399646 0.600922 0.123971
0.402336 0.602289 0.124065
0.404931 0.602832 0.124108
0.407481 0.603001 0.124128
0.410088 0.603554 0.124169
0.412806 0.604809 0.124252
0.415187 0.603752 0.124195
0.417718 0.603707 0.124198
0.420253 0.603670 0.124200
0.422615 0.602574 0.124137
0.425320 0.603532 0.124197
0.428025 0.604423 0.124252
0.430481 0.603862 0.124219
0.433077 0.604062 0.124231
0.435982 0.605868 0.124338
0.438443 0.605272 0.124300
0.441072 0.605528 0.124312
0.443462 0.604578 0.124251
0.445885 0.603803 0.124200
0.448463 0.603767 0.124193
0.451139 0.604152 0.124210
0.453728 0.604108 0.124200
0.456359 0.604224 0.124200
0.459236 0.605365 0.124260
0.461969 0.605830 0.124279
0.464596 0.605811 0.124268
0.467568 0.607155 0.124338
0.470253 0.607290 0.124335
0.472411 0.605340 0.124207
0.474863 0.604558 0.124147
0.477555 0.604671 0.124141
0.480020 0.603924 0.124083
0.482598 0.603580 0.124048
0.485379 0.603941 0.124056
0.488041 0.603843 0.124035
0.490611 0.603409 0.123993
0.493462 0.603906 0.124007
0.496135 0.603770 0.123982
0.498721 0.603325 0.123938
0.501859 0.604635 0.123999
0.504850 0.605408 0.124027
0.507423 0.604835 0.123974
0.509935 0.604066 0.123910
0.512600 0.603752 0.123872
0.515658 0.604579 0.123901
0.517961 0.603157 0.123796
0.520854 0.603440 0.123792
0.523573 0.603194 0.123757
0.528111 0.607992 0.124020
0.529952 0.605224 0.123834
0.532119 0.603388 0.123703
0.534043 0.600928 0.123535
0.538173 0.604309 0.123712
0.541174 0.604641 0.123709
0.543777 0.603918 0.123642
0.546488 0.603461 0.123591
0.550066 0.605144 0.123666
0.553493 0.606385 0.123715
0.556046 0.605447 0.123634
0.558503 0.604279 0.123540
0.561153 0.603566 0.123472
0.563927 0.603135 0.123421
0.566823 0.602970 0.123385
0.569991 0.603397 0.123383
0.571965 0.601110 0.123222
0.575912 0.603223 0.123318
0.579782 0.605087 0.123400
0.583024 0.605523 0.123397
0.586200 0.605779 0.123383
0.589399 0.606052 0.123370
0.592574 0.606242 0.123351
0.595791 0.606484 0.123335
0.599081 0.606844 0.123326
0.601072 0.604558 0.123162
0.604218 0.604591 0.123133
0.606556 0.603011 0.123009
0.608964 0.601575 0.122894
0.611138 0.599695 0.122753
0.615069 0.601168 0.122805
0.618796 0.602197 0.122831
0.622249 0.602668 0.122824
0.625814 0.603308 0.122827
0.629246 0.603665 0.122812
0.632351 0.603401 0.122761
0.635542 0.603267 0.122717
0.639179 0.603890 0.122716
0.643167 0.605087 0.122747
0.646827 0.605663 0.122741
0.650071 0.605493 0.122692
0.653260 0.605206 0.122636
0.655192 0.602799 0.122458
0.658252 0.602277 0.122387
0.661310 0.601734 0.122314
0.666589 0.604760 0.122444
0.671294 0.606779 0.122514
0.677362 0.610884 0.122702
0.680221 0.609848 0.122597
0.677780 0.600586 0.122027
0.681073 0.600280 0.121963
0.685154 0.601151 0.121964
0.688005 0.600121 0.121857
0.688932 0.596216 0.121587
0.694083 0.598587 0.121669
0.700518 0.602756 0.121850
0.706793 0.606579 0.122009
0.710002 0.605906 0.121916
0.713671 0.605865 0.121857
0.715561 0.603294 0.121656
0.718899 0.602752 0.121567
0.722613 0.602704 0.121504
0.725044 0.600873 0.121341
0.732265 0.605516 0.121533
0.733636 0.602204 0.121286
0.736040 0.600290 0.121114
0.739751 0.600092 0.121035
0.743118 0.599412 0.120929
0.748216 0.600940 0.120940
0.754048 0.603336 0.120997
0.761707 0.607957 0.121171
0.765514 0.607631 0.121076
0.766779 0.604117 0.120807
0.768792 0.601548 0.120587
0.773307 0.602030 0.120530
0.776565 0.600946 0.120387
0.781487 0.601828 0.120346
0.788682 0.605340 0.120442
0.795641 0.608465 0.120515
0.800034 0.608509 0.120421
0.793456 0.595885 0.119661
0.797262 0.595284 0.119531
0.800664 0.594192 0.119373
0.805697 0.594897 0.119307
0.808209 0.592749 0.119090
0.815195 0.595503 0.119124
0.821248 0.597143 0.119097
0.825575 0.596843 0.118967
0.827904 0.594366 0.118724
0.826711 0.588161 0.118290
0.832572 0.589407 0.118232
0.836875 0.588963 0.118085
0.838974 0.586210 0.117821
0.852853 0.595445 0.118151
0.852108 0.589709 0.117733
0.856549 0.589206 0.117572
0.859286 0.586974 0.117324
0.872059 0.594561 0.117552
0.881795 0.599004 0.117621
0.882823 0.594936 0.117276
0.883806 0.590848 0.116929
0.888028 0.589837 0.116728
0.898048 0.594208 0.116779
0.904841 0.595456 0.116678
0.911803 0.596783 0.116579
0.916587 0.596056 0.116381
0.922311 0.596137 0.116219
0.926139 0.594480 0.115977
0.933215 0.595671 0.115863
0.936197 0.593219 0.115584
0.935991 0.588015 0.115183
0.948411 0.593685 0.115268
0.950781 0.590685 0.114967
0.944079 0.580085 0.114337
0.945070 0.576060 0.114001
0.946396 0.572361 0.113683
0.955435 0.575013 0.113641
0.962254 0.575803 0.113522
0.964002 0.572501 0.113233
0.966329 0.569711 0.112972
0.990050 0.579158 0.113091
0.989633 0.574271 0.112761
1.012969 0.583157 0.112886
0.273143 0.589660 0.119521
0.273989 0.601540 0.120140
0.276169 0.602306 0.120177
0.278523 0.601787 0.120151
0.280165 0.608719 0.120524
0.282798 0.606170 0.120400
0.285250 0.605688 0.120389
0.287817 0.604139 0.120325
0.290073 0.606521 0.120474
0.292330 0.609480 0.120656
0.294906 0.608659 0.120641
0.297578 0.606567 0.120562
0.300121 0.606463 0.120590
0.302595 0.607772 0.120696
0.305041 0.610066 0.120856
0.307396 0.614887 0.121152
0.309811 0.619582 0.121444
0.313079 0.603613 0.120632
0.315677 0.603001 0.120641
0.318246 0.603311 0.120700
0.320828 0.603306 0.120742
0.323412 0.603281 0.120784
0.325989 0.603696 0.120849
0.328587 0.602490 0.120826
0.331205 0.594726 0.120448
0.333741 0.609881 0.121309
0.336351 0.609876 0.121350
0.338951 0.608980 0.121342
0.341540 0.608179 0.121338
0.344139 0.608431 0.121390
0.346769 0.610029 0.121514
0.349338 0.609071 0.121499
0.351867 0.607261 0.121435
0.354444 0.607295 0.121471
0.357064 0.608379 0.121562
0.359599 0.607534 0.121548
0.362220 0.608550 0.121633
0.364961 0.611553 0.121827
0.367616 0.612754 0.121921
0.370034 0.610260 0.121810
0.372552 0.609541 0.121795
0.375218 0.610886 0.121893
0.377656 0.609269 0.121826
0.380484 0.612422 0.122021
0.382993 0.611727 0.122002
0.385550 0.611619 0.122015
0.387729 0.607731 0.121817
0.390292 0.607887 0.121841
0.392960 0.608996 0.121917
0.395541 0.609251 0.121944
0.398098 0.609289 0.121958
0.400429 0.607481 0.121868
0.403419 0.610948 0.122070
0.406236 0.612865 0.122185
0.408233 0.608662 0.121958
0.411374 0.612791 0.122193
0.413670 0.610879 0.122092
0.415572 0.606474 0.121851
0.418183 0.606857 0.121875
0.421683 0.612726 0.122202
0.424235 0.612523 0.122192
0.427003 0.613580 0.122250
0.430052 0.616163 0.122391
0.433561 0.621146 0.122665
0.436029 0.620214 0.122610
0.435823 0.605197 0.121772
0.438425 0.605350 0.121775
0.440881 0.604738 0.121735
0.443354 0.604216 0.121699
0.445876 0.603934 0.121675
0.448453 0.603889 0.121664
0.450946 0.603440 0.121629
0.452351 0.598113 0.121323
0.456851 0.606557 0.121780
0.459764 0.607809 0.121837
0.462543 0.608418 0.121858
0.465968 0.611639 0.122022
0.468270 0.610171 0.121927
0.470500 0.608444 0.121816
0.473604 0.610153 0.121895
0.476992 0.612854 0.122028
0.477908 0.606176 0.121642
0.481177 0.608356 0.121745
0.484322 0.609983 0.121816
0.486880 0.609444 0.121767
0.488574 0.605887 0.121552
0.492482 0.610000 0.121758
0.495050 0.609438 0.121707
0.497760 0.609333 0.121680
0.500756 0.610135 0.121702
0.505151 0.615362 0.121966
0.505559 0.607835 0.121531
0.508070 0.607038 0.121464
0.512199 0.611168 0.121666
0.515626 0.613037 0.121744
0.518187 0.612260 0.121677
0.519728 0.608505 0.121446
0.522760 0.609112 0.121454
0.525843 0.609814 0.121466
0.527492 0.606476 0.121258
0.530566 0.607117 0.121266
0.532941 0.605822 0.121168
0.534667 0.602802 0.120977
0.539026 0.606764 0.121164
0.541557 0.605850 0.121086
0.545121 0.607571 0.121150
0.547904 0.607251 0.121103
0.551040 0.607787 0.121103
0.559633 0.621685 0.121822
0.557256 0.608603 0.121086
0.558921 0.605502 0.120888
0.560973 0.603368 0.120742
0.564002 0.603538 0.120720
0.567077 0.603783 0.120701
0.569372 0.602220 0.120585
0.570726 0.598561 0.120356
0.574156 0.599564 0.120377
0.579848 0.605465 0.120659
0.583850 0.607544 0.120736
0.586550 0.606763 0.120660
0.589500 0.606504 0.120611
0.591875 0.605025 0.120497
0.595796 0.606738 0.120552
0.598853 0.606624 0.120510
0.601797 0.606260 0.120453
0.605112 0.606615 0.120435
0.607645 0.605397 0.120333
0.610251 0.604323 0.120238
0.612890 0.603309 0.120146
0.616177 0.603521 0.120118
0.619533 0.603832 0.120094
0.622787 0.603920 0.120058
0.626636 0.605071 0.120078
0.630177 0.605611 0.120064
0.634190 0.606960 0.120092
0.636292 0.604855 0.119939
0.639526 0.604758 0.119890
0.642294 0.603826 0.119798
0.647347 0.606819 0.119908
0.650979 0.607300 0.119887
0.653573 0.605994 0.119772
0.654588 0.602053 0.119521
0.657479 0.601263 0.119432
0.662705 0.604273 0.119538
0.667675 0.606779 0.119617
0.672989 0.609756 0.119718
0.677293 0.611041 0.119731
0.679308 0.608685 0.119557
0.677803 0.600884 0.119105
0.680447 0.599584 0.118984
0.685262 0.601579 0.119030
0.687355 0.599407 0.118863
0.688196 0.595382 0.118602
0.691308 0.594755 0.118511
0.699339 0.601299 0.118780
0.700870 0.598279 0.118567
0.699110 0.590568 0.118118
0.703386 0.591542 0.118103
0.716817 0.605327 0.118725
0.717514 0.601093 0.118446
0.718598 0.597440 0.118196
0.722577 0.597774 0.118142
0.727814 0.599769 0.118169
0.730323 0.598037 0.118010
0.733507 0.597198 0.117894
0.739091 0.599492 0.117929
0.745846 0.603229 0.118032
0.747744 0.600598 0.117822
0.751653 0.600547 0.117737
0.761172 0.607552 0.117990
0.765884 0.608364 0.117940
0.768093 0.606016 0.117737
0.768234 0.601129 0.117412
0.769748 0.597963 0.117167
0.775159 0.599517 0.117145
0.778287 0.598271 0.116988
0.779961 0.595285 0.116747
0.790556 0.602772 0.116996
0.802665 0.611833 0.117312
0.796420 0.599558 0.116631
0.800481 0.599215 0.116504
0.800458 0.594221 0.116161
0.805844 0.595323 0.116096
0.808690 0.593542 0.115897
0.813559 0.593967 0.115795
0.819471 0.595471 0.115739
0.822126 0.593386 0.115518
0.818508 0.584595 0.114996
0.823044 0.584539 0.114863
0.829089 0.586016 0.114794
0.834362 0.586612 0.114683
0.839018 0.586509 0.114538
0.839485 0.582093 0.114204
0.843084 0.580863 0.114005
0.852331 0.585249 0.114044
0.864054 0.591948 0.114176
0.867585 0.590437 0.113954
0.868496 0.586354 0.113623
0.874297 0.586999 0.113488
0.877225 0.584840 0.113234
0.880143 0.582660 0.112977
0.889505 0.586490 0.112963
0.900319 0.591539 0.112993
0.911800 0.597051 0.113036
0.915823 0.595634 0.112799
0.921674 0.595839 0.112624
0.925772 0.594430 0.112386
0.936793 0.599108 0.112381
0.939050 0.595995 0.112074
0.944757 0.595885 0.111883
0.952577 0.597549 0.111759
0.943674 0.584948 0.111105
0.947635 0.583371 0.110865
0.944227 0.575657 0.110405
0.956832 0.581276 0.110432
0.958950 0.578199 0.110149
0.964888 0.578256 0.109981
0.965097 0.573705 0.109656
0.967249 0.570776 0.109394
0.974995 0.572305 0.109293
0.979232 0.571071 0.109102
0.989556 0.574576 0.109079
1.023685 0.591696 0.109386
0.272017 0.599946 0.117685
0.274589 0.596746 0.117518
0.276682 0.598083 0.117576
0.278612 0.601427 0.117735
0.280527 0.605539 0.117937
0.282669 0.607964 0.118062
0.285572 0.602524 0.117811
0.288031 0.601997 0.117801
0.290117 0.606299 0.118029
0.292315 0.609956 0.118230
0.294973 0.607961 0.118160
0.297791 0.603586 0.117977
0.300408 0.602022 0.117933
0.302679 0.606414 0.118181
0.305070 0.609556 0.118371
0.307409 0.614601 0.118655
0.309754 0.620801 0.118998
0.313071 0.603669 0.118200
0.315667 0.603062 0.118212
0.318251 0.602814 0.118241
0.320805 0.603790 0.118331
0.323394 0.603505 0.118359
0.325990 0.602635 0.118357
0.328589 0.600686 0.118303
0.331207 0.591120 0.117870
0.333726 0.599013 0.118301
0.336316 0.606226 0.118699
0.338930 0.608841 0.118868
0.341537 0.609328 0.118931
0.344137 0.609413 0.118973
0.346694 0.607736 0.118926
0.349281 0.607819 0.118965
0.351877 0.608231 0.119020
0.354497 0.609273 0.119105
0.357085 0.609410 0.119144
0.359657 0.609250 0.119166
0.362275 0.610047 0.119235
0.364895 0.610812 0.119301
0.367403 0.609694 0.119271
0.370020 0.610407 0.119332
0.372604 0.610607 0.119365
0.375048 0.608974 0.119305
0.377553 0.608295 0.119291
0.380033 0.607437 0.119267
0.383010 0.612191 0.119525
0.385448 0.610813 0.119472
0.387454 0.605229 0.119204
0.390282 0.608039 0.119360
0.392856 0.608287 0.119385
0.395307 0.607425 0.119352
0.397682 0.605995 0.119289
0.400421 0.607626 0.119380
0.403180 0.609296 0.119472
0.405624 0.608452 0.119435
0.408455 0.610487 0.119543
0.410881 0.609521 0.119497
0.413171 0.607674 0.119405
0.415802 0.608186 0.119432
0.418319 0.607920 0.119418
0.420956 0.608400 0.119442
0.422996 0.605230 0.119278
0.426915 0.613252 0.119682
0.430376 0.618201 0.119929
0.433360 0.620214 0.120026
0.436251 0.621602 0.120089
0.435943 0.606010 0.119289
0.438296 0.604867 0.119223
0.440784 0.604429 0.119191
0.443359 0.604423 0.119180
0.445994 0.604674 0.119181
0.448457 0.604086 0.119139
0.450823 0.603054 0.119074
0.451292 0.593540 0.118577
0.456313 0.604376 0.119111
0.460061 0.609262 0.119343
0.462893 0.610070 0.119367
0.465417 0.609549 0.119323
0.467228 0.606140 0.119133
0.470257 0.607662 0.119191
0.473563 0.610176 0.119298
0.476231 0.610134 0.119275
0.478340 0.607974 0.119145
0.481265 0.608863 0.119168
0.484319 0.610158 0.119211
0.486567 0.608523 0.119105
0.489510 0.609336 0.119122
0.492172 0.609129 0.119088
0.494759 0.608650 0.119039
0.497854 0.609838 0.119072
0.501086 0.611404 0.119124
0.503833 0.611341 0.119094
0.506080 0.609673 0.118984
0.508378 0.608188 0.118882
0.509284 0.602476 0.118569
0.515892 0.614038 0.119115
0.518084 0.612158 0.118992
0.520586 0.611209 0.118915
0.523491 0.611414 0.118895
0.526160 0.610918 0.118839
0.528105 0.608392 0.118683
0.530335 0.606695 0.118567
0.532440 0.604677 0.118435
0.535716 0.605812 0.118459
0.537332 0.602522 0.118264
0.540513 0.603354 0.118271
0.544286 0.605652 0.118350
0.548231 0.608294 0.118445
0.552100 0.610649 0.118526
0.557401 0.616429 0.118773
0.557906 0.610403 0.118442
0.558406 0.604495 0.118117
0.560756 0.603081 0.118012
0.564082 0.603951 0.118018
0.567084 0.604026 0.117984
0.569106 0.601846 0.117840
0.570788 0.598928 0.117661
0.573023 0.597283 0.117543
0.580126 0.606308 0.117940
0.583974 0.608049 0.117984
0.586423 0.606730 0.117880
0.588852 0.605375 0.117774
0.591597 0.604684 0.117700
0.594844 0.605016 0.117674
0.598590 0.606331 0.117695
0.601240 0.605383 0.117607
0.604771 0.606181 0.117602
0.607527 0.605411 0.117521
0.610954 0.605936 0.117502
0.613088 0.603935 0.117362
0.616007 0.603446 0.117293
0.619459 0.603943 0.117271
0.621761 0.602264 0.117145
0.624354 0.601128 0.117044
0.629474 0.604587 0.117159
0.633525 0.606019 0.117177
0.636365 0.605238 0.117091
0.638203 0.602686 0.116921
0.640271 0.600559 0.116771
0.644394 0.601991 0.116786
0.649085 0.604331 0.116843
0.650471 0.601023 0.116636
0.651889 0.597809 0.116433
0.655688 0.598564 0.116413
0.661126 0.601954 0.116514
0.666816 0.605653 0.116626
0.672683 0.609530 0.116745
0.677592 0.611782 0.116788
0.679534 0.609305 0.116614
0.677833 0.601194 0.116183
0.679971 0.599114 0.116027
0.683582 0.599286 0.115971
0.686002 0.597631 0.115832
0.687880 0.595170 0.115656
0.690563 0.593916 0.115533
0.696654 0.597638 0.115631
0.700360 0.597803 0.115569
0.702709 0.595987 0.115417
0.704458 0.593323 0.115227
0.716125 0.604621 0.115652
0.716436 0.599857 0.115366
0.716300 0.594535 0.115055
0.721986 0.597230 0.115094
0.723718 0.594492 0.114894
0.725285 0.591551 0.114684
0.728770 0.591176 0.114584
0.736806 0.596753 0.114739
0.743956 0.601033 0.114835
0.746339 0.599050 0.114659
0.746885 0.594721 0.114382
0.750723 0.594599 0.114283
0.761296 0.602881 0.114536
0.761378 0.597945 0.114229
0.762888 0.594817 0.113996
0.764653 0.592017 0.113776
0.764798 0.587275 0.113475
0.769647 0.588202 0.113406
0.776592 0.591553 0.113434
0.786242 0.597972 0.113584
0.795583 0.603868 0.113706
0.796829 0.600288 0.113440
0.797600 0.596188 0.113153
0.803111 0.597473 0.113079
0.805234 0.594895 0.112848
0.807675 0.592670 0.112630
0.814184 0.594908 0.112584
0.819512 0.595770 0.112480
0.818975 0.590242 0.112126
0.818784 0.585138 0.111788
0.825063 0.586924 0.111712
0.831455 0.588743 0.111633
0.835263 0.587795 0.111445
0.840643 0.588429 0.111314
0.842992 0.585911 0.111062
0.846983 0.585044 0.110870
0.846079 0.579247 0.110495
0.861672 0.589841 0.110710
0.864899 0.588053 0.110474
0.858813 0.577198 0.109916
0.866964 0.580193 0.109846
0.872626 0.580708 0.109685
0.878202 0.581078 0.109516
0.885397 0.582903 0.109393
0.897998 0.589646 0.109431
0.910750 0.596349 0.109460
0.917439 0.597366 0.109295
0.921811 0.596229 0.109058
0.926264 0.595138 0.108821
0.936197 0.598857 0.108737
0.942251 0.599070 0.108538
0.943252 0.594864 0.108203
0.946661 0.592763 0.107935
0.952354 0.592607 0.107728
0.945691 0.582026 0.107212
0.956484 0.586165 0.107138
0.961116 0.585116 0.106912
0.963196 0.581980 0.106631
0.960836 0.575289 0.106255
0.962280 0.571766 0.105977
0.970673 0.573829 0.105859
0.966607 0.566033 0.105478
0.966032 0.561108 0.105185
0.966103 0.556779 0.104918
0.980376 0.563438 0.104949
0.988927 0.565648 0.104869
0.273963 0.583768 0.114598
0.274914 0.594400 0.115049
0.276823 0.597294 0.115165
0.279008 0.598088 0.115194
0.280981 0.601413 0.115339
0.283054 0.604309 0.115471
0.285581 0.602791 0.115413
0.287981 0.602899 0.115431
0.290592 0.600732 0.115353
0.292949 0.601906 0.115426
0.295273 0.603988 0.115542
0.297842 0.602964 0.115524
0.300370 0.602722 0.115544
0.302937 0.601996 0.115544
0.305106 0.608851 0.115882
0.307354 0.615654 0.116221
0.309728 0.621247 0.116508
0.313036 0.604328 0.115796
0.315668 0.602700 0.115764
0.318273 0.601572 0.115754
0.320824 0.602374 0.115830
0.323359 0.604444 0.115964
0.325959 0.603530 0.115964
0.328582 0.599428 0.115821
0.331199 0.588769 0.115381
0.333702 0.604502 0.116129
0.336291 0.605777 0.116226
0.338886 0.606616 0.116302
0.341497 0.608258 0.116414
0.344068 0.607029 0.116395
0.346623 0.605800 0.116375
0.349186 0.605369 0.116389
0.351851 0.608212 0.116552
0.354456 0.608865 0.116614
0.356969 0.607310 0.116573
0.359018 0.596339 0.116101
0.362099 0.607198 0.116625
0.364675 0.607429 0.116661
0.367153 0.606079 0.116624
0.369806 0.607598 0.116717
0.372372 0.607739 0.116746
0.374675 0.604423 0.116613
0.377012 0.601941 0.116518
0.379999 0.607358 0.116785
0.382617 0.608142 0.116837
0.385115 0.607594 0.116826
0.387466 0.605632 0.116749
0.389791 0.603600 0.116666
0.392568 0.605900 0.116783
0.394941 0.604461 0.116725
0.397401 0.603863 0.116705
0.400695 0.610092 0.116999
0.403142 0.609228 0.116964
0.405438 0.607277 0.116877
0.407915 0.606770 0.116855
0.410682 0.608336 0.116929
0.413235 0.608324 0.116928
0.416220 0.611152 0.117057
0.418443 0.608917 0.116950
0.420385 0.605051 0.116768
0.422895 0.604821 0.116752
0.425644 0.605985 0.116799
0.429696 0.614515 0.117185
0.433451 0.620917 0.117472
0.436166 0.621339 0.117481
0.436078 0.606910 0.116805
0.438219 0.604655 0.116689
0.440681 0.604098 0.116650
0.443457 0.605088 0.116682
0.446015 0.604958 0.116661
0.448427 0.604130 0.116607
0.450151 0.600158 0.116408
0.451077 0.592754 0.116050
0.456510 0.605423 0.116614
0.460108 0.609650 0.116788
0.463054 0.610936 0.116827
0.464462 0.605796 0.116570
0.467113 0.605859 0.116551
0.470381 0.608341 0.116641
0.473145 0.608739 0.116636
0.476208 0.610234 0.116680
0.478340 0.608162 0.116560
0.481237 0.608950 0.116570
0.483825 0.608565 0.116526
0.486189 0.607372 0.116444
0.489274 0.608703 0.116477
0.492087 0.609033 0.116463
0.494487 0.607926 0.116383
0.497393 0.608506 0.116379
0.500501 0.609698 0.116403
0.503183 0.609457 0.116360
0.505060 0.606659 0.116203
0.507288 0.605010 0.116096
0.510649 0.606841 0.116146
0.513263 0.606342 0.116090
0.515313 0.604164 0.115958
0.520383 0.610824 0.116222
0.523030 0.610300 0.116163
0.525340 0.608810 0.116061
0.527518 0.606967 0.115942
0.529492 0.604588 0.115800
0.532842 0.605975 0.115824
0.534964 0.604018 0.115700
0.538110 0.604783 0.115696
0.540236 0.602850 0.115572
0.545760 0.609644 0.115833
0.548032 0.608011 0.115721
0.551679 0.609823 0.115761
0.558258 0.618763 0.116112
0.561061 0.618280 0.116049
0.557898 0.603503 0.115360
0.560636 0.603020 0.115298
0.563426 0.602647 0.115239
0.566751 0.603486 0.115233
0.569451 0.602858 0.115162
0.570741 0.599052 0.114954
0.572938 0.597324 0.114835
0.578992 0.604060 0.115082
0.583839 0.607994 0.115206
0.586142 0.606368 0.115090
0.589501 0.606984 0.115070
0.592339 0.606470 0.115001
0.595830 0.607291 0.114988
0.599003 0.607414 0.114945
0.601874 0.606901 0.114875
0.604132 0.605153 0.114751
0.607051 0.604719 0.114683
0.609345 0.603052 0.114562
0.611255 0.600657 0.114410
0.614521 0.600868 0.114367
0.617952 0.601357 0.114336
0.621216 0.601499 0.114289
0.623810 0.600378 0.114189
0.627158 0.600626 0.114145
0.633135 0.605570 0.114296
0.635375 0.603731 0.114163
0.638178 0.602896 0.114072
0.641233 0.602488 0.113997
0.642631 0.599209 0.113804
0.643871 0.595699 0.113601
0.646801 0.595087 0.113516
0.650040 0.594976 0.113451
0.654975 0.597642 0.113499
0.660405 0.601033 0.113574
0.665412 0.603641 0.113615
0.672353 0.609263 0.113776
0.677530 0.611948 0.113817
0.678895 0.608566 0.113612
0.677444 0.600849 0.113234
0.680631 0.600387 0.113146
0.683370 0.599222 0.113029
0.686006 0.597895 0.112904
0.687672 0.595118 0.112721
0.690809 0.594537 0.112624
0.696584 0.597794 0.112675
0.702057 0.600520 0.112704
0.707421 0.603005 0.112720
0.714474 0.607806 0.112824
0.714163 0.602124 0.112521
0.716010 0.599524 0.112336
0.717904 0.597004 0.112154
0.719836 0.594553 0.111973
0.725569 0.597255 0.111986
0.725965 0.592719 0.111723
0.729289 0.592121 0.111608
0.735563 0.595376 0.111635
0.741814 0.598503 0.111653
0.743676 0.595874 0.111456
0.745883 0.593696 0.111274
0.748436 0.591960 0.111107
0.754036 0.594039 0.111077
0.758764 0.594955 0.111001
0.762681 0.594817 0.110885
0.763156 0.590446 0.110615
0.764645 0.587340 0.110389
0.768825 0.587469 0.110276
0.777215 0.592542 0.110333
0.787819 0.600077 0.110471
0.794505 0.602870 0.110439
0.794187 0.597499 0.110122
0.797093 0.595860 0.109932
0.801551 0.595961 0.109798
0.805472 0.595412 0.109639
0.807736 0.592987 0.109415
0.813146 0.594015 0.109303
0.819363 0.595855 0.109213
0.822497 0.594286 0.109008
0.825610 0.592674 0.108800
0.830307 0.592717 0.108641
0.833731 0.591373 0.108435
0.837761 0.590632 0.108245
0.840720 0.588750 0.108017
0.845681 0.588892 0.107849
0.844904 0.583185 0.107500
0.847567 0.580973 0.107255
0.848892 0.577424 0.106969
0.853623 0.577231 0.106780
0.861517 0.580063 0.106675
0.864920 0.578465 0.106439
0.874217 0.582466 0.106357
0.880666 0.583647 0.106191
0.886721 0.584385 0.106009
0.900527 0.592239 0.106015
0.910370 0.596255 0.105911
0.914822 0.595245 0.105669
0.921868 0.596540 0.105486
0.926813 0.595888 0.105251
0.934174 0.597338 0.105067
0.942803 0.599825 0.104906
0.943387 0.595255 0.104573
0.947783 0.594003 0.104323
0.955326 0.595416 0.104135
0.952293 0.587868 0.103744
0.956004 0.586058 0.103489
0.963347 0.587259 0.103304
0.957828 0.577893 0.102894
0.956572 0.572143 0.102572
0.962866 0.572554 0.102386
0.961167 0.566590 0.102076
0.949203 0.552637 0.101616
0.969362 0.564050 0.101670
0.980577 0.568341 0.101587
0.987912 0.569589 0.101451
1.031795 0.598663 0.101842
0.274356 0.580960 0.112185
0.274813 0.595861 0.112753
0.276732 0.598662 0.112848
0.279139 0.597293 0.112785
0.281339 0.598234 0.112818
0.283758 0.597268 0.112781
0.285667 0.602186 0.112981
0.287961 0.603443 0.113041
0.290592 0.600990 0.112959
0.293191 0.598956 0.112897
0.295735 0.597708 0.112870
0.298121 0.598919 0.112943
0.300410 0.602117 0.113098
0.302937 0.601975 0.113123
0.305573 0.599978 0.113077
0.307425 0.614019 0.113671
0.309764 0.620162 0.113953
0.313057 0.603450 0.113325
0.315640 0.603068 0.113349
0.318239 0.602159 0.113352
0.320830 0.601336 0.113359
0.323381 0.602250 0.113436
0.325974 0.600970 0.113424
0.328562 0.599101 0.113388
0.331146 0.594329 0.113235
0.333680 0.596116 0.113346
0.336254 0.603319 0.113676
0.338846 0.605291 0.113793
0.341426 0.605151 0.113824
0.344010 0.605455 0.113872
0.346567 0.604646 0.113874
0.349168 0.605757 0.113953
0.351780 0.606977 0.114035
0.354404 0.608297 0.114120
0.356961 0.607813 0.114129
0.359217 0.601153 0.113883
0.362038 0.606597 0.114133
0.364526 0.605337 0.114106
0.367040 0.604736 0.114105
0.369650 0.605716 0.114167
0.372156 0.605126 0.114163
0.374560 0.603301 0.114107
0.376973 0.601823 0.114062
0.379325 0.599817 0.113995
0.382242 0.604322 0.114196
0.384790 0.604484 0.114215
0.387081 0.602066 0.114126
0.389700 0.603026 0.114175
0.392263 0.603382 0.114198
0.394743 0.602991 0.114189
0.397539 0.605296 0.114290
0.400677 0.610204 0.114498
0.403167 0.609672 0.114478
0.405347 0.606832 0.114361
0.407713 0.605539 0.114307
0.410296 0.605844 0.114318
0.413307 0.609039 0.114448
0.415778 0.608458 0.114419
0.418285 0.608123 0.114400
0.420475 0.605822 0.114297
0.422921 0.605187 0.114263
0.426085 0.608781 0.114403
0.429288 0.612388 0.114542
0.433354 0.620584 0.114870
0.436067 0.621005 0.114874
0.435739 0.605319 0.114210
0.438244 0.604981 0.114181
0.440648 0.604124 0.114129
0.443195 0.603990 0.114107
0.445873 0.604468 0.114108
0.448326 0.603847 0.114063
0.450717 0.602942 0.114006
0.451050 0.592821 0.113568
0.456334 0.604839 0.114041
0.459814 0.608578 0.114171
0.462976 0.610796 0.114238
0.465259 0.609272 0.114151
0.467394 0.607186 0.114039
0.470447 0.608793 0.114078
0.474270 0.613306 0.114235
0.476828 0.612795 0.114185
0.480186 0.615268 0.114257
0.482240 0.612832 0.114127
0.483821 0.608744 0.113930
0.486665 0.609254 0.113919
0.488759 0.607103 0.113800
0.491893 0.608560 0.113826
0.494365 0.607713 0.113758
0.497579 0.609321 0.113788
0.500280 0.609177 0.113747
0.502313 0.606870 0.113619
0.503365 0.601514 0.113368
0.505620 0.600033 0.113272
0.509558 0.603711 0.113382
0.511932 0.602545 0.113297
0.514165 0.600967 0.113196
0.519294 0.607856 0.113431
0.521779 0.606914 0.113354
0.524214 0.605832 0.113271
0.526751 0.605039 0.113198
0.529277 0.604206 0.113124
0.532194 0.604432 0.113091
0.536951 0.609537 0.113250
0.538650 0.606418 0.113084
0.543146 0.610623 0.113205
0.546597 0.612006 0.113214
0.549146 0.611045 0.113132
0.551712 0.610125 0.113050
0.558863 0.620476 0.113406
0.560510 0.617173 0.113231
0.557614 0.603045 0.112637
0.560580 0.603113 0.112592
0.563695 0.603499 0.112559
0.566659 0.603504 0.112511
0.569240 0.602607 0.112428
0.572287 0.602753 0.112385
0.571924 0.595305 0.112051
0.577590 0.601221 0.112227
0.581856 0.603939 0.112279
0.586106 0.606528 0.112326
0.589647 0.607530 0.112311
0.593079 0.608254 0.112286
0.595872 0.607618 0.112208
0.598681 0.607001 0.112131
0.601263 0.605913 0.112035
0.604084 0.605301 0.111957
0.605515 0.601940 0.111776
0.608048 0.600773 0.111677
0.609851 0.598201 0.111525
0.613433 0.599043 0.111499
0.617259 0.600301 0.111487
0.620484 0.600384 0.111431
0.623834 0.600670 0.111382
0.628068 0.602531 0.111389
0.631897 0.603595 0.111366
0.635093 0.603481 0.111299
0.638556 0.603813 0.111248
0.641394 0.603022 0.111155
0.642638 0.599471 0.110963
0.643414 0.595171 0.110744
0.645798 0.593646 0.110623
0.649729 0.594708 0.110594
0.657641 0.602301 0.110793
0.661538 0.603141 0.110753
0.665158 0.603487 0.110693
0.671261 0.607775 0.110770
0.677581 0.612290 0.110852
0.680072 0.610673 0.110720
0.676748 0.600024 0.110275
0.680390 0.600274 0.110206
0.683587 0.599809 0.110112
0.685989 0.598127 0.109974
0.688735 0.596960 0.109854
0.691223 0.595404 0.109718
0.690130 0.588607 0.109406
0.702803 0.601859 0.109764
0.710783 0.608087 0.109883
0.712619 0.605431 0.109704
0.711908 0.599209 0.109407
0.714737 0.598007 0.109274
0.716142 0.594829 0.109076
0.718377 0.592812 0.108915
0.725037 0.596791 0.108945
0.728427 0.596273 0.108827
0.731708 0.595586 0.108703
0.734724 0.594527 0.108565
0.739546 0.595804 0.108498
0.743295 0.595635 0.108383
0.746984 0.595355 0.108263
0.748165 0.591867 0.108042
0.751527 0.591142 0.107904
0.757967 0.594216 0.107878
0.763214 0.595723 0.107802
0.766501 0.594772 0.107649
0.767872 0.591483 0.107424
0.772412 0.592007 0.107310
0.778825 0.594697 0.107256
0.786916 0.599266 0.107252
0.793529 0.601985 0.107189
0.796420 0.600319 0.106997
0.797171 0.596195 0.106735
0.800586 0.595114 0.106555
0.805421 0.595598 0.106416
0.809047 0.594683 0.106235
0.813428 0.594567 0.106072
0.817945 0.594553 0.105909
0.826442 0.598784 0.105853
0.828021 0.595490 0.105596
0.831235 0.593939 0.105382
0.834106 0.592004 0.105156
0.836713 0.589780 0.104919
0.841044 0.589320 0.104724
0.844724 0.588152 0.104508
0.848656 0.587207 0.104295
0.849120 0.582758 0.103996
0.849124 0.577883 0.103687
0.856042 0.579836 0.103532
0.861355 0.580137 0.103336
0.870718 0.584281 0.103220
0.875045 0.583490 0.102991
0.882094 0.585232 0.102813
0.887577 0.585424 0.102599
0.899036 0.591100 0.102491
0.912997 0.598914 0.102419
0.915430 0.596046 0.102130
0.919799 0.594928 0.101875
0.924333 0.593932 0.101622
0.934986 0.598314 0.101465
0.943765 0.600932 0.101271
0.944836 0.596778 0.100960
0.949003 0.595323 0.100696
0.954238 0.594770 0.100450
0.944711 0.581763 0.100010
0.945522 0.577599 0.099718
0.951575 0.577824 0.099497
0.945131 0.567794 0.099132
0.949833 0.566978 0.098909
0.956806 0.567996 0.098716
0.941528 0.551266 0.098294
0.951099 0.554453 0.098146
0.986191 0.577553 0.098249
0.983981 0.571332 0.097990
0.988974 0.570771 0.097810
1.016009 0.587033 0.097831
0.271580 0.605518 0.110758
0.274600 0.598324 0.110481
0.276524 0.601112 0.110560
0.278697 0.602044 0.110579
0.281681 0.595201 0.110332
0.284088 0.594154 0.110294
0.285906 0.599873 0.110496
0.288099 0.602112 0.110582
0.290709 0.599774 0.110512
0.293364 0.596863 0.110426
0.295790 0.597066 0.110453
0.298155 0.598470 0.110526
0.300446 0.601544 0.110660
0.303005 0.600735 0.110661
0.305531 0.600634 0.110689
0.307324 0.615875 0.111260
0.309720 0.620843 0.111471
0.313045 0.603334 0.110889
0.315619 0.603111 0.110919
0.318205 0.602568 0.110939
0.320780 0.602416 0.110972
0.323356 0.602259 0.111006
0.325947 0.601065 0.111003
0.328535 0.599003 0.110968
0.331120 0.593887 0.110823
0.333650 0.597945 0.111006
0.336215 0.601407 0.111168
0.338793 0.602905 0.111259
0.341374 0.603708 0.111324
0.343962 0.604610 0.111391
0.346565 0.605928 0.111472
0.349113 0.604957 0.111469
0.351701 0.605596 0.111524
0.354315 0.606813 0.111598
0.356854 0.606094 0.111600
0.359511 0.608056 0.111698
0.361984 0.606214 0.111656
0.364486 0.605234 0.111644
0.366947 0.603769 0.111612
0.369577 0.605118 0.111682
0.372262 0.607093 0.111774
0.374692 0.605485 0.111732
0.376922 0.601608 0.111605
0.379383 0.600894 0.111593
0.381932 0.601246 0.111618
0.384571 0.602524 0.111676
0.386966 0.601251 0.111638
0.389238 0.598907 0.111559
0.392166 0.602807 0.111710
0.394598 0.602012 0.111685
0.397166 0.602431 0.111704
0.400556 0.609497 0.111967
0.402407 0.603989 0.111763
0.404891 0.603650 0.111749
0.407541 0.604535 0.111779
0.410179 0.605263 0.111802
0.412867 0.606279 0.111834
0.415432 0.606406 0.111832
0.417775 0.605086 0.111775
0.420805 0.608104 0.111877
0.423366 0.608097 0.111866
0.426062 0.608864 0.111882
0.429491 0.613767 0.112049
0.433490 0.621558 0.112321
0.436165 0.621750 0.112311
0.435594 0.604757 0.111669
0.438118 0.604530 0.111643
0.440643 0.604298 0.111615
0.443157 0.604002 0.111584
0.445698 0.603827 0.111556
0.448133 0.603138 0.111508
0.450506 0.602168 0.111449
0.450931 0.592477 0.111071
0.454965 0.599018 0.111284
0.459289 0.606516 0.111530
0.462755 0.610060 0.111631
0.465593 0.610847 0.111631
0.467904 0.609442 0.111550
0.470830 0.610505 0.111558
0.474051 0.612650 0.111604
0.477307 0.614818 0.111649
0.479952 0.614591 0.111607
0.483515 0.617718 0.111685
0.485884 0.616393 0.111602
0.484975 0.603452 0.111103
0.488462 0.606265 0.111167
0.490890 0.605323 0.111097
0.493888 0.606305 0.111094
0.497223 0.608342 0.111128
0.500231 0.609217 0.111119
0.501581 0.604724 0.110920
0.502779 0.599865 0.110708
0.505542 0.599990 0.110672
0.509028 0.602295 0.110711
0.512537 0.604568 0.110749
0.514104 0.600990 0.110580
0.517932 0.604090 0.110645
0.521273 0.605669 0.110655
0.523918 0.605203 0.110594
0.528567 0.610313 0.110725
0.530928 0.608958 0.110632
0.532015 0.604159 0.110419
0.537482 0.611172 0.110613
0.540129 0.610530 0.110543
0.542408 0.608924 0.110439
0.545949 0.610567 0.110445
0.549474 0.612097 0.110447
0.553442 0.614661 0.110483
0.558216 0.619114 0.110582
0.560747 0.617974 0.110491
0.557849 0.603832 0.109962
