ply
format ascii 1.0
comment ---
element vertex 1771
property float x
property float y
property float z
element face 0
property list uchar uint vertex_indices
end_header
0.087735 0.608299 0.143944
0.090763 0.611771 0.144303
0.093721 0.613359 0.144530
0.096552 0.612624 0.144592
0.099400 0.612200 0.144676
0.102347 0.613182 0.144859
0.105198 0.612770 0.144943
0.108149 0.613630 0.145117
0.110970 0.612884 0.145173
0.113780 0.612108 0.145226
0.116595 0.611456 0.145286
0.119714 0.613887 0.145569
0.122587 0.613778 0.145665
0.125719 0.616020 0.145932
0.127731 0.608413 0.145474
0.130577 0.608344 0.145566
0.133527 0.609112 0.145717
0.136555 0.610425 0.145908
0.139289 0.609479 0.145928
0.142161 0.609594 0.146025
0.144974 0.609292 0.146089
0.147947 0.610084 0.146231
0.150767 0.609835 0.146294
0.154200 0.613448 0.146644
0.157168 0.614016 0.146763
0.159748 0.612245 0.146705
0.163125 0.615160 0.146997
0.165671 0.613252 0.146923
0.168487 0.612916 0.146966
0.171168 0.611864 0.146952
0.174340 0.613400 0.147131
0.177063 0.612577 0.147130
0.180203 0.613844 0.147285
0.183256 0.614618 0.147400
0.186509 0.616280 0.147581
0.188886 0.613816 0.147446
0.190230 0.606790 0.146961
0.193190 0.607170 0.147038
0.196142 0.607484 0.147108
0.198865 0.606797 0.147099
0.201807 0.607019 0.147158
0.204507 0.606235 0.147138
0.206576 0.602945 0.146924
0.211328 0.610233 0.147519
0.214981 0.613014 0.147767
0.217554 0.611605 0.147692
0.220027 0.609855 0.147590
0.222158 0.606903 0.147392
0.225356 0.607830 0.147492
0.229969 0.613649 0.147966
0.233177 0.614408 0.148050
0.235678 0.612727 0.147944
0.239143 0.614275 0.148086
0.242925 0.616782 0.148300
0.245243 0.614471 0.148141
0.247323 0.611455 0.147926
0.250485 0.611871 0.147975
0.254212 0.613976 0.148153
0.257482 0.614610 0.148216
0.260424 0.614219 0.148199
0.263277 0.613550 0.148159
0.265359 0.610646 0.147944
0.268292 0.610216 0.147920
0.271780 0.611320 0.148014
0.275002 0.611628 0.148045
0.276484 0.607166 0.147705
0.279207 0.606127 0.147630
0.282456 0.606473 0.147661
0.287100 0.610419 0.147969
0.290255 0.610395 0.147969
0.293025 0.609366 0.147891
0.298074 0.614034 0.148252
0.301689 0.615008 0.148327
0.304712 0.614480 0.148284
0.307558 0.613510 0.148207
0.310304 0.612295 0.148109
0.310132 0.604241 0.147481
0.313265 0.604007 0.147458
0.316571 0.604141 0.147463
0.319646 0.603722 0.147424
0.322553 0.602907 0.147354
0.325655 0.602508 0.147315
0.329373 0.603429 0.147377
0.336367 0.611328 0.147978
0.341109 0.614231 0.148192
0.337784 0.600123 0.147091
0.347190 0.612685 0.148050
0.348931 0.609232 0.147770
0.349988 0.604444 0.147387
0.352407 0.602459 0.147220
0.357065 0.604912 0.147394
0.361249 0.606352 0.147490
0.365922 0.608673 0.147653
0.368913 0.607697 0.147561
0.373566 0.609851 0.147709
0.377036 0.609715 0.147680
0.381027 0.610513 0.147722
0.383830 0.609090 0.147592
0.387264 0.608807 0.147550
0.390619 0.608360 0.147494
0.392554 0.605378 0.147242
0.396825 0.606512 0.147306
0.401335 0.608005 0.147396
0.405798 0.609354 0.147475
0.410426 0.610921 0.147569
0.413957 0.610584 0.147516
0.417981 0.611040 0.147523
0.419971 0.608116 0.147270
0.422737 0.606480 0.147115
0.427335 0.607790 0.147184
0.428888 0.604197 0.146877
0.431814 0.602805 0.146738
0.435237 0.602184 0.146657
0.438478 0.601262 0.146551
0.442490 0.601503 0.146533
0.447028 0.602500 0.146572
0.452938 0.605498 0.146761
0.458183 0.607418 0.146866
0.461576 0.606549 0.146758
0.465100 0.605852 0.146662
0.472064 0.610083 0.146937
0.479118 0.614325 0.147211
0.476105 0.604249 0.146401
0.474410 0.596174 0.145741
0.476677 0.593700 0.145504
0.491618 0.608603 0.146574
0.497793 0.611289 0.146721
0.504849 0.615070 0.146948
0.505776 0.610586 0.146551
0.507945 0.607785 0.146280
0.511519 0.606836 0.146145
0.517420 0.608875 0.146232
0.524490 0.612336 0.146422
0.525046 0.607425 0.145985
0.529271 0.607179 0.145894
0.533735 0.607194 0.145820
0.534786 0.602959 0.145429
0.538943 0.602559 0.145319
0.547049 0.606906 0.145558
0.549022 0.603773 0.145241
0.551117 0.600801 0.144934
0.554967 0.599908 0.144777
0.559838 0.600179 0.144703
0.566398 0.602354 0.144765
0.571166 0.602391 0.144666
0.578129 0.604872 0.144742
0.582748 0.604628 0.144616
0.586939 0.603865 0.144449
0.591550 0.603531 0.144310
0.594666 0.601521 0.144046
0.598841 0.600646 0.143860
0.602156 0.598814 0.143603
0.606764 0.598341 0.143439
0.606844 0.593056 0.142929
0.610789 0.591851 0.142706
0.614157 0.590020 0.142435
0.620858 0.586264 0.141876
0.630037 0.590219 0.141998
0.645864 0.600668 0.142564
0.652639 0.601934 0.142484
0.655287 0.599082 0.142115
0.660300 0.598516 0.141898
0.665951 0.598513 0.141715
0.671036 0.597913 0.141487
0.676071 0.597216 0.141247
0.686270 0.601289 0.141322
0.690776 0.599961 0.141028
0.695441 0.598740 0.140737
0.702723 0.599852 0.140595
0.702068 0.593748 0.139972
0.707343 0.592973 0.139697
0.712656 0.592180 0.139416
0.716605 0.590147 0.139050
0.726327 0.593080 0.139000
0.733732 0.593908 0.138808
0.741108 0.594630 0.138603
0.746661 0.593743 0.138292
0.755273 0.595353 0.138134
0.761682 0.595052 0.137851
0.768064 0.594674 0.137560
0.775506 0.595096 0.137315
0.782085 0.594759 0.137021
0.788189 0.593994 0.136699
0.796591 0.594990 0.136482
0.803553 0.594794 0.136192
0.809405 0.593694 0.135849
0.816541 0.593545 0.135563
0.826631 0.595583 0.135405
0.832881 0.594669 0.135079
0.839390 0.593926 0.134766
0.847883 0.594617 0.134540
0.855675 0.594756 0.134289
0.867755 0.597953 0.134213
0.875200 0.597766 0.133957
0.882768 0.597654 0.133715
0.889555 0.596987 0.133453
0.895682 0.595870 0.133179
0.902940 0.595552 0.132961
0.912248 0.596639 0.132832
0.919395 0.596260 0.132640
0.924663 0.594648 0.132400
0.922309 0.588034 0.131914
0.030726 0.639611 0.141944
0.034471 0.608787 0.139951
0.036611 0.615167 0.140354
0.039060 0.615110 0.140355
0.041739 0.608608 0.139952
0.044032 0.616700 0.140495
0.046764 0.608893 0.140027
0.049263 0.613096 0.140338
0.051905 0.611326 0.140274
0.054515 0.615543 0.140603
0.057196 0.618179 0.140839
0.059920 0.614265 0.140659
0.062663 0.615581 0.140822
0.065466 0.619407 0.141155
0.068086 0.607411 0.140464
0.070848 0.607338 0.140552
0.073625 0.607314 0.140648
0.076393 0.606503 0.140695
0.079193 0.606482 0.140796
0.081979 0.605851 0.140860
0.084724 0.604217 0.140859
0.087615 0.605782 0.141071
0.090787 0.612249 0.141611
0.093670 0.612561 0.141743
0.096519 0.612200 0.141831
0.099425 0.612706 0.141977
0.102256 0.612073 0.142045
0.105271 0.613889 0.142278
0.108128 0.613549 0.142365
0.111032 0.613786 0.142490
0.113768 0.612163 0.142487
0.116671 0.612432 0.142611
0.119716 0.614090 0.142828
0.122640 0.614466 0.142956
0.124746 0.607435 0.142573
0.128241 0.613001 0.143054
0.130882 0.611046 0.143015
0.133859 0.611937 0.143170
0.136770 0.612252 0.143283
0.139567 0.611708 0.143334
0.142284 0.610638 0.143346
0.145282 0.611585 0.143496
0.148011 0.610666 0.143514
0.151314 0.613534 0.143793
0.153852 0.611416 0.143722
0.157027 0.613308 0.143929
0.160119 0.614591 0.144092
0.162728 0.613020 0.144051
0.165816 0.614214 0.144202
0.168382 0.612482 0.144145
0.171245 0.612413 0.144203
0.174185 0.612734 0.144285
0.177835 0.616622 0.144620
0.180371 0.614812 0.144547
0.183673 0.616766 0.144739
0.186635 0.617011 0.144808
0.189409 0.616363 0.144811
0.190307 0.607271 0.144209
0.193170 0.607218 0.144249
0.195892 0.606539 0.144243
0.198714 0.606293 0.144265
0.201474 0.605779 0.144266
0.203751 0.603302 0.144125
0.206426 0.602485 0.144100
0.211168 0.609747 0.144655
0.215061 0.613463 0.144953
0.218235 0.614308 0.145043
0.220407 0.611403 0.144861
0.223028 0.610203 0.144800
0.226939 0.613613 0.145070
0.230642 0.616151 0.145276
0.233665 0.616239 0.145303
0.236079 0.614234 0.145177
0.238856 0.613478 0.145140
0.241666 0.612826 0.145109
0.244580 0.612499 0.145100
0.247231 0.611325 0.145028
0.250699 0.612702 0.145139
0.254216 0.614159 0.145255
0.256618 0.612174 0.145120
0.259395 0.611334 0.145067
0.262705 0.612052 0.145125
0.265986 0.612631 0.145173
0.267902 0.609287 0.144934
0.272838 0.614466 0.145312
0.275312 0.612672 0.145184
0.277234 0.609397 0.144947
0.278692 0.604937 0.144623
0.283204 0.608647 0.144890
0.288347 0.613870 0.145266
0.290920 0.612309 0.145149
0.292544 0.608351 0.144857
0.296797 0.611048 0.145047
0.301921 0.615794 0.145384
0.306087 0.618050 0.145539
0.309379 0.618109 0.145535
0.311406 0.615133 0.145310
0.311052 0.606621 0.144683
0.313348 0.604425 0.144513
0.316527 0.604270 0.144490
0.319559 0.603758 0.144440
0.322501 0.603026 0.144373
0.325619 0.602670 0.144332
0.329098 0.603074 0.144346
0.336167 0.611148 0.144913
0.340141 0.612430 0.144988
0.345784 0.617148 0.145311
0.345401 0.609238 0.144721
0.349466 0.610588 0.144799
0.351981 0.608738 0.144645
0.354414 0.606738 0.144480
0.358724 0.608460 0.144582
0.362279 0.608638 0.144572
0.366093 0.609280 0.144594
0.369443 0.608989 0.144549
0.373583 0.610165 0.144608
0.378282 0.612329 0.144737
0.381666 0.611982 0.144685
0.383716 0.609174 0.144456
0.386873 0.608397 0.144372
0.390203 0.607912 0.144308
0.393676 0.607661 0.144259
0.396576 0.606379 0.144136
0.404005 0.612932 0.144572
0.407933 0.613317 0.144566
0.411043 0.612278 0.144457
0.414158 0.611235 0.144347
0.417488 0.610538 0.144261
0.421014 0.610146 0.144196
0.426204 0.612432 0.144320
0.430591 0.613348 0.144345
0.429334 0.605231 0.143728
0.431451 0.602559 0.143497
0.434938 0.602045 0.143417
0.438636 0.601835 0.143358
0.441897 0.600927 0.143249
0.446307 0.601743 0.143260
0.453315 0.606400 0.143540
0.459582 0.609832 0.143731
0.462935 0.608886 0.143613
0.466069 0.607603 0.143469
0.472663 0.611292 0.143673
0.478608 0.613949 0.143802
0.478562 0.608064 0.143332
0.478060 0.601620 0.142822
0.488758 0.610766 0.143398
0.493147 0.611053 0.143354
0.494919 0.607744 0.143058
0.500317 0.609339 0.143101
0.504165 0.608801 0.142993
0.505332 0.604699 0.142637
0.508227 0.602894 0.142438
0.514419 0.605354 0.142532
0.517892 0.604242 0.142376
0.522646 0.604740 0.142329
0.525180 0.602396 0.142085
0.534527 0.608547 0.142418
0.534140 0.602526 0.141918
0.536648 0.600116 0.141662
0.543914 0.603475 0.141796
0.548013 0.602928 0.141661
0.549878 0.599693 0.141342
0.554991 0.600301 0.141279
0.559247 0.599855 0.141142
0.564889 0.600976 0.141107
0.570987 0.602553 0.141098
0.574980 0.601668 0.140921
0.578644 0.600382 0.140714
0.583789 0.600723 0.140612
0.590269 0.602486 0.140599
0.593694 0.600825 0.140356
0.597867 0.599958 0.140162
0.602012 0.599026 0.139960
0.607757 0.599763 0.139863
0.612131 0.598991 0.139663
0.614945 0.596553 0.139351
0.617479 0.593816 0.139017
0.623396 0.594546 0.138901
0.629730 0.595632 0.138803
0.634057 0.594623 0.138566
0.641817 0.596999 0.138538
0.653190 0.602844 0.138721
0.655099 0.599262 0.138306
0.659767 0.598363 0.138055
0.666013 0.598937 0.137890
0.670980 0.598223 0.137641
0.676190 0.597691 0.137397
0.684289 0.599805 0.137307
0.688745 0.598448 0.137002
0.693937 0.597727 0.136730
0.697260 0.595261 0.136349
0.703169 0.595101 0.136101
0.709274 0.595055 0.135853
0.714576 0.594237 0.135555
0.720194 0.593647 0.135265
0.728488 0.595318 0.135100
0.734029 0.594533 0.134789
0.739516 0.593652 0.134467
0.747726 0.595013 0.134267
0.755316 0.595768 0.134028
0.763208 0.596695 0.133793
0.769572 0.596292 0.133481
0.773875 0.594170 0.133073
0.782470 0.595466 0.132847
0.788682 0.594789 0.132514
0.794618 0.593853 0.132165
0.802194 0.594156 0.131882
0.807962 0.593010 0.131523
0.816055 0.593612 0.131255
0.827778 0.596900 0.131124
0.832487 0.594835 0.130725
0.840417 0.595160 0.130451
0.849566 0.596340 0.130222
0.855685 0.595266 0.129890
0.862137 0.594428 0.129578
0.873526 0.597109 0.129441
0.879770 0.596090 0.129139
0.887118 0.595855 0.128884
0.895561 0.596379 0.128678
0.902585 0.595920 0.128439
0.909365 0.595310 0.128209
0.919107 0.596721 0.128086
0.924657 0.595320 0.127852
0.924706 0.590315 0.127477
0.032545 0.603375 0.137044
0.034883 0.602616 0.136976
0.037219 0.602846 0.136977
0.039605 0.602861 0.136975
0.042033 0.602770 0.136976
0.044512 0.602086 0.136952
0.047003 0.602340 0.136993
0.049492 0.604846 0.137177
0.052087 0.603151 0.137119
0.054684 0.603235 0.137175
0.057319 0.600347 0.137061
0.059965 0.605334 0.137426
0.062642 0.603713 0.137401
0.065334 0.602836 0.137426
0.068112 0.606855 0.137753
0.070877 0.607432 0.137877
0.073649 0.607408 0.137969
0.076433 0.607333 0.138061
0.079225 0.607128 0.138148
0.081993 0.606050 0.138185
0.084765 0.605126 0.138232
0.087530 0.604058 0.138272
0.090376 0.604581 0.138411
0.093299 0.606270 0.138624
0.096134 0.606229 0.138729
0.099136 0.608625 0.138987
0.101818 0.606232 0.138946
0.104707 0.606791 0.139088
0.107745 0.609099 0.139340
0.110718 0.610394 0.139528
0.113621 0.610791 0.139658
0.116374 0.609585 0.139684
0.119725 0.614407 0.140093
0.122288 0.611369 0.139999
0.125207 0.611812 0.140126
0.128312 0.613840 0.140352
0.131103 0.613101 0.140398
0.133783 0.611539 0.140389
0.136803 0.612713 0.140554
0.139500 0.611410 0.140556
0.142323 0.611114 0.140621
0.145231 0.611420 0.140723
0.148530 0.614329 0.140992
0.150728 0.609913 0.140780
0.153539 0.609625 0.140836
0.156514 0.610347 0.140955
0.159780 0.612754 0.141182
0.162483 0.611776 0.141185
0.165181 0.610815 0.141186
0.168470 0.613123 0.141400
0.171260 0.612652 0.141429
0.174476 0.614401 0.141602
0.177918 0.617201 0.141843
0.181081 0.618474 0.141980
0.183494 0.616055 0.141870
0.186522 0.616629 0.141956
0.189508 0.616968 0.142025
0.190306 0.607412 0.141430
0.192988 0.606563 0.141414
0.195702 0.605866 0.141406
0.198628 0.606072 0.141457
0.201574 0.606336 0.141509
0.204127 0.604973 0.141450
0.206616 0.603386 0.141374
0.210371 0.606784 0.141630
0.214602 0.611854 0.141998
0.217736 0.612586 0.142072
0.220332 0.611276 0.142007
0.222742 0.609317 0.141897
0.226894 0.613610 0.142205
0.231532 0.619424 0.142615
0.234107 0.617918 0.142530
0.235175 0.611339 0.142101
0.237746 0.609949 0.142020
0.240688 0.609791 0.142021
0.243783 0.610102 0.142051
0.247004 0.610773 0.142105
0.250955 0.613668 0.142307
0.253434 0.611932 0.142195
0.256066 0.610680 0.142115
0.257431 0.605671 0.141779
0.261643 0.609120 0.142013
0.266481 0.614243 0.142359
0.269225 0.613233 0.142289
0.270868 0.609139 0.142010
0.276918 0.617296 0.142557
0.279380 0.615428 0.142426
0.279711 0.607864 0.141909
0.284140 0.611321 0.142135
0.288096 0.613419 0.142268
0.290717 0.611992 0.142162
0.293668 0.611410 0.142112
0.294785 0.606221 0.141750
0.300071 0.611438 0.142089
0.305685 0.617288 0.142470
0.309190 0.617878 0.142495
0.311249 0.614985 0.142284
0.310180 0.604800 0.141581
0.313255 0.604438 0.141539
0.316058 0.603429 0.141453
0.319573 0.604023 0.141474
0.322533 0.603333 0.141407
0.325612 0.602892 0.141356
0.328581 0.602191 0.141287
0.335551 0.610074 0.141793
0.338478 0.609151 0.141707
0.340725 0.606794 0.141525
0.346766 0.612324 0.141869
0.349955 0.611852 0.141811
0.352895 0.610852 0.141717
0.356382 0.610940 0.141694
0.359868 0.610994 0.141668
0.362186 0.608729 0.141487
0.364435 0.606351 0.141298
0.367782 0.606092 0.141249
0.371149 0.605849 0.141200
0.374396 0.605352 0.141133
0.381493 0.611952 0.141538
0.381716 0.605810 0.141094
0.386512 0.608036 0.141206
0.389325 0.606637 0.141076
0.391316 0.603783 0.140848
0.395104 0.604103 0.140830
0.399317 0.605121 0.140858
0.404704 0.608095 0.141013
0.406751 0.605314 0.140787
0.409399 0.603568 0.140628
0.414129 0.605280 0.140697
0.417608 0.604870 0.140624
0.423153 0.607796 0.140769
0.426491 0.607077 0.140674
0.430806 0.607896 0.140678
0.430212 0.600930 0.140172
0.435071 0.602578 0.140228
0.438413 0.601817 0.140125
0.441888 0.601242 0.140033
0.445573 0.600963 0.139959
0.450604 0.602674 0.140013
0.455848 0.604632 0.140080
0.460506 0.605658 0.140086
0.462146 0.602239 0.139802
0.466338 0.602529 0.139757
0.471287 0.603858 0.139776
0.474832 0.603144 0.139663
0.477871 0.601701 0.139500
0.481333 0.600834 0.139374
0.484669 0.599778 0.139233
0.488516 0.599400 0.139133
0.492353 0.598978 0.139029
0.497339 0.600060 0.139018
0.501199 0.599598 0.138907
0.505946 0.600267 0.138864
0.510232 0.600289 0.138779
0.514701 0.600506 0.138703
0.518167 0.599407 0.138542
0.522320 0.599154 0.138431
0.526599 0.599023 0.138325
0.531399 0.599499 0.138255
0.536473 0.600260 0.138199
0.540529 0.599731 0.138059
0.546119 0.601014 0.138029
0.550188 0.600421 0.137879
0.555632 0.601418 0.137824
0.559214 0.600176 0.137628
0.563689 0.599948 0.137490
0.568697 0.600291 0.137384
0.573439 0.600279 0.137252
0.575837 0.597584 0.136955
0.581385 0.598404 0.136866
0.586700 0.598906 0.136753
0.593087 0.600522 0.136702
0.597310 0.599714 0.136503
0.601959 0.599328 0.136324
0.604981 0.597168 0.136037
0.611574 0.598764 0.135965
0.616800 0.598848 0.135800
0.622047 0.598902 0.135628
0.626403 0.597986 0.135396
0.630375 0.596643 0.135134
0.635338 0.596268 0.134923
0.644138 0.599672 0.134920
0.649890 0.599943 0.134734
0.654610 0.599141 0.134482
0.659404 0.598368 0.134226
0.665439 0.598743 0.134028
0.670914 0.598517 0.133792
0.675954 0.597824 0.133524
0.682030 0.598052 0.133300
0.688701 0.598764 0.133096
0.692745 0.596990 0.132754
0.698703 0.596926 0.132497
0.703938 0.596149 0.132197
0.708775 0.594967 0.131871
0.715035 0.595000 0.131602
0.720680 0.594430 0.131296
0.728161 0.595396 0.131063
0.732432 0.593526 0.130682
0.739799 0.594257 0.130426
0.747373 0.595085 0.130169
0.753506 0.594633 0.129845
0.763260 0.597115 0.129656
0.768819 0.596058 0.129294
0.773737 0.594443 0.128904
0.780293 0.594113 0.128572
0.789184 0.595586 0.128320
0.795923 0.595283 0.127986
0.802010 0.594426 0.127626
0.807529 0.593098 0.127247
0.821784 0.598418 0.127157
0.827257 0.596952 0.126774
0.832221 0.595092 0.126380
0.838595 0.594278 0.126035
0.850070 0.597196 0.125849
0.855756 0.595818 0.125493
0.862839 0.595450 0.125187
0.868227 0.593861 0.124841
0.875465 0.593598 0.124560
0.880897 0.592066 0.124241
0.895078 0.596636 0.124170
0.901684 0.595912 0.123909
0.908153 0.595117 0.123661
0.917650 0.596394 0.123507
0.925023 0.596244 0.123317
0.929177 0.593980 0.123068
0.032802 0.601400 0.134365
0.034993 0.603736 0.134463
0.037335 0.603648 0.134438
0.039691 0.604302 0.134464
0.042044 0.606630 0.134592
0.044556 0.604865 0.134504
0.047074 0.603822 0.134466
0.049596 0.604111 0.134510
0.052133 0.606157 0.134661
0.054731 0.606600 0.134731
0.057365 0.606034 0.134753
0.060021 0.606081 0.134817
0.062702 0.605947 0.134877
0.065405 0.605898 0.134948
0.068143 0.606839 0.135080
0.070908 0.607751 0.135216
0.073676 0.607735 0.135304
0.076458 0.607714 0.135396
0.079259 0.607882 0.135502
0.082048 0.607409 0.135575
0.084793 0.605798 0.135584
0.087570 0.604994 0.135642
0.090427 0.605712 0.135787
0.093239 0.605443 0.135877
0.096072 0.605479 0.135984
0.098977 0.606515 0.136150
0.101816 0.606463 0.136253
0.104511 0.604524 0.136245
0.107582 0.607394 0.136517
0.110263 0.605432 0.136505
0.113081 0.605163 0.136591
0.115963 0.605596 0.136717
0.118899 0.606519 0.136871
0.121626 0.605391 0.136901
0.124369 0.604513 0.136943
0.127010 0.602831 0.136936
0.129944 0.603724 0.137079
0.132847 0.604309 0.137203
0.135649 0.604074 0.137274
0.138361 0.603195 0.137305
0.141174 0.603107 0.137380
0.144194 0.604460 0.137541
0.147070 0.604760 0.137635
0.149765 0.603873 0.137655
0.152479 0.603156 0.137682
0.155377 0.603597 0.137778
0.158181 0.603462 0.137835
0.160989 0.603343 0.137891
0.163742 0.602918 0.137926
0.166631 0.603258 0.138005
0.169562 0.603786 0.138094
0.172513 0.604389 0.138184
0.175354 0.604388 0.138235
0.177854 0.602695 0.138180
0.180724 0.602849 0.138235
0.183782 0.603872 0.138343
0.187189 0.606441 0.138544
0.190191 0.607055 0.138621
0.192914 0.606394 0.138618
0.195647 0.605785 0.138615
0.199437 0.609653 0.138889
0.201782 0.607357 0.138777
0.204391 0.606202 0.138734
0.207007 0.605099 0.138691
0.209673 0.604210 0.138661
0.212658 0.604557 0.138705
0.215559 0.604552 0.138725
0.218447 0.604475 0.138739
0.221200 0.603885 0.138719
0.224449 0.605058 0.138808
0.227262 0.604641 0.138795
0.230233 0.604755 0.138814
0.233356 0.605349 0.138861
0.235640 0.603109 0.138729
0.238353 0.602321 0.138686
0.241472 0.602835 0.138723
0.244494 0.602997 0.138737
0.247150 0.601985 0.138675
0.250301 0.602497 0.138708
0.253149 0.602049 0.138679
0.256028 0.601677 0.138653
0.258929 0.601353 0.138629
0.262436 0.602758 0.138712
0.265522 0.602894 0.138714
0.268394 0.602397 0.138675
0.271623 0.602870 0.138695
0.274660 0.602777 0.138679
0.277627 0.602467 0.138648
0.280827 0.602756 0.138653
0.283772 0.602338 0.138613
0.286074 0.600249 0.138467
0.289423 0.600841 0.138488
0.292717 0.601251 0.138496
0.296341 0.602434 0.138552
0.299481 0.602374 0.138528
0.302623 0.602291 0.138503
0.306253 0.603339 0.138546
0.309871 0.604301 0.138584
0.312829 0.603679 0.138521
0.315880 0.603254 0.138470
0.319007 0.602979 0.138427
0.322504 0.603506 0.138433
0.325477 0.602834 0.138364
0.328299 0.601820 0.138273
0.331210 0.600991 0.138192
0.334104 0.600113 0.138107
0.337120 0.599482 0.138037
0.341504 0.601671 0.138140
0.343891 0.599686 0.137985
0.346909 0.598993 0.137908
0.350843 0.600120 0.137943
0.354133 0.599914 0.137894
0.357366 0.599572 0.137836
0.360524 0.599060 0.137767
0.363750 0.598659 0.137704
0.368832 0.601747 0.137854
0.371532 0.600279 0.137724
0.375605 0.601353 0.137748
0.378580 0.600361 0.137644
0.381573 0.599394 0.137542
0.384992 0.599180 0.137484
0.390384 0.602430 0.137637
0.393443 0.601493 0.137533
0.397378 0.602064 0.137519
0.400195 0.600673 0.137386
0.402858 0.599019 0.137236
0.408934 0.603095 0.137431
0.412505 0.602895 0.137366
0.416156 0.602799 0.137307
0.418934 0.601251 0.137158
0.423187 0.602078 0.137152
0.426977 0.602118 0.137096
0.430776 0.602139 0.137038
0.434569 0.602117 0.136976
0.437937 0.601408 0.136872
0.441290 0.600655 0.136764
0.445128 0.600619 0.136696
0.450683 0.603124 0.136779
0.454155 0.602455 0.136670
0.457295 0.601276 0.136530
0.461674 0.601890 0.136495
0.465724 0.601982 0.136427
0.470454 0.603010 0.136411
0.473982 0.602284 0.136291
0.477681 0.601776 0.136182
0.481116 0.600877 0.136047
0.484900 0.600439 0.135938
0.488520 0.599749 0.135812
0.492680 0.599764 0.135725
0.497405 0.600496 0.135677
0.501618 0.600499 0.135584
0.506238 0.600998 0.135517
0.509872 0.600173 0.135372
0.513571 0.599408 0.135227
0.517795 0.599286 0.135117
0.522724 0.600015 0.135052
0.527738 0.600797 0.134987
0.532374 0.601057 0.134889
0.537794 0.602231 0.134839
0.541194 0.600893 0.134645
0.544493 0.599416 0.134440
0.550517 0.601169 0.134412
0.554683 0.600654 0.134254
0.559688 0.601086 0.134145
0.564017 0.600684 0.133986
0.569110 0.601120 0.133869
0.572620 0.599704 0.133647
0.577588 0.599911 0.133510
0.582200 0.599669 0.133344
0.587886 0.600571 0.133235
0.593149 0.600945 0.133093
0.598026 0.600846 0.132921
0.601968 0.599693 0.132689
0.606585 0.599229 0.132489
0.611193 0.598714 0.132282
0.617713 0.600156 0.132171
0.622941 0.600180 0.131981
0.627251 0.599208 0.131735
0.631551 0.598189 0.131482
0.636586 0.597874 0.131259
0.641436 0.597325 0.131019
0.648388 0.598809 0.130875
0.653134 0.598045 0.130613
0.660454 0.599736 0.130465
0.664030 0.597737 0.130132
0.670435 0.598409 0.129922
0.677057 0.599214 0.129712
0.683754 0.600012 0.129494
0.687932 0.598401 0.129157
0.691903 0.596566 0.128805
0.696546 0.595315 0.128474
0.703946 0.596504 0.128250
0.709401 0.595874 0.127936
0.714307 0.594707 0.127593
0.720369 0.594509 0.127288
0.727132 0.594858 0.127001
0.732044 0.593547 0.126636
0.737609 0.592754 0.126290
0.747294 0.595379 0.126082
0.751689 0.593482 0.125680
0.757695 0.592889 0.125328
0.767460 0.595321 0.125094
0.771044 0.592641 0.124653
0.780921 0.595000 0.124407
0.788355 0.595319 0.124079
0.795550 0.595389 0.123739
0.801659 0.594560 0.123366
0.807022 0.593123 0.122971
0.813465 0.592492 0.122609
0.826446 0.596779 0.122422
0.834275 0.597084 0.122096
0.842716 0.597802 0.121789
0.850053 0.597665 0.121458
0.856759 0.597045 0.121118
0.857727 0.592275 0.120652
0.866551 0.593193 0.120383
0.871363 0.591243 0.120034
0.880082 0.592062 0.119784
0.890659 0.594157 0.119586
0.898448 0.594297 0.119343
0.907513 0.595315 0.119141
0.914283 0.594775 0.118910
0.922585 0.595291 0.118727
0.925666 0.592348 0.118464
0.032783 0.605614 0.132023
0.035127 0.604354 0.131920
0.037443 0.604695 0.131909
0.039783 0.605665 0.131941
0.042178 0.606338 0.131967
0.044618 0.606937 0.132000
0.047147 0.605283 0.131928
0.049667 0.605454 0.131959
0.052211 0.606529 0.132045
0.054800 0.607058 0.132111
0.057424 0.607344 0.132174
0.060077 0.607619 0.132243
0.062753 0.606832 0.132266
0.065454 0.606979 0.132342
0.068180 0.607259 0.132432
0.070931 0.607737 0.132537
0.073678 0.607136 0.132591
0.076466 0.607623 0.132705
0.079295 0.608788 0.132859
0.082063 0.607776 0.132902
0.084859 0.607399 0.132981
0.087731 0.608507 0.133139
0.090567 0.608588 0.133246
0.093311 0.606945 0.133262
0.096150 0.607008 0.133368
0.098997 0.607125 0.133478
0.101808 0.606672 0.133558
0.104802 0.608623 0.133765
0.107686 0.608990 0.133888
0.110510 0.608604 0.133969
0.113219 0.606992 0.133981
0.116106 0.607391 0.134102
0.118952 0.607356 0.134197
0.121646 0.605885 0.134212
0.124642 0.607272 0.134381
0.127574 0.607996 0.134512
0.130159 0.605791 0.134479
0.132927 0.605216 0.134534
0.135790 0.605423 0.134629
0.138721 0.606124 0.134750
0.141639 0.606687 0.134860
0.144500 0.606821 0.134944
0.147125 0.605367 0.134937
0.149862 0.604729 0.134973
0.152584 0.604035 0.135003
0.155319 0.603461 0.135036
0.158385 0.604882 0.135180
0.161204 0.604792 0.135236
0.163941 0.604237 0.135263
0.166814 0.604449 0.135331
0.169793 0.605211 0.135427
0.172826 0.606202 0.135535
0.175679 0.606219 0.135584
0.178422 0.605680 0.135599
0.180925 0.604000 0.135547
0.183816 0.604208 0.135599
0.186908 0.605318 0.135702
0.190139 0.606990 0.135834
0.192984 0.606873 0.135861
0.195876 0.606945 0.135897
0.199219 0.608902 0.136039
0.201628 0.606886 0.135950
0.204462 0.606659 0.135962
0.207079 0.605552 0.135922
0.209677 0.604393 0.135876
0.212772 0.605161 0.135939
0.215679 0.605171 0.135956
0.218398 0.604459 0.135930
0.221440 0.604923 0.135970
0.224280 0.604625 0.135963
0.227382 0.605230 0.136007
0.230295 0.605135 0.136009
0.233009 0.604346 0.135969
0.235985 0.604430 0.135978
0.238643 0.603440 0.135923
0.241492 0.603071 0.135902
0.244487 0.603150 0.135905
0.247646 0.603710 0.135935
0.250574 0.603512 0.135919
0.253483 0.603238 0.135897
0.256358 0.602841 0.135867
0.259666 0.603696 0.135907
0.262768 0.603903 0.135909
0.265678 0.603527 0.135875
0.268892 0.603984 0.135889
0.271517 0.602771 0.135804
0.274495 0.602525 0.135774
0.277883 0.603355 0.135805
0.281066 0.603589 0.135800
0.283987 0.603103 0.135753
0.286816 0.602365 0.135689
0.289516 0.601285 0.135605
0.293222 0.602728 0.135665
0.296337 0.602640 0.135636
0.299430 0.602468 0.135601
0.302573 0.602391 0.135570
0.305981 0.602917 0.135572
0.309314 0.603221 0.135561
0.312831 0.603914 0.135571
0.315822 0.603353 0.135508
0.318828 0.602811 0.135445
0.322453 0.603631 0.135459
0.325552 0.603242 0.135402
0.328435 0.602359 0.135317
0.331412 0.601672 0.135242
0.335447 0.603215 0.135293
0.337603 0.600747 0.135115
0.341995 0.602946 0.135200
0.345050 0.602318 0.135125
0.348080 0.601626 0.135045
0.351336 0.601371 0.134988
0.354397 0.600704 0.134908
0.358211 0.601494 0.134908
0.361965 0.602120 0.134899
0.365599 0.602471 0.134872
0.368419 0.601242 0.134756
0.372318 0.602030 0.134752
0.375770 0.601941 0.134698
0.378756 0.600969 0.134594
0.382031 0.600511 0.134517
0.386178 0.601593 0.134525
0.390447 0.602835 0.134540
0.394265 0.603230 0.134507
0.397605 0.602756 0.134425
0.400803 0.602017 0.134327
0.404288 0.601748 0.134254
0.408673 0.602965 0.134261
0.412842 0.603765 0.134244
0.415590 0.602179 0.134095
0.420281 0.603756 0.134118
0.424177 0.603988 0.134065
0.427519 0.603300 0.133961
0.431031 0.602861 0.133869
0.434309 0.602033 0.133754
0.437544 0.601122 0.133634
0.440796 0.600223 0.133513
0.445837 0.602019 0.133536
0.450599 0.603327 0.133530
0.454049 0.602627 0.133414
0.457515 0.601930 0.133297
0.461361 0.601768 0.133207
0.465841 0.602486 0.133162
0.470652 0.603630 0.133137
0.473933 0.602553 0.132992
0.477428 0.601761 0.132860
0.481287 0.601454 0.132752
0.485339 0.601382 0.132654
0.489244 0.601075 0.132542
0.493026 0.600573 0.132417
0.497773 0.601331 0.132355
0.502572 0.602105 0.132291
0.505888 0.600886 0.132121
0.509726 0.600329 0.131983
0.513549 0.599726 0.131840
0.518180 0.600122 0.131746
0.522999 0.600710 0.131657
0.527364 0.600679 0.131534
0.532792 0.601924 0.131473
0.539160 0.604256 0.131462
0.542448 0.602766 0.131255
0.545686 0.601201 0.131042
0.549396 0.600184 0.130853
0.555073 0.601466 0.130774
0.559393 0.601093 0.130610
0.563865 0.600859 0.130448
0.567774 0.599938 0.130249
0.573558 0.601122 0.130148
0.578376 0.601148 0.129987
0.582877 0.600774 0.129802
0.587703 0.600718 0.129627
0.592204 0.600261 0.129429
0.598504 0.601714 0.129316
0.602621 0.600743 0.129085
0.606870 0.599881 0.128854
0.611265 0.599137 0.128623
0.615411 0.598095 0.128375
0.622549 0.600120 0.128260
0.627054 0.599351 0.128013
0.631607 0.598591 0.127761
0.636137 0.597765 0.127501
0.644452 0.600680 0.127399
0.648606 0.599367 0.127106
0.653518 0.598764 0.126838
0.658816 0.598488 0.126578
0.665080 0.599088 0.126349
0.671549 0.599813 0.126118
0.677215 0.599704 0.125846
0.683473 0.600090 0.125587
0.687762 0.598583 0.125246
0.691267 0.596322 0.124870
0.696589 0.595693 0.124553
0.703377 0.596333 0.124279
0.708805 0.595684 0.123950
0.713614 0.594436 0.123592
0.719920 0.594459 0.123276
0.726063 0.594276 0.122946
0.731581 0.593496 0.122590
0.740755 0.595777 0.122336
0.745277 0.594033 0.121936
0.751576 0.593744 0.121581
0.756189 0.592005 0.121175
0.764184 0.593006 0.120856
0.770057 0.592210 0.120475
0.781137 0.595552 0.120223
0.789514 0.596625 0.119894
0.795824 0.595997 0.119511
0.800914 0.594381 0.119099
0.802653 0.590160 0.118614
0.817189 0.595760 0.118414
0.828894 0.599068 0.118147
0.835618 0.598540 0.117775
0.827309 0.586821 0.117111
0.853883 0.590009 0.116197
0.856162 0.586290 0.115793
0.855690 0.580681 0.115359
0.862802 0.580494 0.115069
0.866937 0.578240 0.114746
0.876558 0.579815 0.114526
0.905470 0.594555 0.114609
0.912769 0.594409 0.114378
0.922533 0.595939 0.114200
0.933185 0.598058 0.114053
0.032877 0.607393 0.129537
0.035279 0.604572 0.129358
0.037599 0.604529 0.129320
0.039937 0.605164 0.129324
0.042298 0.606579 0.129374
0.044745 0.606493 0.129365
0.047226 0.606531 0.129372
0.049751 0.606007 0.129363
0.052296 0.606372 0.129404
0.054863 0.608439 0.129534
0.057485 0.607932 0.129552
0.060130 0.607281 0.129572
0.062808 0.608511 0.129686
0.065501 0.607993 0.129726
0.068218 0.607907 0.129792
0.070945 0.607382 0.129844
0.073738 0.608985 0.130000
0.076491 0.608202 0.130049
0.079289 0.608541 0.130154
0.082128 0.609541 0.130294
0.084886 0.608205 0.130325
0.087755 0.609241 0.130473
0.090571 0.608959 0.130558
0.093388 0.608608 0.130641
0.096216 0.608408 0.130733
0.099072 0.608592 0.130843
0.101901 0.608338 0.130932
0.104810 0.609109 0.131071
0.107667 0.609128 0.131172
0.110491 0.608758 0.131254
0.113312 0.608381 0.131333
0.116152 0.608238 0.131423
0.118908 0.607265 0.131469
0.121781 0.607504 0.131575
0.124650 0.607683 0.131675
0.127581 0.608383 0.131799
0.130271 0.607031 0.131818
0.133080 0.606742 0.131888
0.135920 0.606719 0.131969
0.138746 0.606592 0.132042
0.141686 0.607299 0.132155
0.144393 0.606350 0.132181
0.147257 0.606510 0.132262
0.150019 0.606002 0.132305
0.152825 0.605797 0.132361
0.155732 0.606225 0.132447
0.158509 0.605849 0.132489
0.161352 0.605870 0.132548
0.164183 0.605814 0.132602
0.166954 0.605432 0.132635
0.169895 0.605964 0.132713
0.173018 0.607405 0.132837
0.175897 0.607525 0.132889
0.178618 0.606849 0.132896
0.181183 0.605437 0.132863
0.184156 0.606004 0.132931
0.187071 0.606258 0.132980
0.189900 0.606102 0.133004
0.193029 0.607256 0.133096
0.195939 0.607399 0.133132
0.198783 0.607237 0.133150
0.201803 0.607788 0.133202
0.204450 0.606787 0.133171
0.207074 0.605710 0.133133
0.209933 0.605570 0.133143
0.212924 0.605920 0.133177
0.215768 0.605681 0.133177
0.218709 0.605782 0.133193
0.221647 0.605848 0.133206
0.224529 0.605685 0.133204
0.227319 0.605183 0.133182
0.230208 0.605011 0.133176
0.233437 0.605972 0.133228
0.236630 0.606752 0.133269
0.239032 0.604891 0.133168
0.241827 0.604329 0.133134
0.244931 0.604739 0.133150
0.248005 0.605013 0.133157
0.250865 0.604592 0.133126
0.253644 0.603909 0.133079
0.256635 0.603852 0.133063
0.259751 0.604136 0.133064
0.262976 0.604693 0.133079
0.266208 0.605228 0.133090
0.269157 0.604923 0.133056
0.272065 0.604481 0.133012
0.275006 0.604115 0.132972
0.278162 0.604307 0.132960
0.281170 0.604070 0.132923
0.284111 0.603635 0.132875
0.288026 0.605689 0.132957
0.291349 0.606155 0.132954
0.294084 0.605104 0.132870
0.296742 0.603859 0.132774
0.299261 0.602276 0.132660
0.302885 0.603366 0.132684
0.306308 0.603920 0.132680
0.309461 0.603795 0.132638
0.312671 0.603773 0.132601
0.315930 0.603834 0.132567
0.319104 0.603671 0.132520
0.322657 0.604325 0.132515
0.325792 0.604013 0.132458
0.328786 0.603368 0.132383
0.332116 0.603433 0.132344
0.335225 0.602995 0.132278
0.338853 0.603626 0.132266
0.341918 0.603041 0.132190
0.345080 0.602639 0.132122
0.348366 0.602466 0.132065
0.351706 0.602375 0.132012
0.354923 0.602011 0.131943
0.359436 0.604163 0.132002
0.362499 0.603427 0.131912
0.365645 0.602836 0.131829
0.368776 0.602196 0.131742
0.372228 0.602143 0.131683
0.375790 0.602260 0.131633
0.379125 0.601929 0.131558
0.382633 0.601889 0.131497
0.386263 0.602035 0.131444
0.391125 0.604331 0.131498
0.393916 0.602915 0.131364
0.397394 0.602688 0.131289
0.401238 0.603063 0.131243
0.404803 0.602925 0.131169
0.408183 0.602447 0.131077
0.412144 0.602911 0.131031
0.415081 0.601651 0.130898
0.418934 0.601875 0.130837
0.422133 0.601009 0.130721
0.427990 0.604368 0.130811
0.431110 0.603304 0.130681
0.434243 0.602250 0.130552
0.437409 0.601235 0.130422
0.441222 0.601198 0.130339
0.445614 0.602006 0.130294
0.450258 0.603142 0.130264
0.453732 0.602485 0.130145
0.457035 0.601554 0.130011
0.461423 0.602188 0.129950
0.465297 0.602035 0.129849
0.469452 0.602250 0.129764
0.474276 0.603374 0.129720
0.477150 0.601709 0.129541
0.480534 0.600747 0.129394
0.485357 0.601745 0.129336
0.489816 0.602193 0.129250
0.493810 0.601969 0.129130
0.496997 0.600636 0.128956
0.502152 0.601892 0.128899
0.505627 0.600888 0.128735
0.509416 0.600270 0.128586
0.514082 0.600754 0.128485
0.518550 0.600938 0.128367
0.522563 0.600505 0.128217
0.525963 0.599274 0.128029
0.531320 0.600448 0.127945
0.539003 0.604412 0.127981
0.542452 0.603117 0.127779
0.545586 0.601427 0.127557
0.549011 0.600070 0.127347
0.555331 0.602117 0.127280
0.559906 0.602039 0.127117
0.563592 0.600888 0.126905
0.567265 0.599699 0.126687
0.572564 0.600335 0.126542
0.577726 0.600761 0.126383
0.581701 0.599805 0.126162
0.587529 0.600870 0.126020
0.591244 0.599551 0.125775
0.594275 0.597464 0.125495
0.601852 0.600259 0.125407
0.606905 0.600260 0.125201
0.610636 0.598814 0.124932
0.614872 0.597870 0.124678
0.622060 0.599954 0.124537
0.626241 0.598855 0.124266
0.630354 0.597652 0.123986
0.634774 0.596727 0.123711
0.642760 0.599327 0.123562
0.649804 0.600890 0.123366
0.653459 0.599041 0.123039
0.657902 0.597934 0.122734
0.665416 0.599746 0.122526
0.670658 0.599297 0.122230
0.677285 0.600105 0.121972
0.683477 0.600428 0.121690
0.687196 0.598392 0.121322
0.691713 0.597064 0.120972
0.696822 0.596237 0.120634
0.704752 0.597905 0.120368
0.709128 0.596306 0.119992
0.713858 0.594985 0.119620
0.726131 0.600233 0.119440
0.726872 0.595315 0.118949
0.731623 0.593870 0.118558
0.737611 0.593444 0.118191
0.745680 0.594717 0.117867
0.751219 0.593793 0.117476
0.758910 0.594605 0.117128
0.758074 0.588361 0.116594
0.763366 0.587148 0.116191
0.777381 0.592907 0.115955
0.781343 0.590506 0.115518
0.793732 0.594738 0.115234
0.800356 0.594341 0.114842
0.807729 0.594484 0.114462
0.801763 0.584376 0.113869
0.816316 0.589970 0.113611
0.828020 0.593284 0.113306
0.822449 0.583660 0.112755
0.841626 0.576403 0.111268
0.856809 0.576838 0.110666
0.873091 0.583102 0.110476
0.874824 0.579217 0.110149
0.905284 0.595066 0.110120
0.913101 0.595295 0.109882
0.925367 0.598532 0.109703
0.926338 0.594209 0.109445
0.033163 0.604928 0.126862
0.035445 0.604521 0.126789
0.037785 0.603606 0.126706
0.040043 0.606224 0.126782
0.042428 0.606528 0.126772
0.044836 0.607549 0.126802
0.047331 0.606524 0.126757
0.049839 0.606397 0.126759
0.052364 0.607685 0.126831
0.054943 0.607451 0.126848
0.057548 0.607733 0.126895
0.060184 0.607498 0.126929
0.062841 0.606847 0.126953
0.065546 0.608840 0.127096
0.068255 0.608556 0.127150
0.070981 0.608168 0.127204
0.073735 0.608382 0.127290
0.076517 0.608880 0.127392
0.079299 0.608826 0.127475
0.082074 0.608282 0.127541
0.084944 0.609761 0.127697
0.087698 0.608366 0.127730
0.090537 0.608662 0.127839
0.093399 0.609191 0.127959
0.096246 0.609292 0.128062
0.099074 0.609047 0.128150
0.101959 0.609556 0.128272
0.104831 0.609801 0.128382
0.107648 0.609329 0.128459
0.110319 0.607182 0.128460
0.113258 0.608203 0.128602
0.116089 0.607979 0.128686
0.118951 0.608092 0.128785
0.121757 0.607656 0.128856
0.124661 0.608151 0.128968
0.127461 0.607705 0.129035
0.130479 0.609110 0.129184
0.133260 0.608523 0.129240
0.135976 0.607480 0.129272
0.138742 0.606880 0.129322
0.141536 0.606532 0.129381
0.144431 0.606907 0.129471
0.147093 0.605696 0.129484
0.150093 0.606762 0.129601
0.152926 0.606707 0.129663
0.155723 0.606429 0.129712
0.158494 0.606010 0.129751
0.161295 0.605786 0.129796
0.164243 0.606396 0.129879
0.167040 0.606134 0.129917
0.169934 0.606400 0.129978
0.173104 0.608074 0.130103
0.175947 0.607998 0.130142
0.178631 0.607126 0.130141
0.181717 0.608229 0.130231
0.184342 0.607084 0.130212
0.187120 0.606687 0.130225
0.189879 0.606204 0.130232
0.192736 0.606157 0.130257
0.195738 0.606724 0.130309
0.198608 0.606685 0.130330
0.201421 0.606395 0.130337
0.204444 0.606951 0.130381
0.207366 0.607059 0.130402
0.210106 0.606432 0.130386
0.212872 0.605905 0.130371
0.215892 0.606329 0.130401
0.218771 0.606197 0.130402
0.221775 0.606496 0.130421
0.224578 0.606044 0.130402
0.227210 0.604985 0.130352
0.230172 0.605072 0.130355
0.233398 0.606025 0.130398
0.236666 0.607058 0.130442
0.239079 0.605233 0.130348
0.241924 0.604831 0.130320
0.244897 0.604817 0.130309
0.247908 0.604898 0.130300
0.250833 0.604682 0.130276
0.253807 0.604594 0.130256
0.256789 0.604505 0.130235
0.259829 0.604557 0.130219
0.262986 0.604919 0.130216
0.265963 0.604727 0.130185
0.269057 0.604841 0.130167
0.272098 0.604774 0.130138
0.275097 0.604567 0.130102
0.278023 0.604138 0.130054
0.281235 0.604449 0.130039
0.284496 0.604850 0.130028
0.287357 0.604179 0.129964
0.290649 0.604591 0.129950
0.294438 0.606209 0.129992
0.297078 0.604908 0.129895
0.299829 0.603884 0.129809
0.303426 0.604893 0.129818
0.306326 0.604189 0.129745
0.309597 0.604344 0.129712
0.312843 0.604405 0.129672
0.316052 0.604349 0.129626
0.319798 0.605476 0.129635
0.322724 0.604716 0.129553
0.325421 0.603438 0.129447
0.329165 0.604441 0.129446
0.332319 0.604119 0.129381
0.335307 0.603420 0.129298
0.338497 0.603130 0.129234
0.341777 0.603005 0.129175
0.344680 0.602077 0.129079
0.347837 0.601655 0.129004
0.351785 0.602799 0.129001
0.355509 0.603440 0.128974
0.359354 0.604273 0.128954
0.362726 0.604140 0.128888
0.365541 0.602910 0.128771
0.368718 0.602363 0.128684
0.372036 0.602062 0.128608
0.375514 0.602032 0.128542
0.379174 0.602304 0.128489
0.382965 0.602778 0.128444
0.386423 0.602612 0.128368
0.389976 0.602587 0.128298
0.393302 0.602132 0.128207
0.396726 0.601826 0.128122
0.400592 0.602254 0.128067
0.404909 0.603406 0.128044
0.408604 0.603458 0.127970
0.411525 0.602188 0.127836
0.415440 0.602550 0.127773
0.419189 0.602600 0.127695
0.423723 0.603884 0.127668
0.427582 0.604032 0.127591
0.430592 0.602802 0.127451
0.433852 0.601955 0.127327
0.437354 0.601469 0.127217
0.441057 0.601265 0.127118
0.444649 0.600864 0.127008
0.449436 0.602233 0.126972
0.453000 0.601722 0.126854
0.456776 0.601500 0.126745
0.460670 0.601420 0.126641
0.465182 0.602199 0.126571
0.469242 0.602282 0.126469
0.472663 0.601423 0.126326
0.476973 0.601793 0.126231
0.480603 0.601177 0.126093
0.484327 0.600665 0.125958
0.490028 0.602819 0.125928
0.493527 0.601925 0.125771
0.497319 0.601403 0.125627
0.501292 0.601093 0.125489
0.505561 0.601140 0.125362
0.509682 0.600954 0.125223
0.513855 0.600801 0.125081
0.518654 0.601410 0.124967
0.522404 0.600645 0.124796
0.526545 0.600342 0.124639
0.531320 0.600790 0.124508
0.536852 0.602116 0.124406
0.541124 0.601846 0.124240
0.545660 0.601858 0.124080
0.548631 0.599959 0.123844
0.555302 0.602424 0.123768
0.558899 0.601202 0.123550
0.563449 0.601064 0.123368
0.567675 0.600510 0.123167
0.571165 0.599083 0.122930
0.577329 0.600652 0.122796
0.581620 0.600053 0.122580
0.585955 0.599466 0.122359
0.590929 0.599543 0.122156
0.594805 0.598376 0.121906
0.601351 0.600055 0.121747
0.605804 0.599421 0.121504
0.611354 0.599907 0.121294
0.615566 0.598930 0.121029
0.622478 0.600720 0.120848
0.625528 0.598453 0.120530
0.628645 0.596242 0.120210
0.635888 0.598181 0.120014
0.641817 0.598714 0.119767
0.647297 0.598735 0.119498
0.652827 0.598749 0.119221
0.661674 0.601928 0.119030
0.667808 0.602377 0.118751
0.669849 0.598851 0.118353
0.675491 0.598735 0.118045
0.681250 0.598670 0.117732
0.685764 0.597389 0.117380
0.691893 0.597553 0.117059
0.698699 0.598270 0.116746
0.704123 0.597663 0.116392
0.720438 0.606732 0.116266
0.725568 0.605670 0.115883
0.725081 0.599643 0.115380
0.724493 0.593579 0.114877
0.726232 0.589568 0.114421
0.731796 0.588827 0.114033
0.734822 0.585900 0.113596
0.739507 0.584354 0.113185
0.747411 0.585440 0.112822
0.753856 0.585253 0.112430
0.756723 0.582111 0.111983
0.762559 0.581360 0.111578
0.787057 0.595423 0.111414
0.793737 0.595123 0.111006
0.797848 0.592774 0.110567
0.810917 0.597351 0.110231
0.798454 0.582248 0.109624
0.801903 0.579463 0.109199
0.824941 0.591411 0.108963
0.815234 0.578739 0.108432
0.796789 0.559839 0.107858
0.793223 0.552137 0.107431
0.818243 0.565239 0.107223
0.822913 0.563505 0.106876
0.819840 0.556297 0.106497
0.870655 0.581985 0.106099
0.884934 0.586803 0.105848
0.898935 0.591358 0.105609
0.910485 0.594185 0.105375
0.918127 0.594353 0.105144
0.929133 0.596788 0.104945
0.033513 0.601010 0.124158
0.035621 0.604303 0.124219
0.037879 0.605259 0.124202
0.040160 0.607028 0.124226
0.042510 0.608257 0.124241
0.044968 0.607016 0.124174
0.047450 0.605960 0.124125
0.049923 0.607135 0.124169
0.052456 0.607034 0.124176
0.055016 0.607535 0.124215
0.057611 0.608017 0.124262
0.060239 0.608714 0.124326
0.062878 0.605644 0.124255
0.065556 0.606614 0.124345
0.068286 0.608848 0.124490
0.071007 0.608587 0.124546
0.073750 0.608505 0.124615
0.076520 0.608839 0.124704
0.079288 0.608570 0.124775
0.082054 0.607945 0.124836
0.084846 0.607815 0.124919
0.087702 0.608815 0.125048
0.090504 0.608445 0.125126
0.093346 0.608702 0.125231
0.096243 0.609713 0.125366
0.099075 0.609535 0.125455
0.101965 0.610123 0.125575
0.104792 0.609778 0.125658
0.107475 0.607675 0.125670
0.110314 0.607590 0.125761
0.113121 0.607157 0.125837
0.116119 0.608736 0.125994
0.118858 0.607596 0.126038
0.121773 0.608231 0.126153
0.124575 0.607783 0.126222
0.127413 0.607685 0.126304
0.130448 0.609237 0.126451
0.133257 0.608869 0.126516
0.136010 0.608095 0.126562
0.138740 0.607214 0.126601
0.141577 0.607160 0.126672
0.144517 0.607827 0.126771
0.147249 0.607061 0.126806
0.150009 0.606519 0.126848
0.152838 0.606442 0.126907
0.155400 0.604742 0.126894
0.158319 0.605250 0.126972
0.161223 0.605641 0.127043
0.164115 0.605933 0.127106
0.167117 0.606810 0.127192
0.169914 0.606540 0.127226
0.172800 0.606737 0.127277
0.175869 0.607841 0.127365
0.178720 0.607801 0.127400
0.181478 0.607299 0.127414
0.184299 0.607105 0.127437
0.187045 0.606559 0.127443
0.189988 0.606911 0.127485
0.192559 0.605585 0.127452
0.195274 0.604921 0.127445
0.198392 0.605974 0.127510
0.201569 0.607210 0.127581
0.204589 0.607741 0.127618
0.207307 0.607022 0.127599
0.210233 0.607123 0.127614
0.212919 0.606278 0.127584
0.215585 0.605367 0.127550
0.218962 0.607094 0.127628
0.221752 0.606603 0.127608
0.224484 0.605902 0.127576
0.227235 0.605264 0.127545
0.230222 0.605435 0.127547
0.233357 0.606075 0.127568
0.236074 0.605278 0.127524
0.239061 0.605366 0.127517
0.241957 0.605126 0.127493
0.244496 0.603739 0.127418
0.247567 0.604028 0.127414
0.250597 0.604154 0.127401
0.254138 0.605791 0.127451
0.256938 0.605145 0.127402
0.259873 0.604886 0.127367
0.262846 0.604716 0.127334
0.265817 0.604512 0.127298
0.268842 0.604441 0.127267
0.271839 0.604266 0.127229
0.274700 0.603692 0.127173
0.277997 0.604277 0.127165
0.281372 0.605023 0.127162
0.284514 0.605110 0.127130
0.287396 0.604494 0.127066
0.290229 0.603741 0.126995
0.293821 0.604880 0.127003
0.296983 0.604895 0.126962
0.299694 0.603779 0.126872
0.302703 0.603378 0.126811
0.305647 0.602803 0.126741
0.308818 0.602746 0.126692
0.312840 0.604632 0.126723
0.316057 0.604597 0.126672
0.319239 0.604454 0.126615
0.322076 0.603511 0.126524
0.325062 0.602890 0.126445
0.329430 0.605266 0.126489
0.332032 0.603751 0.126370
0.334712 0.602405 0.126258
0.337940 0.602214 0.126192
0.341514 0.602715 0.126154
0.344366 0.601692 0.126051
0.347169 0.600561 0.125943
0.351921 0.603336 0.125994
0.355608 0.603904 0.125953
0.359487 0.604804 0.125924
0.362386 0.603752 0.125815
0.365274 0.602674 0.125703
0.368225 0.601706 0.125595
0.371602 0.601528 0.125518
0.375310 0.601936 0.125463
0.378965 0.602206 0.125400
0.382782 0.602734 0.125347
0.386246 0.602584 0.125266
0.389399 0.601855 0.125160
0.392770 0.601492 0.125067
0.396053 0.600953 0.124966
0.399312 0.600354 0.124861
0.403814 0.601846 0.124837
0.408000 0.602744 0.124788
0.411096 0.601779 0.124664
0.415058 0.602227 0.124594
0.419094 0.602755 0.124525
0.422237 0.601797 0.124398
0.425350 0.600782 0.124267
0.429314 0.601098 0.124184
0.433274 0.601367 0.124099
0.436951 0.601161 0.123993
0.440268 0.600375 0.123864
0.444904 0.601571 0.123807
0.449044 0.601965 0.123717
0.452662 0.601543 0.123595
0.456162 0.600920 0.123464
0.460620 0.601672 0.123382
0.465076 0.602372 0.123294
0.468417 0.601431 0.123145
0.471891 0.600659 0.123000
0.476519 0.601487 0.122909
0.480694 0.601634 0.122792
0.485297 0.602331 0.122691
0.489454 0.602370 0.122564
0.493197 0.601813 0.122414
0.497381 0.601820 0.122280
0.502435 0.602941 0.122182
0.505767 0.601745 0.122000
0.509375 0.600891 0.121828
0.514024 0.601356 0.121697
0.518026 0.600947 0.121534
0.522783 0.601459 0.121397
0.527549 0.601934 0.121256
0.532601 0.602713 0.121120
0.537795 0.603612 0.120984
0.540116 0.600958 0.120730
0.545666 0.602202 0.120597
0.549862 0.601764 0.120406
0.553514 0.600648 0.120190
0.557558 0.599967 0.119983
0.562733 0.600568 0.119812
0.565949 0.598860 0.119565
0.571929 0.600287 0.119409
0.577617 0.601312 0.119235
0.582011 0.600824 0.119011
0.587783 0.601824 0.118825
0.593586 0.602791 0.118632
0.596482 0.600530 0.118342
0.600358 0.599315 0.118077
0.606915 0.600937 0.117884
0.615344 0.604455 0.117735
0.619668 0.603555 0.117461
0.625372 0.604052 0.117217
0.630557 0.603951 0.116951
0.633403 0.601413 0.116618
0.639732 0.602385 0.116367
0.643628 0.600848 0.116047
0.646603 0.598370 0.115700
0.652018 0.598276 0.115404
0.660267 0.600881 0.115162
0.667048 0.601966 0.114876
0.669721 0.599048 0.114496
0.672841 0.596547 0.114120
0.679226 0.597090 0.113803
0.683213 0.595338 0.113432
0.690220 0.596333 0.113108
0.694875 0.595105 0.112735
0.701457 0.595576 0.112386
0.707856 0.595812 0.112026
0.711105 0.593193 0.111611
0.713491 0.589805 0.111180
0.714162 0.584930 0.110724
0.721260 0.585613 0.110351
0.728633 0.586457 0.109973
0.734668 0.586095 0.109572
0.735757 0.581548 0.109114
0.743670 0.582678 0.108725
0.753544 0.585337 0.108349
0.760960 0.585895 0.107943
0.767987 0.586075 0.107530
0.787803 0.596385 0.107207
0.792836 0.594788 0.106769
0.798972 0.594037 0.106340
0.807588 0.595175 0.105927
0.810956 0.592229 0.105489
0.820536 0.594016 0.105085
0.825215 0.592052 0.104666
0.824879 0.586362 0.104241
0.802372 0.564400 0.103777
0.792775 0.552262 0.103378
0.812716 0.556690 0.102698
0.825673 0.556018 0.102057
0.860858 0.575729 0.101752
0.881929 0.585336 0.101451
0.889650 0.585631 0.101172
0.909703 0.594321 0.100897
0.914384 0.592524 0.100659
0.910327 0.584944 0.100458
0.033677 0.601399 0.121639
0.035806 0.603901 0.121650
0.038063 0.604536 0.121610
0.040398 0.604141 0.121546
0.042718 0.605572 0.121554
0.045122 0.605624 0.121527
0.047553 0.606259 0.121531
0.050044 0.605612 0.121502
0.052544 0.606783 0.121544
0.055090 0.607514 0.121581
