ply
format ascii 1.0
comment ---
element vertex 1682
property float x
property float y
property float z
element face 0
property list uchar uint vertex_indices
end_header
0.260443 0.602267 -0.018067
0.263946 0.601836 -0.018159
0.267262 0.600785 -0.018218
0.271741 0.603354 -0.018489
0.277963 0.611143 -0.019067
0.281956 0.611918 -0.019241
0.283100 0.604156 -0.018915
0.286006 0.601739 -0.018904
0.290088 0.602746 -0.019097
0.293811 0.602654 -0.019228
0.296399 0.599342 -0.019170
0.300659 0.600691 -0.019391
0.306010 0.604920 -0.019788
0.308973 0.602578 -0.019795
0.312141 0.600796 -0.019837
0.316156 0.601219 -0.020015
0.319922 0.600941 -0.020153
0.323707 0.600667 -0.020294
0.326847 0.598736 -0.020337
0.332537 0.603093 -0.020767
0.337970 0.606657 -0.021154
0.341880 0.606417 -0.021310
0.341979 0.597101 -0.020905
0.345406 0.595758 -0.020996
0.350519 0.598286 -0.021331
0.355216 0.599751 -0.021603
0.363080 0.608246 -0.022322
0.366307 0.606182 -0.022380
0.368980 0.602904 -0.022361
0.371236 0.598753 -0.022288
0.374394 0.596588 -0.022342
0.378615 0.596673 -0.022542
0.381463 0.593847 -0.022556
0.384311 0.591048 -0.022571
0.390457 0.594988 -0.023026
0.396373 0.598330 -0.023446
0.402409 0.601798 -0.023876
0.407266 0.602838 -0.024148
0.410951 0.601554 -0.024267
0.408198 0.587934 -0.023562
0.412914 0.588763 -0.023816
0.421121 0.596099 -0.024506
0.428243 0.601252 -0.025052
0.431869 0.599885 -0.025155
0.435419 0.598413 -0.025248
0.439691 0.598276 -0.025427
0.443880 0.598014 -0.025594
0.450813 0.602590 -0.026088
0.459719 0.610524 -0.026810
0.461595 0.606260 -0.026685
0.460360 0.596838 -0.026191
0.464591 0.596855 -0.026344
0.468096 0.595718 -0.026408
0.471720 0.594862 -0.026483
0.480721 0.602883 -0.027172
-0.338423 0.597815 -0.015753
-0.336515 0.601272 -0.015976
-0.333583 0.602926 -0.016092
-0.330783 0.604958 -0.016220
-0.326297 0.603808 -0.016165
-0.323039 0.605147 -0.016239
-0.319302 0.605623 -0.016259
-0.314683 0.604385 -0.016177
-0.310589 0.604251 -0.016150
-0.306672 0.604530 -0.016140
-0.302529 0.604380 -0.016101
-0.298651 0.604822 -0.016090
-0.294779 0.605313 -0.016077
-0.291041 0.606126 -0.016078
-0.287319 0.607004 -0.016080
-0.282989 0.606552 -0.016006
-0.278689 0.606152 -0.015934
-0.274324 0.605584 -0.015850
-0.270247 0.605655 -0.015800
-0.266581 0.606674 -0.015800
-0.262420 0.606516 -0.015737
-0.258412 0.606692 -0.015691
-0.254783 0.607770 -0.015694
-0.251247 0.609071 -0.015710
-0.246123 0.606367 -0.015510
-0.242310 0.606893 -0.015486
-0.238803 0.608179 -0.015503
-0.235052 0.608816 -0.015487
-0.230137 0.606313 -0.015304
-0.226794 0.607942 -0.015345
-0.223023 0.608389 -0.015323
-0.219121 0.608432 -0.015282
-0.215274 0.608578 -0.015249
-0.211146 0.607862 -0.015172
-0.206736 0.606248 -0.015049
-0.203156 0.606987 -0.015053
-0.199353 0.607019 -0.015022
-0.195692 0.607436 -0.015014
-0.191991 0.607680 -0.014998
-0.188217 0.607651 -0.014971
-0.184535 0.607860 -0.014958
-0.180747 0.607670 -0.014927
-0.176734 0.606676 -0.014855
-0.172867 0.606087 -0.014806
-0.169298 0.606449 -0.014811
-0.165790 0.606983 -0.014826
-0.162275 0.607462 -0.014841
-0.158489 0.606923 -0.014804
-0.154875 0.606950 -0.014799
-0.151209 0.606731 -0.014783
-0.147709 0.607093 -0.014800
-0.144252 0.607590 -0.014826
-0.140584 0.607219 -0.014808
-0.136988 0.607077 -0.014804
-0.133496 0.607318 -0.014822
-0.130169 0.608224 -0.014877
-0.126594 0.608051 -0.014877
-0.123017 0.607821 -0.014876
-0.119532 0.607953 -0.014895
-0.116003 0.607846 -0.014904
-0.112532 0.607967 -0.014926
-0.108554 0.605608 -0.014818
-0.105326 0.606811 -0.014901
-0.101946 0.607260 -0.014945
-0.098442 0.607054 -0.014956
-0.095128 0.607816 -0.015020
-0.091682 0.607862 -0.015047
-0.088210 0.607727 -0.015066
-0.084619 0.606867 -0.015048
-0.081194 0.606913 -0.015079
-0.077831 0.607309 -0.015131
-0.074333 0.606849 -0.015137
-0.070985 0.607299 -0.015194
-0.067635 0.607739 -0.015251
-0.064210 0.607668 -0.015282
-0.060830 0.607877 -0.015329
-0.057436 0.607975 -0.015372
-0.054011 0.607822 -0.015401
-0.050584 0.607615 -0.015429
-0.047147 0.607287 -0.015452
-0.043907 0.608595 -0.015563
-0.040554 0.608979 -0.015625
-0.037102 0.608456 -0.015640
-0.033471 0.606131 -0.015558
-0.030074 0.605942 -0.015592
-0.027020 0.609385 -0.015824
-0.023763 0.610895 -0.015951
-0.020247 0.609473 -0.015921
-0.016664 0.607014 -0.015835
-0.013247 0.606466 -0.015854
-0.009802 0.605420 -0.015846
-0.006279 0.603023 -0.015765
-0.002906 0.602721 -0.015798
-0.000070 0.611936 -0.016351
0.003334 0.611753 -0.016393
0.006894 0.608201 -0.016251
0.010158 0.610875 -0.016450
0.013670 0.607579 -0.016322
0.016973 0.609744 -0.016495
0.020330 0.610679 -0.016601
0.023690 0.611888 -0.016722
0.026994 0.616698 -0.017043
0.030596 0.603585 -0.016375
0.033930 0.605867 -0.016557
0.037278 0.609717 -0.016827
0.040664 0.606939 -0.016730
0.044036 0.606683 -0.016773
0.047414 0.607385 -0.016870
0.050777 0.606366 -0.016872
0.054352 0.617306 -0.017541
0.057684 0.613333 -0.017379
0.061069 0.612556 -0.017396
0.064474 0.612590 -0.017459
0.067780 0.609941 -0.017371
0.071003 0.605844 -0.017202
0.074325 0.604690 -0.017198
0.077685 0.604467 -0.017248
0.081079 0.604860 -0.017332
0.084475 0.605204 -0.017414
0.087802 0.604412 -0.017432
0.091607 0.610554 -0.017844
0.095045 0.610972 -0.017933
0.098318 0.609245 -0.017899
0.101589 0.607667 -0.017875
0.104680 0.604204 -0.017743
0.107986 0.603367 -0.017761
0.111376 0.603460 -0.017833
0.114259 0.598581 -0.017620
0.119060 0.611955 -0.018456
0.121830 0.606086 -0.018187
0.125322 0.606845 -0.018300
0.129009 0.609131 -0.018502
0.132420 0.609034 -0.018567
0.135762 0.608402 -0.018602
0.138836 0.605817 -0.018523
0.142421 0.607026 -0.018666
0.145878 0.607251 -0.018753
0.149327 0.607392 -0.018835
0.152682 0.606890 -0.018881
0.155795 0.604880 -0.018839
0.159107 0.604175 -0.018874
0.162262 0.602555 -0.018856
0.166562 0.607599 -0.019231
0.170513 0.610391 -0.019475
0.174084 0.610940 -0.019588
0.176588 0.605764 -0.019364
0.180137 0.606239 -0.019474
0.184437 0.610464 -0.019809
0.187354 0.607630 -0.019725
0.190335 0.605213 -0.019667
0.193685 0.604621 -0.019719
0.197130 0.604463 -0.019798
0.200603 0.604413 -0.019884
0.203995 0.603979 -0.019949
0.207359 0.603413 -0.020007
0.212653 0.611009 -0.020560
0.217098 0.614746 -0.020882
0.219836 0.611371 -0.020775
0.221945 0.605585 -0.020522
0.224628 0.602235 -0.020418
0.228114 0.602056 -0.020509
0.231380 0.601021 -0.020548
0.234872 0.600828 -0.020641
0.239643 0.605245 -0.021019
0.243778 0.607207 -0.021249
0.247174 0.606474 -0.021315
0.251379 0.608517 -0.021555
0.250915 0.594650 -0.020809
0.254964 0.596229 -0.021022
0.259759 0.600153 -0.021385
0.263092 0.599206 -0.021447
0.266412 0.598207 -0.021507
0.270584 0.599856 -0.021736
0.275991 0.605199 -0.022201
0.281540 0.610762 -0.022684
0.283139 0.604362 -0.022412
0.287723 0.606856 -0.022707
0.292694 0.610344 -0.023069
0.293435 0.601662 -0.022655
0.295831 0.597821 -0.022551
0.301449 0.602936 -0.023027
0.306321 0.605825 -0.023363
0.309006 0.602722 -0.023314
0.312308 0.601287 -0.023375
0.316198 0.601373 -0.023539
0.319982 0.601133 -0.023684
0.323383 0.599879 -0.023765
0.327285 0.599860 -0.023929
0.332945 0.604125 -0.024382
0.337777 0.606209 -0.024694
0.340537 0.603209 -0.024670
0.341836 0.596774 -0.024418
0.346323 0.597910 -0.024675
0.351421 0.600371 -0.025025
0.355128 0.599551 -0.025157
0.361862 0.605506 -0.025752
0.367437 0.608684 -0.026164
0.369347 0.603699 -0.026019
0.369058 0.594031 -0.025552
0.373634 0.594953 -0.025815
0.379583 0.598704 -0.026276
0.383100 0.597248 -0.026379
0.386553 0.595653 -0.026472
0.390913 0.595901 -0.026696
0.396085 0.597740 -0.027034
0.403371 0.603699 -0.027665
0.408506 0.605264 -0.027988
0.407589 0.595030 -0.027467
0.406876 0.585401 -0.026984
0.408718 0.580815 -0.026858
0.419788 0.593612 -0.027985
0.427640 0.600152 -0.028663
0.431121 0.598538 -0.028748
0.435463 0.598524 -0.028945
0.440043 0.598949 -0.029170
0.444325 0.598853 -0.029353
0.454359 0.608870 -0.030278
0.462547 0.615507 -0.030951
0.463799 0.610131 -0.030726
0.461529 0.598924 -0.030055
0.464082 0.596111 -0.029999
0.468735 0.596910 -0.030205
0.475091 0.600569 -0.030618
0.471010 0.587161 -0.029733
-0.335712 0.592694 -0.019029
-0.336321 0.600869 -0.019552
-0.334302 0.604252 -0.019780
-0.329646 0.602676 -0.019701
-0.326387 0.603891 -0.019781
-0.322918 0.604794 -0.019835
-0.319108 0.605103 -0.019845
-0.314778 0.604430 -0.019789
-0.310636 0.604181 -0.019752
-0.306562 0.604120 -0.019720
-0.302621 0.604376 -0.019701
-0.298795 0.604917 -0.019694
-0.294934 0.605421 -0.019681
-0.291215 0.606268 -0.019684
-0.287438 0.607019 -0.019678
-0.282165 0.604453 -0.019471
-0.279031 0.606657 -0.019546
-0.275039 0.606944 -0.019506
-0.270849 0.606767 -0.019436
-0.266727 0.606727 -0.019374
-0.263272 0.608249 -0.019403
-0.258359 0.606262 -0.019225
-0.254881 0.607703 -0.019249
-0.251222 0.608697 -0.019247
-0.246692 0.607485 -0.019117
-0.242947 0.608201 -0.019100
-0.238830 0.607931 -0.019027
-0.234953 0.608231 -0.018989
-0.230688 0.607460 -0.018890
-0.226631 0.607177 -0.018821
-0.223029 0.608082 -0.018823
-0.219130 0.608132 -0.018778
-0.214988 0.607440 -0.018691
-0.210819 0.606598 -0.018598
-0.207291 0.607540 -0.018611
-0.203411 0.607418 -0.018564
-0.199713 0.607780 -0.018548
-0.195899 0.607743 -0.018510
-0.192206 0.608026 -0.018494
-0.188515 0.608268 -0.018478
-0.184015 0.605865 -0.018311
-0.180528 0.606635 -0.018330
-0.176829 0.606670 -0.018308
-0.172968 0.606107 -0.018255
-0.169343 0.606283 -0.018246
-0.166044 0.607552 -0.018303
-0.162423 0.607671 -0.018296
-0.158596 0.606993 -0.018245
-0.154799 0.606351 -0.018198
-0.151197 0.606367 -0.018191
-0.147952 0.607708 -0.018263
-0.144197 0.607059 -0.018222
-0.140708 0.607394 -0.018240
-0.136940 0.606566 -0.018193
-0.133559 0.607261 -0.018236
-0.130622 0.609824 -0.018388
-0.126084 0.605522 -0.018147
-0.123056 0.607668 -0.018279
-0.119404 0.607050 -0.018253
-0.115912 0.607102 -0.018268
-0.112398 0.607008 -0.018277
-0.108880 0.606854 -0.018283
-0.105616 0.607914 -0.018361
-0.102134 0.607882 -0.018378
-0.098643 0.607763 -0.018391
-0.095006 0.606825 -0.018359
-0.091690 0.607558 -0.018425
-0.088301 0.607890 -0.018468
-0.084707 0.607021 -0.018444
-0.081309 0.607234 -0.018484
-0.077809 0.606806 -0.018488
-0.074421 0.607030 -0.018531
-0.070805 0.605758 -0.018489
-0.067755 0.608155 -0.018660
-0.064407 0.608632 -0.018722
-0.060850 0.607619 -0.018698
-0.057469 0.607805 -0.018745
-0.054065 0.607806 -0.018782
-0.050510 0.606593 -0.018749
-0.047106 0.606500 -0.018783
-0.043702 0.606368 -0.018816
-0.040622 0.609100 -0.019016
-0.037117 0.608095 -0.019000
-0.033531 0.606195 -0.018932
-0.030090 0.605558 -0.018938
-0.027303 0.611848 -0.019352
-0.023735 0.609986 -0.019288
-0.020319 0.609698 -0.019318
-0.016855 0.608754 -0.019310
-0.013309 0.606590 -0.019230
-0.009933 0.606543 -0.019276
-0.006478 0.605266 -0.019249
-0.002987 0.603204 -0.019177
-0.000012 0.609963 -0.019628
0.003347 0.610474 -0.019710
0.006803 0.609011 -0.019675
0.010248 0.607501 -0.019638
0.013476 0.611354 -0.019920
0.016884 0.610839 -0.019944
0.020354 0.607972 -0.019827
0.023602 0.613370 -0.020205
0.027177 0.604179 -0.019711
0.030513 0.605706 -0.019858
0.033842 0.609541 -0.020144
0.037217 0.611418 -0.020314
0.040611 0.605335 -0.020006
0.043977 0.605440 -0.020070
0.047349 0.606099 -0.020167
0.050765 0.609388 -0.020425
0.054263 0.615447 -0.020851
0.057625 0.613155 -0.020772
0.060968 0.610882 -0.020695
0.064363 0.610860 -0.020755
0.067714 0.609641 -0.020742
0.070992 0.606889 -0.020636
0.074266 0.604599 -0.020559
0.077634 0.604532 -0.020617
0.081020 0.604787 -0.020696
0.084364 0.604277 -0.020728
0.087735 0.604232 -0.020789
0.091662 0.612137 -0.021338
0.095064 0.611987 -0.021395
0.098374 0.610657 -0.021379
0.101849 0.611433 -0.021493
0.104570 0.603594 -0.021076
0.107992 0.604036 -0.021170
0.111323 0.603493 -0.021204
0.114621 0.602648 -0.021219
0.118495 0.607225 -0.021572
0.121915 0.607351 -0.021650
0.125096 0.605400 -0.021599
0.128870 0.608458 -0.021860
0.132316 0.608664 -0.021945
0.135476 0.606655 -0.021892
0.139019 0.607591 -0.022023
0.142588 0.608621 -0.022162
0.145751 0.606767 -0.022120
0.148979 0.605448 -0.022113
0.152320 0.604913 -0.022155
0.155733 0.604844 -0.022228
0.159065 0.604260 -0.022268
0.162484 0.604199 -0.022343
0.166232 0.606017 -0.022539
0.170314 0.609586 -0.022847
0.173737 0.609348 -0.022914
0.176556 0.605887 -0.022777
0.179570 0.603581 -0.022713
0.183329 0.605132 -0.022898
0.187621 0.609219 -0.023247
0.190407 0.605817 -0.023116
0.193707 0.604973 -0.023151
0.197046 0.604316 -0.023199
0.200514 0.604243 -0.023286
0.204008 0.604263 -0.023380
0.207355 0.603613 -0.023433
0.212428 0.610267 -0.023962
0.215926 0.610090 -0.024049
0.218985 0.608108 -0.024020
0.221887 0.605542 -0.023953
0.224596 0.602288 -0.023842
0.228123 0.602263 -0.023944
0.231912 0.603192 -0.024112
0.235155 0.602032 -0.024143
0.240522 0.608593 -0.024688
0.244087 0.608458 -0.024791
0.247318 0.607123 -0.024817
0.250221 0.604667 -0.024770
0.253470 0.603426 -0.024805
0.256308 0.600821 -0.024751
0.260163 0.601591 -0.024925
0.262670 0.597957 -0.024804
0.266334 0.598064 -0.024938
0.270873 0.600856 -0.025256
0.276005 0.605333 -0.025692
0.279216 0.603830 -0.025725
0.283635 0.605917 -0.026006
0.288395 0.608899 -0.026351
0.291776 0.607766 -0.026417
0.293471 0.601826 -0.026154
0.295845 0.597918 -0.026032
0.301595 0.603392 -0.026562
0.307165 0.608168 -0.027049
0.309312 0.603584 -0.026887
0.312464 0.601735 -0.026918
0.316265 0.601579 -0.027070
0.320016 0.601246 -0.027213
0.323917 0.601254 -0.027383
0.328162 0.602068 -0.027613
0.333448 0.605375 -0.028024
0.337224 0.604869 -0.028168
0.340305 0.602653 -0.028192
0.342681 0.598775 -0.028098
0.347567 0.600813 -0.028433
0.351498 0.600540 -0.028604
0.355311 0.599955 -0.028755
0.360986 0.603521 -0.029213
0.366471 0.606522 -0.029633
0.371016 0.607336 -0.029898
0.370124 0.596315 -0.029290
0.374929 0.597697 -0.029599
0.379915 0.599379 -0.029933
0.385003 0.601188 -0.030280
0.388620 0.599883 -0.030395
0.391614 0.597304 -0.030415
0.395633 0.596809 -0.030593
0.401049 0.599065 -0.030980
0.407245 0.602770 -0.031479
0.409548 0.598814 -0.031394
0.407793 0.587146 -0.030712
0.413047 0.589013 -0.031067
0.421479 0.596780 -0.031879
0.426862 0.598717 -0.032240
0.431098 0.598510 -0.032431
0.435321 0.598289 -0.032617
0.440104 0.599090 -0.032880
0.444969 0.600038 -0.033149
0.457866 0.615077 -0.034529
0.461702 0.614109 -0.034638
0.462478 0.607945 -0.034326
0.462203 0.600166 -0.033873
0.464945 0.597671 -0.033831
0.468657 0.596903 -0.033918
0.471602 0.594948 -0.033899
0.486349 0.612404 -0.035437
-0.337940 0.596878 -0.022856
-0.336626 0.601414 -0.023185
-0.333484 0.602625 -0.023288
-0.330235 0.603744 -0.023377
-0.326481 0.603979 -0.023399
-0.322425 0.603700 -0.023379
-0.318684 0.604117 -0.023396
-0.315003 0.604731 -0.023419
-0.310810 0.604367 -0.023370
-0.306509 0.603821 -0.023304
-0.302811 0.604570 -0.023315
-0.299189 0.605533 -0.023335
-0.295374 0.606134 -0.023327
-0.291546 0.606739 -0.023314
-0.287682 0.607297 -0.023295
-0.283320 0.606761 -0.023202
-0.279923 0.608392 -0.023246
-0.275742 0.608265 -0.023175
-0.270947 0.606696 -0.023010
-0.267613 0.608503 -0.023060
-0.263206 0.607779 -0.022948
-0.258611 0.606553 -0.022803
-0.255224 0.608219 -0.022843
-0.251411 0.608837 -0.022817
-0.247219 0.608481 -0.022729
-0.242652 0.607114 -0.022578
-0.239187 0.608519 -0.022605
-0.235014 0.608055 -0.022514
-0.230812 0.607450 -0.022417
-0.227092 0.608083 -0.022399
-0.223360 0.608649 -0.022379
-0.218973 0.607351 -0.022243
-0.215157 0.607577 -0.022206
-0.211407 0.607943 -0.022180
-0.207428 0.607598 -0.022111
-0.203509 0.607366 -0.022052
-0.199699 0.607397 -0.022012
-0.195952 0.607564 -0.021982
-0.192292 0.607954 -0.021969
-0.187619 0.605099 -0.021756
-0.183828 0.604926 -0.021713
-0.180550 0.606368 -0.021773
-0.177121 0.607305 -0.021804
-0.173387 0.607188 -0.021772
-0.169496 0.606473 -0.021705
-0.165925 0.606804 -0.021705
-0.162630 0.608074 -0.021767
-0.159205 0.608870 -0.021801
-0.154955 0.606593 -0.021646
-0.151506 0.607200 -0.021673
-0.147888 0.607129 -0.021660
-0.144468 0.607783 -0.021694
-0.140836 0.607571 -0.021677
-0.137512 0.608557 -0.021736
-0.133543 0.606863 -0.021630
-0.130015 0.606921 -0.021636
-0.127196 0.610000 -0.021831
-0.122859 0.606463 -0.021617
-0.119400 0.606698 -0.021640
-0.115895 0.606685 -0.021648
-0.112364 0.606508 -0.021649
-0.109068 0.607421 -0.021719
-0.105679 0.607882 -0.021763
-0.102341 0.608581 -0.021823
-0.098471 0.606520 -0.021713
-0.094975 0.606305 -0.021720
-0.091640 0.606932 -0.021780
-0.088323 0.607649 -0.021848
-0.084842 0.607433 -0.021859
-0.081346 0.607082 -0.021863
-0.078186 0.608728 -0.021994
-0.074351 0.606205 -0.021864
-0.070916 0.606090 -0.021887
-0.067829 0.608255 -0.022054
-0.064390 0.608103 -0.022078
-0.060985 0.608162 -0.022115
-0.057624 0.608524 -0.022173
-0.054203 0.608424 -0.022203
-0.050505 0.606106 -0.022094
-0.047076 0.605786 -0.022113
-0.043787 0.606620 -0.022205
-0.040577 0.608209 -0.022345
-0.037224 0.608577 -0.022410
-0.033544 0.605789 -0.022276
-0.030325 0.607399 -0.022422
-0.027010 0.608136 -0.022513
-0.023766 0.609722 -0.022658
-0.020403 0.610055 -0.022726
-0.017010 0.610038 -0.022771
-0.013449 0.607754 -0.022674
-0.009944 0.605950 -0.022607
-0.006554 0.605620 -0.022635
-0.003092 0.604062 -0.022586
0.000066 0.607632 -0.022864
0.003336 0.609676 -0.023046
0.006842 0.607054 -0.022930
0.010248 0.606256 -0.022931
0.013312 0.614306 -0.023501
0.016782 0.612344 -0.023429
0.020207 0.611297 -0.023417
0.023762 0.604332 -0.023023
0.027076 0.606706 -0.023232
0.030431 0.607726 -0.023354
0.033768 0.611725 -0.023669
0.037164 0.611233 -0.023694
0.040556 0.610229 -0.023687
0.043926 0.606067 -0.023476
0.047309 0.607585 -0.023633
0.050695 0.608244 -0.023735
0.054137 0.611555 -0.024010
0.057592 0.614097 -0.024237
0.060908 0.610691 -0.024076
0.064300 0.610596 -0.024131
0.067688 0.610393 -0.024180
0.070926 0.606623 -0.023995
0.074234 0.605097 -0.023957
0.077605 0.605052 -0.024017
0.080975 0.604965 -0.024075
0.084305 0.604215 -0.024090
0.087651 0.603790 -0.024126
0.091649 0.612758 -0.024784
0.095050 0.612552 -0.024837
0.098366 0.611266 -0.024818
0.101792 0.611432 -0.024897
0.104701 0.605709 -0.024584
0.108031 0.605060 -0.024609
0.111283 0.603656 -0.024584
0.114541 0.602418 -0.024570
0.118484 0.607655 -0.024990
0.121633 0.605341 -0.024906
0.125139 0.606251 -0.025038
0.128798 0.608330 -0.025250
0.132219 0.608343 -0.025323
0.135530 0.607500 -0.025340
0.139070 0.608381 -0.025474
0.142675 0.609643 -0.025635
0.145948 0.608516 -0.025635
0.149023 0.606111 -0.025549
0.152463 0.606198 -0.025633
0.156114 0.607581 -0.025805
0.159347 0.606311 -0.025799
0.162484 0.604524 -0.025757
0.166241 0.606383 -0.025966
0.169751 0.606735 -0.026073
0.173192 0.606666 -0.026152
0.176761 0.607262 -0.026278
0.179925 0.605695 -0.026256
0.182589 0.601651 -0.026065
0.187007 0.606443 -0.026484
0.190186 0.605001 -0.026474
0.193511 0.604288 -0.026516
0.196879 0.603782 -0.026573
0.200193 0.603019 -0.026614
0.204024 0.604547 -0.026816
0.207450 0.604232 -0.026891
0.211769 0.607680 -0.027230
0.215240 0.607444 -0.027315
0.218684 0.607070 -0.027391
0.222050 0.606371 -0.027446
0.224709 0.602905 -0.027307
0.228308 0.603141 -0.027431
0.232001 0.603685 -0.027578
0.235398 0.603083 -0.027647
0.240611 0.609064 -0.028185
0.244620 0.610500 -0.028403
0.247105 0.606508 -0.028237
0.249836 0.603468 -0.028139
0.253816 0.604718 -0.028350
0.257057 0.603428 -0.028382
0.259170 0.598448 -0.028149
0.261833 0.595363 -0.028054
0.266186 0.597689 -0.028353
0.272283 0.605338 -0.029041
0.276269 0.606225 -0.029243
0.279460 0.604641 -0.029267
0.283265 0.604887 -0.029427
0.286833 0.604386 -0.029535
0.290213 0.603313 -0.029604
0.294034 0.603478 -0.029767
0.296857 0.600797 -0.029722
0.301790 0.603970 -0.030113
0.308460 0.611726 -0.030851
0.309131 0.603128 -0.030373
0.312496 0.601842 -0.030442
0.316456 0.602093 -0.030630
0.319508 0.599955 -0.030640
0.324338 0.602327 -0.030995
0.328132 0.601995 -0.031148
0.331969 0.601728 -0.031309
0.336902 0.604078 -0.031674
0.340511 0.603138 -0.031791
0.343585 0.600901 -0.031810
0.347824 0.601394 -0.032043
0.351829 0.601282 -0.032232
0.355391 0.600112 -0.032342
0.360645 0.602725 -0.032750
0.363754 0.600459 -0.032779
0.364086 0.592115 -0.032332
0.373318 0.603192 -0.033417
0.376082 0.600122 -0.033388
0.380175 0.599889 -0.033587
0.383546 0.598112 -0.033663
0.387841 0.598241 -0.033893
0.391773 0.597589 -0.034062
0.396908 0.599333 -0.034425
0.400926 0.598786 -0.034604
0.406081 0.600455 -0.034963
0.408869 0.597469 -0.034942
0.411434 0.594103 -0.034888
0.416617 0.595761 -0.035244
0.423046 0.599704 -0.035788
0.427576 0.600035 -0.036032
0.431357 0.598989 -0.036159
0.435174 0.598038 -0.036288
0.440479 0.599786 -0.036639
0.444378 0.599025 -0.036775
0.453500 0.607469 -0.037680
0.450919 0.595455 -0.036851
0.459207 0.602403 -0.037618
0.463293 0.602110 -0.037764
0.465404 0.598551 -0.037622
0.467887 0.595743 -0.037532
0.471783 0.595385 -0.037642
0.483495 0.607893 -0.038845
-0.340724 0.602109 -0.026796
-0.336574 0.601281 -0.026774
-0.333578 0.602751 -0.026903
-0.329048 0.601362 -0.026822
-0.325296 0.601557 -0.026842
-0.322303 0.603339 -0.026964
-0.318855 0.604321 -0.027022
-0.315306 0.605186 -0.027063
-0.311283 0.605157 -0.027034
-0.307009 0.604662 -0.026966
-0.303373 0.605536 -0.026987
-0.299677 0.606341 -0.026997
-0.295625 0.606428 -0.026952
-0.291666 0.606744 -0.026919
-0.288118 0.607985 -0.026945
-0.284485 0.609076 -0.026958
-0.280279 0.608904 -0.026881
-0.276670 0.610085 -0.026895
-0.272637 0.610304 -0.026840
-0.266868 0.606432 -0.026502
-0.262958 0.606863 -0.026460
-0.259291 0.607862 -0.026458
-0.255380 0.608263 -0.026413
-0.251614 0.609000 -0.026393
-0.247185 0.608051 -0.026257
-0.243070 0.607833 -0.026173
-0.238704 0.606915 -0.026042
-0.235369 0.608631 -0.026093
-0.231287 0.608360 -0.026009
-0.227318 0.608338 -0.025944
-0.223545 0.608797 -0.025914
-0.219384 0.608137 -0.025811
-0.215362 0.607799 -0.025731
-0.211643 0.608263 -0.025708
-0.207732 0.608128 -0.025647
-0.203397 0.606675 -0.025499
-0.199705 0.607057 -0.025478
-0.196239 0.608085 -0.025503
-0.192130 0.607094 -0.025394
-0.188237 0.606695 -0.025328
-0.184754 0.607546 -0.025348
-0.180724 0.606583 -0.025249
-0.177310 0.607580 -0.025285
-0.173729 0.607991 -0.025284
-0.169562 0.606350 -0.025147
-0.166003 0.606726 -0.025148
-0.162657 0.607821 -0.025200
-0.159222 0.608582 -0.025232
-0.155395 0.607872 -0.025168
-0.151775 0.607863 -0.025153
-0.148058 0.607437 -0.025113
-0.144686 0.608289 -0.025160
-0.141097 0.608266 -0.025151
-0.137092 0.606503 -0.025028
-0.133776 0.607481 -0.025091
-0.130323 0.607874 -0.025116
-0.126794 0.607914 -0.025120
-0.123170 0.607489 -0.025095
-0.119569 0.607109 -0.025075
-0.116037 0.606990 -0.025075
-0.112638 0.607450 -0.025115
-0.109052 0.606990 -0.025095
-0.105664 0.607450 -0.025139
-0.102101 0.607010 -0.025124
-0.098624 0.606953 -0.025137
-0.095066 0.606427 -0.025120
-0.091597 0.606327 -0.025133
-0.088241 0.606820 -0.025187
-0.084874 0.607243 -0.025239
-0.081514 0.607697 -0.025294
-0.078244 0.608694 -0.025387
-0.074769 0.608433 -0.025397
-0.071170 0.607329 -0.025351
-0.067549 0.605976 -0.025290
-0.064263 0.606815 -0.025378
-0.061017 0.607963 -0.025489
-0.057708 0.608704 -0.025573
-0.054289 0.608631 -0.025603
-0.050613 0.606497 -0.025496
-0.047160 0.606008 -0.025500
-0.043889 0.607011 -0.025607
-0.040591 0.607833 -0.025702
-0.037179 0.607644 -0.025730
-0.033547 0.605280 -0.025611
-0.030310 0.606691 -0.025750
-0.027015 0.607594 -0.025855
-0.023662 0.607932 -0.025923
-0.020540 0.611039 -0.026180
-0.017103 0.610521 -0.026191
-0.013428 0.606748 -0.025981
-0.009975 0.605630 -0.025953
-0.006553 0.604791 -0.025944
-0.003244 0.605677 -0.026054
0.000026 0.607391 -0.026222
0.003311 0.609111 -0.026391
0.006772 0.607419 -0.026327
0.010109 0.608270 -0.026438
0.013212 0.615546 -0.026992
0.016676 0.613940 -0.026936
0.020354 0.604236 -0.026321
0.023666 0.606148 -0.026508
0.026995 0.608181 -0.026704
0.030335 0.610691 -0.026934
0.033714 0.611742 -0.027064
0.037094 0.614366 -0.027304
0.040502 0.610526 -0.027096
0.043884 0.608715 -0.027029
0.047245 0.606445 -0.026930
0.050625 0.607100 -0.027035
0.054088 0.611883 -0.027429
0.057572 0.615592 -0.027749
0.061075 0.618724 -0.028030
0.064337 0.613451 -0.027723
0.067595 0.609363 -0.027499
0.070874 0.606691 -0.027375
0.074193 0.605375 -0.027345
0.077555 0.605142 -0.027393
0.080921 0.604980 -0.027445
0.084229 0.603860 -0.027431
0.087593 0.603750 -0.027489
0.091269 0.608109 -0.027863
0.094905 0.611349 -0.028159
0.098275 0.610829 -0.028190
0.101767 0.611804 -0.028327
0.104589 0.605071 -0.027917
0.107921 0.604475 -0.027943
0.111217 0.603554 -0.027947
0.114485 0.602409 -0.027936
0.118629 0.609522 -0.028515
0.121975 0.608889 -0.028542
0.124875 0.604468 -0.028297
0.128468 0.606070 -0.028485
0.132054 0.607483 -0.028661
0.135459 0.607379 -0.028728
0.138888 0.607447 -0.028809
0.142622 0.609663 -0.029045
0.146144 0.610245 -0.029165
0.149121 0.607134 -0.029018
0.152905 0.609412 -0.029263
0.156202 0.608475 -0.029275
0.159687 0.608717 -0.029375
0.162386 0.604262 -0.029132
0.165766 0.603954 -0.029193
0.169495 0.605600 -0.029397
0.173353 0.607838 -0.029647
0.176913 0.608351 -0.029772
0.180100 0.606876 -0.029752
0.184002 0.609067 -0.030002
0.186961 0.606464 -0.029901
0.189899 0.603856 -0.029801
0.193299 0.603521 -0.029869
0.196742 0.603374 -0.029953
0.200082 0.602735 -0.030002
0.203816 0.603838 -0.030181
0.207627 0.605202 -0.030382
0.211139 0.605210 -0.030484
0.215582 0.609050 -0.030874
0.219137 0.609094 -0.030983
0.222048 0.606538 -0.030898
0.224905 0.603836 -0.030803
0.228340 0.603420 -0.030882
0.231573 0.602223 -0.030904
0.235265 0.602736 -0.031057
0.239863 0.606485 -0.031457
0.244597 0.610548 -0.031885
0.246803 0.605575 -0.031628
0.250253 0.605019 -0.031709
0.254105 0.605807 -0.031895
0.257766 0.605892 -0.032029
0.259635 0.600066 -0.031712
0.261397 0.594049 -0.031380
0.266787 0.599678 -0.031949
0.272650 0.606561 -0.032619
0.275950 0.605319 -0.032664
0.279227 0.604002 -0.032706
0.281365 0.599294 -0.032485
0.285031 0.599160 -0.032623
0.292057 0.608681 -0.033521
0.295480 0.607629 -0.033595
0.298427 0.605228 -0.033565
0.304085 0.610333 -0.034131
0.309977 0.615875 -0.034737
0.309639 0.604506 -0.034003
0.312394 0.601583 -0.033941
0.316494 0.602197 -0.034165
0.320160 0.601629 -0.034297
0.323583 0.600410 -0.034379
0.327921 0.601458 -0.034648
0.331387 0.600277 -0.034740
0.335520 0.600696 -0.034965
0.340811 0.603833 -0.035415
0.344277 0.602513 -0.035506
0.347662 0.600983 -0.035581
0.351391 0.600235 -0.035724
0.355552 0.600438 -0.035948
0.359794 0.600769 -0.036186
0.361516 0.595447 -0.035956
0.365945 0.596142 -0.036229
0.372820 0.602063 -0.036944
0.377847 0.603842 -0.037315
0.380275 0.600048 -0.037219
0.383974 0.598953 -0.037352
0.387000 0.596456 -0.037366
0.393420 0.600887 -0.037973
0.398686 0.602858 -0.038372
0.403010 0.602877 -0.038605
0.407378 0.602956 -0.038843
0.409881 0.599392 -0.038764
0.414467 0.599882 -0.039036
0.420530 0.603147 -0.039549
0.425897 0.605024 -0.039940
0.426895 0.598760 -0.039612
0.430954 0.598247 -0.039786
0.435059 0.597835 -0.039963
0.439699 0.598407 -0.040223
0.443622 0.597715 -0.040365
0.452204 0.605239 -0.041235
0.453798 0.600510 -0.041002
0.458101 0.600574 -0.041189
0.462571 0.600968 -0.041398
0.464072 0.596412 -0.041148
0.467654 0.595472 -0.041215
0.470834 0.593955 -0.041218
0.473563 0.591799 -0.041151
-0.344228 0.608700 -0.030890
-0.336415 0.600947 -0.030347
-0.333056 0.601692 -0.030429
-0.331024 0.605119 -0.030703
-0.326383 0.603589 -0.030595
-0.322264 0.603140 -0.030558
-0.319045 0.604557 -0.030652
-0.315463 0.605340 -0.030690
-0.312034 0.606513 -0.030749
-0.308565 0.607685 -0.030801
-0.304368 0.607402 -0.030737
-0.299975 0.606736 -0.030638
-0.296016 0.607015 -0.030605
-0.291776 0.606716 -0.030523
-0.288401 0.608327 -0.030579
-0.284933 0.609781 -0.030620
-0.280283 0.608608 -0.030463
-0.275087 0.606147 -0.030208
-0.271627 0.607639 -0.030244
-0.266852 0.606064 -0.030052
-0.263413 0.607606 -0.030090
-0.259738 0.608594 -0.030086
-0.255533 0.608286 -0.029986
-0.251555 0.608497 -0.029925
-0.247374 0.608164 -0.029824
-0.243105 0.607558 -0.029705
-0.239263 0.607995 -0.029663
-0.235042 0.607405 -0.029548
-0.231659 0.608979 -0.029593
-0.227538 0.608558 -0.029493
-0.223592 0.608551 -0.029426
-0.219916 0.609245 -0.029412
-0.215572 0.608018 -0.029261
-0.211791 0.608313 -0.029223
-0.208207 0.609136 -0.029226
-0.203552 0.606759 -0.028999
-0.199795 0.606954 -0.028961
-0.196141 0.607411 -0.028945
-0.192897 0.609103 -0.029021
-0.188988 0.608696 -0.028947
-0.185007 0.607987 -0.028855
-0.181169 0.607666 -0.028793
-0.177479 0.607772 -0.028765
-0.173879 0.608131 -0.028758
-0.170192 0.608150 -0.028729
-0.166164 0.606926 -0.028613
-0.162591 0.607224 -0.028609
-0.159096 0.607762 -0.028625
-0.155716 0.608694 -0.028672
-0.150840 0.603988 -0.028317
-0.148413 0.608437 -0.028621
-0.144512 0.607248 -0.028523
-0.140891 0.607087 -0.028501
-0.137354 0.607209 -0.028501
-0.133809 0.607258 -0.028499
-0.130386 0.607780 -0.028533
-0.126731 0.607281 -0.028496
-0.123271 0.607576 -0.028518
-0.119793 0.607758 -0.028534
-0.116239 0.607560 -0.028525
-0.112603 0.606920 -0.028486
-0.109169 0.607191 -0.028514
-0.105556 0.606548 -0.028479
-0.102134 0.606805 -0.028510
-0.098806 0.607522 -0.028576
-0.095388 0.607763 -0.028610
-0.091828 0.607205 -0.028588
-0.088304 0.606787 -0.028578
-0.084894 0.606965 -0.028612
-0.081611 0.607874 -0.028700
-0.078160 0.607780 -0.028718
-0.074781 0.608106 -0.028768
-0.071225 0.607274 -0.028735
-0.067558 0.605618 -0.028645
-0.064183 0.605835 -0.028691
-0.061041 0.607698 -0.028857
-0.057766 0.608683 -0.028961
-0.054149 0.607106 -0.028882
-0.050670 0.606481 -0.028872
-0.047281 0.606517 -0.028911
-0.043951 0.607041 -0.028987
-0.040650 0.607842 -0.029084
-0.037247 0.607739 -0.029117
-0.033649 0.605715 -0.029011
-0.030327 0.606283 -0.029094
-0.027131 0.608234 -0.029279
-0.024081 0.612021 -0.029599
-0.020905 0.614703 -0.029840
-0.017080 0.609532 -0.029510
-0.013496 0.606930 -0.029367
-0.010021 0.605497 -0.029310
-0.006604 0.604746 -0.029303
-0.003265 0.605134 -0.029381
-0.000138 0.609339 -0.029739
0.003177 0.610658 -0.029887
0.006564 0.610686 -0.029941
0.009894 0.612067 -0.030095
0.013334 0.610873 -0.030061
0.016810 0.608227 -0.029920
0.020222 0.606972 -0.029882
0.023535 0.609412 -0.030117
0.026877 0.611534 -0.030330
0.030255 0.612529 -0.030460
0.033643 0.613431 -0.030584
0.037050 0.612372 -0.030564
0.040448 0.612434 -0.030627
0.043826 0.607770 -0.030340
0.047169 0.603913 -0.030113
0.050587 0.608263 -0.030496
0.054031 0.611737 -0.030816
0.057535 0.616393 -0.031224
0.061000 0.618006 -0.031407
0.064425 0.617900 -0.031462
0.067570 0.610170 -0.030948
0.070796 0.606131 -0.030709
0.074130 0.605210 -0.030703
0.077507 0.605265 -0.030772
0.080838 0.604483 -0.030778
0.084145 0.603387 -0.030761
0.087498 0.603132 -0.030807
0.091091 0.606343 -0.031116
0.094587 0.607819 -0.031295
0.098168 0.610184 -0.031542
0.101941 0.614544 -0.031941
0.104557 0.605330 -0.031313
0.107786 0.603619 -0.031253
0.111166 0.603594 -0.031321
0.114723 0.605275 -0.031520
0.118671 0.610438 -0.031985
0.122118 0.610661 -0.032076
0.125255 0.608195 -0.031961
0.128358 0.605614 -0.031838
0.132298 0.609849 -0.032238
0.135387 0.607252 -0.032115
0.138810 0.607273 -0.032194
0.142260 0.607470 -0.032287
0.146177 0.610852 -0.032626
0.149883 0.612587 -0.032840
0.152750 0.608762 -0.032626
0.156556 0.611041 -0.032884
0.159342 0.606936 -0.032650
0.162376 0.604519 -0.032546
0.165897 0.605011 -0.032669
0.169838 0.607814 -0.032973
0.173852 0.610848 -0.033298
0.177329 0.610839 -0.033386
0.181295 0.613343 -0.033673
0.184548 0.612088 -0.033667
0.187329 0.608531 -0.033481
0.189706 0.603160 -0.033153
0.193159 0.603087 -0.033243
0.196783 0.603777 -0.033394
0.200365 0.604226 -0.033528
0.203694 0.603502 -0.033571
0.206599 0.600946 -0.033470
0.212039 0.609205 -0.034229
0.216370 0.612498 -0.034598
0.219328 0.610043 -0.034510
0.221986 0.606452 -0.034334
0.224843 0.603748 -0.034229
0.228332 0.603537 -0.034325
0.231742 0.603002 -0.034397
0.235094 0.602236 -0.034453
0.240646 0.609453 -0.035154
0.244107 0.608920 -0.035234
0.247560 0.608343 -0.035312
0.250664 0.606541 -0.035293
0.253939 0.605341 -0.035325
0.257572 0.605338 -0.035457
0.260250 0.602166 -0.035332
0.262818 0.598701 -0.035185
0.267141 0.600872 -0.035501
0.270827 0.600941 -0.035649
0.275394 0.603672 -0.036019
0.278316 0.601303 -0.035971
0.280776 0.597589 -0.035813
0.286505 0.603520 -0.036459
0.292897 0.611138 -0.037251
0.296517 0.610607 -0.037369
0.298751 0.606157 -0.037161
0.303864 0.609736 -0.037629
0.306979 0.607730 -0.037632
0.309516 0.604179 -0.037506
0.312626 0.602194 -0.037515
0.316201 0.601427 -0.037629
0.320141 0.601568 -0.037825
0.323698 0.600682 -0.037936
0.328430 0.602707 -0.038299
0.331632 0.600852 -0.038334
0.335959 0.601731 -0.038607
0.341503 0.605456 -0.039130
0.342931 0.599281 -0.038799
0.347329 0.600159 -0.039083
0.351300 0.599974 -0.039277
0.355160 0.599492 -0.039449
0.359932 0.601021 -0.039801
0.363795 0.600446 -0.039970
0.366816 0.597989 -0.039976
0.372845 0.602055 -0.040563
0.376997 0.601961 -0.040783
0.381038 0.601592 -0.040981
0.384958 0.600939 -0.041156
0.392207 0.607112 -0.041948
0.396093 0.606260 -0.042109
0.399082 0.603591 -0.042104
0.403254 0.603303 -0.042316
0.408263 0.604638 -0.042677
0.413049 0.605484 -0.042992
0.416851 0.604408 -0.043130
0.422982 0.607753 -0.043675
0.426198 0.605557 -0.043705
0.427104 0.599127 -0.043335
0.430802 0.597957 -0.043449
0.435984 0.599511 -0.043814
0.439613 0.598263 -0.043911
0.442602 0.595930 -0.043898
0.451779 0.604531 -0.044913
0.457081 0.606260 -0.045272
0.458019 0.600501 -0.044909
0.459503 0.595835 -0.044639
0.464319 0.596929 -0.044907
0.466871 0.594286 -0.044807
0.470246 0.593120 -0.044837
0.481467 0.604890 -0.046100
-0.337315 0.595673 -0.033481
-0.335895 0.599928 -0.033860
-0.333019 0.601567 -0.034019
-0.330480 0.603985 -0.034230
-0.327022 0.604740 -0.034297
-0.322904 0.604283 -0.034257
-0.318697 0.603714 -0.034199
-0.315595 0.605439 -0.034315
-0.312120 0.606501 -0.034370
-0.308474 0.607288 -0.034395
-0.304709 0.607890 -0.034397
-0.300006 0.606556 -0.034239
-0.296276 0.607313 -0.034242
-0.292583 0.608191 -0.034249
-0.288089 0.607349 -0.034115
-0.283981 0.607354 -0.034044
-0.280134 0.607952 -0.034017
-0.275871 0.607614 -0.033913
-0.271082 0.606038 -0.033709
-0.267133 0.606378 -0.033656
-0.263896 0.608401 -0.033734
-0.260072 0.609040 -0.033702
-0.255596 0.608073 -0.033543
-0.251558 0.608130 -0.033466
-0.247760 0.608757 -0.033433
-0.243286 0.607640 -0.033266
-0.239217 0.607492 -0.033175
-0.235505 0.608233 -0.033155
-0.231017 0.606884 -0.032974
-0.227750 0.608741 -0.033045
-0.224077 0.609490 -0.033031
-0.219968 0.608996 -0.032923
-0.215853 0.608419 -0.032811
-0.211996 0.608509 -0.032753
-0.208280 0.608956 -0.032726
-0.204689 0.609733 -0.032726
-0.199733 0.606379 -0.032410
-0.196090 0.606870 -0.032394
-0.192847 0.608561 -0.032474
-0.189170 0.608883 -0.032450
-0.184822 0.607010 -0.032260
-0.181223 0.607458 -0.032252
-0.177594 0.607771 -0.032236
-0.173926 0.607907 -0.032209
-0.170151 0.607627 -0.032153
-0.166284 0.606964 -0.032070
-0.162685 0.607176 -0.032058
-0.159161 0.607618 -0.032065
-0.155277 0.606699 -0.031971
-0.152206 0.608746 -0.032107
-0.147536 0.604702 -0.031779
-0.144236 0.605799 -0.031847
-0.140777 0.606258 -0.031868
-0.137403 0.607036 -0.031917
-0.134024 0.607777 -0.031965
-0.130210 0.606662 -0.031873
-0.126692 0.606739 -0.031875
-0.123286 0.607266 -0.031914
-0.119878 0.607765 -0.031952
-0.116263 0.607290 -0.031918
-0.112645 0.606741 -0.031881
-0.109237 0.607138 -0.031918
-0.105808 0.607411 -0.031948
-0.102253 0.607023 -0.031929
-0.098818 0.607200 -0.031955
-0.095471 0.607816 -0.032017
-0.092080 0.608191 -0.032061
-0.088666 0.608415 -0.032097
-0.084987 0.607100 -0.032016
-0.081573 0.607247 -0.032048
-0.078230 0.607797 -0.032114
-0.074741 0.607435 -0.032111
-0.071325 0.607494 -0.032141
-0.067623 0.605622 -0.032025
-0.064256 0.605897 -0.032076
-0.061229 0.608584 -0.032313
-0.057756 0.608156 -0.032312
-0.054094 0.606224 -0.032196
-0.050696 0.606202 -0.032229
-0.047344 0.606539 -0.032291
-0.044037 0.607268 -0.032384
-0.040689 0.607660 -0.032453
-0.037301 0.607701 -0.032495
-0.033763 0.606264 -0.032425
-0.030509 0.607552 -0.032566
-0.027035 0.606601 -0.032535
-0.024212 0.612845 -0.033062
-0.021139 0.616798 -0.033413
-0.017174 0.610010 -0.032933
-0.013643 0.608140 -0.032835
-0.010148 0.606513 -0.032756
-0.006759 0.606257 -0.032784
-0.003254 0.604054 -0.032662
-0.000193 0.609348 -0.033124
0.003103 0.611035 -0.033306
0.006433 0.612321 -0.033459
0.010002 0.608246 -0.033193
0.013425 0.607025 -0.033151
0.016721 0.609269 -0.033380
0.020028 0.611906 -0.033641
0.023469 0.609901 -0.033540
0.026835 0.610859 -0.033671
0.030189 0.613306 -0.033920
0.033589 0.613427 -0.033987
0.036997 0.612118 -0.033943
0.040393 0.612468 -0.034029
0.043754 0.603549 -0.033385
0.047157 0.608676 -0.033849
0.050548 0.609417 -0.033968
0.053967 0.611237 -0.034174
0.057411 0.613378 -0.034405
0.060840 0.614182 -0.034531
0.064309 0.615993 -0.034738
0.067753 0.616646 -0.034854
0.070703 0.605196 -0.034008
0.074069 0.605058 -0.034062
0.077444 0.605110 -0.034131
0.080808 0.604913 -0.034180
0.084061 0.602900 -0.034086
0.087438 0.603056 -0.034165
0.091068 0.606798 -0.034532
0.094553 0.608102 -0.034704
0.097995 0.608688 -0.034820
0.101716 0.612516 -0.035198
0.104098 0.600760 -0.034323
0.107956 0.606032 -0.034818
0.111263 0.605140 -0.034817
0.114570 0.604310 -0.034823
0.118272 0.607228 -0.035132
0.121849 0.608747 -0.035329
0.125184 0.608055 -0.035347
0.128708 0.608949 -0.035496
0.131863 0.606835 -0.035401
0.135593 0.609239 -0.035674
0.138859 0.608036 -0.035654
0.142401 0.608856 -0.035801
0.146118 0.610813 -0.036041
0.149781 0.612261 -0.036241
0.153327 0.612842 -0.036372
0.156065 0.608283 -0.036082
0.159399 0.607607 -0.036111
0.162936 0.608144 -0.036241
0.166906 0.611128 -0.036574
0.170785 0.613414 -0.036851
0.174165 0.612834 -0.036893
0.177374 0.611341 -0.036861
0.180522 0.609583 -0.036808
0.184382 0.611494 -0.037061
0.187401 0.609122 -0.036959
0.189742 0.603559 -0.036592
0.193162 0.603317 -0.036670
0.196862 0.604354 -0.036855
0.200408 0.604620 -0.036979
0.203883 0.604530 -0.037074
0.207213 0.603789 -0.037116
0.212461 0.611173 -0.037844
0.216491 0.613174 -0.038122
0.219411 0.610542 -0.038011
0.221841 0.606030 -0.037742
0.224901 0.604121 -0.037695
0.228223 0.603258 -0.037737
0.231919 0.603801 -0.037902
0.234840 0.601422 -0.037820
0.240157 0.607797 -0.038487
0.243786 0.607886 -0.038620
0.248955 0.613335 -0.039216
0.251609 0.609892 -0.039052
0.254450 0.607161 -0.038951
0.257882 0.606452 -0.039025
0.260834 0.604152 -0.038965
0.264097 0.602891 -0.038996
0.266347 0.598416 -0.038751
0.271613 0.603447 -0.039335
0.275375 0.603661 -0.039503
0.278724 0.602576 -0.039560
0.282382 0.602401 -0.039700
0.287671 0.606964 -0.040260
0.292212 0.609185 -0.040619
0.295697 0.608290 -0.040706
0.298697 0.606015 -0.040674
0.302861 0.606972 -0.040932
0.307033 0.607875 -0.041189
0.308986 0.602750 -0.040910
0.312506 0.601864 -0.041013
0.316726 0.602776 -0.041281
0.319782 0.600619 -0.041276
0.323990 0.601390 -0.041538
0.327549 0.600468 -0.041650
0.331343 0.600097 -0.041816
0.337372 0.605121 -0.042478
0.341127 0.604503 -0.042630
0.343873 0.601456 -0.042561
0.347477 0.600443 -0.042682
0.351445 0.600245 -0.042881
0.355411 0.599998 -0.043079
0.360449 0.602114 -0.043500
0.365297 0.603706 -0.043877
0.369361 0.603490 -0.044088
0.372018 0.600188 -0.044011
0.375712 0.599138 -0.044147
0.380761 0.600930 -0.044554
0.384466 0.599835 -0.044690
0.388029 0.598433 -0.044797
0.391748 0.597348 -0.044935
0.397440 0.600218 -0.045453
0.401501 0.599753 -0.045652
0.405164 0.598492 -0.045774
0.408690 0.596971 -0.045868
0.419066 0.608598 -0.047242
0.422781 0.607324 -0.047360
0.424972 0.603220 -0.047196
0.427105 0.599099 -0.047025
0.431001 0.598301 -0.047176
0.436187 0.599870 -0.047555
0.439733 0.598483 -0.047636
0.443098 0.596828 -0.047682
0.451797 0.604594 -0.048662
0.455008 0.602710 -0.048670
0.456836 0.598533 -0.048439
0.459647 0.596161 -0.048377
0.463676 0.595944 -0.048520
0.467032 0.594672 -0.048546
0.470439 0.593575 -0.048577
0.473758 0.592429 -0.048590
-0.338977 0.598798 -0.037312
-0.335944 0.599993 -0.037455
-0.332967 0.601413 -0.037605
-0.329572 0.602146 -0.037685
-0.325883 0.602404 -0.037715
-0.322360 0.603079 -0.037769
-0.319765 0.605704 -0.037979
-0.315294 0.604659 -0.037867
-0.311753 0.605556 -0.037912
-0.308373 0.606863 -0.037983
-0.304111 0.606403 -0.037897
-0.300378 0.607094 -0.037901
-0.296358 0.607218 -0.037851
-0.291416 0.605370 -0.037629
-0.287861 0.606547 -0.037657
-0.284249 0.607637 -0.037674
-0.280147 0.607656 -0.037597
-0.276322 0.608305 -0.037570
-0.271618 0.606931 -0.037371
-0.267538 0.606969 -0.037289
-0.263682 0.607524 -0.037249
-0.260051 0.608614 -0.037253
-0.255394 0.607198 -0.037047
-0.251655 0.607984 -0.037025
-0.248051 0.609096 -0.037031
-0.243862 0.608712 -0.036913
-0.238950 0.606405 -0.036637
-0.235377 0.607497 -0.036645
-0.231582 0.607983 -0.036604
-0.227680 0.608147 -0.036538
-0.224057 0.609027 -0.036533
-0.220310 0.609541 -0.036501
-0.216143 0.608832 -0.036370
-0.212055 0.608270 -0.036254
-0.208256 0.608479 -0.036204
-0.204316 0.608224 -0.036118
-0.200677 0.608808 -0.036104
-0.196632 0.608118 -0.035989
-0.192961 0.608507 -0.035965
-0.188889 0.607591 -0.035837
-0.184785 0.606487 -0.035696
-0.181178 0.606913 -0.035684
-0.177731 0.607824 -0.035714
-0.174078 0.608020 -0.035688
-0.169931 0.606477 -0.035524
-0.166404 0.606987 -0.035530
-0.162725 0.606925 -0.035492
-0.158998 0.606637 -0.035439
-0.155643 0.607655 -0.035494
-0.151175 0.604482 -0.035212
-0.147588 0.604510 -0.035192
-0.144071 0.604765 -0.035194
-0.141134 0.607291 -0.035382
-0.137506 0.607063 -0.035349
-0.133971 0.607167 -0.035346
-0.130496 0.607482 -0.035363
-0.126870 0.607118 -0.035326
-0.123351 0.607163 -0.035325
-0.119802 0.607033 -0.035313
-0.116333 0.607225 -0.035328
-0.112801 0.607086 -0.035319
-0.109360 0.607339 -0.035344
-0.106022 0.608073 -0.035411
-0.102305 0.606886 -0.035323
-0.098721 0.606297 -0.035285
-0.095384 0.606949 -0.035351
-0.092124 0.608024 -0.035453
-0.088618 0.607741 -0.035446
-0.084993 0.606723 -0.035381
-0.081588 0.606917 -0.035417
-0.078258 0.607542 -0.035489
-0.074902 0.608014 -0.035551
-0.071289 0.606824 -0.035479
-0.067738 0.605943 -0.035433
-0.064504 0.607154 -0.035560
-0.061063 0.606944 -0.035572
-0.057642 0.606841 -0.035595
-0.054162 0.606260 -0.035579
-0.050672 0.605522 -0.035553
-0.047458 0.606974 -0.035706
-0.044087 0.607171 -0.035758
-0.040693 0.607155 -0.035794
-0.037271 0.606861 -0.035809
-0.033933 0.607336 -0.035888
-0.030502 0.606887 -0.035892
-0.027066 0.606317 -0.035887
-0.024023 0.610073 -0.036238
-0.021040 0.614941 -0.036683
-0.017226 0.609937 -0.036317
-0.013705 0.608211 -0.036221
-0.010278 0.607563 -0.036215
-0.006731 0.604993 -0.036051
-0.003470 0.606683 -0.036239
-0.000192 0.608345 -0.036426
0.002903 0.613806 -0.036928
0.006441 0.610973 -0.036746
0.009930 0.608645 -0.036606
0.013354 0.607447 -0.036560
0.016570 0.612172 -0.037005
0.019952 0.612640 -0.037099
0.023494 0.606579 -0.036651
0.026788 0.610463 -0.037030
0.030138 0.613053 -0.037303
0.033532 0.613608 -0.037407
0.036930 0.614544 -0.037543
0.040338 0.613205 -0.037491
0.043737 0.612512 -0.037493
0.047119 0.610588 -0.037393
0.050519 0.611341 -0.037516
0.053924 0.611865 -0.037622
0.057344 0.612848 -0.037767
0.060781 0.614035 -0.037930
0.064171 0.613414 -0.037941
0.067496 0.611148 -0.037815
0.070634 0.604845 -0.037349
0.073991 0.604548 -0.037389
0.077410 0.605509 -0.037535
0.080748 0.604822 -0.037544
0.084040 0.603443 -0.037494
0.087388 0.603116 -0.037534
0.091140 0.608624 -0.038068
0.094681 0.610564 -0.038302
0.098186 0.611804 -0.038478
0.101368 0.609011 -0.038311
0.104509 0.606028 -0.038129
0.107856 0.605544 -0.038159
0.111192 0.604969 -0.038183
0.114430 0.603475 -0.038128
0.117974 0.604945 -0.038328
0.121486 0.605986 -0.038492
0.124879 0.605902 -0.038561
0.128439 0.607178 -0.038747
0.132141 0.609467 -0.039022
0.135676 0.610286 -0.039171
0.139351 0.612064 -0.039405
0.142625 0.610837 -0.039380
0.145976 0.610198 -0.039407
0.149265 0.609167 -0.039401
0.152807 0.609809 -0.039541
0.156366 0.610503 -0.039686
0.159787 0.610287 -0.039754
0.163194 0.609977 -0.039815
0.166888 0.611313 -0.040020
0.170710 0.613278 -0.040283
0.173897 0.611639 -0.040231
0.175564 0.601956 -0.039477
0.178461 0.599123 -0.039322
0.183478 0.607148 -0.040121
0.186749 0.606128 -0.040129
0.190059 0.605313 -0.040156
0.193371 0.604515 -0.040185
0.196713 0.603865 -0.040230
0.200406 0.604802 -0.040416
0.203795 0.604326 -0.040479
0.207175 0.603800 -0.040539
0.213014 0.613688 -0.041528
0.216531 0.613502 -0.041623
0.219267 0.610111 -0.041435
0.221957 0.606638 -0.041241
0.224918 0.604324 -0.041151
0.228280 0.603604 -0.041206
0.231628 0.602826 -0.041257
0.235415 0.603663 -0.041456
0.240306 0.608444 -0.042014
0.244794 0.611583 -0.042427
0.247852 0.609563 -0.042377
0.251432 0.609371 -0.042494
0.253736 0.604822 -0.042218
0.256789 0.602883 -0.042181
0.261174 0.605330 -0.042546
0.264576 0.604490 -0.042614
0.267170 0.601075 -0.042449
0.271043 0.601713 -0.042658
0.275763 0.604888 -0.043104
0.279040 0.603562 -0.043139
0.282751 0.603522 -0.043295
0.287228 0.605683 -0.043659
0.289687 0.601909 -0.043475
0.293198 0.601189 -0.043578
0.298133 0.604434 -0.044055
0.303506 0.608742 -0.044637
0.307130 0.608121 -0.044760
0.308911 0.602527 -0.044418
0.312242 0.601137 -0.044474
0.315771 0.600254 -0.044582
0.320336 0.602004 -0.044943
0.324096 0.601614 -0.045104
0.327481 0.600247 -0.045176
0.331226 0.599753 -0.045335
0.336400 0.602696 -0.045827
0.341170 0.604541 -0.046219
0.344323 0.602452 -0.046235
0.347425 0.600248 -0.046242
0.350736 0.598534 -0.046299
0.355410 0.599914 -0.046661
0.362748 0.607196 -0.047606
0.364727 0.602353 -0.047366
0.369218 0.603086 -0.047676
0.372113 0.600304 -0.047641
0.374791 0.597079 -0.047562
0.380297 0.599859 -0.048083
0.384705 0.600241 -0.048368
0.388905 0.600147 -0.048607
0.393885 0.601604 -0.049003
0.397898 0.601053 -0.049198
0.401434 0.599538 -0.049294
0.405983 0.600021 -0.049594
0.410371 0.600158 -0.049857
0.420167 0.610641 -0.051180
0.425199 0.611848 -0.051553
0.422776 0.599058 -0.050478
0.427508 0.599806 -0.050794
0.431169 0.598582 -0.050901
0.435670 0.598917 -0.051165
0.439885 0.598752 -0.051370
0.443764 0.598019 -0.051508
0.449554 0.600687 -0.051996
0.456381 0.605138 -0.052664
0.459878 0.603823 -0.052716
0.460739 0.598098 -0.052289
0.463963 0.596527 -0.052290
0.466479 0.593867 -0.052162
0.471090 0.594788 -0.052402
0.477183 0.598193 -0.052895
-0.342758 0.605919 -0.041532
-0.336690 0.601386 -0.041168
-0.333188 0.601787 -0.041235
-0.330452 0.603777 -0.041434
-0.326059 0.602647 -0.041341
-0.322315 0.602865 -0.041358
-0.319127 0.604275 -0.041471
-0.315552 0.605007 -0.041514
-0.312124 0.606118 -0.041582
-0.308301 0.606497 -0.041574
-0.304524 0.607029 -0.041573
-0.300502 0.607096 -0.041522
-0.296696 0.607667 -0.041510
-0.292151 0.606674 -0.041352
-0.288332 0.607273 -0.041331
-0.284237 0.607284 -0.041254
-0.280293 0.607646 -0.041203
-0.276069 0.607376 -0.041093
-0.272257 0.608047 -0.041065
-0.268384 0.608581 -0.041022
-0.264043 0.608001 -0.040879
-0.259503 0.606905 -0.040690
-0.255468 0.606982 -0.040604
-0.251701 0.607696 -0.040575
-0.247683 0.607765 -0.040489
-0.243948 0.608519 -0.040464
-0.240292 0.609457 -0.040456
-0.235504 0.607412 -0.040188
-0.231631 0.607695 -0.040126
-0.227585 0.607468 -0.040022
-0.223951 0.608314 -0.040013
-0.220136 0.608634 -0.039961
-0.216239 0.608678 -0.039887
-0.212222 0.608324 -0.039781
-0.208021 0.607373 -0.039626
-0.204278 0.607689 -0.039584
-0.200732 0.608551 -0.039592
-0.197098 0.609116 -0.039578
-0.193204 0.608842 -0.039493
-0.189179 0.608086 -0.039370
-0.185002 0.606765 -0.039200
-0.181145 0.606389 -0.039116
-0.177863 0.607847 -0.039194
-0.174464 0.608908 -0.039240
-0.170452 0.607851 -0.039106
-0.166664 0.607484 -0.039034
-0.162746 0.606592 -0.038921
-0.159104 0.606609 -0.038888
-0.155655 0.607292 -0.038916
-0.152268 0.608179 -0.038964
-0.147759 0.604761 -0.038645
-0.144687 0.606762 -0.038794
-0.140825 0.605658 -0.038679
-0.137368 0.606100 -0.038700
-0.133988 0.606836 -0.038749
-0.130603 0.607532 -0.038797
-0.126960 0.607102 -0.038750
-0.123431 0.607111 -0.038744
-0.119972 0.607392 -0.038763
