ply
format ascii 1.0
comment ---
element vertex 1708
property float x
property float y
property float z
element face 0
property list uchar uint vertex_indices
end_header
1.107232 0.597917 -0.066510
1.111271 0.596821 -0.066808
1.118425 0.598319 -0.067531
1.121439 0.596281 -0.067686
1.129861 0.598699 -0.068576
1.134371 0.597814 -0.068932
1.141220 0.598788 -0.069603
1.146370 0.598322 -0.070042
1.152974 0.598966 -0.070676
1.158933 0.599031 -0.071220
1.163443 0.597903 -0.071570
1.167760 0.596588 -0.071893
1.176240 0.598425 -0.072767
1.178992 0.595820 -0.072881
1.187019 0.597163 -0.073690
1.194607 0.598090 -0.074439
1.201050 0.598089 -0.075034
1.206587 0.597360 -0.075510
1.213791 0.597781 -0.076201
1.217927 0.595930 -0.076491
1.224583 0.595828 -0.077108
1.231898 0.596118 -0.077807
1.238775 0.596026 -0.078448
1.248263 0.597653 -0.079422
1.252444 0.595565 -0.079712
1.257865 0.594276 -0.080160
1.266958 0.595380 -0.081076
1.272138 0.593804 -0.081490
1.283305 0.596085 -0.082662
1.288882 0.594630 -0.083123
1.296912 0.594689 -0.083892
1.304792 0.594569 -0.084639
1.310457 0.592984 -0.085106
1.321465 0.594652 -0.086239
1.327545 0.593186 -0.086753
1.337346 0.593919 -0.087729
1.343982 0.592656 -0.088307
1.355269 0.594090 -0.089459
1.366228 0.595217 -0.090565
1.378195 0.596819 -0.091790
1.387104 0.596552 -0.092634
1.394336 0.595261 -0.093268
1.404492 0.595556 -0.094256
1.418847 0.598093 -0.095752
1.428339 0.597836 -0.096648
1.435684 0.596351 -0.097278
1.443549 0.595110 -0.097967
1.457932 0.597282 -0.099440
1.466539 0.596323 -0.100207
1.479682 0.597677 -0.101515
1.486596 0.595764 -0.102067
1.495406 0.594808 -0.102841
1.508304 0.595878 -0.104097
1.515980 0.594308 -0.104723
1.523678 0.592756 -0.105345
1.532930 0.591969 -0.106146
1.565259 0.602225 -0.109667
0.582029 0.596434 -0.027187
0.584304 0.599393 -0.027584
0.586682 0.602818 -0.028019
0.588806 0.602924 -0.028189
0.590254 0.595916 -0.027782
0.592396 0.595859 -0.027934
0.594671 0.596746 -0.028163
0.596936 0.597238 -0.028358
0.599241 0.597814 -0.028561
0.601500 0.597780 -0.028712
0.603771 0.597669 -0.028857
0.606669 0.602160 -0.029384
0.608900 0.601336 -0.029470
0.611048 0.599862 -0.029500
0.613430 0.599986 -0.029664
0.615799 0.599935 -0.029813
0.618141 0.599636 -0.029941
0.620407 0.598818 -0.030024
0.623587 0.603494 -0.030576
0.625484 0.600365 -0.030463
0.628023 0.601022 -0.030673
0.631029 0.604183 -0.031101
0.632991 0.601543 -0.031028
0.636248 0.605790 -0.031553
0.637874 0.601491 -0.031336
0.639716 0.598469 -0.031228
0.641843 0.596958 -0.031252
0.643430 0.592957 -0.031056
0.647770 0.601858 -0.032000
0.651200 0.606231 -0.032549
0.654120 0.608153 -0.032883
0.655934 0.605207 -0.032783
0.657387 0.600853 -0.032556
0.659195 0.598148 -0.032476
0.663797 0.606875 -0.033430
0.666345 0.607085 -0.033616
0.666730 0.598852 -0.033035
0.669737 0.600946 -0.033394
0.672783 0.603103 -0.033761
0.675743 0.604854 -0.034093
0.677349 0.601642 -0.033969
0.680184 0.602895 -0.034258
0.682638 0.602765 -0.034421
0.684809 0.601660 -0.034493
0.687348 0.601824 -0.034685
0.690044 0.602487 -0.034926
0.692515 0.602382 -0.035096
0.694651 0.601197 -0.035164
0.696990 0.600675 -0.035296
0.701375 0.606491 -0.036036
0.704071 0.606960 -0.036267
0.706261 0.605878 -0.036351
0.709356 0.607489 -0.036696
0.711598 0.606550 -0.036795
0.713210 0.603816 -0.036720
0.715395 0.602761 -0.036809
0.718285 0.603680 -0.037093
0.720351 0.602292 -0.037151
0.722593 0.601397 -0.037258
0.725259 0.601640 -0.037479
0.728464 0.603274 -0.037841
0.730985 0.603064 -0.038021
0.733432 0.602647 -0.038181
0.737097 0.605296 -0.038653
0.740694 0.607682 -0.039102
0.742125 0.604656 -0.039001
0.744803 0.604710 -0.039215
0.746807 0.603123 -0.039262
0.749583 0.603379 -0.039500
0.752962 0.605009 -0.039882
0.756816 0.607668 -0.040375
0.759295 0.607104 -0.040533
0.761346 0.605567 -0.040591
0.763783 0.604900 -0.040740
0.767619 0.607287 -0.041215
0.771314 0.609284 -0.041652
0.775211 0.611637 -0.042130
0.778222 0.612033 -0.042402
0.780662 0.611201 -0.042543
0.785941 0.616217 -0.043319
0.786939 0.612357 -0.043135
0.791490 0.615719 -0.043739
0.791155 0.609239 -0.043266
0.792153 0.605502 -0.043092
0.794278 0.604019 -0.043166
0.798916 0.607376 -0.043778
0.802656 0.608921 -0.044193
0.801698 0.601557 -0.043611
0.804924 0.602114 -0.043916
0.808187 0.602700 -0.044227
0.810973 0.602373 -0.044436
0.814040 0.602531 -0.044703
0.817341 0.603070 -0.045015
0.819859 0.602190 -0.045165
0.825087 0.606021 -0.045862
0.829159 0.607745 -0.046320
0.830518 0.604776 -0.046233
0.832206 0.602393 -0.046213
0.834333 0.600766 -0.046282
0.837143 0.600267 -0.046484
0.841067 0.601572 -0.046903
0.845461 0.603578 -0.047408
0.848658 0.603595 -0.047679
0.849838 0.600386 -0.047563
0.853003 0.600324 -0.047826
0.856217 0.600308 -0.048097
0.859763 0.600772 -0.048428
0.862690 0.600253 -0.048641
0.866696 0.601339 -0.049053
0.866198 0.595661 -0.048630
0.870212 0.596720 -0.049042
0.875673 0.599840 -0.049715
0.879835 0.600989 -0.050146
0.883616 0.601537 -0.050504
0.889783 0.605424 -0.051289
0.890900 0.602119 -0.051164
0.891677 0.598374 -0.050980
0.894324 0.597242 -0.051130
0.900219 0.600524 -0.051853
0.903142 0.599702 -0.052048
0.908329 0.601887 -0.052637
0.910995 0.600664 -0.052784
0.913202 0.598832 -0.052851
0.917319 0.599479 -0.053247
0.918231 0.595964 -0.053092
0.922790 0.597123 -0.053561
0.927986 0.599031 -0.054134
0.931294 0.598513 -0.054384
0.935426 0.598990 -0.054772
0.939427 0.599266 -0.055135
0.945920 0.602524 -0.055911
0.948520 0.601010 -0.056035
0.950644 0.598925 -0.056082
0.956604 0.601367 -0.056759
0.963279 0.604563 -0.057547
0.965919 0.602997 -0.057673
0.966343 0.598886 -0.057441
0.966996 0.595078 -0.057249
0.969598 0.593496 -0.057372
0.975557 0.595649 -0.058032
0.981767 0.598003 -0.058728
0.987179 0.599406 -0.059292
0.989006 0.596862 -0.059287
0.994256 0.598003 -0.059821
1.000252 0.599879 -0.060469
1.004876 0.600238 -0.060899
1.005830 0.596722 -0.060757
1.008378 0.594882 -0.060863
1.014578 0.596777 -0.061533
1.019925 0.597733 -0.062068
1.026740 0.600111 -0.062824
1.032396 0.601248 -0.063399
1.036463 0.600756 -0.063730
1.036006 0.595807 -0.063376
1.043480 0.598594 -0.064220
1.045557 0.596106 -0.064249
1.052522 0.598272 -0.065010
1.059182 0.600067 -0.065721
1.061183 0.597435 -0.065737
1.065804 0.597231 -0.066142
1.074812 0.601008 -0.067191
1.077236 0.598692 -0.067268
1.081804 0.598300 -0.067659
1.085510 0.597100 -0.067924
1.090198 0.596743 -0.068330
1.096361 0.597634 -0.068948
1.100276 0.596513 -0.069240
1.108527 0.599084 -0.070154
1.111945 0.597447 -0.070371
1.119165 0.598993 -0.071131
1.123177 0.597779 -0.071431
1.128542 0.597654 -0.071922
1.133830 0.597413 -0.072400
1.142669 0.600004 -0.073378
1.146314 0.598315 -0.073621
1.151400 0.597748 -0.074066
1.158985 0.599104 -0.074858
1.163154 0.597707 -0.075172
1.167688 0.596559 -0.075536
1.174795 0.597342 -0.076255
1.181859 0.598016 -0.076965
1.189215 0.598831 -0.077713
1.193064 0.596957 -0.077977
1.199325 0.596831 -0.078571
1.206072 0.596994 -0.079229
1.214155 0.598050 -0.080067
1.220095 0.597483 -0.080610
1.225950 0.596796 -0.081141
1.232929 0.596838 -0.081822
1.237129 0.594878 -0.082127
1.246664 0.596546 -0.083146
1.253249 0.596100 -0.083768
1.259099 0.595091 -0.084289
1.267512 0.595731 -0.085150
1.271301 0.593232 -0.085394
1.283206 0.595997 -0.086712
1.289178 0.594795 -0.087241
1.299184 0.596111 -0.088300
1.305288 0.594851 -0.088842
1.312521 0.594240 -0.089530
1.319229 0.593233 -0.090148
1.326873 0.592736 -0.090885
1.337811 0.594159 -0.092046
1.346772 0.594283 -0.092947
1.354801 0.593768 -0.093723
1.360768 0.591974 -0.094231
1.375660 0.595304 -0.095883
1.386088 0.595922 -0.096955
1.394324 0.595205 -0.097741
1.405806 0.596244 -0.098937
1.412361 0.594454 -0.099500
1.427391 0.597270 -0.101135
1.435465 0.596187 -0.101881
1.443529 0.595055 -0.102621
1.457983 0.597267 -0.104161
1.469133 0.597641 -0.105276
1.479523 0.597559 -0.106289
1.486694 0.595782 -0.106892
1.494253 0.594197 -0.107538
1.506667 0.595037 -0.108783
1.518808 0.595690 -0.109985
1.525210 0.593495 -0.110467
1.533785 0.592378 -0.111211
1.558237 0.598868 -0.113905
0.581752 0.594446 -0.029183
0.583738 0.594231 -0.029330
0.586018 0.596879 -0.029717
0.588259 0.598509 -0.030019
0.589928 0.593929 -0.029791
0.592256 0.595771 -0.030110
0.594520 0.596593 -0.030340
0.596839 0.597602 -0.030587
0.599052 0.597404 -0.030728
0.601302 0.597325 -0.030879
0.603612 0.597558 -0.031057
0.606350 0.600866 -0.031504
0.607959 0.595546 -0.031193
0.610466 0.596818 -0.031461
0.613139 0.599037 -0.031813
0.615820 0.601086 -0.032151
0.617990 0.599651 -0.032179
0.620024 0.597400 -0.032134
0.622386 0.597204 -0.032272
0.625595 0.601927 -0.032853
0.627937 0.601417 -0.032964
0.630586 0.602602 -0.033230
0.633442 0.604807 -0.033589
0.635516 0.602780 -0.033563
0.638012 0.602993 -0.033743
0.639908 0.600191 -0.033645
0.641437 0.595730 -0.033392
0.645265 0.602372 -0.034168
0.647801 0.602713 -0.034363
0.651682 0.609110 -0.035124
0.653887 0.607806 -0.035169
0.655615 0.604489 -0.035024
0.657847 0.603438 -0.035091
0.660464 0.604023 -0.035315
0.663937 0.608054 -0.035868
0.666020 0.606386 -0.035880
0.667453 0.602241 -0.035655
0.669571 0.600869 -0.035695
0.672740 0.603487 -0.036121
0.675659 0.605076 -0.036450
0.677611 0.603105 -0.036435
0.680398 0.604159 -0.036715
0.682262 0.601948 -0.036677
0.685004 0.602808 -0.036942
0.687467 0.602692 -0.037111
0.690010 0.602830 -0.037308
0.692303 0.602138 -0.037423
0.694661 0.601664 -0.037560
0.696520 0.599617 -0.037542
0.700898 0.605432 -0.038314
0.704147 0.607604 -0.038724
0.706540 0.607120 -0.038868
0.709181 0.607368 -0.039087
0.712953 0.610886 -0.039643
0.713083 0.603827 -0.039117
0.714878 0.601665 -0.039091
0.717225 0.601086 -0.039229
0.719924 0.601469 -0.039469
0.722202 0.600684 -0.039588
0.724725 0.600551 -0.039776
0.728352 0.603310 -0.040269
0.732072 0.606210 -0.040781
0.736378 0.610510 -0.041446
0.740300 0.613702 -0.041998
0.742708 0.613011 -0.042139
0.745554 0.613391 -0.042397
0.744895 0.605230 -0.041737
0.746329 0.602269 -0.041633
0.748923 0.602105 -0.041832
0.752848 0.605024 -0.042369
0.756753 0.607801 -0.042894
0.759975 0.608927 -0.043241
0.760275 0.603428 -0.042861
0.763165 0.603791 -0.043127
0.767669 0.607658 -0.043784
0.772084 0.611210 -0.044412
0.775320 0.612125 -0.044748
0.775005 0.605482 -0.044236
0.777754 0.605370 -0.044458
0.780045 0.604288 -0.044571
0.782147 0.602817 -0.044641
0.784487 0.601830 -0.044767
0.790441 0.608046 -0.045722
0.790741 0.602946 -0.045377
0.792066 0.599930 -0.045270
0.796437 0.602822 -0.045851
0.801854 0.607611 -0.046659
0.801591 0.601567 -0.046200
0.805051 0.602560 -0.046567
0.807944 0.602457 -0.046807
0.810937 0.602511 -0.047068
0.813734 0.602181 -0.047284
0.816698 0.602123 -0.047535
0.819541 0.601824 -0.047758
0.826062 0.607915 -0.048757
0.830123 0.609600 -0.049229
0.830954 0.605709 -0.049022
0.832456 0.603002 -0.048958
0.836104 0.603906 -0.049338
0.839753 0.604761 -0.049716
0.844586 0.607506 -0.050331
0.848351 0.608432 -0.050724
0.849907 0.605770 -0.050670
0.849595 0.600172 -0.050244
0.853313 0.600980 -0.050625
0.856046 0.600211 -0.050809
0.858907 0.599623 -0.051017
0.862741 0.600496 -0.051414
0.868012 0.603483 -0.052087
0.869699 0.601037 -0.052061
0.873003 0.600995 -0.052347
0.877029 0.601977 -0.052770
0.881085 0.602951 -0.053194
0.884617 0.603124 -0.053517
0.887786 0.602747 -0.053769
0.890829 0.602169 -0.053995
0.891435 0.598184 -0.053767
0.892841 0.595347 -0.053691
0.897669 0.597195 -0.054247
0.902288 0.598692 -0.054760
0.905595 0.598377 -0.055029
0.908688 0.597752 -0.055259
0.915886 0.602486 -0.056228
0.916066 0.597988 -0.055928
0.917649 0.595350 -0.055883
0.924101 0.598924 -0.056706
0.929345 0.600876 -0.057308
0.932108 0.599659 -0.057469
0.935381 0.599064 -0.057718
0.938980 0.598845 -0.058023
0.944784 0.601271 -0.058710
0.950131 0.603070 -0.059312
0.952301 0.601019 -0.059363
0.954642 0.599174 -0.059444
0.958423 0.599011 -0.059771
0.963081 0.599831 -0.060246
0.965878 0.598468 -0.060402
0.974833 0.604088 -0.061596
0.975277 0.599994 -0.061353
0.977607 0.598042 -0.061428
0.983594 0.600128 -0.062112
0.987755 0.600142 -0.062489
0.990231 0.598293 -0.062586
0.992190 0.595888 -0.062599
0.997181 0.596714 -0.063108
1.003491 0.598878 -0.063829
1.008719 0.599835 -0.064371
1.013371 0.600139 -0.064815
1.017514 0.599878 -0.065176
1.021375 0.599297 -0.065490
1.028374 0.601843 -0.066304
1.034679 0.603611 -0.067002
1.036245 0.600626 -0.066946
1.034543 0.594459 -0.066377
1.044234 0.599406 -0.067602
1.046492 0.597083 -0.067657
1.053125 0.598922 -0.068394
1.058013 0.599040 -0.068857
1.062434 0.598676 -0.069245
1.065619 0.597131 -0.069441
1.070484 0.597110 -0.069895
1.075860 0.597507 -0.070425
1.080840 0.597496 -0.070893
1.086677 0.598202 -0.071489
1.090201 0.596804 -0.071732
1.094784 0.596311 -0.072135
1.100499 0.596760 -0.072707
1.107460 0.598221 -0.073463
1.111997 0.597541 -0.073853
1.119118 0.599000 -0.074626
1.123194 0.597837 -0.074945
1.128057 0.597294 -0.075379
1.133672 0.597323 -0.075923
1.140778 0.598506 -0.076683
1.147234 0.599088 -0.077345
1.150566 0.597115 -0.077549
1.155612 0.596472 -0.078002
1.163510 0.598010 -0.078868
1.168536 0.597237 -0.079315
1.173582 0.596432 -0.079763
1.179129 0.595960 -0.080282
1.186222 0.596596 -0.081022
1.192346 0.596433 -0.081620
1.201101 0.598146 -0.082590
1.205840 0.596828 -0.082987
1.214791 0.598510 -0.083979
1.220520 0.597784 -0.084512
1.225199 0.596259 -0.084896
1.232054 0.596216 -0.085584
1.237860 0.595373 -0.086124
1.247572 0.597155 -0.087207
1.253371 0.596165 -0.087741
1.260660 0.596120 -0.088481
1.267507 0.595704 -0.089157
1.271740 0.593494 -0.089469
1.283309 0.596033 -0.090792
1.287328 0.593567 -0.091072
1.295908 0.593982 -0.091977
1.305348 0.594849 -0.092995
1.314116 0.595195 -0.093918
1.321241 0.594433 -0.094614
1.334685 0.597468 -0.096163
1.341420 0.596293 -0.096799
1.348829 0.595463 -0.097523
1.355104 0.593895 -0.098091
1.367309 0.595749 -0.099453
1.377844 0.596513 -0.100584
1.387100 0.596446 -0.101540
1.395870 0.596025 -0.102425
1.407589 0.597185 -0.103698
1.416039 0.596434 -0.104531
1.429402 0.598315 -0.106008
1.435236 0.596009 -0.106485
1.447270 0.597006 -0.107773
1.457372 0.596895 -0.108800
1.468729 0.597384 -0.109984
1.478188 0.596826 -0.110912
1.485221 0.594991 -0.111518
1.492543 0.593300 -0.112155
1.506057 0.594704 -0.113589
1.519371 0.595947 -0.114986
1.525958 0.593846 -0.115506
1.533282 0.592128 -0.116114
1.552678 0.596208 -0.118263
0.580772 0.583935 -0.030408
0.583654 0.594615 -0.031522
0.585735 0.595096 -0.031734
0.587899 0.596054 -0.031987
0.589741 0.593349 -0.031910
0.592099 0.595534 -0.032272
0.594260 0.595454 -0.032428
0.596563 0.596388 -0.032676
0.598877 0.597127 -0.032905
0.601094 0.596815 -0.033038
0.603334 0.596530 -0.033173
0.605870 0.598361 -0.033502
0.608038 0.597232 -0.033557
0.610145 0.595630 -0.033567
0.613580 0.603120 -0.034423
0.615742 0.601610 -0.034442
0.618241 0.602273 -0.034664
0.620472 0.601169 -0.034720
0.623243 0.603330 -0.035084
0.625307 0.601180 -0.035040
0.627276 0.598566 -0.034952
0.629720 0.598694 -0.035124
0.632399 0.600056 -0.035414
0.635076 0.601314 -0.035696
0.637583 0.601616 -0.035887
0.640666 0.604761 -0.036355
0.643367 0.605879 -0.036628
0.644721 0.600541 -0.036274
0.648346 0.605971 -0.036970
0.651248 0.607865 -0.037324
0.653497 0.606778 -0.037386
0.655718 0.605612 -0.037441
0.658090 0.605125 -0.037563
0.660190 0.603526 -0.037576
0.663301 0.606098 -0.038005
0.665017 0.603001 -0.037869
0.666811 0.600322 -0.037775
0.669646 0.601728 -0.038092
0.672561 0.603373 -0.038435
0.675133 0.603685 -0.038645
0.677528 0.603337 -0.038790
0.679646 0.602007 -0.038835
0.682047 0.601702 -0.038986
0.684867 0.602831 -0.039286
0.687176 0.602193 -0.039405
0.689528 0.601702 -0.039541
0.692069 0.601832 -0.039742
0.694207 0.600656 -0.039809
0.696693 0.600599 -0.039993
0.700211 0.603731 -0.040515
0.703008 0.604547 -0.040796
0.705514 0.604445 -0.040982
0.709089 0.607498 -0.041505
0.711420 0.606812 -0.041633
0.711842 0.600643 -0.041172
0.714469 0.600881 -0.041398
0.716276 0.598804 -0.041376
0.718317 0.597410 -0.041428
0.721111 0.598078 -0.041705
0.723924 0.598755 -0.041986
0.727692 0.601909 -0.042541
0.735055 0.614293 -0.044120
0.738072 0.615179 -0.044436
0.740091 0.613499 -0.044469
0.741583 0.610522 -0.044357
0.742685 0.606643 -0.044144
0.744373 0.604264 -0.044097
0.746718 0.603497 -0.044232
0.748586 0.601597 -0.044240
0.752473 0.604435 -0.044787
0.755808 0.605904 -0.045183
0.758011 0.604731 -0.045277
0.759768 0.602559 -0.045257
0.761537 0.600440 -0.045243
0.766588 0.605548 -0.046070
0.770531 0.608104 -0.046604
0.771777 0.604795 -0.046455
0.773482 0.602508 -0.046425
0.776308 0.602593 -0.046675
0.779395 0.603186 -0.046987
0.781731 0.602205 -0.047114
0.783270 0.599608 -0.047048
0.788102 0.603613 -0.047776
0.789132 0.599999 -0.047588
0.792364 0.600733 -0.047927
0.795968 0.602138 -0.048350
0.801933 0.607979 -0.049318
0.801454 0.601520 -0.048784
0.804850 0.602396 -0.049149
0.807668 0.602158 -0.049379
0.810611 0.602121 -0.049636
0.813597 0.602135 -0.049901
0.816577 0.602106 -0.050163
0.819341 0.601669 -0.050374
0.824730 0.605788 -0.051165
0.827912 0.605980 -0.051462
0.830649 0.605378 -0.051660
0.833918 0.605659 -0.051973
0.837564 0.606531 -0.052364
0.843272 0.610762 -0.053192
0.846572 0.610935 -0.053500
0.849048 0.609740 -0.053632
0.849804 0.605782 -0.053402
0.847756 0.597430 -0.052590
0.852647 0.600105 -0.053230
0.855471 0.599487 -0.053438
0.858388 0.598991 -0.053663
0.864049 0.602650 -0.054447
0.868083 0.603754 -0.054893
0.872647 0.605594 -0.055442
0.876151 0.605800 -0.055774
0.878414 0.604158 -0.055856
0.881557 0.603791 -0.056113
0.883784 0.602086 -0.056187
0.887939 0.603117 -0.056640
0.890107 0.601306 -0.056702
0.889419 0.595530 -0.056209
0.891694 0.593913 -0.056295
0.895168 0.593930 -0.056612
0.897765 0.592732 -0.056759
0.904791 0.597444 -0.057749
0.909378 0.598805 -0.058268
0.911077 0.596321 -0.058239
0.918198 0.600891 -0.059227
0.920148 0.598695 -0.059243
0.923925 0.598833 -0.059598
0.927385 0.598535 -0.059893
0.931627 0.599188 -0.060330
0.934225 0.597761 -0.060463
0.938942 0.598924 -0.060982
0.944229 0.600724 -0.061600
0.951351 0.604659 -0.062545
0.951948 0.600720 -0.062311
0.953281 0.597688 -0.062212
0.957355 0.597881 -0.062602
0.961532 0.598153 -0.063008
0.963969 0.596393 -0.063105
0.975944 0.605462 -0.064877
0.979343 0.604679 -0.065135
0.973556 0.593635 -0.063795
0.984934 0.601714 -0.065440
0.994819 0.607974 -0.066815
0.998912 0.607805 -0.067185
0.994656 0.598636 -0.066126
0.996241 0.595813 -0.066071
1.001404 0.596776 -0.066625
1.009353 0.600592 -0.067646
1.015709 0.602651 -0.068391
1.019235 0.601734 -0.068659
1.018161 0.596123 -0.068157
1.024898 0.598435 -0.068960
1.032174 0.601201 -0.069846
1.034900 0.599382 -0.069977
1.036470 0.596425 -0.069918
1.044865 0.600097 -0.070977
1.048367 0.598961 -0.071233
1.048920 0.594996 -0.071009
1.058789 0.599845 -0.072295
1.061779 0.598135 -0.072464
1.065497 0.597086 -0.072751
1.071579 0.598180 -0.073415
1.076766 0.598395 -0.073933
1.081347 0.598013 -0.074352
1.084419 0.596247 -0.074531
1.091103 0.597657 -0.075280
1.097744 0.598955 -0.076018
1.101417 0.597607 -0.076288
1.106169 0.597160 -0.076726
1.111681 0.597317 -0.077281
1.117929 0.598041 -0.077948
1.122919 0.597648 -0.078417
1.126497 0.596041 -0.078668
1.134802 0.598284 -0.079644
1.138438 0.596639 -0.079901
1.144197 0.596676 -0.080482
1.151443 0.597839 -0.081286
1.157067 0.597643 -0.081841
1.163653 0.598142 -0.082540
1.168807 0.597463 -0.083020
1.174153 0.596884 -0.083528
1.179542 0.596285 -0.084041
1.187501 0.597565 -0.084936
1.191542 0.595840 -0.085245
1.198442 0.596189 -0.085977
1.206991 0.597666 -0.086950
1.213063 0.597257 -0.087554
1.219813 0.597270 -0.088256
1.225368 0.596367 -0.088781
1.232244 0.596334 -0.089497
1.238416 0.595740 -0.090108
1.246948 0.596704 -0.091060
1.251301 0.594733 -0.091403
1.261965 0.596969 -0.092657
1.267381 0.595588 -0.093150
1.273467 0.594597 -0.093739
1.281367 0.594729 -0.094585
1.285988 0.592661 -0.094960
1.298088 0.595330 -0.096399
1.304305 0.594143 -0.096996
1.312695 0.594257 -0.097900
1.321301 0.594418 -0.098830
1.324632 0.591265 -0.099013
1.340528 0.595697 -0.100962
1.350115 0.596173 -0.102017
1.354636 0.593557 -0.102359
1.367282 0.595671 -0.103833
1.375438 0.595057 -0.104675
1.387167 0.596420 -0.106008
1.395066 0.595505 -0.106805
1.410049 0.598498 -0.108576
1.418639 0.597809 -0.109456
1.430256 0.598719 -0.110747
1.434531 0.595567 -0.111025
1.448328 0.597513 -0.112601
1.457990 0.597165 -0.113604
1.467186 0.596524 -0.114536
1.476458 0.595883 -0.115472
1.485590 0.595136 -0.116381
1.492241 0.593109 -0.116948
1.509413 0.596350 -0.118925
1.518146 0.595316 -0.119756
1.526810 0.594245 -0.120570
1.535759 0.593316 -0.121413
1.543194 0.591668 -0.122046
0.582931 0.611551 -0.035083
0.583940 0.599304 -0.034121
0.586076 0.600225 -0.034382
0.587986 0.598308 -0.034376
0.590013 0.597396 -0.034461
0.592022 0.596088 -0.034507
0.594358 0.597640 -0.034823
0.596459 0.596721 -0.034903
0.598702 0.596870 -0.035083
0.600935 0.596721 -0.035234
0.603028 0.595302 -0.035261
0.606660 0.605546 -0.036415
0.608381 0.600889 -0.036129
0.610356 0.598235 -0.036034
0.612358 0.595835 -0.035961
0.616248 0.606035 -0.037123
0.618027 0.601938 -0.036884
0.620424 0.601885 -0.037041
0.623043 0.603112 -0.037326
0.625246 0.601779 -0.037356
0.626969 0.597746 -0.037117
0.629233 0.596899 -0.037194
0.632637 0.602227 -0.037892
0.634794 0.600692 -0.037902
0.637503 0.602048 -0.038204
0.640658 0.605540 -0.038724
0.643103 0.605397 -0.038878
0.645088 0.603056 -0.038807
0.647318 0.601955 -0.038864
0.650982 0.607400 -0.039593
0.653852 0.609070 -0.039938
0.656184 0.608326 -0.040035
0.658384 0.607049 -0.040078
0.661131 0.608095 -0.040362
0.662197 0.602245 -0.039928
0.664304 0.600774 -0.039950
0.666362 0.599165 -0.039958
0.669409 0.601405 -0.040373
0.672434 0.603468 -0.040772
0.675007 0.603776 -0.040988
0.677377 0.603331 -0.041124
0.679734 0.602846 -0.041257
0.682504 0.603814 -0.041548
0.684661 0.602627 -0.041608
0.686921 0.601821 -0.041710
0.689339 0.601552 -0.041872
0.691657 0.600955 -0.041999
0.693943 0.600262 -0.042116
0.696231 0.599583 -0.042236
0.699623 0.602341 -0.042736
0.702535 0.603526 -0.043066
0.705298 0.604213 -0.043343
0.708111 0.605010 -0.043635
0.711029 0.606070 -0.043958
0.711262 0.599362 -0.043411
0.712384 0.595354 -0.043164
0.715794 0.597827 -0.043649
0.718201 0.597450 -0.043815
0.720880 0.597802 -0.044064
0.726288 0.605422 -0.045148
0.727180 0.600900 -0.044845
0.729749 0.600841 -0.045054
0.732551 0.601360 -0.045332
0.735293 0.601692 -0.045590
0.738168 0.602323 -0.045886
0.739640 0.599458 -0.045773
0.744380 0.604586 -0.046601
0.746855 0.604125 -0.046774
0.749690 0.604502 -0.047048
0.750838 0.600901 -0.046851
0.754016 0.602052 -0.047220
0.758001 0.604987 -0.047806
0.760249 0.603914 -0.047914
0.762691 0.603271 -0.048075
0.766144 0.604838 -0.048505
0.769521 0.606175 -0.048910
0.771100 0.603599 -0.048840
0.773201 0.602165 -0.048909
0.775781 0.601737 -0.049102
0.778684 0.601958 -0.049378
0.781484 0.601938 -0.049625
0.782801 0.598895 -0.049497
0.788067 0.603775 -0.050361
0.792411 0.606695 -0.050986
0.791727 0.599714 -0.050362
0.798489 0.607219 -0.051574
0.802421 0.609130 -0.052082
0.800743 0.600396 -0.051230
0.804864 0.602635 -0.051782
0.807877 0.602751 -0.052064
0.810569 0.602251 -0.052269
0.813693 0.602511 -0.052574
0.816803 0.602710 -0.052873
0.819420 0.602005 -0.053055
0.824234 0.605120 -0.053743
0.826891 0.604413 -0.053930
0.830676 0.605617 -0.054372
0.835133 0.607900 -0.054962
0.839209 0.609467 -0.055461
0.843213 0.610851 -0.055939
0.846671 0.611281 -0.056291
0.848229 0.608595 -0.056221
0.848974 0.604629 -0.055976
0.847911 0.597847 -0.055342
0.851236 0.598062 -0.055666
0.854811 0.598630 -0.056042
0.856094 0.595631 -0.055924
0.858762 0.594770 -0.056103
0.867914 0.603663 -0.057653
0.874851 0.609043 -0.058721
0.878811 0.609887 -0.059155
0.880436 0.607272 -0.059101
0.881698 0.604151 -0.058973
0.885874 0.605233 -0.059447
0.889445 0.605405 -0.059794
0.890584 0.602126 -0.059643
0.891859 0.599070 -0.059523
0.894824 0.598366 -0.059745
0.896879 0.596406 -0.059784
0.903209 0.600220 -0.060675
0.910556 0.605289 -0.061760
0.907891 0.596975 -0.060861
0.910706 0.595971 -0.061047
0.916580 0.598927 -0.061830
0.919987 0.598622 -0.062127
0.923406 0.598304 -0.062425
0.927354 0.598627 -0.062822
0.930636 0.598078 -0.063089
0.933902 0.597489 -0.063352
0.938613 0.598646 -0.063888
0.945335 0.602189 -0.064799
0.949888 0.603025 -0.065295
0.951462 0.600261 -0.065231
0.952536 0.596927 -0.065077
0.956569 0.597079 -0.065472
0.960122 0.596636 -0.065777
0.964136 0.596697 -0.066165
0.974540 0.603981 -0.067717
0.980497 0.606087 -0.068449
0.988989 0.610947 -0.069634
0.996395 0.614478 -0.070614
0.998806 0.612442 -0.070691
0.998221 0.607159 -0.070233
1.005567 0.610453 -0.071192
1.001215 0.601203 -0.070071
1.005987 0.601702 -0.070571
1.011890 0.603336 -0.071267
1.017193 0.604279 -0.071853
1.017869 0.600424 -0.071629
1.017266 0.595302 -0.071187
1.023948 0.597565 -0.072009
1.031865 0.600977 -0.073038
1.034656 0.599223 -0.073182
1.036646 0.596677 -0.073189
1.039750 0.595216 -0.073387
1.048714 0.599369 -0.074578
1.053390 0.599322 -0.075037
1.057708 0.598896 -0.075434
1.061451 0.597897 -0.075734
1.067486 0.598993 -0.076415
1.071841 0.598483 -0.076813
1.076176 0.597919 -0.077207
1.080982 0.597743 -0.077676
1.085096 0.596906 -0.078031
1.090116 0.596839 -0.078533
1.097672 0.598942 -0.079447
1.102196 0.598330 -0.079862
1.106747 0.597701 -0.080281
1.112651 0.598185 -0.080917
1.116900 0.597213 -0.081284
1.122133 0.597028 -0.081808
1.126990 0.596483 -0.082271
1.135512 0.598896 -0.083315
1.139370 0.597423 -0.083614
1.145799 0.597988 -0.084320
1.152837 0.598971 -0.085119
1.156594 0.597288 -0.085398
1.163479 0.598022 -0.086168
1.168599 0.597315 -0.086658
1.174827 0.597409 -0.087320
1.180316 0.596878 -0.087865
1.188366 0.598217 -0.088805
1.192340 0.596432 -0.089112
1.200931 0.598018 -0.090129
1.206368 0.597203 -0.090658
1.212716 0.596994 -0.091325
1.219636 0.597129 -0.092077
1.224367 0.595639 -0.092493
1.230326 0.594969 -0.093096
1.236122 0.594124 -0.093671
1.247734 0.597215 -0.095122
1.252109 0.595249 -0.095479
1.263161 0.597738 -0.096836
1.266158 0.594734 -0.096983
1.276717 0.596696 -0.098258
1.280303 0.593989 -0.098491
1.293490 0.597452 -0.100148
1.298809 0.595738 -0.100634
1.304040 0.593921 -0.101105
1.315600 0.596015 -0.102507
1.320576 0.593909 -0.102936
1.331920 0.595658 -0.104295
1.338542 0.594430 -0.104960
1.347092 0.594297 -0.105902
1.359575 0.596411 -0.107411
1.369130 0.596682 -0.108488
1.380089 0.597677 -0.109763
1.387633 0.596614 -0.110540
1.395642 0.595758 -0.111379
1.409809 0.598290 -0.113097
1.417578 0.597150 -0.113890
1.427006 0.596870 -0.114914
1.434799 0.595644 -0.115700
1.449232 0.597930 -0.117422
1.457447 0.596815 -0.118254
1.467942 0.596861 -0.119401
1.474932 0.595039 -0.120046
1.489934 0.597309 -0.121810
1.502256 0.598130 -0.123187
1.510863 0.597039 -0.124034
1.517225 0.594832 -0.124560
1.527904 0.594759 -0.125679
1.534917 0.592895 -0.126280
1.532851 0.586715 -0.125620
0.580710 0.585889 -0.034815
0.583811 0.599188 -0.036292
0.585914 0.599806 -0.036532
0.587888 0.598624 -0.036594
0.589843 0.597021 -0.036612
0.592009 0.597282 -0.036812
0.594110 0.596637 -0.036921
0.596364 0.597161 -0.037144
0.598549 0.596820 -0.037280
0.600785 0.596719 -0.037439
0.603153 0.597499 -0.037686
0.605878 0.600779 -0.038185
0.608739 0.604698 -0.038751
0.611070 0.604449 -0.038894
0.612896 0.600639 -0.038671
0.615152 0.599842 -0.038755
0.617956 0.602547 -0.039199
0.619922 0.599788 -0.039080
0.621807 0.596641 -0.038918
0.624593 0.598924 -0.039320
0.627073 0.599293 -0.039524
0.630209 0.603252 -0.040104
0.632728 0.603628 -0.040311
0.634979 0.602552 -0.040366
0.637413 0.602443 -0.040523
0.640280 0.604495 -0.040910
0.642715 0.604318 -0.041061
0.644795 0.602451 -0.041033
0.647603 0.604046 -0.041376
0.651044 0.608434 -0.042021
0.653726 0.609248 -0.042285
0.656252 0.609341 -0.042473
0.658757 0.609332 -0.042651
0.661430 0.610015 -0.042905
0.664033 0.610378 -0.043127
0.664048 0.600385 -0.042214
0.667502 0.604243 -0.042819
0.669861 0.603740 -0.042947
0.672149 0.602982 -0.043048
0.675199 0.605058 -0.043465
0.678121 0.606585 -0.043823
0.679970 0.604229 -0.043750
0.682292 0.603598 -0.043870
0.684553 0.602771 -0.043969
0.686864 0.602130 -0.044091
0.689088 0.601207 -0.044181
0.692036 0.602670 -0.044544
0.694342 0.602005 -0.044666
0.695795 0.598658 -0.044482
0.699848 0.603483 -0.045237
0.702471 0.603765 -0.045473
0.704539 0.602352 -0.045515
0.707362 0.603204 -0.045821
0.710118 0.603815 -0.046101
0.714358 0.608665 -0.046880
0.717391 0.609928 -0.047243
0.717956 0.604239 -0.046788
0.720245 0.603445 -0.046910
0.722903 0.603651 -0.047152
0.727219 0.608268 -0.047922
0.727024 0.600834 -0.047254
0.729998 0.601830 -0.047595
0.732535 0.601653 -0.047797
0.734875 0.600960 -0.047939
0.737434 0.600810 -0.048147
0.739971 0.600586 -0.048348
0.743715 0.603279 -0.048909
0.747886 0.606902 -0.049589
0.750380 0.606434 -0.049768
0.751462 0.602652 -0.049537
0.753439 0.601004 -0.049570
0.758207 0.605739 -0.050402
0.760977 0.605830 -0.050657
0.762764 0.603706 -0.050635
0.765896 0.604561 -0.050989
0.769529 0.606456 -0.051479
0.771200 0.604073 -0.051426
0.773129 0.602265 -0.051447
0.775548 0.601498 -0.051601
0.778419 0.601656 -0.051876
0.781526 0.602265 -0.052212
0.783239 0.600016 -0.052178
0.791544 0.610950 -0.053867
0.793039 0.608167 -0.053769
0.795601 0.607498 -0.053949
0.795366 0.601421 -0.053414
0.800417 0.605531 -0.054228
0.800067 0.599337 -0.053674
0.804620 0.602393 -0.054354
0.807809 0.602837 -0.054689
0.810538 0.602402 -0.054907
0.813837 0.602976 -0.055263
0.816828 0.602956 -0.055542
0.819260 0.601922 -0.055683
0.825489 0.607507 -0.056735
0.826538 0.603998 -0.056540
0.830505 0.605516 -0.057041
0.835017 0.607893 -0.057664
0.838155 0.607892 -0.057960
0.840202 0.606055 -0.058001
0.844830 0.608452 -0.058638
0.847756 0.608009 -0.058879
0.848083 0.603378 -0.058525
0.850190 0.601636 -0.058580
0.851715 0.598985 -0.058505
0.854571 0.598425 -0.058731
0.858096 0.598875 -0.059104
0.863661 0.602392 -0.059926
0.869081 0.605587 -0.060707
0.874999 0.609428 -0.061590
0.881946 0.614680 -0.062688
0.878139 0.604074 -0.061449
0.880117 0.602019 -0.061468
0.884634 0.603611 -0.062033
0.888570 0.604317 -0.062469
0.890150 0.601668 -0.062403
0.893223 0.601114 -0.062653
0.896280 0.600518 -0.062898
0.901687 0.603104 -0.063631
0.907634 0.606338 -0.064470
0.911111 0.606174 -0.064792
0.912994 0.603870 -0.064785
0.910881 0.596337 -0.063965
0.915312 0.597416 -0.064482
0.919752 0.598453 -0.064997
0.923356 0.598372 -0.065340
0.927693 0.599185 -0.065827
0.930642 0.598214 -0.066035
0.933971 0.597699 -0.066317
0.940273 0.600805 -0.067184
0.946297 0.603481 -0.067989
0.950651 0.604064 -0.068461
0.952423 0.601526 -0.068429
0.951489 0.595808 -0.067875
0.955326 0.595741 -0.068246
0.960648 0.597359 -0.068899
0.964255 0.596945 -0.069221
0.976814 0.606676 -0.071239
0.980759 0.606492 -0.071613
0.989494 0.611618 -0.072887
0.985368 0.602405 -0.071742
0.988046 0.600773 -0.071877
0.990496 0.598887 -0.071970
0.994355 0.598512 -0.072324
0.997986 0.597864 -0.072634
1.005017 0.600775 -0.073566
1.009734 0.601177 -0.074069
1.015322 0.602435 -0.074728
1.015152 0.597728 -0.074340
1.017321 0.595444 -0.074379
1.027079 0.600799 -0.075781
1.032345 0.601538 -0.076370
1.039112 0.603705 -0.077224
1.036332 0.596446 -0.076378
1.039377 0.594928 -0.076570
1.047666 0.598435 -0.077685
1.051040 0.597156 -0.077931
1.057778 0.599030 -0.078764
1.060768 0.597324 -0.078940
1.065585 0.597296 -0.079434
1.071817 0.598522 -0.080169
1.076640 0.598399 -0.080658
1.082473 0.599141 -0.081318
1.085874 0.597653 -0.081560
1.088638 0.595582 -0.081693
1.094826 0.596499 -0.082407
1.103036 0.599103 -0.083460
1.106780 0.597771 -0.083755
1.112379 0.597992 -0.084361
1.116861 0.597216 -0.084777
1.123335 0.598065 -0.085525
1.127632 0.597044 -0.085908
1.135077 0.598567 -0.086810
1.142093 0.599657 -0.087638
1.146766 0.598786 -0.088077
1.152138 0.598431 -0.088629
1.156630 0.597331 -0.089036
1.162331 0.597136 -0.089639
1.167814 0.596715 -0.090204
1.174434 0.597112 -0.090952
1.179365 0.596157 -0.091424
1.190164 0.599565 -0.092838
1.193253 0.597105 -0.093011
1.199709 0.597108 -0.093722
1.205000 0.596193 -0.094245
1.212666 0.596941 -0.095143
1.218849 0.596546 -0.095804
1.224231 0.595519 -0.096336
1.233501 0.597165 -0.097478
1.240631 0.597220 -0.098280
1.247149 0.596778 -0.098984
1.251971 0.595117 -0.099421
1.259806 0.595438 -0.100325
1.265226 0.594068 -0.100852
1.270825 0.592764 -0.101405
1.281714 0.594857 -0.102772
1.291430 0.596067 -0.103953
1.297545 0.594872 -0.104577
1.305320 0.594667 -0.105453
1.314132 0.595031 -0.106483
1.321847 0.594626 -0.107342
1.331568 0.595372 -0.108502
1.340024 0.595253 -0.109466
1.347703 0.594587 -0.110308
1.358564 0.595735 -0.111625
1.365152 0.594275 -0.112294
1.377981 0.596377 -0.113894
1.385750 0.595456 -0.114730
1.398411 0.597245 -0.116291
1.405297 0.595685 -0.116985
1.416450 0.596447 -0.118307
1.430658 0.598791 -0.120072
1.437192 0.596863 -0.120696
1.448169 0.597289 -0.121968
1.458314 0.597205 -0.123110
1.467780 0.596711 -0.124143
1.474818 0.594921 -0.124815
1.490507 0.597547 -0.126739
1.501848 0.597876 -0.128018
1.509284 0.596209 -0.128722
1.515930 0.594158 -0.129304
1.523499 0.592580 -0.130011
1.533822 0.592350 -0.131106
1.564871 0.602030 -0.135157
0.580950 0.590203 -0.037372
0.583181 0.593258 -0.037868
0.585342 0.594840 -0.038213
0.587467 0.595538 -0.038466
0.589691 0.596833 -0.038780
0.591691 0.595533 -0.038824
0.593942 0.596397 -0.039090
0.596118 0.596265 -0.039252
0.598377 0.596624 -0.039463
0.600642 0.596797 -0.039654
0.603039 0.597830 -0.039934
0.605649 0.600252 -0.040362
0.608761 0.606061 -0.041150
0.611494 0.608652 -0.041598
0.613805 0.608048 -0.041705
0.615765 0.605047 -0.041555
0.617907 0.603327 -0.041540
0.620052 0.601662 -0.041529
0.621687 0.596935 -0.041186
0.624087 0.596950 -0.041355
0.627386 0.602066 -0.042080
0.629922 0.602614 -0.042310
0.632349 0.602512 -0.042469
0.634674 0.601851 -0.042567
0.637363 0.603072 -0.042873
0.639948 0.603695 -0.043114
0.642018 0.601752 -0.043072
0.645124 0.604834 -0.043589
0.648039 0.606870 -0.043992
0.650616 0.607266 -0.044214
0.653629 0.609572 -0.044653
0.655000 0.604626 -0.044275
0.657405 0.604291 -0.044418
0.659509 0.602704 -0.044419
0.660721 0.597536 -0.044012
0.665882 0.608363 -0.045432
0.667920 0.606514 -0.045408
0.669526 0.603067 -0.045199
0.672035 0.603150 -0.045396
0.675180 0.605576 -0.045868
0.677532 0.605018 -0.045995
0.679463 0.602974 -0.045950
0.681807 0.602441 -0.046082
0.684350 0.602597 -0.046297
0.686668 0.601978 -0.046421
0.689010 0.601447 -0.046557
0.691678 0.601985 -0.046822
0.693897 0.601051 -0.046913
0.695402 0.597876 -0.046737
0.700386 0.605609 -0.047869
0.702938 0.605637 -0.048082
0.704663 0.603157 -0.047993
0.707018 0.602604 -0.048137
0.710645 0.605770 -0.048736
0.714161 0.608502 -0.049286
0.715072 0.603748 -0.048922
0.717641 0.603745 -0.049141
0.720316 0.604016 -0.049395
0.724093 0.607252 -0.050019
0.728124 0.611055 -0.050718
0.727129 0.601465 -0.049751
0.729448 0.600743 -0.049887
0.732516 0.601941 -0.050267
0.734827 0.601168 -0.050400
0.737310 0.600823 -0.050589
0.740061 0.601125 -0.050862
0.742937 0.601698 -0.051171
0.747845 0.607113 -0.052104
0.750547 0.607133 -0.052349
0.752599 0.605606 -0.052397
0.754461 0.603654 -0.052390
0.758160 0.605918 -0.052931
0.760717 0.605524 -0.053130
0.762396 0.603160 -0.053072
0.764683 0.602165 -0.053193
0.768873 0.605300 -0.053861
0.771322 0.604594 -0.054025
0.772842 0.601911 -0.053927
0.775230 0.601081 -0.054075
0.777457 0.599911 -0.054179
0.779908 0.599200 -0.054346
0.782296 0.598348 -0.054495
0.787198 0.602508 -0.055326
0.792581 0.607495 -0.056277
0.795037 0.606627 -0.056432
0.797734 0.606213 -0.056652
0.799570 0.604137 -0.056643
0.800676 0.600701 -0.056445
0.804440 0.602272 -0.056943
0.807264 0.602043 -0.057192
0.810213 0.602017 -0.057473
0.812926 0.601537 -0.057691
0.815719 0.601180 -0.057928
0.817864 0.599657 -0.058001
0.823027 0.603407 -0.058828
0.827211 0.605354 -0.059402
0.830133 0.605073 -0.059660
0.833399 0.605350 -0.060001
0.836264 0.604919 -0.060241
0.837890 0.602416 -0.060181
0.840059 0.600823 -0.060253
0.843758 0.601712 -0.060690
0.847656 0.602872 -0.061171
0.850600 0.602462 -0.061423
0.853621 0.602150 -0.061691
0.856744 0.601973 -0.061981
0.859808 0.601677 -0.062255
0.865531 0.605407 -0.063140
0.869383 0.606207 -0.063587
0.874065 0.608199 -0.064219
0.877070 0.607642 -0.064466
0.872241 0.595608 -0.062951
0.876462 0.596883 -0.063477
0.882965 0.601375 -0.064506
0.886709 0.601830 -0.064915
0.889663 0.601133 -0.065146
0.893624 0.601821 -0.065597
0.898227 0.603346 -0.066184
0.903225 0.605347 -0.066851
0.905917 0.604163 -0.067017
0.909924 0.604729 -0.067463
0.908509 0.598070 -0.066752
0.912038 0.597991 -0.067096
0.915792 0.598174 -0.067486
0.919138 0.597796 -0.067787
0.923994 0.599316 -0.068401
0.927248 0.598752 -0.068678
0.931096 0.598910 -0.069077
0.934779 0.598826 -0.069438
0.938838 0.599171 -0.069875
0.946726 0.604125 -0.071087
0.953186 0.607235 -0.072000
0.948602 0.597093 -0.070680
0.947167 0.590824 -0.070005
0.953664 0.593912 -0.070922
0.961139 0.598041 -0.072025
0.964562 0.597409 -0.072318
0.968514 0.597355 -0.072714
0.973820 0.598790 -0.073374
0.977892 0.598788 -0.073787
0.983072 0.599972 -0.074414
0.986084 0.598727 -0.074617
0.990680 0.599185 -0.075125
0.993738 0.597947 -0.075335
0.997059 0.596972 -0.075595
1.002941 0.598680 -0.076340
1.008332 0.599804 -0.076988
1.014418 0.601589 -0.077763
1.018632 0.601383 -0.078181
1.019740 0.597986 -0.078017
1.025646 0.599440 -0.078749
1.035803 0.605067 -0.080265
1.037183 0.601878 -0.080149
1.036868 0.597046 -0.079724
1.041852 0.597401 -0.080274
1.046927 0.597795 -0.080839
1.051447 0.597611 -0.081299
1.057969 0.599276 -0.082120
1.061858 0.598405 -0.082462
1.066890 0.598564 -0.083008
1.072344 0.599063 -0.083627
1.079407 0.600968 -0.084529
1.082771 0.599462 -0.084770
1.085866 0.597696 -0.084963
1.089043 0.595987 -0.085171
1.099276 0.600438 -0.086619
1.102114 0.598345 -0.086763
1.106701 0.597742 -0.087214
1.111172 0.597000 -0.087642
1.115909 0.596445 -0.088116
1.123622 0.598334 -0.089102
1.126686 0.596287 -0.089283
1.134000 0.597707 -0.090193
1.138060 0.596403 -0.090544
1.147919 0.599730 -0.091881
1.152896 0.599048 -0.092382
1.158481 0.598800 -0.092985
1.163170 0.597797 -0.093435
1.166762 0.595903 -0.093700
1.174049 0.596816 -0.094584
1.180776 0.597222 -0.095371
1.184789 0.595518 -0.095703
1.195184 0.598530 -0.097094
1.200890 0.597961 -0.097702
1.203446 0.595039 -0.097790
1.210369 0.595260 -0.098596
1.219284 0.596829 -0.099727
1.224132 0.595418 -0.100188
1.231709 0.595874 -0.101092
1.239358 0.596298 -0.102006
1.246984 0.596622 -0.102911
1.253366 0.596019 -0.103613
1.260472 0.595837 -0.104429
1.264839 0.593757 -0.104802
1.274401 0.595063 -0.106007
1.281923 0.594932 -0.106881
1.289945 0.595045 -0.107832
1.296190 0.593940 -0.108497
1.306258 0.595189 -0.109764
1.313902 0.594814 -0.110644
1.325726 0.596947 -0.112178
1.329324 0.593921 -0.112413
1.341043 0.595787 -0.113920
1.348751 0.595130 -0.114793
1.357737 0.595161 -0.115861
1.368632 0.596224 -0.117221
1.377540 0.596034 -0.118266
1.385282 0.595100 -0.119124
1.398925 0.597447 -0.120889
1.407674 0.596928 -0.121890
1.418105 0.597276 -0.123144
1.429758 0.598213 -0.124576
1.439544 0.598053 -0.125715
1.447603 0.596907 -0.126583
1.453894 0.594792 -0.127176
1.465960 0.595688 -0.128638
1.475855 0.595392 -0.129761
1.484905 0.594624 -0.130747
1.498669 0.596216 -0.132433
1.504751 0.593898 -0.132955
1.510484 0.591429 -0.133418
1.524869 0.593223 -0.135163
1.529677 0.590328 -0.135470
1.546614 0.593287 -0.137568
0.581689 0.600660 -0.040622
0.583056 0.593184 -0.040017
0.585113 0.593679 -0.040257
0.587344 0.595614 -0.040651
0.589305 0.594285 -0.040692
0.591634 0.596335 -0.041096
0.593561 0.594185 -0.041044
0.595899 0.595625 -0.041380
0.598176 0.596200 -0.041620
0.600397 0.596051 -0.041780
0.602343 0.593548 -0.041679
0.605859 0.603100 -0.042908
0.609212 0.610636 -0.043918
0.611628 0.610826 -0.044117
0.613848 0.609532 -0.044149
0.615818 0.606555 -0.043991
0.617741 0.603376 -0.043808
0.620093 0.603009 -0.043939
0.622205 0.601141 -0.043900
0.624676 0.601455 -0.044108
0.627265 0.602377 -0.044385
0.629127 0.599158 -0.044190
0.631532 0.599032 -0.044348
0.634333 0.600977 -0.044744
0.636963 0.601919 -0.045026
0.638846 0.599044 -0.044869
0.642313 0.604051 -0.045623
0.645319 0.606600 -0.046097
0.647727 0.606227 -0.046233
0.648663 0.599154 -0.045587
0.651638 0.601476 -0.046038
0.654262 0.602157 -0.046300
0.656660 0.601838 -0.046445
0.658727 0.600142 -0.046428
0.660640 0.597881 -0.046344
0.664488 0.603454 -0.047194
0.667286 0.604676 -0.047529
0.669437 0.603355 -0.047561
0.671901 0.603259 -0.047742
0.674977 0.605423 -0.048197
0.677433 0.605242 -0.048371
0.679064 0.602116 -0.048189
0.681560 0.602124 -0.048388
0.684071 0.602173 -0.048593
0.686537 0.602055 -0.048781
0.689176 0.602506 -0.049039
0.691585 0.602178 -0.049204
0.693741 0.601031 -0.049269
0.695297 0.598010 -0.049101
0.699909 0.604587 -0.050131
0.702582 0.605001 -0.050396
0.704309 0.602529 -0.050300
0.706507 0.601515 -0.050388
0.709831 0.603811 -0.050896
0.713074 0.605787 -0.051368
0.715982 0.606733 -0.051711
0.716769 0.601699 -0.051293
0.720273 0.604283 -0.051850
0.724510 0.608765 -0.052655
0.727908 0.610849 -0.053157
0.727226 0.602078 -0.052253
0.729563 0.601391 -0.052397
0.732452 0.602122 -0.052727
0.734640 0.601031 -0.052820
0.737310 0.601152 -0.053074
0.739801 0.600805 -0.053268
0.743050 0.602289 -0.053707
0.745627 0.602096 -0.053926
0.749157 0.604143 -0.054446
0.754186 0.609623 -0.055431
0.755551 0.606470 -0.055260
0.756117 0.601544 -0.054849
0.760744 0.605870 -0.055690
0.762307 0.603241 -0.055590
0.764444 0.601912 -0.055667
0.767068 0.601646 -0.055891
0.769470 0.600884 -0.056048
0.771333 0.598969 -0.056046
0.774190 0.599156 -0.056337
0.776926 0.599060 -0.056590
0.779373 0.598348 -0.056759
0.781871 0.597727 -0.056943
0.787003 0.602356 -0.057868
0.790858 0.604329 -0.058425
0.794579 0.605964 -0.058938
0.797981 0.606920 -0.059357
0.799727 0.604662 -0.059319
0.801162 0.601837 -0.059198
0.804137 0.601922 -0.059498
0.807103 0.601959 -0.059792
0.809968 0.601780 -0.060058
0.812847 0.601601 -0.060325
0.815141 0.600351 -0.060436
0.818753 0.601427 -0.060892
0.824522 0.606217 -0.061902
0.827473 0.606003 -0.062175
0.829046 0.603410 -0.062094
0.832010 0.603192 -0.062369
0.835337 0.603556 -0.062733
0.837346 0.601699 -0.062764
0.840322 0.601436 -0.063038
0.843999 0.602284 -0.063482
0.847498 0.602796 -0.063879
0.850965 0.603217 -0.064265
0.856705 0.607170 -0.065200
0.855703 0.600525 -0.064496
0.860422 0.602790 -0.065176
0.864347 0.603770 -0.065660
0.868969 0.605748 -0.066305
0.871677 0.604799 -0.066493
0.873039 0.601848 -0.066363
0.873664 0.597845 -0.066065
0.875441 0.595560 -0.066039
0.879874 0.597098 -0.066627
0.884749 0.599199 -0.067310
0.889088 0.600476 -0.067866
0.895632 0.604763 -0.068916
0.899600 0.605385 -0.069376
0.903144 0.605383 -0.069736
0.905900 0.604285 -0.069919
0.905503 0.598957 -0.069401
0.907498 0.596868 -0.069418
0.911256 0.597101 -0.069823
0.916731 0.599528 -0.070600
0.919758 0.598727 -0.070839
0.923684 0.599051 -0.071271
0.927313 0.598964 -0.071636
0.931145 0.599098 -0.072042
0.934480 0.598581 -0.072339
0.938130 0.598426 -0.072701
0.943831 0.600732 -0.073494
0.950230 0.603800 -0.074428
0.955419 0.605334 -0.075100
0.950191 0.594508 -0.073602
0.959087 0.600366 -0.075042
0.962808 0.600086 -0.075404
0.965294 0.598358 -0.075511
0.968882 0.597880 -0.075843
0.973899 0.598985 -0.076464
0.977213 0.598135 -0.076736
0.981382 0.598208 -0.077179
0.984613 0.597217 -0.077432
0.989487 0.597990 -0.078011
0.993317 0.597589 -0.078380
0.998915 0.599042 -0.079096
1.002751 0.598571 -0.079461
1.006707 0.598197 -0.079848
1.013605 0.600835 -0.080807
1.019760 0.602625 -0.081615
1.022062 0.600428 -0.081672
1.024150 0.598015 -0.081689
1.031371 0.600726 -0.082693
1.036079 0.600863 -0.083210
1.036979 0.597228 -0.082999
1.041100 0.596743 -0.083402
1.047041 0.597973 -0.084147
1.051549 0.597774 -0.084619
1.056874 0.598306 -0.085241
1.061439 0.598074 -0.085719
1.066728 0.598472 -0.086329
1.071668 0.598498 -0.086872
1.074761 0.596799 -0.087071
1.082483 0.599251 -0.088122
1.085749 0.597638 -0.088350
1.089195 0.596165 -0.088611
1.094591 0.596378 -0.089227
1.101615 0.597949 -0.090136
1.106366 0.597489 -0.090629
1.111602 0.597398 -0.091208
1.118160 0.598372 -0.092021
1.122488 0.597412 -0.092432
1.126363 0.596041 -0.092762
1.134331 0.597996 -0.093818
1.138161 0.596500 -0.094137
1.146908 0.598929 -0.095321
1.150868 0.597441 -0.095660
1.158141 0.598536 -0.096578
1.162261 0.597088 -0.096941
1.168512 0.597255 -0.097676
1.175693 0.598069 -0.098568
1.180271 0.596830 -0.099007
1.183543 0.594568 -0.099221
1.194586 0.598067 -0.100769
1.199670 0.597041 -0.101290
1.207012 0.597615 -0.102195
1.210786 0.595531 -0.102489
1.218995 0.596589 -0.103536
1.226394 0.596981 -0.104442
1.230975 0.595319 -0.104869
1.237036 0.594642 -0.105545
1.249061 0.597999 -0.107218
1.254792 0.596934 -0.107831
1.260428 0.595750 -0.108427
1.266427 0.594753 -0.109082
1.276060 0.596091 -0.110337
1.280971 0.594243 -0.110806
1.290666 0.595438 -0.112063
1.296584 0.594115 -0.112694
1.307647 0.595987 -0.114165
1.314329 0.594999 -0.114915
1.323660 0.595585 -0.116093
1.331124 0.594934 -0.116962
1.338331 0.594058 -0.117786
1.348845 0.595095 -0.119141
1.356282 0.594207 -0.119993
1.365025 0.594020 -0.121051
1.376175 0.595149 -0.122489
1.385832 0.595319 -0.123681
1.399818 0.597856 -0.125557
1.407698 0.596846 -0.126451
1.420979 0.598772 -0.128196
1.429872 0.598184 -0.129236
1.437368 0.596786 -0.130048
1.446482 0.596222 -0.131109
1.456669 0.596178 -0.132330
1.470130 0.597792 -0.134055
1.477849 0.596352 -0.134871
1.486292 0.595269 -0.135791
1.496391 0.595008 -0.136960
1.502967 0.592958 -0.137572
1.507853 0.590090 -0.137915
1.520791 0.591199 -0.139493
1.535199 0.592979 -0.141281
1.549684 0.594747 -0.143067
0.581218 0.596288 -0.042322
0.583495 0.599724 -0.042901
0.585380 0.598060 -0.042910
0.587194 0.595405 -0.042805
0.588919 0.591721 -0.042581
0.590737 0.588949 -0.042454
0.592723 0.587694 -0.042494
0.594946 0.588412 -0.042756
0.598014 0.596124 -0.043814
0.600145 0.595263 -0.043896
0.603296 0.602425 -0.044896
0.604820 0.596382 -0.044381
0.607077 0.596059 -0.044520
0.609678 0.598091 -0.044931
0.611938 0.597520 -0.045040
0.614349 0.597888 -0.045257
0.616639 0.597370 -0.045371
0.618800 0.595991 -0.045382
0.622355 0.603139 -0.046396
0.625064 0.604808 -0.046768
0.626316 0.597954 -0.046134
0.628917 0.598983 -0.046430
0.631522 0.599948 -0.046720
0.634225 0.601355 -0.047064
0.636731 0.601645 -0.047275
0.639667 0.604065 -0.047744
0.642148 0.604118 -0.047930
0.645218 0.606975 -0.048456
0.647494 0.605974 -0.048517
0.648390 0.598707 -0.047817
0.651452 0.601427 -0.048331
0.654007 0.601803 -0.048562
0.656309 0.601075 -0.048658
0.657960 0.597652 -0.048424
0.660640 0.598573 -0.048725
0.664179 0.602898 -0.049450
0.667068 0.604484 -0.049839
0.669652 0.604829 -0.050077
0.672081 0.604563 -0.050239
0.674718 0.605075 -0.050502
0.677538 0.606223 -0.050846
0.678832 0.601864 -0.050497
0.681557 0.602674 -0.050802
0.684031 0.602583 -0.050994
0.686355 0.601971 -0.051122
0.689420 0.603838 -0.051568
0.691517 0.602461 -0.051602
0.694017 0.602412 -0.051807
0.695899 0.600396 -0.051759
0.700101 0.605660 -0.052656
0.702572 0.605429 -0.052844
0.704383 0.603199 -0.052773
0.706273 0.601256 -0.052739
0.709042 0.601929 -0.053050
0.713993 0.608856 -0.054188
0.716475 0.608544 -0.054376
0.717334 0.603678 -0.053961
0.720887 0.606368 -0.054551
0.725476 0.611776 -0.055509
0.727147 0.609189 -0.055400
0.727106 0.602125 -0.054688
0.729493 0.601565 -0.054850
0.731632 0.600361 -0.054927
0.734580 0.601218 -0.055285
0.737082 0.600914 -0.055487
0.738063 0.596842 -0.055173
0.743060 0.602634 -0.056217
0.745851 0.602949 -0.056511
0.750037 0.606541 -0.057262
0.753754 0.608919 -0.057850
0.754862 0.605174 -0.057586
0.755430 0.600265 -0.057158
0.759325 0.602955 -0.057796
0.766092 0.611954 -0.059332
0.765933 0.605464 -0.058680
0.767536 0.602933 -0.058588
0.770642 0.603666 -0.058962
0.771399 0.599370 -0.058617
0.773191 0.597317 -0.058593
0.777393 0.600279 -0.059294
0.780018 0.599913 -0.059517
0.783643 0.601553 -0.060034
0.787439 0.603468 -0.060596
