ply
format ascii 1.0
comment ---
element vertex 1771
property float x
property float y
property float z
element face 0
property list uchar uint vertex_indices
end_header
1.000882 0.605457 0.081742
1.004740 0.602709 0.081642
1.010341 0.604539 0.081853
1.012900 0.598398 0.081531
1.016917 0.596072 0.081469
1.020841 0.593517 0.081395
1.025211 0.592070 0.081398
1.031843 0.596128 0.081779
1.036634 0.595578 0.081850
1.041573 0.595334 0.081945
1.042670 0.586021 0.081424
1.045667 0.581297 0.081217
1.051530 0.583192 0.081464
1.057075 0.584271 0.081657
1.062068 0.584046 0.081763
1.067557 0.584872 0.081942
1.073045 0.585633 0.082117
1.078686 0.586668 0.082312
1.083609 0.586124 0.082396
1.088668 0.585852 0.082499
1.093861 0.585843 0.082617
1.099396 0.586518 0.082781
1.104296 0.585888 0.082850
1.110200 0.587273 0.083056
1.115844 0.588121 0.083220
1.120881 0.587780 0.083295
1.125438 0.586545 0.083299
1.130261 0.585875 0.083336
1.135772 0.586555 0.083458
1.143888 0.592124 0.083917
1.147060 0.588513 0.083717
1.151342 0.587067 0.083658
1.157107 0.588401 0.083784
1.161646 0.587595 0.083746
1.167305 0.588876 0.083841
1.171663 0.587943 0.083766
1.176295 0.587604 0.083718
0.156921 0.599768 0.099614
0.177806 0.570805 0.096954
0.173341 0.587300 0.098246
0.178513 0.586604 0.098020
0.187167 0.579565 0.097229
0.194920 0.574158 0.096567
0.194691 0.583777 0.097189
0.196311 0.590156 0.097514
0.202467 0.588008 0.097092
0.207673 0.587727 0.096818
0.212130 0.588968 0.096664
0.216159 0.591140 0.096578
0.221257 0.591244 0.096307
0.224999 0.594144 0.096265
0.226764 0.601213 0.096563
0.235544 0.593814 0.095642
0.243174 0.588668 0.094910
0.248631 0.588041 0.094551
0.251842 0.592257 0.094591
0.253460 0.600057 0.094920
0.258991 0.599332 0.094545
0.264812 0.597907 0.094113
0.270548 0.596604 0.093692
0.272765 0.603357 0.093924
0.282386 0.592902 0.092769
0.286535 0.595108 0.092637
0.295777 0.585065 0.091530
0.301129 0.584183 0.091159
0.302568 0.592892 0.091551
0.306052 0.596658 0.091551
0.311672 0.595039 0.091130
0.317822 0.591940 0.090599
0.324036 0.588520 0.090049
0.330263 0.584901 0.089489
0.333634 0.588801 0.089517
0.337736 0.590751 0.089397
0.341959 0.592357 0.089254
0.345790 0.595048 0.089197
0.350591 0.594981 0.088934
0.357366 0.589114 0.088236
0.363990 0.583442 0.087561
0.367187 0.587785 0.087647
0.370802 0.590926 0.087644
0.373723 0.596253 0.087808
0.377286 0.599666 0.087831
0.383004 0.596252 0.087351
0.387443 0.596807 0.087170
0.389624 0.604772 0.087539
0.397324 0.594422 0.086565
0.402824 0.591161 0.086118
0.407200 0.591634 0.085949
0.411068 0.593861 0.085911
0.414087 0.599163 0.086099
0.420041 0.593844 0.085521
0.426065 0.588008 0.084912
0.430171 0.589196 0.084814
0.432607 0.596849 0.085182
0.436515 0.598932 0.085153
0.442082 0.594351 0.084652
0.447379 0.590645 0.084218
0.452157 0.588916 0.083929
0.456681 0.588157 0.083712
0.461208 0.587301 0.083491
0.465199 0.588758 0.083437
0.467474 0.598077 0.083937
0.469872 0.607197 0.084422
0.477111 0.593548 0.083318
0.483242 0.584629 0.082550
0.487468 0.584787 0.082419
0.491578 0.585512 0.082329
0.495138 0.589128 0.082442
0.497377 0.600020 0.083058
0.501844 0.599102 0.082860
0.507382 0.591998 0.082239
0.510588 0.598107 0.082529
0.515079 0.596795 0.082311
0.520067 0.592293 0.081878
0.524324 0.592148 0.081745
0.528050 0.595456 0.081848
0.531971 0.597614 0.081875
0.536606 0.594875 0.081572
0.540791 0.595184 0.081477
0.544082 0.602207 0.081836
0.548272 0.602704 0.081756
0.553569 0.594254 0.081076
0.557793 0.594127 0.080958
0.561556 0.598006 0.081111
0.566154 0.594561 0.080773
0.571195 0.586552 0.080133
0.575253 0.587584 0.080100
0.579356 0.588224 0.080041
0.583449 0.589008 0.079993
0.587454 0.590884 0.080018
0.590534 0.604292 0.080808
0.595377 0.596356 0.080185
0.600047 0.589777 0.079654
0.604708 0.582388 0.079072
0.608543 0.587019 0.079284
0.612542 0.589578 0.079360
0.616560 0.592177 0.079439
0.620558 0.595678 0.079578
0.624636 0.598092 0.079645
0.629374 0.584336 0.078658
0.633457 0.585681 0.078659
0.637556 0.586859 0.078649
0.641659 0.588328 0.078659
0.645770 0.590066 0.078687
0.649965 0.587532 0.078438
0.654133 0.585368 0.078215
0.658252 0.587377 0.078263
0.662376 0.595149 0.078683
0.666550 0.593418 0.078490
0.670740 0.596230 0.078591
0.674971 0.600348 0.078775
0.679242 0.604474 0.078961
0.683443 0.603448 0.078816
0.687401 0.593366 0.078093
0.691304 0.584514 0.077451
0.695567 0.588278 0.077616
0.699734 0.588735 0.077571
0.703893 0.588864 0.077506
0.708310 0.594232 0.077775
0.712881 0.601518 0.078165
0.716948 0.598967 0.077932
0.720861 0.594338 0.077568
0.724361 0.584238 0.076859
0.728528 0.584631 0.076816
0.732832 0.586727 0.076882
0.738165 0.601157 0.077725
0.742887 0.606928 0.078022
0.746566 0.600641 0.077561
0.749813 0.590436 0.076856
0.753725 0.587771 0.076627
0.757705 0.585976 0.076453
0.761964 0.586840 0.076448
0.766215 0.587551 0.076434
0.770532 0.588731 0.076450
0.774622 0.587959 0.076346
0.778509 0.585650 0.076147
0.782834 0.586758 0.076162
0.787015 0.586719 0.076107
0.791148 0.586325 0.076032
0.798231 0.605928 0.077201
0.801137 0.596843 0.076588
0.804968 0.594169 0.076375
0.807781 0.585328 0.075782
0.812012 0.585478 0.075748
0.816387 0.586436 0.075766
0.820784 0.587434 0.075787
0.825057 0.587655 0.075763
0.832174 0.603173 0.076685
0.836204 0.601652 0.076556
0.839314 0.595449 0.076140
0.841422 0.584494 0.075434
0.845546 0.583869 0.075367
0.850292 0.586209 0.075485
0.854554 0.586142 0.075456
0.864093 0.610137 0.076910
0.866014 0.599024 0.076207
0.868358 0.590190 0.075646
0.870692 0.581642 0.075105
0.875631 0.584323 0.075257
0.879350 0.581842 0.075095
0.883784 0.582293 0.075115
0.888670 0.584471 0.075244
0.893536 0.586441 0.075363
0.897542 0.585019 0.075276
0.902017 0.585352 0.075300
0.906240 0.584702 0.075266
0.910543 0.584316 0.075251
0.920444 0.603683 0.076454
0.924601 0.602373 0.076389
0.924466 0.586393 0.075425
0.926413 0.577895 0.074924
0.931965 0.581521 0.075172
0.936788 0.582607 0.075268
0.942979 0.587972 0.075630
0.948171 0.589965 0.075788
0.955176 0.597443 0.076288
0.958676 0.593962 0.076116
0.960278 0.584839 0.075599
0.963966 0.582092 0.075479
0.969895 0.585877 0.075766
0.974598 0.585979 0.075829
0.987650 0.609549 0.077352
0.991804 0.607647 0.077300
0.989496 0.588054 0.076152
0.991253 0.579925 0.075718
0.997796 0.584687 0.076090
1.001816 0.582638 0.076041
1.007112 0.583880 0.076202
1.012295 0.584733 0.076341
1.016276 0.582483 0.076290
1.022088 0.584768 0.076527
1.027201 0.585217 0.076652
1.034977 0.592018 0.077181
1.041704 0.596081 0.077541
1.044737 0.591302 0.077345
1.045100 0.580408 0.076763
1.051938 0.584547 0.077136
1.056450 0.583279 0.077167
1.061830 0.583927 0.077322
1.067250 0.584602 0.077479
1.072812 0.585526 0.077654
1.078503 0.586667 0.077843
1.083682 0.586661 0.077958
1.088666 0.586219 0.078043
1.093813 0.586102 0.078148
1.098982 0.586018 0.078253
1.104184 0.585993 0.078359
1.109364 0.585921 0.078457
1.116299 0.589316 0.078777
1.120983 0.588259 0.078802
1.125702 0.587313 0.078827
1.130487 0.586542 0.078856
1.135620 0.586482 0.078924
1.140877 0.586701 0.079000
1.145811 0.586372 0.079031
1.150413 0.585505 0.079016
1.156066 0.586627 0.079120
1.162337 0.588910 0.079288
1.167166 0.588679 0.079277
1.171440 0.587572 0.079196
1.175873 0.586860 0.079127
0.148921 0.613603 0.096187
0.162192 0.598461 0.094805
0.173262 0.587128 0.093724
0.175345 0.592108 0.093965
0.184437 0.584348 0.093149
0.187907 0.587010 0.093169
0.193519 0.585776 0.092859
0.196031 0.590503 0.093018
0.202078 0.588593 0.092627
0.208304 0.586356 0.092200
0.212818 0.587494 0.092034
0.216585 0.590189 0.091983
0.220878 0.591924 0.091846
0.224887 0.594305 0.091751
0.223229 0.608454 0.092577
0.234110 0.596768 0.091360
0.242933 0.589149 0.090464
0.247206 0.591075 0.090314
0.252557 0.590697 0.089981
0.252393 0.602396 0.090579
0.258270 0.600940 0.090157
0.267536 0.591781 0.089147
0.273089 0.590817 0.088768
0.274062 0.600373 0.089188
0.276872 0.605832 0.089295
0.285353 0.597928 0.088396
0.291063 0.596422 0.087983
0.297248 0.593661 0.087480
0.301911 0.594526 0.087252
0.305227 0.598735 0.087273
0.310162 0.598880 0.086996
0.315949 0.596768 0.086559
0.322929 0.591408 0.085890
0.331528 0.581529 0.084900
0.333759 0.588444 0.085135
0.338037 0.589902 0.084977
0.342425 0.591031 0.084799
0.346059 0.594250 0.084774
0.350150 0.596192 0.084660
0.355708 0.593870 0.084249
0.363128 0.585917 0.083446
0.367226 0.587594 0.083328
0.371164 0.589746 0.083247
0.374862 0.592641 0.083222
0.377316 0.599470 0.083473
0.383663 0.594037 0.082875
0.387423 0.596753 0.082847
0.390518 0.601692 0.082975
0.393831 0.606003 0.083061
0.402781 0.591159 0.081841
0.404975 0.599205 0.082190
0.409473 0.599327 0.082002
0.414912 0.596012 0.081585
0.420437 0.592203 0.081140
0.425520 0.589843 0.080797
0.429262 0.592442 0.080792
0.432574 0.596752 0.080904
0.436612 0.598309 0.080834
0.441566 0.596182 0.080521
0.447546 0.589700 0.079924
0.452212 0.588417 0.079676
0.456587 0.588278 0.079507
0.460970 0.588047 0.079336
0.465154 0.588653 0.079222
0.467978 0.595449 0.079516
0.470373 0.604517 0.079958
0.475292 0.601891 0.079639
0.483096 0.584985 0.078396
0.487428 0.584613 0.078232
0.491446 0.585800 0.078172
0.495085 0.589000 0.078243
0.497963 0.596433 0.078588
0.502109 0.597195 0.078505
0.507016 0.593628 0.078146
0.513404 0.581161 0.077223
0.517191 0.583597 0.077254
0.519906 0.592783 0.077717
0.524779 0.588718 0.077338
0.529000 0.588654 0.077215
0.533193 0.588750 0.077104
0.536907 0.592174 0.077204
0.541772 0.587456 0.076793
0.546035 0.586890 0.076646
0.550154 0.587379 0.076567
0.554029 0.589842 0.076612
0.556893 0.600973 0.077200
0.561331 0.599212 0.076983
0.565940 0.595727 0.076660
0.571267 0.585050 0.075893
0.575008 0.589178 0.076048
0.579222 0.588732 0.075919
0.583434 0.588228 0.075789
0.586894 0.596374 0.076193
0.590296 0.606137 0.076696
0.595127 0.598485 0.076128
0.599877 0.590937 0.075569
0.604567 0.583216 0.075002
0.608378 0.588302 0.075221
0.612503 0.588774 0.075158
0.616577 0.590285 0.075159
0.620363 0.597937 0.075534
0.624543 0.598277 0.075465
0.628768 0.597538 0.075331
0.633489 0.582364 0.074325
0.637562 0.583912 0.074332
0.641644 0.585699 0.074355
0.645722 0.588419 0.074435
0.649878 0.587845 0.074316
0.654040 0.586347 0.074143
0.658175 0.586603 0.074076
0.662309 0.588551 0.074112
0.666459 0.589600 0.074093
0.670605 0.588646 0.073956
0.674929 0.603681 0.074773
0.679157 0.604252 0.074727
0.683324 0.601654 0.074494
0.687300 0.592537 0.073875
0.691200 0.583666 0.073273
0.695528 0.589396 0.073537
0.699655 0.588702 0.073421
0.703887 0.590496 0.073453
0.708238 0.594352 0.073607
0.712586 0.597476 0.073718
0.716684 0.595784 0.073546
0.720514 0.590062 0.073139
0.724263 0.583914 0.072709
0.728499 0.585282 0.072721
0.732707 0.586095 0.072701
0.737824 0.597924 0.073324
0.742679 0.605418 0.073694
0.746717 0.603138 0.073495
0.749722 0.590269 0.072682
0.753541 0.586693 0.072411
0.757698 0.586623 0.072345
0.761945 0.587354 0.072326
0.766143 0.587579 0.072279
0.770319 0.587577 0.072221
0.774335 0.586258 0.072087
0.778525 0.586362 0.072037
0.782699 0.586310 0.071979
0.786890 0.586369 0.071928
0.790948 0.585458 0.071824
0.797465 0.601262 0.072680
0.801353 0.598771 0.072487
0.804419 0.591168 0.072002
0.807375 0.583296 0.071504
0.811947 0.585563 0.071589
0.816204 0.585825 0.071560
0.820617 0.586937 0.071582
0.824779 0.586565 0.071520
0.833668 0.611679 0.072914
0.836810 0.605274 0.072512
0.838536 0.591887 0.071713
0.841272 0.584159 0.071240
0.845488 0.583999 0.071200
0.850036 0.585394 0.071250
0.854338 0.585538 0.071231
0.863154 0.606260 0.072383
0.866803 0.602952 0.072172
0.868668 0.591943 0.071527
0.870427 0.580895 0.070881
0.874672 0.580691 0.070854
0.879614 0.583315 0.070989
0.883888 0.583099 0.070966
0.888373 0.583680 0.070990
0.892664 0.583447 0.070971
0.897210 0.584140 0.071007
0.901264 0.582928 0.070938
0.906155 0.584778 0.071045
0.910381 0.584117 0.071013
0.922630 0.611811 0.072590
0.924597 0.602751 0.072088
0.926229 0.592805 0.071538
0.927659 0.582462 0.070968
0.931448 0.580200 0.070860
0.937076 0.583930 0.071095
0.941058 0.582225 0.071025
0.948492 0.591369 0.071574
0.957627 0.605426 0.072407
0.956440 0.587554 0.071428
0.960719 0.586561 0.071412
0.964064 0.582782 0.071240
0.969362 0.584729 0.071398
0.974738 0.586783 0.071566
0.989135 0.614152 0.073186
0.989810 0.602526 0.072580
0.989139 0.587486 0.071781
0.991498 0.580992 0.071473
0.996770 0.582367 0.071621
1.001845 0.583126 0.071737
1.006963 0.583907 0.071858
1.011419 0.582915 0.071879
1.016288 0.582926 0.071963
1.020947 0.582351 0.072015
1.026000 0.582695 0.072124
1.034915 0.592284 0.072773
1.041610 0.596274 0.073102
1.045406 0.593288 0.073027
1.044823 0.580170 0.072361
1.051344 0.583592 0.072663
1.056781 0.584426 0.072816
1.061446 0.583466 0.072866
1.067131 0.584729 0.073047
1.073095 0.586524 0.073261
1.078418 0.586861 0.073389
1.083396 0.586422 0.073471
1.088948 0.587167 0.073622
1.093700 0.586215 0.073672
1.098822 0.586025 0.073764
1.104133 0.586209 0.073876
1.109866 0.587227 0.074034
1.115124 0.587289 0.074131
1.120965 0.588495 0.074292
1.125856 0.587860 0.074336
1.131071 0.587886 0.074413
1.135496 0.586456 0.074394
1.140147 0.585523 0.074397
1.144961 0.584963 0.074412
1.150290 0.585414 0.074479
1.156887 0.588217 0.074677
1.161844 0.588106 0.074687
1.166469 0.587496 0.074655
1.171132 0.587053 0.074619
1.173558 0.582832 0.074342
0.129866 0.647054 0.094134
0.169660 0.584734 0.089182
0.176980 0.580088 0.088673
0.173988 0.594299 0.089598
0.174160 0.603058 0.090085
0.182955 0.596008 0.089346
0.191434 0.589494 0.088639
0.199030 0.584601 0.088045
0.204671 0.583433 0.087724
0.207403 0.587964 0.087821
0.212477 0.588038 0.087573
0.215424 0.592392 0.087635
0.220427 0.592738 0.087389
0.223814 0.596413 0.087383
0.227629 0.599309 0.087311
0.235162 0.594520 0.086668
0.243556 0.587790 0.085883
0.247480 0.590455 0.085783
0.251326 0.593342 0.085695
0.253278 0.600434 0.085908
0.258495 0.600426 0.085605
0.266950 0.593093 0.084779
0.273980 0.588778 0.084173
0.275318 0.597465 0.084492
0.275519 0.608999 0.085008
0.281855 0.606229 0.084515
0.288398 0.602830 0.083982
0.295244 0.598543 0.083393
0.302130 0.593975 0.082790
0.306023 0.596725 0.082697
0.310687 0.597527 0.082473
0.315797 0.597138 0.082171
0.321121 0.596114 0.081830
0.331260 0.582210 0.080623
0.332723 0.591196 0.080970
0.338252 0.589271 0.080584
0.342630 0.590412 0.080408
0.346307 0.593494 0.080365
0.351475 0.592338 0.080044
0.354244 0.598042 0.080181
0.363516 0.584693 0.079067
0.368261 0.584406 0.078819
0.371715 0.587970 0.078827
0.374102 0.594881 0.079054
0.378536 0.595522 0.078877
0.383229 0.595295 0.078648
0.389612 0.589514 0.078066
0.394679 0.587815 0.077752
0.399824 0.585737 0.077419
0.404198 0.586157 0.077249
0.408078 0.588251 0.077189
0.411738 0.591133 0.077182
0.416585 0.589793 0.076911
0.421081 0.589634 0.076719
0.426502 0.585959 0.076310
0.430372 0.587990 0.076262
0.433246 0.593905 0.076458
0.436765 0.597452 0.076508
0.441511 0.596141 0.076260
0.447602 0.589198 0.075669
0.452238 0.588023 0.075438
0.456435 0.588630 0.075319
0.460825 0.588372 0.075150
0.465243 0.587932 0.074972
0.466612 0.601351 0.075639
0.470544 0.603364 0.075614
0.475577 0.600165 0.075276
0.482283 0.588585 0.074436
0.486843 0.587158 0.074213
0.491067 0.587341 0.074089
0.495072 0.588647 0.074034
0.498014 0.595717 0.074325
0.501475 0.600248 0.074465
0.506163 0.598009 0.074204
0.512416 0.586459 0.073394
0.516775 0.585604 0.073221
0.520527 0.588415 0.073267
0.524636 0.589091 0.073188
0.528948 0.588441 0.073032
0.532942 0.589876 0.073001
0.537194 0.589557 0.072869
0.541316 0.590138 0.072790
0.545781 0.588154 0.072564
0.550174 0.586548 0.072362
0.554266 0.587230 0.072295
0.557320 0.596644 0.072733
0.560890 0.602304 0.072953
0.565749 0.596665 0.072524
0.571527 0.581754 0.071564
0.574903 0.589350 0.071900
0.579054 0.589575 0.071813
0.583268 0.589102 0.071687
0.587317 0.590460 0.071667
0.590101 0.607445 0.072537
0.595043 0.598444 0.071929
0.599757 0.591403 0.071435
0.604408 0.584297 0.070939
0.608417 0.586321 0.070962
0.612460 0.588051 0.070968
0.616402 0.591954 0.071097
0.620097 0.601609 0.071550
0.624350 0.600702 0.071409
0.628817 0.594148 0.070953
0.633533 0.578709 0.070003
0.637342 0.588420 0.070460
0.641462 0.589520 0.070436
0.645603 0.590123 0.070384
0.649781 0.588733 0.070223
0.653945 0.587453 0.070069
0.658085 0.587893 0.070011
0.662227 0.588772 0.069978
0.666377 0.589082 0.069915
0.670549 0.592225 0.070008
0.674914 0.609421 0.070872
0.679061 0.603329 0.070458
0.683195 0.599328 0.070159
0.687286 0.595062 0.069848
0.691308 0.589841 0.069486
0.695440 0.589114 0.069370
0.699630 0.590025 0.069345
0.703756 0.589275 0.069230
0.708224 0.595646 0.069502
0.712395 0.595344 0.069412
0.716465 0.593338 0.069231
0.720503 0.591092 0.069038
0.724225 0.584463 0.068610
0.728422 0.585247 0.068583
0.732604 0.585724 0.068540
0.737334 0.592846 0.068855
0.742135 0.599986 0.069171
0.746561 0.602254 0.069225
0.750230 0.596360 0.068844
0.753394 0.585965 0.068224
0.757591 0.586307 0.068179
0.761839 0.587063 0.068158
0.766131 0.588118 0.068153
0.770259 0.587693 0.068070
0.774270 0.586329 0.067939
0.778361 0.585663 0.067846
0.782659 0.586572 0.067838
0.786761 0.585968 0.067751
0.791008 0.586399 0.067720
0.796381 0.594418 0.068090
0.801258 0.598655 0.068261
0.804453 0.591873 0.067854
0.807856 0.586747 0.067535
0.811838 0.585366 0.067416
0.816320 0.586959 0.067454
0.820408 0.586189 0.067370
0.824621 0.586124 0.067324
0.833694 0.612262 0.068651
0.837248 0.608009 0.068388
0.838929 0.594320 0.067635
0.841332 0.584868 0.067106
0.845484 0.584380 0.067046
0.850060 0.585905 0.067094
0.854249 0.585519 0.067044
0.862079 0.601746 0.067862
0.865687 0.598358 0.067659
0.869231 0.594794 0.067450
0.869594 0.577705 0.066540
0.874930 0.582149 0.066752
0.879277 0.582300 0.066743
0.884283 0.585066 0.066872
0.888417 0.584228 0.066816
0.892526 0.583282 0.066758
0.896638 0.582334 0.066701
0.901664 0.584791 0.066824
0.905871 0.584107 0.066787
0.910490 0.584880 0.066828
0.920635 0.605132 0.067883
0.924075 0.601314 0.067691
0.925887 0.592012 0.067218
0.926362 0.578476 0.066527
0.932097 0.582715 0.066763
0.936366 0.581999 0.066744
0.942240 0.586378 0.066993
0.947089 0.587337 0.067068
0.957184 0.604443 0.067986
0.957055 0.589809 0.067256
0.961083 0.588033 0.067198
0.961926 0.576849 0.066652
0.969009 0.584087 0.067071
0.972358 0.580353 0.066921
0.983243 0.597930 0.067888
0.987582 0.596728 0.067878
0.989623 0.589204 0.067539
0.991976 0.582673 0.067255
0.997212 0.583935 0.067383
1.001703 0.583145 0.067407
1.005658 0.580925 0.067359
1.011646 0.583889 0.067587
1.015889 0.582318 0.067579
1.020447 0.581508 0.067615
1.025810 0.582627 0.067756
1.034784 0.592367 0.068358
1.041435 0.596255 0.068653
1.046493 0.596238 0.068744
1.044635 0.580122 0.067975
1.052300 0.586167 0.068394
1.056963 0.585221 0.068440
1.061757 0.584540 0.068501
1.066708 0.584172 0.068581
1.072894 0.586457 0.068804
1.078158 0.586663 0.068916
1.083103 0.586155 0.068989
1.088038 0.585606 0.069059
1.094030 0.587232 0.069246
1.098807 0.586316 0.069293
1.103852 0.585950 0.069368
1.109684 0.587158 0.069525
1.114391 0.586121 0.069555
1.119510 0.585918 0.069627
1.125316 0.587061 0.069766
1.130706 0.587413 0.069856
1.135672 0.586989 0.069896
1.140165 0.585735 0.069882
1.145038 0.585259 0.069903
1.150904 0.586666 0.070017
1.156871 0.588293 0.070134
1.161632 0.587806 0.070122
1.166187 0.587046 0.070084
1.171141 0.587092 0.070078
1.176803 0.588462 0.070132
0.144099 0.621412 0.087471
0.169502 0.584684 0.084681
0.180672 0.573101 0.083696
0.175221 0.591759 0.084868
0.172231 0.606350 0.085728
0.179609 0.602007 0.085218
0.192122 0.587981 0.084010
0.199961 0.582634 0.083411
0.203303 0.585895 0.083410
0.207960 0.586726 0.083228
0.212644 0.587574 0.083036
0.216078 0.590971 0.083014
0.219357 0.594791 0.083012
0.223927 0.596094 0.082828
0.229315 0.595754 0.082525
0.236086 0.592526 0.082020
0.242281 0.590432 0.081590
0.247026 0.591381 0.081366
0.251301 0.593355 0.081209
0.254780 0.597105 0.081168
0.258747 0.599837 0.081057
0.266087 0.595011 0.080442
0.272718 0.591635 0.079926
0.278118 0.590971 0.079593
0.282035 0.593716 0.079485
0.287390 0.593067 0.079156
0.293130 0.591423 0.078766
0.298230 0.591234 0.078474
0.302856 0.592152 0.078256
0.308587 0.590265 0.077861
0.311285 0.595973 0.077955
0.317153 0.593603 0.077537
0.323618 0.589536 0.077018
0.330876 0.583178 0.076361
0.333528 0.588972 0.076471
0.338085 0.589665 0.076265
0.342558 0.590541 0.076074
0.346422 0.593092 0.075990
0.350431 0.595235 0.075884
0.354952 0.595893 0.075690
0.364136 0.582765 0.074660
0.368236 0.584372 0.074536
0.371712 0.587862 0.074528
0.374539 0.593404 0.074645
0.378532 0.595399 0.074552
0.384040 0.592562 0.074174
0.389683 0.589130 0.073765
0.394727 0.587495 0.073469
0.399436 0.586866 0.073236
0.404032 0.586541 0.073025
0.408073 0.588075 0.072927
0.412009 0.589973 0.072853
0.416436 0.590118 0.072680
0.421458 0.588028 0.072381
0.426623 0.585275 0.072048
0.430390 0.587677 0.072015
0.433389 0.593094 0.072158
0.436814 0.596989 0.072216
0.441402 0.596301 0.072013
0.446284 0.594326 0.071741
0.452143 0.588120 0.071233
0.456266 0.589041 0.071132
0.460768 0.588298 0.070940
0.465391 0.586934 0.070716
0.466151 0.603101 0.071477
0.470604 0.602717 0.071311
0.475642 0.599472 0.070988
0.481357 0.592725 0.070474
0.486479 0.588579 0.070109
0.490864 0.587966 0.069942
0.494811 0.589590 0.069901
0.497649 0.597235 0.070192
0.501168 0.601480 0.070297
0.505805 0.599564 0.070066
0.512085 0.587898 0.069307
0.516405 0.587313 0.069154
0.520483 0.588161 0.069082
0.524419 0.589926 0.069060
0.528525 0.590654 0.068984
0.532742 0.590641 0.068869
0.536980 0.590450 0.068747
0.541384 0.589014 0.068559
0.545768 0.587589 0.068374
0.550024 0.587037 0.068237
0.554178 0.587228 0.068141
0.556850 0.599846 0.068707
0.560813 0.602196 0.068726
0.565510 0.598037 0.068403
0.571020 0.585744 0.067652
0.574844 0.589062 0.067727
0.578987 0.589361 0.067644
0.583126 0.589697 0.067564
0.587286 0.589807 0.067473
0.590499 0.601487 0.067987
0.595047 0.597247 0.067670
0.599763 0.590112 0.067205
0.604165 0.586614 0.066931
0.608309 0.586658 0.066841
0.612346 0.588531 0.066848
0.616398 0.590421 0.066855
0.619928 0.603287 0.067429
0.624306 0.599735 0.067156
0.628761 0.593417 0.066744
0.633398 0.580186 0.065979
0.637225 0.589513 0.066371
0.641351 0.590607 0.066341
0.645512 0.590475 0.066250
0.649681 0.589799 0.066132
0.653845 0.588921 0.066004
0.657997 0.588719 0.065911
0.662144 0.589463 0.065867
0.666297 0.589328 0.065780
0.670444 0.588591 0.065662
0.674685 0.596622 0.065986
0.678985 0.603605 0.066257
0.683111 0.599120 0.065953
0.687135 0.592243 0.065531
0.691103 0.585626 0.065123
0.695382 0.589701 0.065250
0.699528 0.589424 0.065161
0.703656 0.588771 0.065054
0.708192 0.596571 0.065367
0.712565 0.599966 0.065461
0.716579 0.596610 0.065221
0.720558 0.593180 0.064980
0.724055 0.583049 0.064409
0.728258 0.584015 0.064387
0.732318 0.582977 0.064267
0.736821 0.587470 0.064419
0.741116 0.589033 0.064428
0.745599 0.592497 0.064530
0.749952 0.594229 0.064548
0.753648 0.589225 0.064239
0.757461 0.585763 0.064006
0.761641 0.585930 0.063951
0.766023 0.587816 0.063981
0.770326 0.588870 0.063971
0.774244 0.586709 0.063806
0.778136 0.584482 0.063639
0.782430 0.585398 0.063626
0.786700 0.586059 0.063601
0.790867 0.585925 0.063539
0.798443 0.608931 0.064591
0.801327 0.599600 0.064089
0.804734 0.594140 0.063775
0.807721 0.586369 0.063352
0.811873 0.586029 0.063287
0.816162 0.586472 0.063260
0.820416 0.586664 0.063223
0.824645 0.586679 0.063180
0.832606 0.606809 0.064096
0.836705 0.605571 0.063995
0.840266 0.601589 0.063765
0.842281 0.590016 0.063176
0.846508 0.589780 0.063129
0.850581 0.588783 0.063047
0.854845 0.588683 0.063010
0.858562 0.586048 0.062855
0.862472 0.584354 0.062746
0.866389 0.582726 0.062642
0.873565 0.595092 0.063203
0.875982 0.586929 0.062794
0.880188 0.586413 0.062750
0.884941 0.588078 0.062811
0.888832 0.586228 0.062708
0.892959 0.585317 0.062651
0.897124 0.584542 0.062604
0.901287 0.583739 0.062558
0.906020 0.585006 0.062612
0.910493 0.585245 0.062620
0.919031 0.599819 0.063306
0.923654 0.600214 0.063327
0.925813 0.592119 0.062951
0.927828 0.583759 0.062564
0.932148 0.583241 0.062550
0.936592 0.583089 0.062557
0.940919 0.582515 0.062546
0.946832 0.586890 0.062772
0.957893 0.607008 0.063745
0.963096 0.608582 0.063846
0.964477 0.598581 0.063403
0.965442 0.587596 0.062915
0.967953 0.581384 0.062657
0.972976 0.582492 0.062748
0.976126 0.578217 0.062587
0.983297 0.585190 0.062963
0.988039 0.585237 0.063014
0.993935 0.588337 0.063213
0.998008 0.586429 0.063178
1.002359 0.585243 0.063180
1.007946 0.587222 0.063336
1.012528 0.586517 0.063368
1.016088 0.583195 0.063277
1.020160 0.581173 0.063251
1.025851 0.583102 0.063418
1.033296 0.589156 0.063787
1.044632 0.604255 0.064597
1.044435 0.591780 0.064077
1.044567 0.580335 0.063607
1.049535 0.580206 0.063687
1.056764 0.585137 0.064016
1.061760 0.584909 0.064095
1.066732 0.584583 0.064171
1.072679 0.586341 0.064349
1.077772 0.586181 0.064435
1.082567 0.585356 0.064487
1.088369 0.586628 0.064642
1.093909 0.587301 0.064767
1.098672 0.586349 0.064810
1.103346 0.585223 0.064842
1.108519 0.585115 0.064921
1.114640 0.586878 0.065090
1.119163 0.585491 0.065097
1.124830 0.586358 0.065212
1.130448 0.587136 0.065316
1.135517 0.586890 0.065363
1.140470 0.586475 0.065393
1.145303 0.585899 0.065407
1.151026 0.587015 0.065497
1.156538 0.587793 0.065561
1.161615 0.587851 0.065577
1.167055 0.588634 0.065619
1.171832 0.588326 0.065594
1.175559 0.586298 0.065470
0.156354 0.599302 0.081303
0.166166 0.590325 0.080560
0.172921 0.586812 0.080171
0.177429 0.587439 0.080044
0.178621 0.594294 0.080317
0.183629 0.594269 0.080119
0.189449 0.592798 0.079813
0.196578 0.588877 0.079336
0.202244 0.587754 0.079033
0.206457 0.589491 0.078908
0.211349 0.589979 0.078692
0.215532 0.591930 0.078563
0.220454 0.592468 0.078335
0.224633 0.594555 0.078201
0.228261 0.597841 0.078136
0.233796 0.597229 0.077819
0.242086 0.590776 0.077130
0.247227 0.590889 0.076855
0.251289 0.593328 0.076723
0.254890 0.596816 0.076655
0.259890 0.597252 0.076395
0.267081 0.592731 0.075831
0.274965 0.586470 0.075164
0.278967 0.588970 0.075035
0.283246 0.590841 0.074869
0.288338 0.590779 0.074587
0.293894 0.589543 0.074238
0.298772 0.589868 0.073985
0.303392 0.590780 0.073770
0.307625 0.592627 0.073614
0.311393 0.595644 0.073528
0.317704 0.592121 0.073062
0.322479 0.592450 0.072825
0.329092 0.587843 0.072307
0.333417 0.589195 0.072139
0.337886 0.590127 0.071950
0.342118 0.591672 0.071799
0.346071 0.593983 0.071695
0.349946 0.596518 0.071607
0.355929 0.592948 0.071178
0.363297 0.585120 0.070516
0.367466 0.586550 0.070379
0.371376 0.588750 0.070288
0.375234 0.591111 0.070209
0.378827 0.594320 0.070179
0.383640 0.593675 0.069940
0.389579 0.589297 0.069501
0.394801 0.587071 0.069186
0.399300 0.587133 0.068998
0.403594 0.587838 0.068850
0.407923 0.588388 0.068696
0.412007 0.589761 0.068589
0.416421 0.589944 0.068422
0.421599 0.587273 0.068106
0.426286 0.586284 0.067883
0.430957 0.585263 0.067663
0.433166 0.593687 0.067943
0.437382 0.594460 0.067822
0.441895 0.594020 0.067640
0.447153 0.590451 0.067297
0.451854 0.589017 0.067070
0.456560 0.587458 0.066840
0.460844 0.587625 0.066702
0.465160 0.587616 0.066557
0.465949 0.603658 0.067238
0.470486 0.602886 0.067057
0.476268 0.596090 0.066571
0.481296 0.592620 0.066259
0.486416 0.588480 0.065916
0.490734 0.588205 0.065772
0.494738 0.589526 0.065710
0.496908 0.600767 0.066148
0.500806 0.603003 0.066134
0.506340 0.596024 0.065661
0.512004 0.587867 0.065134
0.516237 0.587803 0.065012
0.520299 0.588756 0.064942
0.524334 0.589904 0.064884
0.528360 0.591150 0.064831
0.532551 0.591332 0.064728
0.536845 0.590772 0.064589
0.541236 0.589439 0.064415
0.545547 0.588582 0.064265
0.549664 0.589141 0.064186
0.553413 0.592680 0.064253
0.556217 0.604391 0.064716
0.561025 0.599554 0.064378
0.565486 0.597434 0.064174
0.570875 0.586283 0.063536
0.574839 0.588224 0.063531
0.578886 0.589477 0.063493
0.583242 0.587446 0.063299
0.587198 0.589800 0.063316
0.590034 0.606069 0.063995
0.594781 0.599539 0.063589
0.599645 0.590528 0.063068
0.603998 0.587789 0.062847
0.608137 0.588007 0.062766
0.612243 0.588807 0.062713
0.616291 0.590787 0.062717
0.619976 0.600525 0.063084
0.624266 0.598683 0.062909
0.628676 0.593386 0.062574
0.633239 0.582312 0.061971
0.637268 0.585336 0.062027
0.641306 0.589086 0.062116
0.645438 0.590047 0.062076
0.649612 0.588953 0.061942
0.653790 0.586675 0.061754
0.657908 0.589729 0.061812
0.662064 0.588758 0.061686
0.666214 0.588674 0.061601
0.670361 0.588288 0.061503
0.674711 0.605937 0.062228
0.678865 0.601223 0.061933
0.683008 0.598013 0.061708
0.687035 0.591415 0.061330
0.691010 0.585124 0.060968
0.695254 0.588243 0.061032
0.699459 0.589630 0.061019
0.703578 0.588736 0.060904
0.708131 0.596900 0.061196
0.712637 0.602745 0.061384
0.716770 0.601214 0.061241
0.720377 0.591496 0.060733
0.724447 0.589977 0.060594
0.730025 0.609556 0.061394
0.734032 0.606267 0.061176
0.736202 0.580766 0.059974
0.740825 0.586512 0.060161
0.745198 0.588891 0.060198
0.749481 0.590066 0.060183
0.757848 0.590144 0.060055
0.761795 0.587991 0.059896
0.766592 0.593432 0.060071
0.771042 0.595501 0.060099
0.774678 0.590804 0.059832
0.778372 0.586880 0.059600
0.782250 0.584584 0.059441
0.786571 0.585647 0.059430
0.790840 0.586243 0.059399
0.798363 0.608887 0.060325
0.801923 0.604009 0.060058
0.804467 0.592905 0.059523
0.807396 0.584810 0.059121
0.811731 0.585610 0.059105
0.816138 0.586762 0.059106
0.820517 0.587659 0.059096
0.824862 0.588292 0.059077
0.832099 0.604487 0.059727
0.836082 0.602693 0.059606
0.838326 0.592021 0.059106
0.843172 0.594874 0.059188
0.847980 0.597367 0.059255
0.852176 0.596787 0.059193
0.855054 0.590028 0.058869
0.858165 0.584600 0.058605
0.862329 0.584076 0.058551
0.866842 0.585064 0.058564
0.873891 0.596848 0.059038
0.879255 0.601032 0.059190
0.884380 0.604021 0.059293
0.885354 0.590093 0.058680
0.890012 0.591246 0.058710
0.895841 0.596850 0.058931
0.898902 0.591656 0.058696
0.900701 0.581887 0.058270
0.906582 0.587414 0.058494
0.910715 0.586387 0.058443
0.919850 0.603065 0.059145
0.923781 0.601000 0.059056
0.926007 0.593125 0.058723
0.927050 0.581483 0.058233
0.932530 0.584844 0.058381
0.936459 0.583000 0.058312
0.940847 0.582627 0.058307
0.945701 0.583676 0.058366
0.958268 0.608522 0.059438
0.964046 0.611833 0.059599
0.966003 0.603516 0.059270
0.965829 0.589090 0.058684
0.969649 0.586668 0.058611
0.973759 0.585087 0.058576
0.974554 0.574128 0.058145
0.982757 0.584041 0.058606
0.986825 0.582265 0.058573
0.998395 0.600746 0.059408
1.000439 0.593263 0.059138
1.003946 0.589768 0.059040
1.008397 0.588749 0.059051
1.013222 0.588650 0.059105
1.017138 0.586199 0.059061
1.020119 0.581428 0.058919
1.026641 0.585398 0.059157
1.032414 0.587386 0.059313
1.042685 0.599981 0.059932
1.046413 0.596792 0.059870
1.044102 0.579610 0.059199
1.050194 0.582066 0.059385
1.055649 0.582966 0.059505
1.061587 0.584868 0.059671
1.066722 0.584903 0.059756
1.072206 0.585648 0.059874
1.077537 0.586006 0.059975
1.083057 0.586717 0.060092
1.088247 0.586687 0.060176
1.093809 0.587399 0.060292
1.098813 0.586930 0.060354
1.103397 0.585608 0.060375
1.109701 0.587744 0.060549
1.114228 0.586320 0.060560
1.119565 0.586516 0.060639
1.125219 0.587332 0.060742
1.130515 0.587468 0.060808
1.135484 0.587015 0.060842
1.140515 0.586727 0.060876
1.145689 0.586754 0.060916
1.150606 0.586370 0.060929
1.156049 0.587008 0.060979
1.161936 0.588500 0.061058
1.167010 0.588603 0.061064
1.172144 0.588896 0.061066
1.179242 0.592692 0.061216
0.158042 0.595947 0.076521
0.165907 0.590453 0.076039
0.173336 0.585752 0.075593
0.176864 0.588183 0.075575
0.179433 0.592527 0.075660
0.182944 0.595298 0.075634
0.188227 0.594874 0.075401
0.193515 0.594504 0.075161
0.198196 0.595359 0.074985
0.203228 0.595607 0.074763
0.209940 0.592600 0.074338
0.215584 0.591689 0.074033
0.220417 0.592418 0.073819
0.224499 0.594715 0.073691
0.226545 0.601279 0.073808
0.231525 0.601879 0.073570
0.241509 0.591913 0.072714
0.247742 0.589714 0.072311
0.251681 0.592409 0.072190
0.253612 0.599556 0.072321
0.258941 0.599302 0.072026
0.268266 0.590005 0.071221
0.274726 0.586960 0.070774
0.278578 0.589814 0.070660
0.283465 0.590272 0.070414
0.288446 0.590465 0.070154
0.293550 0.590312 0.069878
0.299149 0.588889 0.069535
0.303680 0.590006 0.069335
0.307709 0.592349 0.069203
0.310927 0.596756 0.069185
0.316039 0.596338 0.068910
0.323157 0.590594 0.068354
0.329122 0.587676 0.067956
0.332960 0.590332 0.067856
0.337142 0.592058 0.067711
0.342092 0.591638 0.067456
0.346286 0.593263 0.067312
0.351720 0.591328 0.066987
0.357101 0.589418 0.066668
0.362200 0.588215 0.066391
0.367287 0.586943 0.066114
0.371177 0.589202 0.066021
0.375215 0.591009 0.065908
0.376086 0.602748 0.066297
0.383276 0.594659 0.065692
0.389520 0.589301 0.065231
0.394798 0.586886 0.064921
0.399246 0.587111 0.064747
0.403377 0.588364 0.064626
0.407623 0.589204 0.064488
0.412017 0.589491 0.064326
0.416474 0.589507 0.064155
0.420914 0.589530 0.063986
0.425567 0.588703 0.063780
0.430621 0.586268 0.063500
0.432438 0.596219 0.063817
0.436673 0.596963 0.063694
0.442712 0.590425 0.063227
0.446880 0.591252 0.063114
0.452168 0.587372 0.062781
0.456533 0.587233 0.062629
0.460720 0.587816 0.062512
0.464706 0.589279 0.062439
0.465312 0.606181 0.063087
0.471015 0.600024 0.062662
0.475449 0.599595 0.062506
0.481516 0.591126 0.061982
0.486171 0.589276 0.061766
0.490775 0.587553 0.061559
0.494865 0.588407 0.061473
0.496741 0.601193 0.061931
0.500535 0.604008 0.061935
0.505632 0.599543 0.061610
0.511912 0.587885 0.060964
0.516077 0.588227 0.060863
0.520137 0.589203 0.060791
0.524206 0.590148 0.060720
0.528370 0.590495 0.060623
0.532493 0.591115 0.060540
0.536946 0.589432 0.060356
0.540923 0.591049 0.060320
0.545095 0.591291 0.060224
0.549384 0.590612 0.060089
0.553638 0.590139 0.059964
0.556840 0.598401 0.060223
0.560860 0.600193 0.060199
0.565573 0.595812 0.059906
0.570620 0.587847 0.059461
0.574703 0.588688 0.059399
0.578826 0.589171 0.059323
0.583004 0.589080 0.059223
0.587407 0.586351 0.059011
0.589481 0.611707 0.060005
0.594647 0.600116 0.059413
0.599081 0.597067 0.059189
0.604008 0.586339 0.058640
0.608067 0.587722 0.058608
0.612127 0.589295 0.058585
0.616257 0.589815 0.058518
0.620014 0.597970 0.058774
0.624069 0.601150 0.058819
0.628494 0.595795 0.058506
0.633064 0.584885 0.057962
0.637079 0.588761 0.058039
0.641221 0.589092 0.057968
0.645384 0.588610 0.057864
0.649528 0.588980 0.057796
0.653674 0.589422 0.057731
0.657835 0.588464 0.057609
0.661983 0.588853 0.057544
0.666132 0.588120 0.057432
0.670280 0.588213 0.057356
0.674605 0.603816 0.057915
0.678744 0.598678 0.057625
0.682867 0.595052 0.057397
0.686993 0.592867 0.057230
0.690992 0.587121 0.056918
0.695181 0.588366 0.056892
0.699375 0.589436 0.056859
0.703527 0.589320 0.056779
0.708048 0.596781 0.057004
0.712440 0.600497 0.057079
0.716448 0.596963 0.056863
0.720693 0.597732 0.056820
0.724684 0.594593 0.056621
0.729171 0.598737 0.056714
0.733402 0.599025 0.056654
0.736319 0.583089 0.055950
0.740578 0.584481 0.055937
0.745070 0.588277 0.056018
0.749375 0.589712 0.056007
0.758244 0.594617 0.056067
0.761840 0.589050 0.055783
0.766629 0.594378 0.055927
0.771005 0.595794 0.055918
0.774357 0.588776 0.055581
0.778472 0.588204 0.055497
0.782365 0.585985 0.055351
0.786719 0.587237 0.055340
0.790749 0.586102 0.055238
0.798038 0.607175 0.055996
0.801935 0.604565 0.055838
0.805122 0.597546 0.055511
0.806885 0.582077 0.054861
0.811348 0.583733 0.054872
0.815972 0.586210 0.054916
0.820500 0.587973 0.054934
0.824791 0.588302 0.054898
0.832379 0.606401 0.055543
0.835645 0.600782 0.055282
0.837935 0.590393 0.054841
0.841087 0.584788 0.054585
0.847826 0.596986 0.055008
0.852078 0.596684 0.054957
0.854444 0.587537 0.054572
0.857712 0.582878 0.054359
0.862437 0.584909 0.054402
0.866285 0.582970 0.054297
0.874355 0.599187 0.054879
0.879020 0.600389 0.054896
0.883410 0.600366 0.054868
0.889071 0.605436 0.055035
0.893729 0.606293 0.055044
0.896094 0.598168 0.054717
0.899042 0.592520 0.054486
0.900679 0.582132 0.054079
0.905937 0.585373 0.054188
0.910878 0.587305 0.054249
0.920439 0.605484 0.054924
0.924275 0.603053 0.054826
0.925874 0.592998 0.054445
0.926352 0.579461 0.053935
0.931372 0.581342 0.054007
0.936730 0.584209 0.054118
0.940990 0.583411 0.054095
0.945271 0.582650 0.054076
0.957253 0.605717 0.054956
0.963829 0.611513 0.055190
0.964207 0.598460 0.054717
0.965971 0.589846 0.054413
0.972416 0.595059 0.054634
0.976109 0.592160 0.054552
0.976485 0.579914 0.054119
0.981868 0.581903 0.054227
0.986308 0.581184 0.054235
0.998846 0.602310 0.055075
1.002538 0.599199 0.055000
1.004894 0.592601 0.054795
1.008614 0.589655 0.054731
1.013381 0.589400 0.054772
1.016609 0.585209 0.054667
1.018160 0.576905 0.054406
1.024828 0.581297 0.054633
1.032053 0.586856 0.054908
1.041244 0.596891 0.055359
1.042421 0.587744 0.055074
1.044491 0.580848 0.054878
1.050314 0.582676 0.055020
1.055746 0.583518 0.055125
1.061619 0.585267 0.055268
1.066619 0.584999 0.055333
1.071863 0.585222 0.055419
1.077980 0.587272 0.055577
1.083565 0.588102 0.055687
1.088552 0.587626 0.055746
1.093659 0.587379 0.055813
1.098783 0.587150 0.055880
1.103981 0.587060 0.055950
1.108988 0.586577 0.056002
1.114464 0.587030 0.056088
1.119821 0.587245 0.056161
1.125470 0.588030 0.056252
1.130336 0.587324 0.056279
1.135411 0.587056 0.056317
1.140831 0.587475 0.056376
1.145552 0.586641 0.056378
1.150415 0.586138 0.056385
1.155763 0.586584 0.056421
1.161777 0.588285 0.056498
1.166791 0.588261 0.056495
1.171854 0.588411 0.056490
1.176938 0.588687 0.056478
0.162865 0.587040 0.071455
0.165187 0.591408 0.071561
0.171190 0.589318 0.071287
0.177060 0.587535 0.071018
0.179997 0.591218 0.071045
0.182978 0.594984 0.071063
0.188450 0.594223 0.070816
0.194398 0.592610 0.070512
0.199093 0.593438 0.070334
0.203943 0.594038 0.070135
0.210091 0.592141 0.069790
0.215489 0.591730 0.069522
0.220505 0.592106 0.069290
0.224401 0.594791 0.069178
0.223429 0.607591 0.069602
0.232583 0.599564 0.068905
0.242152 0.590459 0.068153
0.246795 0.591650 0.067947
0.251221 0.593320 0.067765
0.253592 0.599518 0.067817
0.259505 0.597970 0.067464
0.266878 0.593054 0.066939
0.274088 0.588341 0.066428
0.278493 0.589936 0.066244
0.283112 0.591025 0.066034
0.288054 0.591322 0.065786
0.292908 0.591781 0.065549
0.297703 0.592335 0.065319
0.303531 0.590290 0.064963
0.307452 0.592906 0.064841
0.310545 0.597634 0.064823
0.316490 0.595080 0.064453
0.320838 0.596558 0.064283
0.329200 0.587364 0.063602
0.333412 0.589003 0.063448
0.337203 0.591772 0.063351
0.341523 0.593088 0.063187
0.347251 0.590415 0.062839
0.352198 0.589822 0.062593
0.357542 0.587994 0.062294
0.362644 0.586753 0.062027
0.367136 0.587231 0.061843
0.371081 0.589321 0.061737
0.374452 0.593187 0.061715
0.377116 0.599329 0.061798
0.382898 0.595668 0.061439
0.389098 0.590465 0.061015
0.394955 0.586157 0.060637
0.399223 0.586966 0.060492
0.403143 0.588930 0.060402
0.407537 0.589263 0.060242
0.412076 0.589032 0.060060
0.416346 0.589708 0.059922
0.420488 0.590820 0.059805
0.425142 0.590006 0.059607
0.429306 0.590973 0.059489
0.432494 0.595701 0.059537
0.436056 0.599084 0.059527
0.442168 0.592290 0.059084
0.446705 0.591639 0.058907
0.452095 0.587337 0.058578
0.456346 0.587680 0.058449
0.460541 0.588232 0.058332
0.464557 0.589568 0.058250
0.467078 0.597731 0.058455
0.470603 0.601535 0.058478
0.475586 0.598522 0.058219
0.481002 0.593208 0.057868
0.486771 0.585837 0.057436
0.490705 0.587459 0.057377
0.495034 0.587050 0.057237
0.495971 0.604849 0.057842
0.500331 0.604630 0.057711
0.505438 0.600120 0.057407
0.511909 0.587372 0.056774
0.516040 0.587902 0.056680
0.519966 0.589697 0.056639
0.524063 0.590473 0.056558
0.528329 0.590163 0.056435
0.533112 0.586298 0.056172
0.537275 0.586489 0.056072
0.540812 0.591183 0.056152
0.544873 0.592261 0.056089
0.549474 0.589200 0.055864
0.553579 0.589866 0.055788
0.556372 0.601538 0.056143
0.560344 0.603877 0.056132
0.565278 0.597654 0.055789
0.570466 0.588441 0.055333
0.574532 0.589474 0.055276
0.578585 0.590726 0.055228
0.582826 0.590029 0.055105
0.587577 0.583356 0.054755
0.590167 0.602225 0.055384
0.594239 0.604207 0.055366
0.599162 0.594725 0.054912
0.603950 0.585889 0.054485
0.608121 0.585480 0.054379
0.612063 0.588887 0.054419
0.616255 0.588223 0.054305
0.619959 0.597309 0.054558
0.624047 0.599687 0.054559
0.628325 0.597848 0.054403
0.632864 0.588118 0.053954
0.637023 0.587801 0.053857
0.641120 0.589749 0.053844
0.645269 0.590061 0.053772
0.649441 0.589178 0.053655
0.653596 0.589030 0.053567
0.657742 0.589811 0.053513
0.661900 0.589281 0.053412
0.666051 0.588376 0.053298
0.670194 0.587322 0.053179
0.674444 0.596771 0.053442
0.678639 0.597098 0.053374
0.682797 0.595527 0.053238
0.686887 0.591798 0.053025
0.690885 0.586143 0.052743
0.695108 0.588483 0.052750
0.699308 0.589694 0.052717
0.703556 0.591715 0.052713
0.707964 0.596628 0.052812
0.712222 0.597819 0.052779
0.716507 0.599287 0.052757
0.720713 0.599258 0.052681
0.724603 0.594498 0.052439
0.729662 0.606607 0.052793
0.733107 0.596136 0.052352
0.736326 0.584060 0.051857
0.740482 0.584201 0.051793
0.744760 0.585638 0.051774
0.749471 0.591469 0.051908
0.755151 0.606418 0.052359
0.758273 0.595570 0.051915
0.761665 0.588094 0.051589
0.766303 0.592147 0.051664
0.770686 0.593697 0.051652
0.774500 0.590500 0.051479
0.778314 0.587516 0.051313
0.782603 0.588293 0.051278
0.786507 0.586200 0.051146
0.790624 0.585712 0.051070
0.797392 0.603261 0.051608
0.801259 0.600574 0.051458
0.804888 0.596499 0.051263
0.807513 0.586409 0.050865
0.811542 0.585323 0.050775
0.815741 0.585268 0.050720
0.820207 0.586707 0.050717
0.824521 0.587197 0.050683
0.832505 0.607471 0.051314
0.835608 0.600971 0.051047
0.838220 0.592225 0.050708
0.842024 0.589853 0.050584
0.845641 0.586641 0.050433
0.850215 0.588120 0.050441
0.853937 0.585510 0.050314
0.857533 0.582399 0.050172
0.862183 0.584109 0.050192
0.867148 0.587083 0.050256
0.870141 0.581434 0.050036
0.875842 0.587359 0.050200
0.880701 0.589538 0.050242
0.885218 0.590207 0.050237
0.888608 0.586342 0.050084
0.894051 0.590553 0.050199
0.897794 0.588084 0.050096
0.900967 0.583524 0.049926
0.905434 0.583839 0.049919
0.910229 0.585274 0.049952
0.920917 0.607500 0.050669
0.925230 0.606698 0.050632
0.926484 0.595403 0.050253
0.926016 0.578639 0.049697
0.930649 0.579262 0.049714
0.936182 0.582737 0.049828
0.940905 0.583453 0.049853
0.945183 0.582685 0.049832
0.961544 0.619336 0.051042
0.961058 0.603383 0.050529
0.962777 0.594485 0.050250
0.966322 0.591201 0.050157
0.970855 0.590833 0.050163
0.976381 0.593262 0.050264
0.974681 0.575135 0.049692
0.981302 0.580647 0.049900
0.986428 0.581834 0.049968
0.998027 0.600424 0.050615
1.001383 0.596448 0.050519
1.004546 0.592013 0.050411
1.009490 0.592250 0.050461
1.014275 0.592008 0.050497
1.015264 0.582146 0.050216
1.019622 0.580859 0.050222
1.024862 0.581706 0.050302
1.031911 0.586838 0.050529
1.039746 0.593644 0.050814
1.042979 0.589380 0.050731
1.045489 0.583485 0.050594
1.051116 0.584833 0.050703
1.056539 0.585626 0.050795
1.061462 0.585228 0.050849
1.066659 0.585395 0.050923
1.072629 0.587192 0.051053
1.078169 0.587977 0.051149
1.083641 0.588556 0.051239
1.088613 0.588038 0.051292
1.093403 0.587125 0.051329
1.098296 0.586419 0.051373
1.104164 0.587685 0.051483
1.109160 0.587165 0.051530
1.114401 0.587139 0.051590
1.120199 0.588202 0.051685
1.125103 0.587525 0.051715
1.129852 0.586586 0.051732
1.135542 0.587472 0.051806
1.140780 0.587530 0.051846
1.145713 0.587069 0.051860
1.150419 0.586256 0.051854
1.156037 0.587170 0.051901
1.161949 0.588662 0.051959
1.168952 0.592135 0.052077
1.171604 0.587994 0.051919
1.174200 0.583927 0.051753
0.164194 0.584331 0.066798
0.165319 0.590837 0.066993
0.169008 0.592947 0.066947
0.174612 0.591708 0.066715
0.179485 0.591888 0.066544
0.183949 0.592920 0.066406
0.189166 0.592638 0.066190
0.194208 0.592755 0.065985
0.202823 0.586061 0.065428
0.208572 0.584847 0.065141
0.212029 0.588155 0.065073
0.215598 0.591354 0.064991
0.220336 0.592298 0.064791
0.225448 0.592522 0.064551
0.223888 0.606515 0.064976
0.234017 0.596452 0.064227
0.241609 0.591494 0.063727
0.246558 0.592050 0.063492
0.250953 0.593801 0.063313
0.253334 0.599987 0.063341
0.260563 0.595523 0.062866
0.268359 0.589629 0.062328
0.273276 0.590102 0.062090
0.277321 0.592556 0.061944
0.282636 0.592047 0.061662
0.287312 0.592989 0.061450
0.292425 0.592847 0.061190
0.297443 0.592870 0.060941
0.302335 0.593145 0.060706
0.308177 0.590983 0.060365
0.310531 0.597561 0.060415
0.315401 0.597773 0.060185
0.322004 0.593390 0.059759
0.328907 0.588017 0.059296
0.333047 0.589855 0.059149
0.337107 0.591896 0.059014
0.341730 0.592371 0.058815
0.346431 0.592572 0.058607
0.351304 0.592218 0.058380
0.356905 0.589676 0.058066
0.362565 0.586815 0.057743
0.367165 0.586965 0.057549
0.370837 0.589876 0.057472
0.371356 0.602547 0.057797
0.378021 0.596284 0.057350
0.383101 0.594806 0.057102
0.388467 0.592288 0.056816
0.395313 0.584748 0.056334
0.399226 0.586718 0.056237
0.403073 0.588922 0.056151
0.407611 0.588749 0.055974
0.412566 0.587040 0.055740
0.416165 0.590082 0.055696
0.420562 0.590263 0.055541
0.425150 0.589685 0.055360
0.429423 0.590224 0.055225
0.433374 0.591982 0.055140
0.436953 0.595220 0.055113
0.442776 0.589511 0.054747
0.446473 0.592245 0.054706
0.451821 0.588129 0.054407
0.456220 0.587850 0.054257
0.460419 0.588389 0.054139
0.464701 0.588535 0.054009
0.466678 0.599146 0.054270
0.470228 0.602865 0.054274
0.474624 0.602674 0.054136
0.480167 0.596842 0.053793
0.487208 0.583199 0.053167
0.491141 0.584760 0.053102
0.495024 0.586622 0.053048
0.496966 0.598988 0.053376
0.501119 0.599757 0.053284
0.505787 0.597614 0.053089
0.511859 0.587123 0.052598
0.515770 0.588967 0.052550
0.519711 0.590693 0.052500
0.523818 0.591435 0.052416
0.528511 0.588356 0.052198
0.532878 0.587251 0.052051
0.537009 0.587692 0.051961
0.540867 0.590107 0.051940
0.544966 0.590866 0.051863
0.549081 0.591517 0.051782
0.553738 0.587842 0.051554
0.555976 0.604063 0.052012
0.559895 0.606961 0.052011
0.564689 0.602144 0.051745
0.570540 0.586866 0.051125
0.574409 0.589780 0.051128
0.578434 0.591339 0.051086
0.582603 0.591461 0.050995
0.587084 0.587992 0.050784
0.589503 0.609181 0.051403
0.594439 0.600441 0.051017
0.599251 0.592256 0.050651
0.603837 0.586237 0.050360
0.607914 0.587335 0.050307
0.612181 0.585368 0.050153
0.616326 0.585293 0.050063
0.620173 0.591196 0.050169
0.624275 0.592628 0.050129
0.628299 0.596300 0.050162
0.632830 0.586672 0.049762
0.636903 0.588927 0.049751
0.641018 0.590411 0.049714
0.645163 0.591092 0.049652
0.649340 0.590223 0.049540
0.653511 0.589150 0.049423
0.657661 0.589703 0.049358
0.661808 0.592845 0.049377
0.665970 0.588612 0.049161
0.670166 0.595419 0.049296
0.674371 0.597458 0.049280
0.678560 0.597192 0.049191
0.682732 0.596229 0.049081
0.686910 0.595831 0.048989
0.690832 0.586972 0.048633
0.695131 0.591405 0.048694
0.699190 0.588647 0.048531
0.703438 0.590748 0.048520
0.707834 0.595511 0.048592
0.712677 0.607818 0.048896
0.716317 0.597306 0.048496
0.720395 0.595353 0.048361
0.723868 0.584647 0.047959
0.728053 0.585227 0.047904
0.732202 0.585252 0.047833
0.737419 0.598412 0.048162
0.741450 0.596300 0.048026
0.745200 0.591289 0.047804
0.750294 0.600857 0.048023
0.754420 0.599818 0.047922
0.758089 0.594481 0.047693
0.761883 0.590728 0.047513
0.765808 0.588411 0.047377
0.770747 0.594802 0.047501
0.775787 0.601493 0.047635
0.778797 0.591824 0.047284
0.781840 0.583066 0.046961
0.787274 0.592272 0.047171
0.791049 0.589180 0.047019
0.795842 0.593183 0.047076
0.800792 0.597951 0.047156
0.804221 0.592675 0.046943
0.807584 0.587269 0.046728
0.811324 0.584418 0.046590
0.815916 0.586691 0.046601
0.820251 0.587348 0.046567
0.824461 0.587245 0.046511
0.832394 0.607255 0.047038
0.834749 0.596810 0.046686
0.838500 0.594028 0.046557
0.840475 0.582430 0.046177
0.844356 0.580687 0.046082
0.849871 0.586813 0.046213
0.853891 0.585629 0.046137
0.861092 0.599024 0.046478
0.864297 0.593903 0.046292
0.867812 0.590318 0.046152
0.870461 0.583126 0.045912
0.874518 0.582106 0.045849
0.879895 0.586528 0.045941
0.884303 0.586821 0.045919
0.887788 0.583398 0.045793
0.893509 0.588755 0.045917
0.897258 0.586343 0.045824
0.901130 0.584438 0.045748
