ply
format ascii 1.0
comment ---
element vertex 1708
property float x
property float y
property float z
element face 0
property list uchar uint vertex_indices
end_header
0.788544 0.595750 -0.300691
0.792637 0.593355 -0.300847
0.796391 0.590581 -0.300838
0.803379 0.591268 -0.302382
0.806571 0.587855 -0.302094
0.812555 0.587385 -0.303135
0.817044 0.585308 -0.303457
0.828695 0.590593 -0.307141
0.831601 0.586792 -0.306696
0.839130 0.587676 -0.308404
0.850801 0.592627 -0.312004
0.856428 0.591432 -0.312788
0.860138 0.588315 -0.312686
0.867505 0.588751 -0.314246
0.872263 0.586604 -0.314610
0.880072 0.587342 -0.316339
0.889135 0.589188 -0.318610
0.894353 0.587336 -0.319145
0.904829 0.590325 -0.321998
0.913698 0.591715 -0.324114
0.919736 0.590440 -0.324967
0.925876 0.589214 -0.325855
0.933583 0.589339 -0.327410
0.938688 0.587096 -0.327827
0.947664 0.588207 -0.329897
0.954424 0.587310 -0.331000
0.961322 0.586475 -0.332148
0.975541 0.591794 -0.336369
0.983827 0.591952 -0.338058
0.989662 0.589993 -0.338704
0.998571 0.590527 -0.340619
1.006798 0.590416 -0.342230
1.012902 0.588515 -0.342951
1.017869 0.585662 -0.343198
1.028713 0.587437 -0.345831
1.041110 0.590314 -0.349065
1.049118 0.589642 -0.350497
1.057859 0.589463 -0.352206
1.066767 0.589328 -0.353962
1.074675 0.588354 -0.355302
1.079518 0.585023 -0.355415
1.094378 0.589066 -0.359462
1.101318 0.587145 -0.360368
1.109302 0.585924 -0.361670
1.120299 0.586791 -0.364123
1.130973 0.587313 -0.366424
1.138142 0.585265 -0.367355
1.144952 0.582909 -0.368137
1.159379 0.585735 -0.371802
1.164991 0.582400 -0.372095
1.183644 0.587807 -0.377289
1.189949 0.584766 -0.377805
1.202175 0.585580 -0.380519
1.211720 0.584515 -0.382208
1.223642 0.584891 -0.384755
1.234432 0.584417 -0.386857
1.243462 0.582722 -0.388291
1.257565 0.584110 -0.391553
1.273954 0.586756 -0.395607
1.275913 0.580394 -0.394416
1.290035 0.581395 -0.397595
1.301190 0.580468 -0.399679
1.317339 0.582380 -0.403513
1.325174 0.579250 -0.404364
1.344614 0.582760 -0.409289
1.355692 0.581268 -0.411230
1.365082 0.578711 -0.412557
1.377315 0.577654 -0.414854
1.398656 0.581500 -0.420272
1.409241 0.579235 -0.421931
1.423402 0.578798 -0.424793
1.440127 0.579581 -0.428497
1.452211 0.577745 -0.430583
1.468772 0.578123 -0.434157
1.483095 0.577181 -0.436938
1.494880 0.574812 -0.438837
1.524178 0.581120 -0.446549
1.538349 0.579620 -0.449164
1.552544 0.578007 -0.451757
1.565630 0.575737 -0.453955
1.596816 0.581992 -0.462052
1.615023 0.581823 -0.465840
1.630852 0.580395 -0.468816
1.647938 0.579426 -0.472167
1.664862 0.578259 -0.475432
1.692298 0.581676 -0.482026
1.707368 0.579409 -0.484619
1.714892 0.573781 -0.484793
1.748712 0.579473 -0.493267
1.756741 0.573958 -0.493558
1.781018 0.575276 -0.498931
1.806112 0.576796 -0.504513
1.777085 0.556105 -0.493260
1.749352 0.536386 -0.482508
1.725194 0.518520 -0.472952
1.739633 0.516196 -0.475302
1.736545 0.507090 -0.472295
0.233466 0.586837 -0.199485
0.236450 0.586881 -0.200068
0.239496 0.586961 -0.200664
0.242878 0.589199 -0.201924
0.245898 0.588219 -0.202203
0.249061 0.587960 -0.202705
0.254072 0.600182 -0.207056
0.257156 0.598419 -0.207107
0.260076 0.595419 -0.206775
0.263804 0.597429 -0.207997
0.266543 0.593059 -0.207235
0.269598 0.590616 -0.207071
0.275020 0.601755 -0.211161
0.280172 0.610594 -0.214548
0.283571 0.609267 -0.214750
0.285762 0.601494 -0.212915
0.288214 0.595362 -0.211588
0.292603 0.599173 -0.213411
0.298006 0.607667 -0.216735
0.301952 0.608710 -0.217695
0.305440 0.607512 -0.217941
0.308732 0.605425 -0.217901
0.310224 0.595400 -0.215303
0.313679 0.594300 -0.215571
0.317599 0.595178 -0.216481
0.321668 0.596607 -0.217573
0.325462 0.596828 -0.218276
0.331431 0.605646 -0.221790
0.336450 0.610382 -0.223985
0.340907 0.612764 -0.225418
0.344924 0.613389 -0.226279
0.348511 0.612400 -0.226611
0.352714 0.613634 -0.227681
0.354637 0.606782 -0.226070
0.356044 0.598380 -0.223933
0.359317 0.596598 -0.223994
0.362853 0.595736 -0.224362
0.366486 0.595204 -0.224843
0.369982 0.594232 -0.225178
0.373725 0.594052 -0.225781
0.377732 0.594681 -0.226661
0.381646 0.594983 -0.227434
0.385203 0.594180 -0.227836
0.389000 0.594090 -0.228482
0.393464 0.595922 -0.229790
0.396646 0.594000 -0.229816
0.400726 0.594645 -0.230726
0.405373 0.596818 -0.232169
0.408829 0.595641 -0.232459
0.412713 0.595625 -0.233154
0.416890 0.596360 -0.234115
0.420686 0.596044 -0.234714
0.424144 0.594840 -0.235005
0.427698 0.593881 -0.235385
0.432016 0.594833 -0.236440
0.436114 0.595181 -0.237287
0.440104 0.595222 -0.238031
0.443984 0.594964 -0.238673
0.447717 0.594332 -0.239186
0.451025 0.592685 -0.239339
0.454218 0.590781 -0.239400
0.457097 0.588175 -0.239210
0.463849 0.594303 -0.242171
0.470785 0.600645 -0.245228
0.479338 0.610326 -0.249515
0.485643 0.614862 -0.251956
0.485131 0.604686 -0.249037
0.488915 0.603781 -0.249498
0.491586 0.600539 -0.249102
0.494068 0.596946 -0.248576
0.500264 0.600944 -0.250854
0.507771 0.607434 -0.254071
0.513194 0.609590 -0.255696
0.514078 0.602761 -0.253977
0.520167 0.606122 -0.256063
0.522976 0.603086 -0.255761
0.521969 0.592860 -0.252748
0.529055 0.597949 -0.255505
0.537852 0.606036 -0.259417
0.541162 0.603872 -0.259455
0.543751 0.600410 -0.258999
0.548790 0.601351 -0.260226
0.552659 0.600157 -0.260641
0.552799 0.592441 -0.258547
0.556518 0.591022 -0.258874
0.561088 0.591038 -0.259760
0.564575 0.589179 -0.259922
0.567783 0.586847 -0.259902
0.581222 0.601397 -0.266494
0.584091 0.598333 -0.266210
0.585096 0.592278 -0.264744
0.587933 0.589229 -0.264459
0.592099 0.588295 -0.265012
0.599552 0.592467 -0.267602
0.603105 0.590473 -0.267747
0.607960 0.590461 -0.268688
0.611490 0.588396 -0.268810
0.618337 0.591288 -0.270935
0.622204 0.589657 -0.271243
0.629552 0.593107 -0.273619
0.629765 0.586091 -0.271743
0.631394 0.581201 -0.270725
0.637882 0.583261 -0.272555
0.646493 0.588211 -0.275590
0.652060 0.588774 -0.276833
0.656163 0.587260 -0.277223
0.665518 0.592879 -0.280587
0.668133 0.589241 -0.280107
0.673256 0.588974 -0.281039
0.678744 0.589143 -0.282161
0.683057 0.587717 -0.282618
0.690068 0.589760 -0.284551
0.697971 0.592852 -0.286944
0.703409 0.592702 -0.287972
0.706674 0.589773 -0.287816
0.716750 0.595313 -0.291305
0.717328 0.589002 -0.289701
0.721038 0.586578 -0.289772
0.727722 0.587734 -0.291402
0.734516 0.588945 -0.293070
0.743080 0.592169 -0.295634
0.746086 0.588768 -0.295302
0.757480 0.595101 -0.299270
0.759181 0.590130 -0.298256
0.759357 0.583466 -0.296481
0.760787 0.578288 -0.295358
0.773104 0.585286 -0.299691
0.786745 0.593551 -0.304631
0.793423 0.593990 -0.306071
0.797000 0.591008 -0.305971
0.802352 0.589929 -0.306739
0.809540 0.590758 -0.308388
0.812296 0.586857 -0.307878
0.824229 0.592519 -0.311779
0.828603 0.590224 -0.312027
0.832324 0.587249 -0.311961
0.838673 0.586924 -0.313136
0.849653 0.591178 -0.316470
0.854854 0.589562 -0.317069
0.864319 0.592100 -0.319640
0.866075 0.587035 -0.318625
0.875246 0.589139 -0.321022
0.880664 0.587563 -0.321680
0.886826 0.586654 -0.322667
0.894192 0.586825 -0.324187
0.901807 0.587155 -0.325801
0.912858 0.590562 -0.328930
0.920120 0.590397 -0.330343
0.925337 0.588328 -0.330836
0.931540 0.587110 -0.331756
0.937457 0.585592 -0.332540
0.944088 0.584656 -0.333626
0.956583 0.588736 -0.337235
0.967894 0.591652 -0.340297
0.970378 0.586956 -0.339546
0.983503 0.591207 -0.343334
0.990279 0.590024 -0.344391
0.997909 0.589489 -0.345796
1.006824 0.589934 -0.347724
1.011849 0.587153 -0.348007
1.019902 0.586766 -0.349543
1.034420 0.591419 -0.353733
1.041564 0.590123 -0.354847
1.049646 0.589494 -0.356332
1.056479 0.587835 -0.357292
1.067808 0.589538 -0.360061
1.073864 0.587152 -0.360675
1.080997 0.585525 -0.361713
1.093957 0.588139 -0.365063
1.101998 0.587015 -0.366425
1.109897 0.585716 -0.367714
1.118980 0.585195 -0.369454
1.128384 0.584814 -0.371300
1.138516 0.584852 -0.373408
1.146842 0.583534 -0.374793
1.157754 0.583916 -0.377159
1.170134 0.585182 -0.380062
1.183801 0.587180 -0.383426
1.191873 0.585303 -0.384626
1.198475 0.582385 -0.385254
1.211873 0.583843 -0.388432
1.226395 0.585879 -0.391998
1.232470 0.582365 -0.392374
1.248672 0.585195 -0.396502
1.257829 0.583443 -0.397983
1.265670 0.580792 -0.398961
1.282533 0.583579 -0.403230
1.289785 0.580369 -0.403949
1.308169 0.583747 -0.408696
1.319399 0.582688 -0.410808
1.333440 0.583156 -0.413907
1.344844 0.581950 -0.416027
1.356889 0.580994 -0.418350
1.368099 0.579443 -0.420349
1.383890 0.580335 -0.423940
1.401895 0.582276 -0.428269
1.411988 0.579709 -0.429786
1.426668 0.579517 -0.432878
1.442515 0.579794 -0.436339
1.454743 0.578004 -0.438514
1.468750 0.577020 -0.441272
1.484231 0.576657 -0.444503
1.497045 0.574789 -0.446790
1.517690 0.576726 -0.451701
1.540286 0.579416 -0.457219
1.556809 0.578914 -0.460642
1.579395 0.581184 -0.466053
1.600007 0.582297 -0.470752
1.615335 0.580740 -0.473654
1.631930 0.579654 -0.476942
1.649608 0.578938 -0.480550
1.662849 0.576086 -0.482672
1.679969 0.574894 -0.486032
1.703234 0.576300 -0.491349
1.727285 0.577879 -0.496870
1.742625 0.575554 -0.499544
1.759322 0.573745 -0.502627
1.764581 0.567093 -0.502046
1.775041 0.562657 -0.503117
1.772378 0.552902 -0.500044
1.726359 0.525893 -0.483390
1.785676 0.524889 -0.495475
0.234150 0.596006 -0.205647
0.235529 0.582542 -0.202073
0.238475 0.582026 -0.202490
0.242066 0.586086 -0.204330
0.245356 0.587245 -0.205276
0.250400 0.600562 -0.210024
0.254138 0.603605 -0.211579
0.256965 0.600013 -0.211058
0.259634 0.595334 -0.210191
0.263014 0.595182 -0.210747
0.266630 0.596244 -0.211689
0.269974 0.595425 -0.212038
0.275575 0.607503 -0.216492
0.279889 0.611513 -0.218394
0.283397 0.610753 -0.218779
0.285931 0.604732 -0.217475
0.290297 0.608387 -0.219276
0.295345 0.615177 -0.222098
0.298708 0.613272 -0.222119
0.302410 0.613006 -0.222672
0.305967 0.612009 -0.222988
0.309302 0.609991 -0.222970
0.309772 0.595274 -0.218797
0.313842 0.596834 -0.219939
0.317685 0.597318 -0.220733
0.321738 0.598618 -0.221798
0.324843 0.595982 -0.221566
0.329683 0.600334 -0.223649
0.334591 0.604740 -0.225761
0.336161 0.596212 -0.223569
0.339739 0.595511 -0.223983
0.343350 0.594941 -0.224441
0.347200 0.595229 -0.225189
0.351125 0.595755 -0.226021
0.355151 0.596593 -0.226963
0.358812 0.596140 -0.227471
0.362569 0.596006 -0.228090
0.366141 0.595254 -0.228501
0.369445 0.593644 -0.228620
0.373135 0.593291 -0.229171
0.377579 0.595276 -0.230528
0.381513 0.595616 -0.231325
0.385057 0.594746 -0.231707
0.389055 0.595227 -0.232561
0.392986 0.595474 -0.233337
0.396784 0.595307 -0.233974
0.400669 0.595369 -0.234693
0.404056 0.594016 -0.234921
0.408129 0.594556 -0.235815
0.412486 0.595819 -0.236970
0.416282 0.595525 -0.237580
0.419790 0.594456 -0.237919
0.423557 0.594055 -0.238498
0.427518 0.594128 -0.239249
0.431261 0.593622 -0.239798
0.435727 0.594885 -0.240985
0.439147 0.593528 -0.241235
0.443360 0.594082 -0.242178
0.447380 0.594128 -0.242943
0.456344 0.605709 -0.247901
0.461466 0.608073 -0.249532
0.464656 0.605933 -0.249527
0.467620 0.603304 -0.249344
0.471890 0.603603 -0.250236
0.476880 0.605434 -0.251698
0.480953 0.605192 -0.252404
0.484581 0.603966 -0.252749
0.486432 0.598981 -0.251698
0.491460 0.600696 -0.253141
0.492301 0.593712 -0.251337
0.496923 0.594540 -0.252456
0.505633 0.603516 -0.256651
0.509183 0.601995 -0.256908
0.513397 0.601768 -0.257656
0.524022 0.613920 -0.263116
0.521285 0.600163 -0.258730
0.519654 0.588778 -0.255224
0.527306 0.594964 -0.258440
0.534588 0.600278 -0.261342
0.539097 0.600362 -0.262242
0.541237 0.596117 -0.261472
0.546333 0.597198 -0.262768
0.550158 0.595966 -0.263170
0.552516 0.592154 -0.262566
0.556145 0.590573 -0.262835
0.561618 0.592125 -0.264340
0.564704 0.589567 -0.264232
0.570577 0.591667 -0.265969
0.579433 0.598595 -0.269639
0.582969 0.596640 -0.269790
0.584891 0.592073 -0.268897
0.587146 0.588088 -0.268232
0.591706 0.587779 -0.269045
0.599913 0.593126 -0.272151
0.603164 0.590648 -0.272104
0.605627 0.586968 -0.271568
0.614687 0.593297 -0.275117
0.620014 0.593852 -0.276325
0.631868 0.604013 -0.281493
0.634530 0.600438 -0.281029
0.635297 0.594138 -0.279432
0.629249 0.578138 -0.273795
0.634348 0.578249 -0.274838
0.648028 0.590365 -0.280913
0.653131 0.590252 -0.281896
0.659020 0.591169 -0.283321
0.665458 0.592765 -0.285043
0.669316 0.590797 -0.285266
0.674087 0.590034 -0.286005
0.678294 0.588489 -0.286415
0.682851 0.587381 -0.287017
0.689839 0.589388 -0.288966
0.697342 0.591962 -0.291174
0.703900 0.593231 -0.292834
0.710751 0.594789 -0.294633
0.713203 0.590793 -0.294019
0.717423 0.588999 -0.294367
0.723464 0.589404 -0.295687
0.730285 0.590688 -0.297406
0.737603 0.592485 -0.299367
0.745064 0.594360 -0.301379
0.754572 0.598538 -0.304436
0.760908 0.598900 -0.305806
0.761823 0.592980 -0.304358
0.759182 0.583081 -0.301100
0.762644 0.580182 -0.300997
0.771830 0.583663 -0.303801
0.785992 0.592505 -0.309082
0.792626 0.592895 -0.310524
0.796304 0.590024 -0.310474
0.802339 0.589674 -0.311593
0.808831 0.589757 -0.312924
0.816548 0.591065 -0.314840
0.824297 0.592322 -0.316748
0.829980 0.591367 -0.317634
0.832695 0.587343 -0.317079
0.839728 0.587698 -0.318598
0.845637 0.586859 -0.319564
0.849856 0.584302 -0.319718
0.851801 0.579503 -0.318799
0.872470 0.592917 -0.326660
0.879855 0.593233 -0.328245
0.885285 0.591617 -0.328907
0.893657 0.592742 -0.330916
0.899936 0.591823 -0.331943
0.907726 0.592255 -0.333648
0.914570 0.591744 -0.334904
0.919820 0.589729 -0.335427
0.925585 0.588147 -0.336174
0.933294 0.588256 -0.337780
0.938485 0.586075 -0.338251
0.952855 0.591873 -0.342768
0.960861 0.591988 -0.344442
0.968251 0.591501 -0.345828
0.975202 0.590578 -0.347007
0.981148 0.588755 -0.347739
0.988089 0.587718 -0.348889
0.997717 0.588834 -0.351177
1.005712 0.588521 -0.352744
1.015220 0.589354 -0.354935
1.023913 0.589440 -0.356759
1.032930 0.589699 -0.358698
1.041562 0.589568 -0.360456
1.048387 0.587955 -0.361443
1.053707 0.585133 -0.361797
1.066469 0.587934 -0.365205
1.073712 0.586440 -0.366319
1.083083 0.586470 -0.368287
1.093397 0.587103 -0.370615
1.103064 0.587158 -0.372657
1.109671 0.584907 -0.373449
1.118094 0.583904 -0.374955
1.129985 0.585276 -0.377822
1.136124 0.582493 -0.378384
1.148340 0.583876 -0.381328
1.155700 0.581796 -0.382340
1.173891 0.587007 -0.387561
1.182861 0.585807 -0.389151
1.190865 0.583879 -0.390349
1.200114 0.582698 -0.392010
1.221361 0.589237 -0.398242
1.224876 0.584102 -0.397659
1.233816 0.582412 -0.399134
1.247877 0.583866 -0.402522
1.260080 0.584005 -0.405175
1.266501 0.580449 -0.405639
1.280675 0.581571 -0.408978
1.294165 0.582125 -0.412027
1.308299 0.582917 -0.415279
1.318825 0.581427 -0.417173
1.332204 0.581496 -0.420085
1.343389 0.580156 -0.422167
1.360032 0.581815 -0.426199
1.371978 0.580642 -0.428497
1.388110 0.581680 -0.432267
1.399731 0.580059 -0.434387
1.413608 0.579551 -0.437282
1.429700 0.580090 -0.440928
1.445369 0.580235 -0.444384
1.458767 0.579026 -0.447007
1.468547 0.575809 -0.448337
1.491913 0.579469 -0.454366
1.509700 0.580054 -0.458404
1.519045 0.576245 -0.459495
1.529394 0.572863 -0.460913
1.549307 0.574064 -0.465572
1.580723 0.580609 -0.474088
1.596595 0.579444 -0.477269
1.611267 0.577588 -0.480011
1.636291 0.580417 -0.486190
1.652302 0.578901 -0.489304
1.667179 0.576764 -0.492010
1.685819 0.576214 -0.495930
1.692655 0.570352 -0.495930
1.724431 0.575330 -0.504094
1.743564 0.574641 -0.508062
1.761040 0.573152 -0.511457
1.768555 0.567439 -0.511602
1.763235 0.556489 -0.507616
1.738673 0.537915 -0.497502
1.722827 0.523235 -0.490258
1.711179 0.510527 -0.484414
1.719895 0.506045 -0.485064
1.762438 0.514683 -0.496368
0.235408 0.610205 -0.213477
0.236834 0.596620 -0.209821
0.239706 0.595059 -0.209927
0.242821 0.595053 -0.210524
0.246596 0.599574 -0.212555
0.250772 0.606312 -0.215300
0.254305 0.607779 -0.216381
0.256949 0.602833 -0.215423
0.259442 0.596918 -0.214147
0.262516 0.594789 -0.214078
0.266287 0.596843 -0.215351
0.271956 0.609891 -0.220173
0.275125 0.607502 -0.220031
0.279682 0.612899 -0.222409
0.283255 0.612457 -0.222901
0.286375 0.609493 -0.222572
0.291566 0.617300 -0.225759
0.295366 0.617576 -0.226495
0.298810 0.615996 -0.226623
0.302341 0.614831 -0.226886
0.306019 0.614345 -0.227374
0.309169 0.611405 -0.227050
0.309904 0.597785 -0.223175
0.313551 0.597431 -0.223697
0.317031 0.596344 -0.223975
0.320417 0.594880 -0.224127
0.324919 0.597992 -0.225815
0.328395 0.596855 -0.226081
0.331659 0.594911 -0.226074
0.335256 0.594302 -0.226519
0.338998 0.594234 -0.227148
0.342993 0.595079 -0.228092
0.346582 0.594410 -0.228522
0.350547 0.595078 -0.229412
0.354841 0.596842 -0.230682
0.358497 0.596349 -0.231182
0.362215 0.596063 -0.231756
0.365885 0.595614 -0.232276
0.369380 0.594593 -0.232600
0.373715 0.596254 -0.233859
0.377262 0.595381 -0.234239
0.381292 0.595996 -0.235143
0.384948 0.595440 -0.235640
0.388426 0.594356 -0.235954
0.392236 0.594247 -0.236614
0.396297 0.594841 -0.237526
0.399746 0.593662 -0.237814
0.402964 0.591848 -0.237878
0.406580 0.591157 -0.238343
0.410582 0.591498 -0.239180
0.415313 0.593740 -0.240704
0.419035 0.593244 -0.241252
0.424515 0.597271 -0.243437
0.428320 0.596888 -0.244037
0.431556 0.595057 -0.244114
0.434894 0.593495 -0.244290
0.438493 0.592580 -0.244704
0.443370 0.594734 -0.246246
0.447416 0.594819 -0.247036
0.456057 0.605632 -0.251787
0.462842 0.611829 -0.254859
0.467068 0.611991 -0.255712
0.470881 0.611178 -0.256207
0.472958 0.606490 -0.255261
0.477052 0.606309 -0.255995
0.478868 0.601157 -0.254869
0.481993 0.598896 -0.254825
0.485687 0.597848 -0.255239
0.488296 0.594525 -0.254794
0.492609 0.594751 -0.255696
0.497853 0.596821 -0.257307
0.504405 0.601428 -0.259898
0.512193 0.608334 -0.263387
0.516136 0.607487 -0.263917
0.516400 0.599489 -0.261690
0.517574 0.593376 -0.260180
0.525654 0.600430 -0.263774
0.529761 0.599844 -0.264416
0.534778 0.600908 -0.265706
0.533992 0.591297 -0.262821
0.537815 0.590186 -0.263261
0.542674 0.590902 -0.264425
0.549884 0.595705 -0.267216
0.552363 0.592096 -0.266684
0.557018 0.592277 -0.267660
0.561718 0.592480 -0.268652
0.566005 0.591935 -0.269350
0.571333 0.593091 -0.270739
0.578145 0.596621 -0.273096
0.582910 0.596685 -0.274065
0.583961 0.590701 -0.272584
0.588202 0.589892 -0.273203
0.593785 0.591169 -0.274681
0.597713 0.589786 -0.275077
0.602889 0.590309 -0.276262
0.607845 0.590435 -0.277292
0.611800 0.588994 -0.277680
0.623155 0.598610 -0.282672
0.630323 0.601770 -0.285004
0.634308 0.600148 -0.285348
0.635312 0.594185 -0.283871
0.639315 0.592598 -0.284231
0.645244 0.593727 -0.285744
0.654947 0.600085 -0.289490
0.656839 0.595396 -0.288553
0.661283 0.594263 -0.289131
0.667537 0.595566 -0.290761
0.669676 0.591242 -0.289979
0.673115 0.588688 -0.289957
0.677928 0.587948 -0.290723
0.681780 0.585914 -0.290932
0.688127 0.587097 -0.292549
0.696754 0.591123 -0.295428
0.704905 0.594411 -0.298004
0.706248 0.589033 -0.296768
0.709997 0.586698 -0.296874
0.716352 0.587562 -0.298407
0.725048 0.591205 -0.301195
0.735376 0.596689 -0.304831
0.738675 0.593618 -0.304642
0.740689 0.589032 -0.303768
0.756931 0.601132 -0.310462
0.762926 0.601064 -0.311664
0.759856 0.590542 -0.308095
0.756543 0.579895 -0.304443
0.760002 0.577016 -0.304344
0.781492 0.594215 -0.313537
0.790779 0.597566 -0.316371
0.790835 0.590714 -0.314469
0.794720 0.588077 -0.314528
0.802490 0.589594 -0.316542
0.809515 0.590230 -0.318158
0.818446 0.592797 -0.320704
0.825990 0.593812 -0.322534
0.828837 0.589912 -0.322033
0.838234 0.592703 -0.324740
0.840479 0.588161 -0.323938
0.843751 0.584671 -0.323641
0.846297 0.580468 -0.322998
0.853669 0.581016 -0.324669
0.864062 0.584422 -0.327757
0.882570 0.595500 -0.334648
0.887417 0.593295 -0.335039
0.892336 0.591135 -0.335458
0.899994 0.591506 -0.337145
0.907546 0.591707 -0.338765
0.913655 0.590516 -0.339703
0.920474 0.589923 -0.340955
0.927648 0.589592 -0.342354
0.938950 0.592866 -0.345607
0.943797 0.590325 -0.345916
0.951224 0.590010 -0.347378
0.958106 0.589159 -0.348580
0.966819 0.589816 -0.350581
0.974279 0.589326 -0.352007
0.981556 0.588617 -0.353337
0.988842 0.587852 -0.354656
0.998466 0.588947 -0.356975
1.005831 0.588105 -0.358294
1.015690 0.589208 -0.360670
1.023598 0.588653 -0.362186
1.031100 0.587706 -0.363511
1.040670 0.588312 -0.365699
1.046985 0.586300 -0.366490
1.059419 0.588933 -0.369838
1.066523 0.587382 -0.370926
1.074206 0.586207 -0.372242
1.082263 0.585243 -0.373697
1.097395 0.589418 -0.378047
1.103369 0.586738 -0.378602
1.110303 0.584710 -0.379541
1.125894 0.588809 -0.383978
1.129351 0.584148 -0.383473
1.137335 0.582649 -0.384789
1.150853 0.584910 -0.388299
1.159655 0.583789 -0.389898
1.174687 0.586810 -0.393944
1.180875 0.583724 -0.394465
1.195011 0.585869 -0.398093
1.203292 0.584010 -0.399398
1.211120 0.581780 -0.400512
1.227494 0.584978 -0.404914
1.239002 0.584891 -0.407399
1.250079 0.584412 -0.409691
1.258936 0.582437 -0.411112
1.268329 0.580708 -0.412717
1.285540 0.583650 -0.417256
1.293702 0.580944 -0.418346
1.308757 0.582270 -0.422000
1.323036 0.582973 -0.425326
1.334824 0.582069 -0.427692
1.347017 0.581277 -0.430180
1.357475 0.579372 -0.432003
1.376212 0.582021 -0.436830
1.388765 0.581022 -0.439356
1.404524 0.581655 -0.443014
1.417366 0.580537 -0.445581
1.431916 0.580205 -0.448731
1.446013 0.579484 -0.451684
1.458515 0.577785 -0.454036
1.475460 0.578267 -0.457933
1.497693 0.581279 -0.463654
1.510611 0.579351 -0.466046
1.521850 0.576471 -0.467823
1.536448 0.575153 -0.470746
1.558390 0.577278 -0.476180
1.584277 0.581085 -0.482918
1.598016 0.578874 -0.485421
1.621004 0.580891 -0.491056
1.644883 0.583112 -0.496938
1.660471 0.581343 -0.499955
1.675044 0.579012 -0.502598
1.682441 0.573409 -0.502805
1.704121 0.574080 -0.507779
1.728103 0.575599 -0.513473
1.749311 0.575769 -0.518196
1.765933 0.573885 -0.521363
1.792934 0.576261 -0.527911
1.802309 0.571235 -0.528640
1.743483 0.538592 -0.507165
1.747913 0.532032 -0.506378
1.638991 0.465914 -0.464974
0.232036 0.584605 -0.208805
0.237033 0.601623 -0.214820
0.239532 0.596941 -0.213936
0.242139 0.592974 -0.213274
0.246367 0.601021 -0.216467
0.250722 0.609076 -0.219677
0.254539 0.612487 -0.221405
0.257450 0.609207 -0.220973
0.260147 0.604436 -0.220053
0.263565 0.604272 -0.220627
0.267460 0.606830 -0.222091
0.271420 0.609406 -0.223566
0.275580 0.612800 -0.225316
0.280095 0.617835 -0.227614
0.283908 0.618573 -0.228505
0.285199 0.605652 -0.224879
0.287988 0.601095 -0.224007
0.290746 0.596514 -0.223119
0.294279 0.595902 -0.223550
0.298041 0.596344 -0.224334
0.301715 0.596280 -0.224951
0.305519 0.596750 -0.225750
0.309322 0.597147 -0.226526
0.312953 0.596723 -0.227028
0.316351 0.595286 -0.227188
0.319946 0.594696 -0.227635
0.324269 0.597075 -0.229096
0.328048 0.597150 -0.229776
0.331199 0.594738 -0.229607
0.334693 0.593717 -0.229913
0.338482 0.593822 -0.230609
0.342330 0.594119 -0.231374
0.346380 0.595113 -0.232384
0.349805 0.593838 -0.232610
0.353912 0.594962 -0.233673
0.357648 0.594760 -0.234278
0.361658 0.595464 -0.235203
0.365329 0.595009 -0.235725
0.369389 0.595808 -0.236693
0.372995 0.595116 -0.237138
0.376767 0.594947 -0.237771
0.380602 0.594956 -0.238470
0.384285 0.594485 -0.239002
0.387599 0.592910 -0.239143
0.390899 0.591319 -0.239278
0.395330 0.593009 -0.240593
0.399536 0.593984 -0.241658
0.404282 0.596407 -0.243253
0.409782 0.600797 -0.245570
0.417000 0.609672 -0.249530
0.421707 0.611567 -0.250968
0.425196 0.610184 -0.251217
0.424810 0.598791 -0.247798
0.429195 0.599848 -0.248937
0.431297 0.595110 -0.247946
0.435207 0.594952 -0.248644
0.439324 0.595267 -0.249521
0.443301 0.595204 -0.250263
0.447291 0.595138 -0.251008
0.454219 0.601927 -0.254324
0.459944 0.605716 -0.256534
0.467425 0.613374 -0.260214
0.471500 0.613122 -0.260930
0.473006 0.607123 -0.259474
0.476920 0.606525 -0.260062
0.480692 0.605595 -0.260527
0.481311 0.597902 -0.258412
0.484221 0.595200 -0.258197
0.489106 0.596644 -0.259575
0.494188 0.598417 -0.261090
0.498187 0.597898 -0.261728
0.504215 0.601431 -0.263942
0.511221 0.606774 -0.266876
0.513229 0.602140 -0.265933
0.514918 0.596953 -0.264768
0.520633 0.599555 -0.266657
0.525852 0.601113 -0.268146
0.531108 0.602659 -0.269642
0.534549 0.600764 -0.269782
0.530972 0.586040 -0.264820
0.534633 0.584685 -0.265163
0.544238 0.593933 -0.269756
0.549439 0.595146 -0.271150
0.552230 0.592077 -0.270828
0.555866 0.590488 -0.271104
0.561337 0.592019 -0.272648
0.566330 0.592661 -0.273840
0.570572 0.591986 -0.274504
0.581012 0.601509 -0.279351
0.583584 0.597928 -0.278844
0.585166 0.592776 -0.277687
0.588087 0.589827 -0.277434
0.592103 0.588622 -0.277904
0.596589 0.588127 -0.278675
0.601666 0.588505 -0.279816
0.607142 0.589437 -0.281198
0.613184 0.591155 -0.282921
0.618284 0.591375 -0.284025
0.620018 0.586554 -0.283000
0.622976 0.583578 -0.282753
0.628194 0.583889 -0.283909
0.633782 0.584675 -0.285276
0.642664 0.590071 -0.288636
0.651794 0.595652 -0.292099
0.656342 0.594693 -0.292758
0.663597 0.597426 -0.295025
0.669088 0.597648 -0.296215
0.669091 0.590413 -0.294152
0.672571 0.587914 -0.294155
0.677881 0.587827 -0.295221
0.682323 0.586557 -0.295773
0.688192 0.587105 -0.297137
0.695790 0.589802 -0.299469
0.702688 0.591504 -0.301375
0.705293 0.587731 -0.300838
0.710301 0.586964 -0.301652
0.715375 0.586240 -0.302493
0.722203 0.587611 -0.304293
0.730900 0.591154 -0.307096
0.735326 0.589473 -0.307533
0.738953 0.586826 -0.307531
0.750359 0.593276 -0.311722
0.755893 0.592741 -0.312716
0.756409 0.586407 -0.311025
0.758046 0.581413 -0.309948
0.769794 0.587829 -0.314203
0.787426 0.600610 -0.321484
0.792121 0.598824 -0.321953
0.788463 0.587898 -0.318099
0.794414 0.587513 -0.319227
0.803122 0.590026 -0.321749
0.809915 0.590401 -0.323270
0.820042 0.594209 -0.326455
0.828514 0.596161 -0.328773
0.834816 0.595784 -0.329981
0.839210 0.593407 -0.330228
0.835950 0.583294 -0.326694
0.841967 0.582583 -0.327752
0.848250 0.582088 -0.328928
0.853369 0.580400 -0.329524
0.865493 0.585478 -0.333495
0.879090 0.591808 -0.338128
0.889410 0.594835 -0.341145
0.894064 0.592398 -0.341439
0.900871 0.591951 -0.342746
0.906369 0.590236 -0.343424
0.912956 0.589483 -0.344602
0.919371 0.588521 -0.345687
0.932682 0.593695 -0.349945
0.938825 0.592330 -0.350864
0.944899 0.590861 -0.351740
0.950758 0.589160 -0.352508
0.958074 0.588678 -0.353926
0.965754 0.588442 -0.355493
0.976012 0.590317 -0.358196
0.981768 0.588309 -0.358865
0.988654 0.587202 -0.360027
0.998941 0.588830 -0.362675
1.006344 0.588004 -0.364030
1.016523 0.589349 -0.366581
1.023580 0.588097 -0.367749
1.032080 0.587927 -0.369527
1.039688 0.586980 -0.370903
1.051394 0.589137 -0.374017
1.059817 0.588649 -0.375700
1.070637 0.589902 -0.378380
1.074624 0.585909 -0.378151
1.091128 0.591209 -0.383173
1.096529 0.588141 -0.383509
1.103893 0.586469 -0.384654
1.111124 0.584640 -0.385732
1.122601 0.585781 -0.388543
1.131267 0.584813 -0.390173
1.136730 0.581526 -0.390480
1.153659 0.586135 -0.395431
1.163290 0.585548 -0.397387
1.174304 0.585804 -0.399876
1.177911 0.580978 -0.399377
1.195974 0.585733 -0.404632
1.203758 0.583527 -0.405762
1.215431 0.583778 -0.408411
1.229244 0.585281 -0.411871
1.239462 0.584347 -0.413891
1.249590 0.583253 -0.415853
1.257054 0.580401 -0.416761
1.275363 0.584154 -0.421834
1.287161 0.583735 -0.424359
1.295736 0.581254 -0.425625
1.314854 0.584964 -0.430880
1.326688 0.584169 -0.433327
1.335219 0.581332 -0.434504
1.349616 0.581788 -0.437861
1.362453 0.581202 -0.440601
1.373260 0.579342 -0.442556
1.389954 0.580644 -0.446663
1.407046 0.581983 -0.450873
1.420679 0.581260 -0.453772
1.431766 0.579034 -0.455709
1.446751 0.578766 -0.459038
1.459655 0.577258 -0.461578
1.477740 0.578303 -0.465952
1.495300 0.578893 -0.470092
1.509743 0.577735 -0.473077
1.523683 0.576191 -0.475850
1.545218 0.578259 -0.481275
1.567015 0.580240 -0.486737
1.581928 0.578709 -0.489734
1.600865 0.578962 -0.494100
1.627701 0.582742 -0.501163
1.642004 0.580488 -0.503827
1.659658 0.579666 -0.507616
1.679780 0.579827 -0.512211
1.694032 0.577237 -0.514760
1.716802 0.578307 -0.520174
1.729985 0.575076 -0.522299
1.751156 0.575213 -0.527090
1.775109 0.576402 -0.532769
1.796802 0.576514 -0.537644
1.798021 0.568130 -0.535680
1.774213 0.541267 -0.523166
1.649814 0.468940 -0.475988
0.233360 0.599470 -0.216945
0.237048 0.605152 -0.219398
0.239795 0.602381 -0.219123
0.242240 0.596992 -0.217993
0.245790 0.599879 -0.219555
0.249855 0.605942 -0.222161
0.253785 0.610301 -0.224222
0.257621 0.613410 -0.225881
0.261583 0.616860 -0.227659
0.263719 0.608142 -0.225423
0.266909 0.606239 -0.225432
0.269290 0.599357 -0.223785
0.272156 0.595510 -0.223137
0.275549 0.594701 -0.223500
0.279027 0.594247 -0.223981
0.282637 0.594390 -0.224663
0.286849 0.597547 -0.226363
0.290227 0.596190 -0.226545
0.293599 0.594781 -0.226709
0.297659 0.596679 -0.227995
0.301325 0.596563 -0.228601
0.304832 0.595655 -0.228939
0.309012 0.597754 -0.230306
0.312441 0.596419 -0.230500
0.315889 0.595183 -0.230728
0.319341 0.593980 -0.230968
0.324222 0.598648 -0.233239
0.327758 0.597699 -0.233573
0.331047 0.595795 -0.233575
0.334446 0.594369 -0.233743
0.338071 0.593825 -0.234220
0.342074 0.594678 -0.235188
0.345837 0.594610 -0.235838
0.349411 0.593853 -0.236247
0.353039 0.593293 -0.236728
0.356970 0.593770 -0.237578
0.360312 0.592237 -0.237718
0.364951 0.595011 -0.239395
0.368743 0.594925 -0.240058
0.369399 0.584851 -0.237142
0.374805 0.589948 -0.239666
0.379735 0.593387 -0.241605
0.383831 0.594174 -0.242597
0.391296 0.604925 -0.247207
0.398253 0.613822 -0.251169
0.402315 0.614080 -0.252003
0.402577 0.603534 -0.248891
0.406472 0.603422 -0.249587
0.410527 0.603727 -0.250442
0.416023 0.607893 -0.252725
0.421613 0.612156 -0.255058
0.422414 0.603689 -0.252682
0.426212 0.603191 -0.253258
0.429756 0.602028 -0.253589
0.430996 0.595071 -0.251755
0.434942 0.594989 -0.252490
0.438978 0.595093 -0.253300
0.442840 0.594743 -0.253943
0.447378 0.595973 -0.255190
0.451959 0.597237 -0.256457
0.456931 0.599333 -0.258049
0.461256 0.599860 -0.259051
0.462654 0.593738 -0.257513
0.465767 0.591550 -0.257478
0.469511 0.590767 -0.257985
0.473341 0.590151 -0.258560
0.483094 0.602190 -0.264047
0.485278 0.597886 -0.263210
0.489932 0.598803 -0.264407
0.494988 0.600486 -0.265911
0.500219 0.602441 -0.267532
0.502208 0.597783 -0.266560
0.505587 0.595956 -0.266700
0.510310 0.596769 -0.267888
0.516508 0.600378 -0.270196
0.520323 0.599288 -0.270646
0.524487 0.598842 -0.271356
0.529037 0.599082 -0.272347
0.533363 0.598856 -0.273158
0.539939 0.602702 -0.275619
0.538157 0.591306 -0.271922
0.547204 0.599473 -0.276152
0.551043 0.598209 -0.276565
0.550636 0.589510 -0.273941
0.555909 0.590766 -0.275385
0.559837 0.589650 -0.275863
0.565556 0.591533 -0.277584
0.570539 0.592098 -0.278771
0.582027 0.603342 -0.284407
0.585066 0.600494 -0.284202
0.585117 0.592832 -0.281981
0.587788 0.589470 -0.281553
0.591873 0.588368 -0.282075
0.595864 0.587093 -0.282527
0.600272 0.586439 -0.283248
0.605551 0.587081 -0.284526
0.611091 0.588055 -0.285955
0.615463 0.587210 -0.286614
0.620653 0.587542 -0.287786
0.624700 0.586141 -0.288219
0.629960 0.586478 -0.289408
0.633827 0.584758 -0.289712
0.644815 0.593134 -0.294424
0.645759 0.587170 -0.292892
0.650103 0.586005 -0.293458
0.660660 0.593363 -0.297787
0.669237 0.597820 -0.300864
0.669866 0.591419 -0.299143
0.673919 0.589663 -0.299480
0.678784 0.588963 -0.300293
0.683394 0.587890 -0.300946
0.688347 0.587229 -0.301790
0.697856 0.592363 -0.305261
0.700881 0.589120 -0.304957
0.705408 0.587772 -0.305516
0.709216 0.585505 -0.305659
0.714601 0.585167 -0.306689
0.719816 0.584575 -0.307612
0.726408 0.585599 -0.309290
0.732556 0.586019 -0.310702
0.740013 0.587922 -0.312816
0.746438 0.588524 -0.314340
0.751523 0.587505 -0.315116
0.756596 0.586438 -0.315876
0.763269 0.587151 -0.317486
0.778529 0.597445 -0.323661
0.786967 0.599886 -0.326142
0.785299 0.591086 -0.323261
0.790578 0.589979 -0.324058
0.797800 0.590934 -0.325857
0.803403 0.590080 -0.326796
0.811704 0.592041 -0.329114
0.821868 0.595857 -0.332360
0.831001 0.598469 -0.335043
0.835168 0.595861 -0.335179
0.835620 0.589459 -0.333443
0.838192 0.585257 -0.332787
0.844324 0.584631 -0.333911
0.852784 0.586256 -0.336175
0.860791 0.587343 -0.338190
0.870714 0.590205 -0.341121
0.879063 0.591434 -0.343252
0.886180 0.591403 -0.344762
0.892699 0.590744 -0.345968
0.899780 0.590555 -0.347428
0.906461 0.589934 -0.348682
0.910756 0.587075 -0.348791
0.918590 0.587408 -0.350567
0.929685 0.590588 -0.353851
0.937287 0.590537 -0.355472
0.945073 0.590576 -0.357159
0.952465 0.590199 -0.358646
0.959120 0.589122 -0.359778
0.967957 0.589854 -0.361894
0.976585 0.590321 -0.363893
0.984261 0.589906 -0.365439
0.991714 0.589237 -0.366868
0.998452 0.587917 -0.367961
1.011013 0.591274 -0.371634
1.016765 0.589007 -0.372253
1.023595 0.587563 -0.373339
1.033205 0.588256 -0.375632
1.040545 0.587079 -0.376910
1.052391 0.589324 -0.380130
1.059069 0.587481 -0.381084
1.069278 0.588262 -0.383544
1.078997 0.588571 -0.385768
1.086714 0.587295 -0.387117
1.096551 0.587510 -0.389349
1.104427 0.586200 -0.390729
1.110772 0.583717 -0.391452
1.123693 0.585874 -0.394911
1.132182 0.584761 -0.396493
1.142218 0.584650 -0.398697
1.154547 0.586021 -0.401820
1.165830 0.586543 -0.404483
1.175841 0.586087 -0.406599
1.185470 0.585274 -0.408536
1.195414 0.584575 -0.410579
1.204627 0.583298 -0.412306
1.212572 0.581109 -0.413505
1.225405 0.581985 -0.416636
1.239607 0.583591 -0.420277
1.252214 0.584038 -0.423251
1.266212 0.585213 -0.426739
1.276522 0.583969 -0.428748
1.287563 0.583065 -0.431019
1.297675 0.581491 -0.432905
1.308211 0.580068 -0.434932
1.321511 0.580162 -0.437996
1.337003 0.581386 -0.441864
1.351833 0.582061 -0.445440
1.364518 0.581357 -0.448165
1.373290 0.578326 -0.449386
1.394899 0.582333 -0.455405
1.408969 0.581963 -0.458549
1.423547 0.581722 -0.461847
1.438759 0.581670 -0.465343
1.449617 0.579158 -0.467198
1.463906 0.578339 -0.470287
1.480905 0.578776 -0.474332
1.494833 0.577477 -0.477218
1.511799 0.577575 -0.481171
1.523725 0.575004 -0.483266
1.552560 0.580633 -0.491400
1.565285 0.578152 -0.493704
1.582957 0.577939 -0.497738
1.599338 0.576963 -0.501275
1.630765 0.582871 -0.510074
1.642438 0.579379 -0.511862
1.669516 0.582826 -0.519008
1.676108 0.576848 -0.518965
1.707737 0.581968 -0.527583
1.716950 0.577024 -0.528397
1.730644 0.574011 -0.530739
1.765171 0.579822 -0.540174
1.779902 0.577052 -0.542792
1.789854 0.572266 -0.543769
1.802592 0.568648 -0.545676
1.781884 0.551527 -0.536340
1.741770 0.518892 -0.518343
1.732769 0.507405 -0.513128
0.235308 0.619918 -0.227063
0.237359 0.611204 -0.224846
0.245761 0.602887 -0.224012
0.248589 0.599877 -0.223649
0.251514 0.597390 -0.223456
0.254317 0.593896 -0.222924
0.257404 0.592207 -0.222990
0.260771 0.592146 -0.223601
0.264255 0.592576 -0.224379
0.267964 0.594115 -0.225533
0.271568 0.594745 -0.226382
0.275174 0.595173 -0.227167
0.278681 0.594872 -0.227705
0.282542 0.596356 -0.228853
0.286122 0.596156 -0.229430
0.289570 0.595191 -0.229746
0.293300 0.595577 -0.230525
0.297072 0.596058 -0.231340
0.300986 0.597119 -0.232359
0.304540 0.596401 -0.232764
0.308421 0.597134 -0.233674
0.312397 0.598197 -0.234704
0.315915 0.597205 -0.235019
0.319926 0.598285 -0.236061
0.323783 0.598654 -0.236857
0.327049 0.596599 -0.236804
0.330413 0.594993 -0.236907
0.333885 0.593843 -0.237172
0.337499 0.593249 -0.237635
0.341364 0.593589 -0.238432
0.345169 0.593676 -0.239143
0.348532 0.592166 -0.239285
0.352241 0.591904 -0.239876
0.356488 0.593472 -0.241128
0.361189 0.596488 -0.242909
0.364955 0.596293 -0.243537
0.369575 0.598850 -0.245168
0.374654 0.602764 -0.247301
0.383497 0.618306 -0.253689
0.384336 0.608665 -0.250898
0.386035 0.601925 -0.249156
0.391443 0.606424 -0.251540
0.396942 0.611025 -0.253974
0.397855 0.602230 -0.251467
0.399299 0.595192 -0.249597
0.405210 0.600826 -0.252431
0.411329 0.606835 -0.255422
0.416008 0.608729 -0.256891
0.419291 0.606815 -0.256939
0.422138 0.603778 -0.256566
0.425173 0.601289 -0.256397
0.429289 0.601597 -0.257287
0.431266 0.596482 -0.256124
0.434594 0.594831 -0.256273
0.438407 0.594379 -0.256881
0.442159 0.593758 -0.257429
0.446360 0.594189 -0.258385
0.451222 0.596122 -0.259926
0.456085 0.597970 -0.261443
0.460277 0.598201 -0.262343
0.463360 0.595882 -0.262259
0.464306 0.588828 -0.260329
0.469494 0.591242 -0.262090
0.476262 0.596981 -0.265166
0.483205 0.602910 -0.268337
0.486904 0.601787 -0.268744
0.489833 0.599042 -0.268514
0.495441 0.601849 -0.270486
0.500443 0.603310 -0.271936
0.501969 0.597695 -0.270568
0.504003 0.593184 -0.269635
0.509531 0.595600 -0.271483
0.516276 0.600274 -0.274252
0.516514 0.592317 -0.271931
0.520985 0.592523 -0.272908
0.526425 0.594493 -0.274610
0.536218 0.604427 -0.279576
0.534833 0.593639 -0.276085
0.541774 0.598105 -0.278843
0.550926 0.606374 -0.283186
0.551028 0.598417 -0.280847
0.550952 0.590280 -0.278419
0.555150 0.589660 -0.279105
0.559899 0.589948 -0.280176
0.564636 0.590161 -0.281224
0.569627 0.590745 -0.282435
0.582216 0.603814 -0.288923
0.580695 0.593502 -0.285557
0.586156 0.594645 -0.287035
0.594684 0.600613 -0.290580
0.600870 0.602699 -0.292489
0.597122 0.589160 -0.287710
0.600812 0.587365 -0.287953
0.605610 0.587251 -0.288926
0.610413 0.587098 -0.289890
0.616695 0.589113 -0.291803
0.621387 0.588678 -0.292662
0.626366 0.588622 -0.293693
0.631026 0.588053 -0.294507
0.632847 0.583370 -0.293513
0.646451 0.595466 -0.299940
0.643842 0.584475 -0.296159
0.643959 0.577451 -0.294119
0.654642 0.585061 -0.298612
0.667262 0.595100 -0.304229
0.670491 0.592222 -0.304068
0.673599 0.589188 -0.303836
0.678693 0.588784 -0.304797
0.683235 0.587615 -0.305417
0.689027 0.588033 -0.306768
0.699824 0.594798 -0.311043
0.701235 0.589473 -0.309782
0.704872 0.586996 -0.309830
0.709797 0.586113 -0.310619
0.714729 0.585203 -0.311402
0.721535 0.586537 -0.313241
0.727352 0.586598 -0.314498
0.733743 0.587287 -0.316062
0.738964 0.586525 -0.316953
0.745399 0.587142 -0.318507
0.750929 0.586643 -0.319542
0.755300 0.584770 -0.319929
0.762378 0.585948 -0.321786
0.777717 0.596328 -0.328096
0.782879 0.595123 -0.328850
0.786529 0.592220 -0.328786
0.792192 0.591509 -0.329793
0.797904 0.590807 -0.330814
0.804033 0.590506 -0.332043
0.810298 0.590295 -0.333328
0.819705 0.593322 -0.336230
0.828226 0.595309 -0.338641
0.832541 0.592873 -0.338863
0.836582 0.590144 -0.338943
0.842623 0.589422 -0.340036
0.848956 0.588943 -0.341265
0.855392 0.588513 -0.342532
0.862767 0.588947 -0.344253
0.872124 0.591229 -0.346938
0.878790 0.590820 -0.348265
0.885836 0.590715 -0.349763
0.892563 0.590246 -0.351089
0.899963 0.590345 -0.352726
0.905718 0.588858 -0.353550
0.913434 0.589123 -0.355308
0.921680 0.589795 -0.357299
0.928346 0.588967 -0.358517
0.936507 0.589412 -0.360429
0.946716 0.591577 -0.363284
0.952737 0.589983 -0.364147
0.959084 0.588628 -0.365152
0.967904 0.589335 -0.367292
0.977756 0.590824 -0.369885
0.984512 0.589619 -0.371029
0.991103 0.588223 -0.372086
0.999194 0.588006 -0.373812
1.011752 0.591342 -0.377537
1.017825 0.589318 -0.378308
1.025159 0.588255 -0.379634
1.033758 0.588126 -0.381508
1.042451 0.587990 -0.383404
1.050215 0.587051 -0.384870
1.060660 0.588096 -0.387495
1.069644 0.587924 -0.389456
1.079800 0.588544 -0.391904
1.087398 0.587162 -0.393221
1.093960 0.584954 -0.394078
1.106727 0.587205 -0.397579
1.115559 0.586483 -0.399368
1.125744 0.586641 -0.401712
1.134569 0.585736 -0.403457
1.144463 0.585495 -0.405632
1.153275 0.584406 -0.407330
1.161566 0.582879 -0.408794
1.177851 0.586679 -0.413548
1.186229 0.585000 -0.414998
1.193183 0.582302 -0.415848
1.204015 0.582087 -0.418268
1.217725 0.583624 -0.421831
1.230798 0.584600 -0.425100
1.241603 0.583997 -0.427422
1.250795 0.582271 -0.429073
1.258683 0.579648 -0.430185
1.277122 0.583426 -0.435467
1.290793 0.584098 -0.438814
1.302079 0.583191 -0.441189
1.313367 0.582168 -0.443537
1.325816 0.581711 -0.446312
1.336146 0.579894 -0.448234
1.348472 0.579119 -0.450904
1.365670 0.580977 -0.455416
1.384088 0.583328 -0.460348
1.395008 0.581322 -0.462376
1.408421 0.580574 -0.465324
1.425951 0.581914 -0.469793
1.437854 0.580060 -0.472102
1.453380 0.580003 -0.475739
1.468984 0.579828 -0.479365
1.480126 0.577198 -0.481300
1.498326 0.578060 -0.485814
1.514252 0.577596 -0.489447
1.531330 0.577553 -0.493461
1.554662 0.580412 -0.499711
1.571239 0.579770 -0.503450
1.590645 0.580333 -0.508171
1.612468 0.581863 -0.513712
1.628478 0.580490 -0.517120
1.646607 0.579971 -0.521246
1.664945 0.579411 -0.525405
1.682485 0.578362 -0.529241
1.699112 0.576796 -0.532718
1.725084 0.579211 -0.539429
1.736716 0.575263 -0.541085
1.750281 0.572119 -0.543394
1.776170 0.574110 -0.549936
1.789279 0.570659 -0.552027
1.796195 0.564672 -0.551979
1.801023 0.557913 -0.551221
1.690329 0.489718 -0.506867
0.231203 0.587562 -0.219841
0.234515 0.590681 -0.221505
0.237645 0.591631 -0.222451
0.240770 0.592023 -0.223214
0.244142 0.593857 -0.224463
0.247281 0.593461 -0.224967
0.250731 0.594948 -0.226106
0.253971 0.594555 -0.226613
0.257204 0.593847 -0.227013
0.260435 0.592888 -0.227327
0.263971 0.593642 -0.228226
0.267456 0.593811 -0.228927
0.271334 0.596085 -0.230351
0.274726 0.595269 -0.230718
0.278222 0.594908 -0.231242
0.281944 0.595649 -0.232147
0.285556 0.595640 -0.232796
0.289097 0.595153 -0.233279
0.292735 0.595081 -0.233908
0.296710 0.596558 -0.235080
0.300123 0.595225 -0.235271
0.303918 0.595657 -0.236083
0.307193 0.593665 -0.236042
0.311699 0.597133 -0.237931
0.315494 0.597341 -0.238672
0.319005 0.596306 -0.238975
0.323002 0.597278 -0.239993
0.326192 0.594926 -0.239829
0.329370 0.592599 -0.239671
0.333066 0.592345 -0.240257
0.337041 0.593127 -0.241218
0.340947 0.593602 -0.242073
0.348019 0.605540 -0.247082
0.353398 0.610961 -0.249753
0.357691 0.612364 -0.250974
0.360109 0.607265 -0.249828
0.361054 0.597372 -0.246921
0.364855 0.597256 -0.247587
0.370202 0.602147 -0.250099
0.375686 0.607282 -0.252715
0.380276 0.609419 -0.254236
0.383424 0.607013 -0.254079
0.385096 0.600189 -0.252277
0.388753 0.599486 -0.252750
0.392315 0.598505 -0.253122
0.393341 0.590207 -0.250749
0.396840 0.589172 -0.251098
0.404357 0.599385 -0.255694
0.410777 0.606235 -0.259044
0.415660 0.608678 -0.260740
0.419386 0.607930 -0.261232
0.422953 0.606754 -0.261563
0.425026 0.601709 -0.260416
0.428304 0.599854 -0.260487
0.430658 0.595693 -0.259671
0.434111 0.594348 -0.259939
0.437672 0.593271 -0.260313
0.441664 0.593231 -0.261093
0.445701 0.593264 -0.261906
0.451620 0.597685 -0.264439
0.457604 0.602099 -0.266986
0.462594 0.604087 -0.268595
0.463699 0.597212 -0.266719
0.466141 0.593454 -0.266065
0.469747 0.592319 -0.266449
0.475562 0.595967 -0.268739
0.482268 0.601393 -0.271753
0.486104 0.600566 -0.272284
0.488681 0.597087 -0.271753
0.493683 0.598656 -0.273253
0.499035 0.600858 -0.275019
0.499382 0.592886 -0.272674
0.504728 0.595007 -0.274418
0.510381 0.597636 -0.276381
0.513853 0.595924 -0.276582
0.516200 0.592049 -0.275896
0.516573 0.584478 -0.273686
0.521613 0.585784 -0.275129
0.531680 0.596321 -0.280405
0.541535 0.606179 -0.285435
0.546098 0.606191 -0.286392
0.548006 0.601407 -0.285350
0.551493 0.599476 -0.285500
0.551502 0.591462 -0.283091
0.555621 0.590683 -0.283723
0.559140 0.588849 -0.283912
0.564688 0.590433 -0.285558
0.568843 0.589608 -0.286187
0.583411 0.605951 -0.294169
0.585140 0.600913 -0.293023
0.584671 0.592384 -0.290367
0.590904 0.594699 -0.292382
0.599082 0.599989 -0.295702
0.599541 0.593046 -0.293721
0.601918 0.589167 -0.293066
0.604974 0.586360 -0.292877
0.611177 0.588326 -0.294785
0.616634 0.589081 -0.296175
0.622415 0.590251 -0.297758
0.628897 0.592372 -0.299775
0.637759 0.597848 -0.303304
0.645341 0.601319 -0.305961
0.644503 0.592710 -0.303214
0.644935 0.586011 -0.301309
0.647014 0.581689 -0.300467
0.652599 0.582229 -0.301826
0.666667 0.594260 -0.308429
0.669041 0.590228 -0.307738
0.672877 0.588176 -0.307952
0.677752 0.587484 -0.308795
0.683678 0.588126 -0.310261
0.688536 0.587322 -0.311068
0.696240 0.590121 -0.313560
0.699730 0.587471 -0.313526
0.707601 0.590316 -0.316069
0.713222 0.590254 -0.317264
0.718157 0.589296 -0.318046
0.722517 0.587601 -0.318485
0.727838 0.587044 -0.319471
0.734014 0.587461 -0.320931
0.740312 0.587959 -0.322443
0.747865 0.589858 -0.324642
0.755499 0.591757 -0.326860
0.753521 0.582546 -0.323705
0.760223 0.583309 -0.325386
0.770678 0.588215 -0.329108
0.785841 0.598203 -0.335357
0.789285 0.595031 -0.335170
0.791889 0.590947 -0.334531
0.799003 0.591753 -0.336319
0.803810 0.590017 -0.336855
0.809173 0.588845 -0.337680
0.816715 0.589919 -0.339644
0.824448 0.591109 -0.341685
0.829501 0.589462 -0.342306
0.836247 0.589507 -0.343796
0.847219 0.593747 -0.347447
0.852057 0.591723 -0.347914
0.857030 0.589807 -0.348443
0.865029 0.590826 -0.350500
0.873222 0.591948 -0.352632
0.879681 0.591321 -0.353871
0.884341 0.588930 -0.354198
0.895058 0.592218 -0.357524
0.901070 0.590992 -0.358494
0.908723 0.591235 -0.360258
0.915353 0.590472 -0.361503
0.921617 0.589322 -0.362557
0.929742 0.589793 -0.364497
0.939810 0.591906 -0.367348
0.945914 0.590425 -0.368276
0.952426 0.589255 -0.369387
0.959689 0.588681 -0.370841
0.969406 0.590136 -0.373432
0.977286 0.589936 -0.375137
0.983745 0.588476 -0.376162
0.990570 0.587270 -0.377345
1.000815 0.588812 -0.380089
1.012807 0.591660 -0.383606
1.018690 0.589464 -0.384300
1.026906 0.589084 -0.386045
1.033762 0.587557 -0.387157
1.042984 0.587820 -0.389319
1.053094 0.588678 -0.391855
1.061714 0.588291 -0.393701
1.071050 0.588364 -0.395845
1.081603 0.589257 -0.398502
1.086771 0.586049 -0.398772
1.102414 0.590496 -0.403604
1.109409 0.588476 -0.404635
1.119103 0.588341 -0.406820
1.126400 0.586404 -0.407951
1.133917 0.584560 -0.409163
1.143694 0.584227 -0.411323
1.154143 0.584260 -0.413745
1.160022 0.581066 -0.414214
1.174890 0.583901 -0.418449
1.188130 0.585479 -0.421960
1.193075 0.581427 -0.421987
1.209063 0.584568 -0.426580
1.217268 0.582489 -0.427921
1.224267 0.579564 -0.428752
1.243910 0.584585 -0.434731
1.250692 0.581320 -0.435427
1.256618 0.577468 -0.435766
1.283475 0.586395 -0.444522
1.292349 0.584099 -0.445990
1.300613 0.581354 -0.447196
1.316087 0.582804 -0.451248
1.328829 0.582483 -0.454180
1.344150 0.583520 -0.458094
1.355027 0.581845 -0.460227
1.366381 0.580332 -0.462522
1.383882 0.582143 -0.467176
1.395151 0.580315 -0.469375
1.409006 0.579790 -0.472543
1.425710 0.580659 -0.476767
1.438944 0.579500 -0.479625
1.456523 0.580499 -0.484100
1.468552 0.578425 -0.486432
1.480740 0.576321 -0.488797
1.499933 0.577664 -0.493757
1.517966 0.578230 -0.498234
1.531802 0.576541 -0.501108
1.550613 0.577164 -0.505787
1.571659 0.578689 -0.511241
1.594287 0.580769 -0.517219
1.616274 0.582336 -0.522905
1.634398 0.581911 -0.527134
1.652858 0.581498 -0.531441
1.671814 0.581169 -0.535883
1.691232 0.580910 -0.540447
1.711350 0.580826 -0.545216
1.730483 0.580182 -0.549590
1.742165 0.576227 -0.551289
1.750027 0.570636 -0.551625
1.758148 0.565188 -0.552047
1.783521 0.566903 -0.558484
1.795589 0.563060 -0.560242
1.701869 0.508631 -0.523111
1.690832 0.496405 -0.517072
1.680617 0.484759 -0.511367
1.766407 0.510049 -0.538373
0.231365 0.592435 -0.224862
0.234148 0.590974 -0.225007
0.237142 0.590866 -0.225609
0.240256 0.591267 -0.226386
0.243407 0.591496 -0.227106
0.246662 0.592093 -0.227953
0.250029 0.593075 -0.228934
0.253305 0.593037 -0.229568
0.256543 0.592440 -0.230009
0.260013 0.593096 -0.230884
0.263558 0.593929 -0.231822
0.267033 0.594056 -0.232517
0.270912 0.596352 -0.233969
0.274154 0.594675 -0.234038
0.277516 0.593598 -0.234316
0.281157 0.593940 -0.235091
0.284791 0.594095 -0.235803
0.288580 0.594926 -0.236755
0.292199 0.594759 -0.237356
0.295012 0.590585 -0.236538
0.299926 0.596517 -0.239308
0.302977 0.593460 -0.238885
0.306665 0.593371 -0.239520
0.310892 0.595615 -0.240994
0.314701 0.595906 -0.241772
0.318301 0.595257 -0.242214
0.322393 0.596634 -0.243390
0.325363 0.593384 -0.242894
0.333111 0.609126 -0.249296
0.334335 0.598945 -0.246287
0.338619 0.600747 -0.247638
0.343974 0.606434 -0.250420
0.348646 0.609389 -0.252212
0.353266 0.612021 -0.253895
0.357305 0.612497 -0.254790
0.359448 0.606421 -0.253264
0.360946 0.598372 -0.250996
0.363346 0.593579 -0.249929
0.368446 0.597721 -0.252192
0.373537 0.601671 -0.254395
0.376987 0.600305 -0.254615
0.379488 0.596035 -0.253743
0.382612 0.593777 -0.253625
0.386663 0.594338 -0.254575
0.390830 0.595196 -0.255643
0.394730 0.595232 -0.256404
0.398378 0.594527 -0.256887
0.403181 0.597050 -0.258609
0.409514 0.603687 -0.261921
0.412818 0.601869 -0.261997
0.418656 0.606857 -0.264702
0.421568 0.603953 -0.264367
0.424670 0.601598 -0.264243
0.428157 0.600263 -0.264517
0.430646 0.596419 -0.263813
0.433577 0.593749 -0.263566
0.437318 0.593107 -0.264114
0.441931 0.594555 -0.265491
