ply
format ascii 1.0
comment ---
element vertex 1745
property float x
property float y
property float z
element face 0
property list uchar uint vertex_indices
end_header
0.392238 0.598511 0.024353
0.399613 0.605283 0.024112
0.402562 0.602614 0.023987
0.405674 0.600292 0.023857
0.409860 0.600156 0.023696
0.413365 0.598601 0.023553
0.417601 0.598481 0.023389
0.422814 0.600230 0.023196
0.426610 0.599137 0.023042
0.430505 0.598209 0.022883
0.435053 0.598491 0.022706
0.439207 0.597980 0.022539
0.443746 0.598149 0.022360
0.449240 0.600019 0.022154
0.458121 0.607931 0.021851
0.462575 0.607711 0.021673
0.464238 0.602524 0.021574
0.468524 0.602008 0.021401
0.472531 0.600994 0.021237
0.476504 0.599921 0.021074
0.480207 0.598397 0.020920
0.489454 0.606177 0.020606
0.492341 0.603249 0.020479
0.495816 0.601345 0.020336
0.498197 0.597713 0.020228
0.504848 0.601023 0.019998
0.509387 0.600929 0.019831
0.511317 0.596757 0.019746
0.514036 0.593930 0.019641
0.516359 0.590587 0.019551
0.521338 0.591412 0.019387
0.523967 0.588717 0.019297
0.533410 0.596349 0.019010
-0.292634 0.600570 0.034496
-0.289022 0.600718 0.034436
-0.285587 0.601346 0.034382
-0.282454 0.602725 0.034333
-0.278666 0.602803 0.034286
-0.274283 0.601660 0.034241
-0.270818 0.602594 0.034203
-0.267967 0.604992 0.034170
-0.265623 0.608659 0.034142
-0.260525 0.606125 0.034109
-0.256284 0.605566 0.034081
-0.252763 0.606718 0.034057
-0.248391 0.605891 0.034034
-0.244773 0.606883 0.034014
-0.240926 0.607346 0.033994
-0.236666 0.606792 0.033975
-0.232635 0.606795 0.033958
-0.228955 0.607684 0.033942
-0.224460 0.606463 0.033925
-0.220668 0.607033 0.033910
-0.216823 0.607451 0.033895
-0.212672 0.607015 0.033879
-0.208300 0.605920 0.033862
-0.204969 0.607664 0.033847
-0.201051 0.607748 0.033831
-0.196563 0.606144 0.033813
-0.193324 0.608098 0.033796
-0.189285 0.607682 0.033778
-0.185360 0.607544 0.033758
-0.181299 0.606930 0.033738
-0.177954 0.608477 0.033717
-0.174154 0.608572 0.033695
-0.169962 0.607346 0.033671
-0.166115 0.607153 0.033647
-0.162078 0.606259 0.033621
-0.158305 0.606173 0.033595
-0.155081 0.607928 0.033568
-0.151380 0.608007 0.033539
-0.147598 0.607737 0.033509
-0.142911 0.604092 0.033477
-0.139941 0.606647 0.033445
-0.136560 0.607685 0.033412
-0.132624 0.606557 0.033377
-0.128736 0.605522 0.033341
-0.124941 0.604761 0.033304
-0.121565 0.605635 0.033266
-0.118010 0.605744 0.033227
-0.114354 0.605369 0.033187
-0.110901 0.605817 0.033146
-0.107381 0.605936 0.033103
-0.103938 0.606359 0.033059
-0.100583 0.607165 0.033015
-0.097140 0.607535 0.032969
-0.093515 0.606992 0.032922
-0.089987 0.606860 0.032875
-0.086597 0.607386 0.032826
-0.083099 0.607327 0.032776
-0.079521 0.606787 0.032726
-0.075950 0.606219 0.032675
-0.072637 0.607047 0.032622
-0.068849 0.605100 0.032570
-0.065471 0.605470 0.032516
-0.062155 0.606213 0.032460
-0.058752 0.606401 0.032404
-0.055274 0.606080 0.032348
-0.051887 0.606319 0.032290
-0.048561 0.606968 0.032231
-0.045119 0.606786 0.032172
-0.041547 0.605590 0.032114
-0.038137 0.605533 0.032054
-0.034621 0.604588 0.031994
-0.030483 0.598330 0.031944
-0.027518 0.601770 0.031876
-0.024987 0.609417 0.031798
-0.021722 0.610751 0.031731
-0.018123 0.608864 0.031670
-0.014509 0.606627 0.031610
-0.011292 0.608474 0.031540
-0.008073 0.610481 0.031469
-0.004725 0.611134 0.031400
-0.001339 0.611347 0.031332
0.002266 0.608568 0.031272
0.005712 0.607738 0.031205
0.009082 0.607972 0.031136
0.012301 0.610788 0.031058
0.015829 0.608392 0.030995
0.018998 0.612785 0.030911
0.022520 0.610224 0.030848
0.025874 0.611242 0.030773
0.029467 0.605812 0.030720
0.032924 0.603199 0.030658
0.036243 0.604865 0.030580
0.039491 0.610582 0.030486
0.042802 0.615777 0.030393
0.046269 0.612364 0.030332
0.049699 0.609652 0.030269
0.053105 0.606732 0.030206
0.056493 0.608280 0.030125
0.059903 0.610812 0.030039
0.063372 0.616538 0.029939
0.066942 0.625233 0.029822
0.070012 0.605123 0.029839
0.073392 0.604943 0.029764
0.076803 0.605814 0.029684
0.080182 0.605452 0.029609
0.083511 0.603848 0.029541
0.086719 0.599764 0.029485
0.090392 0.606074 0.029375
0.093885 0.607840 0.029288
0.097030 0.603232 0.029235
0.100335 0.601857 0.029165
0.103867 0.604042 0.029075
0.107232 0.603562 0.028999
0.110766 0.605337 0.028910
0.114370 0.607727 0.028817
0.117833 0.608200 0.028734
0.121595 0.611889 0.028631
0.125210 0.613647 0.028539
0.128628 0.613248 0.028461
0.131857 0.611040 0.028394
0.135140 0.609495 0.028323
0.138938 0.612575 0.028220
0.142464 0.613092 0.028134
0.146266 0.615778 0.028033
0.149598 0.614586 0.027958
0.152842 0.612785 0.027888
0.155854 0.609405 0.027829
0.159073 0.607672 0.027758
0.162418 0.606892 0.027681
0.165844 0.606670 0.027598
0.168728 0.602978 0.027543
0.173035 0.608296 0.027416
0.177362 0.613408 0.027289
0.181016 0.614272 0.027196
0.184614 0.614748 0.027104
0.189073 0.619950 0.026973
0.190041 0.606021 0.027003
0.193208 0.604339 0.026930
0.196502 0.603368 0.026851
0.200064 0.603759 0.026759
0.203471 0.603350 0.026674
0.207011 0.603575 0.026582
0.211296 0.607238 0.026458
0.215690 0.611219 0.026329
0.218660 0.608637 0.026261
0.222514 0.610008 0.026155
0.226432 0.611569 0.026046
0.229861 0.610990 0.025957
0.233134 0.609767 0.025874
0.236753 0.609960 0.025776
0.240436 0.610367 0.025675
0.243810 0.609538 0.025586
0.247323 0.609240 0.025491
0.248053 0.598536 0.025506
0.255167 0.611586 0.025266
0.258770 0.611502 0.025165
0.261729 0.609119 0.025089
0.265781 0.610581 0.024969
0.269845 0.612002 0.024848
0.273679 0.612574 0.024735
0.276792 0.610711 0.024650
0.280465 0.610697 0.024542
0.284317 0.611221 0.024426
0.287381 0.609211 0.024340
0.290190 0.606444 0.024262
0.294048 0.606921 0.024143
0.298661 0.609615 0.023995
0.303069 0.611584 0.023854
0.308094 0.615250 0.023688
0.311508 0.614148 0.023583
0.309677 0.598216 0.023673
0.313798 0.599283 0.023538
0.317787 0.599915 0.023408
0.321327 0.599272 0.023293
0.325134 0.599318 0.023167
0.329843 0.601694 0.023006
0.334221 0.603102 0.022856
0.337645 0.601982 0.022741
0.341099 0.600924 0.022623
0.346926 0.605759 0.022416
0.351602 0.607591 0.022251
0.355080 0.606418 0.022128
0.358648 0.605444 0.022001
0.362384 0.604840 0.021867
0.366395 0.604845 0.021721
0.369342 0.602348 0.021613
0.373483 0.602577 0.021459
0.377595 0.602684 0.021305
0.382326 0.604109 0.021127
0.385287 0.601567 0.021013
0.388778 0.600183 0.020878
0.397042 0.608972 0.020565
0.401591 0.609654 0.020388
0.402487 0.602655 0.020345
0.406815 0.602835 0.020174
0.410402 0.601451 0.020029
0.413493 0.599046 0.019901
0.417902 0.599266 0.019723
0.422816 0.600419 0.019526
0.427149 0.600365 0.019349
0.430076 0.597568 0.019223
0.434041 0.596754 0.019058
0.438450 0.596743 0.018876
0.443274 0.597454 0.018677
0.448353 0.598573 0.018469
0.453435 0.599633 0.018260
0.457542 0.598887 0.018087
0.461082 0.597121 0.017936
0.466024 0.597815 0.017733
0.471144 0.598777 0.017523
0.475237 0.597937 0.017353
0.479182 0.596849 0.017190
0.483468 0.596344 0.017016
0.486935 0.594486 0.016874
0.490793 0.593310 0.016719
0.496090 0.594497 0.016512
0.501009 0.595067 0.016322
0.505834 0.595495 0.016139
0.510442 0.595602 0.015967
0.512530 0.591811 0.015895
0.517705 0.592897 0.015709
0.523459 0.594894 0.015506
0.526702 0.593105 0.015402
0.526686 0.586520 0.015427
-0.293633 0.602640 0.030936
-0.289443 0.601587 0.030880
-0.285685 0.601525 0.030825
-0.282210 0.602160 0.030773
-0.278422 0.602220 0.030728
-0.274669 0.602435 0.030686
-0.270929 0.602759 0.030648
-0.267999 0.604970 0.030607
-0.265035 0.607215 0.030569
-0.260223 0.605313 0.030550
-0.256328 0.605539 0.030526
-0.252088 0.604989 0.030507
-0.248563 0.606156 0.030484
-0.244860 0.606938 0.030464
-0.241054 0.607496 0.030447
-0.237024 0.607512 0.030433
-0.233029 0.607611 0.030420
-0.228747 0.606966 0.030411
-0.224173 0.605524 0.030405
-0.220820 0.607237 0.030388
-0.216907 0.607473 0.030376
-0.212444 0.606188 0.030371
-0.208739 0.606918 0.030357
-0.204486 0.606095 0.030349
-0.200656 0.606405 0.030336
-0.196662 0.606207 0.030325
-0.193076 0.607146 0.030308
-0.189621 0.608455 0.030289
-0.184745 0.605454 0.030286
-0.181519 0.607373 0.030263
-0.177491 0.606791 0.030249
-0.173789 0.607171 0.030229
-0.169987 0.607183 0.030210
-0.166096 0.606844 0.030191
-0.162286 0.606708 0.030171
-0.158588 0.606889 0.030147
-0.155017 0.607456 0.030121
-0.151491 0.608144 0.030093
-0.147106 0.605719 0.030077
-0.143273 0.605161 0.030052
-0.139990 0.606574 0.030016
-0.136470 0.607082 0.029984
-0.132599 0.606198 0.029956
-0.128589 0.604672 0.029930
-0.125286 0.605878 0.029891
-0.121737 0.606067 0.029855
-0.117981 0.605343 0.029821
-0.114382 0.605211 0.029784
-0.110898 0.605522 0.029744
-0.107398 0.605723 0.029703
-0.104052 0.606588 0.029657
-0.100580 0.606852 0.029613
-0.097057 0.606840 0.029569
-0.093478 0.606505 0.029526
-0.090038 0.606804 0.029479
-0.086535 0.606751 0.029432
-0.083099 0.607003 0.029383
-0.079501 0.606348 0.029337
-0.076070 0.606545 0.029286
-0.072481 0.605814 0.029239
-0.068992 0.605581 0.029188
-0.065546 0.605561 0.029135
-0.062187 0.606034 0.029079
-0.058826 0.606489 0.029021
-0.055483 0.607062 0.028962
-0.052146 0.607669 0.028902
-0.048722 0.607677 0.028844
-0.045295 0.607632 0.028786
-0.041771 0.606823 0.028732
-0.038250 0.605944 0.028677
-0.034528 0.603356 0.028633
-0.030549 0.598388 0.028604
-0.027796 0.603669 0.028508
-0.024900 0.608079 0.028416
-0.021574 0.608771 0.028348
-0.017890 0.605953 0.028302
-0.014524 0.606145 0.028236
-0.011255 0.607409 0.028162
-0.008065 0.609684 0.028080
-0.005046 0.614288 0.027980
-0.001900 0.617796 0.027886
0.001889 0.612896 0.027853
0.005482 0.610206 0.027804
0.008881 0.610152 0.027735
0.012214 0.611199 0.027657
0.015358 0.615907 0.027550
0.019084 0.609765 0.027527
0.022297 0.613765 0.027424
0.025586 0.616785 0.027328
0.029380 0.606460 0.027338
0.032716 0.607794 0.027255
0.035992 0.611917 0.027148
0.039316 0.615594 0.027043
0.042753 0.614728 0.026976
0.046156 0.615962 0.026891
0.049609 0.612440 0.026846
0.053030 0.609165 0.026800
0.056427 0.610140 0.026716
0.059853 0.614006 0.026605
0.063344 0.620481 0.026469
0.066807 0.621169 0.026385
0.069952 0.605645 0.026452
0.073319 0.604855 0.026383
0.076702 0.604818 0.026306
0.080063 0.604076 0.026236
0.083434 0.603744 0.026162
0.086811 0.603559 0.026086
0.090384 0.607451 0.025970
0.093820 0.608032 0.025885
0.097152 0.606671 0.025820
0.100377 0.603758 0.025771
0.103748 0.603408 0.025695
0.107367 0.606535 0.025583
0.110344 0.600821 0.025563
0.114341 0.608346 0.025403
0.117960 0.610610 0.025297
0.121470 0.611406 0.025207
0.125591 0.618522 0.025047
0.128936 0.617151 0.024979
0.131665 0.609997 0.024977
0.135497 0.613531 0.024854
0.139032 0.614137 0.024763
0.142607 0.615012 0.024669
0.146038 0.614626 0.024590
0.149456 0.614149 0.024511
0.152887 0.613775 0.024430
0.156014 0.611199 0.024376
0.159278 0.609726 0.024309
0.162754 0.609773 0.024223
0.166019 0.608401 0.024154
0.169583 0.609003 0.024060
0.172978 0.608496 0.023980
0.176666 0.609761 0.023877
0.180297 0.610600 0.023778
0.184555 0.614940 0.023633
0.189742 0.624172 0.023422
0.190264 0.607721 0.023549
0.192939 0.603409 0.023518
0.196460 0.603627 0.023425
0.200054 0.604175 0.023327
0.203257 0.602762 0.023256
0.206802 0.603024 0.023161
0.211501 0.608641 0.022990
0.215737 0.611870 0.022850
0.219893 0.614573 0.022717
0.222434 0.610080 0.022686
0.226152 0.610783 0.022580
0.229976 0.611881 0.022467
0.232652 0.608184 0.022424
0.236273 0.608418 0.022322
0.239912 0.608684 0.022219
0.243569 0.608984 0.022114
0.246610 0.606899 0.022045
0.251752 0.612709 0.021853
0.254341 0.608918 0.021809
0.258585 0.611195 0.021669
0.262248 0.611303 0.021561
0.265740 0.610784 0.021463
0.269302 0.610489 0.021360
0.272591 0.609252 0.021271
0.275993 0.608400 0.021175
0.279358 0.607423 0.021080
0.284196 0.611149 0.020905
0.288958 0.614487 0.020734
0.291876 0.611972 0.020661
0.295688 0.612225 0.020539
0.298226 0.608606 0.020484
0.300993 0.605739 0.020415
0.305841 0.608980 0.020236
0.309848 0.609671 0.020101
0.309032 0.596665 0.020212
0.314326 0.601024 0.020008
0.317753 0.600088 0.019898
0.321676 0.600479 0.019762
0.325347 0.600143 0.019639
0.329310 0.600542 0.019499
0.335145 0.605749 0.019265
0.337764 0.602532 0.019190
0.341201 0.601422 0.019073
0.344847 0.600816 0.018945
0.348833 0.601014 0.018799
0.352850 0.601236 0.018650
0.358519 0.605358 0.018419
0.360441 0.600470 0.018370
0.364007 0.599490 0.018239
0.367014 0.597198 0.018134
0.371590 0.598482 0.017952
0.377175 0.601947 0.017720
0.380415 0.600072 0.017600
0.383702 0.598295 0.017476
0.388016 0.598730 0.017302
0.391799 0.597964 0.017152
0.395853 0.597738 0.016987
0.399397 0.596401 0.016846
0.405473 0.600255 0.016583
0.408364 0.597483 0.016471
0.412606 0.597441 0.016293
0.417113 0.597872 0.016101
0.420796 0.596625 0.015948
0.424823 0.596023 0.015778
0.429295 0.596239 0.015585
0.433715 0.596301 0.015395
0.439038 0.598010 0.015161
0.443950 0.598872 0.014947
0.448930 0.599795 0.014729
0.453100 0.599193 0.014549
0.456671 0.597494 0.014397
0.460878 0.596927 0.014216
0.465003 0.596197 0.014039
0.469942 0.596867 0.013824
0.474532 0.596904 0.013627
0.479800 0.598071 0.013400
0.483802 0.597083 0.013233
0.487291 0.595260 0.013092
0.493379 0.597738 0.012832
0.496968 0.596115 0.012691
0.500607 0.594622 0.012551
0.504849 0.594135 0.012385
0.509490 0.594315 0.012205
0.514543 0.595167 0.012009
0.518829 0.594859 0.011853
0.523003 0.594434 0.011707
0.527517 0.594585 0.011550
0.526436 0.586396 0.011654
-0.292742 0.600789 0.027388
-0.289679 0.602064 0.027319
-0.286172 0.602523 0.027261
-0.282041 0.601751 0.027219
-0.278578 0.602496 0.027169
-0.275247 0.603626 0.027121
-0.271537 0.604017 0.027083
-0.267854 0.604542 0.027048
-0.264162 0.605118 0.027017
-0.259751 0.604100 0.027002
-0.255955 0.604532 0.026979
-0.251969 0.604557 0.026961
-0.248376 0.605546 0.026938
-0.244749 0.606497 0.026918
-0.240183 0.605176 0.026918
-0.236837 0.606860 0.026895
-0.233014 0.607378 0.026882
-0.228854 0.607038 0.026878
-0.224628 0.606499 0.026877
-0.220889 0.607204 0.026865
-0.217127 0.607842 0.026854
-0.212744 0.606778 0.026857
-0.208397 0.605748 0.026860
-0.204829 0.606823 0.026845
-0.200631 0.606100 0.026844
-0.196851 0.606510 0.026833
-0.193318 0.607611 0.026816
-0.189741 0.608564 0.026798
-0.186241 0.609729 0.026778
-0.181617 0.607422 0.026787
-0.177537 0.606682 0.026781
-0.173665 0.606522 0.026769
-0.169954 0.606819 0.026752
-0.166066 0.606486 0.026739
-0.162341 0.606629 0.026720
-0.158492 0.606298 0.026704
-0.154850 0.606611 0.026681
-0.151382 0.607492 0.026652
-0.147193 0.605759 0.026645
-0.143771 0.606708 0.026612
-0.139782 0.605524 0.026597
-0.136381 0.606468 0.026561
-0.132927 0.607186 0.026526
-0.129039 0.606167 0.026505
-0.125239 0.605401 0.026481
-0.121892 0.606417 0.026439
-0.118252 0.606189 0.026407
-0.114616 0.605918 0.026375
-0.111115 0.606169 0.026336
-0.107773 0.607093 0.026289
-0.104144 0.606698 0.026253
-0.100705 0.607127 0.026209
-0.097229 0.607344 0.026165
-0.093547 0.606520 0.026130
-0.089957 0.606075 0.026090
-0.086569 0.606592 0.026040
-0.083044 0.606376 0.025995
-0.079634 0.606720 0.025944
-0.076135 0.606552 0.025897
-0.072618 0.606232 0.025851
-0.069125 0.605994 0.025802
-0.065658 0.605859 0.025752
-0.062279 0.606222 0.025695
-0.058940 0.606820 0.025635
-0.055583 0.607309 0.025575
-0.051939 0.605846 0.025535
-0.048855 0.608173 0.025453
-0.045307 0.607266 0.025405
-0.041914 0.607428 0.025345
-0.038539 0.607718 0.025282
-0.034472 0.602419 0.025280
-0.030794 0.599934 0.025247
-0.027968 0.604641 0.025133
-0.025110 0.609423 0.025017
-0.021631 0.608730 0.024961
-0.017822 0.604672 0.024943
-0.014549 0.605769 0.024866
-0.011550 0.609955 0.024752
-0.008397 0.612789 0.024652
-0.005246 0.615962 0.024547
-0.002125 0.619875 0.024433
0.001355 0.619352 0.024370
0.005270 0.612384 0.024384
0.008807 0.610319 0.024339
0.012023 0.613357 0.024232
0.015294 0.615893 0.024129
0.018738 0.615436 0.024063
0.022346 0.611229 0.024044
0.025764 0.610741 0.023978
0.029271 0.607674 0.023944
0.032555 0.610862 0.023830
0.035843 0.615013 0.023703
0.039283 0.614011 0.023641
0.042673 0.615449 0.023547
0.046127 0.612856 0.023506
0.049548 0.611570 0.023447
0.052958 0.610201 0.023390
0.056359 0.611261 0.023299
0.059788 0.614834 0.023174
0.063245 0.617908 0.023054
0.066738 0.621358 0.022928
0.069901 0.606636 0.023055
0.073222 0.603815 0.023017
0.076607 0.604043 0.022936
0.079991 0.604108 0.022857
0.083353 0.603548 0.022787
0.086636 0.601244 0.022742
0.090137 0.603879 0.022624
0.093720 0.607561 0.022491
0.097193 0.608706 0.022394
0.100609 0.608716 0.022313
0.104226 0.611717 0.022187
0.107621 0.611175 0.022114
0.110843 0.608393 0.022075
0.114280 0.608573 0.021990
0.117791 0.609567 0.021893
0.121777 0.615695 0.021714
0.125252 0.615817 0.021629
0.129184 0.620476 0.021471
0.132001 0.614002 0.021490
0.134665 0.606671 0.021523
0.138626 0.611308 0.021364
0.142103 0.611473 0.021277
0.145400 0.610144 0.021213
0.148848 0.610072 0.021129
0.152694 0.612970 0.020995
0.155941 0.611298 0.020936
0.159412 0.611285 0.020850
0.162691 0.609943 0.020785
0.166296 0.610808 0.020683
0.169954 0.611939 0.020575
0.172803 0.607963 0.020556
0.176113 0.606973 0.020484
0.179960 0.609155 0.020356
0.183863 0.611517 0.020225
0.187394 0.611669 0.020131
0.189725 0.605304 0.020154
0.192699 0.602625 0.020112
0.196440 0.603995 0.019995
0.199628 0.602504 0.019930
0.203571 0.604749 0.019796
0.207172 0.605238 0.019693
0.211251 0.607913 0.019548
0.215104 0.609410 0.019424
0.218381 0.608241 0.019350
0.221916 0.608228 0.019253
0.225456 0.608212 0.019155
0.228131 0.604539 0.019128
0.231093 0.602170 0.019075
0.234687 0.602413 0.018970
0.238801 0.604672 0.018825
0.242350 0.604632 0.018723
0.245552 0.603242 0.018648
0.249260 0.603764 0.018534
0.252998 0.604350 0.018417
0.256189 0.602914 0.018340
0.259528 0.602022 0.018251
0.263390 0.602949 0.018123
0.266851 0.602442 0.018024
0.270235 0.601661 0.017930
0.273879 0.601734 0.017816
0.277552 0.601863 0.017700
0.281342 0.602330 0.017575
0.284985 0.602288 0.017459
0.288686 0.602389 0.017339
0.292447 0.602635 0.017214
0.294887 0.598867 0.017177
0.299570 0.601810 0.016989
0.303362 0.602035 0.016860
0.307127 0.602134 0.016732
0.310745 0.601777 0.016612
0.313911 0.600129 0.016521
0.318556 0.602551 0.016333
0.321807 0.601086 0.016234
0.325510 0.600827 0.016105
0.329304 0.600770 0.015970
0.333501 0.601718 0.015808
0.337321 0.601630 0.015669
0.340754 0.600522 0.015552
0.344503 0.600182 0.015415
0.348244 0.599786 0.015278
0.352121 0.599684 0.015130
0.356200 0.600018 0.014970
0.360718 0.601333 0.014782
0.363922 0.599496 0.014672
0.367682 0.598936 0.014527
0.372109 0.599858 0.014341
0.375725 0.598882 0.014203
0.379659 0.598583 0.014044
0.384252 0.599683 0.013846
0.387629 0.598074 0.013717
0.392107 0.598801 0.013523
0.396036 0.598298 0.013361
0.399497 0.596779 0.013224
0.403189 0.595719 0.013072
0.408222 0.597359 0.012842
0.412487 0.597363 0.012656
0.417277 0.598359 0.012438
0.421110 0.597399 0.012275
0.424610 0.595766 0.012130
0.430726 0.599137 0.011835
0.434992 0.598875 0.011645
0.439431 0.598899 0.011444
0.443753 0.598659 0.011251
0.449336 0.600691 0.010986
0.452883 0.598952 0.010835
0.456627 0.597569 0.010674
0.460835 0.597005 0.010487
0.465268 0.596816 0.010289
0.469695 0.596597 0.010091
0.474527 0.597055 0.009872
0.479793 0.598224 0.009631
0.484149 0.597833 0.009442
0.489484 0.599067 0.009200
0.493197 0.597618 0.009051
0.496972 0.596306 0.008901
0.500669 0.594910 0.008758
0.505065 0.594676 0.008580
0.510182 0.595609 0.008367
0.514852 0.595863 0.008182
0.518746 0.594953 0.008043
0.522729 0.594246 0.007904
0.526284 0.592957 0.007793
0.530468 0.592699 0.007653
-0.292961 0.601240 0.023831
-0.289299 0.601246 0.023772
-0.285833 0.601768 0.023711
-0.282538 0.602763 0.023651
-0.278685 0.602658 0.023610
-0.275007 0.603016 0.023568
-0.271535 0.603914 0.023524
-0.267681 0.604043 0.023494
-0.264012 0.604650 0.023462
-0.260170 0.604925 0.023439
-0.255752 0.603908 0.023436
-0.252332 0.605252 0.023405
-0.248511 0.605698 0.023388
-0.244516 0.605750 0.023379
-0.240585 0.605972 0.023370
-0.236670 0.606242 0.023362
-0.232953 0.607015 0.023348
-0.228872 0.606866 0.023348
-0.224774 0.606655 0.023349
-0.220911 0.607033 0.023343
-0.217122 0.607593 0.023335
-0.213213 0.607810 0.023331
-0.208646 0.606189 0.023353
-0.204706 0.606228 0.023351
-0.201122 0.607238 0.023335
-0.197256 0.607420 0.023330
-0.193533 0.607979 0.023319
-0.190004 0.609082 0.023300
-0.185765 0.608021 0.023308
-0.181839 0.607834 0.023304
-0.177807 0.607254 0.023304
-0.173503 0.605734 0.023316
-0.170188 0.607298 0.023284
-0.166409 0.607334 0.023272
-0.162262 0.606086 0.023275
-0.158796 0.607051 0.023247
-0.154896 0.606487 0.023239
-0.151628 0.608073 0.023199
-0.147185 0.605442 0.023216
-0.143451 0.605246 0.023198
-0.139787 0.605251 0.023176
-0.136356 0.606075 0.023140
-0.132930 0.606899 0.023103
-0.129168 0.606375 0.023084
-0.125461 0.605994 0.023061
-0.121917 0.606213 0.023028
-0.118438 0.606661 0.022990
-0.114899 0.606816 0.022955
-0.111401 0.607103 0.022917
-0.107976 0.607681 0.022873
-0.103812 0.604865 0.022876
-0.100823 0.607348 0.022802
-0.097439 0.608016 0.022753
-0.093450 0.605714 0.022745
-0.090048 0.606186 0.022696
-0.086653 0.606679 0.022645
-0.083258 0.607144 0.022593
-0.079791 0.607208 0.022546
-0.076248 0.606810 0.022505
-0.072680 0.606209 0.022465
-0.069202 0.606061 0.022418
-0.065763 0.606098 0.022366
-0.062276 0.605799 0.022319
-0.058976 0.606642 0.022254
-0.055625 0.607166 0.022192
-0.052261 0.607598 0.022130
-0.048855 0.607726 0.022072
-0.045109 0.605379 0.022051
-0.041942 0.607167 0.021966
-0.038826 0.609446 0.021871
-0.034660 0.603426 0.021906
-0.031198 0.602787 0.021855
-0.028568 0.609314 0.021691
-0.025047 0.608282 0.021645
-0.022681 0.618076 0.021425
-0.019671 0.622368 0.021291
-0.015676 0.616825 0.021315
-0.012033 0.614536 0.021286
-0.008408 0.612181 0.021257
-0.005300 0.615838 0.021130
-0.001973 0.617088 0.021041
0.001505 0.616420 0.020983
0.005129 0.613503 0.020962
0.008783 0.609685 0.020956
0.012022 0.612281 0.020841
0.015324 0.614149 0.020739
0.018943 0.609999 0.020738
0.022339 0.609922 0.020667
0.025744 0.609623 0.020599
0.029087 0.610961 0.020503
0.032460 0.611759 0.020415
0.035831 0.612922 0.020320
0.039218 0.613900 0.020228
0.042777 0.605476 0.020302
0.046133 0.606918 0.020201
0.049504 0.608362 0.020100
0.052888 0.610327 0.019988
0.056292 0.613345 0.019856
0.059702 0.612398 0.019796
0.063127 0.613505 0.019697
0.066546 0.613527 0.019618
0.069833 0.606816 0.019665
0.073164 0.604393 0.019631
0.076541 0.604250 0.019556
0.079953 0.605111 0.019460
0.083342 0.605142 0.019380
0.086652 0.603306 0.019336
0.090043 0.603470 0.019253
0.093418 0.603258 0.019176
0.096809 0.603327 0.019094
0.100211 0.603539 0.019009
0.103706 0.605082 0.018897
0.107197 0.606323 0.018791
0.110498 0.604898 0.018737
0.113930 0.605220 0.018648
0.117328 0.605087 0.018568
0.120651 0.604105 0.018505
0.124109 0.604624 0.018411
0.127495 0.604342 0.018332
0.130930 0.604524 0.018244
0.134353 0.604565 0.018159
0.137476 0.601934 0.018129
0.141132 0.603991 0.018001
0.144635 0.604621 0.017902
0.147817 0.602672 0.017857
0.151251 0.602738 0.017769
0.154799 0.603611 0.017663
0.158458 0.605177 0.017542
0.161801 0.604473 0.017469
0.165142 0.603778 0.017396
0.168320 0.602058 0.017345
0.171984 0.603433 0.017225
0.175476 0.603670 0.017130
0.178661 0.602067 0.017075
0.182176 0.602415 0.016977
0.185817 0.603420 0.016863
0.189305 0.603525 0.016768
0.192678 0.602994 0.016687
0.196349 0.603995 0.016571
0.199833 0.603986 0.016477
0.203463 0.604670 0.016366
0.206811 0.603954 0.016287
0.210024 0.602607 0.016222
0.213236 0.601297 0.016156
0.217533 0.604870 0.015973
0.220815 0.603820 0.015900
0.224162 0.603068 0.015818
0.227508 0.602319 0.015736
0.231105 0.602604 0.015627
0.234226 0.600931 0.015566
0.238337 0.603211 0.015406
0.241851 0.603060 0.015306
0.245166 0.602131 0.015223
0.248566 0.601523 0.015132
0.252658 0.603448 0.014976
0.255539 0.600910 0.014931
0.259408 0.601932 0.014795
0.263162 0.602485 0.014669
0.266592 0.601880 0.014572
0.269953 0.601029 0.014480
0.273429 0.600555 0.014377
0.277290 0.601317 0.014241
0.281183 0.602124 0.014101
0.284976 0.602553 0.013970
0.288668 0.602623 0.013846
0.292022 0.601620 0.013750
0.294357 0.597551 0.013736
0.299693 0.602450 0.013476
0.303514 0.602745 0.013340
0.307222 0.602669 0.013212
0.310660 0.601795 0.013104
0.314381 0.601691 0.012973
0.318367 0.602279 0.012821
0.321901 0.601583 0.012703
0.325309 0.600527 0.012593
0.329432 0.601342 0.012428
0.333733 0.602550 0.012249
0.337228 0.601616 0.012129
0.340776 0.600797 0.012005
0.344477 0.600333 0.011868
0.348022 0.599452 0.011741
0.351893 0.599336 0.011589
0.356166 0.600138 0.011407
0.360301 0.600543 0.011234
0.364280 0.600523 0.011072
0.367887 0.599598 0.010935
0.371624 0.598939 0.010788
0.375681 0.598964 0.010616
0.379536 0.598488 0.010458
0.383536 0.598289 0.010289
0.387922 0.598876 0.010092
0.392278 0.599332 0.009896
0.396910 0.600304 0.009680
0.401097 0.600275 0.009494
0.403511 0.596537 0.009428
0.408493 0.598063 0.009186
0.412060 0.596655 0.009039
0.416385 0.596734 0.008840
0.421373 0.598062 0.008596
0.426049 0.598702 0.008373
0.430592 0.599024 0.008158
0.434997 0.599027 0.007952
0.438813 0.597881 0.007785
0.442554 0.596578 0.007622
0.449068 0.600341 0.007276
0.453266 0.599787 0.007084
0.456858 0.598124 0.006932
0.460983 0.597408 0.006745
0.465415 0.597218 0.006539
0.469373 0.596187 0.006365
0.473985 0.596278 0.006150
0.478801 0.596698 0.005923
0.483557 0.596998 0.005702
0.488259 0.597200 0.005487
0.492254 0.596240 0.005320
0.496160 0.595164 0.005161
0.500541 0.594888 0.004975
0.506555 0.597237 0.004690
0.509631 0.594940 0.004594
0.513964 0.594685 0.004422
0.518830 0.595300 0.004222
0.522011 0.593374 0.004132
0.526167 0.593016 0.003986
0.530365 0.592790 0.003842
-0.292311 0.599884 0.020302
-0.288607 0.599772 0.020245
-0.285477 0.600974 0.020171
-0.282590 0.602815 0.020091
-0.278662 0.602535 0.020055
-0.274757 0.602380 0.020022
-0.270982 0.602582 0.019988
-0.267638 0.603825 0.019940
-0.264267 0.605093 0.019896
-0.260438 0.605394 0.019874
-0.256510 0.605512 0.019859
-0.252341 0.605099 0.019857
-0.248151 0.604650 0.019858
-0.244320 0.605081 0.019846
-0.240636 0.605891 0.019829
-0.236872 0.606529 0.019818
-0.232787 0.606371 0.019822
-0.228188 0.604885 0.019852
-0.224675 0.606158 0.019832
-0.221261 0.607709 0.019807
-0.216959 0.606904 0.019826
-0.213201 0.607521 0.019819
-0.209497 0.608269 0.019809
-0.204641 0.605780 0.019858
-0.201009 0.606648 0.019845
-0.197430 0.607646 0.019829
-0.193747 0.608326 0.019818
-0.189625 0.607672 0.019830
-0.185756 0.607709 0.019829
-0.181919 0.607791 0.019825
-0.178154 0.608047 0.019817
-0.174921 0.609944 0.019777
-0.170015 0.606445 0.019835
-0.166204 0.606367 0.019829
-0.162766 0.607470 0.019799
-0.158603 0.606095 0.019814
-0.155105 0.606908 0.019786
-0.151129 0.606012 0.019789
-0.147105 0.604852 0.019795
-0.143569 0.605372 0.019768
-0.139970 0.605622 0.019744
-0.135989 0.604376 0.019747
-0.133089 0.607201 0.019672
-0.129289 0.606534 0.019660
-0.125555 0.606056 0.019644
-0.121882 0.605749 0.019622
-0.118469 0.606464 0.019580
-0.114776 0.605965 0.019559
-0.111551 0.607430 0.019500
-0.107910 0.607051 0.019474
-0.104311 0.606801 0.019444
-0.100689 0.606382 0.019416
-0.097003 0.605591 0.019393
-0.093420 0.605219 0.019361
-0.090255 0.606865 0.019289
-0.086804 0.607091 0.019243
-0.083362 0.607327 0.019195
-0.079911 0.607483 0.019147
-0.076223 0.606294 0.019124
-0.072733 0.606123 0.019081
-0.069278 0.606111 0.019033
-0.065749 0.605612 0.018993
-0.062410 0.606217 0.018930
-0.059068 0.606806 0.018867
-0.055665 0.606990 0.018810
-0.052292 0.607362 0.018749
-0.048866 0.607351 0.018694
-0.045039 0.604406 0.018696
-0.041721 0.605026 0.018627
-0.038718 0.608108 0.018507
-0.035124 0.606643 0.018477
-0.031498 0.604760 0.018455
-0.028382 0.607133 0.018346
-0.025008 0.607344 0.018279
-0.021505 0.606331 0.018237
-0.017980 0.604981 0.018202
-0.014578 0.604751 0.018142
-0.011273 0.605532 0.018061
-0.007947 0.606148 0.017982
-0.004550 0.605940 0.017919
-0.001176 0.605994 0.017851
0.002172 0.606396 0.017774
0.005710 0.604062 0.017755
0.009011 0.605075 0.017664
0.012222 0.607782 0.017535
0.015638 0.607162 0.017478
0.019048 0.606568 0.017419
0.022483 0.605271 0.017375
0.025719 0.608598 0.017230
0.029143 0.607549 0.017179
0.032584 0.605639 0.017148
0.035990 0.604406 0.017101
0.039343 0.605130 0.017010
0.042703 0.605797 0.016920
0.046086 0.605218 0.016857
0.049456 0.605751 0.016769
0.052835 0.605439 0.016699
0.056212 0.604921 0.016634
0.059589 0.605139 0.016552
0.062967 0.605105 0.016474
0.066347 0.605153 0.016395
0.069720 0.604753 0.016325
0.073125 0.605714 0.016224
0.076476 0.604505 0.016172
0.079872 0.604878 0.016084
0.083274 0.605304 0.015993
0.086713 0.606424 0.015886
0.090112 0.606469 0.015803
0.093411 0.604552 0.015768
0.096725 0.603178 0.015719
0.100143 0.603672 0.015625
0.103601 0.604650 0.015519
0.107014 0.604847 0.015431
0.110390 0.604495 0.015357
0.113778 0.604315 0.015278
0.117200 0.604520 0.015188
0.120592 0.604342 0.015109
0.123975 0.604050 0.015031
0.127424 0.604443 0.014936
0.130844 0.604480 0.014850
0.134223 0.604123 0.014773
0.137531 0.603140 0.014712
0.141093 0.604359 0.014594
0.144553 0.604631 0.014499
0.147903 0.604004 0.014428
0.150917 0.600857 0.014422
0.154493 0.602002 0.014304
0.158348 0.605011 0.014136
0.161716 0.604480 0.014060
0.164829 0.602284 0.014029
0.168582 0.604288 0.013885
0.172038 0.604308 0.013793
0.175375 0.603588 0.013721
0.178703 0.602834 0.013649
0.182035 0.602116 0.013576
0.185660 0.603046 0.013457
0.189165 0.603249 0.013358
0.192818 0.604204 0.013237
0.196344 0.604432 0.013135
0.199773 0.604143 0.013047
0.203140 0.603538 0.012967
0.206656 0.603647 0.012866
0.209806 0.602017 0.012813
0.213918 0.604836 0.012634
0.217007 0.602928 0.012588
0.220414 0.602467 0.012501
0.223806 0.601936 0.012414
0.227394 0.602227 0.012303
0.231113 0.603017 0.012176
0.234986 0.604369 0.012032
0.238494 0.604199 0.011930
0.241786 0.603171 0.011853
0.245050 0.602043 0.011779
0.248541 0.601778 0.011677
0.252566 0.603451 0.011517
0.255810 0.602223 0.011442
0.258785 0.600051 0.011394
0.262691 0.601167 0.011246
0.266420 0.601605 0.011117
0.269832 0.600931 0.011021
0.273408 0.600790 0.010906
0.277383 0.601918 0.010751
0.281237 0.602590 0.010608
0.284944 0.602739 0.010480
0.288554 0.602548 0.010361
0.292166 0.602335 0.010241
0.295897 0.602451 0.010108
0.299454 0.602008 0.009992
0.303415 0.602717 0.009837
0.307046 0.602419 0.009712
0.310530 0.601674 0.009600
0.314106 0.601168 0.009479
0.317699 0.600682 0.009355
0.321162 0.599814 0.009241
0.325155 0.600344 0.009079
0.329489 0.601715 0.008886
0.333869 0.603124 0.008690
0.337282 0.601971 0.008577
0.340469 0.600231 0.008483
0.344387 0.600312 0.008324
0.347962 0.599504 0.008193
0.352014 0.599824 0.008021
0.356380 0.600842 0.007822
0.360297 0.600720 0.007660
0.364234 0.600598 0.007495
0.367787 0.599545 0.007361
0.371294 0.598361 0.007229
0.375710 0.599198 0.007022
0.379823 0.599288 0.006839
0.383705 0.598819 0.006674
0.387889 0.598961 0.006483
0.392299 0.599530 0.006274
0.395597 0.597684 0.006152
0.400521 0.599220 0.005900
0.404088 0.597868 0.005755
0.407790 0.596772 0.005598
0.411633 0.595934 0.005429
0.417659 0.599401 0.005090
0.421276 0.598003 0.004937
0.425772 0.598295 0.004717
0.430536 0.599045 0.004475
0.434676 0.598547 0.004281
0.438537 0.597490 0.004108
0.442847 0.597247 0.003901
0.447632 0.597838 0.003658
0.452943 0.599329 0.003376
0.457233 0.598925 0.003172
0.460996 0.597561 0.003008
0.465255 0.597070 0.002808
0.469332 0.596250 0.002622
0.473138 0.594966 0.002457
0.478487 0.596308 0.002181
0.482386 0.595184 0.002014
0.486751 0.594853 0.001814
0.491578 0.595290 0.001584
0.495776 0.594705 0.001402
0.500094 0.594342 0.001216
0.504246 0.593746 0.001044
0.510399 0.596342 0.000734
0.513761 0.594568 0.000627
0.518188 0.594519 0.000450
0.522527 0.594385 0.000283
0.525605 0.592397 0.000210
0.532294 0.595932 -0.000111
-0.292891 0.601078 0.016730
-0.288704 0.599948 0.016697
-0.285293 0.600538 0.016631
-0.281786 0.601032 0.016573
-0.278934 0.603044 0.016487
-0.274804 0.602386 0.016468
-0.271196 0.602944 0.016427
-0.267751 0.603949 0.016380
-0.264398 0.605247 0.016332
-0.260495 0.605367 0.016315
-0.256183 0.604577 0.016324
-0.251907 0.603890 0.016334
-0.247992 0.604075 0.016327
-0.244252 0.604707 0.016312
-0.240612 0.605612 0.016293
-0.236958 0.606513 0.016276
-0.232415 0.605194 0.016313
-0.228638 0.605790 0.016306
-0.224865 0.606396 0.016300
-0.220979 0.606704 0.016302
-0.217210 0.607306 0.016297
-0.213300 0.607515 0.016301
-0.208588 0.605487 0.016357
-0.204666 0.605565 0.016364
-0.200967 0.606240 0.016356
-0.197370 0.607182 0.016341
-0.193603 0.607611 0.016337
-0.189299 0.606404 0.016370
-0.185718 0.607294 0.016353
-0.181918 0.607483 0.016351
-0.178127 0.607657 0.016348
-0.174764 0.609133 0.016313
-0.170682 0.608285 0.016331
-0.166895 0.608322 0.016327
-0.162534 0.606381 0.016366
-0.159100 0.607467 0.016334
-0.155300 0.607263 0.016330
-0.150763 0.604402 0.016387
-0.147434 0.605710 0.016344
-0.143831 0.606006 0.016323
-0.140305 0.606542 0.016295
-0.136845 0.607290 0.016260
-0.133081 0.606840 0.016252
-0.129374 0.606539 0.016238
-0.125603 0.605912 0.016230
-0.122108 0.606339 0.016196
-0.118055 0.604394 0.016215
-0.114891 0.606111 0.016148
-0.111301 0.605994 0.016121
-0.107835 0.606371 0.016081
-0.104423 0.606959 0.016035
-0.100704 0.606098 0.016021
-0.096947 0.604964 0.016012
-0.093444 0.604968 0.015975
-0.090228 0.606364 0.015903
-0.086955 0.607486 0.015837
-0.083475 0.607536 0.015794
-0.079776 0.606370 0.015779
-0.076297 0.606308 0.015736
-0.072904 0.606692 0.015681
-0.069322 0.605955 0.015652
-0.065814 0.605581 0.015613
-0.062593 0.606920 0.015531
-0.059187 0.607124 0.015475
-0.055559 0.605848 0.015454
-0.052251 0.606622 0.015382
-0.049022 0.607969 0.015294
-0.045039 0.603917 0.015339
-0.041853 0.605514 0.015243
-0.038693 0.607401 0.015139
-0.035321 0.607687 0.015073
-0.031858 0.607214 0.015025
-0.028378 0.606525 0.014981
-0.025006 0.606733 0.014915
-0.021549 0.606127 0.014867
-0.018077 0.605292 0.014825
-0.014701 0.605344 0.014760
-0.011584 0.608206 0.014622
-0.008053 0.606614 0.014596
-0.004646 0.606310 0.014537
-0.001252 0.606128 0.014474
0.002258 0.604313 0.014453
0.005615 0.604488 0.014380
0.008902 0.605762 0.014277
0.012257 0.606069 0.014198
0.015614 0.606393 0.014119
0.019084 0.604517 0.014097
0.022488 0.603692 0.014046
0.025862 0.603435 0.013980
0.029115 0.606442 0.013827
0.032542 0.604850 0.013795
0.035900 0.605245 0.013710
0.039267 0.605479 0.013628
0.042629 0.606122 0.013535
0.046008 0.605985 0.013462
0.049393 0.605006 0.013412
0.052767 0.604906 0.013337
0.056141 0.604727 0.013265
0.059516 0.604711 0.013187
0.062896 0.605086 0.013098
0.066273 0.605007 0.013021
0.069652 0.604932 0.012943
0.073033 0.604942 0.012863
0.076387 0.603946 0.012811
0.079746 0.603342 0.012747
0.083220 0.605805 0.012596
0.086626 0.606150 0.012504
0.089968 0.605021 0.012454
0.093306 0.603998 0.012401
0.096684 0.603799 0.012324
0.100100 0.604215 0.012229
0.103497 0.604246 0.012145
0.106945 0.604961 0.012040
0.110294 0.604263 0.011976
0.113706 0.604396 0.011887
0.117118 0.604484 0.011799
0.120505 0.604257 0.011720
0.123970 0.604854 0.011617
0.127374 0.604750 0.011533
0.130741 0.604269 0.011461
0.134089 0.603641 0.011393
0.137541 0.603950 0.011296
0.140988 0.604175 0.011201
0.144459 0.604549 0.011101
0.148027 0.605634 0.010978
0.151417 0.605267 0.010900
0.154816 0.604975 0.010819
0.158193 0.604520 0.010742
0.161665 0.604720 0.010645
0.165019 0.604104 0.010573
0.168480 0.604192 0.010478
0.171973 0.604445 0.010377
0.175479 0.604747 0.010274
0.178792 0.603870 0.010208
0.182075 0.602847 0.010146
0.185630 0.603368 0.010034
0.189263 0.604264 0.009909
0.192631 0.603690 0.009831
0.196155 0.603923 0.009726
0.199684 0.604144 0.009621
0.203101 0.603788 0.009533
0.206563 0.603635 0.009438
0.209940 0.603068 0.009357
0.213664 0.604088 0.009221
0.217164 0.604038 0.009120
0.220134 0.601637 0.009097
0.223735 0.602023 0.008980
0.227341 0.602386 0.008863
0.230943 0.602692 0.008746
0.234871 0.604274 0.008585
0.238445 0.604366 0.008473
0.241802 0.603585 0.008390
0.245159 0.602804 0.008306
0.248781 0.603014 0.008186
0.251748 0.600781 0.008150
0.255833 0.602632 0.007971
0.259158 0.601693 0.007888
0.262748 0.601679 0.007771
0.266267 0.601391 0.007662
0.269760 0.600992 0.007556
0.273905 0.602731 0.007372
0.277466 0.602478 0.007257
0.281074 0.602352 0.007136
0.284590 0.601905 0.007025
0.288534 0.602762 0.006865
0.292511 0.603657 0.006702
0.295686 0.602078 0.006627
0.299326 0.601885 0.006499
0.303168 0.602249 0.006350
0.306707 0.601691 0.006232
0.310094 0.600681 0.006129
0.313695 0.600256 0.006003
0.317271 0.599734 0.005878
0.320882 0.599281 0.005749
0.325167 0.600596 0.005550
0.329311 0.601462 0.005365
0.333446 0.602235 0.005180
0.337254 0.602102 0.005029
0.340512 0.600538 0.004931
0.343539 0.598393 0.004854
0.347701 0.599050 0.004664
0.352463 0.601100 0.004416
0.356446 0.601180 0.004243
0.360652 0.601736 0.004048
0.364130 0.600526 0.003922
0.367691 0.599490 0.003786
0.371390 0.598740 0.003636
0.374790 0.597286 0.003513
0.379585 0.598913 0.003259
0.383384 0.598266 0.003097
0.387183 0.597577 0.002934
0.390644 0.596132 0.002800
0.395514 0.597645 0.002538
0.399758 0.597763 0.002332
0.404389 0.598621 0.002092
0.407908 0.597140 0.001949
0.411123 0.595033 0.001832
0.416540 0.597299 0.001521
0.420675 0.596943 0.001322
0.425737 0.598346 0.001042
0.430778 0.599626 0.000765
0.434711 0.598728 0.000584
0.438672 0.597859 0.000399
0.442745 0.597173 0.000205
0.448422 0.599401 -0.000124
0.451611 0.597032 -0.000242
0.454948 0.594949 -0.000373
0.460448 0.596710 -0.000685
0.464022 0.595032 -0.000834
0.470699 0.598743 -0.001240
0.477041 0.601780 -0.001614
0.480961 0.600634 -0.001787
0.482409 0.595360 -0.001754
0.492951 0.605282 -0.002463
0.501699 0.612054 -0.003019
0.504781 0.609494 -0.003111
0.505680 0.603491 -0.003024
0.507295 0.598774 -0.002994
0.511849 0.598813 -0.003195
0.518172 0.601649 -0.003532
0.523342 0.602691 -0.003772
0.527110 0.601620 -0.003896
0.528204 0.596567 -0.003806
0.525483 0.585937 -0.003415
-0.293327 0.601971 0.013156
-0.289136 0.600824 0.013128
-0.284720 0.599279 0.013119
-0.281820 0.601038 0.013024
-0.278383 0.601767 0.012964
-0.275210 0.603173 0.012892
-0.271347 0.603158 0.012866
-0.267630 0.603542 0.012834
-0.264021 0.604239 0.012799
-0.259990 0.604037 0.012794
-0.256197 0.604427 0.012776
-0.252139 0.604240 0.012779
-0.248107 0.604140 0.012782
-0.244554 0.605215 0.012756
-0.240912 0.606115 0.012737
-0.236817 0.605919 0.012751
-0.233301 0.607175 0.012726
-0.229686 0.608209 0.012708
-0.225720 0.608345 0.012717
-0.221104 0.606756 0.012775
-0.217196 0.606985 0.012783
-0.213078 0.606621 0.012807
-0.208747 0.605630 0.012848
-0.204781 0.605588 0.012863
-0.201040 0.606143 0.012860
-0.197535 0.607348 0.012838
-0.193679 0.607518 0.012844
-0.189571 0.606897 0.012871
-0.185452 0.606170 0.012900
-0.181685 0.606447 0.012899
-0.177931 0.606719 0.012897
-0.174045 0.606527 0.012906
-0.170625 0.607774 0.012873
-0.166961 0.608205 0.012862
-0.163085 0.607888 0.012870
-0.159118 0.607191 0.012886
-0.155473 0.607525 0.012872
-0.150819 0.604265 0.012957
-0.147465 0.605483 0.012914
-0.144254 0.607208 0.012856
-0.140668 0.607546 0.012834
-0.137054 0.607738 0.012815
-0.133125 0.606663 0.012829
-0.129513 0.606736 0.012809
-0.126023 0.607249 0.012775
-0.122180 0.606279 0.012781
-0.118254 0.604873 0.012797
-0.115013 0.606273 0.012733
-0.110810 0.603493 0.012785
-0.107806 0.605878 0.012689
-0.104430 0.606626 0.012637
-0.101039 0.607285 0.012587
-0.097439 0.606932 0.012563
-0.093383 0.604294 0.012603
-0.090290 0.606287 0.012510
-0.086956 0.607104 0.012448
-0.083659 0.608107 0.012380
-0.079645 0.605263 0.012420
-0.076531 0.607193 0.012322
-0.073154 0.607695 0.012263
-0.069769 0.608139 0.012204
-0.065647 0.604150 0.012273
-0.062615 0.606619 0.012153
-0.059169 0.606560 0.012105
-0.055612 0.605736 0.012078
-0.052425 0.607325 0.011979
-0.049126 0.608203 0.011900
-0.045693 0.608146 0.011847
-0.042213 0.607694 0.011804
-0.038755 0.607352 0.011757
-0.035327 0.607194 0.011704
-0.031848 0.606561 0.011664
-0.028400 0.606126 0.011616
-0.024996 0.606029 0.011558
-0.021623 0.606189 0.011491
-0.018251 0.606348 0.011423
-0.014917 0.606891 0.011343
-0.011401 0.605485 0.011320
-0.008093 0.606307 0.011230
-0.004643 0.605468 0.011189
-0.001354 0.606586 0.011087
0.002022 0.606634 0.011017
0.005496 0.605254 0.010990
0.008872 0.605178 0.010923
0.012231 0.605375 0.010846
0.015606 0.605305 0.010777
0.018995 0.604949 0.010716
0.022433 0.603422 0.010691
0.025801 0.603271 0.010623
0.029132 0.604091 0.010523
0.032492 0.604272 0.010443
0.035837 0.605070 0.010343
0.039203 0.605233 0.010262
0.042597 0.604005 0.010225
0.045929 0.606688 0.010062
0.049323 0.605091 0.010036
0.052699 0.604460 0.009978
0.056071 0.604532 0.009897
0.059448 0.605208 0.009797
0.062825 0.605151 0.009719
0.066206 0.605274 0.009635
0.069604 0.606144 0.009526
0.072952 0.604591 0.009496
0.076373 0.605964 0.009370
0.079735 0.605193 0.009313
0.083143 0.605727 0.009214
0.086512 0.605230 0.009147
0.089867 0.604476 0.009089
0.093246 0.604285 0.009012
0.096774 0.606711 0.008847
0.100030 0.604315 0.008843
0.103449 0.604682 0.008746
0.106828 0.604413 0.008670
0.110207 0.604149 0.008594
0.113595 0.603986 0.008513
0.117016 0.604209 0.008419
0.120450 0.604524 0.008322
0.123906 0.605018 0.008217
0.127308 0.604894 0.008134
0.130642 0.604096 0.008073
0.133990 0.603483 0.008006
0.137380 0.603259 0.007925
0.140829 0.603526 0.007826
0.144354 0.604370 0.007707
0.147788 0.604412 0.007615
0.151262 0.604734 0.007512
0.154686 0.604638 0.007424
0.158164 0.604914 0.007322
0.161547 0.604496 0.007244
0.165001 0.604555 0.007149
0.168326 0.603756 0.007084
0.171828 0.604084 0.006978
0.175347 0.604470 0.006868
0.178601 0.603260 0.006817
0.182091 0.603441 0.006714
0.185761 0.604585 0.006575
0.189151 0.604135 0.006493
0.192505 0.603493 0.006419
0.195851 0.602813 0.006344
0.199476 0.603549 0.006217
0.203090 0.604168 0.006093
0.206630 0.604383 0.005983
0.210018 0.603850 0.005900
0.213504 0.603767 0.005799
0.216906 0.603282 0.005713
0.220127 0.602000 0.005656
0.223714 0.602318 0.005538
0.227296 0.602574 0.005420
0.230727 0.602173 0.005327
0.234218 0.602001 0.005223
0.238311 0.604195 0.005027
0.241441 0.602532 0.004979
0.244764 0.601640 0.004901
0.248194 0.601154 0.004805
0.251927 0.601765 0.004665
0.255643 0.602270 0.004527
0.259161 0.602019 0.004418
0.262787 0.602124 0.004293
0.266239 0.601597 0.004192
0.269221 0.599472 0.004154
0.273861 0.602876 0.003891
0.277430 0.602647 0.003773
0.280340 0.600278 0.003741
0.284107 0.600652 0.003595
0.288057 0.601547 0.003426
0.292288 0.603239 0.003221
0.296173 0.603797 0.003061
0.299296 0.602046 0.002996
0.302817 0.601469 0.002879
0.306431 0.601138 0.002751
0.309858 0.600246 0.002644
0.313552 0.600084 0.002504
0.318204 0.602521 0.002250
0.321672 0.601636 0.002136
0.325441 0.601538 0.001986
0.329607 0.602448 0.001790
0.332936 0.601108 0.001689
0.336669 0.600798 0.001541
0.339990 0.599408 0.001438
0.343636 0.598817 0.001298
0.347392 0.598468 0.001144
0.352103 0.600400 0.000885
0.357045 0.602784 0.000602
0.360998 0.602720 0.000426
0.363977 0.600329 0.000353
0.367936 0.600209 0.000175
0.371523 0.599194 0.000034
0.374910 0.597703 -0.000087
0.379790 0.599510 -0.000364
0.383495 0.598644 -0.000519
0.386764 0.596803 -0.000632
0.391672 0.598459 -0.000912
0.399466 0.606117 -0.001483
0.401032 0.600541 -0.001426
0.404973 0.599943 -0.001609
0.410087 0.601692 -0.001909
0.414387 0.601711 -0.002128
0.417790 0.599894 -0.002260
0.422184 0.600015 -0.002489
0.427208 0.601308 -0.002779
0.427886 0.594181 -0.002650
0.435029 0.599435 -0.003144
0.438516 0.597670 -0.003287
0.443704 0.599052 -0.003591
0.448725 0.600058 -0.003878
0.455070 0.603402 -0.004289
0.457279 0.599229 -0.004310
0.459414 0.594986 -0.004325
0.463560 0.594332 -0.004527
0.468132 0.594410 -0.004766
0.475809 0.599788 -0.005288
0.472160 0.585840 -0.004773
0.475049 0.583147 -0.004855
0.484042 0.590636 -0.005487
0.496699 0.603991 -0.006441
0.487123 0.580953 -0.005396
0.498939 0.592811 -0.006264
0.506580 0.597805 -0.006751
0.510504 0.596873 -0.006904
0.513425 0.594429 -0.006964
0.518612 0.595582 -0.007218
0.523510 0.596321 -0.007441
0.526541 0.594272 -0.007497
0.536342 0.602501 -0.008130
-0.291833 0.598865 0.009705
-0.289264 0.601061 0.009573
-0.285296 0.600448 0.009540
-0.280826 0.598842 0.009547
-0.278606 0.602159 0.009400
-0.275243 0.603137 0.009336
-0.271305 0.602940 0.009318
-0.267368 0.602809 0.009303
-0.263633 0.603196 0.009276
-0.260308 0.604589 0.009222
-0.256423 0.604760 0.009213
-0.252207 0.604192 0.009232
-0.248333 0.604457 0.009228
-0.244909 0.605840 0.009189
-0.241165 0.606489 0.009178
-0.236553 0.605004 0.009240
-0.233247 0.606771 0.009196
-0.229289 0.606916 0.009208
-0.225247 0.606830 0.009228
-0.221132 0.606534 0.009256
-0.217178 0.606635 0.009271
-0.213107 0.606393 0.009297
-0.209234 0.606656 0.009307
-0.204724 0.605111 0.009376
-0.201295 0.606543 0.009346
-0.197565 0.607107 0.009344
-0.193838 0.607652 0.009342
-0.189523 0.606419 0.009397
-0.185676 0.606511 0.009407
-0.182000 0.607074 0.009400
-0.177691 0.605630 0.009457
-0.174123 0.606432 0.009440
-0.170541 0.607157 0.009422
-0.166538 0.606471 0.009450
-0.162700 0.606254 0.009460
-0.159114 0.606828 0.009442
-0.154514 0.603862 0.009538
-0.150939 0.604331 0.009520
-0.147563 0.605478 0.009478
-0.144367 0.607261 0.009413
-0.140838 0.607820 0.009386
-0.137105 0.607570 0.009383
-0.133164 0.606449 0.009407
-0.129642 0.606878 0.009379
-0.125991 0.606751 0.009366
-0.122043 0.605350 0.009394
-0.118691 0.606328 0.009341
-0.114654 0.604371 0.009383
-0.111207 0.604845 0.009343
-0.107805 0.605492 0.009296
-0.104494 0.606531 0.009234
-0.101166 0.607487 0.009173
-0.097912 0.608792 0.009098
-0.094043 0.607117 0.009121
-0.090108 0.604982 0.009157
-0.087019 0.607017 0.009053
-0.083594 0.607352 0.009003
-0.079991 0.606704 0.008985
-0.076621 0.607265 0.008925
-0.073357 0.608415 0.008844
-0.069607 0.606757 0.008855
-0.066096 0.606398 0.008822
-0.062501 0.605458 0.008806
-0.059100 0.605656 0.008751
-0.055872 0.606964 0.008657
-0.052579 0.607880 0.008575
-0.049035 0.607074 0.008549
-0.045606 0.607006 0.008498
-0.042272 0.607608 0.008422
-0.038845 0.607500 0.008370
-0.035343 0.606758 0.008338
-0.031895 0.606375 0.008292
-0.028449 0.605959 0.008247
-0.025050 0.605893 0.008189
-0.021724 0.606490 0.008106
-0.018427 0.607413 0.008011
-0.015032 0.607378 0.007949
-0.011619 0.607115 0.007893
-0.008166 0.606360 0.007854
-0.004728 0.605668 0.007811
-0.001394 0.606229 0.007724
0.001931 0.606947 0.007631
0.005388 0.605831 0.007601
0.008877 0.604046 0.007594
0.012225 0.604339 0.007513
0.015521 0.605629 0.007396
0.018952 0.604443 0.007366
0.022330 0.604195 0.007302
0.025685 0.604433 0.007220
0.029099 0.603112 0.007193
0.032402 0.604923 0.007053
0.035786 0.604374 0.006997
0.039157 0.604224 0.006926
0.042508 0.605112 0.006817
0.045884 0.604814 0.006751
0.049256 0.604643 0.006679
0.052629 0.604219 0.006616
0.056000 0.604392 0.006531
0.059376 0.605150 0.006423
0.062763 0.606078 0.006308
0.066140 0.605666 0.006243
0.069497 0.604408 0.006208
0.072934 0.606867 0.006035
0.076300 0.606003 0.005985
0.079680 0.605752 0.005912
0.083018 0.604403 0.005879
0.086430 0.605048 0.005771
0.089827 0.605213 0.005681
0.093164 0.604158 0.005637
0.096619 0.605314 0.005508
0.099985 0.604823 0.005441
0.103381 0.604823 0.005355
0.106747 0.604355 0.005287
0.110092 0.603649 0.005228
0.113474 0.603463 0.005148
0.116862 0.603326 0.005066
0.120224 0.602898 0.004995
0.123714 0.603828 0.004870
0.127159 0.604203 0.004766
0.130578 0.604262 0.004675
0.133924 0.603615 0.004610
0.137294 0.603215 0.004536
0.140723 0.603319 0.004441
0.144121 0.603142 0.004357
0.147508 0.602864 0.004276
0.151004 0.603415 0.004162
0.154540 0.604191 0.004037
0.157843 0.603246 0.003982
0.161628 0.605633 0.003791
0.164861 0.604193 0.003754
0.168184 0.603395 0.003692
0.171695 0.603790 0.003579
0.175064 0.603282 0.003503
0.178177 0.601277 0.003489
0.181679 0.601579 0.003378
0.185369 0.602889 0.003225
0.189136 0.604528 0.003057
0.192451 0.603670 0.002993
0.195816 0.603084 0.002916
0.199417 0.603695 0.002788
0.202899 0.603666 0.002686
0.206425 0.603823 0.002575
0.209940 0.603901 0.002467
0.213315 0.603303 0.002386
