ply
format ascii 1.0
comment ---
element vertex 1678
property float x
property float y
property float z
element face 0
property list uchar uint vertex_indices
end_header
0.556934 0.588621 -0.280963
0.565015 0.592404 -0.282234
0.567529 0.587420 -0.281179
0.573302 0.587679 -0.281504
0.576054 0.583354 -0.280605
-0.480472 0.582580 -0.246200
-0.477453 0.585994 -0.247122
-0.473282 0.587380 -0.247579
-0.468613 0.587937 -0.247844
-0.463136 0.587019 -0.247768
-0.458017 0.586882 -0.247866
-0.453617 0.588270 -0.248308
-0.448598 0.588504 -0.248483
-0.443596 0.588842 -0.248678
-0.438573 0.589197 -0.248875
-0.433927 0.590398 -0.249262
-0.428537 0.590071 -0.249297
-0.423016 0.589479 -0.249269
-0.417638 0.589199 -0.249310
-0.412313 0.589033 -0.249376
-0.406791 0.588416 -0.249337
-0.401707 0.588766 -0.249518
-0.396924 0.589802 -0.249855
-0.392416 0.591482 -0.250340
-0.387284 0.591699 -0.250489
-0.381857 0.591175 -0.250466
-0.376553 0.590892 -0.250499
-0.371796 0.591904 -0.250830
-0.365843 0.589897 -0.250466
-0.360516 0.589367 -0.250442
-0.356074 0.591045 -0.250927
-0.351219 0.591628 -0.251160
-0.346083 0.591422 -0.251212
-0.341044 0.591403 -0.251308
-0.335892 0.591010 -0.251318
-0.330576 0.590078 -0.251205
-0.325480 0.589670 -0.251213
-0.320596 0.589783 -0.251342
-0.315753 0.589950 -0.251485
-0.310902 0.590030 -0.251608
-0.306207 0.590506 -0.251825
-0.301037 0.589479 -0.251694
-0.296004 0.588774 -0.251639
-0.291305 0.589028 -0.251807
-0.286514 0.588923 -0.251893
-0.281639 0.588476 -0.251900
-0.277132 0.589162 -0.252172
-0.272089 0.587997 -0.252015
-0.267107 0.586936 -0.251883
-0.262653 0.587615 -0.252156
-0.258028 0.587645 -0.252279
-0.253351 0.587423 -0.252346
-0.248744 0.587392 -0.252457
-0.244325 0.588003 -0.252719
-0.239670 0.587675 -0.252764
-0.235194 0.587974 -0.252955
-0.230703 0.588169 -0.253124
-0.226076 0.587758 -0.253152
-0.221492 0.587451 -0.253205
-0.217116 0.587967 -0.253452
-0.212378 0.586876 -0.253324
-0.208123 0.587831 -0.253676
-0.203827 0.588591 -0.253983
-0.199480 0.589100 -0.254232
-0.194935 0.588643 -0.254256
-0.190477 0.588538 -0.254363
-0.185995 0.588269 -0.254433
-0.181370 0.587207 -0.254317
-0.176986 0.587311 -0.254475
-0.172704 0.587927 -0.254756
-0.168398 0.588403 -0.255004
-0.164009 0.588395 -0.255139
-0.159607 0.588271 -0.255248
-0.155314 0.588756 -0.255501
-0.150770 0.587688 -0.255388
-0.146451 0.587947 -0.255589
-0.142050 0.587650 -0.255660
-0.137772 0.588144 -0.255918
-0.133401 0.587980 -0.256021
-0.129128 0.588496 -0.256286
-0.124694 0.587799 -0.256265
-0.120321 0.587500 -0.256338
-0.116020 0.587747 -0.256542
-0.111752 0.588259 -0.256809
-0.107403 0.588074 -0.256911
-0.103069 0.587993 -0.257038
-0.098790 0.588422 -0.257287
-0.094561 0.589365 -0.257660
-0.090265 0.589689 -0.257886
-0.085722 0.587262 -0.257456
-0.081538 0.588778 -0.257967
-0.077246 0.589128 -0.258201
-0.072931 0.589190 -0.258366
-0.068518 0.587861 -0.258199
-0.064217 0.588037 -0.258393
-0.059957 0.588927 -0.258758
-0.055640 0.588938 -0.258913
-0.051300 0.588485 -0.258957
-0.046960 0.587965 -0.258986
-0.042664 0.588381 -0.259239
-0.038369 0.588931 -0.259525
-0.034015 0.587819 -0.259412
-0.029803 0.591584 -0.260473
-0.025484 0.592191 -0.260775
-0.021026 0.585306 -0.259272
-0.016741 0.586845 -0.259798
-0.012435 0.587711 -0.260163
-0.008136 0.593945 -0.261826
-0.003784 0.595799 -0.262432
0.000538 0.589760 -0.261130
0.004868 0.589560 -0.261239
0.009284 0.594751 -0.262655
0.013771 0.600895 -0.264305
0.017892 0.590321 -0.261900
0.022291 0.592227 -0.262522
0.026818 0.597151 -0.263878
0.031281 0.599263 -0.264553
0.035641 0.598586 -0.264551
0.039992 0.597820 -0.264526
0.044053 0.591798 -0.263221
0.048386 0.591322 -0.263266
0.052924 0.594081 -0.264102
0.057161 0.592053 -0.263769
0.061173 0.587191 -0.262743
0.065470 0.586535 -0.262745
0.069998 0.588689 -0.263435
0.074139 0.586194 -0.262987
0.078553 0.586851 -0.263311
0.082924 0.586980 -0.263507
0.087420 0.588292 -0.263993
0.091663 0.587093 -0.263863
0.095739 0.584495 -0.263390
0.100407 0.587121 -0.264201
0.104973 0.588682 -0.264751
0.109748 0.591738 -0.265671
0.113856 0.589482 -0.265283
0.118313 0.589912 -0.265557
0.123366 0.594489 -0.266856
0.129121 0.603527 -0.269261
0.134283 0.608041 -0.270550
0.138562 0.606589 -0.270364
0.142473 0.602914 -0.269628
0.146618 0.600836 -0.269287
0.151297 0.601972 -0.269743
0.155491 0.600262 -0.269494
0.157620 0.587193 -0.266422
0.161169 0.582428 -0.265411
0.166413 0.586774 -0.266667
0.172611 0.595740 -0.269076
0.177396 0.597193 -0.269617
0.180197 0.588887 -0.267724
0.184381 0.587515 -0.267560
0.188998 0.588184 -0.267907
0.193284 0.587284 -0.267862
0.197386 0.585579 -0.267617
0.203632 0.593215 -0.269712
0.208032 0.592654 -0.269757
0.211530 0.588326 -0.268857
0.215277 0.585154 -0.268247
0.219870 0.585450 -0.268508
0.225848 0.591116 -0.270121
0.230409 0.591090 -0.270306
0.237311 0.599838 -0.272702
0.239187 0.589650 -0.270328
0.242622 0.585452 -0.269464
0.247690 0.587174 -0.270094
0.253874 0.592697 -0.271688
0.260061 0.597995 -0.273229
0.263836 0.594922 -0.272654
0.269614 0.598552 -0.273778
0.274860 0.600282 -0.274424
0.278915 0.598086 -0.274075
0.280388 0.587767 -0.271663
0.285712 0.589686 -0.272361
0.290215 0.588988 -0.272396
0.295505 0.590623 -0.273027
0.300074 0.590026 -0.273092
0.303687 0.586608 -0.272438
0.308362 0.586286 -0.272576
0.313232 0.586472 -0.272846
0.317658 0.585361 -0.272787
0.330973 0.608597 -0.278972
0.334575 0.604854 -0.278247
0.334452 0.591244 -0.274988
0.337397 0.586012 -0.273879
0.343551 0.589172 -0.274931
0.348486 0.589070 -0.275146
0.356819 0.597455 -0.277553
0.364701 0.604428 -0.279603
0.369725 0.604152 -0.279786
0.372767 0.599033 -0.278719
0.376670 0.596035 -0.278201
0.380958 0.593953 -0.277922
0.386200 0.594069 -0.278216
0.390083 0.591005 -0.277687
0.394022 0.588080 -0.277195
0.395908 0.580588 -0.275514
0.400143 0.578383 -0.275211
0.409565 0.587431 -0.277849
0.413807 0.585075 -0.277514
0.419407 0.585584 -0.277930
0.425290 0.586603 -0.278484
0.430674 0.586500 -0.278746
0.435936 0.586083 -0.278930
0.443686 0.590621 -0.280419
0.451708 0.595523 -0.282010
0.452605 0.586247 -0.279867
0.458539 0.586910 -0.280346
0.464754 0.588037 -0.280950
0.473090 0.593102 -0.282599
0.479563 0.594508 -0.283283
0.485120 0.594139 -0.283499
0.490222 0.592902 -0.283484
0.494967 0.591010 -0.283296
0.500603 0.590721 -0.283533
0.505601 0.589283 -0.283463
0.517274 0.599517 -0.286511
0.519811 0.593730 -0.285278
0.522227 0.587857 -0.284016
0.522851 0.579086 -0.281970
0.530584 0.582397 -0.283160
0.539205 0.587125 -0.284729
0.545826 0.588506 -0.285396
0.552220 0.589529 -0.285962
0.557496 0.588785 -0.286046
0.566894 0.594650 -0.287909
0.568634 0.588431 -0.286500
0.553214 0.555707 -0.277903
0.563402 0.563149 -0.280165
-0.485357 0.590587 -0.252774
-0.477900 0.585635 -0.251768
-0.473678 0.586914 -0.252206
-0.468787 0.587032 -0.252368
-0.463128 0.585746 -0.252199
-0.458565 0.586698 -0.252546
-0.454134 0.588019 -0.252976
-0.449550 0.589137 -0.253354
-0.444610 0.589610 -0.253578
-0.439608 0.590020 -0.253784
-0.434245 0.589725 -0.253822
-0.429421 0.590604 -0.254131
-0.423672 0.589532 -0.253982
-0.418184 0.589021 -0.253961
-0.412992 0.589155 -0.254090
-0.407695 0.589055 -0.254161
-0.402225 0.588550 -0.254137
-0.397306 0.589278 -0.254400
-0.393073 0.591604 -0.255038
-0.388369 0.592846 -0.255422
-0.381884 0.589817 -0.254801
-0.377106 0.590808 -0.255125
-0.372153 0.591350 -0.255343
-0.366239 0.589451 -0.254987
-0.361290 0.589892 -0.255182
-0.356295 0.590168 -0.255338
-0.351405 0.590664 -0.255547
-0.346306 0.590559 -0.255615
-0.341029 0.589907 -0.255555
-0.336216 0.590433 -0.255773
-0.331450 0.591039 -0.256012
-0.326050 0.589808 -0.255817
-0.320990 0.589443 -0.255828
-0.315818 0.588668 -0.255744
-0.311092 0.589114 -0.255948
-0.306491 0.589879 -0.256230
-0.301904 0.590641 -0.256512
-0.297020 0.590439 -0.256567
-0.292240 0.590483 -0.256682
-0.287094 0.589290 -0.256505
-0.282287 0.589092 -0.256565
-0.277652 0.589386 -0.256742
-0.273128 0.589998 -0.256997
-0.267646 0.587278 -0.256461
-0.263202 0.588020 -0.256749
-0.259008 0.589613 -0.257240
-0.253638 0.586939 -0.256719
-0.249090 0.587140 -0.256882
-0.244439 0.586894 -0.256940
-0.239888 0.586967 -0.257074
-0.235454 0.587439 -0.257306
-0.231055 0.588011 -0.257562
-0.226627 0.588431 -0.257784
-0.221964 0.587839 -0.257765
-0.217211 0.586785 -0.257636
-0.212789 0.587064 -0.257828
-0.208345 0.587207 -0.257988
-0.204195 0.588641 -0.258457
-0.199810 0.588996 -0.258670
-0.195350 0.588968 -0.258793
-0.190663 0.587786 -0.258640
-0.186256 0.587894 -0.258796
-0.181721 0.587309 -0.258788
-0.177264 0.587065 -0.258862
-0.173015 0.587878 -0.259191
-0.168732 0.588504 -0.259477
-0.164216 0.587805 -0.259444
-0.159981 0.588670 -0.259789
-0.155637 0.588891 -0.259980
-0.151285 0.589045 -0.260156
-0.146674 0.587518 -0.259927
-0.142363 0.587834 -0.260143
-0.137934 0.587334 -0.260163
-0.133683 0.588023 -0.260471
-0.129263 0.587501 -0.260487
-0.124880 0.587191 -0.260555
-0.120593 0.587579 -0.260793
-0.116334 0.588197 -0.261087
-0.112006 0.588266 -0.261249
-0.107654 0.588094 -0.261353
-0.103264 0.587543 -0.261366
-0.098919 0.587351 -0.261467
-0.094662 0.588013 -0.261775
-0.090314 0.587753 -0.261860
-0.086130 0.589286 -0.262383
-0.081848 0.589819 -0.262662
-0.077542 0.590095 -0.262880
-0.073042 0.587825 -0.262477
-0.068716 0.587707 -0.262600
-0.064444 0.588380 -0.262916
-0.060131 0.588486 -0.263094
-0.055799 0.588267 -0.263193
-0.051502 0.588678 -0.263447
-0.047183 0.588703 -0.263607
-0.042866 0.588816 -0.263789
-0.038553 0.589053 -0.264002
-0.034305 0.591386 -0.264730
-0.029993 0.592244 -0.265097
-0.025680 0.593445 -0.265549
-0.021234 0.587880 -0.264337
-0.016913 0.587862 -0.264489
-0.012596 0.588543 -0.264814
-0.008296 0.596332 -0.266892
-0.003925 0.600352 -0.268043
0.000436 0.596305 -0.267205
0.004730 0.589633 -0.265716
0.009144 0.594482 -0.267074
0.013508 0.594526 -0.267246
0.017792 0.591366 -0.266624
0.022141 0.591320 -0.266773
0.026558 0.593151 -0.267388
0.030948 0.593821 -0.267716
0.035437 0.596526 -0.268550
0.039877 0.597656 -0.268994
0.043985 0.592427 -0.267858
0.048210 0.590017 -0.267421
0.052772 0.593181 -0.268372
0.056965 0.590503 -0.267869
0.061032 0.586445 -0.267020
0.065400 0.586682 -0.267243
0.069861 0.587969 -0.267729
0.074255 0.588333 -0.267984
0.078524 0.587287 -0.267888
0.083027 0.588705 -0.268408
0.088262 0.597081 -0.270672
0.092094 0.591629 -0.269474
0.095842 0.585874 -0.268198
0.100212 0.585873 -0.268364
0.105046 0.589639 -0.269478
0.109760 0.592140 -0.270276
0.114300 0.593118 -0.270692
0.118652 0.592619 -0.270737
0.123722 0.597196 -0.272061
0.128281 0.597950 -0.272424
0.132069 0.593540 -0.271484
0.136986 0.596594 -0.272429
0.141688 0.598102 -0.272984
0.146297 0.598938 -0.273371
0.151080 0.600707 -0.273996
0.155206 0.598618 -0.273644
0.158501 0.592012 -0.272147
0.161685 0.585135 -0.270580
0.166135 0.585220 -0.270778
0.172256 0.593812 -0.273140
0.177116 0.595660 -0.273790
0.180271 0.589092 -0.272301
0.184545 0.588119 -0.272234
0.189133 0.588618 -0.272544
0.193365 0.587444 -0.272428
0.197476 0.585751 -0.272180
0.202597 0.588481 -0.273063
0.207526 0.590242 -0.273701
0.211276 0.586997 -0.273059
0.215712 0.586640 -0.273157
0.219960 0.585508 -0.273057
0.224600 0.585918 -0.273354
0.231014 0.593079 -0.275386
0.238071 0.602350 -0.277966
0.244008 0.607095 -0.279386
0.246199 0.598048 -0.277260
0.249238 0.592301 -0.275981
0.254643 0.594991 -0.276877
0.260388 0.598707 -0.278041
0.265411 0.599813 -0.278535
0.269831 0.598841 -0.278493
0.275342 0.601407 -0.279369
0.279865 0.600675 -0.279393
0.282654 0.594449 -0.277995
0.283130 0.581203 -0.274774
0.288218 0.582410 -0.275303
0.294705 0.587725 -0.276904
0.299066 0.586540 -0.276817
0.303674 0.586056 -0.276915
0.309155 0.588038 -0.277658
0.313518 0.586749 -0.277550
0.317727 0.585012 -0.277328
0.330156 0.605794 -0.282996
0.334645 0.604472 -0.282892
0.335279 0.592872 -0.280096
0.337773 0.586419 -0.278647
0.343072 0.587343 -0.279135
0.349206 0.590305 -0.280161
0.358250 0.600438 -0.283080
0.363066 0.599747 -0.283156
0.367992 0.599279 -0.283293
0.372212 0.597052 -0.282969
0.377900 0.598313 -0.283569
0.383184 0.598522 -0.283894
0.388693 0.599180 -0.284342
0.393525 0.598203 -0.284360
0.396180 0.592274 -0.283066
0.397067 0.582491 -0.280747
0.401208 0.580043 -0.280378
0.410622 0.589026 -0.283056
0.417237 0.591719 -0.284065
0.420732 0.587676 -0.283281
0.426083 0.587543 -0.283542
0.430626 0.585677 -0.283343
0.436159 0.585808 -0.283680
0.444451 0.591419 -0.285492
0.449347 0.590082 -0.285443
0.455287 0.590765 -0.285940
0.459826 0.588652 -0.285686
0.466493 0.590610 -0.286532
0.472493 0.591204 -0.287013
0.477648 0.590154 -0.287050
0.483077 0.589588 -0.287220
0.489033 0.589952 -0.287643
0.494807 0.589945 -0.287965
0.499825 0.588553 -0.287912
0.505778 0.588818 -0.288308
0.512785 0.590898 -0.289198
0.521686 0.596186 -0.290965
0.524565 0.591075 -0.289890
0.526612 0.584672 -0.288455
0.530647 0.581739 -0.287963
0.540541 0.588569 -0.290144
0.546901 0.589505 -0.290706
0.552713 0.589572 -0.291023
0.558531 0.589695 -0.291350
0.569020 0.597275 -0.293726
0.568510 0.587504 -0.291308
0.525604 0.504248 -0.268803
-0.481783 0.582666 -0.255655
-0.478567 0.585689 -0.256518
-0.473954 0.586211 -0.256781
-0.468906 0.586013 -0.256866
-0.463579 0.585365 -0.256839
-0.459091 0.586459 -0.257222
-0.454827 0.588111 -0.257734
-0.450205 0.589148 -0.258094
-0.445399 0.589898 -0.258382
-0.440686 0.590914 -0.258730
-0.435361 0.590714 -0.258783
-0.429405 0.589201 -0.258519
-0.424678 0.590322 -0.258883
-0.418938 0.589277 -0.258725
-0.413724 0.589375 -0.258839
-0.408608 0.589693 -0.259004
-0.403520 0.590071 -0.259182
-0.398388 0.590342 -0.259332
-0.393393 0.590916 -0.259555
-0.388590 0.591928 -0.259882
-0.383166 0.591442 -0.259850
-0.377728 0.590869 -0.259795
-0.372843 0.591593 -0.260053
-0.367777 0.591835 -0.260195
-0.361858 0.589868 -0.259806
-0.356884 0.590215 -0.259974
-0.351913 0.590519 -0.260133
-0.346590 0.589839 -0.260055
-0.341173 0.588818 -0.259896
-0.336601 0.590003 -0.260270
-0.332136 0.591452 -0.260708
-0.326546 0.589717 -0.260380
-0.321484 0.589365 -0.260386
-0.316146 0.588131 -0.260180
-0.311246 0.588075 -0.260260
-0.306837 0.589418 -0.260680
-0.302118 0.589789 -0.260866
-0.297269 0.589701 -0.260942
-0.292442 0.589611 -0.261020
-0.287561 0.589273 -0.261038
-0.282441 0.588077 -0.260851
-0.278031 0.589119 -0.261207
-0.273413 0.589432 -0.261387
-0.268702 0.589370 -0.261478
-0.263932 0.589033 -0.261504
-0.259087 0.588354 -0.261449
-0.254345 0.587956 -0.261462
-0.249453 0.586931 -0.261325
-0.245232 0.588323 -0.261776
-0.240275 0.586889 -0.261542
-0.235877 0.587521 -0.261811
-0.231515 0.588268 -0.262110
-0.227089 0.588724 -0.262339
-0.222591 0.588848 -0.262489
-0.217838 0.587840 -0.262365
-0.213119 0.586882 -0.262253
-0.208797 0.587587 -0.262548
-0.204561 0.588659 -0.262935
-0.200284 0.589540 -0.263276
-0.195413 0.587606 -0.262930
-0.190963 0.587568 -0.263049
-0.186523 0.587535 -0.263170
-0.182147 0.587780 -0.263360
-0.177825 0.588280 -0.263614
-0.173486 0.588666 -0.263841
-0.168958 0.587997 -0.263811
-0.164665 0.588574 -0.264087
-0.160221 0.588275 -0.264149
-0.155915 0.588740 -0.264400
-0.151564 0.588925 -0.264583
-0.147257 0.589359 -0.264828
-0.142530 0.587037 -0.264396
-0.138217 0.587332 -0.264608
-0.133840 0.587174 -0.264710
-0.129543 0.587546 -0.264944
-0.125181 0.587430 -0.265058
-0.120797 0.587110 -0.265122
-0.116536 0.587735 -0.265421
-0.112254 0.588206 -0.265682
-0.107966 0.588636 -0.265934
-0.103613 0.588490 -0.266045
-0.099073 0.586517 -0.265703
-0.094737 0.586386 -0.265818
-0.090529 0.587575 -0.266262
-0.086249 0.588066 -0.266533
-0.082007 0.589056 -0.266928
-0.077599 0.588069 -0.266834
-0.073229 0.587459 -0.266833
-0.068949 0.588026 -0.267125
-0.064630 0.588070 -0.267288
-0.060283 0.587672 -0.267342
-0.055936 0.587183 -0.267373
-0.051675 0.588276 -0.267800
-0.047409 0.589493 -0.268258
-0.043065 0.589132 -0.268323
-0.038800 0.590829 -0.268903
-0.034537 0.593090 -0.269626
-0.030235 0.594762 -0.270202
-0.025778 0.590349 -0.269253
-0.021389 0.587362 -0.268661
-0.017075 0.588085 -0.269000
-0.012767 0.590363 -0.269730
-0.008465 0.600984 -0.272560
-0.004072 0.602553 -0.273116
0.000305 0.598552 -0.272270
0.004640 0.594197 -0.271334
0.008977 0.592446 -0.271054
0.013302 0.590915 -0.270829
0.017640 0.590383 -0.270856
0.021917 0.587949 -0.270402
0.026320 0.589758 -0.271021
0.030680 0.589971 -0.271237
0.035214 0.594005 -0.272422
0.039792 0.598105 -0.273625
0.044218 0.598620 -0.273921
0.048427 0.595349 -0.273256
0.052593 0.591861 -0.272535
0.056819 0.589696 -0.272150
0.060947 0.586446 -0.271489
0.065360 0.587202 -0.271846
0.069717 0.587179 -0.272006
0.074146 0.587926 -0.272362
0.078540 0.588198 -0.272598
0.083879 0.598077 -0.275287
0.088810 0.603016 -0.276719
0.092880 0.599468 -0.275983
0.095647 0.584596 -0.272349
0.100083 0.585174 -0.272665
0.104858 0.588455 -0.273675
0.109566 0.590925 -0.274479
0.114510 0.594973 -0.275689
0.119035 0.595648 -0.276035
0.123551 0.596176 -0.276344
0.127859 0.595221 -0.276273
0.130799 0.585263 -0.273885
0.135106 0.584653 -0.273902
0.141086 0.594425 -0.276595
0.146595 0.600757 -0.278405
0.151212 0.601479 -0.278771
0.155628 0.600986 -0.278823
0.159697 0.598575 -0.278381
0.163934 0.597165 -0.278197
0.167441 0.591970 -0.277034
0.171730 0.590998 -0.276964
0.177041 0.595142 -0.278222
0.180110 0.588151 -0.276592
0.184452 0.587500 -0.276607
0.189170 0.588591 -0.277075
0.193430 0.587523 -0.276984
0.197520 0.585712 -0.276700
0.203427 0.591830 -0.278483
0.207816 0.591209 -0.278512
0.211653 0.588282 -0.277940
0.215437 0.585223 -0.277334
0.219533 0.583493 -0.277075
0.223470 0.581174 -0.276663
0.230919 0.592373 -0.279792
0.238071 0.601990 -0.282513
0.243295 0.604087 -0.283266
0.247918 0.603891 -0.283421
0.250699 0.597106 -0.281845
0.254950 0.595657 -0.281672
0.260317 0.598043 -0.282510
0.265529 0.599780 -0.283179
0.269953 0.598797 -0.283135
0.273883 0.596197 -0.282665
0.278624 0.596229 -0.282891
0.282785 0.594386 -0.282623
0.285190 0.587109 -0.280919
0.290303 0.588277 -0.281451
0.295722 0.590274 -0.282205
0.299346 0.586853 -0.281525
0.304079 0.586712 -0.281718
0.309308 0.587940 -0.282276
0.314014 0.587603 -0.282421
0.318157 0.585653 -0.282140
0.327775 0.598698 -0.285859
0.331650 0.595804 -0.285332
0.333377 0.587225 -0.283288
0.337313 0.584620 -0.282840
0.342884 0.586253 -0.283529
0.350259 0.592373 -0.285425
0.355329 0.592472 -0.285711
0.359987 0.591480 -0.285708
0.364926 0.591139 -0.285882
0.370193 0.591532 -0.286258
0.375614 0.592213 -0.286714
0.380162 0.590761 -0.286599
0.384126 0.587927 -0.286113
0.388892 0.586931 -0.286126
0.398354 0.596479 -0.288997
0.399443 0.587082 -0.286742
0.403636 0.584672 -0.286380
0.410964 0.589052 -0.287867
0.417670 0.591922 -0.288948
0.421551 0.588679 -0.288369
0.426158 0.586962 -0.288208
0.432956 0.589737 -0.289277
0.438584 0.589996 -0.289662
0.445371 0.592511 -0.290668
0.451291 0.593178 -0.291173
0.456286 0.591955 -0.291162
0.462432 0.592929 -0.291756
0.467071 0.590938 -0.291538
0.471623 0.588778 -0.291273
0.476284 0.586820 -0.291065
0.481753 0.586353 -0.291269
0.488039 0.587347 -0.291878
0.493453 0.586709 -0.292035
0.498289 0.585022 -0.291902
0.504970 0.586600 -0.292674
0.511799 0.588384 -0.293503
0.521842 0.595657 -0.295861
0.529382 0.598499 -0.296986
0.531475 0.592093 -0.295527
0.534229 0.586941 -0.294410
0.541558 0.589470 -0.295436
0.546919 0.588761 -0.295551
0.552404 0.588306 -0.295730
0.558250 0.588485 -0.296080
0.566456 0.592456 -0.297489
0.563771 0.579329 -0.294076
0.563267 0.569919 -0.291695
0.568729 0.569947 -0.291962
-0.480792 0.579609 -0.259645
-0.479228 0.585723 -0.261274
-0.474935 0.586854 -0.261686
-0.469574 0.586051 -0.261621
-0.464386 0.585671 -0.261653
-0.459759 0.586488 -0.261971
-0.455367 0.587881 -0.262425
-0.450584 0.588588 -0.262706
-0.445801 0.589378 -0.263003
-0.441050 0.590309 -0.263330
-0.436254 0.591216 -0.263647
-0.430284 0.589684 -0.263365
-0.425121 0.589879 -0.263502
-0.419727 0.589590 -0.263517
-0.414252 0.589124 -0.263487
-0.409311 0.589838 -0.263744
-0.404159 0.590084 -0.263884
-0.399157 0.590663 -0.264105
-0.394164 0.591258 -0.264329
-0.389195 0.591894 -0.264562
-0.383859 0.591634 -0.264575
-0.378666 0.591672 -0.264661
-0.373554 0.591865 -0.264785
-0.368366 0.591822 -0.264851
-0.362761 0.590670 -0.264646
-0.357669 0.590742 -0.264741
-0.352291 0.590011 -0.264640
-0.347118 0.589739 -0.264652
-0.341747 0.588860 -0.264516
-0.337234 0.590227 -0.264934
-0.332502 0.590960 -0.265197
-0.327533 0.590980 -0.265286
-0.322049 0.589467 -0.264998
-0.317239 0.589784 -0.265163
-0.312096 0.589062 -0.265073
-0.307163 0.588874 -0.265116
-0.302408 0.589148 -0.265274
-0.297602 0.589205 -0.265381
-0.293059 0.590019 -0.265676
-0.288395 0.590402 -0.265866
-0.282931 0.588134 -0.265403
-0.278351 0.588637 -0.265626
-0.274069 0.590093 -0.266086
-0.268938 0.588628 -0.265826
-0.263843 0.587169 -0.265568
-0.259306 0.587574 -0.265773
-0.254868 0.588284 -0.266056
-0.250354 0.588681 -0.266262
-0.245965 0.589497 -0.266574
-0.241090 0.588427 -0.266420
-0.236277 0.587497 -0.266301
-0.231826 0.587908 -0.266517
-0.227261 0.587820 -0.266611
-0.222812 0.588149 -0.266809
-0.218434 0.588742 -0.267075
-0.213881 0.588544 -0.267146
-0.209456 0.588858 -0.267345
-0.205128 0.589568 -0.267644
-0.200436 0.588580 -0.267522
-0.196080 0.589084 -0.267773
-0.191261 0.587325 -0.267460
-0.186873 0.587573 -0.267649
-0.182631 0.588526 -0.268016
-0.178327 0.589162 -0.268305
-0.173798 0.588589 -0.268292
-0.169324 0.588240 -0.268337
-0.164993 0.588641 -0.268571
-0.160675 0.589104 -0.268821
-0.156041 0.587665 -0.268596
-0.151794 0.588483 -0.268938
-0.147504 0.589048 -0.269217
-0.143034 0.588435 -0.269202
-0.138566 0.587764 -0.269172
-0.134133 0.587256 -0.269185
-0.129800 0.587413 -0.269366
-0.125433 0.587289 -0.269477
-0.121103 0.587420 -0.269652
-0.116709 0.587016 -0.269694
-0.112495 0.588070 -0.270105
-0.108222 0.588667 -0.270401
-0.103832 0.588229 -0.270437
-0.099363 0.586973 -0.270267
-0.095059 0.587231 -0.270479
-0.090757 0.587516 -0.270700
-0.086398 0.587173 -0.270762
-0.082045 0.586857 -0.270832
-0.077860 0.588579 -0.271419
-0.073489 0.588044 -0.271435
-0.069179 0.588286 -0.271648
-0.064861 0.588435 -0.271839
-0.060457 0.587193 -0.271676
-0.056144 0.587363 -0.271873
-0.051877 0.588431 -0.272299
-0.047585 0.589198 -0.272649
-0.043260 0.589345 -0.272842
-0.038944 0.589813 -0.273118
-0.034789 0.595343 -0.274687
-0.030449 0.596187 -0.275061
-0.026012 0.593132 -0.274439
-0.021523 0.585731 -0.272704
-0.017235 0.588049 -0.273455
-0.012912 0.589019 -0.273863
-0.008586 0.592016 -0.274790
-0.004222 0.602367 -0.277607
0.000174 0.600962 -0.277409
0.004530 0.597025 -0.276561
0.008906 0.596638 -0.276624
0.013216 0.593146 -0.275888
0.017366 0.584571 -0.273843
0.021733 0.585912 -0.274350
0.026080 0.586268 -0.274604
0.030560 0.589844 -0.275690
0.035093 0.593793 -0.276874
0.039754 0.599524 -0.278520
0.044260 0.601321 -0.279151
0.048392 0.596431 -0.278053
0.052618 0.593721 -0.277518
0.056955 0.592991 -0.277496
0.060761 0.585073 -0.275610
0.065299 0.587465 -0.276397
0.069663 0.587448 -0.276560
0.074058 0.587756 -0.276807
0.078470 0.588181 -0.277086
0.083830 0.598240 -0.279873
0.088741 0.602936 -0.281267
0.092798 0.599232 -0.280474
0.095595 0.584593 -0.276828
0.099956 0.584494 -0.276973
0.104619 0.586848 -0.277759
0.109247 0.588720 -0.278420
0.114583 0.595792 -0.280443
0.119494 0.599222 -0.281516
0.123535 0.596242 -0.280911
0.127631 0.593807 -0.280449
0.131370 0.589144 -0.279403
0.135298 0.585955 -0.278742
0.140616 0.591556 -0.280390
0.145863 0.596367 -0.281834
0.150469 0.597123 -0.282214
0.154930 0.596983 -0.282359
0.159434 0.597059 -0.282561
0.164482 0.600028 -0.283527
0.168318 0.596457 -0.282770
0.171997 0.592236 -0.281840
0.176072 0.590164 -0.281478
0.179972 0.587310 -0.280909
0.184293 0.586559 -0.280897
0.188943 0.587330 -0.281289
0.193400 0.587160 -0.281434
0.197693 0.586239 -0.281379
0.203678 0.592662 -0.283277
0.208870 0.595407 -0.284201
0.212538 0.591669 -0.283403
0.214879 0.582648 -0.281198
0.218919 0.580729 -0.280883
0.223242 0.579952 -0.280874
0.230943 0.592116 -0.284320
0.236292 0.594933 -0.285277
0.240817 0.594565 -0.285384
0.245247 0.593824 -0.285394
0.250897 0.597404 -0.286562
0.256003 0.598916 -0.287180
0.260325 0.597638 -0.287052
0.265307 0.598587 -0.287523
0.269171 0.595754 -0.286980
0.272125 0.590004 -0.285653
0.275115 0.584517 -0.284397
0.281213 0.588948 -0.285813
0.286092 0.589410 -0.286163
0.291860 0.592516 -0.287231
0.296502 0.592097 -0.287348
0.299366 0.586385 -0.286037
0.303735 0.585171 -0.285944
0.309289 0.587335 -0.286768
0.314706 0.588995 -0.287459
0.318779 0.586811 -0.287110
0.327036 0.596087 -0.289879
0.330455 0.591988 -0.289015
0.333213 0.586189 -0.287689
0.338444 0.586976 -0.288160
0.345952 0.593557 -0.290216
0.350474 0.592291 -0.290134
0.354699 0.590249 -0.289843
0.359416 0.589417 -0.289885
0.364231 0.588785 -0.289985
0.369144 0.588339 -0.290140
0.373889 0.587438 -0.290172
0.379078 0.587535 -0.290482
0.383510 0.585811 -0.290295
0.389164 0.586855 -0.290873
0.396040 0.590551 -0.292189
0.401885 0.591795 -0.292832
0.404441 0.585717 -0.291453
0.411262 0.588964 -0.292659
0.418767 0.593524 -0.294234
0.421947 0.588766 -0.293228
0.426665 0.587265 -0.293128
0.433021 0.589108 -0.293962
0.438549 0.589154 -0.294299
0.448601 0.598218 -0.297158
0.453943 0.597656 -0.297335
0.457569 0.593679 -0.296559
0.462329 0.591935 -0.296408
0.467583 0.591122 -0.296520
0.471650 0.588029 -0.295993
0.476052 0.585586 -0.295648
0.481340 0.584787 -0.295766
0.487717 0.585955 -0.296440
0.492150 0.583552 -0.296106
0.497297 0.582448 -0.296137
0.503299 0.582850 -0.296594
0.513749 0.590974 -0.299242
0.522701 0.596326 -0.301106
0.528752 0.596614 -0.301530
0.534688 0.596706 -0.301896
0.537627 0.591811 -0.300834
0.541370 0.588370 -0.300180
0.546781 0.587753 -0.300324
0.552762 0.588110 -0.300741
0.558341 0.587864 -0.300978
0.558265 0.578728 -0.298654
0.563041 0.577443 -0.298572
0.568498 0.577313 -0.298811
0.580827 0.587831 -0.302106
-0.486038 0.588248 -0.266516
-0.480054 0.586063 -0.266116
-0.475477 0.586644 -0.266396
-0.470396 0.586376 -0.266458
-0.465451 0.586471 -0.266604
-0.460806 0.587257 -0.266916
-0.456022 0.587869 -0.267178
-0.451357 0.588812 -0.267518
-0.446130 0.588695 -0.267588
-0.440921 0.588669 -0.267677
-0.435754 0.588779 -0.267795
-0.430999 0.589801 -0.268136
-0.425533 0.589351 -0.268107
-0.420239 0.589280 -0.268169
-0.414929 0.589181 -0.268222
-0.409674 0.589203 -0.268303
-0.405077 0.590705 -0.268752
-0.399913 0.590933 -0.268881
-0.394679 0.590981 -0.268964
-0.389545 0.591238 -0.269098
-0.384582 0.591872 -0.269326
-0.379202 0.591477 -0.269297
-0.374113 0.591737 -0.269431
-0.368677 0.591092 -0.269340
-0.363504 0.591040 -0.269397
-0.358143 0.590446 -0.269319
-0.352908 0.590102 -0.269304
-0.347366 0.588877 -0.269069
-0.342705 0.589908 -0.269401
-0.338007 0.590803 -0.269701
-0.333052 0.590949 -0.269814
-0.327879 0.590420 -0.269758
-0.323224 0.591277 -0.270053
-0.318301 0.591318 -0.270144
-0.313148 0.590614 -0.270049
-0.307620 0.588697 -0.269651
-0.302849 0.588944 -0.269798
-0.298127 0.589276 -0.269969
-0.293639 0.590286 -0.270312
-0.288833 0.590242 -0.270392
-0.283411 0.588135 -0.269953
-0.278862 0.588763 -0.270205
-0.274396 0.589624 -0.270519
-0.269921 0.590419 -0.270817
-0.264382 0.587477 -0.270173
-0.259706 0.587416 -0.270258
-0.255415 0.588677 -0.270680
-0.251256 0.590405 -0.271221
-0.246345 0.589323 -0.271054
-0.241577 0.588687 -0.271000
-0.236860 0.588162 -0.270976
-0.232020 0.587067 -0.270810
-0.227539 0.587326 -0.270988
-0.223171 0.588006 -0.271274
-0.218642 0.587982 -0.271384
-0.214160 0.588105 -0.271532
-0.209833 0.588863 -0.271843
-0.205529 0.589707 -0.272178
-0.201016 0.589576 -0.272266
-0.196323 0.588542 -0.272126
-0.191784 0.588152 -0.272151
-0.187314 0.588041 -0.272248
-0.183117 0.589259 -0.272686
-0.178685 0.589275 -0.272818
-0.174184 0.588883 -0.272847
-0.169700 0.588520 -0.272886
-0.165286 0.588492 -0.273010
-0.160906 0.588617 -0.273176
-0.156540 0.588799 -0.273357
-0.151949 0.587570 -0.273178
-0.147572 0.587589 -0.273319
-0.143281 0.588132 -0.273595
-0.138818 0.587520 -0.273577
-0.134389 0.587066 -0.273600
-0.130113 0.587657 -0.273893
-0.125760 0.587690 -0.274042
-0.121435 0.587915 -0.274243
-0.117074 0.587831 -0.274365
-0.112657 0.587251 -0.274360
-0.108346 0.587525 -0.274576
-0.104055 0.587989 -0.274841
-0.099661 0.587482 -0.274857
-0.095346 0.587692 -0.275059
-0.091012 0.587720 -0.275215
-0.086690 0.587854 -0.275399
-0.082530 0.589878 -0.276072
-0.078194 0.589958 -0.276244
-0.073794 0.589192 -0.276198
-0.069428 0.588791 -0.276246
-0.065078 0.588555 -0.276338
-0.060756 0.588743 -0.276541
-0.056413 0.588579 -0.276652
-0.052084 0.588651 -0.276826
-0.047752 0.588680 -0.276989
-0.043415 0.588594 -0.277123
-0.039072 0.588355 -0.277217
-0.034972 0.595476 -0.279228
-0.030658 0.597397 -0.279888
-0.026182 0.593118 -0.278932
-0.021753 0.589234 -0.278078
-0.017391 0.587656 -0.277826
-0.013058 0.587758 -0.278012
-0.008728 0.589101 -0.278523
-0.004380 0.594941 -0.280212
0.000038 0.602890 -0.282455
0.004399 0.597991 -0.281336
0.008779 0.597315 -0.281323
0.013064 0.592204 -0.280147
0.017416 0.591653 -0.280166
0.021626 0.586478 -0.278970
0.026131 0.591191 -0.280373
0.030546 0.592413 -0.280860
0.035050 0.595347 -0.281798
0.039597 0.598523 -0.282801
0.043876 0.596123 -0.282336
0.048181 0.594536 -0.282085
0.052230 0.589126 -0.280825
0.056549 0.588374 -0.280794
0.060961 0.588970 -0.281119
0.065254 0.587938 -0.281015
0.069582 0.587407 -0.281043
0.073928 0.587108 -0.281133
0.078315 0.587258 -0.281342
0.083301 0.593494 -0.283167
0.088311 0.599344 -0.284892
0.092553 0.597477 -0.284569
0.095727 0.586224 -0.281752
0.099973 0.585043 -0.281610
0.104360 0.585072 -0.281790
0.109200 0.588647 -0.282916
0.114400 0.594664 -0.284695
0.117938 0.588059 -0.283110
0.122680 0.590382 -0.283906
0.127544 0.593354 -0.284878
0.132175 0.594573 -0.285382
0.135834 0.589458 -0.284193
0.140055 0.588117 -0.284014
0.144723 0.589515 -0.284569
0.149326 0.590424 -0.284994
0.153301 0.587684 -0.284441
0.157391 0.585698 -0.284091
0.161906 0.586076 -0.284376
0.167551 0.592324 -0.286242
0.171838 0.591291 -0.286151
0.176184 0.590568 -0.286144
0.180182 0.588155 -0.285683
0.184350 0.586635 -0.285462
0.188844 0.586660 -0.285660
0.193414 0.586996 -0.285943
0.198060 0.587618 -0.286305
0.204235 0.594807 -0.288446
0.209167 0.596382 -0.289071
0.213315 0.594595 -0.288786
0.217685 0.593751 -0.288758
0.221667 0.591356 -0.288311
0.226666 0.592989 -0.288958
0.230279 0.589212 -0.288137
0.235040 0.589852 -0.288518
0.240206 0.591923 -0.289291
0.244681 0.591373 -0.289352
0.250356 0.595066 -0.290573
0.256988 0.601924 -0.292663
0.261247 0.600358 -0.292455
0.264257 0.594596 -0.291099
0.268437 0.592859 -0.290846
0.271010 0.585902 -0.289163
0.275138 0.584107 -0.288895
0.280085 0.584900 -0.289340
0.285419 0.586816 -0.290097
0.292560 0.594127 -0.292342
0.296885 0.592712 -0.292189
0.300312 0.588637 -0.291305
0.304579 0.587074 -0.291116
0.309172 0.586439 -0.291184
0.314331 0.587363 -0.291687
0.319378 0.587893 -0.292083
0.326687 0.594533 -0.294177
0.330140 0.590532 -0.293325
0.332946 0.584869 -0.292013
0.341863 0.595300 -0.295175
0.346544 0.594447 -0.295206
0.349769 0.589849 -0.294198
0.354079 0.588038 -0.293967
0.359150 0.588097 -0.294260
0.364237 0.588126 -0.294549
0.368823 0.586884 -0.294487
0.372831 0.584236 -0.294033
0.377392 0.582887 -0.293946
0.383964 0.586153 -0.295158
0.389849 0.587700 -0.295892
0.398389 0.595111 -0.298282
0.401924 0.591144 -0.297474
0.406107 0.588630 -0.297078
0.412219 0.590286 -0.297862
0.418487 0.592162 -0.298713
0.422799 0.589798 -0.298369
0.426933 0.587053 -0.297918
0.432972 0.588227 -0.298582
0.438317 0.587897 -0.298823
0.450202 0.600630 -0.302786
0.454180 0.597318 -0.302188
0.456083 0.589963 -0.300436
0.460682 0.587938 -0.300206
0.466327 0.587906 -0.300546
0.474038 0.591721 -0.301991
0.479515 0.591229 -0.302206
0.487052 0.594500 -0.303502
0.495902 0.600049 -0.305457
0.500411 0.597613 -0.305117
0.502790 0.591409 -0.303687
0.511266 0.596055 -0.305386
0.517003 0.595812 -0.305674
0.518805 0.588792 -0.303995
0.525584 0.590396 -0.304810
0.533929 0.594606 -0.306379
0.537902 0.591459 -0.305807
0.541976 0.588567 -0.305302
0.547042 0.587385 -0.305286
0.553260 0.588127 -0.305825
0.558998 0.588135 -0.306142
0.560003 0.580717 -0.304276
0.562891 0.576460 -0.303322
0.573898 0.584951 -0.306094
0.578476 0.583487 -0.305937
-0.483665 0.582595 -0.269863
-0.480508 0.585693 -0.270791
-0.475811 0.586033 -0.271012
-0.471274 0.586801 -0.271334
-0.466257 0.586754 -0.271442
-0.461559 0.587432 -0.271728
-0.456832 0.588156 -0.272019
-0.451825 0.588408 -0.272184
-0.446469 0.588021 -0.272181
-0.440995 0.587441 -0.272123
-0.436044 0.587987 -0.272347
-0.431364 0.589160 -0.272727
-0.426419 0.589822 -0.272973
-0.420453 0.588305 -0.272660
-0.415619 0.589247 -0.272972
-0.410945 0.590572 -0.273378
-0.405666 0.590561 -0.273442
-0.400698 0.591245 -0.273682
-0.395270 0.590859 -0.273647
-0.390184 0.591239 -0.273808
-0.384683 0.590605 -0.273708
-0.379797 0.591400 -0.273973
-0.374604 0.591421 -0.274041
-0.368947 0.590241 -0.273802
-0.364031 0.590839 -0.274018
-0.359428 0.592201 -0.274430
-0.353377 0.589786 -0.273877
-0.348523 0.590388 -0.274097
-0.343405 0.590237 -0.274125
-0.338455 0.590472 -0.274253
-0.333575 0.590840 -0.274417
-0.328761 0.591334 -0.274616
-0.323609 0.590815 -0.274556
-0.318619 0.590678 -0.274595
-0.313687 0.590634 -0.274660
-0.308482 0.589707 -0.274500
-0.303383 0.588996 -0.274397
-0.298526 0.588938 -0.274464
-0.293756 0.589081 -0.274585
-0.289432 0.590574 -0.275054
-0.283944 0.588287 -0.274553
-0.278556 0.586179 -0.274100
-0.274781 0.589331 -0.275002
-0.270209 0.589810 -0.275219
-0.265109 0.588410 -0.274953
-0.260349 0.588094 -0.274969
-0.255994 0.589157 -0.275341
-0.251428 0.589427 -0.275512
-0.246887 0.589737 -0.275694
-0.242180 0.589365 -0.275702
-0.237523 0.589114 -0.275744
-0.232597 0.587728 -0.275493
-0.228075 0.587858 -0.275636
-0.223799 0.588953 -0.276031
-0.219063 0.588104 -0.275924
-0.214317 0.587118 -0.275783
-0.210233 0.588949 -0.276373
-0.206049 0.590358 -0.276856
-0.201198 0.588715 -0.276549
-0.196687 0.588550 -0.276627
-0.192206 0.588469 -0.276728
-0.187856 0.588986 -0.276986
-0.183407 0.588980 -0.277110
-0.179037 0.589343 -0.277331
-0.174547 0.589040 -0.277380
-0.170158 0.589232 -0.277559
-0.165595 0.588411 -0.277476
-0.161201 0.588488 -0.277628
-0.156816 0.588582 -0.277786
-0.152102 0.586634 -0.277412
-0.147673 0.586323 -0.277466
-0.143361 0.586725 -0.277708
-0.139123 0.587613 -0.278077
-0.134818 0.588064 -0.278334
-0.130363 0.587438 -0.278311
-0.126012 0.587511 -0.278471
-0.121680 0.587710 -0.278665
-0.117436 0.588606 -0.279043
-0.112830 0.586520 -0.278640
-0.108529 0.586889 -0.278881
-0.104315 0.588058 -0.279334
-0.100061 0.588943 -0.279713
-0.095618 0.587991 -0.279611
-0.091294 0.588188 -0.279811
-0.087020 0.588929 -0.280156
-0.082671 0.588866 -0.280290
-0.078319 0.588740 -0.280408
-0.073983 0.588792 -0.280573
-0.069615 0.588407 -0.280624
-0.065320 0.589041 -0.280945
-0.060966 0.588807 -0.281037
-0.056606 0.588432 -0.281093
-0.052290 0.588827 -0.281353
-0.047938 0.588539 -0.281433
-0.043539 0.587108 -0.281210
-0.039197 0.586795 -0.281284
-0.035178 0.596236 -0.283946
-0.030831 0.597260 -0.284378
-0.026380 0.594267 -0.283743
-0.021931 0.589891 -0.282741
-0.017552 0.587588 -0.282288
-0.013217 0.587950 -0.282545
-0.008880 0.588684 -0.282902
-0.004535 0.587981 -0.282876
-0.000203 0.586009 -0.282512
0.004199 0.592423 -0.284387
0.008544 0.590942 -0.284155
0.012947 0.592983 -0.284865
0.017294 0.591895 -0.284739
0.021647 0.591340 -0.284756
0.026073 0.592982 -0.285361
0.030394 0.591492 -0.285128
0.034443 0.584140 -0.283323
0.038882 0.586135 -0.284025
0.043327 0.587850 -0.284652
0.047874 0.590991 -0.285664
0.051841 0.584476 -0.284080
0.055898 0.580176 -0.283091
0.060854 0.588680 -0.285549
0.065206 0.588353 -0.285631
0.069524 0.587635 -0.285608
0.073845 0.586994 -0.285605
0.078335 0.588205 -0.286104
0.082787 0.588883 -0.286459
0.087927 0.596182 -0.288606
0.092837 0.600649 -0.289990
0.096709 0.595438 -0.288755
0.100612 0.590898 -0.287700
0.105377 0.593763 -0.288653
0.109059 0.587840 -0.287222
0.113380 0.587177 -0.287219
0.117915 0.588101 -0.287647
0.122006 0.585791 -0.287197
0.127597 0.593856 -0.289571
0.132804 0.598827 -0.291106
0.137715 0.601562 -0.292035
0.140688 0.592083 -0.289633
0.145145 0.592066 -0.289812
0.148948 0.588194 -0.288938
0.152805 0.584822 -0.288201
0.157436 0.585878 -0.288675
0.161876 0.585821 -0.288845
0.167645 0.592700 -0.290918
0.172241 0.593207 -0.291247
0.176962 0.594279 -0.291732
0.180805 0.591000 -0.291024
0.184518 0.587230 -0.290181
0.189268 0.588403 -0.290698
0.193586 0.587533 -0.290654
0.198056 0.587345 -0.290799
0.203921 0.593170 -0.292604
0.208975 0.595274 -0.293386
0.213238 0.593968 -0.293228
0.217499 0.592669 -0.293074
0.222438 0.594090 -0.293673
0.226519 0.592062 -0.293319
0.230052 0.587975 -0.292396
0.234640 0.587968 -0.292605
0.239961 0.590623 -0.293554
0.244709 0.591065 -0.293892
0.251601 0.599064 -0.296333
0.256261 0.598944 -0.296522
0.260308 0.596686 -0.296116
0.264730 0.595724 -0.296073
0.267554 0.589461 -0.294553
0.271534 0.587121 -0.294128
0.275197 0.583801 -0.293430
0.280010 0.584156 -0.293762
0.285723 0.587239 -0.294860
0.291652 0.590827 -0.296104
0.296178 0.590047 -0.296128
0.300071 0.587371 -0.295620
0.304645 0.586701 -0.295679
0.309461 0.586693 -0.295927
0.314515 0.587295 -0.296350
0.319715 0.588229 -0.296869
0.324682 0.588442 -0.297190
0.326434 0.579933 -0.295048
0.335497 0.591011 -0.298447
0.340691 0.591593 -0.298883
0.345370 0.590766 -0.298923
0.348589 0.586190 -0.297903
0.353035 0.584753 -0.297775
0.358610 0.586084 -0.298438
0.364378 0.587783 -0.299210
0.370373 0.589914 -0.300110
0.374435 0.587336 -0.299672
0.379370 0.586804 -0.299821
0.385434 0.588824 -0.300703
0.391512 0.590754 -0.301565
0.397142 0.591557 -0.302110
0.403427 0.593725 -0.303051
0.407559 0.591049 -0.302605
0.412844 0.590867 -0.302879
0.417564 0.589412 -0.302791
0.422394 0.588158 -0.302763
0.427551 0.587549 -0.302925
0.433685 0.588895 -0.303655
0.438885 0.588244 -0.303812
0.447321 0.594033 -0.305841
0.451865 0.591910 -0.305578
0.455469 0.587937 -0.304779
0.460578 0.586911 -0.304839
0.467624 0.589550 -0.305969
0.475901 0.594398 -0.307748
0.483035 0.596950 -0.308862
0.489895 0.598893 -0.309801
0.497960 0.602944 -0.311360
0.503267 0.601901 -0.311428
0.506864 0.597813 -0.310598
0.513066 0.598373 -0.311133
0.516863 0.594723 -0.310425
0.517537 0.585776 -0.308148
0.523660 0.586291 -0.308658
0.532306 0.591045 -0.310420
0.537326 0.589677 -0.310366
0.541178 0.586439 -0.309749
0.547999 0.588140 -0.310592
0.553313 0.587415 -0.310706
0.560331 0.589478 -0.311641
0.557834 0.576521 -0.308088
0.569028 0.585309 -0.311010
0.575046 0.585981 -0.311501
0.577422 0.581134 -0.310327
-0.485388 0.584611 -0.275146
-0.480978 0.585349 -0.275479
-0.477128 0.587290 -0.276116
-0.472433 0.587758 -0.276363
-0.467742 0.588349 -0.276635
-0.461996 0.586973 -0.276389
-0.456984 0.587116 -0.276529
-0.451952 0.587302 -0.276675
-0.446993 0.587710 -0.276872
-0.441963 0.588043 -0.277044
-0.436839 0.588236 -0.277174
-0.432021 0.589121 -0.277480
-0.426799 0.589191 -0.277570
-0.421173 0.588410 -0.277434
-0.416203 0.589062 -0.277669
-0.411542 0.590418 -0.278084
-0.406265 0.590416 -0.278144
-0.400881 0.590160 -0.278135
-0.395877 0.590752 -0.278347
-0.390828 0.591229 -0.278527
-0.385566 0.591178 -0.278569
-0.380409 0.591342 -0.278667
-0.374610 0.589897 -0.278345
-0.369420 0.589871 -0.278394
-0.364896 0.591467 -0.278867
-0.359893 0.591830 -0.279018
-0.354637 0.591492 -0.278988
-0.349157 0.590494 -0.278786
-0.344100 0.590529 -0.278855
-0.338949 0.590245 -0.278843
-0.334108 0.590735 -0.279034
-0.329167 0.590894 -0.279141
-0.324189 0.590886 -0.279205
-0.319098 0.590478 -0.279167
-0.314100 0.590261 -0.279181
-0.308993 0.589642 -0.279091
-0.304285 0.590137 -0.279295
-0.299240 0.589544 -0.279216
-0.294134 0.588672 -0.279065
-0.289497 0.589186 -0.279281
-0.283566 0.585473 -0.278389
-0.279281 0.586965 -0.278865
-0.275030 0.588558 -0.279369
-0.270466 0.589077 -0.279594
-0.265490 0.588118 -0.279433
-0.261046 0.588938 -0.279741
-0.256452 0.589183 -0.279900
-0.251737 0.588932 -0.279931
-0.247098 0.588891 -0.280019
-0.242577 0.589236 -0.280210
-0.237754 0.588364 -0.280083
-0.232960 0.587515 -0.279964
-0.228657 0.588552 -0.280344
-0.224114 0.588588 -0.280461
-0.219578 0.588598 -0.280574
-0.215083 0.588731 -0.280721
-0.210737 0.589470 -0.281029
-0.206344 0.589979 -0.281279
-0.201766 0.589612 -0.281299
-0.197018 0.588381 -0.281092
-0.192616 0.588709 -0.281299
-0.188121 0.588542 -0.281377
-0.183692 0.588656 -0.281530
-0.179079 0.587779 -0.281423
-0.174706 0.588091 -0.281632
-0.170328 0.588348 -0.281827
-0.165971 0.588693 -0.282048
-0.161574 0.588792 -0.282205
-0.156946 0.587482 -0.281989
-0.152384 0.586467 -0.281852
-0.147919 0.585956 -0.281851
-0.143660 0.586727 -0.282191
-0.139357 0.587212 -0.282457
-0.134995 0.587291 -0.282616
-0.130656 0.587510 -0.282814
-0.126193 0.586794 -0.282763
-0.121942 0.587626 -0.283127
-0.117592 0.587704 -0.283290
-0.113257 0.587885 -0.283482
-0.108824 0.587211 -0.283446
-0.104676 0.589038 -0.284081
-0.100343 0.589252 -0.284285
-0.095900 0.588378 -0.284199
-0.091584 0.588718 -0.284438
-0.087219 0.588537 -0.284539
-0.082806 0.587755 -0.284480
-0.078410 0.587085 -0.284451
-0.074078 0.587149 -0.284620
-0.069780 0.587688 -0.284918
-0.065487 0.588377 -0.285256
-0.061117 0.587905 -0.285284
-0.056784 0.588011 -0.285467
-0.052434 0.587791 -0.285564
-0.048107 0.588032 -0.285785
-0.043691 0.586240 -0.285459
-0.039381 0.586802 -0.285768
-0.035277 0.593741 -0.287802
-0.030930 0.594477 -0.288161
-0.026529 0.593280 -0.287998
-0.022259 0.598461 -0.289562
-0.017856 0.597775 -0.289539
-0.013420 0.592814 -0.288357
-0.009031 0.587932 -0.287195
-0.004686 0.586005 -0.286834
-0.000348 0.586026 -0.287002
0.003973 0.584239 -0.286680
0.008455 0.594145 -0.289539
0.012901 0.597351 -0.290577
0.017292 0.597046 -0.290661
0.021615 0.594469 -0.290126
0.025998 0.594294 -0.290246
0.030267 0.591205 -0.289571
0.034398 0.585636 -0.288217
0.038767 0.585965 -0.288474
0.043161 0.586679 -0.288838
0.047585 0.587743 -0.289298
0.051896 0.586835 -0.289219
0.055922 0.581838 -0.288019
0.060649 0.587050 -0.289618
0.065062 0.587556 -0.289928
0.069471 0.587922 -0.290200
0.073868 0.588084 -0.290417
0.078187 0.587350 -0.290388
0.082660 0.588236 -0.290806
0.088956 0.606819 -0.296099
0.093404 0.606454 -0.296178
0.096999 0.598478 -0.294156
0.100922 0.593944 -0.293083
0.104823 0.589558 -0.292050
0.108799 0.586077 -0.291265
0.113159 0.585746 -0.291352
0.117572 0.585793 -0.291544
0.122392 0.588689 -0.292526
0.127545 0.593627 -0.294077
0.132855 0.599260 -0.295823
0.137425 0.599772 -0.296150
0.142018 0.600366 -0.296501
0.145952 0.596927 -0.295733
0.150582 0.597720 -0.296141
0.152959 0.585644 -0.292967
0.157369 0.585426 -0.293094
0.162369 0.588371 -0.294104
0.167588 0.592271 -0.295383
0.172487 0.594315 -0.296147
0.176368 0.591152 -0.295457
0.180319 0.588449 -0.294896
0.184776 0.588244 -0.295034
0.189029 0.587066 -0.294901
0.193810 0.588300 -0.295445
0.198274 0.588042 -0.295573
0.203699 0.591923 -0.296865
0.208266 0.591967 -0.297082
0.212785 0.591771 -0.297232
0.218299 0.595589 -0.298515
0.222683 0.594717 -0.298479
0.227194 0.594336 -0.298584
0.230060 0.587631 -0.296906
0.234560 0.587278 -0.297020
0.239625 0.588980 -0.297718
0.244804 0.590987 -0.298505
0.249791 0.592199 -0.299069
0.254742 0.593197 -0.299577
0.258666 0.590601 -0.299067
0.263003 0.589438 -0.298965
0.268095 0.590764 -0.299573
0.272052 0.588310 -0.299108
0.276680 0.588035 -0.299266
0.282408 0.591179 -0.300400
0.287434 0.591999 -0.300876
0.293223 0.595061 -0.301996
0.297926 0.594725 -0.302149
0.300244 0.587315 -0.300281
0.304664 0.586178 -0.300208
0.310065 0.587829 -0.300938
0.314884 0.587734 -0.301170
0.319892 0.588108 -0.301540
0.323288 0.584012 -0.300629
0.330658 0.590673 -0.302815
0.335489 0.590345 -0.302996
0.340004 0.589139 -0.302926
0.345193 0.589645 -0.303353
0.348137 0.584368 -0.302114
0.353220 0.584535 -0.302450
0.359601 0.587838 -0.303699
0.364425 0.587192 -0.303808
0.369003 0.585906 -0.303736
0.377392 0.593621 -0.306283
0.383427 0.595558 -0.307159
0.386793 0.591215 -0.306210
0.390269 0.587171 -0.305349
0.396517 0.589390 -0.306319
0.403866 0.593924 -0.307973
0.410010 0.595634 -0.308807
0.414199 0.593005 -0.308374
0.417537 0.588559 -0.307410
0.422407 0.587384 -0.307409
0.427646 0.586938 -0.307625
0.433652 0.588009 -0.308293
0.439430 0.588527 -0.308801
0.445170 0.588889 -0.309268
0.450698 0.588762 -0.309593
0.455602 0.587357 -0.309543
0.460881 0.586652 -0.309703
0.466178 0.585943 -0.309863
0.477397 0.596359 -0.313336
0.483138 0.596279 -0.313692
0.489969 0.598161 -0.314634
0.495558 0.597701 -0.314879
0.500873 0.596726 -0.314969
0.504395 0.592558 -0.314101
0.509933 0.592002 -0.314313
0.516060 0.592470 -0.314830
0.520978 0.590840 -0.314713
0.526335 0.589993 -0.314828
0.531747 0.589262 -0.314972
0.536631 0.587688 -0.314856
0.542140 0.587199 -0.315060
0.547593 0.586662 -0.315243
0.555634 0.590349 -0.316697
0.561100 0.589907 -0.316892
0.568622 0.592780 -0.318084
0.571636 0.588617 -0.317125
0.568916 0.575735 -0.313495
0.580746 0.585494 -0.316750
-0.485865 0.584290 -0.279843
-0.482161 0.586344 -0.280528
-0.478568 0.588772 -0.281304
-0.474166 0.589809 -0.281703
-0.469036 0.589559 -0.281754
-0.462910 0.587443 -0.281302
-0.457150 0.586097 -0.281046
-0.452385 0.586804 -0.281327
-0.447820 0.588006 -0.281732
-0.443070 0.588914 -0.282054
-0.438183 0.589612 -0.282315
-0.432303 0.588271 -0.282029
-0.427298 0.588800 -0.282236
-0.421951 0.588623 -0.282251
-0.416886 0.589071 -0.282429
-0.411955 0.589835 -0.282687
-0.406870 0.590267 -0.282856
-0.401109 0.589159 -0.282613
-0.396206 0.589982 -0.282881
-0.391229 0.590628 -0.283102
-0.385850 0.590308 -0.283065
-0.380679 0.590437 -0.283148
-0.375692 0.590980 -0.283340
-0.370055 0.589879 -0.283096
-0.365240 0.590760 -0.283379
-0.360534 0.591887 -0.283729
-0.355144 0.591222 -0.283603
-0.349795 0.590585 -0.283485
-0.344671 0.590464 -0.283506
-0.339769 0.590872 -0.283670
-0.334466 0.590127 -0.283528
-0.329885 0.591299 -0.283899
-0.325075 0.591795 -0.284092
-0.320047 0.591608 -0.284105
-0.315061 0.591465 -0.284131
-0.309641 0.589962 -0.283796
-0.304777 0.590017 -0.283880
-0.300181 0.590822 -0.284166
-0.294975 0.589683 -0.283934
-0.290130 0.589580 -0.283982
-0.285210 0.589161 -0.283947
-0.279700 0.586723 -0.283375
-0.275842 0.589646 -0.284239
-0.271017 0.589323 -0.284236
-0.266306 0.589310 -0.284319
-0.261451 0.588731 -0.284252
-0.256773 0.588694 -0.284333
-0.252050 0.588431 -0.284355
-0.247320 0.588071 -0.284354
-0.242924 0.588901 -0.284673
-0.238394 0.589181 -0.284848
-0.233783 0.589100 -0.284927
-0.229014 0.588316 -0.284820
-0.224308 0.587703 -0.284760
-0.219908 0.588295 -0.285026
-0.215779 0.590020 -0.285599
-0.211049 0.589131 -0.285471
-0.206378 0.588412 -0.285390
-0.201972 0.588829 -0.285617
-0.197483 0.588823 -0.285731
-0.192946 0.588539 -0.285773
-0.188369 0.587999 -0.285747
-0.183729 0.587065 -0.285616
-0.179248 0.586862 -0.285684
-0.174870 0.587153 -0.285887
-0.170558 0.587772 -0.286181
-0.166304 0.588714 -0.286563
-0.161949 0.589084 -0.286792
-0.157566 0.589276 -0.286975
-0.153034 0.588525 -0.286904
-0.148246 0.586091 -0.286377
-0.144247 0.588581 -0.287187
-0.139760 0.587930 -0.287147
-0.135095 0.585973 -0.286753
-0.130824 0.586663 -0.287078
-0.126631 0.587958 -0.287570
-0.122395 0.588989 -0.287991
-0.117975 0.588604 -0.288029
-0.113540 0.588036 -0.288018
-0.109358 0.589582 -0.288583
-0.104947 0.589176 -0.288618
-0.100550 0.588836 -0.288672
-0.096199 0.588903 -0.288838
-0.091815 0.588615 -0.288908
-0.087456 0.588546 -0.289039
-0.083070 0.588137 -0.289077
-0.078596 0.586591 -0.288805
-0.074263 0.586671 -0.288980
-0.070030 0.588145 -0.289536
-0.065696 0.588322 -0.289738
-0.061335 0.588075 -0.289825
-0.056952 0.587397 -0.289794
-0.052607 0.587314 -0.289928
-0.048277 0.587525 -0.290142
-0.043960 0.588082 -0.290453
-0.039569 0.586861 -0.290276
-0.035300 0.588981 -0.291018
-0.030998 0.590650 -0.291638
-0.026679 0.592307 -0.292255
-0.022370 0.595380 -0.293265
-0.018010 0.596999 -0.293875
-0.013594 0.594389 -0.293318
-0.009178 0.586247 -0.291231
-0.004836 0.585307 -0.291135
-0.000495 0.585685 -0.291403
0.003883 0.589264 -0.292558
