ply
format ascii 1.0
comment ---
element vertex 1708
property float x
property float y
property float z
element face 0
property list uchar uint vertex_indices
end_header
0.714446 0.605759 -0.098938
0.718123 0.605183 -0.098841
0.721831 0.605070 -0.098814
0.725485 0.604301 -0.098689
0.729109 0.603256 -0.098524
0.733389 0.609404 -0.099431
0.737259 0.610724 -0.099620
0.741028 0.610909 -0.099640
0.744290 0.606294 -0.098947
0.747862 0.604849 -0.098726
0.751467 0.603781 -0.098562
0.755610 0.607236 -0.099073
0.759516 0.608519 -0.099261
0.763212 0.608072 -0.099193
0.767161 0.609512 -0.099406
0.770617 0.607298 -0.099077
0.773816 0.603424 -0.098501
0.778066 0.606816 -0.099008
0.781440 0.604288 -0.098635
0.784897 0.602406 -0.098359
0.788764 0.603110 -0.098469
0.792513 0.603046 -0.098467
0.796443 0.604004 -0.098617
0.800950 0.608122 -0.099240
0.804437 0.606406 -0.098995
0.806697 0.598205 -0.097785
0.809789 0.594703 -0.097277
0.813989 0.596962 -0.097628
0.817724 0.596774 -0.097617
0.821398 0.596267 -0.097559
0.825302 0.596828 -0.097662
0.830398 0.602837 -0.098578
0.834325 0.603264 -0.098664
0.837737 0.601351 -0.098403
0.841688 0.601809 -0.098498
0.845535 0.601768 -0.098520
0.848700 0.598855 -0.098115
0.852353 0.598000 -0.098018
0.856544 0.599278 -0.098242
0.860491 0.599507 -0.098312
0.865031 0.601957 -0.098715
0.868284 0.599422 -0.098376
0.871336 0.596193 -0.097934
0.875528 0.597160 -0.098122
0.879332 0.596666 -0.098094
0.883986 0.599109 -0.098507
0.888128 0.599653 -0.098639
0.892150 0.599723 -0.098702
0.896639 0.601287 -0.098991
0.899487 0.597385 -0.098463
0.903790 0.598228 -0.098649
0.908324 0.599718 -0.098934
0.910321 0.593226 -0.098023
0.914625 0.593932 -0.098195
0.919960 0.597658 -0.098824
0.924421 0.598623 -0.099040
0.927622 0.595829 -0.098693
0.931244 0.594269 -0.098534
0.935193 0.593622 -0.098515
0.939209 0.593122 -0.098520
0.943723 0.593944 -0.098727
0.947512 0.592728 -0.098628
0.951288 0.591454 -0.098523
0.956128 0.592952 -0.098839
0.960718 0.593708 -0.099044
0.964654 0.592720 -0.098988
0.969182 0.593196 -0.099155
0.972403 0.590369 -0.098822
0.976129 0.588803 -0.098682
0.980909 0.589780 -0.098929
0.985117 0.589326 -0.098960
0.990022 0.590482 -0.099236
0.994657 0.590944 -0.099408
0.998600 0.589783 -0.099332
1.003256 0.590235 -0.099501
1.007545 0.589835 -0.099540
1.011811 0.589380 -0.099569
1.016426 0.589682 -0.099713
1.020544 0.588908 -0.099689
1.025034 0.588946 -0.099788
1.029195 0.588304 -0.099779
1.032920 0.586793 -0.099632
1.038243 0.588608 -0.099992
1.041011 0.585255 -0.099554
1.046018 0.586489 -0.099815
1.050347 0.586405 -0.099867
1.055781 0.588539 -0.100254
1.060957 0.590191 -0.100561
1.065111 0.589930 -0.100565
1.068435 0.588185 -0.100333
1.072651 0.588230 -0.100368
0.180962 0.587835 -0.109895
0.185159 0.588151 -0.109881
0.189204 0.588811 -0.109913
0.192473 0.590852 -0.110165
0.196339 0.592010 -0.110259
0.200473 0.592811 -0.110285
0.205484 0.592194 -0.110067
0.209484 0.593364 -0.110137
0.213710 0.594211 -0.110146
0.218983 0.593275 -0.109853
0.223928 0.592933 -0.109652
0.228996 0.592388 -0.109413
0.233878 0.592186 -0.109226
0.238147 0.593116 -0.109222
0.242117 0.594628 -0.109309
0.246575 0.595250 -0.109248
0.251432 0.595115 -0.109059
0.256044 0.595433 -0.108944
0.260947 0.595167 -0.108732
0.265164 0.596222 -0.108736
0.270014 0.596006 -0.108531
0.274181 0.597128 -0.108546
0.278913 0.597079 -0.108370
0.284007 0.596235 -0.108066
0.288313 0.596978 -0.108021
0.292777 0.597352 -0.107918
0.297706 0.596683 -0.107648
0.302231 0.596823 -0.107511
0.306756 0.596912 -0.107369
0.311141 0.597259 -0.107270
0.315767 0.597010 -0.107078
0.319575 0.598574 -0.107180
0.324627 0.597226 -0.106817
0.329031 0.597309 -0.106686
0.333525 0.597120 -0.106515
0.338007 0.596891 -0.106340
0.342382 0.596863 -0.106201
0.346566 0.597245 -0.106130
0.350387 0.598497 -0.106201
0.355475 0.596481 -0.105753
0.360270 0.595110 -0.105412
0.364161 0.596021 -0.105437
0.368568 0.595523 -0.105240
0.372674 0.595768 -0.105165
0.376228 0.597484 -0.105326
0.380511 0.597159 -0.105166
0.385534 0.594673 -0.104666
0.389395 0.595399 -0.104677
0.393319 0.595913 -0.104658
0.397316 0.596172 -0.104601
0.400993 0.597352 -0.104692
0.404812 0.598083 -0.104714
0.409398 0.596407 -0.104359
0.413544 0.596014 -0.104209
0.417359 0.596624 -0.104219
0.420944 0.597961 -0.104346
0.425076 0.597480 -0.104189
0.429346 0.596467 -0.103951
0.433365 0.596242 -0.103838
0.437350 0.596082 -0.103738
0.441302 0.595990 -0.103651
0.445122 0.596335 -0.103634
0.448911 0.596764 -0.103632
0.452738 0.597026 -0.103605
0.456402 0.597885 -0.103674
0.460172 0.598324 -0.103679
0.463876 0.599007 -0.103723
0.467594 0.599620 -0.103759
0.471730 0.598492 -0.103523
0.475594 0.598431 -0.103456
0.479457 0.598338 -0.103386
0.483479 0.597501 -0.103201
0.487084 0.598479 -0.103300
0.491035 0.597872 -0.103154
0.494807 0.598049 -0.103131
0.498253 0.599780 -0.103351
0.502360 0.598290 -0.103071
0.506244 0.597826 -0.102952
0.510047 0.597735 -0.102893
0.513763 0.598071 -0.102900
0.517549 0.598014 -0.102848
0.521372 0.597718 -0.102760
0.525252 0.597042 -0.102614
0.529123 0.596361 -0.102468
0.532560 0.598271 -0.102725
0.535985 0.600346 -0.103009
0.539842 0.599709 -0.102872
0.543601 0.599663 -0.102828
0.547519 0.598487 -0.102610
0.551306 0.598152 -0.102523
0.554941 0.598892 -0.102603
0.558872 0.597378 -0.102335
0.562614 0.597240 -0.102281
0.566230 0.598121 -0.102385
0.569875 0.598795 -0.102457
0.573561 0.599124 -0.102478
0.577284 0.599120 -0.102447
0.581132 0.597853 -0.102221
0.584960 0.596639 -0.102004
0.588334 0.600239 -0.102532
0.591961 0.601288 -0.102666
0.595870 0.599007 -0.102286
0.599439 0.600810 -0.102537
0.603262 0.599326 -0.102282
0.607017 0.598618 -0.102146
0.610736 0.598350 -0.102079
0.614420 0.598593 -0.102092
0.618180 0.597457 -0.101892
0.621881 0.597249 -0.101836
0.625579 0.597060 -0.101783
0.629285 0.596579 -0.101686
0.632937 0.597477 -0.101801
0.636561 0.599576 -0.102103
0.640317 0.597186 -0.101712
0.644016 0.596441 -0.101576
0.647721 0.594813 -0.101304
0.651357 0.597849 -0.101752
0.655035 0.598687 -0.101861
0.658722 0.598722 -0.101846
0.662406 0.597887 -0.101699
0.666069 0.595402 -0.101297
0.669739 0.595428 -0.101283
0.673429 0.596599 -0.101445
0.677110 0.596889 -0.101473
0.680800 0.597421 -0.101538
0.684474 0.597279 -0.101499
0.688129 0.596665 -0.101389
0.691803 0.596631 -0.101369
0.695504 0.597210 -0.101443
0.699164 0.596872 -0.101377
0.702873 0.597465 -0.101455
0.706605 0.598346 -0.101577
0.710329 0.598962 -0.101659
0.714014 0.598917 -0.101641
0.717602 0.597563 -0.101422
0.721223 0.596767 -0.101289
0.725072 0.598791 -0.101590
0.728683 0.597884 -0.101442
0.732406 0.598251 -0.101490
0.735937 0.596603 -0.101230
0.739499 0.595394 -0.101037
0.743127 0.594884 -0.100953
0.746867 0.595413 -0.101030
0.750771 0.597295 -0.101315
0.754496 0.597518 -0.101346
0.757927 0.595371 -0.101014
0.761554 0.594855 -0.100934
0.765325 0.595424 -0.101021
0.769079 0.595808 -0.101081
0.772833 0.596140 -0.101134
0.776217 0.593952 -0.100801
0.779897 0.593792 -0.100781
0.783962 0.596034 -0.101131
0.787863 0.597121 -0.101305
0.791402 0.595966 -0.101135
0.794852 0.594330 -0.100893
0.798641 0.594658 -0.100954
0.802775 0.596825 -0.101299
0.806231 0.595237 -0.101069
0.810097 0.595823 -0.101174
0.814239 0.597742 -0.101485
0.817907 0.597195 -0.101419
0.821502 0.596282 -0.101299
0.825155 0.595648 -0.101222
0.828848 0.595184 -0.101174
0.832517 0.594597 -0.101108
0.836064 0.593460 -0.100960
0.840122 0.594537 -0.101154
0.844143 0.595371 -0.101313
0.847598 0.593778 -0.101099
0.851333 0.593346 -0.101067
0.855557 0.594834 -0.101332
0.860076 0.597370 -0.101761
0.863871 0.596991 -0.101743
0.867162 0.594684 -0.101430
0.870531 0.592697 -0.101168
0.875458 0.596381 -0.101783
0.878647 0.593700 -0.101418
0.882560 0.593591 -0.101452
0.886352 0.593020 -0.101418
0.890742 0.594431 -0.101692
0.895173 0.595878 -0.101974
0.898215 0.592692 -0.101542
0.901711 0.591011 -0.101345
0.906020 0.591897 -0.101548
0.910115 0.592033 -0.101637
0.914416 0.592736 -0.101817
0.918595 0.592995 -0.101930
0.923031 0.593946 -0.102154
0.927052 0.593600 -0.102179
0.931438 0.594257 -0.102362
0.935297 0.593346 -0.102304
0.939405 0.593096 -0.102351
0.943451 0.592626 -0.102366
0.947250 0.591446 -0.102273
0.951015 0.590152 -0.102164
0.956399 0.593086 -0.102717
0.960108 0.591551 -0.102574
0.964027 0.590544 -0.102516
0.968205 0.590161 -0.102557
0.972929 0.591093 -0.102805
0.977533 0.591657 -0.102998
0.981581 0.590823 -0.102972
0.985766 0.590295 -0.102995
0.990941 0.592065 -0.103381
0.994446 0.589888 -0.103145
0.999819 0.592004 -0.103586
1.003538 0.590311 -0.103426
1.007375 0.588905 -0.103310
1.011787 0.588780 -0.103395
1.016538 0.589386 -0.103593
1.022344 0.592234 -0.104145
1.026514 0.591556 -0.104135
1.030647 0.590828 -0.104115
1.034837 0.590254 -0.104115
1.039022 0.589710 -0.104114
1.043736 0.590279 -0.104286
1.048457 0.590894 -0.104459
1.051335 0.587911 -0.104053
1.056619 0.589743 -0.104406
1.061106 0.590065 -0.104512
1.065927 0.591090 -0.104722
1.069220 0.589289 -0.104473
1.071388 0.585509 -0.103899
0.179471 0.589944 -0.114366
0.182910 0.591496 -0.114565
0.186971 0.592145 -0.114598
0.190628 0.593560 -0.114750
0.195122 0.593683 -0.114671
0.200593 0.592231 -0.114311
0.206461 0.590135 -0.113833
0.210368 0.591431 -0.113927
0.213994 0.593295 -0.114110
0.219123 0.592593 -0.113847
0.224106 0.592169 -0.113625
0.228527 0.592773 -0.113573
0.233735 0.591979 -0.113278
0.237127 0.594515 -0.113545
0.241811 0.594711 -0.113410
0.247069 0.593826 -0.113089
0.251417 0.594646 -0.113054
0.256098 0.594825 -0.112910
0.260455 0.595618 -0.112868
0.265825 0.594406 -0.112487
0.270152 0.595215 -0.112446
0.274979 0.594998 -0.112234
0.279726 0.594898 -0.112041
0.284016 0.595700 -0.112001
0.288471 0.596128 -0.111900
0.293041 0.596273 -0.111753
0.297563 0.596475 -0.111617
0.302034 0.596738 -0.111494
0.306597 0.596750 -0.111331
0.310851 0.597398 -0.111277
0.314632 0.599074 -0.111395
0.319721 0.597734 -0.111016
0.323937 0.598328 -0.110960
0.328874 0.597181 -0.110619
0.333574 0.596507 -0.110360
0.338067 0.596256 -0.110173
0.342440 0.596233 -0.110028
0.346829 0.596110 -0.109869
0.350138 0.598648 -0.110152
0.353894 0.600056 -0.110250
0.359732 0.596039 -0.109461
0.363922 0.596188 -0.109359
0.367385 0.598225 -0.109570
0.371818 0.597634 -0.109352
0.375771 0.598292 -0.109343
0.379765 0.598797 -0.109311
0.384244 0.597889 -0.109051
0.388813 0.596639 -0.108738
0.392673 0.597367 -0.108751
0.396924 0.596909 -0.108573
0.400707 0.597792 -0.108617
0.404482 0.598678 -0.108663
0.408463 0.598901 -0.108604
0.413406 0.596044 -0.108047
0.417564 0.595565 -0.107879
0.420940 0.597576 -0.108117
0.425017 0.597282 -0.107984
0.428527 0.598848 -0.108155
0.432180 0.599934 -0.108249
0.437062 0.596712 -0.107649
0.440986 0.596744 -0.107577
0.444572 0.597962 -0.107699
0.448387 0.598337 -0.107687
0.452459 0.597718 -0.107517
0.456370 0.597652 -0.107437
0.460111 0.598213 -0.107461
0.463834 0.598829 -0.107495
0.467495 0.599684 -0.107569
0.471388 0.599573 -0.107489
0.475745 0.597456 -0.107088
0.479428 0.598135 -0.107138
0.483026 0.599178 -0.107249
0.486752 0.599660 -0.107271
0.490211 0.601363 -0.107490
0.494310 0.600087 -0.107232
0.498292 0.599283 -0.107052
0.502302 0.598273 -0.106840
0.506192 0.597796 -0.106714
0.509906 0.598176 -0.106728
0.513772 0.597736 -0.106611
0.517624 0.597315 -0.106498
0.521410 0.597220 -0.106439
0.524747 0.599693 -0.106792
0.528793 0.598056 -0.106487
0.532637 0.597532 -0.106362
0.536341 0.597835 -0.106371
0.540052 0.598087 -0.106372
0.543913 0.597318 -0.106211
0.547603 0.597661 -0.106228
0.551259 0.598245 -0.106285
0.555127 0.597274 -0.106094
0.558880 0.597086 -0.106029
0.562581 0.597280 -0.106026
0.566238 0.597834 -0.106081
0.569864 0.598677 -0.106183
0.573567 0.598871 -0.106182
0.577328 0.598507 -0.106092
0.581002 0.598948 -0.106132
0.584735 0.598791 -0.106076
0.588417 0.599160 -0.106106
0.592192 0.598465 -0.105966
0.595874 0.598805 -0.105992
0.599623 0.598287 -0.105881
0.603347 0.598037 -0.105814
0.607046 0.598075 -0.105793
0.610744 0.598120 -0.105774
0.614471 0.597645 -0.105673
0.618185 0.597297 -0.105592
0.621874 0.597374 -0.105580
0.625528 0.598216 -0.105689
0.629290 0.596504 -0.105393
0.632982 0.596286 -0.105335
0.636642 0.597046 -0.105433
0.640334 0.596748 -0.105364
0.644007 0.597248 -0.105421
0.647682 0.597833 -0.105493
0.651362 0.598324 -0.105550
0.655054 0.597731 -0.105435
0.658737 0.598054 -0.105466
0.662420 0.597536 -0.105364
0.666102 0.597458 -0.105333
0.669766 0.596108 -0.105100
0.673449 0.596616 -0.105163
0.677134 0.596996 -0.105205
0.680827 0.597577 -0.105281
0.684496 0.597192 -0.105203
0.688158 0.596714 -0.105111
0.691825 0.596494 -0.105061
0.695504 0.596557 -0.105057
0.699212 0.597207 -0.105145
0.702855 0.596525 -0.105024
0.706530 0.596493 -0.105006
0.710344 0.598627 -0.105332
0.714006 0.598246 -0.105260
0.717611 0.597135 -0.105073
0.721270 0.596825 -0.105014
0.724920 0.596434 -0.104943
0.728731 0.597909 -0.105168
0.732365 0.597292 -0.105062
0.735992 0.596655 -0.104954
0.739569 0.595568 -0.104776
0.743220 0.595255 -0.104721
0.747049 0.596552 -0.104923
0.750826 0.597270 -0.105033
0.754459 0.596718 -0.104943
0.758063 0.595962 -0.104822
0.761721 0.595652 -0.104773
0.765419 0.595629 -0.104770
0.769116 0.595585 -0.104765
0.772708 0.594787 -0.104642
0.776554 0.595721 -0.104794
0.779947 0.593630 -0.104468
0.783936 0.595384 -0.104753
0.787891 0.596803 -0.104986
0.791531 0.596244 -0.104906
0.795090 0.595218 -0.104755
0.798817 0.595158 -0.104757
0.802640 0.595597 -0.104841
0.806596 0.596689 -0.105029
0.810548 0.597669 -0.105201
0.814101 0.596546 -0.105042
0.817959 0.596952 -0.105126
0.821559 0.596053 -0.105005
0.824982 0.594325 -0.104754
0.828688 0.593940 -0.104719
0.832536 0.594178 -0.104783
0.836320 0.594081 -0.104797
0.840075 0.593818 -0.104786
0.844029 0.594370 -0.104906
0.847772 0.593981 -0.104879
0.851394 0.593073 -0.104772
0.855500 0.594083 -0.104972
0.859762 0.595616 -0.105256
0.863504 0.595053 -0.105210
0.867295 0.594649 -0.105192
0.871300 0.594999 -0.105295
0.875409 0.595663 -0.105452
0.878961 0.594274 -0.105283
0.882699 0.593531 -0.105220
0.886506 0.592997 -0.105192
0.891083 0.595028 -0.105576
0.894868 0.594310 -0.105524
0.898182 0.592027 -0.105225
0.902228 0.592108 -0.105306
0.906461 0.592723 -0.105474
0.910602 0.592976 -0.105588
0.914617 0.592776 -0.105631
0.918551 0.592287 -0.105631
0.923050 0.593423 -0.105894
0.927663 0.594797 -0.106199
0.931483 0.593799 -0.106125
0.934921 0.591696 -0.105876
0.939301 0.592217 -0.106051
0.943550 0.592307 -0.106160
0.947348 0.591119 -0.106065
0.951077 0.589725 -0.105939
0.956263 0.592133 -0.106428
0.960191 0.591170 -0.106376
0.964006 0.589893 -0.106275
0.968827 0.591127 -0.106582
0.973675 0.592344 -0.106888
0.978012 0.592233 -0.106980
0.982170 0.591648 -0.106997
0.986307 0.590990 -0.107003
0.990504 0.590453 -0.107029
0.995892 0.592648 -0.107499
0.999940 0.591698 -0.107458
1.004085 0.590970 -0.107453
1.008332 0.590465 -0.107482
1.013668 0.592350 -0.107900
1.018143 0.592312 -0.108003
1.022481 0.591982 -0.108056
1.027105 0.592271 -0.108206
1.031335 0.591742 -0.108219
1.036138 0.592428 -0.108427
1.040088 0.591387 -0.108347
1.043880 0.590087 -0.108219
1.048000 0.589513 -0.108203
1.052032 0.588833 -0.108163
1.056290 0.588666 -0.108200
1.061521 0.590446 -0.108549
1.066431 0.591652 -0.108796
1.069034 0.588557 -0.108326
1.073571 0.589227 -0.108465
0.173873 0.598658 -0.120035
0.179534 0.596665 -0.119613
0.184452 0.595943 -0.119404
0.190567 0.593314 -0.118846
0.200237 0.584772 -0.117233
0.201393 0.590498 -0.118132
0.204041 0.593861 -0.118604
0.210235 0.591247 -0.118010
0.214413 0.592135 -0.118027
0.218428 0.593372 -0.118097
0.223182 0.593357 -0.117939
0.227442 0.594257 -0.117936
0.231475 0.595608 -0.118007
0.234274 0.599272 -0.118477
0.241582 0.594639 -0.117491
0.247197 0.593081 -0.117040
0.251924 0.593168 -0.116876
0.255845 0.594795 -0.116977
0.260852 0.594323 -0.116711
0.265694 0.594140 -0.116495
0.270730 0.593534 -0.116206
0.275417 0.593582 -0.116031
0.279890 0.594030 -0.115925
0.284083 0.595027 -0.115915
0.288678 0.595161 -0.115758
0.293215 0.595373 -0.115615
0.297272 0.596570 -0.115644
0.301850 0.596609 -0.115476
0.305883 0.597797 -0.115507
0.311542 0.595326 -0.114913
0.315631 0.596288 -0.114911
0.319726 0.597203 -0.114903
0.324329 0.596902 -0.114690
0.328530 0.597479 -0.114631
0.332850 0.597728 -0.114518
0.337916 0.596117 -0.114091
0.342567 0.595423 -0.113825
0.346624 0.596125 -0.113799
0.351095 0.595741 -0.113592
0.354749 0.597379 -0.113731
0.359576 0.595962 -0.113355
0.363450 0.596951 -0.113390
0.367725 0.596841 -0.113242
0.371703 0.597477 -0.113224
0.375742 0.597906 -0.113173
0.379661 0.598625 -0.113174
0.383961 0.598235 -0.112991
0.388226 0.597878 -0.112817
0.392668 0.596941 -0.112548
0.396912 0.596507 -0.112367
0.400680 0.597441 -0.112419
0.404481 0.598252 -0.112452
0.408628 0.597965 -0.112304
0.412923 0.597152 -0.112071
0.417136 0.596526 -0.111871
0.420666 0.598065 -0.112037
0.424722 0.597859 -0.111912
0.428466 0.598655 -0.111958
0.432837 0.597279 -0.111643
0.436441 0.598493 -0.111763
0.440472 0.598188 -0.111632
0.444406 0.598183 -0.111553
0.448197 0.598661 -0.111556
0.452056 0.598864 -0.111515
0.456164 0.598078 -0.111312
0.460262 0.597264 -0.111107
0.464274 0.596717 -0.110948
0.467703 0.598484 -0.111175
0.471351 0.599379 -0.111259
0.475607 0.597701 -0.110917
0.478930 0.599951 -0.111229
0.482682 0.600367 -0.111238
0.486980 0.598303 -0.110838
0.490655 0.598986 -0.110894
0.494591 0.598439 -0.110749
0.498454 0.598189 -0.110653
0.502288 0.598037 -0.110576
0.506014 0.598395 -0.110584
0.509903 0.597887 -0.110451
0.513675 0.597956 -0.110414
0.517573 0.597306 -0.110259
0.521271 0.597717 -0.110281
0.525029 0.597779 -0.110246
0.528832 0.597543 -0.110163
0.532592 0.597532 -0.110119
0.536258 0.598088 -0.110169
0.540295 0.596244 -0.109824
0.544067 0.596028 -0.109749
0.547553 0.597753 -0.109994
0.551193 0.598475 -0.110075
0.555087 0.597328 -0.109849
0.558824 0.597285 -0.109806
0.562535 0.597417 -0.109792
0.566163 0.598232 -0.109891
0.569842 0.598648 -0.109926
0.573503 0.599238 -0.109989
0.577271 0.598842 -0.109892
0.581003 0.598736 -0.109842
0.584712 0.598849 -0.109830
0.588531 0.597734 -0.109616
0.592193 0.598283 -0.109676
0.595919 0.598102 -0.109617
0.599745 0.596569 -0.109337
0.603379 0.597455 -0.109454
0.607001 0.598619 -0.109617
0.610720 0.598400 -0.109554
0.614525 0.596630 -0.109237
0.618188 0.597175 -0.109301
0.621817 0.598504 -0.109493
0.625509 0.598629 -0.109489
0.629239 0.597815 -0.109331
0.632978 0.596493 -0.109090
0.636666 0.596381 -0.109049
0.640347 0.596492 -0.109044
0.644023 0.596843 -0.109079
0.647693 0.597678 -0.109194
0.651377 0.597957 -0.109218
0.655065 0.597906 -0.109189
0.658754 0.596611 -0.108957
0.662435 0.597135 -0.109022
0.666115 0.596916 -0.108967
0.669801 0.597355 -0.109020
0.673481 0.597275 -0.108989
0.677213 0.599605 -0.109352
0.680868 0.598217 -0.109108
0.684552 0.598181 -0.109085
0.688210 0.597424 -0.108946
0.691854 0.596507 -0.108781
0.695536 0.596590 -0.108779
0.699245 0.597224 -0.108869
0.702890 0.596546 -0.108745
0.706535 0.595987 -0.108641
0.710254 0.596643 -0.108736
0.713847 0.595374 -0.108517
0.717539 0.595594 -0.108543
0.721236 0.595852 -0.108575
0.725011 0.596996 -0.108753
0.728678 0.596770 -0.108708
0.732350 0.596609 -0.108674
0.735986 0.596082 -0.108582
0.739664 0.595994 -0.108562
0.743378 0.596226 -0.108595
0.747148 0.596930 -0.108706
0.750817 0.596684 -0.108664
0.754448 0.596129 -0.108572
0.758279 0.597181 -0.108743
0.761934 0.596779 -0.108678
0.765537 0.596008 -0.108554
0.769132 0.595203 -0.108425
0.773041 0.596593 -0.108656
0.776639 0.595789 -0.108530
0.780251 0.595100 -0.108425
0.784161 0.596300 -0.108629
0.788176 0.598046 -0.108923
0.791677 0.596609 -0.108699
0.795203 0.595365 -0.108509
0.798971 0.595517 -0.108547
0.802845 0.596212 -0.108676
0.806724 0.596864 -0.108799
0.810256 0.595644 -0.108619
0.814158 0.596327 -0.108751
0.817839 0.595845 -0.108694
0.821597 0.595725 -0.108698
0.825099 0.594360 -0.108501
0.828866 0.594243 -0.108509
0.832717 0.594473 -0.108576
0.836830 0.595805 -0.108825
0.840412 0.594749 -0.108686
0.843930 0.593422 -0.108505
0.847696 0.593137 -0.108496
0.851627 0.593483 -0.108592
0.856384 0.597062 -0.109220
0.859661 0.594681 -0.108875
0.863299 0.593722 -0.108764
0.867115 0.593426 -0.108765
0.871601 0.595555 -0.109165
0.875578 0.595717 -0.109246
0.879458 0.595480 -0.109263
0.883183 0.594658 -0.109188
0.887007 0.594150 -0.109166
0.890575 0.592748 -0.108999
0.894778 0.593439 -0.109180
0.898855 0.593643 -0.109283
0.902956 0.593861 -0.109391
0.906450 0.592105 -0.109177
0.910812 0.593041 -0.109409
0.914780 0.592686 -0.109431
0.919156 0.593510 -0.109650
0.923215 0.593315 -0.109705
0.928258 0.595928 -0.110226
0.931204 0.592401 -0.109734
0.935704 0.593302 -0.109978
0.939642 0.592559 -0.109952
0.943808 0.592404 -0.110026
0.947624 0.591254 -0.109938
0.951747 0.590895 -0.109983
0.956833 0.593014 -0.110442
0.961452 0.593811 -0.110684
0.964864 0.591465 -0.110406
0.969478 0.592148 -0.110633
0.973673 0.591725 -0.110678
0.977955 0.591483 -0.110754
0.982248 0.591228 -0.110829
0.986328 0.590434 -0.110815
0.991365 0.591864 -0.111174
0.996173 0.592696 -0.111433
1.000170 0.591630 -0.111374
1.005544 0.593664 -0.111834
1.010053 0.593706 -0.111960
1.013814 0.592094 -0.111805
1.018036 0.591513 -0.111822
1.022357 0.591160 -0.111874
1.026787 0.591051 -0.111964
1.031635 0.591832 -0.112200
1.036294 0.592228 -0.112367
1.039736 0.590161 -0.112112
1.043571 0.588972 -0.112000
1.047549 0.588138 -0.111940
1.051738 0.587794 -0.111956
1.055445 0.586579 -0.111817
1.062304 0.591532 -0.112715
1.065693 0.589838 -0.112477
1.069628 0.589292 -0.112424
1.074641 0.590862 -0.112720
0.182003 0.585291 -0.121767
0.182486 0.591562 -0.122844
0.186087 0.592933 -0.123012
0.195765 0.584368 -0.121358
0.204486 0.577310 -0.119968
0.209382 0.576639 -0.119732
0.208324 0.586160 -0.121341
0.208270 0.594210 -0.122669
0.213441 0.593391 -0.122375
0.218373 0.593018 -0.122155
0.222894 0.593404 -0.122065
0.227260 0.594106 -0.122026
0.231254 0.595520 -0.122109
0.234526 0.598306 -0.122434
0.235340 0.605727 -0.123589
0.235875 0.613845 -0.124863
0.242892 0.609819 -0.123947
0.249207 0.607035 -0.123254
0.252425 0.610194 -0.123626
0.257994 0.608773 -0.123176
0.264566 0.605285 -0.122357
0.268106 0.607796 -0.122611
0.273837 0.605854 -0.122070
0.279529 0.603902 -0.121530
0.285844 0.600549 -0.120743
0.289188 0.603367 -0.121055
0.293990 0.603072 -0.120815
0.299103 0.602041 -0.120448
0.304820 0.599596 -0.119834
0.309336 0.599711 -0.119676
0.312657 0.602477 -0.119988
0.319887 0.596297 -0.118727
0.324264 0.596520 -0.118597
0.328558 0.596883 -0.118496
0.332443 0.598173 -0.118560
0.336805 0.598284 -0.118420
0.342546 0.594958 -0.117682
0.346518 0.595876 -0.117690
0.350852 0.595848 -0.117537
0.355848 0.594068 -0.117081
0.360006 0.594349 -0.116988
0.363661 0.595903 -0.117121
0.367809 0.596131 -0.117025
0.371783 0.596778 -0.117006
0.375526 0.598021 -0.117093
0.380018 0.597159 -0.116818
0.383926 0.597865 -0.116818
0.387805 0.598626 -0.116830
0.392645 0.596552 -0.116354
0.396649 0.596835 -0.116290
0.400988 0.596068 -0.116047
0.404658 0.597271 -0.116148
0.408867 0.596788 -0.115960
0.413010 0.596446 -0.115799
0.416764 0.597295 -0.115846
0.420743 0.597392 -0.115767
0.424633 0.597739 -0.115732
0.429376 0.595174 -0.115200
0.433707 0.593889 -0.114891
0.437179 0.595515 -0.115084
0.440366 0.598173 -0.115456
0.444284 0.598235 -0.115384
0.448187 0.598312 -0.115318
0.451923 0.598983 -0.115355
0.455926 0.598616 -0.115217
0.460239 0.596982 -0.114864
0.464215 0.596588 -0.114725
0.468011 0.596874 -0.114705
0.471796 0.597178 -0.114689
0.475554 0.597574 -0.114691
0.479110 0.598823 -0.114840
0.483243 0.597545 -0.114559
0.487077 0.597529 -0.114496
0.490847 0.597768 -0.114478
0.494715 0.597525 -0.114379
0.498708 0.596637 -0.114171
0.502278 0.597765 -0.114309
0.506199 0.597142 -0.114150
0.509865 0.597779 -0.114206
0.513729 0.597365 -0.114085
0.517506 0.597374 -0.114038
0.521485 0.596222 -0.113794
0.525330 0.595748 -0.113667
0.529134 0.595466 -0.113573
0.532747 0.596308 -0.113672
0.536469 0.596487 -0.113659
0.540440 0.595030 -0.113370
0.544082 0.595661 -0.113435
0.547760 0.596062 -0.113463
0.551291 0.597512 -0.113669
0.555135 0.596723 -0.113497
0.558806 0.597180 -0.113537
0.562386 0.598373 -0.113702
0.566322 0.596683 -0.113380
0.569845 0.598395 -0.113634
0.573515 0.598904 -0.113686
0.577265 0.598686 -0.113615
0.581047 0.598099 -0.113483
0.584766 0.598090 -0.113449
0.588516 0.597713 -0.113354
0.592267 0.597259 -0.113246
0.595966 0.597366 -0.113234
0.599706 0.596915 -0.113128
0.603402 0.597000 -0.113114
0.607072 0.597447 -0.113161
0.610862 0.596043 -0.112896
0.614579 0.595617 -0.112797
0.618212 0.596661 -0.112946
0.621845 0.597875 -0.113125
0.625554 0.597615 -0.113055
0.629302 0.596252 -0.112801
0.632999 0.595959 -0.112727
0.636696 0.595557 -0.112635
0.640372 0.595754 -0.112645
0.644050 0.595892 -0.112645
0.647721 0.596511 -0.112727
0.651402 0.596690 -0.112735
0.655088 0.596240 -0.112638
0.658768 0.596610 -0.112680
0.662448 0.596306 -0.112609
0.666128 0.596373 -0.112600
0.669808 0.596383 -0.112583
0.673505 0.597466 -0.112747
0.677186 0.597331 -0.112706
0.680867 0.597278 -0.112680
0.684555 0.597436 -0.112690
0.688233 0.597289 -0.112649
0.691894 0.596751 -0.112543
0.695597 0.597266 -0.112615
0.699298 0.597611 -0.112659
0.702925 0.596566 -0.112470
0.706617 0.596755 -0.112489
0.710178 0.594872 -0.112161
0.714047 0.597695 -0.112624
0.717546 0.595122 -0.112181
0.721298 0.596077 -0.112333
0.725006 0.596384 -0.112375
0.728636 0.595751 -0.112261
0.732279 0.595308 -0.112180
0.735987 0.595554 -0.112215
0.739695 0.595768 -0.112246
0.743476 0.596620 -0.112386
0.747168 0.596595 -0.112378
0.750745 0.595550 -0.112201
0.754377 0.595029 -0.112113
0.758192 0.595970 -0.112271
0.761935 0.596275 -0.112324
0.765514 0.595327 -0.112167
0.769200 0.595179 -0.112147
0.772946 0.595426 -0.112193
0.776743 0.595978 -0.112293
0.780350 0.595236 -0.112176
0.784043 0.595049 -0.112154
0.788028 0.596628 -0.112430
0.791558 0.595394 -0.112235
0.794937 0.593319 -0.111900
0.799015 0.595251 -0.112240
0.802875 0.595859 -0.112360
0.806735 0.596402 -0.112470
0.810585 0.596828 -0.112562
0.814117 0.595596 -0.112377
0.817857 0.595408 -0.112369
0.821612 0.595267 -0.112372
0.825647 0.596416 -0.112593
0.829441 0.596363 -0.112614
0.833061 0.595489 -0.112499
0.836867 0.595431 -0.112523
0.840420 0.594243 -0.112359
0.843733 0.592048 -0.112027
0.847611 0.592240 -0.112100
0.851585 0.592764 -0.112231
0.855496 0.592978 -0.112312
0.860054 0.595655 -0.112812
0.862943 0.591803 -0.112211
0.867028 0.592534 -0.112387
0.871788 0.595677 -0.112973
0.875624 0.595315 -0.112970
0.879367 0.594581 -0.112906
0.883295 0.594470 -0.112950
0.887371 0.594815 -0.113074
0.890524 0.591990 -0.112664
0.894668 0.592488 -0.112820
0.898749 0.592707 -0.112931
0.902318 0.591226 -0.112757
0.906392 0.591326 -0.112853
0.910256 0.590718 -0.112832
0.915553 0.594434 -0.113549
0.919186 0.592991 -0.113393
0.923286 0.592912 -0.113470
0.927832 0.594073 -0.113763
0.932154 0.594501 -0.113933
0.936032 0.593605 -0.113880
0.940123 0.593271 -0.113926
0.943854 0.591904 -0.113799
0.947340 0.589864 -0.113558
0.952548 0.592393 -0.114101
0.957096 0.593071 -0.114331
0.961322 0.592844 -0.114408
0.965467 0.592366 -0.114444
0.969475 0.591510 -0.114416
0.973848 0.591528 -0.114541
0.977526 0.589808 -0.114368
0.981693 0.589268 -0.114399
0.986798 0.590925 -0.114809
0.991807 0.592279 -0.115168
0.996366 0.592525 -0.115337
1.000717 0.592264 -0.115418
1.005090 0.592035 -0.115503
1.009607 0.592117 -0.115641
1.014295 0.592557 -0.115839
1.017815 0.590456 -0.115595
1.021946 0.589713 -0.115582
1.026883 0.590696 -0.115866
1.031017 0.589997 -0.115853
1.035181 0.589400 -0.115853
1.039291 0.588739 -0.115836
1.043340 0.588008 -0.115800
1.047757 0.588070 -0.115896
1.051695 0.587246 -0.115829
1.057663 0.590453 -0.116457
1.062210 0.590923 -0.116599
1.065200 0.588491 -0.116225
1.068729 0.587210 -0.116041
1.071797 0.585185 -0.115717
0.182435 0.584308 -0.125687
0.192616 0.574819 -0.123837
0.194561 0.578727 -0.124490
0.203803 0.570732 -0.122898
0.210998 0.566078 -0.121921
0.213086 0.570012 -0.122545
0.209455 0.583829 -0.125006
0.206007 0.597675 -0.127458
0.212609 0.594393 -0.126696
0.217416 0.594241 -0.126510
0.223532 0.591798 -0.125890
0.227780 0.592686 -0.125884
0.228667 0.599716 -0.127014
0.233001 0.600593 -0.126992
0.235166 0.605524 -0.127717
0.237163 0.610884 -0.128516
0.242016 0.610937 -0.128327
0.247575 0.609621 -0.127883
0.253698 0.607159 -0.127227
0.265999 0.592449 -0.124314
0.267354 0.599164 -0.125350
0.272759 0.597842 -0.124907
0.275550 0.601788 -0.125431
0.278530 0.605399 -0.125892
0.283584 0.604714 -0.125568
0.289396 0.602358 -0.124940
0.293288 0.604011 -0.125047
0.297143 0.605738 -0.125169
0.298343 0.613298 -0.126354
0.303370 0.612464 -0.126013
0.310199 0.607474 -0.124921
0.316236 0.604108 -0.124129
0.321021 0.603499 -0.123841
0.328907 0.595519 -0.122223
0.332934 0.596462 -0.122224
0.337386 0.596344 -0.122037
0.342290 0.595056 -0.121643
0.346234 0.596057 -0.121664
0.348725 0.600683 -0.122340
0.351532 0.604575 -0.122886
0.355597 0.605259 -0.122859
0.361790 0.600313 -0.121826
0.365389 0.602080 -0.122000
0.369032 0.603722 -0.122155
0.372441 0.605996 -0.122425
0.375743 0.608579 -0.122754
0.379410 0.610155 -0.122905
0.387015 0.600417 -0.121043
0.390930 0.601078 -0.121038
0.394664 0.602247 -0.121127
0.398911 0.601853 -0.120941
0.404626 0.596915 -0.119951
0.408219 0.598349 -0.120096
0.412479 0.597679 -0.119871
0.416747 0.596913 -0.119631
0.420458 0.597887 -0.119703
0.424243 0.598604 -0.119732
0.428814 0.596647 -0.119290
0.432646 0.597115 -0.119280
0.437042 0.595584 -0.118919
0.440473 0.597384 -0.119149
0.444111 0.598458 -0.119253
0.448079 0.598313 -0.119144
0.451988 0.598345 -0.119068
0.455927 0.598223 -0.118968
0.460086 0.597200 -0.118711
0.464142 0.596506 -0.118515
0.468068 0.596270 -0.118401
0.471775 0.596898 -0.118440
0.475471 0.597563 -0.118489
0.479384 0.597284 -0.118373
0.483380 0.596589 -0.118186
0.487100 0.597075 -0.118208
0.490783 0.597724 -0.118260
0.495077 0.595484 -0.117807
0.498712 0.596289 -0.117890
0.502682 0.595440 -0.117685
0.506218 0.596720 -0.117853
0.509932 0.597115 -0.117869
0.513667 0.597383 -0.117863
0.517597 0.596570 -0.117669
0.521601 0.595264 -0.117391
0.525450 0.594759 -0.117255
0.529331 0.593999 -0.117075
0.533012 0.594395 -0.117098
0.536886 0.593572 -0.116909
0.540378 0.595157 -0.117142
0.543977 0.596093 -0.117262
0.547814 0.595419 -0.117103
0.551665 0.594575 -0.116915
0.555093 0.596780 -0.117259
0.558750 0.597365 -0.117322
0.562270 0.599059 -0.117578
0.566479 0.595136 -0.116858
0.569833 0.598273 -0.117368
0.573547 0.598394 -0.117353
0.577452 0.596704 -0.117024
0.581045 0.597917 -0.117201
0.584833 0.597194 -0.117042
0.588714 0.595365 -0.116692
0.592307 0.596619 -0.116878
0.595927 0.597663 -0.117028
0.599727 0.596495 -0.116794
0.603517 0.595272 -0.116552
0.607243 0.594811 -0.116443
0.610919 0.595024 -0.116451
0.614584 0.595446 -0.116496
0.618272 0.595475 -0.116474
0.622136 0.591913 -0.115830
0.625782 0.592466 -0.115899
0.629324 0.595737 -0.116441
0.633060 0.594286 -0.116164
0.636512 0.601794 -0.117441
0.640399 0.594918 -0.116226
0.644073 0.595156 -0.116243
0.647730 0.596569 -0.116465
0.651411 0.596876 -0.116496
0.655100 0.596416 -0.116395
0.658782 0.596734 -0.116429
0.662465 0.596433 -0.116356
0.666139 0.595487 -0.116173
0.669797 0.593934 -0.115885
0.673510 0.596522 -0.116314
0.677196 0.596747 -0.116335
0.680853 0.595817 -0.116157
0.684471 0.593909 -0.115810
0.688219 0.596138 -0.116179
0.691946 0.597299 -0.116365
0.695649 0.597702 -0.116420
0.699301 0.597013 -0.116286
0.702955 0.596459 -0.116177
0.706503 0.594222 -0.115778
0.710288 0.595971 -0.116069
0.713914 0.595172 -0.115920
0.717656 0.596042 -0.116061
0.721434 0.597249 -0.116260
0.725053 0.596390 -0.116103
0.728628 0.595106 -0.115874
0.732233 0.594269 -0.115723
0.735892 0.594038 -0.115678
0.739846 0.596705 -0.116134
0.743557 0.596847 -0.116156
0.747137 0.595784 -0.115970
0.750729 0.594885 -0.115813
0.754322 0.594043 -0.115668
0.758165 0.595232 -0.115875
0.761891 0.595417 -0.115909
0.765522 0.594865 -0.115817
0.769167 0.594418 -0.115745
0.772805 0.593935 -0.115668
0.776795 0.595802 -0.115999
0.780523 0.595835 -0.116013
0.784010 0.594322 -0.115763
0.787780 0.594593 -0.115822
0.791478 0.594390 -0.115801
0.795371 0.595296 -0.115973
0.799176 0.595625 -0.116047
0.802899 0.595461 -0.116037
0.806866 0.596567 -0.116249
0.810563 0.596182 -0.116205
0.814243 0.595697 -0.116145
0.817956 0.595361 -0.116113
0.821828 0.595770 -0.116212
0.825909 0.597105 -0.116474
0.829772 0.597342 -0.116547
0.833345 0.596218 -0.116387
0.836451 0.593046 -0.115874
0.839976 0.591774 -0.115693
0.843755 0.591586 -0.115701
0.847669 0.591917 -0.115802
0.851646 0.592452 -0.115940
0.855907 0.594042 -0.116264
0.859996 0.594858 -0.116457
0.862927 0.591170 -0.115870
0.867987 0.595553 -0.116687
0.871138 0.592702 -0.116250
0.875691 0.594970 -0.116706
0.878796 0.591965 -0.116248
0.882879 0.592428 -0.116395
0.886858 0.592464 -0.116471
0.892163 0.596906 -0.117317
0.895631 0.595067 -0.117073
0.898493 0.591265 -0.116488
0.902132 0.590019 -0.116352
0.906087 0.589752 -0.116390
0.910868 0.591992 -0.116868
0.915318 0.593097 -0.117152
0.919625 0.593681 -0.117348
0.923990 0.594360 -0.117564
0.927966 0.593828 -0.117570
0.931847 0.592985 -0.117525
0.935741 0.592149 -0.117484
0.939860 0.591900 -0.117549
0.943858 0.591273 -0.117550
0.948356 0.591955 -0.117785
0.951989 0.590266 -0.117604
0.956332 0.590427 -0.117751
0.961210 0.591907 -0.118134
0.965252 0.591172 -0.118128
0.969625 0.591237 -0.118266
0.973771 0.590693 -0.118297
0.978504 0.591546 -0.118577
0.982376 0.590267 -0.118481
0.988492 0.594302 -0.119328
0.993245 0.595005 -0.119585
0.997239 0.593908 -0.119522
1.000831 0.591898 -0.119297
1.004927 0.591050 -0.119277
1.010397 0.593257 -0.119799
1.016812 0.597468 -0.120678
1.020954 0.596654 -0.120659
1.026059 0.597917 -0.121007
1.035123 0.607512 -0.122842
1.041675 0.611659 -0.123700
1.045521 0.610159 -0.123542
1.041744 0.593209 -0.120607
1.043853 0.588533 -0.119864
1.048632 0.589324 -0.120093
1.053509 0.590345 -0.120356
1.058258 0.591159 -0.120573
1.062116 0.590310 -0.120482
1.065520 0.588692 -0.120242
1.068527 0.586444 -0.119878
1.073591 0.588170 -0.120217
0.185486 0.579122 -0.128788
0.188549 0.581110 -0.129105
0.206528 0.565888 -0.125993
0.214252 0.560289 -0.124809
0.214110 0.567905 -0.126161
0.207093 0.587441 -0.129796
0.207681 0.594363 -0.130987
0.212236 0.594591 -0.130878
0.216680 0.595067 -0.130808
0.223110 0.592068 -0.130064
0.227209 0.593216 -0.130107
0.227112 0.602026 -0.131609
0.232468 0.601046 -0.131231
0.238770 0.598297 -0.130511
0.243632 0.598191 -0.130292
0.246223 0.602390 -0.130888
0.251437 0.601636 -0.130539
0.260561 0.593245 -0.128739
0.276264 0.571688 -0.124449
0.277711 0.577967 -0.125435
0.275251 0.592244 -0.127930
0.277534 0.597157 -0.128651
0.279717 0.602362 -0.129425
0.283638 0.604015 -0.129529
0.286571 0.607759 -0.130028
0.293170 0.603681 -0.129058
0.297738 0.603860 -0.128891
0.301457 0.605858 -0.129067
0.303713 0.611114 -0.129854
0.309868 0.607644 -0.129012
0.317038 0.601701 -0.127715
0.323099 0.598110 -0.126862
0.328313 0.596355 -0.126355
0.332987 0.595781 -0.126071
0.337603 0.595268 -0.125803
0.342275 0.594545 -0.125500
0.345596 0.597098 -0.125807
0.352640 0.590291 -0.124386
0.352179 0.602386 -0.126462
0.357517 0.599757 -0.125821
0.361323 0.601017 -0.125901
0.363227 0.607318 -0.126912
0.368087 0.605760 -0.126479
0.375103 0.598182 -0.124945
0.378350 0.600815 -0.125291
0.380920 0.605384 -0.125994
0.385229 0.605049 -0.125801
0.389975 0.603376 -0.125367
0.394542 0.602125 -0.125013
0.399991 0.598132 -0.124162
0.404290 0.597472 -0.123924
0.407662 0.599617 -0.124201
0.408932 0.608405 -0.125692
0.412675 0.609511 -0.125783
0.416859 0.609169 -0.125614
0.421891 0.605960 -0.124926
0.426851 0.602831 -0.124257
0.431026 0.602242 -0.124052
0.434401 0.604379 -0.124345
0.436973 0.609403 -0.125163
0.443796 0.599186 -0.123221
0.448080 0.597903 -0.122901
0.452323 0.596686 -0.122596
0.456052 0.597349 -0.122634
0.459794 0.597948 -0.122662
0.463856 0.597257 -0.122460
0.466014 0.604225 -0.123642
0.470372 0.602332 -0.123227
0.474771 0.600152 -0.122761
0.478415 0.601103 -0.122863
0.481013 0.606670 -0.123798
0.484482 0.608528 -0.124066
0.487948 0.610442 -0.124345
0.494415 0.598260 -0.122089
0.498331 0.597784 -0.121942
0.497855 0.618976 -0.125695
0.503441 0.610461 -0.124104
0.507514 0.609350 -0.123847
0.512136 0.605223 -0.123050
0.517031 0.599348 -0.121942
0.520509 0.601093 -0.122203
0.523904 0.603383 -0.122563
0.528217 0.600323 -0.121964
0.532136 0.599459 -0.121761
0.535000 0.605170 -0.122738
0.538999 0.603833 -0.122452
0.542430 0.606198 -0.122830
0.546504 0.604226 -0.122433
0.550270 0.604308 -0.122405
0.554620 0.600033 -0.121598
0.558490 0.599113 -0.121393
0.562262 0.598876 -0.121311
0.566001 0.598872 -0.121271
0.569854 0.597851 -0.121051
0.573576 0.597906 -0.121024
0.577360 0.597349 -0.120888
0.581147 0.596691 -0.120735
0.584978 0.595492 -0.120487
0.588464 0.597900 -0.120883
0.591520 0.605486 -0.122204
0.595530 0.602319 -0.121606
0.599445 0.599965 -0.121155
0.603094 0.600940 -0.121298
0.606640 0.603536 -0.121730
0.610429 0.602655 -0.121543
0.614096 0.603695 -0.121700
0.617776 0.604633 -0.121839
0.621857 0.597547 -0.120548
0.625490 0.599039 -0.120787
0.629083 0.601857 -0.121262
0.632782 0.602360 -0.121326
0.636564 0.600211 -0.120918
0.640370 0.596317 -0.120200
0.644046 0.596857 -0.120273
0.647714 0.598174 -0.120484
0.651404 0.598540 -0.120526
0.655103 0.597966 -0.120402
0.658795 0.597548 -0.120306
0.662483 0.596960 -0.120181
0.666159 0.595701 -0.119937
0.669901 0.600780 -0.120820
0.673571 0.598841 -0.120456
0.677313 0.601040 -0.120829
0.681030 0.601546 -0.120901
0.684558 0.595853 -0.119873
0.688284 0.597152 -0.120088
0.692010 0.598133 -0.120247
0.695658 0.597213 -0.120068
0.699299 0.596294 -0.119891
0.702918 0.595143 -0.119674
0.706540 0.594207 -0.119495
0.710239 0.594594 -0.119553
0.713972 0.595411 -0.119687
0.717742 0.596621 -0.119892
0.721519 0.597747 -0.120083
0.725342 0.599291 -0.120350
0.728908 0.597729 -0.120066
0.732352 0.594995 -0.119574
0.736017 0.594776 -0.119531
0.740216 0.599782 -0.120416
0.743912 0.599628 -0.120386
0.747238 0.596146 -0.119766
0.750808 0.595031 -0.119568
0.754736 0.596931 -0.119906
0.758297 0.595752 -0.119699
0.762109 0.596549 -0.119844
0.765861 0.596830 -0.119899
0.769461 0.595987 -0.119755
0.773084 0.595326 -0.119646
0.777226 0.598150 -0.120156
0.780722 0.596587 -0.119889
0.784455 0.596578 -0.119900
0.788111 0.596074 -0.119824
0.792068 0.597347 -0.120066
0.795705 0.596680 -0.119964
0.799608 0.597505 -0.120130
0.803300 0.597105 -0.120079
0.806778 0.595552 -0.119826
0.810387 0.594725 -0.119703
0.814375 0.595816 -0.119924
0.818155 0.595790 -0.119947
0.822004 0.596062 -0.120026
0.825890 0.596461 -0.120130
0.829955 0.597622 -0.120371
0.833894 0.598125 -0.120498
0.837583 0.597467 -0.120420
0.840854 0.594990 -0.120021
0.845661 0.599058 -0.120790
0.849401 0.598504 -0.120738
0.852478 0.595241 -0.120205
0.857147 0.598381 -0.120817
0.861070 0.598451 -0.120884
0.864871 0.598004 -0.120861
0.867884 0.594572 -0.120308
0.871161 0.592189 -0.119945
0.877068 0.599338 -0.121288
0.880929 0.598924 -0.121282
0.884090 0.596036 -0.120837
0.889597 0.601218 -0.121839
0.893057 0.599291 -0.121572
0.896860 0.598505 -0.121512
0.899904 0.595227 -0.121007
0.904510 0.596991 -0.121410
0.909360 0.599406 -0.121934
0.912439 0.596214 -0.121454
0.917181 0.598123 -0.121893
0.925465 0.610516 -0.124223
0.924847 0.596236 -0.121756
0.928332 0.594240 -0.121502
0.931695 0.591900 -0.121188
0.935886 0.591899 -0.121299
0.940301 0.592464 -0.121516
0.943517 0.589684 -0.121131
0.957376 0.615546 -0.125930
0.955653 0.599311 -0.123116
0.959244 0.597368 -0.122891
0.963923 0.598227 -0.123175
0.967650 0.596595 -0.123010
0.974276 0.602210 -0.124164
0.978183 0.600915 -0.124064
0.981089 0.597175 -0.123520
0.984439 0.594560 -0.123181
0.990933 0.599422 -0.124206
0.996103 0.601025 -0.124638
0.998933 0.597165 -0.124072
1.000553 0.590626 -0.123014
1.004079 0.588515 -0.122764
1.009886 0.591500 -0.123445
1.016745 0.596702 -0.124533
1.020545 0.595162 -0.124381
1.025889 0.596957 -0.124838
1.031821 0.599962 -0.125514
1.038594 0.604662 -0.126498
1.040372 0.598997 -0.125568
1.045900 0.601129 -0.126067
1.043911 0.588137 -0.123769
1.050070 0.591688 -0.124514
1.054255 0.591336 -0.124531
1.058326 0.590835 -0.124510
1.062197 0.590033 -0.124424
1.066333 0.589831 -0.124438
1.069769 0.588398 -0.124213
1.073509 0.587653 -0.124104
0.149971 0.635887 -0.144143
0.193814 0.572273 -0.131439
0.192950 0.580712 -0.133035
0.205437 0.567348 -0.130290
0.216531 0.556130 -0.127962
0.210784 0.573122 -0.131211
0.207627 0.586120 -0.133653
0.207699 0.593897 -0.135048
0.212641 0.593434 -0.134801
0.217412 0.593311 -0.134612
0.221661 0.594152 -0.134604
0.226807 0.593434 -0.134281
0.229354 0.597438 -0.134880
0.233736 0.598188 -0.134832
0.240983 0.593651 -0.133741
0.248169 0.589128 -0.132651
0.250251 0.594180 -0.133433
0.256539 0.591268 -0.132654
0.262382 0.589135 -0.132026
0.274079 0.575419 -0.129142
0.278509 0.575806 -0.129008
0.278209 0.585698 -0.130719
0.280443 0.590634 -0.131464
0.282495 0.596029 -0.132296
0.285066 0.600432 -0.132934
0.288193 0.603722 -0.133358
0.294625 0.599963 -0.132422
0.299871 0.598630 -0.131958
0.303180 0.601472 -0.132299
0.306837 0.603555 -0.132497
0.312363 0.601417 -0.131887
0.319042 0.596530 -0.130755
0.323428 0.596768 -0.130609
0.328606 0.595092 -0.130102
0.332540 0.596272 -0.130143
0.336371 0.597676 -0.130230
0.340338 0.598722 -0.130252
0.345665 0.596369 -0.129631
0.348314 0.600623 -0.130270
0.357849 0.587375 -0.127591
0.360679 0.591034 -0.128124
0.361449 0.600144 -0.129692
0.364995 0.602075 -0.129902
0.369689 0.600901 -0.129529
0.374788 0.598526 -0.128933
0.379016 0.598446 -0.128775
0.382836 0.599460 -0.128826
0.386274 0.601545 -0.129082
0.389820 0.603324 -0.129283
0.394859 0.600694 -0.128659
0.399974 0.597697 -0.127971
0.404887 0.595172 -0.127374
0.409612 0.593096 -0.126867
0.413456 0.593675 -0.126860
0.414328 0.603749 -0.128632
0.418480 0.603426 -0.128461
0.421356 0.607272 -0.129071
0.425796 0.605936 -0.128716
0.429456 0.607181 -0.128846
0.433679 0.606459 -0.128612
0.439358 0.600496 -0.127404
0.442765 0.602489 -0.127682
0.447958 0.597935 -0.126743
0.452373 0.596086 -0.126311
0.455237 0.600059 -0.126964
0.459732 0.597788 -0.126458
0.463476 0.598372 -0.126485
0.466874 0.600345 -0.126772
0.470444 0.601646 -0.126937
0.474102 0.602598 -0.127038
0.477471 0.604800 -0.127373
0.480384 0.609071 -0.128092
0.484526 0.607960 -0.127816
0.489118 0.604689 -0.127144
0.493735 0.601112 -0.126417
0.496783 0.604910 -0.127055
0.499882 0.608600 -0.127674
0.505180 0.601310 -0.126267
0.507073 0.611300 -0.128052
0.510993 0.610976 -0.127934
0.516291 0.603071 -0.126420
0.520271 0.602111 -0.126189
0.524063 0.602146 -0.126142
0.527885 0.601986 -0.126061
0.531769 0.601403 -0.125903
0.535456 0.602000 -0.125964
0.538571 0.606322 -0.126712
0.542242 0.607166 -0.126820
0.546167 0.606278 -0.126611
0.550201 0.604523 -0.126244
0.554527 0.600451 -0.125452
0.558169 0.601317 -0.125569
0.561680 0.603269 -0.125886
0.566053 0.598188 -0.124913
0.569857 0.597585 -0.124763
0.573650 0.597005 -0.124618
0.577379 0.596943 -0.124570
0.581178 0.596170 -0.124391
0.584780 0.597336 -0.124570
0.588506 0.597234 -0.124516
0.592090 0.598742 -0.124759
0.595584 0.601486 -0.125228
0.599480 0.599353 -0.124805
0.602956 0.602690 -0.125384
0.606659 0.603127 -0.125433
0.610034 0.608787 -0.126439
0.613858 0.607658 -0.126202
0.618022 0.599983 -0.124768
0.621538 0.604003 -0.125475
0.625246 0.604540 -0.125545
0.628985 0.604368 -0.125487
0.632699 0.604826 -0.125544
0.636498 0.602582 -0.125108
0.640320 0.598545 -0.124344
0.644049 0.597069 -0.124050
0.647671 0.601446 -0.124826
0.651404 0.599515 -0.124450
0.655140 0.594160 -0.123449
0.658808 0.598556 -0.124231
0.662509 0.600180 -0.124506
0.666207 0.599556 -0.124372
0.669949 0.603002 -0.124981
0.673638 0.601466 -0.124682
0.677310 0.599816 -0.124362
0.681050 0.601324 -0.124620
0.684768 0.601692 -0.124670
0.688226 0.594730 -0.123383
0.691973 0.596477 -0.123686
0.695642 0.596134 -0.123609
0.699315 0.595937 -0.123560
0.702968 0.595391 -0.123447
0.706620 0.594911 -0.123347
0.710457 0.597359 -0.123783
0.714305 0.599611 -0.124183
0.718131 0.601274 -0.124477
0.722093 0.604454 -0.125049
0.725708 0.603100 -0.124794
0.729231 0.600822 -0.124373
0.732768 0.598902 -0.124017
0.736476 0.598912 -0.124015
0.739947 0.596585 -0.123588
0.743380 0.594095 -0.123132
0.747351 0.596608 -0.123589
0.751952 0.604294 -0.124991
0.756144 0.607991 -0.125667
0.759704 0.606364 -0.125373
0.762488 0.598901 -0.124017
0.765878 0.596414 -0.123570
0.769458 0.595421 -0.123396
0.775699 0.612805 -0.126575
0.778375 0.605266 -0.125211
0.781498 0.601062 -0.124456
0.785627 0.603380 -0.124893
0.789519 0.604101 -0.125040
0.792773 0.600971 -0.124486
0.795949 0.597532 -0.123877
0.799808 0.598074 -0.123997
0.803833 0.599452 -0.124271
0.806867 0.595472 -0.123569
0.810689 0.595726 -0.123642
0.814292 0.594835 -0.123508
0.818459 0.596724 -0.123884
0.822297 0.596906 -0.123950
0.826156 0.597138 -0.124027
0.833566 0.613648 -0.127083
0.837088 0.611906 -0.126805
0.840550 0.609937 -0.126488
0.842573 0.601810 -0.125046
0.845817 0.599125 -0.124602
0.849828 0.599673 -0.124752
0.854288 0.601973 -0.125226
0.857959 0.601002 -0.125104
0.860992 0.597545 -0.124528
0.865893 0.601294 -0.125276
0.869119 0.598587 -0.124843
0.872686 0.597180 -0.124652
0.877007 0.598494 -0.124962
0.882058 0.602296 -0.125734
0.885706 0.601028 -0.125576
0.889608 0.600622 -0.125581
0.894677 0.604094 -0.126302
0.899104 0.605271 -0.126604
0.901071 0.598371 -0.125422
0.904108 0.595059 -0.124903
0.908270 0.595328 -0.125048
0.913808 0.599784 -0.125968
0.918406 0.601183 -0.126328
0.921316 0.597432 -0.125740
0.924851 0.595582 -0.125506
0.927716 0.591786 -0.124914
0.931946 0.591946 -0.125058
0.936260 0.592280 -0.125237
0.941068 0.593913 -0.125660
0.945015 0.593094 -0.125631
0.954981 0.608411 -0.128606
0.958182 0.605319 -0.128162
0.961452 0.602443 -0.127760
0.966151 0.603269 -0.128050
0.970878 0.604092 -0.128342
0.975118 0.603623 -0.128395
0.979556 0.603611 -0.128535
0.982213 0.599224 -0.127858
0.986749 0.599421 -0.128039
0.992271 0.601908 -0.128651
0.999818 0.609021 -0.130132
1.001101 0.601492 -0.128864
1.001083 0.591177 -0.127069
1.005242 0.590481 -0.127080
1.010996 0.593321 -0.127755
1.014404 0.590951 -0.127446
1.018596 0.590334 -0.127465
1.022066 0.588198 -0.127192
1.025653 0.586371 -0.126972
1.028121 0.582280 -0.126318
1.039147 0.595916 -0.129015
1.042231 0.593124 -0.128595
1.042062 0.583903 -0.126946
1.050103 0.591251 -0.128433
1.053877 0.590112 -0.128300
1.058282 0.590291 -0.128407
1.062674 0.590514 -0.128512
1.066400 0.589545 -0.128379
1.069962 0.588374 -0.128196
1.071341 0.583246 -0.127248
0.183650 0.588443 -0.138782
0.193847 0.578921 -0.136761
0.204283 0.568912 -0.134629
0.212792 0.562005 -0.133117
0.218135 0.560363 -0.132665
0.206288 0.587982 -0.138149
0.208431 0.592199 -0.138859
0.213394 0.591669 -0.138594
0.217783 0.592184 -0.138530
0.221780 0.593445 -0.138608
0.226242 0.593937 -0.138522
0.230924 0.594066 -0.138355
0.236461 0.592653 -0.137870
0.241866 0.591464 -0.137425
0.246621 0.591470 -0.137217
0.249901 0.594272 -0.137566
0.252985 0.597507 -0.137997
0.260120 0.592942 -0.136863
0.270245 0.582373 -0.134528
0.276744 0.578733 -0.133582
0.279984 0.581531 -0.133922
0.283863 0.583064 -0.134009
0.286229 0.587718 -0.134716
0.286171 0.597510 -0.136442
0.290471 0.598289 -0.136378
0.295564 0.597340 -0.135972
0.301845 0.593739 -0.135045
0.302662 0.601999 -0.136465
0.308284 0.599724 -0.135806
0.316252 0.592041 -0.134087
0.317915 0.598506 -0.135157
0.322840 0.597532 -0.134766
0.328624 0.594459 -0.133968
0.332489 0.595808 -0.134041
0.335881 0.598272 -0.134335
0.339640 0.599850 -0.134459
0.342839 0.602799 -0.134854
0.347559 0.601947 -0.134511
0.353230 0.598590 -0.133683
0.357616 0.598397 -0.133477
0.361782 0.598718 -0.133375
0.366475 0.597587 -0.132994
0.370458 0.598282 -0.132972
0.372524 0.604190 -0.133964
0.377483 0.602176 -0.133423
0.383087 0.598225 -0.132513
0.388114 0.595753 -0.131894
0.392051 0.596320 -0.131865
0.395645 0.597862 -0.132028
0.400064 0.596927 -0.131717
