ply
format ascii 1.0
comment ---
element vertex 1708
property float x
property float y
property float z
element face 0
property list uchar uint vertex_indices
end_header
1.065760 0.586454 -0.336175
1.075585 0.586971 -0.337627
1.082932 0.585694 -0.338234
1.081129 0.577901 -0.335747
0.021057 0.559342 -0.193533
0.018405 0.602884 -0.205978
0.020456 0.612057 -0.208948
0.025378 0.598328 -0.205567
0.028457 0.599906 -0.206438
0.031703 0.600455 -0.207029
0.035774 0.593624 -0.205560
0.038254 0.602215 -0.208411
0.040951 0.609723 -0.210971
0.044419 0.609902 -0.211480
0.047723 0.612289 -0.212615
0.051478 0.609713 -0.212351
0.055379 0.605174 -0.211530
0.059140 0.602181 -0.211144
0.062287 0.608088 -0.213291
0.066001 0.606002 -0.213164
0.070029 0.598256 -0.211417
0.073564 0.598573 -0.211972
0.077093 0.599197 -0.212617
0.080606 0.600420 -0.213435
0.084104 0.602419 -0.214480
0.087664 0.603166 -0.215164
0.090955 0.613931 -0.218756
0.094591 0.614044 -0.219265
0.098405 0.604055 -0.216830
0.101937 0.608245 -0.218523
0.105548 0.607251 -0.218704
0.109140 0.608045 -0.219407
0.112733 0.607684 -0.219772
0.116383 0.616123 -0.222728
0.119998 0.615278 -0.222954
0.123420 0.603931 -0.220070
0.127118 0.610375 -0.222448
0.130616 0.607211 -0.221977
0.134141 0.605972 -0.222076
0.137679 0.605555 -0.222419
0.141143 0.603563 -0.222289
0.144658 0.603156 -0.222631
0.148101 0.601488 -0.222595
0.151617 0.601448 -0.223045
0.154947 0.598450 -0.222604
0.158385 0.597542 -0.222790
0.161851 0.597191 -0.223144
0.165393 0.597897 -0.223818
0.168916 0.598302 -0.224402
0.172462 0.598948 -0.225060
0.175943 0.598796 -0.225475
0.179412 0.598547 -0.225860
0.183090 0.600405 -0.226892
0.186620 0.600669 -0.227436
0.190025 0.599762 -0.227621
0.193399 0.598657 -0.227743
0.196871 0.598441 -0.228139
0.200459 0.599154 -0.228824
0.203982 0.599290 -0.229331
0.207818 0.601718 -0.230553
0.211225 0.600879 -0.230759
0.214624 0.600013 -0.230956
0.218069 0.599483 -0.231257
0.221605 0.599542 -0.231744
0.225184 0.599843 -0.232309
0.228549 0.598782 -0.232445
0.232100 0.598858 -0.232939
0.235765 0.599541 -0.233627
0.239203 0.598886 -0.233893
0.242731 0.598720 -0.234314
0.246262 0.598544 -0.234732
0.250117 0.600002 -0.235674
0.253505 0.599003 -0.235832
0.257123 0.599141 -0.236355
0.260808 0.599554 -0.236967
0.264332 0.599155 -0.237321
0.267818 0.598557 -0.237610
0.271723 0.599815 -0.238500
0.275340 0.599718 -0.238955
0.278989 0.599721 -0.239443
0.282631 0.599650 -0.239908
0.286245 0.599425 -0.240325
0.289406 0.597355 -0.240140
0.292605 0.595470 -0.240015
0.296200 0.595143 -0.240399
0.301062 0.599559 -0.242345
0.305404 0.601844 -0.243596
0.309650 0.603647 -0.244692
0.312053 0.598776 -0.243585
0.315688 0.598348 -0.243946
0.319419 0.598219 -0.244407
0.323268 0.598451 -0.244990
0.326822 0.597651 -0.245231
0.334963 0.611766 -0.250461
0.337550 0.607587 -0.249582
0.341092 0.606510 -0.249740
0.344907 0.606269 -0.250180
0.348225 0.604478 -0.250099
0.351522 0.602639 -0.250002
0.355568 0.603020 -0.250655
0.361454 0.608679 -0.253103
0.365722 0.609504 -0.253917
0.366833 0.601389 -0.251686
0.369641 0.598175 -0.251120
0.374414 0.600369 -0.252403
0.381393 0.608372 -0.255685
0.385675 0.608967 -0.256434
0.388291 0.605162 -0.255668
0.390064 0.599262 -0.254176
0.393198 0.596932 -0.253912
0.396609 0.595316 -0.253896
0.400136 0.593989 -0.253980
0.406623 0.599838 -0.256564
0.413566 0.606577 -0.259472
0.418235 0.607723 -0.260434
0.421279 0.605016 -0.260048
0.425745 0.605606 -0.260820
0.428682 0.602674 -0.260354
0.431099 0.598617 -0.259489
0.434876 0.597624 -0.259704
0.438448 0.596172 -0.259757
0.442091 0.594869 -0.259864
0.446082 0.594297 -0.260232
0.453410 0.600696 -0.263091
0.456305 0.597720 -0.262607
0.462610 0.601748 -0.264634
0.463133 0.593961 -0.262421
0.467697 0.594386 -0.263158
0.472929 0.596075 -0.264355
0.478526 0.598396 -0.265787
0.483274 0.598990 -0.266598
0.485654 0.595028 -0.265756
0.489410 0.593704 -0.265872
0.492250 0.590671 -0.265364
0.498050 0.593102 -0.266855
0.508258 0.603431 -0.271254
0.508231 0.595133 -0.268818
0.511501 0.592827 -0.268581
0.517399 0.595141 -0.270051
0.529323 0.607805 -0.275365
0.532861 0.605775 -0.275245
0.534136 0.599914 -0.273699
0.536920 0.596672 -0.273122
0.544775 0.601864 -0.275700
0.549261 0.601380 -0.276161
0.550963 0.596350 -0.274915
0.555049 0.595210 -0.275131
0.559559 0.594727 -0.275595
0.562583 0.591880 -0.275168
0.567494 0.591981 -0.275858
0.574421 0.595136 -0.277714
0.580839 0.597409 -0.279243
0.582473 0.592392 -0.277994
0.587305 0.592198 -0.278587
0.591739 0.591379 -0.278944
0.596877 0.591558 -0.279688
0.610730 0.604269 -0.285277
0.617246 0.606194 -0.286719
0.621131 0.604310 -0.286690
0.623036 0.599649 -0.285582
0.623428 0.592937 -0.283670
0.626744 0.590324 -0.283351
0.632670 0.591259 -0.284425
0.636883 0.589826 -0.284573
0.647300 0.596628 -0.287970
0.649224 0.592055 -0.286891
0.652018 0.588658 -0.286274
0.659846 0.591780 -0.288245
0.666762 0.593621 -0.289718
0.671124 0.592140 -0.289874
0.676274 0.591624 -0.290419
0.680820 0.590314 -0.290650
0.685861 0.589584 -0.291118
0.695015 0.593819 -0.293595
0.697984 0.590460 -0.293015
0.701318 0.587543 -0.292613
0.708845 0.589583 -0.294229
0.714715 0.589585 -0.295024
0.721214 0.590255 -0.296101
0.728318 0.591547 -0.297442
0.735652 0.593013 -0.298865
0.740260 0.591320 -0.298995
0.742989 0.587499 -0.298249
0.754482 0.593363 -0.301522
0.758225 0.590574 -0.301216
0.764329 0.590329 -0.301973
0.766663 0.585978 -0.301020
0.775741 0.588802 -0.303078
0.781498 0.588009 -0.303630
0.791113 0.591178 -0.305862
0.797731 0.591123 -0.306747
0.805427 0.592095 -0.308078
0.813218 0.593070 -0.309423
0.820553 0.593493 -0.310546
0.826185 0.592141 -0.310919
0.830085 0.589037 -0.310546
0.833352 0.585299 -0.309902
0.840345 0.585142 -0.310810
0.850724 0.588135 -0.313098
0.858762 0.588780 -0.314383
0.863819 0.586545 -0.314423
0.871012 0.586248 -0.315318
0.879126 0.586719 -0.316563
0.884364 0.584489 -0.316630
0.889481 0.582113 -0.316637
0.903324 0.587461 -0.320086
0.914872 0.590601 -0.322578
0.920212 0.588187 -0.322605
0.923597 0.584055 -0.321865
0.931251 0.583573 -0.322771
0.939559 0.583578 -0.323909
0.940265 0.577145 -0.322132
0.954173 0.581710 -0.325362
0.962992 0.581941 -0.326635
0.970305 0.580880 -0.327325
0.979809 0.581541 -0.328815
0.992389 0.584580 -0.331418
1.007185 0.589253 -0.334800
1.014092 0.587631 -0.335269
1.020220 0.585398 -0.335454
1.030027 0.585989 -0.336963
1.037424 0.584715 -0.337599
1.050409 0.587636 -0.340218
1.056172 0.585120 -0.340267
1.065516 0.585281 -0.341584
1.080200 0.589332 -0.344761
1.086503 0.587263 -0.345010
1.085397 0.579949 -0.342719
0.013601 0.611281 -0.211371
0.017036 0.609318 -0.211247
0.020243 0.609438 -0.211713
0.023311 0.611109 -0.212624
0.027002 0.607911 -0.212161
0.031201 0.600261 -0.210435
0.034493 0.600800 -0.211033
0.037668 0.602871 -0.212074
0.040634 0.607626 -0.213887
0.044200 0.606670 -0.214072
0.047658 0.607141 -0.214669
0.050981 0.609555 -0.215828
0.055088 0.602453 -0.214248
0.058754 0.600668 -0.214196
0.062048 0.604289 -0.215711
0.065560 0.605208 -0.216446
0.069557 0.598074 -0.214840
0.073124 0.597849 -0.215241
0.076638 0.598796 -0.215984
0.080082 0.601650 -0.217288
0.083624 0.602751 -0.218081
0.087198 0.603225 -0.218691
0.090510 0.613165 -0.222094
0.094165 0.612548 -0.222389
0.097854 0.609526 -0.221971
0.101551 0.603516 -0.220661
0.105104 0.607265 -0.222247
0.108702 0.607656 -0.222836
0.112288 0.601322 -0.221416
0.115844 0.600658 -0.221685
0.119435 0.603883 -0.223121
0.122927 0.599469 -0.222262
0.126438 0.598192 -0.222344
0.129973 0.598453 -0.222888
0.133499 0.598468 -0.223357
0.137049 0.599267 -0.224064
0.140562 0.599058 -0.224466
0.144092 0.599349 -0.225020
0.147706 0.601292 -0.226078
0.151092 0.598888 -0.225809
0.154576 0.598510 -0.226157
0.158075 0.598455 -0.226605
0.161617 0.599053 -0.227254
0.165126 0.599146 -0.227747
0.168638 0.599292 -0.228258
0.172215 0.600189 -0.229001
0.175640 0.599306 -0.229193
0.179232 0.600273 -0.229961
0.182746 0.600360 -0.230455
0.186227 0.600128 -0.230850
0.189651 0.599374 -0.231082
0.193112 0.599004 -0.231434
0.196629 0.599108 -0.231935
0.200160 0.599308 -0.232467
0.203756 0.599967 -0.233145
0.207520 0.601806 -0.234198
0.210888 0.600647 -0.234303
0.214341 0.600132 -0.234613
0.217746 0.599296 -0.234820
0.221249 0.599124 -0.235239
0.224770 0.599041 -0.235687
0.228308 0.599033 -0.236160
0.231779 0.598600 -0.236498
0.235302 0.598452 -0.236928
0.238722 0.597700 -0.237164
0.242225 0.597406 -0.237548
0.246117 0.599150 -0.238592
0.249766 0.599510 -0.239192
0.253152 0.598489 -0.239344
0.256470 0.597146 -0.239391
0.260241 0.597996 -0.240153
0.263652 0.597080 -0.240341
0.267402 0.597720 -0.241038
0.271360 0.599214 -0.242019
0.275176 0.599980 -0.242764
0.278774 0.599736 -0.243177
0.283005 0.602108 -0.244457
0.287578 0.605739 -0.246159
0.292098 0.608965 -0.247733
0.296261 0.610614 -0.248789
0.299434 0.608340 -0.248540
0.301853 0.603264 -0.247354
0.306689 0.607288 -0.249210
0.310175 0.606211 -0.249361
0.311499 0.597425 -0.246921
0.315104 0.596900 -0.247254
0.319536 0.599187 -0.248537
0.322598 0.596731 -0.248220
0.326430 0.596865 -0.248780
0.332661 0.604769 -0.251983
0.338466 0.610991 -0.254626
0.342526 0.611469 -0.255320
0.345547 0.608670 -0.254896
0.347992 0.604168 -0.253886
0.350951 0.601304 -0.253435
0.356544 0.606248 -0.255668
0.361968 0.610505 -0.257675
0.365882 0.610273 -0.258137
0.367168 0.602623 -0.256032
0.369562 0.598228 -0.255048
0.374364 0.600485 -0.256374
0.378431 0.600659 -0.256979
0.383695 0.603950 -0.258676
0.387026 0.602065 -0.258567
0.390114 0.599569 -0.258243
0.393506 0.597874 -0.258200
0.397386 0.597401 -0.258587
0.400518 0.595060 -0.258316
0.403701 0.592865 -0.258095
0.408524 0.594615 -0.259273
0.414527 0.599058 -0.261414
0.420537 0.603359 -0.263514
0.425735 0.605637 -0.264900
0.428031 0.601239 -0.263903
0.430533 0.597375 -0.263092
0.434810 0.597490 -0.263709
0.438724 0.596771 -0.264028
0.442349 0.595409 -0.264116
0.446255 0.594635 -0.264418
0.452528 0.598807 -0.266515
0.458312 0.601820 -0.268201
0.460460 0.597283 -0.267142
0.463566 0.594755 -0.266813
0.468263 0.595423 -0.267652
0.472275 0.594684 -0.267978
0.477144 0.595590 -0.268912
0.482338 0.597062 -0.270059
0.486733 0.596939 -0.270621
0.489720 0.594136 -0.270194
0.494779 0.595206 -0.271203
0.504478 0.604721 -0.275360
0.513341 0.612463 -0.278875
0.512592 0.602755 -0.275882
0.513222 0.595673 -0.273859
0.520723 0.600749 -0.276394
0.527011 0.603568 -0.278092
0.529504 0.599784 -0.277306
0.529246 0.591384 -0.274769
0.540908 0.603096 -0.279849
0.551591 0.612888 -0.284224
0.551027 0.603995 -0.281500
0.551050 0.596203 -0.279183
0.554789 0.594497 -0.279187
0.559446 0.594242 -0.279748
0.563379 0.592813 -0.279860
0.568554 0.593302 -0.280714
0.575457 0.596393 -0.282578
0.580203 0.596096 -0.283140
0.582927 0.592722 -0.282509
0.588704 0.593919 -0.283656
0.592503 0.592133 -0.283645
0.595943 0.589818 -0.283428
0.601321 0.590300 -0.284308
0.607245 0.591507 -0.285480
0.612615 0.591862 -0.286322
0.617037 0.590836 -0.286623
0.622441 0.591146 -0.287457
0.627454 0.590865 -0.288062
0.631537 0.589280 -0.288152
0.636263 0.588544 -0.288582
0.645494 0.593764 -0.291403
0.648612 0.590781 -0.290945
0.652316 0.588573 -0.290798
0.659123 0.590361 -0.292266
0.668302 0.595093 -0.294936
0.671323 0.591890 -0.294400
0.676104 0.590900 -0.294766
0.680953 0.589960 -0.295155
0.686228 0.589507 -0.295748
0.701185 0.600783 -0.301158
0.703817 0.596940 -0.300381
0.704841 0.591194 -0.298818
0.708757 0.588917 -0.298684
0.712143 0.586007 -0.298289
0.713709 0.580984 -0.297017
0.729819 0.592679 -0.302712
0.736211 0.593049 -0.303707
0.741282 0.591861 -0.304058
0.745697 0.589902 -0.304089
0.752252 0.590277 -0.305109
0.756335 0.587877 -0.304965
0.757925 0.582760 -0.303671
0.766719 0.585391 -0.305671
0.772505 0.584711 -0.306274
0.778283 0.583965 -0.306856
0.790444 0.589803 -0.310275
0.800081 0.592856 -0.312519
0.805693 0.591668 -0.312949
0.811884 0.591013 -0.313618
0.818562 0.590782 -0.314481
0.825007 0.590248 -0.315221
0.829516 0.587746 -0.315112
0.834569 0.585742 -0.315225
0.840430 0.584476 -0.315670
0.848383 0.585146 -0.316979
0.854474 0.583967 -0.317482
0.855723 0.578209 -0.315958
0.863558 0.578571 -0.317161
0.878851 0.585670 -0.321394
0.890516 0.589258 -0.324085
0.899061 0.589895 -0.325469
0.906104 0.589102 -0.326222
0.916525 0.591213 -0.328303
0.922084 0.588969 -0.328421
0.932768 0.591104 -0.330547
0.937918 0.588398 -0.330471
0.941609 0.584438 -0.329821
0.953515 0.587350 -0.332348
0.963421 0.588475 -0.334067
0.968264 0.585362 -0.333828
0.971411 0.580869 -0.332944
0.970437 0.573097 -0.330516
0.996293 0.586752 -0.338161
1.011411 0.591633 -0.341716
1.018258 0.589924 -0.342168
1.026846 0.589551 -0.343257
1.031853 0.586415 -0.343030
1.038530 0.584575 -0.343417
1.047252 0.584282 -0.344545
1.056595 0.584440 -0.345891
1.072844 0.589664 -0.349696
1.084720 0.591607 -0.351920
1.091651 0.589955 -0.352390
1.100533 0.589744 -0.353556
0.016257 0.587478 -0.208068
0.016229 0.611337 -0.215321
0.019505 0.610992 -0.215661
0.023248 0.607163 -0.215002
0.026653 0.606303 -0.215200
0.030447 0.602276 -0.214485
0.033994 0.600551 -0.214436
0.036919 0.605058 -0.216195
0.040000 0.608736 -0.217722
0.043911 0.604179 -0.216858
0.047370 0.604531 -0.217423
0.050833 0.605135 -0.218065
0.054403 0.604705 -0.218406
0.058153 0.602003 -0.218080
0.061664 0.602588 -0.218720
0.065206 0.602945 -0.219295
0.069044 0.598486 -0.218446
0.072604 0.598508 -0.218921
0.076026 0.601478 -0.220273
0.079580 0.602185 -0.220955
0.083214 0.601066 -0.221092
0.086758 0.602321 -0.221939
0.090324 0.603204 -0.222677
0.093981 0.600611 -0.222370
0.097579 0.599683 -0.222562
0.101160 0.599022 -0.222832
0.104714 0.600458 -0.223736
0.108287 0.599527 -0.223925
0.111848 0.599038 -0.224246
0.115408 0.599980 -0.225002
0.118958 0.599590 -0.225352
0.122539 0.601600 -0.226436
0.126034 0.598803 -0.226049
0.129541 0.597686 -0.226174
0.133207 0.602224 -0.228038
0.136672 0.600009 -0.227825
0.140272 0.601741 -0.228829
0.143666 0.598669 -0.228348
0.147230 0.599613 -0.229108
0.150711 0.598961 -0.229374
0.154259 0.599564 -0.230030
0.157846 0.600701 -0.230854
0.161360 0.600680 -0.231317
0.164818 0.599925 -0.231551
0.168253 0.599009 -0.231732
0.171758 0.599023 -0.232206
0.175387 0.600425 -0.233119
0.178895 0.600402 -0.233583
0.182389 0.600243 -0.234004
0.185847 0.599744 -0.234317
0.189349 0.599681 -0.234770
0.193174 0.602438 -0.236122
0.196617 0.601748 -0.236377
0.199904 0.599836 -0.236240
0.203336 0.599169 -0.236502
0.206960 0.599967 -0.237234
0.210798 0.602226 -0.238439
0.214136 0.600821 -0.238464
0.217510 0.599723 -0.238589
0.220841 0.598383 -0.238634
0.224455 0.598880 -0.239275
0.228076 0.599362 -0.239913
0.231508 0.598652 -0.240165
0.234900 0.597723 -0.240344
0.238646 0.598796 -0.241180
0.241955 0.597384 -0.241202
0.246058 0.600230 -0.242625
0.249545 0.599698 -0.242939
0.253452 0.601277 -0.243951
0.258257 0.607155 -0.246389
0.262233 0.608727 -0.247409
0.265887 0.608676 -0.247893
0.270005 0.610708 -0.249072
0.274699 0.615179 -0.251070
0.276835 0.608223 -0.249254
0.280722 0.609017 -0.250027
0.285290 0.612582 -0.251734
0.288097 0.608738 -0.250954
0.292637 0.611968 -0.252555
0.296742 0.613310 -0.253525
0.299539 0.609510 -0.252758
0.302454 0.606262 -0.252174
0.305354 0.603041 -0.251596
0.310355 0.607534 -0.253645
0.311323 0.597427 -0.250716
0.315385 0.598483 -0.251594
0.319713 0.600370 -0.252762
0.323438 0.600109 -0.253195
0.327364 0.600484 -0.253849
0.332978 0.606300 -0.256384
0.338388 0.611216 -0.258618
0.342988 0.613376 -0.259906
0.345843 0.610014 -0.259281
0.347487 0.603029 -0.257392
0.350297 0.599721 -0.256777
0.353434 0.597440 -0.256519
0.358252 0.600064 -0.257978
0.365009 0.608100 -0.261344
0.368900 0.607784 -0.261785
0.370791 0.601901 -0.260265
0.373329 0.597917 -0.259408
0.377865 0.599373 -0.260475
0.380232 0.595008 -0.259481
0.386944 0.602050 -0.262540
0.390991 0.602004 -0.263084
0.393486 0.597987 -0.262213
0.397625 0.598144 -0.262832
0.401129 0.596692 -0.262877
0.404068 0.593870 -0.262428
0.407363 0.591934 -0.262298
0.413014 0.595571 -0.264180
0.418032 0.597596 -0.265486
0.424940 0.603866 -0.268340
0.429440 0.604472 -0.269145
0.430218 0.596697 -0.266899
0.434369 0.596529 -0.267422
0.438779 0.596888 -0.268141
0.443302 0.597441 -0.268934
0.446741 0.595638 -0.268864
0.454029 0.601909 -0.271771
0.460344 0.605970 -0.273874
0.466725 0.610021 -0.275983
0.463739 0.595025 -0.271031
0.468196 0.595195 -0.271700
0.472153 0.594337 -0.271988
0.476932 0.595061 -0.272869
0.484104 0.600328 -0.275456
0.489612 0.602270 -0.276806
0.493926 0.601882 -0.277287
0.498769 0.602446 -0.278129
0.503520 0.602789 -0.278891
0.513151 0.611929 -0.282991
0.517750 0.611800 -0.283590
0.518287 0.604439 -0.281438
0.519969 0.599209 -0.280089
0.521580 0.593932 -0.278717
0.523639 0.589501 -0.277662
0.532620 0.596849 -0.281131
0.543258 0.606768 -0.285608
0.550521 0.610840 -0.287848
0.555727 0.611411 -0.288744
0.551254 0.596244 -0.283536
0.554293 0.593403 -0.283100
0.558338 0.592176 -0.283291
0.563057 0.591991 -0.283892
0.569964 0.595163 -0.285812
0.576292 0.597336 -0.287349
0.581322 0.597450 -0.288083
0.586741 0.598101 -0.289035
0.589992 0.595470 -0.288693
0.593367 0.593031 -0.288427
0.596029 0.589561 -0.287750
0.600749 0.589084 -0.288264
0.606895 0.590608 -0.289582
0.611622 0.590049 -0.290073
0.616916 0.590248 -0.290873
0.622119 0.590272 -0.291607
0.627208 0.590091 -0.292264
0.632368 0.589962 -0.292947
0.637599 0.589883 -0.293655
0.650047 0.599348 -0.298252
0.654438 0.597975 -0.298453
0.651921 0.587578 -0.294966
0.657039 0.587183 -0.295564
0.665511 0.591028 -0.297912
0.671095 0.591093 -0.298715
0.675382 0.589479 -0.298831
0.679892 0.588120 -0.299055
0.687657 0.590727 -0.300932
0.703039 0.602486 -0.306637
0.705985 0.598991 -0.306000
0.703191 0.588666 -0.302499
0.707227 0.586544 -0.302430
0.709100 0.581875 -0.301289
0.717908 0.585263 -0.303551
0.727193 0.589071 -0.306008
0.737044 0.593386 -0.308696
0.741811 0.591841 -0.308906
0.745691 0.589273 -0.308684
0.753215 0.590705 -0.310180
0.752684 0.583253 -0.307867
0.751519 0.575192 -0.305283
0.755189 0.572395 -0.304964
0.766951 0.578160 -0.308364
0.784512 0.589831 -0.314358
0.793286 0.592070 -0.316277
0.800610 0.592701 -0.317508
0.805373 0.590635 -0.317567
0.810645 0.589046 -0.317843
0.817107 0.588602 -0.318631
0.824718 0.589226 -0.319904
0.832190 0.589624 -0.321089
0.834664 0.585085 -0.320085
0.838423 0.581790 -0.319637
0.843783 0.580002 -0.319869
0.847274 0.576408 -0.319294
0.845593 0.567982 -0.316536
0.855709 0.570534 -0.318747
0.874230 0.580637 -0.324418
0.894162 0.591736 -0.330588
0.898898 0.588916 -0.330426
0.908038 0.589975 -0.332053
0.917118 0.590879 -0.333625
0.923543 0.589374 -0.334098
0.934911 0.592075 -0.336536
0.941190 0.590305 -0.336909
0.944950 0.586369 -0.336275
0.962398 0.593866 -0.341016
0.970702 0.593583 -0.342123
0.975662 0.590498 -0.341914
0.986571 0.592229 -0.343996
0.991671 0.589206 -0.343824
0.999097 0.588031 -0.344537
1.011464 0.590711 -0.347109
1.019243 0.589721 -0.347926
1.027388 0.588990 -0.348872
1.036862 0.589253 -0.350304
1.043298 0.587189 -0.350604
1.048458 0.584189 -0.350440
1.060063 0.586007 -0.352636
1.070756 0.587114 -0.354487
1.084342 0.590303 -0.357372
1.092008 0.589180 -0.358119
1.092518 0.582989 -0.356324
0.009339 0.634656 -0.225174
0.015550 0.612327 -0.219123
0.019851 0.603927 -0.217116
0.023575 0.600030 -0.216419
0.026608 0.602085 -0.217466
0.030089 0.600705 -0.217510
0.033389 0.601231 -0.218118
0.036366 0.605258 -0.219761
0.040248 0.600828 -0.218912
0.043301 0.605078 -0.220632
0.046790 0.605171 -0.221125
0.050295 0.605358 -0.221649
0.053826 0.605475 -0.222153
0.057563 0.603075 -0.221907
0.061140 0.602828 -0.222304
0.064797 0.601480 -0.222370
0.068466 0.599876 -0.222359
0.072023 0.600146 -0.222912
0.075571 0.600784 -0.223577
0.079102 0.602019 -0.224423
0.082766 0.600238 -0.224356
0.086400 0.598849 -0.224407
0.089915 0.601035 -0.225545
0.093534 0.599805 -0.225642
0.097089 0.601122 -0.226518
0.100681 0.600641 -0.226844
0.104267 0.599795 -0.227057
0.107836 0.600328 -0.227693
0.111406 0.599815 -0.228007
0.114965 0.599163 -0.228277
0.118535 0.600566 -0.229184
0.122095 0.600672 -0.229689
0.125662 0.601308 -0.230359
0.129238 0.602233 -0.231120
0.132756 0.601050 -0.231224
0.136295 0.600933 -0.231659
0.139846 0.601237 -0.232227
0.143348 0.600473 -0.232460
0.146863 0.600186 -0.232842
0.150438 0.601087 -0.233599
0.153897 0.599956 -0.233714
0.157396 0.599645 -0.234088
0.160958 0.600325 -0.234777
0.164405 0.599387 -0.234951
0.167886 0.599007 -0.235303
0.171357 0.598557 -0.235633
0.174980 0.599872 -0.236528
0.178468 0.599625 -0.236924
0.181955 0.599379 -0.237321
0.185482 0.599541 -0.237849
0.189152 0.600989 -0.238794
0.192756 0.601714 -0.239507
0.196241 0.601366 -0.239874
0.199674 0.600604 -0.240107
0.203198 0.600591 -0.240583
0.206959 0.602331 -0.241633
0.210537 0.602596 -0.242204
0.213952 0.601682 -0.242389
0.217309 0.600403 -0.242454
0.221323 0.603472 -0.243951
0.225622 0.608119 -0.245973
0.229247 0.608316 -0.246531
0.232600 0.606846 -0.246539
0.236402 0.608019 -0.247424
0.239689 0.606196 -0.247314
0.243029 0.604730 -0.247323
0.246951 0.606394 -0.248376
0.251820 0.612846 -0.251036
0.255498 0.612912 -0.251564
0.259012 0.612124 -0.251807
0.262483 0.611126 -0.251980
0.266003 0.610366 -0.252233
0.269682 0.610325 -0.252729
0.272342 0.605681 -0.251668
0.276410 0.607364 -0.252750
0.281180 0.611942 -0.254821
0.281924 0.599398 -0.251062
0.287464 0.607027 -0.254180
0.292207 0.611088 -0.256090
0.296284 0.612319 -0.257036
0.299657 0.610739 -0.257018
0.302686 0.607877 -0.256559
0.306312 0.607296 -0.256885
0.309529 0.605202 -0.256688
0.311505 0.598711 -0.254966
0.315551 0.599670 -0.255825
0.319655 0.600748 -0.256729
0.323184 0.599804 -0.256931
0.326929 0.599562 -0.257379
0.332537 0.605364 -0.259947
0.337564 0.609055 -0.261785
0.341712 0.609813 -0.262598
0.345280 0.608698 -0.262753
0.345491 0.597350 -0.259291
0.349142 0.596638 -0.259583
0.353489 0.597960 -0.260597
0.357127 0.597136 -0.260853
0.364856 0.607981 -0.265271
0.369085 0.608604 -0.266054
0.369652 0.599024 -0.263187
0.372005 0.594562 -0.262144
0.375679 0.593738 -0.262405
0.381543 0.598694 -0.264751
0.388767 0.607005 -0.268319
0.392423 0.605867 -0.268481
0.394557 0.600863 -0.267242
0.397175 0.597168 -0.266472
0.401080 0.596704 -0.266877
0.404553 0.595161 -0.266889
0.408793 0.595456 -0.267575
0.412437 0.594295 -0.267729
0.416056 0.593066 -0.267859
0.422434 0.598165 -0.270322
0.428118 0.601515 -0.272150
0.430250 0.596792 -0.270997
0.433798 0.595279 -0.271030
0.438379 0.596013 -0.271899
0.443773 0.598438 -0.273402
0.447390 0.596986 -0.273463
0.456143 0.606298 -0.277556
0.463746 0.612953 -0.280670
0.466407 0.609302 -0.279921
0.464484 0.596447 -0.275700
0.468402 0.595512 -0.275963
0.472415 0.594747 -0.276292
0.478404 0.597807 -0.278075
0.487838 0.607377 -0.282343
0.491972 0.606611 -0.282689
0.496567 0.606685 -0.283359
0.501272 0.606925 -0.284095
0.504784 0.604929 -0.283976
0.509996 0.606019 -0.285045
0.515573 0.607699 -0.286347
0.518261 0.604182 -0.285645
0.518803 0.596947 -0.283499
0.518379 0.588162 -0.280741
0.518643 0.580711 -0.278490
0.529033 0.590526 -0.282970
0.538532 0.598592 -0.286787
0.545898 0.602910 -0.289152
0.550040 0.601810 -0.289399
0.549252 0.592710 -0.286494
0.553673 0.592110 -0.286935
0.557975 0.591291 -0.287292
0.562090 0.590155 -0.287525
0.573269 0.599959 -0.292115
0.577464 0.598794 -0.292351
0.582777 0.599307 -0.293260
0.587473 0.598840 -0.293782
0.591118 0.596775 -0.293665
0.595018 0.595083 -0.293700
0.596168 0.589377 -0.292113
0.602847 0.591712 -0.293777
0.606493 0.589629 -0.293656
0.611370 0.589280 -0.294242
0.616788 0.589647 -0.295125
0.622277 0.590058 -0.296031
0.626063 0.588082 -0.295965
0.628917 0.584836 -0.295377
0.645617 0.600182 -0.302454
0.655313 0.605869 -0.305577
0.660854 0.605929 -0.306386
0.658577 0.595758 -0.302949
0.654955 0.584004 -0.298836
0.665121 0.590025 -0.302131
0.670325 0.589605 -0.302747
0.674879 0.588328 -0.303008
0.679198 0.586730 -0.303138
0.689067 0.591915 -0.306137
0.697526 0.595232 -0.308363
0.700430 0.591746 -0.307715
0.701871 0.586528 -0.306330
0.709053 0.588123 -0.307849
0.721511 0.595788 -0.311979
0.725543 0.593500 -0.311862
0.733415 0.595592 -0.313634
0.739502 0.595557 -0.314501
0.743675 0.593309 -0.314419
0.747396 0.590537 -0.314112
0.753319 0.590178 -0.314859
0.759864 0.590437 -0.315885
0.756087 0.579479 -0.312004
0.753511 0.569948 -0.308732
0.778408 0.589624 -0.318325
0.790074 0.594975 -0.321644
0.793933 0.592042 -0.321314
0.799013 0.590349 -0.321539
0.804446 0.588973 -0.321912
0.807472 0.585121 -0.321183
0.814313 0.585078 -0.322167
0.826004 0.589752 -0.325290
0.830546 0.587259 -0.325197
0.835313 0.584953 -0.325195
0.839916 0.582455 -0.325111
0.839414 0.575076 -0.322803
0.841687 0.570371 -0.321712
0.844541 0.566221 -0.320875
0.852365 0.566656 -0.322153
0.878362 0.583594 -0.331087
0.893632 0.590418 -0.335390
0.899548 0.588651 -0.335724
0.908316 0.589364 -0.337228
0.915914 0.588954 -0.338219
0.924173 0.589044 -0.339460
0.932798 0.589368 -0.340826
0.941231 0.589441 -0.342087
0.951645 0.591105 -0.344120
0.958259 0.589492 -0.344605
0.970322 0.592337 -0.347237
0.976486 0.590234 -0.347508
0.987073 0.591686 -0.349501
0.994963 0.590887 -0.350418
1.000228 0.587966 -0.350307
1.009556 0.588238 -0.351756
1.022267 0.591088 -0.354480
1.030117 0.590100 -0.355329
1.037169 0.588489 -0.355871
1.044553 0.587133 -0.356537
1.052295 0.586048 -0.357335
1.065267 0.588840 -0.360070
1.071107 0.586346 -0.360158
1.076470 0.583555 -0.360083
1.091220 0.587573 -0.363441
1.102986 0.589406 -0.365697
0.009262 0.631020 -0.227730
0.016641 0.599833 -0.218953
0.020672 0.593179 -0.217419
0.023476 0.596423 -0.218824
0.026537 0.598105 -0.219772
0.029860 0.597976 -0.220184
0.033048 0.599425 -0.221071
0.036706 0.596835 -0.220752
0.040107 0.596888 -0.221226
0.043679 0.595450 -0.221254
0.047038 0.596505 -0.222034
0.050337 0.598661 -0.223151
0.053858 0.598531 -0.223579
0.057183 0.601234 -0.224868
0.060710 0.601623 -0.225458
0.064323 0.600944 -0.225724
0.067863 0.601511 -0.226370
0.071350 0.603285 -0.227388
0.075118 0.599913 -0.226828
0.078618 0.601812 -0.227886
0.082218 0.601746 -0.228341
0.085861 0.600479 -0.228425
0.089354 0.603773 -0.229920
0.092964 0.603657 -0.230361
0.096604 0.601904 -0.230293
0.100211 0.600995 -0.230486
0.103795 0.601129 -0.231003
0.107374 0.601745 -0.231671
0.110956 0.600344 -0.231707
0.114524 0.599863 -0.232031
0.118090 0.600077 -0.232573
0.121669 0.601357 -0.233451
0.125228 0.601167 -0.233866
0.128774 0.600724 -0.234201
0.132291 0.599592 -0.234317
0.135852 0.600169 -0.234975
0.139363 0.599447 -0.235220
0.142886 0.599224 -0.235623
0.146404 0.599002 -0.236027
0.149912 0.598714 -0.236410
0.153431 0.598701 -0.236881
0.156894 0.597847 -0.237081
0.160367 0.597288 -0.237376
0.164131 0.600768 -0.238977
0.167607 0.600178 -0.239264
0.171265 0.601833 -0.240281
0.174488 0.598412 -0.239647
0.177929 0.597685 -0.239888
0.181486 0.598192 -0.240533
0.185088 0.599089 -0.241306
0.188695 0.599938 -0.242066
0.192234 0.600103 -0.242603
0.195788 0.600361 -0.243172
0.199330 0.600483 -0.243697
0.202971 0.601357 -0.244472
0.206569 0.601810 -0.245110
0.211140 0.609264 -0.248076
0.214770 0.609592 -0.248680
0.218392 0.609805 -0.249248
0.222176 0.611040 -0.250158
0.225919 0.611901 -0.250947
0.229757 0.613267 -0.251907
0.232563 0.608352 -0.250758
0.235954 0.607073 -0.250829
0.239710 0.607888 -0.251607
0.243462 0.608602 -0.252353
0.246964 0.607901 -0.252622
0.251023 0.610097 -0.253876
0.254495 0.609162 -0.254068
0.257786 0.607344 -0.253959
0.261020 0.605295 -0.253770
0.264665 0.605239 -0.254263
0.267474 0.601299 -0.253424
0.271373 0.602390 -0.254313
0.274325 0.599234 -0.253739
0.276575 0.593165 -0.252157
0.282758 0.603819 -0.256359
0.287226 0.606936 -0.257962
0.290990 0.607046 -0.258526
0.294921 0.607767 -0.259305
0.298947 0.608779 -0.260189
0.302896 0.609419 -0.260946
0.306246 0.607760 -0.260900
0.308930 0.603698 -0.260009
0.311410 0.599012 -0.258894
0.315704 0.600816 -0.260064
0.319072 0.599325 -0.260074
0.322847 0.599218 -0.260575
0.326316 0.598055 -0.260702
0.332231 0.604871 -0.263670
0.336823 0.607162 -0.265036
0.340398 0.606125 -0.265218
0.342601 0.600827 -0.263874
0.345507 0.597802 -0.263341
0.349260 0.597371 -0.263738
0.353178 0.597398 -0.264303
0.357742 0.599256 -0.265531
0.363411 0.604172 -0.267871
0.367741 0.605123 -0.268783
0.369862 0.599881 -0.267447
0.370982 0.592026 -0.265152
0.375809 0.594324 -0.266556
0.382557 0.601597 -0.269786
0.389342 0.608707 -0.272972
0.391829 0.604524 -0.272019
0.394045 0.599734 -0.270838
0.397776 0.598819 -0.271083
0.401173 0.597065 -0.271018
0.407142 0.601561 -0.273272
0.411714 0.602545 -0.274230
0.414295 0.598763 -0.273416
0.416764 0.594781 -0.272524
0.422270 0.597843 -0.274265
0.427029 0.599086 -0.275331
0.429978 0.596211 -0.274853
0.434920 0.597766 -0.276043
0.438070 0.595338 -0.275734
0.443283 0.597366 -0.277110
0.448019 0.598291 -0.278074
0.454536 0.602885 -0.280438
0.462500 0.610317 -0.283893
0.466389 0.609195 -0.284098
0.464359 0.596113 -0.279725
0.468066 0.594749 -0.279829
0.472275 0.594367 -0.280310
0.477687 0.596293 -0.281684
0.483918 0.599708 -0.283640
0.490546 0.603757 -0.285850
0.495029 0.603643 -0.286455
0.498293 0.601230 -0.286169
0.501011 0.597832 -0.285498
0.504496 0.595863 -0.285382
0.510123 0.597734 -0.286771
0.513297 0.595179 -0.286428
0.518154 0.595590 -0.287252
0.522983 0.595901 -0.288040
0.521456 0.585286 -0.284511
0.522222 0.578750 -0.282583
0.536353 0.594681 -0.289576
0.536649 0.587327 -0.287326
0.549170 0.600100 -0.293104
0.549949 0.593545 -0.291173
0.553709 0.591864 -0.291189
0.557977 0.590982 -0.291527
0.561850 0.589457 -0.291609
0.571145 0.596330 -0.295086
0.577081 0.597861 -0.296417
0.581691 0.597303 -0.296907
0.587116 0.597939 -0.297886
0.590381 0.595305 -0.297536
0.594380 0.593763 -0.297633
0.597674 0.591181 -0.297305
0.601270 0.589042 -0.297158
0.607764 0.591033 -0.298716
0.610513 0.587654 -0.298062
0.619697 0.593283 -0.301141
0.625469 0.594035 -0.302210
0.634629 0.599358 -0.305190
0.636867 0.595152 -0.304208
0.639557 0.591586 -0.303490
0.653899 0.603508 -0.309274
0.659884 0.604162 -0.310346
0.659531 0.596504 -0.307918
0.663487 0.594496 -0.307870
0.666889 0.591770 -0.307519
0.670813 0.589703 -0.307450
0.674763 0.587656 -0.307391
0.682052 0.589727 -0.309097
0.687572 0.589535 -0.309843
0.691615 0.587499 -0.309804
0.697730 0.587935 -0.310833
0.703516 0.587914 -0.311674
0.711869 0.590859 -0.313809
0.717440 0.590441 -0.314497
0.723976 0.591085 -0.315656
0.730940 0.592144 -0.317007
0.737229 0.592357 -0.317998
0.742120 0.590932 -0.318278
0.746820 0.589257 -0.318453
0.751873 0.587938 -0.318792
0.761366 0.591415 -0.321266
0.762020 0.585220 -0.319453
0.772362 0.589427 -0.322279
0.783688 0.594522 -0.325526
0.790231 0.594436 -0.326470
0.794051 0.591455 -0.326119
0.801226 0.591904 -0.327323
0.805264 0.589078 -0.327054
0.809609 0.586541 -0.326921
0.817380 0.587394 -0.328340
0.829317 0.592267 -0.331616
0.831056 0.586993 -0.330257
0.844834 0.593399 -0.334280
0.848191 0.589608 -0.333619
0.843827 0.578483 -0.329556
0.847855 0.575381 -0.329208
0.856202 0.576279 -0.330733
0.868240 0.580477 -0.333824
0.884594 0.588446 -0.338717
0.893385 0.589345 -0.340311
0.899056 0.587353 -0.340554
0.907385 0.587671 -0.341902
0.917998 0.589900 -0.344179
0.926434 0.590115 -0.345514
0.934233 0.589698 -0.346559
0.941038 0.588366 -0.347176
0.951623 0.590163 -0.349317
0.960932 0.590787 -0.350908
0.969299 0.590549 -0.352094
0.977276 0.589928 -0.353103
0.988717 0.592052 -0.355472
0.995817 0.590599 -0.356094
1.003088 0.589254 -0.356773
1.013418 0.590280 -0.358636
1.023591 0.591118 -0.360417
1.030948 0.589735 -0.361093
1.037557 0.587775 -0.361478
1.044094 0.585771 -0.361837
1.060767 0.591346 -0.366034
1.068754 0.590384 -0.366924
1.072738 0.586506 -0.366318
1.079605 0.584791 -0.366803
1.091674 0.586851 -0.369220
1.103220 0.588518 -0.371434
0.014544 0.588237 -0.218505
0.017082 0.592364 -0.220181
0.019986 0.594308 -0.221208
0.022939 0.596364 -0.222275
0.026159 0.596712 -0.222830
0.029363 0.597586 -0.223549
0.032703 0.597641 -0.224023
0.036029 0.598165 -0.224642
0.039507 0.597540 -0.224913
0.042965 0.597364 -0.225323
0.046259 0.599271 -0.226374
0.049818 0.598551 -0.226621
0.053278 0.599224 -0.227298
0.056728 0.600333 -0.228111
0.060254 0.600725 -0.228705
0.063761 0.601639 -0.229463
0.067266 0.602907 -0.230332
0.070888 0.602442 -0.230664
0.074601 0.600196 -0.230441
0.078173 0.600607 -0.231045
0.081728 0.601622 -0.231839
0.085330 0.601622 -0.232317
0.088946 0.601183 -0.232656
0.092501 0.602884 -0.233670
0.096141 0.601204 -0.233617
0.099746 0.600558 -0.233891
0.103329 0.601015 -0.234513
0.106912 0.601817 -0.235245
0.110499 0.600830 -0.235409
0.114075 0.600251 -0.235701
0.117659 0.601681 -0.236636
0.121231 0.601602 -0.237088
0.124772 0.600183 -0.237111
0.128315 0.599581 -0.237395
0.131876 0.599954 -0.237992
0.135361 0.598109 -0.237874
0.138893 0.598063 -0.238336
0.142425 0.598075 -0.238817
0.145865 0.596274 -0.238708
0.149391 0.596467 -0.239248
0.153001 0.598114 -0.240263
0.156621 0.599698 -0.241260
0.160221 0.600788 -0.242098
0.163807 0.601560 -0.242833
0.167439 0.602843 -0.243738
0.170984 0.602943 -0.244256
0.174471 0.602372 -0.244552
0.177840 0.600606 -0.244453
0.182362 0.610774 -0.248313
0.185952 0.610907 -0.248850
0.188242 0.598959 -0.245362
0.191780 0.599118 -0.245902
0.195364 0.599634 -0.246563
0.199045 0.600878 -0.247469
0.202545 0.600590 -0.247863
0.206139 0.601007 -0.248496
0.210870 0.609650 -0.251906
0.214907 0.612786 -0.253467
0.218412 0.612067 -0.253728
0.222209 0.613285 -0.254647
0.225984 0.614252 -0.255483
0.229226 0.611838 -0.255169
0.231914 0.606222 -0.253760
0.235102 0.603796 -0.253437
0.238766 0.604160 -0.254068
0.242961 0.607378 -0.255682
0.246257 0.605582 -0.255576
0.249420 0.603149 -0.255249
0.252767 0.601739 -0.255273
0.256151 0.600533 -0.255368
0.259624 0.599778 -0.255620
0.263523 0.601026 -0.256570
0.267354 0.601858 -0.257377
0.269732 0.596079 -0.255878
0.274189 0.599652 -0.257647
0.279312 0.605884 -0.260356
0.284399 0.611652 -0.262912
0.287001 0.606908 -0.261776
0.289972 0.603807 -0.261214
0.294255 0.605961 -0.262509
0.298512 0.607887 -0.263729
0.302089 0.607113 -0.263994
0.305307 0.604987 -0.263778
0.308358 0.602293 -0.263359
0.311204 0.598919 -0.262695
0.314754 0.598102 -0.262944
0.319126 0.600099 -0.264204
0.322609 0.598970 -0.264345
0.326008 0.597562 -0.264385
0.331987 0.604582 -0.267471
0.336461 0.606487 -0.268718
0.339916 0.605064 -0.268763
0.342592 0.601230 -0.267931
0.345262 0.597460 -0.267118
0.349314 0.597918 -0.267846
0.353348 0.598261 -0.268535
0.357737 0.599584 -0.269586
0.363064 0.603502 -0.271596
0.366939 0.603166 -0.272047
0.368812 0.597251 -0.270440
0.371498 0.593691 -0.269698
0.376384 0.596108 -0.271169
0.382603 0.601939 -0.273914
0.387841 0.604998 -0.275640
0.390110 0.600291 -0.274474
0.394078 0.599984 -0.274950
0.398520 0.600827 -0.275858
0.405013 0.606652 -0.278642
0.408341 0.604589 -0.278469
0.413676 0.607344 -0.280113
0.415942 0.602737 -0.278979
0.419217 0.600563 -0.278763
0.424074 0.602041 -0.279934
0.427769 0.600805 -0.280076
0.430702 0.597855 -0.279565
0.434799 0.597509 -0.280047
0.439164 0.597717 -0.280744
0.442946 0.596625 -0.280946
0.446944 0.595978 -0.281319
0.452820 0.599245 -0.283205
0.459443 0.603932 -0.285649
0.465444 0.607193 -0.287552
0.463826 0.594954 -0.283439
0.467754 0.594032 -0.283716
0.472521 0.594744 -0.284633
0.477087 0.595006 -0.285378
0.482491 0.596833 -0.286740
0.487255 0.597362 -0.287598
0.490551 0.595083 -0.287355
0.494733 0.594461 -0.287765
0.498857 0.593706 -0.288125
0.503978 0.594736 -0.289195
0.509404 0.596246 -0.290461
0.513087 0.594596 -0.290474
0.515527 0.590769 -0.289617
0.523844 0.597157 -0.292849
0.526455 0.593596 -0.292102
0.529109 0.590150 -0.291398
0.528936 0.582009 -0.288796
0.540944 0.594158 -0.294390
0.547754 0.597495 -0.296438
0.550652 0.594387 -0.295878
0.555249 0.594023 -0.296434
0.558757 0.591901 -0.296275
0.562364 0.589937 -0.296180
0.569143 0.592889 -0.298104
0.577540 0.598215 -0.301016
0.584232 0.600800 -0.302812
0.584202 0.593197 -0.300405
0.588511 0.592152 -0.300706
0.592646 0.590828 -0.300894
0.599391 0.593285 -0.302660
0.610298 0.601635 -0.306897
0.613325 0.598543 -0.306366
0.614194 0.592423 -0.304562
0.623951 0.598786 -0.308005
0.631475 0.601888 -0.310091
0.627803 0.589570 -0.305665
0.630674 0.586307 -0.305060
0.641709 0.594000 -0.309113
0.645689 0.592132 -0.309112
0.653203 0.594892 -0.311092
0.659808 0.596362 -0.312532
0.664884 0.595785 -0.313102
0.669925 0.595122 -0.313641
0.674221 0.593477 -0.313761
0.678191 0.591405 -0.313699
0.683341 0.590779 -0.314267
0.688738 0.590411 -0.314954
0.691758 0.587112 -0.314368
0.693604 0.582411 -0.313167
0.703696 0.587548 -0.316285
0.715304 0.594311 -0.320141
0.717281 0.589654 -0.318976
0.722871 0.589198 -0.319670
0.728669 0.588928 -0.320454
0.735598 0.589878 -0.321791
0.741819 0.589954 -0.322749
0.746844 0.588636 -0.323092
0.752224 0.587667 -0.323599
0.769198 0.599269 -0.329782
0.771620 0.594893 -0.328781
0.773296 0.589736 -0.327423
0.782734 0.592812 -0.329810
0.788806 0.592233 -0.330548
0.795860 0.592610 -0.331734
0.801576 0.591533 -0.332266
0.808088 0.591210 -0.333154
0.813609 0.589821 -0.333561
0.823335 0.592570 -0.335896
0.829757 0.591929 -0.336675
0.840495 0.595436 -0.339402
0.846688 0.594399 -0.340025
0.851766 0.592231 -0.340127
0.853858 0.587196 -0.338884
0.864952 0.590625 -0.341646
0.872915 0.590994 -0.342980
0.879117 0.589654 -0.343515
0.888587 0.591232 -0.345457
0.894387 0.589385 -0.345775
0.902428 0.589493 -0.347044
0.911312 0.590260 -0.348647
0.919005 0.589886 -0.349714
0.927694 0.590302 -0.351179
0.936493 0.590721 -0.352662
0.943217 0.589292 -0.353255
0.952509 0.589972 -0.354895
0.960512 0.589491 -0.355978
0.968859 0.589231 -0.357181
0.976682 0.588479 -0.358152
0.989509 0.591713 -0.361124
0.996309 0.590008 -0.361641
1.003407 0.588515 -0.362267
1.012553 0.588602 -0.363697
1.025066 0.591250 -0.366434
1.032251 0.589718 -0.367057
1.040868 0.589269 -0.368232
1.050298 0.589413 -0.369714
1.059579 0.589422 -0.371128
1.066673 0.587805 -0.371699
1.075479 0.587463 -0.372924
1.082442 0.585797 -0.373452
1.089946 0.584558 -0.374192
1.102567 0.586993 -0.376850
0.013316 0.593210 -0.223447
0.016002 0.596368 -0.224854
0.018977 0.597886 -0.225767
0.022516 0.595362 -0.225444
0.025735 0.595680 -0.225995
0.028816 0.597589 -0.227041
0.032160 0.597620 -0.227510
0.035614 0.596947 -0.227765
0.038980 0.597393 -0.228368
0.042195 0.599765 -0.229572
0.045747 0.598980 -0.229797
0.049250 0.598943 -0.230256
0.052734 0.599364 -0.230860
0.056236 0.599837 -0.231481
0.059765 0.600199 -0.232070
0.063331 0.600248 -0.232561
0.066839 0.601387 -0.233397
0.070444 0.601166 -0.233805
0.074101 0.600001 -0.233914
0.077652 0.600936 -0.234688
0.081257 0.600853 -0.235140
0.084859 0.600892 -0.235632
0.088464 0.600843 -0.236095
0.092082 0.600244 -0.236382
0.095685 0.599942 -0.236764
0.099286 0.599484 -0.237096
0.102860 0.600643 -0.237948
0.106445 0.601382 -0.238666
0.110035 0.601421 -0.239158
0.113619 0.600758 -0.239424
0.117205 0.601670 -0.240200
0.120774 0.601042 -0.240476
0.124312 0.599224 -0.240364
0.127864 0.599001 -0.240771
0.131480 0.601261 -0.241991
0.134989 0.599738 -0.241972
0.138703 0.604087 -0.243884
0.142167 0.601732 -0.243592
0.145708 0.601531 -0.244009
0.149280 0.601994 -0.244646
0.153662 0.616392 -0.249904
0.156883 0.610135 -0.248320
0.160418 0.609457 -0.248586
0.164346 0.614278 -0.250686
0.168115 0.616458 -0.251910
0.171386 0.612376 -0.251040
0.174362 0.605381 -0.249189
0.177863 0.604812 -0.249489
0.181721 0.607969 -0.251046
0.185665 0.611647 -0.252784
0.187949 0.599507 -0.249175
0.191518 0.599865 -0.249788
0.195021 0.599622 -0.250199
0.198664 0.600525 -0.251001
0.202151 0.600107 -0.251354
0.205558 0.599084 -0.251502
0.209919 0.605084 -0.254055
0.214452 0.611851 -0.256880
0.217963 0.611173 -0.257156
0.221688 0.611915 -0.257922
0.225036 0.610171 -0.257832
0.228554 0.609550 -0.258130
0.230583 0.600004 -0.255334
0.233936 0.598687 -0.255384
0.237831 0.600473 -0.256515
0.242152 0.604473 -0.258423
0.245438 0.602669 -0.258309
0.248857 0.601621 -0.258458
0.251890 0.598618 -0.257922
0.255449 0.598334 -0.258339
0.258647 0.596279 -0.258134
0.263467 0.601933 -0.260650
0.266568 0.599357 -0.260264
0.269466 0.595947 -0.259580
0.273235 0.596481 -0.260294
0.279512 0.607735 -0.264829
0.284165 0.611621 -0.266753
0.286204 0.604532 -0.264760
0.290141 0.605349 -0.265592
0.295069 0.610005 -0.267806
0.298392 0.608215 -0.267709
0.301359 0.605099 -0.267133
0.305270 0.605570 -0.267851
0.308366 0.603008 -0.267474
0.311060 0.599056 -0.266590
0.314527 0.597923 -0.266727
0.318884 0.599857 -0.267983
0.322563 0.599378 -0.268363
0.326144 0.598547 -0.268616
0.330940 0.601672 -0.270320
0.336536 0.607216 -0.272921
0.340407 0.607078 -0.273440
0.344007 0.606056 -0.273634
0.345381 0.598234 -0.271315
0.349205 0.597977 -0.271789
0.353027 0.597679 -0.272250
0.356898 0.597487 -0.272753
0.363007 0.603661 -0.275633
0.366059 0.600989 -0.275218
0.368491 0.596642 -0.274173
0.373260 0.598759 -0.275552
0.378770 0.602763 -0.277647
0.382358 0.601515 -0.277769
0.386509 0.601727 -0.278445
0.389529 0.598984 -0.278003
0.391046 0.592469 -0.276127
0.401449 0.608293 -0.282745
0.406441 0.610303 -0.284123
0.409736 0.608094 -0.283894
0.412326 0.604214 -0.283025
0.415654 0.602144 -0.282846
0.420897 0.604545 -0.284387
0.425340 0.605005 -0.285187
0.429251 0.604202 -0.285502
0.430744 0.597975 -0.283717
0.434259 0.596329 -0.283703
0.439997 0.599528 -0.285574
0.443156 0.597061 -0.285244
0.445742 0.593398 -0.284445
0.452913 0.599394 -0.287428
0.457789 0.600452 -0.288484
0.467244 0.610798 -0.293203
0.470118 0.607569 -0.292586
0.472447 0.603289 -0.291552
0.475288 0.600082 -0.290939
0.477187 0.595080 -0.289609
0.481263 0.594341 -0.289972
0.486005 0.594843 -0.290832
0.489827 0.593569 -0.290985
0.493787 0.592539 -0.291237
0.498202 0.592327 -0.291820
0.503537 0.593745 -0.293062
0.508075 0.593663 -0.293705
0.512989 0.594209 -0.294606
0.515070 0.589746 -0.293479
0.520537 0.591199 -0.294754
0.527736 0.595542 -0.297213
0.531156 0.593355 -0.297016
0.534751 0.591469 -0.296942
0.541136 0.594198 -0.298763
0.548135 0.597828 -0.300965
0.550761 0.594265 -0.300210
0.555369 0.593907 -0.300779
0.560042 0.593617 -0.301379
0.564793 0.593414 -0.302019
0.570085 0.594009 -0.302996
0.579823 0.601362 -0.306801
0.585882 0.602939 -0.308208
0.583599 0.591922 -0.304336
0.587902 0.590870 -0.304639
0.592186 0.589765 -0.304923
0.602317 0.597139 -0.308797
0.611008 0.602244 -0.311729
0.610827 0.594564 -0.309243
0.612832 0.590077 -0.308106
0.622166 0.595856 -0.311352
0.633723 0.604539 -0.315861
0.637686 0.602620 -0.315841
0.637669 0.595307 -0.313500
0.641551 0.593313 -0.313445
0.643623 0.588909 -0.312349
0.648255 0.587903 -0.312724
0.658808 0.594556 -0.316438
0.666834 0.597777 -0.318676
0.670444 0.595257 -0.318416
0.674085 0.592773 -0.318174
0.678167 0.590834 -0.318172
0.683171 0.590017 -0.318669
0.692798 0.594818 -0.321658
0.697780 0.593841 -0.322102
0.699744 0.589204 -0.320924
0.705142 0.588679 -0.321578
0.716990 0.595692 -0.325611
0.717082 0.588815 -0.323439
0.722040 0.587623 -0.323817
0.728205 0.587770 -0.324805
0.736261 0.589991 -0.326742
0.742658 0.590246 -0.327803
0.745719 0.586732 -0.327158
0.753742 0.588669 -0.329003
0.765414 0.594468 -0.332633
0.772428 0.595070 -0.333903
0.775624 0.591520 -0.333272
0.782290 0.591632 -0.334336
0.789646 0.592391 -0.335712
0.795993 0.592017 -0.336575
0.802374 0.591611 -0.337435
0.808511 0.590890 -0.338158
0.816831 0.592300 -0.339894
0.824252 0.592710 -0.341177
0.834643 0.595961 -0.343817
0.838424 0.592618 -0.343353
0.849475 0.596284 -0.346230
0.852316 0.591942 -0.345308
0.856572 0.588945 -0.345031
0.867145 0.591847 -0.347596
0.873547 0.590736 -0.348249
0.883078 0.592439 -0.350277
0.890407 0.592020 -0.351295
0.897402 0.591225 -0.352143
0.905946 0.591742 -0.353647
0.912399 0.590321 -0.354215
0.920459 0.590248 -0.355459
0.930682 0.591966 -0.357605
0.936670 0.589942 -0.357914
0.946638 0.591253 -0.359892
0.953301 0.589687 -0.360450
0.962310 0.590025 -0.361974
0.969308 0.588631 -0.362638
0.979087 0.589459 -0.364435
0.985862 0.587784 -0.364974
0.996714 0.589333 -0.367164
1.002500 0.586795 -0.367275
1.021616 0.594673 -0.372743
1.025490 0.590555 -0.372055
1.034645 0.590523 -0.373475
1.041910 0.589024 -0.374136
1.051914 0.589584 -0.375869
1.058669 0.587697 -0.376322
1.065858 0.586153 -0.376946
1.071584 0.583567 -0.377011
1.082605 0.584857 -0.379116
1.089937 0.583492 -0.379806
1.090983 0.577713 -0.378122
0.012455 0.595459 -0.227601
0.015434 0.596483 -0.228367
0.018419 0.597920 -0.229267
0.021943 0.595531 -0.228978
0.025133 0.596098 -0.229613
0.028333 0.596993 -0.230354
0.031701 0.596792 -0.230754
0.035257 0.595143 -0.230701
0.038474 0.596991 -0.231749
0.041806 0.598135 -0.232580
0.045287 0.598066 -0.233029
0.048751 0.598452 -0.233624
0.052210 0.599192 -0.234334
0.055695 0.599899 -0.235034
0.059477 0.596818 -0.234528
0.062882 0.599055 -0.235719
0.066436 0.599409 -0.236310
0.070011 0.599601 -0.236850
0.073550 0.600632 -0.237660
0.077122 0.601287 -0.238352
0.080734 0.601196 -0.238803
0.084364 0.600630 -0.239100
0.087978 0.600416 -0.239512
0.091607 0.599500 -0.239695
0.095226 0.598582 -0.239876
0.098811 0.598893 -0.240458
0.102388 0.599971 -0.241291
0.105964 0.602197 -0.242502
0.109553 0.607158 -0.244615
0.113176 0.608422 -0.245517
0.116828 0.612292 -0.247281
0.120421 0.608875 -0.246642
0.123980 0.605736 -0.246091
0.127523 0.603489 -0.245832
0.131237 0.608309 -0.247921
0.134880 0.609619 -0.248847
0.138520 0.610634 -0.249677
0.142206 0.612560 -0.250813
0.145890 0.614138 -0.251836
0.149583 0.615623 -0.252831
0.152765 0.608034 -0.250774
0.156538 0.611137 -0.252313
0.160277 0.613326 -0.253549
0.164183 0.617537 -0.255473
0.167793 0.617411 -0.255932
0.171185 0.614647 -0.255495
0.174554 0.611936 -0.255073
0.177393 0.603770 -0.252786
0.181519 0.609699 -0.255311
0.185075 0.609448 -0.255727
0.187852 0.601926 -0.253646
0.191233 0.600458 -0.253639
0.194710 0.599914 -0.253950
0.198193 0.599452 -0.254290
0.201688 0.599101 -0.254669
0.205188 0.598787 -0.255062
0.210208 0.609608 -0.259327
0.213640 0.608418 -0.259424
0.217481 0.610069 -0.260513
0.221021 0.609589 -0.260860
0.223147 0.600068 -0.258040
0.226462 0.598473 -0.257991
0.229825 0.597222 -0.258062
0.233230 0.596257 -0.258235
0.237058 0.597709 -0.259261
0.241435 0.602074 -0.261323
0.245223 0.603003 -0.262173
0.249007 0.603819 -0.262987
0.252915 0.605189 -0.264001
0.255824 0.601488 -0.263209
0.259130 0.599846 -0.263150
0.263022 0.601014 -0.264097
0.266727 0.601225 -0.264704
0.268809 0.594064 -0.262660
0.272208 0.592983 -0.262801
0.278427 0.604060 -0.267336
0.283692 0.610592 -0.270243
0.287343 0.610142 -0.270629
0.291491 0.611677 -0.271738
0.295110 0.611007 -0.272048
0.297825 0.606817 -0.271073
0.301359 0.605860 -0.271277
0.305901 0.608649 -0.272856
0.308750 0.605104 -0.272114
0.310584 0.598008 -0.270061
0.314737 0.599288 -0.271090
0.318732 0.599929 -0.271887
0.322342 0.599198 -0.272179
0.326085 0.598892 -0.272630
0.330178 0.599695 -0.273496
0.334843 0.602265 -0.275024
0.340449 0.607677 -0.277621
0.343693 0.605522 -0.277395
0.345094 0.597768 -0.275066
0.348805 0.597164 -0.275417
0.352916 0.597717 -0.276205
0.357265 0.598900 -0.277235
0.362933 0.603774 -0.279667
0.368085 0.607000 -0.281484
0.368578 0.597162 -0.278341
0.374883 0.603452 -0.281331
0.378636 0.602647 -0.281624
0.381321 0.598991 -0.280827
0.385926 0.600413 -0.281975
0.389981 0.600333 -0.282550
0.394168 0.600551 -0.283243
0.399593 0.603811 -0.285114
0.405374 0.607811 -0.287279
0.408618 0.605499 -0.287005
0.410631 0.600259 -0.285592
0.413566 0.597301 -0.285062
0.418637 0.599354 -0.286487
0.427075 0.609046 -0.290908
0.430451 0.606963 -0.290730
0.430434 0.597306 -0.287573
0.433859 0.595456 -0.287478
0.438854 0.597036 -0.288738
0.443428 0.597626 -0.289612
0.446923 0.595873 -0.289560
0.454271 0.602196 -0.292720
0.463377 0.611956 -0.297264
0.467643 0.611542 -0.297765
0.469606 0.606450 -0.296396
0.472531 0.603358 -0.295823
0.476161 0.601690 -0.295820
0.477659 0.595877 -0.294147
0.481790 0.595219 -0.294549
0.485445 0.593634 -0.294578
0.489351 0.592518 -0.294798
0.493751 0.592303 -0.295386
0.498816 0.593270 -0.296459
0.502984 0.592551 -0.296849
0.507096 0.591709 -0.297190
0.511542 0.591436 -0.297767
0.516731 0.592426 -0.298868
0.521465 0.592568 -0.299624
