ply
format ascii 1.0
comment ---
element vertex 1771
property float x
property float y
property float z
element face 0
property list uchar uint vertex_indices
end_header
1.374983 0.592644 0.358928
1.393215 0.594113 0.362222
1.406456 0.593016 0.364311
1.418745 0.591369 0.366154
1.433184 0.590654 0.368478
1.449868 0.590882 0.371298
1.469830 0.592495 0.374847
1.482128 0.590478 0.376584
1.498276 0.590126 0.379181
1.514720 0.589809 0.381810
1.529783 0.588793 0.384085
1.544956 0.587753 0.386347
1.562530 0.587668 0.389117
1.575537 0.585573 0.390808
1.599204 0.587883 0.394864
1.623151 0.590173 0.398925
1.632431 0.586376 0.399645
1.639573 0.581744 0.399854
1.689738 0.594216 0.409574
1.680709 0.583148 0.406106
1.712241 0.587986 0.411555
1.711877 0.580466 0.409940
1.711443 0.573055 0.408289
1.754550 0.582035 0.416066
1.778635 0.583753 0.419629
1.799176 0.584110 0.422361
1.824023 0.585985 0.425952
1.803312 0.571562 0.419772
1.800128 0.563623 0.417330
1.811963 0.561078 0.418043
1.806430 0.552596 0.415070
1.553783 0.460111 0.360530
0.258178 0.613996 0.213756
0.258494 0.605251 0.212159
0.258563 0.595509 0.210299
0.259340 0.588907 0.209170
0.262354 0.591749 0.210299
0.265989 0.596886 0.211977
0.270246 0.604207 0.214180
0.273315 0.606336 0.215118
0.272720 0.593735 0.212454
0.274535 0.590720 0.212105
0.276279 0.587355 0.211655
0.280995 0.595104 0.213920
0.284365 0.597457 0.214852
0.288890 0.603772 0.216752
0.294270 0.612788 0.219314
0.292091 0.594715 0.215158
0.295167 0.595297 0.215605
0.299723 0.600767 0.217258
0.301921 0.598010 0.216853
0.305388 0.599404 0.217472
0.308240 0.598632 0.217539
0.311126 0.597878 0.217600
0.314248 0.597779 0.217816
0.317197 0.597045 0.217863
0.320013 0.595832 0.217781
0.327304 0.608003 0.221063
0.330288 0.606983 0.221019
0.333309 0.606021 0.220982
0.335467 0.602538 0.220302
0.337351 0.598318 0.219428
0.340647 0.598087 0.219559
0.344107 0.598254 0.219788
0.347368 0.597821 0.219862
0.351262 0.599035 0.220354
0.356625 0.604017 0.221804
0.361104 0.606526 0.222626
0.363396 0.603348 0.221998
0.364815 0.598027 0.220820
0.370832 0.604205 0.222583
0.373803 0.602737 0.222392
0.377596 0.603253 0.222711
0.381482 0.603944 0.223077
0.385618 0.605170 0.223584
0.390555 0.608187 0.224556
0.394454 0.608725 0.224895
0.395097 0.601878 0.223332
0.393850 0.590970 0.220719
0.398142 0.592485 0.221317
0.401783 0.592520 0.221537
0.407016 0.595939 0.222639
0.410191 0.594890 0.222588
0.415141 0.597549 0.223505
0.420180 0.600301 0.224454
0.423650 0.599757 0.224550
0.427115 0.599190 0.224645
0.430689 0.598826 0.224799
0.434034 0.597990 0.224834
0.437965 0.598285 0.225171
0.441637 0.598048 0.225373
0.449024 0.604845 0.227434
0.453479 0.605948 0.228005
0.456490 0.604318 0.227861
0.457482 0.598986 0.226741
0.460001 0.596516 0.226381
0.464634 0.597862 0.227039
0.468359 0.597537 0.227259
0.473582 0.599818 0.228180
0.478312 0.601161 0.228859
0.480858 0.598689 0.228525
0.487199 0.602687 0.229929
0.488816 0.598624 0.229177
0.490246 0.594304 0.228359
0.489701 0.586791 0.226680
0.491408 0.583067 0.226024
0.495753 0.583637 0.226533
0.504339 0.590922 0.228872
0.508774 0.591473 0.229393
0.518558 0.600327 0.232186
0.527560 0.607755 0.234606
0.528346 0.602428 0.233547
0.535170 0.606312 0.235018
0.542618 0.611013 0.236725
0.547956 0.612451 0.237545
0.547043 0.604641 0.235815
0.546737 0.597830 0.234358
0.550543 0.597035 0.234571
0.555287 0.597552 0.235155
0.557761 0.594815 0.234837
0.561282 0.593556 0.234935
0.571565 0.601632 0.237660
0.578992 0.605600 0.239247
0.589444 0.607265 0.240684
0.587441 0.598396 0.238661
0.591325 0.597410 0.238875
0.598376 0.600529 0.240266
0.604518 0.602371 0.241303
0.606262 0.598509 0.240714
0.610647 0.598021 0.241096
0.612972 0.594916 0.240729
0.612424 0.588255 0.239334
0.617711 0.588857 0.240045
0.627739 0.595184 0.242431
0.637450 0.600961 0.244676
0.639857 0.597849 0.244333
0.641162 0.593444 0.243611
0.644180 0.591084 0.243493
0.653849 0.596454 0.245665
0.658657 0.596080 0.246150
0.662579 0.594653 0.246329
0.666073 0.592723 0.246363
0.673385 0.595054 0.247678
0.677627 0.593887 0.247955
0.683221 0.594179 0.248677
0.688860 0.594467 0.249408
0.693252 0.593353 0.249722
0.698426 0.593047 0.250289
0.703600 0.592695 0.250851
0.709356 0.592908 0.251594
0.714004 0.591916 0.251976
0.719433 0.591695 0.252603
0.724635 0.591193 0.253153
0.731463 0.592290 0.254209
0.737245 0.592267 0.254928
0.742932 0.592096 0.255611
0.749174 0.592420 0.256459
0.754112 0.591414 0.256899
0.760420 0.591693 0.257754
0.768364 0.593471 0.259100
0.769667 0.588882 0.258424
0.779014 0.591855 0.260177
0.785670 0.592218 0.261108
0.791854 0.592083 0.261891
0.800054 0.593727 0.263265
0.805402 0.592709 0.263787
0.809699 0.590709 0.263996
0.817157 0.591486 0.265128
0.820582 0.588649 0.265081
0.827673 0.588989 0.266094
0.830665 0.585732 0.265923
0.841002 0.588733 0.267855
0.849403 0.589979 0.269220
0.859902 0.592889 0.271169
0.861153 0.588021 0.270496
0.858880 0.580286 0.268845
0.883840 0.588800 0.273791
0.905147 0.599868 0.278673
0.910828 0.598319 0.279215
0.916276 0.596543 0.279691
0.920404 0.593706 0.279807
0.926548 0.592395 0.280473
0.928889 0.588145 0.280108
0.942066 0.592051 0.282664
0.953968 0.594855 0.284860
0.950501 0.586191 0.282946
0.942801 0.574525 0.279929
0.938632 0.565561 0.277875
0.950875 0.568443 0.280160
1.000381 0.591353 0.291209
1.020037 0.598799 0.295346
1.022778 0.594374 0.295080
1.032442 0.594661 0.296604
1.045371 0.597050 0.298957
1.052415 0.595371 0.299793
1.058752 0.593166 0.300447
1.070116 0.594193 0.302375
1.082236 0.595591 0.304484
1.090382 0.594316 0.305582
1.099301 0.593455 0.306871
1.110878 0.594175 0.308817
1.122370 0.594723 0.310733
1.135752 0.596311 0.313108
1.145425 0.595506 0.314554
1.152380 0.592976 0.315327
1.165671 0.594151 0.317650
1.174164 0.592368 0.318790
1.186499 0.592742 0.320861
1.196178 0.591465 0.322277
1.210881 0.592954 0.324900
1.224704 0.593794 0.327296
1.234758 0.592401 0.328776
1.250628 0.594112 0.331637
1.260616 0.592465 0.333080
1.275383 0.593298 0.335650
1.285569 0.591553 0.337119
1.292578 0.588054 0.337831
1.310877 0.590366 0.341189
1.329556 0.592693 0.344613
1.346132 0.593772 0.347521
1.354538 0.590608 0.348507
1.373876 0.592799 0.352016
1.390160 0.593319 0.354791
1.405882 0.593430 0.357412
1.421988 0.593596 0.360096
1.433852 0.591637 0.361783
1.444850 0.589200 0.363251
1.467159 0.591908 0.367265
1.482394 0.591220 0.369638
1.493845 0.588738 0.371127
1.509264 0.587968 0.373481
1.529794 0.589349 0.376943
1.546796 0.589070 0.379574
1.562597 0.588188 0.381898
1.581235 0.588433 0.384810
1.598827 0.588149 0.387444
1.615415 0.587377 0.389812
1.637106 0.588621 0.393251
1.652903 0.587397 0.395349
1.665516 0.584873 0.396709
1.696376 0.589499 0.401970
1.699373 0.583173 0.401160
1.704823 0.577887 0.400849
1.716591 0.575069 0.401854
1.737836 0.575815 0.404828
1.768414 0.579952 0.409713
1.770779 0.573674 0.408583
1.829062 0.587667 0.419135
1.806650 0.572570 0.412737
1.806798 0.565742 0.411043
1.781765 0.537415 0.400649
0.258411 0.616596 0.211549
0.259656 0.611848 0.210914
0.260918 0.607119 0.210265
0.259921 0.592647 0.207298
0.260512 0.585145 0.205952
0.263455 0.587460 0.206915
0.268022 0.596149 0.209387
0.272451 0.603817 0.211616
0.275740 0.606536 0.212656
0.271241 0.578678 0.206350
0.276193 0.587723 0.208877
0.279892 0.591584 0.210151
0.284958 0.600219 0.212571
0.288897 0.604301 0.213884
0.292315 0.606221 0.214665
0.292473 0.596430 0.212588
0.293428 0.589570 0.211203
0.298960 0.598415 0.213634
0.302649 0.600653 0.214446
0.305265 0.599147 0.214332
0.308169 0.598503 0.214418
0.311149 0.598009 0.214531
0.314396 0.598265 0.214820
0.317327 0.597434 0.214832
0.320063 0.595939 0.214672
0.327242 0.607742 0.217788
0.331042 0.609110 0.218325
0.333187 0.605543 0.217636
0.336148 0.604348 0.217527
0.337647 0.598996 0.216382
0.340898 0.598616 0.216466
0.344185 0.598287 0.216559
0.347540 0.598098 0.216685
0.350891 0.597853 0.216796
0.356000 0.602176 0.218045
0.359558 0.602329 0.218254
0.362479 0.600809 0.218046
0.366645 0.602422 0.218622
0.369938 0.601791 0.218638
0.373604 0.602052 0.218878
0.376874 0.601322 0.218872
0.381068 0.602771 0.219416
0.384729 0.602905 0.219633
0.389376 0.605285 0.220419
0.393354 0.606044 0.220801
0.396983 0.605971 0.220977
0.399796 0.604054 0.220691
0.398097 0.592247 0.217902
0.402796 0.594587 0.218699
0.411952 0.606389 0.221904
0.412527 0.599718 0.220425
0.417183 0.601713 0.221153
0.420097 0.600035 0.220950
0.423395 0.599153 0.220955
0.426684 0.598248 0.220959
0.430339 0.598063 0.221152
0.434278 0.598414 0.221488
0.437926 0.598162 0.221674
0.441745 0.598217 0.221945
0.447309 0.601557 0.223069
0.453078 0.605176 0.224274
0.456028 0.603449 0.224105
0.457537 0.599084 0.223256
0.460155 0.596801 0.222951
0.464247 0.597182 0.223341
0.467949 0.596831 0.223548
0.473058 0.598928 0.224398
0.472409 0.590946 0.222622
0.482119 0.600900 0.225542
0.487164 0.602680 0.226333
0.489593 0.599990 0.225957
0.490837 0.595352 0.225070
0.490093 0.587506 0.223338
0.493735 0.586933 0.223527
0.498413 0.588007 0.224159
0.501843 0.587035 0.224254
0.504166 0.584299 0.223885
0.511813 0.589898 0.225743
0.523105 0.600981 0.229081
0.517925 0.586601 0.225611
0.525068 0.591137 0.227213
0.542064 0.610311 0.232770
0.546027 0.609723 0.233022
0.543048 0.598910 0.230513
0.545982 0.596874 0.230377
0.550614 0.597281 0.230909
0.554618 0.596748 0.231191
0.558111 0.595463 0.231274
0.560221 0.592230 0.230828
0.566738 0.595118 0.232065
0.578742 0.605425 0.235357
0.583597 0.605791 0.235924
0.592751 0.611883 0.238085
0.591181 0.603549 0.236255
0.592399 0.599005 0.235474
0.597334 0.599355 0.236060
0.602635 0.600128 0.236772
0.603041 0.594580 0.235717
0.601148 0.586181 0.233856
0.605683 0.585966 0.234301
0.612248 0.588235 0.235456
0.617568 0.588883 0.236161
0.626626 0.594033 0.238157
0.638214 0.602097 0.241003
0.640304 0.598598 0.240554
0.642757 0.589632 0.239092
0.654137 0.597013 0.241794
0.661071 0.599086 0.242976
0.663633 0.596084 0.242691
0.667887 0.595003 0.242970
0.673209 0.595091 0.243598
0.678839 0.595469 0.244319
0.686045 0.597523 0.245544
0.690493 0.596487 0.245866
0.694490 0.594933 0.246041
0.697352 0.592148 0.245853
0.703041 0.592355 0.246564
0.709228 0.593029 0.247425
0.714527 0.592717 0.248000
0.718011 0.590492 0.248004
0.724499 0.591317 0.248938
0.732038 0.593137 0.250187
0.736316 0.591608 0.250426
0.740274 0.589735 0.250566
0.751400 0.594882 0.252874
0.756261 0.593785 0.253274
0.762153 0.593647 0.253979
0.768144 0.593549 0.254707
0.774627 0.593863 0.255575
0.779372 0.592485 0.255924
0.785171 0.592054 0.256580
0.792475 0.592957 0.257668
0.799677 0.593691 0.258718
0.805497 0.593105 0.259360
0.810982 0.592171 0.259902
0.814174 0.589164 0.259786
0.823298 0.591355 0.261357
0.833756 0.594601 0.263291
0.839069 0.593296 0.263762
0.844964 0.592448 0.264394
0.854269 0.594432 0.265971
0.862567 0.595469 0.267256
0.870674 0.596263 0.268478
0.880852 0.598674 0.270259
0.885720 0.596655 0.270578
0.904224 0.605584 0.274598
0.910529 0.604544 0.275288
0.910729 0.598629 0.274332
0.916979 0.597487 0.275008
0.922142 0.595451 0.275391
0.926579 0.592823 0.275582
0.937853 0.595366 0.277579
0.935749 0.587716 0.276047
0.949467 0.591928 0.278672
0.948276 0.584978 0.277393
0.937689 0.571218 0.273693
0.957187 0.567430 0.275930
1.008303 0.597389 0.288046
1.011964 0.593672 0.288017
1.024633 0.596142 0.290270
1.036256 0.597759 0.292246
1.044497 0.596972 0.293362
1.051321 0.595160 0.294121
1.061438 0.595467 0.295697
1.072370 0.596204 0.297467
1.078171 0.593506 0.297962
1.087638 0.593113 0.299360
1.097107 0.592629 0.300752
1.110393 0.594446 0.303069
1.122958 0.595672 0.305199
1.133168 0.595320 0.306747
1.141444 0.593692 0.307822
1.150804 0.592640 0.309155
1.162158 0.592685 0.310960
1.174999 0.593489 0.313111
1.187087 0.593724 0.315072
1.199168 0.593832 0.317021
1.212811 0.594709 0.319330
1.224182 0.594167 0.321091
1.234866 0.593133 0.322683
1.248503 0.593624 0.324956
1.265130 0.595606 0.327911
1.278361 0.595591 0.330061
1.285119 0.592008 0.330703
1.294406 0.589709 0.331923
1.304576 0.587794 0.333338
1.332990 0.595160 0.338916
1.350354 0.596620 0.341936
1.358969 0.593530 0.342946
1.368885 0.591029 0.344241
1.393464 0.595634 0.348832
1.411781 0.596974 0.351979
1.426679 0.596522 0.354331
1.433939 0.592350 0.354952
1.441901 0.588484 0.355717
1.462082 0.590217 0.359177
1.480303 0.590899 0.362168
1.494728 0.589743 0.364288
1.509592 0.588699 0.366474
1.525873 0.588194 0.368937
1.547479 0.589902 0.372525
1.563664 0.589152 0.374890
1.585981 0.590912 0.378542
1.601523 0.589715 0.380682
1.613309 0.586915 0.381975
1.630951 0.586486 0.384485
1.654708 0.588448 0.388248
1.664266 0.584661 0.388941
1.690285 0.587352 0.393074
1.705961 0.585916 0.394966
1.716065 0.582331 0.395642
1.724023 0.577973 0.395831
1.750384 0.580547 0.399806
1.776711 0.583011 0.403703
1.790569 0.580837 0.404964
1.789480 0.573300 0.403117
1.805300 0.571936 0.404698
1.808884 0.566275 0.403747
1.810674 0.560103 0.402408
1.808697 0.552761 0.400291
1.709717 0.512568 0.378788
0.254910 0.602314 0.205437
0.259801 0.613913 0.208559
0.262525 0.615470 0.209368
0.261151 0.599154 0.206028
0.261091 0.588715 0.204020
0.262982 0.586537 0.203912
0.266339 0.590241 0.205164
0.272364 0.604378 0.208851
0.276588 0.610734 0.210716
0.276301 0.599117 0.208346
0.276199 0.588411 0.206166
0.280453 0.594294 0.207883
0.283231 0.594350 0.208214
0.287389 0.599267 0.209686
0.290917 0.601610 0.210539
0.291828 0.594488 0.209126
0.295789 0.598041 0.210243
0.300735 0.604700 0.212095
0.302260 0.599521 0.211106
0.305079 0.598656 0.211137
0.307947 0.597863 0.211175
0.311138 0.598016 0.211431
0.314209 0.597680 0.211560
0.318717 0.601711 0.212735
0.320498 0.597206 0.211843
0.326252 0.604684 0.213841
0.329938 0.605738 0.214281
0.333330 0.605826 0.214482
0.335220 0.601543 0.213617
0.337658 0.598868 0.213137
0.340683 0.597845 0.213055
0.344211 0.598176 0.213299
0.347590 0.598043 0.213429
0.351678 0.599751 0.214007
0.355576 0.600869 0.214441
0.358794 0.600156 0.214428
0.361565 0.598285 0.214131
0.366267 0.601277 0.215027
0.369254 0.599904 0.214854
0.373014 0.600424 0.215148
0.376271 0.599684 0.215134
0.378669 0.596894 0.214618
0.381095 0.594213 0.214130
0.386349 0.598115 0.215269
0.391811 0.602366 0.216499
0.397854 0.607785 0.218025
0.403655 0.612499 0.219383
0.404977 0.607228 0.218273
0.407442 0.604542 0.217806
0.410607 0.603396 0.217725
0.416407 0.607823 0.219035
0.418978 0.605368 0.218638
0.421404 0.602649 0.218178
0.423628 0.599554 0.217628
0.426688 0.598191 0.217514
0.430150 0.597631 0.217606
0.433819 0.597464 0.217802
0.438566 0.599370 0.218524
0.442096 0.598864 0.218646
0.447787 0.602445 0.219804
0.452974 0.604971 0.220705
0.455932 0.603268 0.220543
0.457330 0.598712 0.219662
0.460143 0.596793 0.219453
0.463638 0.596112 0.219562
0.468332 0.597543 0.220216
0.470039 0.593665 0.219521
0.472854 0.591765 0.219334
0.476488 0.591279 0.219513
0.485770 0.600372 0.222158
0.488524 0.598260 0.221935
0.490269 0.594480 0.221285
0.489872 0.587222 0.219740
0.498025 0.594006 0.221827
0.500588 0.591603 0.221545
0.503658 0.590025 0.221480
0.502786 0.582222 0.219798
0.508831 0.585350 0.220967
0.521645 0.598840 0.224857
0.524427 0.596669 0.224661
0.528935 0.597118 0.225158
0.536041 0.601415 0.226676
0.542154 0.604113 0.227782
0.542748 0.598610 0.226727
0.545742 0.596669 0.226617
0.550629 0.597453 0.227235
0.555155 0.597667 0.227708
0.558426 0.596064 0.227702
0.561212 0.593776 0.227516
0.565025 0.592912 0.227716
0.570828 0.594753 0.228651
0.579726 0.600714 0.230707
0.580772 0.595969 0.229878
0.585015 0.595527 0.230217
0.591588 0.598121 0.231389
0.595520 0.597176 0.231605
0.601003 0.598210 0.232368
0.599174 0.589824 0.230552
0.597476 0.581719 0.228807
0.605995 0.586554 0.230630
0.611852 0.587943 0.231513
0.617694 0.589243 0.232381
0.626502 0.594091 0.234246
0.639084 0.603361 0.237363
0.643044 0.602093 0.237547
0.638292 0.590474 0.234824
0.635384 0.581192 0.232749
0.647904 0.589986 0.235780
0.658094 0.595883 0.238012
0.663815 0.596521 0.238764
0.667563 0.594868 0.238870
0.673827 0.596017 0.239784
0.678431 0.595253 0.240157
0.687044 0.598860 0.241799
0.692737 0.599173 0.242502
0.697493 0.598418 0.242903
0.706511 0.602181 0.244629
0.713676 0.603862 0.245762
0.710262 0.594365 0.243625
0.715030 0.593494 0.244018
0.720415 0.593223 0.244597
0.727285 0.594419 0.245619
0.733405 0.594782 0.246405
0.736427 0.591985 0.246256
0.738897 0.588640 0.245946
0.751289 0.595049 0.248577
0.758473 0.596216 0.249648
0.762446 0.594210 0.249768
0.768321 0.594003 0.250442
0.773923 0.593485 0.251032
0.779834 0.593210 0.251705
0.784599 0.591818 0.252045
0.790884 0.591793 0.252816
0.798192 0.592642 0.253871
0.805259 0.593199 0.254848
0.814431 0.595567 0.256407
0.821436 0.595911 0.257348
0.829195 0.596850 0.258490
0.830597 0.592181 0.257868
0.839995 0.594424 0.259451
0.846285 0.593910 0.260171
0.854387 0.594871 0.261379
0.862200 0.595509 0.262499
0.867648 0.594106 0.262974
0.873961 0.593374 0.263678
0.881770 0.593805 0.264778
0.890214 0.594670 0.266038
0.901938 0.598067 0.268156
0.906129 0.595375 0.268277
0.915333 0.596586 0.269711
0.921136 0.595063 0.270249
0.923522 0.590873 0.269901
0.929771 0.589626 0.270555
0.936714 0.588850 0.271386
0.947701 0.591028 0.273246
0.952673 0.588645 0.273563
0.936846 0.571019 0.268609
0.930973 0.560866 0.266215
0.939157 0.560912 0.267376
0.959272 0.569347 0.271517
1.019160 0.592856 0.283640
1.034475 0.597039 0.286479
1.044423 0.597423 0.287985
1.051263 0.595631 0.288725
1.059123 0.594454 0.289712
1.069886 0.595107 0.291398
1.078936 0.594537 0.292663
1.087764 0.593739 0.293869
1.095116 0.591919 0.294718
1.115968 0.598511 0.298782
1.122203 0.595779 0.299351
1.133312 0.595993 0.301072
1.143486 0.595527 0.302566
1.150712 0.593186 0.303361
1.163122 0.593869 0.305367
1.175067 0.594150 0.307255
1.184380 0.592777 0.308523
1.196844 0.593132 0.310515
1.209727 0.593600 0.312593
1.220367 0.592674 0.314146
1.229075 0.590570 0.315249
1.242954 0.591239 0.317527
1.251399 0.588809 0.318557
1.279294 0.596779 0.323987
1.287111 0.593756 0.324851
1.296577 0.591541 0.326081
1.310491 0.591561 0.328301
1.318522 0.588428 0.329191
1.349919 0.597104 0.335277
1.359743 0.594620 0.336534
1.369738 0.592149 0.337818
1.382460 0.590942 0.339690
1.412982 0.598251 0.345456
1.424052 0.595954 0.346918
1.434724 0.593397 0.348277
1.441082 0.588763 0.348679
1.466074 0.592707 0.353108
1.482555 0.592560 0.355657
1.497624 0.591663 0.357871
1.510196 0.589564 0.359521
1.523645 0.587791 0.361330
1.544864 0.589320 0.364763
1.562887 0.589342 0.367475
1.587762 0.592159 0.371594
1.599549 0.589353 0.372903
1.615725 0.588335 0.375100
1.636056 0.588950 0.378122
1.652038 0.587724 0.380188
1.663585 0.584696 0.381291
1.670050 0.579683 0.381305
1.704537 0.585583 0.387049
1.724121 0.585584 0.389663
1.735179 0.582312 0.390483
1.743527 0.578062 0.390713
1.769361 0.580325 0.394438
1.778426 0.576386 0.394723
1.794143 0.574906 0.396302
1.802782 0.570915 0.396421
1.790895 0.559772 0.392435
1.798528 0.555658 0.392303
1.803232 0.550616 0.391562
1.655621 0.493881 0.361061
0.255554 0.606671 0.203640
0.257835 0.606554 0.204052
0.259069 0.601646 0.203368
0.262074 0.604319 0.204389
0.263013 0.597951 0.203342
0.263441 0.589458 0.201790
0.267061 0.594136 0.203233
0.272236 0.604738 0.206030
0.274569 0.603531 0.206108
0.275967 0.598529 0.205297
0.278361 0.597332 0.205347
0.280879 0.596467 0.205461
0.284089 0.598030 0.206126
0.286172 0.595261 0.205772
0.288781 0.594317 0.205828
0.292206 0.596135 0.206518
0.298238 0.606797 0.209266
0.301436 0.607297 0.209630
0.302821 0.601557 0.208519
0.304916 0.598225 0.207960
0.308019 0.598159 0.208158
0.311219 0.598299 0.208395
0.314299 0.597954 0.208510
0.317315 0.597324 0.208550
0.320416 0.596888 0.208628
0.325824 0.603305 0.210323
0.328809 0.602284 0.210253
0.331226 0.599571 0.209775
0.334547 0.599464 0.209911
0.337540 0.598373 0.209810
0.340878 0.598214 0.209927
0.344307 0.598259 0.210091
0.347685 0.598115 0.210209
0.351300 0.598559 0.210466
0.356454 0.602977 0.211674
0.359887 0.602785 0.211780
0.363466 0.602933 0.211968
0.366308 0.601190 0.211704
0.369888 0.601290 0.211884
0.373332 0.601020 0.211977
0.376480 0.600014 0.211895
0.377681 0.594380 0.210700
0.380041 0.591582 0.210190
0.387060 0.599607 0.212294
0.390426 0.599057 0.212334
0.394386 0.599833 0.212698
0.401918 0.608504 0.214980
0.405290 0.607794 0.214995
0.406904 0.603264 0.214087
0.411308 0.604796 0.214655
0.415424 0.605652 0.215065
0.419507 0.606392 0.215451
0.421759 0.603307 0.214910
0.423718 0.599673 0.214237
0.426699 0.598158 0.214086
0.430204 0.597695 0.214197
0.433956 0.597699 0.214428
0.438214 0.598659 0.214899
0.442539 0.599696 0.215396
0.449328 0.605363 0.217041
0.452017 0.603171 0.216754
0.455115 0.601758 0.216664
0.458654 0.601157 0.216780
0.459302 0.595290 0.215593
0.465025 0.598633 0.216699
0.468652 0.598149 0.216859
0.472424 0.597899 0.217083
0.474189 0.594136 0.216434
0.477654 0.593343 0.216532
0.484045 0.597506 0.217879
0.486707 0.595279 0.217628
0.485574 0.586749 0.215791
0.495680 0.596868 0.218664
0.497659 0.593502 0.218138
0.500316 0.591262 0.217901
0.504698 0.591787 0.218370
0.506545 0.588264 0.217813
0.512099 0.590567 0.218747
0.520773 0.597611 0.220902
0.525344 0.598196 0.221415
0.524759 0.590922 0.219914
0.532580 0.596361 0.221685
0.536003 0.595124 0.221746
0.542460 0.598332 0.222961
0.546654 0.598145 0.223305
0.550699 0.597707 0.223590
0.555947 0.598953 0.224319
0.559485 0.597721 0.224409
0.561325 0.594098 0.223876
0.572657 0.603644 0.226805
0.572938 0.597816 0.225702
0.580454 0.601879 0.227211
0.583250 0.599478 0.227019
0.585453 0.596293 0.226622
0.588470 0.594198 0.226517
0.597609 0.600093 0.228548
0.599877 0.596948 0.228175
0.599669 0.590651 0.226956
0.596011 0.580056 0.224577
0.601719 0.581383 0.225408
0.608582 0.584077 0.226617
0.614336 0.585310 0.227441
0.621947 0.588742 0.228872
0.638034 0.602308 0.233084
0.646207 0.606096 0.234646
0.643381 0.596725 0.232603
0.639354 0.586072 0.230198
0.641779 0.583080 0.229901
0.652064 0.589158 0.232123
0.663243 0.596096 0.234602
0.666349 0.593726 0.234501
0.672515 0.594780 0.235363
0.676398 0.593232 0.235503
0.685529 0.597435 0.237269
0.692607 0.599273 0.238383
0.696091 0.597151 0.238383
0.704926 0.600736 0.240013
0.713255 0.603669 0.241472
0.710996 0.595387 0.239728
0.713525 0.592185 0.239438
0.718255 0.591256 0.239808
0.725542 0.592901 0.240930
0.730960 0.592575 0.241491
0.733610 0.589431 0.241237
0.745317 0.595274 0.243621
0.759624 0.597612 0.245695
0.762811 0.594841 0.245582
0.766849 0.592879 0.245714
0.776226 0.595950 0.247356
0.779508 0.593192 0.247267
0.785981 0.593394 0.248074
0.790510 0.591744 0.248333
0.797082 0.591930 0.249156
0.804256 0.592596 0.250137
0.813916 0.595415 0.251792
0.819467 0.594479 0.252311
0.826075 0.594428 0.253114
0.832349 0.594025 0.253820
0.840585 0.595257 0.255047
0.846724 0.594614 0.255705
0.853333 0.594315 0.256483
0.860105 0.594094 0.257299
0.868202 0.594911 0.258458
0.874384 0.594071 0.259107
0.880791 0.593363 0.259811
0.889423 0.594394 0.261087
0.897702 0.595053 0.262263
0.905646 0.595366 0.263345
0.913374 0.595431 0.264365
0.920515 0.594967 0.265228
0.924749 0.592205 0.265351
0.928560 0.589099 0.265370
0.937930 0.590168 0.266786
0.948676 0.592165 0.268537
0.954886 0.590694 0.269148
0.961069 0.589153 0.269751
0.970414 0.577692 0.269302
0.986184 0.582758 0.272241
1.014555 0.590153 0.277294
1.031685 0.595617 0.280502
1.045902 0.598915 0.282991
1.051850 0.596523 0.283495
1.058201 0.594352 0.284095
1.069756 0.595538 0.285925
1.078459 0.594754 0.287074
1.088420 0.594694 0.288513
1.097947 0.594259 0.289845
1.112575 0.596936 0.292358
1.119616 0.594734 0.293098
1.124192 0.590956 0.293269
1.146028 0.597658 0.297412
1.152339 0.594757 0.297973
1.163574 0.594739 0.299658
1.173860 0.594050 0.301120
1.180660 0.591228 0.301785
1.201811 0.596625 0.305691
1.210976 0.594950 0.306877
1.217553 0.591733 0.307477
1.228647 0.590982 0.309087
1.244990 0.593020 0.311857
1.252758 0.590214 0.312709
1.278077 0.596803 0.317438
1.286423 0.594071 0.318397
1.303548 0.595896 0.321279
1.309475 0.591721 0.321692
1.315959 0.587797 0.322224
1.337101 0.591288 0.325939
1.353536 0.592200 0.328608
1.371687 0.593811 0.331628
1.384745 0.592755 0.333529
1.401091 0.593186 0.336118
1.423527 0.596392 0.339987
1.430884 0.592259 0.340611
1.446038 0.591742 0.342878
1.464083 0.592445 0.345734
1.483010 0.593410 0.348745
1.494821 0.591027 0.350229
1.509405 0.589818 0.352269
1.529081 0.590761 0.355343
1.542298 0.588769 0.357035
1.556266 0.587043 0.358853
1.580175 0.589461 0.362690
1.599736 0.589907 0.365582
1.620451 0.590726 0.368667
1.638335 0.590286 0.371125
1.655662 0.589550 0.373425
1.659904 0.583561 0.373030
1.677558 0.582911 0.375313
1.704050 0.585637 0.379323
1.724787 0.586035 0.382116
1.736612 0.583003 0.383080
1.749909 0.580546 0.384294
1.771837 0.581291 0.387166
1.784647 0.578657 0.388187
1.793135 0.574496 0.388319
1.794392 0.567833 0.387007
1.783223 0.556930 0.383268
1.755623 0.540546 0.376365
0.245793 0.563836 0.191381
0.252188 0.582699 0.195951
0.257219 0.594768 0.199027
0.261451 0.602794 0.201207
0.263564 0.601360 0.201273
0.264035 0.592913 0.199756
0.267032 0.594918 0.200563
0.271025 0.600687 0.202207
0.272296 0.595266 0.201321
0.274725 0.594362 0.201439
0.278813 0.599674 0.202951
0.282435 0.602879 0.203978
0.286393 0.607053 0.205215
0.288810 0.605299 0.205093
0.289529 0.597344 0.203541
0.293417 0.600694 0.204557
0.298129 0.606654 0.206163
0.301158 0.606528 0.206365
0.302800 0.601619 0.205457
0.305268 0.599474 0.205173
0.308204 0.598808 0.205219
0.311361 0.598765 0.205399
0.314458 0.598431 0.205505
0.317477 0.597776 0.205528
0.320443 0.596892 0.205492
0.326760 0.606011 0.207769
0.328986 0.602686 0.207158
0.331760 0.600987 0.206918
0.335381 0.601702 0.207234
0.337678 0.598601 0.206660
0.341556 0.599927 0.207114
0.344605 0.598898 0.207017
0.347687 0.597937 0.206935
0.351421 0.598694 0.207253
0.357420 0.605320 0.208945
0.362027 0.608124 0.209746
0.365442 0.607777 0.209810
0.369166 0.608180 0.210051
0.371336 0.604696 0.209381
0.374642 0.604045 0.209378
0.377700 0.602785 0.209234
0.380109 0.599989 0.208731
0.383766 0.600163 0.208929
0.388013 0.601668 0.209446
0.390135 0.598258 0.208806
0.394021 0.598882 0.209122
0.398876 0.601621 0.209944
0.402879 0.602390 0.210305
0.405959 0.601116 0.210185
0.409517 0.600868 0.210313
0.414040 0.602642 0.210928
0.418749 0.604735 0.211624
0.421255 0.602204 0.211223
0.423488 0.599152 0.210701
0.426788 0.598293 0.210707
0.430723 0.598692 0.211020
0.434515 0.598772 0.211261
0.438376 0.598956 0.211533
0.442147 0.598935 0.211762
0.448043 0.602922 0.212962
0.452464 0.604020 0.213473
0.452336 0.596615 0.211933
0.455017 0.594503 0.211676
0.461053 0.598500 0.212905
0.465218 0.599019 0.213298
0.469828 0.600284 0.213879
0.473149 0.599226 0.213899
0.476870 0.598854 0.214092
0.479852 0.597187 0.213973
0.481648 0.593507 0.213364
0.485916 0.594029 0.213790
0.491463 0.596634 0.214737
0.496024 0.597526 0.215268
0.497761 0.593766 0.214655
0.499655 0.590302 0.214117
0.507090 0.595712 0.215786
0.511723 0.596553 0.216329
0.514344 0.594195 0.216080
0.518630 0.594425 0.216482
0.528262 0.602795 0.218930
0.526202 0.593243 0.216891
0.526862 0.587925 0.215912
0.533078 0.590926 0.217034
0.543213 0.599588 0.219596
0.546721 0.598395 0.219676
0.552067 0.599835 0.220429
0.556277 0.599586 0.220760
0.559101 0.597344 0.220586
0.561339 0.594286 0.220207
0.568852 0.598550 0.221710
0.577052 0.603632 0.223436
0.580652 0.602329 0.223526
0.582745 0.598982 0.223091
0.584786 0.595590 0.222646
0.588588 0.594541 0.222812
0.595715 0.597812 0.224110
0.599347 0.596457 0.224208
0.593738 0.583250 0.221201
0.594713 0.578604 0.220433
0.598362 0.577363 0.220563
0.603626 0.578112 0.221224
0.611217 0.581671 0.222638
0.620990 0.587782 0.224743
0.631966 0.595186 0.227209
0.643603 0.603198 0.229857
0.645379 0.599313 0.229329
0.647815 0.596231 0.229018
0.648501 0.591123 0.228161
0.655778 0.593664 0.229375
0.664781 0.598081 0.231112
0.667462 0.595215 0.230876
0.671795 0.594206 0.231151
0.676439 0.593512 0.231518
0.680677 0.592337 0.231758
0.689970 0.596642 0.233518
0.688769 0.589490 0.232117
0.697747 0.593306 0.233762
0.707862 0.598207 0.235726
0.713178 0.597928 0.236255
0.709687 0.588446 0.234204
0.714647 0.587794 0.234635
0.722911 0.590474 0.236016
0.736069 0.598001 0.238789
0.731575 0.587655 0.236488
0.736864 0.587155 0.236993
0.754446 0.598695 0.240967
0.752097 0.590557 0.239298
0.755959 0.588506 0.239384
0.766810 0.593120 0.241412
0.785644 0.605152 0.245625
0.785268 0.598881 0.244515
0.785492 0.593228 0.243582
0.790126 0.591682 0.243859
0.795948 0.591190 0.244456
0.809242 0.597401 0.247059
0.814865 0.596569 0.247583
0.820953 0.596105 0.248227
0.825555 0.594283 0.248473
0.831065 0.593224 0.248958
0.837144 0.592612 0.249588
0.847869 0.595916 0.251426
0.852855 0.594241 0.251759
0.857980 0.592648 0.252127
0.864789 0.592417 0.252925
0.873672 0.593830 0.254249
0.881298 0.594125 0.255242
0.890395 0.595533 0.256601
0.898396 0.595968 0.257673
0.905442 0.595571 0.258498
0.913997 0.596292 0.259695
0.920227 0.595122 0.260307
0.925891 0.593465 0.260775
0.939771 0.598022 0.263265
0.944931 0.595840 0.263599
0.949828 0.593427 0.263869
0.956245 0.592107 0.264509
0.964924 0.592390 0.265695
0.975664 0.594082 0.267369
0.983073 0.593267 0.268234
0.991398 0.593036 0.269314
0.996791 0.590662 0.269692
1.008762 0.592833 0.271627
1.019770 0.594211 0.273323
1.032915 0.596930 0.275510
1.046223 0.599615 0.277721
1.052379 0.597367 0.278256
1.060093 0.596103 0.279152
1.066055 0.593619 0.279641
1.078115 0.595047 0.281531
1.088319 0.595154 0.282987
1.098962 0.595438 0.284536
1.109027 0.595250 0.285947
1.116126 0.593116 0.286681
1.123420 0.591041 0.287459
1.137804 0.593222 0.289826
1.153022 0.595750 0.292367
1.160692 0.593612 0.293212
1.170439 0.592632 0.294517
1.183432 0.593452 0.296535
1.195045 0.593341 0.298239
1.209485 0.594727 0.300555
1.218855 0.593101 0.301750
1.232121 0.593563 0.303790
1.246019 0.594240 0.305957
1.253860 0.591471 0.306800
1.270041 0.593137 0.309440
1.280792 0.591741 0.310897
1.296824 0.593033 0.313477
1.308674 0.591984 0.315149
1.318677 0.589878 0.316417
1.340069 0.593485 0.320092
1.351021 0.591625 0.321536
1.367021 0.592185 0.324031
1.380868 0.591541 0.326056
1.402352 0.594485 0.329662
1.416365 0.593646 0.331681
1.427714 0.591435 0.333128
1.441108 0.590104 0.334982
1.464693 0.593386 0.338919
1.477060 0.591343 0.340512
1.491726 0.590264 0.342555
1.504290 0.588155 0.344141
1.526440 0.590195 0.347655
1.540672 0.588634 0.349522
1.554085 0.586653 0.351192
1.577755 0.588957 0.354898
1.601956 0.591326 0.358662
1.614653 0.588794 0.360077
1.643191 0.592690 0.364612
1.649913 0.587625 0.364758
1.672374 0.588863 0.367987
1.681571 0.584791 0.368552
1.701824 0.585038 0.371249
1.727551 0.587314 0.374961
1.742362 0.585351 0.376489
1.756731 0.583220 0.377886
1.774764 0.582449 0.379943
1.794996 0.582459 0.382369
1.797171 0.575931 0.381292
1.779951 0.562624 0.376506
1.762932 0.549676 0.371770
0.243076 0.552777 0.186368
0.250604 0.576870 0.191967
0.256568 0.593096 0.195875
0.259365 0.594902 0.196644
0.261703 0.594485 0.196918
0.265062 0.598155 0.198077
0.266057 0.591779 0.197018
0.270574 0.599664 0.199085
0.272283 0.595931 0.198579
0.275052 0.596282 0.198963
0.279009 0.601007 0.200305
0.282430 0.603370 0.201113
0.286032 0.606160 0.202007
0.289570 0.608458 0.202780
0.291749 0.605638 0.202400
0.294643 0.605289 0.202559
0.297774 0.605629 0.202862
0.300404 0.604114 0.202737
0.302871 0.601972 0.202460
0.305572 0.600553 0.202335
0.308322 0.599226 0.202221
0.311245 0.598391 0.202209
0.314722 0.599231 0.202569
0.317782 0.598659 0.202602
0.320597 0.597275 0.202445
0.327400 0.607823 0.204988
0.331136 0.608911 0.205384
0.333346 0.605458 0.204744
0.337441 0.607446 0.205337
0.337588 0.598183 0.203365
0.341867 0.600621 0.204056
0.344247 0.597742 0.203532
0.347627 0.597598 0.203632
0.351564 0.598894 0.204060
0.356984 0.603996 0.205360
0.361990 0.607848 0.206376
0.366552 0.610423 0.207103
0.369504 0.608855 0.206882
0.372295 0.606898 0.206573
0.375696 0.606453 0.206613
0.379351 0.606601 0.206793
0.381977 0.604275 0.206405
0.383524 0.599454 0.205444
0.385807 0.596436 0.204901
0.390747 0.599529 0.205773
0.394313 0.599425 0.205910
0.397430 0.598299 0.205815
0.403043 0.602653 0.206995
0.405870 0.600833 0.206748
0.407591 0.596666 0.205959
0.412960 0.600290 0.206985
0.417596 0.602267 0.207635
0.420594 0.600789 0.207485
0.422715 0.597533 0.206924
0.427391 0.599474 0.207582
0.431146 0.599509 0.207799
0.434644 0.599009 0.207897
0.438187 0.598581 0.208016
0.441507 0.597706 0.208035
0.447756 0.602385 0.209369
0.451127 0.601526 0.209403
0.452415 0.596787 0.208525
0.456612 0.597466 0.208932
0.460722 0.597939 0.209296
0.465156 0.598956 0.209796
0.467602 0.596387 0.209448
0.472178 0.597583 0.210001
0.479734 0.603899 0.211785
0.475206 0.589279 0.208567
0.479634 0.590163 0.209060
0.487046 0.596017 0.210755
0.492956 0.599213 0.211820
0.492211 0.591348 0.210225
0.497939 0.594161 0.211210
0.502837 0.595541 0.211855
0.509232 0.599246 0.213073
0.518345 0.607130 0.215316
0.522679 0.607347 0.215704
0.515518 0.589742 0.211742
0.526481 0.600205 0.214642
0.529883 0.598961 0.214685
0.526236 0.587129 0.212127
0.533755 0.592079 0.213699
0.543124 0.599611 0.215922
0.547388 0.599523 0.216270
0.552035 0.599951 0.216753
0.556085 0.599477 0.217017
0.559435 0.597983 0.217032
0.562302 0.595803 0.216879
0.568011 0.597562 0.217717
0.575145 0.601198 0.219035
0.580940 0.602903 0.219877
0.581269 0.597183 0.218849
0.584745 0.595722 0.218900
0.589164 0.595492 0.219267
0.594910 0.596954 0.220072
0.595806 0.592074 0.219263
0.597135 0.587798 0.218608
0.598803 0.583990 0.218074
0.600832 0.580665 0.217665
0.603581 0.578257 0.217493
0.610022 0.580402 0.218505
0.620826 0.587791 0.220888
0.626530 0.588826 0.221633
0.627721 0.584390 0.220955
0.641974 0.595494 0.224352
0.647908 0.596562 0.225133
0.651555 0.594901 0.225203
0.660831 0.599718 0.226991
0.663850 0.597246 0.226858
0.667017 0.594942 0.226773
0.670601 0.593099 0.226814
0.676635 0.593965 0.227585
0.680242 0.592095 0.227630
0.678891 0.584806 0.226215
0.693172 0.594485 0.229390
0.696609 0.592333 0.229375
0.699668 0.589771 0.229252
0.705058 0.589653 0.229800
0.708513 0.587474 0.229791
0.713107 0.586459 0.230106
0.721528 0.589317 0.231497
0.722645 0.584685 0.230825
0.722347 0.578668 0.229766
0.737129 0.587679 0.232904
0.743198 0.587902 0.233603
0.753534 0.592225 0.235467
0.750874 0.583868 0.233765
0.770701 0.597116 0.238184
0.783715 0.603608 0.240717
0.787085 0.600871 0.240637
0.786481 0.594433 0.239498
0.789601 0.591486 0.239361
0.796022 0.591549 0.240098
0.804181 0.593123 0.241286
0.806464 0.589346 0.240928
0.819118 0.594782 0.243270
0.825666 0.594688 0.244011
0.831144 0.593604 0.244471
0.838735 0.594300 0.245468
0.846221 0.594829 0.246431
0.852777 0.594499 0.247151
0.858463 0.593381 0.247646
0.864456 0.592473 0.248216
0.874311 0.594694 0.249745
0.881641 0.594748 0.250635
0.890455 0.595931 0.251886
0.898842 0.596680 0.253022
0.904449 0.595145 0.253470
0.913385 0.596178 0.254727
0.920281 0.595535 0.255481
0.931429 0.598102 0.257256
0.938671 0.597570 0.258080
0.946300 0.597264 0.258992
0.952426 0.595764 0.259541
0.958022 0.593823 0.259964
0.965403 0.593149 0.260807
0.977160 0.595583 0.262673
0.987106 0.596587 0.264103
0.991300 0.593397 0.264186
1.003087 0.595533 0.266032
1.010049 0.594177 0.266752
1.024753 0.598105 0.269249
1.039070 0.601601 0.271640
1.040296 0.596080 0.271035
1.051089 0.596985 0.272609
1.062736 0.598344 0.274366
1.066064 0.594121 0.274244
1.081857 0.597983 0.276919
1.090599 0.597135 0.278004
1.099207 0.596119 0.279056
1.107702 0.594949 0.280079
1.116156 0.593676 0.281090
1.127628 0.594183 0.282762
1.136504 0.592989 0.283857
1.150427 0.594756 0.286049
1.162591 0.595325 0.287847
1.173140 0.594814 0.289288
1.189840 0.597793 0.292049
1.200036 0.596831 0.293397
1.203775 0.592083 0.293358
1.216962 0.592656 0.295338
1.235567 0.596123 0.298460
1.243727 0.593616 0.299352
1.251019 0.590567 0.300058
1.273545 0.595686 0.303965
1.283778 0.593998 0.305273
1.289735 0.589961 0.305681
1.305054 0.590770 0.308036
1.318764 0.590598 0.310043
1.339532 0.593895 0.313497
1.349950 0.591769 0.314795
1.364791 0.591761 0.316991
1.382076 0.592819 0.319671
1.403697 0.595824 0.323216
1.411920 0.592195 0.324009
1.428725 0.592588 0.326530
1.443494 0.591888 0.328618
1.456835 0.590413 0.330397
1.475111 0.591101 0.333146
1.487282 0.588893 0.334645
1.504157 0.588712 0.337059
1.525959 0.590583 0.340422
1.539031 0.588500 0.342020
1.556170 0.588102 0.344392
1.573836 0.587829 0.346832
1.592388 0.587830 0.349409
1.616420 0.589996 0.353014
1.628188 0.587015 0.354187
1.662155 0.592959 0.359622
1.669774 0.588197 0.359910
1.685462 0.586645 0.361718
1.710562 0.588712 0.365282
1.722872 0.585765 0.366352
1.748837 0.587997 0.369970
1.754405 0.582502 0.369675
1.770011 0.580798 0.371236
1.791430 0.581214 0.373837
1.783259 0.570925 0.370871
1.773026 0.560117 0.367516
1.750454 0.545199 0.361884
1.736855 0.520770 0.354950
0.247983 0.576351 0.188787
0.255070 0.598069 0.193774
0.255105 0.587806 0.191960
0.257777 0.589097 0.192593
0.263775 0.604300 0.196197
0.263198 0.591268 0.193740
0.268438 0.602416 0.196464
0.271864 0.605651 0.197480
0.274649 0.606033 0.197869
0.276986 0.604462 0.197822
0.279784 0.604537 0.198120
0.282477 0.604032 0.198278
0.284836 0.602132 0.198120
0.289155 0.607296 0.199492
0.292882 0.610009 0.200319
0.295241 0.607642 0.200024
0.297541 0.605010 0.199658
0.300303 0.603910 0.199617
0.303000 0.602501 0.199497
0.305583 0.600644 0.199269
0.308288 0.599133 0.199107
0.311301 0.598556 0.199144
0.314737 0.599234 0.199450
0.317901 0.598961 0.199540
0.320790 0.597775 0.199421
0.328918 0.612265 0.202775
0.332456 0.612682 0.203006
0.336177 0.613549 0.203333
0.337765 0.608222 0.202280
0.337671 0.598259 0.200189
0.340768 0.597404 0.200123
0.344547 0.598395 0.200468
0.347704 0.597633 0.200421
0.352248 0.600537 0.201193
0.356079 0.601453 0.201522
0.361552 0.606543 0.202787
0.366302 0.609618 0.203603
0.368549 0.606294 0.202988
0.370428 0.602121 0.202183
0.373790 0.601651 0.202211
0.378985 0.605574 0.203230
0.382401 0.605144 0.203273
0.382951 0.597983 0.201803
0.384916 0.594254 0.201108
0.391181 0.600406 0.202646
0.391681 0.593394 0.201215
0.392375 0.586965 0.199917
0.405390 0.607717 0.204778
0.405370 0.599672 0.203123
0.407466 0.596332 0.202536
0.414923 0.604379 0.204542
0.417124 0.601229 0.204007
0.418849 0.597148 0.203264
0.423854 0.599821 0.204065
0.427245 0.599156 0.204110
0.431008 0.599218 0.204326
0.434536 0.598790 0.204435
0.438090 0.598395 0.204556
0.441325 0.597367 0.204537
0.446056 0.599176 0.205175
0.451309 0.601893 0.206030
0.454895 0.601425 0.206156
0.457611 0.599342 0.205914
0.461147 0.598760 0.206023
0.464651 0.598105 0.206121
0.469708 0.600190 0.206860
0.472999 0.599096 0.206866
0.475976 0.597447 0.206747
0.479787 0.597234 0.206968
0.483475 0.596784 0.207138
0.488811 0.599081 0.207958
0.492999 0.599386 0.208318
0.497514 0.600187 0.208800
0.499177 0.596290 0.208178
0.502878 0.595725 0.208347
0.512947 0.605298 0.210925
0.522083 0.613163 0.213112
0.524442 0.610237 0.212742
0.518707 0.594811 0.209393
0.522935 0.594916 0.209747
0.525591 0.592600 0.209526
0.530235 0.593276 0.210027
0.536931 0.596948 0.211256
0.543357 0.600111 0.212371
0.546987 0.599102 0.212487
0.550647 0.598115 0.212611
0.555453 0.598745 0.213134
0.559466 0.598199 0.213376
0.563242 0.597294 0.213535
0.570338 0.600964 0.214819
0.576529 0.603279 0.215781
0.577690 0.598676 0.215048
0.580881 0.596849 0.215000
0.584942 0.596176 0.215241
0.587461 0.593438 0.214975
0.589983 0.590714 0.214714
0.597185 0.594055 0.215968
0.601141 0.593129 0.216166
0.598895 0.584307 0.214386
0.600560 0.580524 0.213869
0.602402 0.576992 0.213414
0.611449 0.582368 0.215214
0.620166 0.587195 0.216889
0.628583 0.591523 0.218450
0.630410 0.587826 0.217975
0.630141 0.581666 0.216871
0.640984 0.588642 0.219136
0.653873 0.597826 0.221986
0.656746 0.595232 0.221816
0.663598 0.597188 0.222826
0.666275 0.594332 0.222596
0.670095 0.592764 0.222703
0.676546 0.594100 0.223575
0.681557 0.593778 0.224020
0.688501 0.595521 0.225016
0.694220 0.595858 0.225650
0.699412 0.595575 0.226128
0.702684 0.593212 0.226059
0.705149 0.589995 0.225766
0.707154 0.586307 0.225349
0.715770 0.589454 0.226769
0.713974 0.581855 0.225305
0.716093 0.578308 0.224931
0.719396 0.575963 0.224885
0.730969 0.581821 0.227078
0.752426 0.597244 0.231909
0.758530 0.597362 0.232577
0.760737 0.593659 0.232200
0.760355 0.587493 0.231144
0.775838 0.596423 0.234276
0.785056 0.599249 0.235736
0.785255 0.593575 0.234832
0.792381 0.594333 0.235733
0.797113 0.592832 0.236009
0.803486 0.592786 0.236704
0.804116 0.587537 0.235930
0.811967 0.588734 0.236996
0.821566 0.591386 0.238493
0.829155 0.592178 0.239472
0.837518 0.593561 0.240635
0.843846 0.593115 0.241284
0.844945 0.588187 0.240636
0.871586 0.598725 0.245343
0.877773 0.597876 0.245929
0.878920 0.592868 0.245291
0.891711 0.597289 0.247467
0.897880 0.596260 0.248037
0.903931 0.595088 0.248576
0.911853 0.595336 0.249556
0.924691 0.599328 0.251692
0.931071 0.598199 0.252292
0.937213 0.596836 0.252832
0.945140 0.596772 0.253788
0.950870 0.594990 0.254228
0.960345 0.595938 0.255532
0.966493 0.594349 0.256063
0.978281 0.596806 0.257883
0.986229 0.596374 0.258816
0.992950 0.594993 0.259466
1.001838 0.595084 0.260603
1.009827 0.594459 0.261533
1.015972 0.592487 0.262046
1.031256 0.596716 0.264596
1.038267 0.595169 0.265292
1.048642 0.595816 0.266730
1.059298 0.596544 0.268223
1.071671 0.598290 0.270084
1.078783 0.596483 0.270786
1.088655 0.596391 0.272087
1.100355 0.597364 0.273779
1.108332 0.595870 0.274659
1.117061 0.594771 0.275698
1.125450 0.593380 0.276661
1.135562 0.592963 0.277989
1.148936 0.594417 0.280005
1.154481 0.591050 0.280354
1.174531 0.596216 0.283763
1.182899 0.594326 0.284698
1.194131 0.594016 0.286230
1.204397 0.593043 0.287554
1.214054 0.591625 0.288746
1.226825 0.591859 0.290579
1.239471 0.591894 0.292376
1.251752 0.591604 0.294090
1.264138 0.591250 0.295817
1.283726 0.594625 0.299006
1.290570 0.591059 0.299582
1.301738 0.589702 0.301033
1.324712 0.594336 0.304862
1.337454 0.593511 0.306605
1.347840 0.591383 0.307864
1.365696 0.592890 0.310609
1.375864 0.590443 0.311801
1.396407 0.592963 0.315045
1.417777 0.595685 0.318429
1.429813 0.593778 0.319942
1.440396 0.591103 0.321155
1.463053 0.593949 0.324720
1.474872 0.591641 0.326136
1.486997 0.589399 0.327592
1.508967 0.591477 0.330939
1.525805 0.591122 0.333258
1.541665 0.590231 0.335358
1.555029 0.588176 0.336949
1.570631 0.587010 0.338940
1.589492 0.587132 0.341520
1.611266 0.588354 0.344614
1.639249 0.591982 0.348839
1.652935 0.589669 0.350312
1.669716 0.588559 0.352329
1.687720 0.587878 0.354534
1.704341 0.586605 0.356435
1.729611 0.588610 0.359896
1.742098 0.585667 0.360936
1.760979 0.585132 0.363111
1.760463 0.577400 0.361683
1.776908 0.575997 0.363327
1.780854 0.570089 0.362655
1.779754 0.562494 0.361043
1.777972 0.554812 0.359290
1.742435 0.535559 0.351480
1.742270 0.528887 0.350012
1.647194 0.490136 0.331713
0.252835 0.599735 0.190953
0.252459 0.587565 0.188790
0.253733 0.582861 0.188161
0.261526 0.606388 0.193421
0.263532 0.604242 0.193311
0.264047 0.595701 0.191841
0.268511 0.603527 0.193801
0.273075 0.611298 0.195744
0.274958 0.607932 0.195324
0.278475 0.610886 0.196230
0.282001 0.613594 0.197073
0.284907 0.613682 0.197348
0.285704 0.605754 0.195901
0.289322 0.608242 0.196662
0.293690 0.613191 0.197940
0.296164 0.611129 0.197708
0.297867 0.606315 0.196873
0.300671 0.605294 0.196840
0.302730 0.601678 0.196238
0.305306 0.599773 0.195995
0.308042 0.598343 0.195845
0.311445 0.598997 0.196137
0.314690 0.599038 0.196290
0.317899 0.598881 0.196394
0.321036 0.598430 0.196430
0.328338 0.610411 0.199156
0.332354 0.612251 0.199682
0.336035 0.612993 0.199967
0.338142 0.609149 0.199252
0.337954 0.598902 0.197141
0.341127 0.598239 0.197111
0.344676 0.598583 0.197301
0.348169 0.598722 0.197445
0.352160 0.600138 0.197869
0.356593 0.602634 0.198530
0.361238 0.605569 0.199289
0.365293 0.606891 0.199698
0.368410 0.605790 0.199579
0.369032 0.598520 0.198108
0.372438 0.598211 0.198165
0.376890 0.600400 0.198774
0.383052 0.606559 0.200261
0.384212 0.600817 0.199133
0.385551 0.595613 0.198126
0.390759 0.599342 0.199090
0.392780 0.595775 0.198449
0.396347 0.595710 0.198585
0.395402 0.585721 0.196529
0.403454 0.595453 0.198841
0.409692 0.601037 0.200243
0.414495 0.603426 0.200944
0.416854 0.600626 0.200496
0.418876 0.597172 0.199907
0.423226 0.598521 0.200391
0.427776 0.600212 0.200957
0.431078 0.599354 0.200959
0.434650 0.599018 0.201083
0.437894 0.598025 0.201065
0.441997 0.598678 0.201421
0.445619 0.598373 0.201567
0.451061 0.601464 0.202482
0.455852 0.603246 0.203110
0.458690 0.601372 0.202919
0.461017 0.598582 0.202524
0.464474 0.597851 0.202599
0.467645 0.596597 0.202560
0.472489 0.598277 0.203193
0.475827 0.597272 0.203220
0.481779 0.600748 0.204275
0.486220 0.601548 0.204726
0.490632 0.602247 0.205160
0.492786 0.599138 0.204726
0.499767 0.604012 0.206130
0.503105 0.602810 0.206144
0.505236 0.599651 0.205710
0.507561 0.596830 0.205357
0.519066 0.608534 0.208375
0.516292 0.597635 0.206156
0.524309 0.603621 0.207865
0.522519 0.594425 0.206041
0.523119 0.589002 0.205096
0.529104 0.591733 0.206062
0.540276 0.602076 0.208825
0.544092 0.601356 0.208999
0.546873 0.599101 0.208815
0.549886 0.597187 0.208715
0.554342 0.597331 0.209106
0.558448 0.596937 0.209374
0.563421 0.597723 0.209929
0.571130 0.602244 0.211383
0.576405 0.603295 0.212016
0.578882 0.600484 0.211728
0.580768 0.596887 0.211254
0.583964 0.595065 0.211208
0.587288 0.593404 0.211205
0.590671 0.591809 0.211222
0.599767 0.597597 0.213038
0.601176 0.593377 0.212426
0.598689 0.584246 0.210611
0.594582 0.573209 0.208323
0.603007 0.577949 0.209907
0.609095 0.579671 0.210758
0.622801 0.590626 0.213903
0.625267 0.587724 0.213630
0.634083 0.592445 0.215257
0.638462 0.591763 0.215547
0.644429 0.592915 0.216301
0.648326 0.591587 0.216441
0.656833 0.595559 0.217920
0.663612 0.597433 0.218881
0.666365 0.594664 0.218675
0.669550 0.592384 0.218595
0.678094 0.596055 0.220036
0.681903 0.594395 0.220125
0.682760 0.589496 0.219387
0.694488 0.596388 0.221685
0.699442 0.595850 0.222081
0.703767 0.594604 0.222300
0.706562 0.591724 0.222099
0.714799 0.594512 0.223380
0.719269 0.593310 0.223628
0.716909 0.585102 0.222040
0.714927 0.577377 0.220571
0.717005 0.573814 0.220198
0.762896 0.607813 0.230425
0.770070 0.608881 0.231335
0.764365 0.597431 0.228893
0.768236 0.595303 0.228951
0.766583 0.587922 0.227591
0.779450 0.594260 0.229954
0.781376 0.590244 0.229515
0.790530 0.592908 0.230907
0.797680 0.593635 0.231781
0.804399 0.593900 0.232540
0.805160 0.588761 0.231812
0.807885 0.585402 0.231578
0.818991 0.589419 0.233409
0.821815 0.586083 0.233196
0.825413 0.583416 0.233176
0.836830 0.587424 0.235050
0.835937 0.580866 0.233942
0.835778 0.574985 0.233023
0.844027 0.576140 0.234121
0.875233 0.596115 0.240654
0.873915 0.589117 0.239448
0.878532 0.586979 0.239651
0.894955 0.594262 0.242613
0.907833 0.598529 0.244724
0.914368 0.597663 0.245349
0.924076 0.599210 0.246701
0.930188 0.597885 0.247220
0.935652 0.596016 0.247588
0.943334 0.595784 0.248460
0.954007 0.597719 0.250002
0.962695 0.598067 0.251088
0.966089 0.594447 0.250980
0.975453 0.595154 0.252209
0.988042 0.598087 0.254145
0.994132 0.596250 0.254632
1.003810 0.596896 0.255908
1.009188 0.594442 0.256234
1.016479 0.593273 0.256979
1.027446 0.594554 0.258520
1.036554 0.594461 0.259650
1.046864 0.595086 0.261033
1.058805 0.596687 0.262759
1.067209 0.595837 0.263720
1.077816 0.596342 0.265146
1.085347 0.594758 0.265913
1.094377 0.594061 0.266995
1.107166 0.595648 0.268864
1.118606 0.596257 0.270439
1.128892 0.596036 0.271767
1.135637 0.593548 0.272354
1.142966 0.591357 0.273061
1.157066 0.593151 0.275165
1.164505 0.590855 0.275889
1.183033 0.594982 0.278881
1.194480 0.594805 0.280413
1.200414 0.591357 0.280817
1.211565 0.590818 0.282280
1.224730 0.591297 0.284142
1.232155 0.588464 0.284842
1.246922 0.589588 0.287010
1.257301 0.588185 0.288292
1.282214 0.594461 0.292458
1.289437 0.591108 0.293093
1.296874 0.587812 0.293767
1.317840 0.591449 0.297103
1.336013 0.593443 0.299869
1.352365 0.594334 0.302261
1.367153 0.594289 0.304332
1.375530 0.590950 0.305144
