ply
format ascii 1.0
comment ---
element vertex 1771
property float x
property float y
property float z
element face 0
property list uchar uint vertex_indices
end_header
1.505620 0.584520 0.126234
1.529352 0.586961 0.126555
1.541046 0.583969 0.126434
1.560445 0.584188 0.126578
1.580782 0.584642 0.126744
1.603042 0.585731 0.126965
1.629991 0.588567 0.127334
1.643983 0.585934 0.127252
1.661926 0.584810 0.127297
1.681519 0.584233 0.127389
1.692996 0.580386 0.127209
1.723096 0.583668 0.127627
1.731311 0.578465 0.127335
1.749804 0.577136 0.127368
1.784021 0.581540 0.127887
1.795302 0.577403 0.127684
1.813601 0.575816 0.127698
0.229451 0.573019 0.115233
0.232513 0.575189 0.115379
0.235705 0.577678 0.115547
0.238827 0.579488 0.115670
0.242684 0.584551 0.116005
0.245180 0.582769 0.115896
0.246827 0.576958 0.115525
0.251703 0.585831 0.116108
0.254140 0.583380 0.115956
0.256807 0.581886 0.115866
0.260426 0.584372 0.116035
0.263689 0.585164 0.116094
0.266103 0.582368 0.115919
0.269247 0.582501 0.115936
0.272991 0.584897 0.116099
0.275526 0.582498 0.115951
0.278561 0.582006 0.115927
0.282031 0.583083 0.116005
0.286016 0.585933 0.116199
0.289206 0.585812 0.116199
0.292086 0.584579 0.116127
0.295964 0.586776 0.116278
0.300679 0.591676 0.116606
0.305790 0.597691 0.117006
0.309476 0.598849 0.117090
0.312754 0.598643 0.117085
0.316405 0.599598 0.117156
0.319726 0.599481 0.117157
0.322933 0.599007 0.117135
0.325538 0.596732 0.116995
0.327081 0.591388 0.116655
0.329183 0.587813 0.116431
0.331971 0.586293 0.116340
0.335569 0.587077 0.116400
0.339351 0.588332 0.116490
0.342771 0.588548 0.116513
0.345926 0.588033 0.116488
0.347666 0.583764 0.116218
0.351137 0.584126 0.116250
0.358220 0.593762 0.116889
0.360237 0.590246 0.116668
0.363742 0.590537 0.116695
0.366181 0.588167 0.116549
0.367339 0.582714 0.116201
0.370439 0.582062 0.116167
0.374706 0.584177 0.116315
0.378334 0.584719 0.116359
0.382682 0.586891 0.116510
0.386986 0.588884 0.116649
0.390988 0.590124 0.116739
0.394236 0.589627 0.116716
0.398364 0.591055 0.116818
0.400733 0.588599 0.116666
0.403222 0.586431 0.116533
0.406754 0.586504 0.116547
0.411195 0.588454 0.116684
0.414724 0.588439 0.116692
0.418938 0.589801 0.116790
0.425121 0.595086 0.117146
0.429263 0.596136 0.117224
0.433565 0.597447 0.117320
0.437287 0.597563 0.117337
0.440341 0.596351 0.117266
0.443418 0.595178 0.117199
0.446339 0.593703 0.117111
0.448971 0.591687 0.116988
0.453559 0.593300 0.117104
0.457460 0.593586 0.117132
0.461714 0.594468 0.117200
0.463425 0.590746 0.116965
0.465830 0.588295 0.116813
0.471148 0.590965 0.116998
0.473440 0.588297 0.116833
0.475637 0.585486 0.116657
0.480075 0.586498 0.116734
0.484434 0.587320 0.116798
0.489200 0.588763 0.116903
0.494780 0.591478 0.117092
0.500682 0.594620 0.117309
0.504658 0.594557 0.117315
0.508087 0.593584 0.117261
0.511237 0.592151 0.117177
0.515202 0.591980 0.117176
0.520230 0.593414 0.117282
0.524028 0.592899 0.117258
0.525246 0.588443 0.116974
0.531242 0.591201 0.117167
0.537185 0.593783 0.117349
0.542560 0.595439 0.117469
0.547409 0.596253 0.117534
0.552066 0.596732 0.117577
0.555984 0.596105 0.117547
0.561683 0.597963 0.117681
0.565115 0.596571 0.117600
0.568720 0.595401 0.117534
0.572489 0.594436 0.117482
0.577034 0.594500 0.117498
0.581177 0.593979 0.117475
0.583847 0.591461 0.117320
0.586915 0.589472 0.117200
0.594961 0.593981 0.117511
0.596634 0.590113 0.117266
0.605103 0.594982 0.117602
0.610360 0.595639 0.117658
0.614214 0.594472 0.117593
0.618382 0.593673 0.117552
0.620908 0.590820 0.117375
0.628630 0.594321 0.117620
0.634553 0.595534 0.117714
0.638644 0.594481 0.117657
0.643305 0.594079 0.117643
0.645472 0.590705 0.117432
0.657783 0.599163 0.118008
0.660276 0.596087 0.117817
0.663193 0.593506 0.117659
0.668870 0.594050 0.117709
0.674052 0.593981 0.117718
0.680920 0.595739 0.117849
0.685682 0.595099 0.117821
0.688028 0.591785 0.117614
0.694340 0.592771 0.117694
0.700229 0.593236 0.117739
0.704300 0.591716 0.117652
0.709189 0.591033 0.117622
0.715809 0.592116 0.117709
0.719327 0.589930 0.117578
0.724391 0.589313 0.117551
0.734468 0.593730 0.117862
0.742421 0.595886 0.118022
0.745946 0.593551 0.117881
0.753938 0.595605 0.118035
0.759949 0.595636 0.118053
0.761865 0.591658 0.117802
0.767380 0.591146 0.117784
0.775891 0.593430 0.117954
0.780476 0.591930 0.117870
0.784698 0.590066 0.117761
0.791043 0.590140 0.117783
0.800977 0.593436 0.118021
0.805431 0.591655 0.117919
0.810611 0.590503 0.117859
0.817217 0.590582 0.117882
0.825402 0.591992 0.117994
0.831277 0.591304 0.117966
0.836832 0.590294 0.117916
0.844536 0.591083 0.117987
0.847832 0.588060 0.117802
0.856361 0.589428 0.117913
0.863762 0.589771 0.117955
0.869166 0.588401 0.117882
0.877641 0.589501 0.117975
0.885301 0.589858 0.118019
0.893639 0.590687 0.118094
0.902475 0.591831 0.118192
0.911860 0.593319 0.118313
0.918097 0.592261 0.118262
0.925202 0.591824 0.118253
0.932333 0.591345 0.118241
0.939599 0.590908 0.118233
0.945814 0.589620 0.118167
0.954920 0.590431 0.118243
0.971273 0.596483 0.118676
0.976736 0.594413 0.118558
0.985073 0.594379 0.118578
0.992545 0.593650 0.118552
1.001516 0.593917 0.118593
1.011605 0.594881 0.118682
1.018041 0.593212 0.118592
1.027294 0.593426 0.118631
1.034097 0.591886 0.118550
1.041320 0.590573 0.118485
1.048500 0.589169 0.118415
1.062589 0.592266 0.118651
1.069380 0.590440 0.118552
1.078229 0.589889 0.118541
1.090601 0.591512 0.118678
1.105381 0.594531 0.118912
1.113714 0.593346 0.118858
1.121894 0.591988 0.118793
1.131942 0.591704 0.118802
1.137839 0.588796 0.118631
1.151954 0.590788 0.118797
1.161089 0.589663 0.118749
1.170749 0.588761 0.118717
1.178746 0.586794 0.118612
1.200441 0.592653 0.119046
1.207300 0.589804 0.118882
1.216629 0.588289 0.118809
1.222856 0.584953 0.118611
1.244532 0.590090 0.119000
1.259826 0.591502 0.119131
1.269784 0.589872 0.119053
1.278752 0.587615 0.118932
1.294563 0.588882 0.119056
1.303166 0.586223 0.118908
1.312382 0.583800 0.118777
1.332652 0.586919 0.119032
1.350028 0.588362 0.119171
1.357945 0.584918 0.118971
1.376246 0.586506 0.119122
1.387692 0.584576 0.119029
1.414177 0.589750 0.119432
1.426346 0.587859 0.119343
1.444231 0.588529 0.119434
1.456081 0.586235 0.119319
1.465592 0.582770 0.119122
1.493154 0.587362 0.119491
1.507849 0.585956 0.119441
1.531683 0.588435 0.119664
1.543413 0.585449 0.119504
1.555525 0.582544 0.119351
1.581492 0.585407 0.119605
1.598949 0.584498 0.119595
1.628125 0.588279 0.119917
1.645391 0.586987 0.119881
1.658034 0.583740 0.119708
1.673568 0.581587 0.119613
1.700619 0.583847 0.119833
1.717891 0.582171 0.119773
1.736540 0.580949 0.119747
1.767285 0.584176 0.120040
1.758028 0.572472 0.119265
1.818186 0.577983 0.119788
0.227951 0.565215 0.112007
0.233443 0.580125 0.112905
0.239306 0.596007 0.113862
0.246169 0.615897 0.115061
0.248703 0.613774 0.114933
0.250599 0.608518 0.114617
0.249994 0.591740 0.113605
0.253474 0.593986 0.113742
0.257056 0.596433 0.113891
0.260487 0.597981 0.113986
0.263933 0.599401 0.114074
0.267372 0.600616 0.114149
0.271205 0.603284 0.114313
0.274209 0.602443 0.114264
0.277513 0.602729 0.114284
0.280896 0.603232 0.114318
0.283330 0.600085 0.114131
0.287188 0.602252 0.114265
0.290469 0.602201 0.114265
0.290629 0.591027 0.113594
0.296257 0.599282 0.114095
0.302375 0.608887 0.114678
0.305935 0.609520 0.114720
0.308902 0.608143 0.114640
0.309525 0.599176 0.114102
0.312913 0.599320 0.114114
0.316325 0.599518 0.114129
0.319863 0.600075 0.114166
0.322894 0.599059 0.114108
0.324363 0.593391 0.113768
0.327625 0.593160 0.113757
0.333505 0.600510 0.114204
0.336652 0.599822 0.114165
0.339400 0.598015 0.114059
0.344966 0.604054 0.114426
0.344841 0.594371 0.113844
0.352068 0.604721 0.114472
0.354493 0.602034 0.114312
0.356701 0.598837 0.114121
0.359525 0.597300 0.114030
0.363693 0.599204 0.114147
0.366997 0.598874 0.114129
0.369951 0.597667 0.114058
0.375807 0.603551 0.114416
0.382391 0.611015 0.114869
0.379456 0.595641 0.113940
0.382218 0.594008 0.113843
0.387262 0.597675 0.114066
0.394362 0.605930 0.114567
0.399471 0.609460 0.114781
0.397376 0.596812 0.114017
0.401130 0.597330 0.114050
0.406942 0.602290 0.114351
0.411083 0.603510 0.114425
0.417598 0.609716 0.114801
0.419997 0.607109 0.114644
0.419714 0.598972 0.114153
0.425685 0.603814 0.114446
0.428943 0.603017 0.114398
0.429698 0.597198 0.114046
0.432909 0.596340 0.113994
0.436607 0.596424 0.114000
0.440457 0.596767 0.114020
0.443557 0.595637 0.113952
0.446758 0.594689 0.113895
0.449592 0.593041 0.113795
0.454416 0.595078 0.113918
0.466722 0.610730 0.114864
0.468237 0.606472 0.114606
0.470413 0.603454 0.114423
0.477617 0.609370 0.114780
0.476151 0.599930 0.114209
0.477634 0.595765 0.113956
0.482912 0.598161 0.114100
0.488361 0.600760 0.114257
0.487583 0.592808 0.113775
0.493571 0.596228 0.113981
0.501645 0.602971 0.114388
0.507052 0.605193 0.114521
0.509182 0.602050 0.114330
0.508796 0.594920 0.113898
0.511825 0.593285 0.113798
0.520196 0.599988 0.114202
0.524106 0.599617 0.114178
0.525010 0.594609 0.113874
0.528030 0.592869 0.113767
0.538232 0.601896 0.114312
0.544319 0.604591 0.114473
0.547155 0.602407 0.114340
0.550368 0.600774 0.114240
0.552316 0.597307 0.114028
0.555970 0.596300 0.113966
0.561340 0.597695 0.114049
0.565474 0.597291 0.114023
0.567108 0.593387 0.113785
0.577081 0.600956 0.114241
0.582404 0.602017 0.114303
0.584777 0.599043 0.114122
0.591931 0.602453 0.114326
0.593576 0.598483 0.114084
0.595697 0.595166 0.113882
0.598885 0.593250 0.113764
0.605501 0.595720 0.113912
0.610746 0.596356 0.113948
0.616262 0.597276 0.114002
0.621431 0.597701 0.114026
0.626017 0.597351 0.114002
0.632027 0.598703 0.114082
0.635228 0.596583 0.113952
0.639994 0.596333 0.113935
0.644282 0.595474 0.113881
0.648989 0.595076 0.113855
0.654387 0.595445 0.113875
0.659894 0.595885 0.113899
0.663264 0.593825 0.113773
0.668448 0.593812 0.113770
0.674814 0.595078 0.113844
0.680597 0.595624 0.113875
0.684658 0.594215 0.113787
0.695557 0.600244 0.114149
0.704856 0.604381 0.114396
0.712097 0.606190 0.114503
0.712830 0.601011 0.114188
0.722459 0.605226 0.114440
0.720816 0.597578 0.113976
0.721759 0.592688 0.113679
0.726094 0.591304 0.113593
0.740378 0.599968 0.114113
0.744742 0.598470 0.114020
0.748448 0.596294 0.113886
0.756279 0.598168 0.113996
0.761834 0.597734 0.113967
0.763258 0.593264 0.113695
0.767455 0.591478 0.113584
0.789255 0.606369 0.114479
0.781582 0.593233 0.113685
0.784573 0.590215 0.113500
0.788981 0.588504 0.113393
0.801227 0.593933 0.113718
0.805528 0.592012 0.113599
0.819592 0.598829 0.114006
0.833303 0.605148 0.114384
0.839375 0.604567 0.114345
0.839560 0.598803 0.113994
0.837139 0.590834 0.113511
0.836543 0.584517 0.113126
0.841775 0.583200 0.113043
0.853765 0.587527 0.113300
0.870818 0.595926 0.113802
0.876444 0.594684 0.113723
0.873348 0.586278 0.113213
0.882282 0.587701 0.113295
0.890645 0.588575 0.113343
0.901822 0.591602 0.113521
0.910335 0.592412 0.113565
0.917206 0.591860 0.113527
0.922107 0.589729 0.113394
0.926438 0.587135 0.113232
0.934090 0.587034 0.113221
0.951996 0.594555 0.113668
0.959934 0.594456 0.113657
0.965130 0.592269 0.113520
0.973628 0.592454 0.113525
0.988627 0.597251 0.113807
1.002105 0.600792 0.114014
1.007217 0.598264 0.113855
1.011705 0.595266 0.113668
1.022189 0.596406 0.113730
1.035798 0.599588 0.113914
1.035964 0.593475 0.113539
1.042204 0.591488 0.113412
1.049874 0.590408 0.113340
1.061180 0.591660 0.113407
1.069947 0.591137 0.113367
1.083338 0.593524 0.113501
1.089026 0.590834 0.113331
1.100174 0.591564 0.113366
1.113095 0.593293 0.113460
1.120435 0.591420 0.113337
1.133507 0.593007 0.113422
1.139881 0.590380 0.113254
1.152993 0.591759 0.113326
1.160807 0.589843 0.113200
1.169452 0.588345 0.113099
1.176190 0.585654 0.112926
1.199857 0.592673 0.113333
1.203686 0.588100 0.113047
1.213678 0.586983 0.112967
1.222148 0.584919 0.112830
1.242779 0.589489 0.113089
1.255654 0.589595 0.113080
1.257624 0.583679 0.112712
1.281532 0.589474 0.113042
1.288587 0.586108 0.112826
1.302279 0.586141 0.112811
1.309668 0.582783 0.112594
1.335681 0.588851 0.112938
1.348123 0.587796 0.112857
1.352716 0.582710 0.112536
1.372513 0.585070 0.112658
1.394089 0.588086 0.112817
1.408222 0.587302 0.112751
1.426524 0.588355 0.112792
1.444871 0.589245 0.112824
1.454281 0.585822 0.112600
1.476835 0.588324 0.112726
1.488440 0.585667 0.112546
1.508711 0.586772 0.112589
1.526964 0.586803 0.112568
1.544295 0.586273 0.112513
1.557121 0.583673 0.112336
1.585689 0.587631 0.112545
1.599029 0.584989 0.112366
1.622034 0.586240 0.112415
1.644238 0.586989 0.112435
1.658526 0.584410 0.112260
1.677188 0.583494 0.112182
1.701683 0.584746 0.112232
1.718630 0.582944 0.112103
1.742375 0.583655 0.112123
1.755684 0.580340 0.111906
1.743045 0.567443 0.111129
1.779722 0.572758 0.111421
1.811210 0.575993 0.111591
0.230713 0.579958 0.110110
0.236601 0.596596 0.111030
0.239262 0.595933 0.110986
0.243826 0.604474 0.111455
0.249715 0.618822 0.112248
0.250213 0.606853 0.111575
0.252358 0.602832 0.111346
0.254052 0.596764 0.111003
0.256925 0.596019 0.110957
0.262114 0.605202 0.111465
0.264594 0.602377 0.111304
0.267968 0.603266 0.111350
0.272601 0.609142 0.111674
0.276148 0.610356 0.111739
0.278751 0.607747 0.111591
0.282007 0.607671 0.111585
0.284531 0.604782 0.111422
0.288170 0.606058 0.111491
0.291548 0.606288 0.111502
0.294543 0.605110 0.111434
0.297666 0.604380 0.111392
0.301775 0.607018 0.111537
0.306465 0.611490 0.111784
0.309725 0.611053 0.111757
0.309258 0.598496 0.111057
0.312909 0.599495 0.111110
0.316337 0.599741 0.111122
0.319668 0.599660 0.111115
0.322901 0.599269 0.111090
0.324183 0.593037 0.110741
0.328637 0.596326 0.110921
0.335705 0.607074 0.111516
0.338352 0.604859 0.111390
0.341931 0.605319 0.111412
0.345156 0.604769 0.111378
0.348875 0.605566 0.111418
0.350706 0.601248 0.111174
0.355350 0.604495 0.111351
0.357622 0.601434 0.111176
0.360753 0.600654 0.111128
0.368368 0.611277 0.111714
0.368862 0.603738 0.111290
0.370194 0.598456 0.110991
0.374277 0.600008 0.111072
0.378618 0.602122 0.111184
0.380919 0.599309 0.111022
0.384217 0.598886 0.110992
0.389779 0.603697 0.111253
0.396776 0.611646 0.111687
0.397948 0.606214 0.111379
0.398334 0.599139 0.110980
0.400922 0.597064 0.110858
0.406664 0.601878 0.111117
0.415891 0.614041 0.111784
0.415512 0.605480 0.111301
0.421291 0.610022 0.111545
0.425747 0.611680 0.111628
0.427507 0.607745 0.111402
0.431733 0.608866 0.111455
0.430498 0.598994 0.110900
0.432931 0.596579 0.110757
0.436242 0.595905 0.110711
0.440539 0.597123 0.110769
0.443902 0.596494 0.110725
0.446686 0.594748 0.110618
0.448696 0.591561 0.110432
0.457260 0.600540 0.110918
0.465356 0.608432 0.111344
0.468538 0.607220 0.111266
0.471322 0.605285 0.111149
0.474172 0.603470 0.111038
0.481387 0.609312 0.111349
0.484296 0.607521 0.111238
0.486888 0.605189 0.111098
0.488717 0.601570 0.110887
0.494803 0.605142 0.111072
0.497509 0.602981 0.110941
0.502072 0.603882 0.110978
0.507487 0.606110 0.111089
0.507582 0.599680 0.110722
0.508855 0.595222 0.110465
0.511643 0.593204 0.110341
0.518590 0.597688 0.110575
0.525831 0.602496 0.110826
0.528349 0.599933 0.110672
0.531127 0.597774 0.110540
0.538573 0.602622 0.110792
0.544381 0.604898 0.110903
0.548060 0.603955 0.110837
0.551210 0.602217 0.110728
0.552945 0.598430 0.110506
0.555732 0.596178 0.110368
0.560125 0.596196 0.110355
0.565136 0.597037 0.110386
0.569140 0.596422 0.110338
0.576002 0.599697 0.110502
0.582613 0.602524 0.110641
0.587954 0.603543 0.110681
0.593117 0.604260 0.110705
0.599998 0.607186 0.110849
0.602016 0.603653 0.110640
0.602047 0.597569 0.110293
0.601856 0.591272 0.109933
0.605442 0.589847 0.109840
0.612409 0.592658 0.109977
0.619801 0.595900 0.110137
0.631052 0.603796 0.110549
0.640715 0.609557 0.110846
0.638955 0.601330 0.110381
0.633099 0.588298 0.109656
0.642228 0.593268 0.109909
0.649544 0.595965 0.110038
0.656035 0.597603 0.110109
0.659578 0.595758 0.109991
0.662577 0.593278 0.109839
0.670071 0.595891 0.109963
0.674157 0.594581 0.109873
0.678503 0.593537 0.109799
0.685923 0.595851 0.109905
0.693711 0.598475 0.110028
0.704720 0.604483 0.110333
0.712475 0.606845 0.110441
0.719625 0.608472 0.110509
0.722098 0.605100 0.110307
0.722124 0.599191 0.109969
0.720040 0.591165 0.109517
0.736482 0.602175 0.110089
0.740060 0.599901 0.109946
0.742588 0.596565 0.109746
0.752128 0.600210 0.109921
0.759346 0.601447 0.109966
0.765785 0.601849 0.109966
0.767178 0.597313 0.109701
0.769243 0.593451 0.109472
0.776285 0.594328 0.109497
0.789233 0.600689 0.109814
0.784480 0.590391 0.109241
0.789078 0.588857 0.109136
0.796362 0.589752 0.109161
0.805221 0.592002 0.109258
0.825334 0.604253 0.109887
0.826161 0.599075 0.109586
0.834603 0.600641 0.109645
0.832543 0.592955 0.109211
0.822575 0.578517 0.108419
0.825460 0.575297 0.108222
0.832147 0.575304 0.108198
0.874202 0.599026 0.109403
0.886111 0.602942 0.109582
0.878466 0.590741 0.108909
0.878636 0.585032 0.108579
0.885470 0.584709 0.108534
0.898476 0.589232 0.108744
0.905197 0.588657 0.108685
0.914971 0.590408 0.108747
0.921272 0.589376 0.108662
0.923787 0.585398 0.108422
0.931933 0.585692 0.108407
0.944693 0.589373 0.108568
0.955006 0.591094 0.108626
0.959755 0.588612 0.108462
0.972004 0.591572 0.108583
0.986477 0.596005 0.108780
0.997563 0.597854 0.108841
1.004658 0.596761 0.108748
1.009387 0.593951 0.108565
1.021367 0.596148 0.108641
1.033404 0.598258 0.108712
1.037999 0.595176 0.108513
1.044099 0.593082 0.108365
1.051274 0.591659 0.108250
1.063595 0.593576 0.108308
1.070361 0.591729 0.108170
1.080899 0.592269 0.108154
1.090494 0.592100 0.108101
1.099836 0.591677 0.108034
1.110456 0.591967 0.108002
1.118421 0.590500 0.107880
1.128282 0.590128 0.107812
1.143496 0.592917 0.107905
1.152709 0.591926 0.107803
1.159598 0.589462 0.107626
1.172205 0.590311 0.107616
1.180450 0.588483 0.107468
1.189218 0.586880 0.107331
1.201379 0.587131 0.107287
1.210838 0.585730 0.107158
1.226581 0.587748 0.107200
1.230366 0.582989 0.106899
1.253102 0.588561 0.107116
1.259091 0.584832 0.106865
1.280018 0.589032 0.107009
1.289467 0.586940 0.106836
1.299551 0.585088 0.106675
1.313239 0.584997 0.106599
1.328778 0.585709 0.106562
1.343411 0.585802 0.106492
1.356314 0.584883 0.106370
1.375359 0.586857 0.106389
1.392565 0.587737 0.106352
1.406824 0.587025 0.106235
1.414480 0.583043 0.105956
1.439916 0.587329 0.106079
1.453696 0.585958 0.105925
1.474690 0.587756 0.105922
1.488146 0.585950 0.105743
1.508315 0.587016 0.105701
1.522753 0.585378 0.105527
1.540760 0.585170 0.105420
1.561181 0.585844 0.105354
1.581774 0.586418 0.105281
1.598294 0.585127 0.105119
1.616813 0.584544 0.104989
1.642222 0.586629 0.104983
1.662932 0.586637 0.104879
1.684548 0.586869 0.104784
1.699311 0.584295 0.104559
1.709726 0.579999 0.104254
1.734108 0.581005 0.104195
1.748084 0.577985 0.103952
1.769130 0.577563 0.103828
1.756183 0.564680 0.103138
1.766226 0.560329 0.102840
0.231701 0.585327 0.107602
0.236480 0.596123 0.108140
0.239295 0.596263 0.108132
0.242105 0.596135 0.108112
0.245897 0.600545 0.108325
0.251295 0.612150 0.108906
0.251187 0.597595 0.108151
0.254858 0.600592 0.108293
0.258442 0.602923 0.108402
0.261468 0.602591 0.108376
0.264529 0.602295 0.108352
0.267605 0.601955 0.108326
0.272681 0.609665 0.108711
0.275593 0.608342 0.108635
0.278654 0.607571 0.108588
0.281463 0.605789 0.108490
0.284309 0.604150 0.108399
0.288198 0.606364 0.108505
0.291879 0.607690 0.108565
0.294269 0.604339 0.108387
0.297204 0.602973 0.108311
0.302020 0.608065 0.108563
0.306711 0.612525 0.108783
0.310055 0.612350 0.108766
0.308957 0.597722 0.108015
0.312276 0.597674 0.108005
0.316430 0.600236 0.108127
0.319799 0.600269 0.108121
0.322085 0.596990 0.107946
0.323863 0.592280 0.107699
0.329501 0.599071 0.108035
0.334551 0.603931 0.108273
0.338067 0.604249 0.108280
0.342104 0.606008 0.108360
0.347603 0.611752 0.108642
0.349106 0.606400 0.108360
0.352171 0.605390 0.108298
0.354768 0.603153 0.108174
0.357741 0.601945 0.108102
0.360031 0.598994 0.107941
0.365365 0.603845 0.108175
0.369393 0.605271 0.108236
0.370952 0.600530 0.107983
0.374133 0.599856 0.107937
0.378881 0.602955 0.108080
0.381475 0.600830 0.107960
0.384192 0.599026 0.107855
0.389132 0.602397 0.108011
0.393449 0.604236 0.108090
0.394054 0.597617 0.107741
0.395696 0.593451 0.107516
0.399319 0.593731 0.107515
0.404584 0.597550 0.107692
0.409698 0.600927 0.107846
0.416712 0.608232 0.108198
0.418446 0.604249 0.107981
0.422561 0.605273 0.108015
0.430729 0.614554 0.108464
0.432206 0.610027 0.108219
0.430731 0.599662 0.107681
0.433540 0.597985 0.107578
0.436554 0.596716 0.107496
0.440713 0.597660 0.107525
0.443523 0.595969 0.107421
0.446602 0.594790 0.107343
0.450998 0.596071 0.107388
0.456257 0.598886 0.107508
0.462986 0.604298 0.107758
0.468480 0.607321 0.107889
0.470932 0.604791 0.107741
0.476209 0.607287 0.107844
0.480648 0.608224 0.107869
0.487744 0.613711 0.108120
0.488151 0.607563 0.107792
0.489031 0.602311 0.107508
0.494893 0.605503 0.107644
0.496806 0.602020 0.107448
0.498025 0.597430 0.107197
0.500492 0.594927 0.107049
0.504741 0.595311 0.107044
0.508101 0.594227 0.106967
0.512359 0.594545 0.106958
0.517030 0.595461 0.106979
0.524228 0.600229 0.107190
0.529195 0.601442 0.107224
0.531398 0.598399 0.107049
0.538140 0.602188 0.107209
0.542682 0.602591 0.107203
0.547339 0.603111 0.107202
0.548685 0.598757 0.106961
0.552549 0.598077 0.106901
0.556004 0.596785 0.106811
0.560628 0.597125 0.106800
0.564783 0.596762 0.106754
0.568996 0.596442 0.106711
0.574267 0.597538 0.106736
0.580649 0.600078 0.106832
0.587057 0.602560 0.106924
0.595100 0.607131 0.107117
0.602001 0.610059 0.107230
0.604253 0.606806 0.107042
0.604603 0.601106 0.106735
0.601619 0.591194 0.106223
0.605785 0.590510 0.106160
0.611380 0.591591 0.106182
0.618651 0.594697 0.106301
0.626298 0.598162 0.106437
0.642292 0.611722 0.107061
0.642076 0.605345 0.106720
0.638015 0.594428 0.106162
0.640080 0.590950 0.105962
0.648793 0.595317 0.106139
0.655831 0.597602 0.106216
0.657579 0.593687 0.105995
0.661211 0.591952 0.105878
0.669879 0.595914 0.106034
0.674019 0.594667 0.105940
0.677605 0.592779 0.105815
0.683231 0.593128 0.105797
0.691469 0.596273 0.105912
0.697527 0.596953 0.105908
0.700677 0.594454 0.105753
0.704570 0.592742 0.105636
0.716485 0.599449 0.105917
0.719372 0.596576 0.105744
0.723026 0.594496 0.105608
0.735947 0.601883 0.105919
0.737372 0.597433 0.105670
0.736500 0.590709 0.105314
0.749836 0.598188 0.105627
0.759825 0.602179 0.105775
0.764160 0.600524 0.105657
0.776701 0.606782 0.105910
0.766901 0.591466 0.105151
0.773166 0.591629 0.105117
0.778321 0.590691 0.105032
0.784762 0.590915 0.105000
0.788156 0.588268 0.104834
0.797570 0.591121 0.104924
0.803206 0.590442 0.104849
0.816517 0.596611 0.105090
0.820191 0.594037 0.104926
0.823981 0.591556 0.104765
0.827353 0.588697 0.104587
0.825406 0.581233 0.104197
0.827421 0.577245 0.103967
0.832268 0.575676 0.103848
0.875607 0.600478 0.104887
0.887651 0.604497 0.105019
0.884161 0.595678 0.104566
0.878110 0.584884 0.104023
0.888707 0.587586 0.104093
0.900906 0.591447 0.104215
0.905370 0.589078 0.104054
0.912961 0.589127 0.104001
0.921579 0.589901 0.103980
0.925891 0.587295 0.103807
0.933489 0.587161 0.103743
0.945312 0.590130 0.103818
0.951060 0.588454 0.103683
0.952500 0.583564 0.103405
0.963486 0.585657 0.103436
0.974989 0.588008 0.103478
0.997783 0.586115 0.103200
1.016194 0.592862 0.103429
1.027258 0.594341 0.103424
1.034867 0.593353 0.103310
1.045562 0.594380 0.103283
1.052853 0.593026 0.103150
1.062302 0.593037 0.103075
1.070623 0.592217 0.102963
1.080502 0.592331 0.102890
1.089595 0.591843 0.102789
1.096774 0.590055 0.102631
1.110484 0.592308 0.102644
1.121476 0.592725 0.102577
1.127380 0.589899 0.102370
1.145263 0.594324 0.102469
1.151443 0.591495 0.102258
1.158916 0.589388 0.102077
1.172519 0.590831 0.102042
1.182121 0.589795 0.101902
1.192245 0.588966 0.101768
1.203123 0.588468 0.101646
1.210760 0.586027 0.101442
1.221764 0.585400 0.101310
1.238469 0.587813 0.101301
1.255252 0.590088 0.101282
1.264588 0.588154 0.101089
1.274755 0.586575 0.100909
1.287392 0.586201 0.100775
1.297775 0.584520 0.100585
1.314143 0.585827 0.100513
1.330138 0.586769 0.100422
1.343879 0.586407 0.100276
1.352064 0.583137 0.100014
1.377733 0.588402 0.100082
1.387231 0.585523 0.099829
1.404375 0.586232 0.099713
1.414372 0.583376 0.099456
1.441299 0.588368 0.099495
1.459600 0.589085 0.099368
1.472465 0.587139 0.099137
1.490094 0.587232 0.098979
1.505848 0.586325 0.098782
1.519714 0.584452 0.098546
1.534348 0.582803 0.098316
1.562946 0.587022 0.098296
1.579810 0.586015 0.098084
1.595623 0.584445 0.097850
1.617751 0.585368 0.097702
1.648069 0.589448 0.097662
1.669229 0.589611 0.097481
1.684707 0.587389 0.097217
1.691517 0.581718 0.096835
1.705445 0.578818 0.096550
1.729530 0.579741 0.096393
1.748036 0.578447 0.096163
1.748758 0.570520 0.095715
1.753780 0.564287 0.095329
1.756497 0.557316 0.094923
0.235646 0.606359 0.105777
0.236882 0.598367 0.105382
0.238622 0.593032 0.105112
0.241727 0.594445 0.105157
0.245878 0.600639 0.105427
0.247298 0.593437 0.105073
0.251883 0.601009 0.105408
0.255542 0.603890 0.105526
0.259051 0.605828 0.105600
0.262389 0.606794 0.105629
0.264388 0.601906 0.105387
0.267453 0.601536 0.105356
0.270841 0.602390 0.105382
0.273765 0.601265 0.105317
0.277278 0.602408 0.105357
0.280887 0.603800 0.105409
0.283787 0.602409 0.105332
0.287973 0.605756 0.105475
0.291707 0.607294 0.105533
0.294492 0.605358 0.105432
0.297434 0.603997 0.105357
0.302304 0.609262 0.105587
0.306481 0.611977 0.105700
0.310111 0.612761 0.105724
0.308823 0.597503 0.105007
0.311981 0.596949 0.104969
0.316565 0.600879 0.105137
0.319310 0.598974 0.105036
0.322495 0.598452 0.104998
0.324126 0.593280 0.104746
0.331053 0.603861 0.105218
0.334393 0.603692 0.105196
0.337783 0.603653 0.105179
0.342816 0.608226 0.105373
0.347478 0.611621 0.105513
0.354208 0.620549 0.105906
0.356618 0.617573 0.105753
0.359824 0.616779 0.105699
0.357203 0.600749 0.104946
0.360173 0.599570 0.104874
0.364624 0.602170 0.104975
0.369625 0.606063 0.105134
0.372967 0.605726 0.105099
0.375311 0.602939 0.104952
0.379823 0.605433 0.105046
0.383557 0.605989 0.105050
0.384812 0.600688 0.104787
0.388479 0.601092 0.104784
0.391065 0.598988 0.104667
0.393231 0.595962 0.104507
0.394373 0.590702 0.104245
0.401183 0.598041 0.104555
0.404222 0.596965 0.104483
0.408111 0.597717 0.104493
0.412577 0.599650 0.104556
0.417109 0.601647 0.104621
0.421863 0.604031 0.104703
0.427539 0.608219 0.104866
0.431083 0.607959 0.104827
0.430684 0.599771 0.104431
0.433893 0.598888 0.104364
0.437391 0.598559 0.104322
0.439870 0.596231 0.104189
0.443339 0.595820 0.104142
0.447242 0.596207 0.104131
0.451976 0.598108 0.104187
0.458553 0.603345 0.104391
0.464095 0.606538 0.104503
0.470478 0.611150 0.104678
0.477480 0.616736 0.104896
0.479825 0.613908 0.104737
0.484918 0.615925 0.104794
0.484820 0.608849 0.104447
0.487695 0.606991 0.104331
0.489408 0.603162 0.104128
0.490805 0.598840 0.103902
0.493636 0.596957 0.103785
0.496530 0.595178 0.103672
0.501293 0.596442 0.103694
0.505533 0.596798 0.103674
0.510739 0.598649 0.103720
0.513973 0.597306 0.103625
0.519110 0.598926 0.103660
0.522751 0.598157 0.103590
0.524868 0.595027 0.103415
0.531535 0.598822 0.103544
0.537593 0.601584 0.103627
0.542430 0.602434 0.103625
0.546020 0.601389 0.103541
0.549895 0.600739 0.103473
0.552341 0.597995 0.103314
0.556226 0.597319 0.103245
0.560047 0.596524 0.103171
0.564612 0.596742 0.103139
0.568691 0.596240 0.103077
0.573633 0.596887 0.103063
0.580358 0.599906 0.103151
0.586601 0.602171 0.103206
0.590205 0.600829 0.103106
0.599026 0.606360 0.103299
0.600144 0.601660 0.103054
0.600461 0.595967 0.102767
0.607108 0.598463 0.102829
0.610960 0.597313 0.102735
0.615225 0.596660 0.102663
0.617346 0.593299 0.102475
0.624249 0.595863 0.102538
0.634716 0.602692 0.102780
0.643314 0.607081 0.102918
0.638375 0.595092 0.102365
0.643318 0.595033 0.102315
0.651237 0.598431 0.102409
0.646083 0.586467 0.101860
0.658010 0.594422 0.102144
0.665191 0.596747 0.102192
0.669069 0.595234 0.102079
0.672756 0.593489 0.101956
0.678500 0.594016 0.101927
0.683299 0.593445 0.101852
0.689919 0.594824 0.101858
0.695655 0.595173 0.101820
0.697087 0.590852 0.101589
0.699708 0.587825 0.101412
0.707121 0.589848 0.101441
0.710831 0.587923 0.101309
0.715121 0.586584 0.101200
0.726824 0.592803 0.101398
0.728860 0.589059 0.101190
0.736573 0.591034 0.101214
0.745908 0.594536 0.101299
0.759657 0.602272 0.101553
0.764477 0.601093 0.101446
0.771046 0.601575 0.101405
0.774227 0.598747 0.101231
0.766968 0.586002 0.100661
0.771064 0.584123 0.100526
0.784147 0.590604 0.100722
0.787146 0.587597 0.100541
0.795811 0.589775 0.100564
0.800934 0.588647 0.100455
0.812231 0.593030 0.100563
0.821648 0.595602 0.100599
0.817326 0.585957 0.100154
0.829104 0.590495 0.100264
0.834671 0.589517 0.100158
0.836640 0.585413 0.099930
0.839295 0.581909 0.099724
0.843707 0.579889 0.099576
0.858969 0.586890 0.099775
0.874124 0.593611 0.099960
0.869175 0.583700 0.099507
0.875287 0.582874 0.099401
0.888114 0.587390 0.099497
0.899526 0.590632 0.099543
0.907884 0.591342 0.099491
0.911625 0.588368 0.099299
0.920710 0.589514 0.099261
0.933054 0.593065 0.099311
0.940252 0.592577 0.099208
0.949079 0.593249 0.099148
0.953781 0.590769 0.098969
0.951237 0.582923 0.098592
0.944359 0.571992 0.098102
0.949956 0.570211 0.097948
0.961891 0.572927 0.097957
0.969207 0.572240 0.097840
0.984426 0.577037 0.097920
1.000047 0.581941 0.098000
1.017168 0.587701 0.098107
1.034637 0.593502 0.098212
1.044708 0.594111 0.098129
1.051338 0.592322 0.097959
1.061468 0.592794 0.097867
1.070983 0.592764 0.097756
1.080816 0.592847 0.097646
1.088944 0.591740 0.097492
1.095976 0.589863 0.097310
1.117613 0.597108 0.097438
1.122129 0.593451 0.097190
1.126463 0.589654 0.096936
1.138216 0.590353 0.096832
1.148677 0.590151 0.096695
1.158021 0.589179 0.096530
1.175161 0.592719 0.096510
1.181967 0.590034 0.096282
1.191514 0.588874 0.096102
1.205305 0.590048 0.095994
1.214030 0.588210 0.095786
1.229069 0.589821 0.095685
1.237652 0.587700 0.095462
1.247576 0.586231 0.095257
1.269033 0.590902 0.095239
1.269538 0.584130 0.094863
1.284872 0.585216 0.094726
1.297608 0.584782 0.094538
1.309173 0.583611 0.094325
1.324955 0.584478 0.094168
1.341284 0.585456 0.094009
1.357705 0.586308 0.093842
1.375426 0.587631 0.093683
1.386759 0.585660 0.093426
1.406843 0.587789 0.093280
1.414372 0.583749 0.092957
1.433903 0.585279 0.092784
1.454347 0.587036 0.092612
1.470677 0.586708 0.092378
1.491252 0.588145 0.092186
1.504640 0.586182 0.091900
1.520301 0.585109 0.091634
1.536705 0.584229 0.091369
1.567654 0.589450 0.091251
1.577762 0.585563 0.090904
1.594055 0.584209 0.090617
1.619449 0.586493 0.090412
1.645639 0.588896 0.090205
1.665942 0.588735 0.089934
1.678252 0.585282 0.089589
1.692611 0.582594 0.089261
1.708379 0.580402 0.088945
1.723121 0.577769 0.088620
1.755217 0.581609 0.088429
1.743379 0.569002 0.087906
1.754181 0.564909 0.087561
1.786675 0.568661 0.087370
0.236391 0.610475 0.103050
0.236870 0.598486 0.102515
0.238494 0.592565 0.102238
0.241736 0.594680 0.102300
0.245527 0.599137 0.102462
0.248627 0.599929 0.102471
0.251271 0.598389 0.102383
0.255076 0.601998 0.102511
0.258831 0.605074 0.102618
0.262423 0.607168 0.102685
0.264049 0.600695 0.102394
0.267014 0.599942 0.102343
0.270779 0.602375 0.102426
0.274249 0.603435 0.102451
0.276623 0.600083 0.102294
0.279867 0.600128 0.102278
0.284864 0.606700 0.102534
0.287751 0.605178 0.102453
0.291158 0.605546 0.102451
0.294990 0.607370 0.102509
0.298191 0.606880 0.102471
0.302216 0.609202 0.102550
0.306524 0.612362 0.102663
0.310106 0.612985 0.102671
0.308812 0.597704 0.102020
0.311680 0.596225 0.101941
0.315460 0.597641 0.101981
0.319127 0.598643 0.102003
0.321286 0.595007 0.101834
0.323863 0.592723 0.101720
0.330456 0.602332 0.102097
0.333937 0.602597 0.102087
0.337501 0.603079 0.102086
0.344700 0.613760 0.102503
0.346213 0.608345 0.102258
0.348429 0.604991 0.102098
0.350705 0.601882 0.101947
0.353841 0.601129 0.101893
0.356318 0.598654 0.101767
0.360417 0.600420 0.101815
0.364715 0.602622 0.101879
0.369467 0.605889 0.101987
0.372606 0.605051 0.101926
0.375336 0.603221 0.101825
0.376948 0.598719 0.101614
0.383120 0.605166 0.101848
0.386450 0.604751 0.101802
0.387689 0.599473 0.101559
0.390644 0.598237 0.101479
0.392768 0.595128 0.101323
0.397968 0.598938 0.101447
0.400013 0.595674 0.101284
0.405604 0.600186 0.101434
0.406130 0.593665 0.101139
0.408998 0.592252 0.101049
0.418239 0.604233 0.101497
0.423882 0.608434 0.101631
0.428639 0.610691 0.101686
0.430921 0.607843 0.101537
0.431167 0.600950 0.101225
0.433367 0.598056 0.101073
0.436364 0.596756 0.100985
0.439663 0.596039 0.100919
0.442989 0.595357 0.100854
0.446495 0.595000 0.100801
0.451943 0.598255 0.100891
0.459060 0.604496 0.101098
0.466176 0.610564 0.101297
0.467013 0.605084 0.101040
0.467433 0.598939 0.100757
0.469796 0.596335 0.100613
0.472834 0.594935 0.100516
0.479356 0.599578 0.100655
0.485966 0.604235 0.100793
0.488402 0.601664 0.100649
0.488239 0.594736 0.100335
0.491198 0.593111 0.100227
0.495482 0.593662 0.100203
0.501670 0.597268 0.100297
0.508840 0.602344 0.100447
0.511047 0.599353 0.100284
0.515333 0.599668 0.100249
0.520371 0.601112 0.100256
0.522802 0.598451 0.100105
0.524783 0.595111 0.099929
0.528651 0.594662 0.099862
0.538750 0.603539 0.100150
0.542388 0.602589 0.100063
0.546985 0.603029 0.100029
0.550808 0.602288 0.099949
0.552372 0.598259 0.099744
0.555408 0.596369 0.099620
0.559392 0.595817 0.099546
0.565037 0.597558 0.099558
0.568196 0.595774 0.099437
0.573159 0.596458 0.099408
0.575890 0.594051 0.099264
0.584032 0.598936 0.099390
0.584059 0.592854 0.099108
0.587282 0.591068 0.098986
0.592690 0.592132 0.098968
0.597819 0.592770 0.098934
0.601209 0.591119 0.098816
0.608955 0.594992 0.098899
0.612210 0.593092 0.098771
0.617294 0.593463 0.098724
0.626994 0.599486 0.098883
0.636570 0.605196 0.099028
0.639989 0.603289 0.098897
0.639665 0.596875 0.098603
0.633753 0.583891 0.098074
0.639714 0.585092 0.098055
0.653752 0.595652 0.098369
0.661021 0.598141 0.098393
0.663393 0.594927 0.098214
0.666846 0.592952 0.098078
0.671921 0.592790 0.098007
0.678621 0.594393 0.097996
0.683969 0.594426 0.097930
0.689244 0.594330 0.097859
0.698602 0.598608 0.097939
0.699733 0.593934 0.097706
0.703536 0.592136 0.097574
0.708311 0.591345 0.097476
0.711330 0.588690 0.097313
0.715472 0.587193 0.097190
0.721076 0.587170 0.097117
0.732459 0.592959 0.097241
0.740949 0.595682 0.097259
0.744951 0.593837 0.097121
0.741935 0.585055 0.096749
0.764188 0.601069 0.097211
0.770688 0.601488 0.097146
0.771493 0.596385 0.096896
0.775335 0.594207 0.096744
0.778159 0.591058 0.096559
0.785435 0.592065 0.096511
0.786264 0.587042 0.096263
0.794990 0.589286 0.096254
0.798958 0.587118 0.096099
0.816002 0.596684 0.096325
0.821783 0.595990 0.096215
0.823118 0.591330 0.095977
0.826950 0.588881 0.095810
0.834396 0.589547 0.095742
0.844612 0.592518 0.095745
0.847743 0.589354 0.095553
0.850354 0.585752 0.095347
0.845566 0.575986 0.094948
0.844813 0.569674 0.094657
0.857010 0.574018 0.094698
0.862883 0.573092 0.094573
0.872252 0.574928 0.094532
0.900611 0.591774 0.094945
0.909532 0.592921 0.094877
0.912163 0.589069 0.094655
0.921105 0.590103 0.094580
0.931129 0.591876 0.094524
0.944256 0.595901 0.094533
0.949214 0.593639 0.094354
0.952858 0.590370 0.094144
0.952300 0.583992 0.093843
0.945078 0.572798 0.093403
0.949499 0.570163 0.093211
0.961358 0.572830 0.093169
0.981808 0.581462 0.093293
0.972359 0.568852 0.092814
0.977601 0.566626 0.092628
0.997819 0.574674 0.092725
1.033603 0.593098 0.093100
1.042825 0.593143 0.092965
1.050098 0.591797 0.092789
1.054647 0.588586 0.092562
1.069070 0.591817 0.092504
1.082108 0.593993 0.092414
1.088704 0.591894 0.092208
1.095771 0.590042 0.092007
1.108868 0.591921 0.091898
1.121017 0.593073 0.091768
1.129185 0.591645 0.091568
1.138317 0.590730 0.091378
1.148142 0.590145 0.091194
1.159057 0.590116 0.091019
1.175368 0.593163 0.090915
1.182153 0.590464 0.090668
1.196426 0.592037 0.090519
1.208781 0.592361 0.090336
1.219377 0.591561 0.090122
1.225955 0.588408 0.089852
1.236154 0.587201 0.089623
1.252712 0.589373 0.089463
1.266688 0.589968 0.089262
1.271420 0.585472 0.088949
1.289045 0.587760 0.088775
1.302169 0.587505 0.088542
1.315068 0.586999 0.088298
1.328193 0.586476 0.088050
1.337708 0.583997 0.087758
1.359934 0.587770 0.087580
1.370603 0.585607 0.087284
1.385293 0.585302 0.087017
1.407877 0.588647 0.086809
1.422058 0.587761 0.086519
1.431690 0.584606 0.086186
1.457536 0.588883 0.085969
1.465926 0.584907 0.085614
1.489485 0.587725 0.085359
1.504634 0.586560 0.085037
1.520817 0.585721 0.084714
1.540390 0.586220 0.084405
1.555690 0.584716 0.084064
1.575146 0.584857 0.083739
1.589391 0.582667 0.083381
1.612534 0.584056 0.083063
1.640029 0.587035 0.082755
1.661679 0.587452 0.082414
1.678562 0.585838 0.082049
1.697652 0.585003 0.081690
1.710392 0.581624 0.081307
1.727861 0.580023 0.080942
1.720657 0.569106 0.080506
1.756673 0.574385 0.080196
1.754609 0.565533 0.079790
1.750735 0.556189 0.079391
0.231619 0.585383 0.099188
0.236568 0.597107 0.099593
0.239295 0.596814 0.099547
0.242268 0.597517 0.099540
0.245597 0.599693 0.099590
0.248543 0.599757 0.099561
0.250712 0.596029 0.099392
0.254718 0.600615 0.099535
0.259359 0.607657 0.099770
0.261570 0.603714 0.099596
0.264883 0.604487 0.099599
0.267738 0.603207 0.099526
0.270880 0.603041 0.099496
0.274396 0.604281 0.099518
0.276543 0.600027 0.099337
0.280505 0.602836 0.099418
0.284065 0.603953 0.099436
0.288245 0.607263 0.099536
0.290241 0.602488 0.099337
0.293764 0.603270 0.099344
0.298504 0.608236 0.099504
0.302244 0.609560 0.099530
0.306752 0.613391 0.099647
0.310194 0.613536 0.099629
0.309751 0.601012 0.099146
0.311746 0.596686 0.098964
0.315248 0.597223 0.098960
0.318552 0.597113 0.098932
0.321551 0.596059 0.098869
0.323839 0.592893 0.098728
0.329708 0.600371 0.098975
0.333278 0.600929 0.098969
0.337073 0.602096 0.098984
0.344844 0.614411 0.099403
0.342059 0.597064 0.098746
0.345280 0.596625 0.098701
0.348806 0.597002 0.098686
0.351344 0.594732 0.098574
0.354432 0.593949 0.098515
0.359641 0.598646 0.098654
0.364494 0.602292 0.098753
0.368080 0.602637 0.098732
0.371149 0.601673 0.098664
0.372868 0.597415 0.098478
0.376860 0.598733 0.098491
0.381451 0.601420 0.098551
0.385761 0.603356 0.098584
0.387360 0.598933 0.098390
0.389108 0.594939 0.098211
0.393339 0.596638 0.098233
0.395559 0.593776 0.098093
0.400239 0.596388 0.098147
0.403080 0.594905 0.098055
0.407963 0.597826 0.098117
0.414311 0.603765 0.098284
0.419042 0.606139 0.098325
0.423991 0.608879 0.098378
0.428619 0.610868 0.098403
0.429656 0.605494 0.098171
0.431107 0.601045 0.097971
0.433309 0.598154 0.097825
0.436168 0.596585 0.097724
0.439704 0.596331 0.097669
0.442858 0.595319 0.097587
0.445942 0.594163 0.097499
0.450765 0.596260 0.097523
0.458579 0.603818 0.097733
0.469221 0.616361 0.098111
0.465771 0.603046 0.097605
0.466853 0.598111 0.097385
0.469703 0.596382 0.097275
0.473229 0.595841 0.097204
0.477400 0.596394 0.097169
0.483610 0.600403 0.097251
0.487032 0.599548 0.097167
0.487120 0.593067 0.096895
0.489494 0.590486 0.096753
0.493313 0.590301 0.096691
0.498401 0.592153 0.096696
0.507301 0.600078 0.096902
0.510247 0.598291 0.096784
0.514135 0.597990 0.096715
0.521395 0.602933 0.096818
0.526603 0.604555 0.096811
0.528998 0.601791 0.096659
0.531635 0.599407 0.096519
0.536873 0.600937 0.096507
0.544470 0.605906 0.096605
0.548611 0.605645 0.096532
0.548787 0.599562 0.096271
0.550816 0.596232 0.096100
0.554625 0.595470 0.096010
0.560446 0.597530 0.096010
0.565228 0.598048 0.095960
0.567905 0.595592 0.095815
0.571252 0.594060 0.095699
0.575423 0.593637 0.095617
0.580801 0.594806 0.095585
0.584001 0.593000 0.095460
0.589419 0.594117 0.095424
0.592343 0.591903 0.095285
0.599680 0.595409 0.095322
0.602182 0.592595 0.095163
0.603404 0.588161 0.094955
0.607647 0.587572 0.094864
0.616767 0.593036 0.094957
0.628525 0.601611 0.095142
0.632465 0.600407 0.095029
0.635606 0.598210 0.094887
0.632198 0.588141 0.094508
0.625603 0.574424 0.094022
0.634103 0.578711 0.094073
0.652586 0.594527 0.094464
0.658898 0.595924 0.094425
0.661041 0.592471 0.094243
0.666410 0.592697 0.094168
0.670823 0.591795 0.094060
0.677623 0.593522 0.094028
0.683691 0.594362 0.093968
0.687677 0.592860 0.093841
0.696971 0.597088 0.093876
0.699727 0.594172 0.093707
0.703767 0.592628 0.093576
0.709035 0.592354 0.093481
0.713176 0.590861 0.093350
0.716706 0.588715 0.093201
0.726945 0.593427 0.093242
0.736428 0.597235 0.093255
0.745681 0.600690 0.093256
0.741495 0.590650 0.092889
0.740613 0.584001 0.092614
0.760206 0.597435 0.092882
0.766468 0.597661 0.092791
0.775717 0.600695 0.092773
0.783190 0.601932 0.092706
0.789904 0.602377 0.092616
0.788924 0.595579 0.092336
0.788468 0.589338 0.092071
0.792724 0.587471 0.091920
0.799264 0.587657 0.091821
0.810350 0.591869 0.091823
0.825070 0.599184 0.091901
0.822335 0.590905 0.091583
0.827853 0.589936 0.091449
0.834370 0.589791 0.091334
0.840621 0.589363 0.091211
0.847117 0.589091 0.091091
0.849120 0.584982 0.090876
0.846514 0.577043 0.090569
0.839702 0.565715 0.090182
0.853493 0.571405 0.090201
0.860581 0.571492 0.090084
0.870255 0.573593 0.090013
0.892767 0.585809 0.090171
0.909098 0.592858 0.090205
0.912602 0.589691 0.090003
0.919928 0.589472 0.089866
0.930404 0.591603 0.089780
0.943562 0.595659 0.089732
0.949328 0.594010 0.089557
0.953825 0.591375 0.089359
0.955575 0.586691 0.089115
0.950242 0.576849 0.088763
0.950647 0.571272 0.088502
0.976423 0.583904 0.088616
0.976704 0.578127 0.088347
0.979068 0.573847 0.088108
0.975678 0.565569 0.087789
1.030929 0.591570 0.087978
1.034848 0.588053 0.087742
1.045792 0.589215 0.087594
1.059782 0.592283 0.087476
1.068612 0.591817 0.087289
1.080914 0.593521 0.087138
1.088814 0.592268 0.086929
1.097258 0.591291 0.086723
1.104212 0.589297 0.086496
1.120994 0.593365 0.086367
1.127649 0.591006 0.086126
1.138220 0.590980 0.085920
1.146227 0.589299 0.085684
1.160530 0.591307 0.085501
1.167320 0.588721 0.085242
1.181326 0.590295 0.085042
1.191061 0.589250 0.084798
1.204284 0.590106 0.084576
1.215714 0.589807 0.084332
1.227138 0.589389 0.084082
1.232565 0.585534 0.083782
1.247125 0.586637 0.083541
1.260653 0.587026 0.083285
1.271178 0.585667 0.083002
1.287534 0.587288 0.082746
1.300789 0.587113 0.082464
1.318868 0.589295 0.082199
1.326345 0.585865 0.081871
1.336073 0.583506 0.081550
1.357606 0.586947 0.081274
1.367577 0.584455 0.080938
1.386398 0.586183 0.080631
1.400185 0.585293 0.080295
1.420984 0.587602 0.079974
1.432762 0.585461 0.079616
1.453922 0.587566 0.079277
1.467381 0.585933 0.078908
1.489428 0.588064 0.078551
1.503547 0.586444 0.078170
1.519892 0.585687 0.077786
1.536692 0.584990 0.077396
1.556643 0.585508 0.077002
1.574939 0.585158 0.076600
1.592346 0.584295 0.076191
1.606892 0.582129 0.075779
1.641061 0.587864 0.075357
1.660313 0.587320 0.074932
1.679368 0.586580 0.074504
1.695616 0.584637 0.074077
1.709087 0.581557 0.073654
1.715172 0.575638 0.073246
1.721358 0.569814 0.072844
1.738672 0.568176 0.072426
1.763720 0.569325 0.071993
1.774828 0.565343 0.071596
0.231112 0.582882 0.096303
0.235867 0.593675 0.096617
0.239906 0.600113 0.096788
0.242970 0.601209 0.096784
0.245219 0.598093 0.096643
0.247633 0.595686 0.096527
0.251565 0.600224 0.096639
0.255230 0.603187 0.096702
0.258141 0.602519 0.096646
0.261397 0.603228 0.096637
0.264301 0.602283 0.096575
0.267947 0.604349 0.096612
0.271163 0.604468 0.096586
0.272864 0.598433 0.096361
0.276740 0.601076 0.096418
0.279500 0.599255 0.096331
0.283899 0.603609 0.096444
0.285511 0.597445 0.096217
0.289982 0.601825 0.096331
0.292766 0.599997 0.096244
0.296594 0.601843 0.096276
0.302599 0.611057 0.096543
0.306003 0.611149 0.096518
0.308637 0.608660 0.096410
0.308838 0.598312 0.096051
0.311870 0.597351 0.095991
0.315217 0.597390 0.095963
0.318547 0.597360 0.095932
0.321661 0.596654 0.095880
0.324314 0.594575 0.095783
0.329828 0.600984 0.095954
0.333901 0.602994 0.095986
0.337475 0.603504 0.095969
0.341550 0.605390 0.095994
0.342274 0.597909 0.095725
0.345753 0.598166 0.095698
0.348463 0.596326 0.095605
0.351593 0.595639 0.095547
0.353816 0.592578 0.095415
0.359656 0.598927 0.095575
0.364088 0.601497 0.095616
0.366847 0.599777 0.095523
0.368346 0.594963 0.095334
0.372461 0.596653 0.095345
0.377662 0.600901 0.095435
0.381172 0.600988 0.095395
0.383901 0.599218 0.095297
0.386653 0.597520 0.095201
0.389438 0.595922 0.095107
0.392281 0.594468 0.095017
0.395652 0.594209 0.094963
0.399242 0.594414 0.094922
0.405119 0.599572 0.095030
0.410893 0.604359 0.095126
0.414702 0.604822 0.095089
0.417593 0.603315 0.094993
0.421145 0.603190 0.094938
0.427417 0.608624 0.095047
0.429964 0.606341 0.094926
0.430821 0.600690 0.094704
0.433259 0.598271 0.094578
0.436344 0.597145 0.094489
0.439649 0.596440 0.094413
0.442859 0.595535 0.094329
0.445709 0.593936 0.094225
0.450807 0.596554 0.094244
0.465786 0.617397 0.094790
0.464048 0.607097 0.094430
0.464242 0.600490 0.094178
0.466395 0.597505 0.094031
0.469633 0.596473 0.093939
0.472663 0.595062 0.093836
0.475420 0.593168 0.093719
0.480660 0.595548 0.093722
0.485196 0.596641 0.093688
0.487505 0.593928 0.093546
0.489212 0.590229 0.093376
0.491876 0.588147 0.093251
0.500729 0.596163 0.093407
0.506158 0.598449 0.093401
0.509033 0.596569 0.093280
0.511596 0.594192 0.093144
0.519881 0.600781 0.093254
0.528365 0.607504 0.093365
0.531591 0.605987 0.093250
0.532894 0.601537 0.093055
0.537982 0.602824 0.093015
0.545633 0.607860 0.093074
0.550177 0.608174 0.093006
0.552373 0.605014 0.092844
0.550973 0.596679 0.092546
0.555215 0.596535 0.092464
0.559117 0.595869 0.092368
0.564698 0.597528 0.092332
0.568549 0.596708 0.092230
0.573104 0.596830 0.092153
0.578483 0.598027 0.092102
0.580263 0.594305 0.091924
0.584357 0.593699 0.091826
0.589170 0.594013 0.091750
0.592948 0.592921 0.091638
0.597632 0.592980 0.091555
0.604092 0.595276 0.091526
0.606885 0.592816 0.091378
0.611596 0.592776 0.091290
0.627045 0.606095 0.091527
0.628259 0.601515 0.091325
0.628521 0.595810 0.091096
0.629903 0.591525 0.090902
0.626191 0.581154 0.090563
0.626454 0.575664 0.090342
0.634124 0.578966 0.090329
0.650625 0.592473 0.090553
0.655764 0.592535 0.090459
0.659645 0.591109 0.090331
0.665619 0.592037 0.090255
0.671439 0.592727 0.090173
0.677444 0.593564 0.090093
0.683044 0.593889 0.090001
0.687483 0.592891 0.089878
0.690529 0.590353 0.089720
0.697900 0.592456 0.089664
0.703193 0.592262 0.089556
0.708747 0.592297 0.089452
0.713153 0.591084 0.089320
0.720750 0.593142 0.089257
0.727557 0.594303 0.089174
0.736636 0.597698 0.089136
0.732749 0.587943 0.088822
0.736454 0.585879 0.088668
0.747055 0.590609 0.088654
0.753932 0.591557 0.088559
0.759964 0.591618 0.088446
0.756059 0.582088 0.088140
0.779962 0.599123 0.088359
0.786574 0.599501 0.088246
0.789285 0.596177 0.088060
0.789154 0.590231 0.087824
0.793116 0.588089 0.087660
0.798561 0.587278 0.087521
0.808642 0.590596 0.087457
0.819751 0.594712 0.087405
0.821346 0.590296 0.087195
0.828485 0.590753 0.087072
0.834857 0.590479 0.086935
0.839666 0.588810 0.086771
0.849259 0.591180 0.086676
0.851651 0.587380 0.086473
0.837457 0.569748 0.086038
0.852176 0.576288 0.086009
0.872468 0.587210 0.086047
0.877836 0.585757 0.085878
0.885180 0.585856 0.085732
0.895986 0.588645 0.085627
0.904770 0.589722 0.085491
0.910489 0.588317 0.085315
0.921297 0.590809 0.085195
0.930325 0.591821 0.085050
0.942620 0.595226 0.084936
0.948351 0.593557 0.084747
0.953715 0.591574 0.084551
0.959247 0.589681 0.084354
0.967419 0.589678 0.084181
0.968229 0.584272 0.083934
0.956958 0.570235 0.083578
0.963652 0.569143 0.083388
0.982576 0.576593 0.083299
1.004867 0.586163 0.083227
1.018222 0.589305 0.083072
1.029495 0.590882 0.082893
1.038040 0.590499 0.082689
1.047793 0.590846 0.082489
1.060400 0.592986 0.082303
1.069345 0.592593 0.082086
1.079008 0.592580 0.081869
1.088761 0.592531 0.081648
1.097139 0.591513 0.081413
1.109611 0.592995 0.081196
1.117064 0.591218 0.080946
1.128746 0.591983 0.080712
1.141982 0.593578 0.080479
1.147085 0.590120 0.080204
1.155488 0.588598 0.079940
1.166388 0.588474 0.079679
1.179297 0.589415 0.079419
1.193305 0.590857 0.079154
1.200468 0.588230 0.078863
1.213897 0.589089 0.078583
1.224349 0.588138 0.078289
1.233068 0.586123 0.077985
1.244883 0.585721 0.077681
1.261507 0.587803 0.077376
