ply
format ascii 1.0
comment ---
element vertex 1767
property float x
property float y
property float z
element face 0
property list uchar uint vertex_indices
end_header
1.036532 0.592606 0.035861
1.051750 0.595845 0.034550
1.057742 0.593209 0.033796
1.065777 0.591789 0.032913
1.077416 0.592492 0.031803
1.087866 0.592379 0.030763
1.098650 0.592377 0.029699
1.112046 0.593824 0.028468
1.121803 0.593041 0.027467
1.132243 0.592585 0.026425
1.142648 0.592040 0.025388
1.159998 0.595338 0.023905
1.167557 0.593044 0.023063
1.174870 0.590595 0.022248
1.186637 0.590561 0.021151
1.198929 0.590750 0.020032
1.209052 0.589726 0.019069
1.223825 0.591125 0.017813
1.234677 0.590405 0.016835
1.251741 0.592868 0.015461
1.260501 0.591004 0.014664
1.270255 0.589653 0.013824
1.281275 0.588941 0.012924
1.291323 0.587745 0.012117
1.304493 0.588092 0.011126
1.313977 0.586637 0.010414
1.320167 0.583628 0.009956
1.332895 0.583789 0.009085
1.337969 0.580351 0.008766
0.155800 0.631728 0.086245
0.155059 0.604622 0.086358
0.157222 0.603258 0.086183
0.159399 0.601721 0.086022
0.161817 0.601825 0.085852
0.164243 0.601646 0.085697
0.167981 0.610888 0.085427
0.170592 0.611158 0.085287
0.171769 0.601097 0.085300
0.175210 0.606704 0.085109
0.178207 0.608803 0.084975
0.181055 0.609591 0.084870
0.184337 0.612806 0.084740
0.187080 0.612375 0.084671
0.188141 0.601867 0.084758
0.190954 0.601785 0.084703
0.193695 0.601145 0.084662
0.196621 0.601399 0.084616
0.199578 0.601675 0.084575
0.202567 0.601982 0.084539
0.204924 0.598979 0.084559
0.208426 0.601661 0.084496
0.212383 0.606322 0.084408
0.216235 0.610196 0.084334
0.219758 0.612318 0.084289
0.223207 0.613950 0.084254
0.223648 0.602244 0.084423
0.226284 0.600424 0.084443
0.229560 0.601335 0.084421
0.232500 0.600781 0.084423
0.235126 0.598951 0.084443
0.238006 0.598168 0.084446
0.242102 0.602102 0.084377
0.246053 0.605310 0.084317
0.249342 0.605907 0.084295
0.251585 0.602626 0.084331
0.254699 0.602578 0.084315
0.257632 0.601872 0.084307
0.260578 0.601222 0.084295
0.266683 0.611334 0.084115
0.269117 0.608794 0.084127
0.271514 0.606204 0.084137
0.273276 0.601628 0.084175
0.277592 0.605312 0.084081
0.280977 0.605949 0.084031
0.284836 0.608005 0.083955
0.288344 0.608920 0.083894
0.290691 0.606319 0.083885
0.293508 0.605165 0.083850
0.295575 0.601854 0.083846
0.299356 0.603513 0.083759
0.303786 0.606928 0.083639
0.307356 0.607843 0.083556
0.309601 0.605095 0.083530
0.311397 0.601195 0.083520
0.313985 0.599484 0.083471
0.317188 0.599409 0.083391
0.320429 0.599412 0.083306
0.323315 0.598488 0.083233
0.326048 0.597184 0.083164
0.330732 0.600721 0.083006
0.335694 0.604822 0.082835
0.340305 0.607945 0.082675
0.342989 0.606371 0.082596
0.344416 0.601855 0.082568
0.346856 0.599781 0.082493
0.350144 0.599674 0.082379
0.353280 0.599200 0.082268
0.354371 0.594137 0.082242
0.360413 0.600104 0.082002
0.366687 0.606404 0.081750
0.368992 0.603970 0.081663
0.372400 0.603911 0.081528
0.376160 0.604566 0.081374
0.379025 0.603313 0.081256
0.382465 0.603241 0.081112
0.387652 0.606691 0.080890
0.391787 0.607916 0.080711
0.392920 0.603118 0.080656
0.395801 0.601831 0.080525
0.399186 0.601517 0.080371
0.400701 0.597591 0.080293
0.404490 0.598033 0.080117
0.411516 0.604511 0.079801
0.416948 0.607853 0.079550
0.423320 0.612816 0.079256
0.427740 0.614090 0.079043
0.428975 0.609580 0.078965
0.429266 0.603453 0.078925
0.430929 0.599834 0.078825
0.434155 0.598978 0.078656
0.438087 0.599321 0.078454
0.441183 0.598196 0.078287
0.444120 0.596792 0.078125
0.447177 0.595582 0.077955
0.455245 0.602634 0.077566
0.460384 0.604719 0.077301
0.464136 0.604484 0.077096
0.466153 0.601438 0.076964
0.468600 0.599100 0.076812
0.472180 0.598550 0.076609
0.475014 0.596815 0.076437
0.478676 0.596350 0.076227
0.482266 0.595749 0.076018
0.488210 0.598670 0.075702
0.490198 0.595594 0.075561
0.495800 0.597879 0.075257
0.499033 0.596618 0.075057
0.502593 0.595817 0.074841
0.508092 0.597773 0.074535
0.511536 0.596737 0.074321
0.514911 0.595584 0.074108
0.518744 0.595054 0.073872
0.524554 0.597222 0.073544
0.528562 0.596847 0.073296
0.531985 0.595650 0.073074
0.536056 0.595305 0.072820
0.540101 0.594894 0.072566
0.550341 0.602590 0.072021
0.551931 0.598842 0.071876
0.556302 0.598711 0.071600
0.560092 0.597800 0.071349
0.565070 0.598368 0.071040
0.567907 0.596203 0.070831
0.573375 0.597302 0.070494
0.580627 0.600534 0.070070
0.582261 0.596821 0.069912
0.589349 0.599716 0.069491
0.592519 0.597832 0.069255
0.595116 0.595261 0.069045
0.600315 0.595750 0.068707
0.607029 0.597948 0.068292
0.610788 0.596658 0.068019
0.614080 0.594816 0.067766
0.621217 0.597312 0.067322
0.626186 0.597289 0.066981
0.630452 0.596441 0.066673
0.635550 0.596480 0.066320
0.640764 0.596598 0.065958
0.646155 0.596861 0.065584
0.649416 0.594793 0.065314
0.652093 0.592099 0.065071
0.660643 0.595574 0.064528
0.669018 0.598758 0.063989
0.672078 0.596354 0.063716
0.676473 0.595310 0.063372
0.681842 0.595222 0.062975
0.687860 0.595737 0.062540
0.692750 0.595072 0.062159
0.695816 0.592571 0.061870
0.700116 0.591270 0.061512
0.709232 0.594598 0.060898
0.712262 0.591982 0.060599
0.715784 0.589827 0.060270
0.723448 0.591555 0.059717
0.729556 0.591747 0.059241
0.734639 0.590934 0.058815
0.741427 0.591640 0.058293
0.752730 0.596371 0.057520
0.756603 0.594282 0.057143
0.758663 0.590560 0.056860
0.767583 0.592897 0.056197
0.774396 0.593290 0.055643
0.779303 0.591965 0.055188
0.782480 0.589118 0.054824
0.793185 0.592659 0.054033
0.798621 0.591635 0.053530
0.804557 0.590982 0.052993
0.812101 0.591604 0.052357
0.814210 0.587700 0.052024
0.818906 0.585898 0.051538
0.830734 0.589790 0.050634
0.839235 0.590893 0.049913
0.842091 0.587454 0.049512
0.856221 0.592809 0.048444
0.861896 0.591452 0.047862
0.870508 0.592295 0.047099
0.878509 0.592583 0.046363
0.884694 0.591423 0.045727
0.891180 0.590432 0.045064
0.903922 0.593989 0.044015
0.912180 0.594124 0.043226
0.918572 0.592827 0.042543
0.925747 0.592032 0.041803
0.934221 0.592088 0.040974
0.939012 0.589474 0.040366
0.943494 0.586612 0.039770
0.955758 0.589068 0.038677
0.965608 0.589745 0.037726
0.972282 0.588180 0.036968
0.982182 0.588708 0.035995
0.989348 0.587330 0.035190
1.006008 0.592090 0.033761
1.013495 0.590733 0.032919
1.028399 0.594055 0.031583
1.039334 0.594705 0.030499
1.047817 0.593713 0.029571
1.057736 0.593541 0.028542
1.067701 0.593309 0.027506
1.075102 0.591437 0.026640
1.090830 0.594515 0.025206
1.099598 0.593307 0.024243
1.111091 0.593641 0.023093
1.118945 0.591770 0.022195
1.132397 0.593078 0.020913
1.145353 0.593999 0.019668
1.159362 0.595418 0.018353
1.169216 0.594423 0.017336
1.179160 0.593433 0.016323
1.187566 0.591563 0.015431
1.196471 0.589945 0.014517
1.206016 0.588650 0.013574
1.219212 0.589262 0.012387
1.232337 0.589782 0.011223
1.250318 0.592764 0.009728
1.258827 0.590809 0.008938
1.272968 0.591718 0.007766
1.279476 0.588765 0.007172
1.287829 0.586772 0.006473
1.308072 0.590642 0.004940
1.315800 0.588351 0.004344
1.320962 0.584871 0.003966
1.326519 0.581651 0.003591
1.341463 0.582927 0.002568
0.152029 0.596568 0.084058
0.154762 0.600877 0.083776
0.157261 0.602575 0.083545
0.159526 0.601891 0.083365
0.162163 0.603834 0.083151
0.165215 0.608489 0.082900
0.168071 0.611089 0.082694
0.170611 0.610944 0.082549
0.173300 0.611553 0.082401
0.176204 0.613310 0.082242
0.178270 0.609182 0.082204
0.181185 0.610470 0.082075
0.184404 0.613356 0.081926
0.187579 0.615602 0.081798
0.188201 0.602488 0.081973
0.191020 0.602487 0.081907
0.193788 0.602039 0.081857
0.196546 0.601410 0.081817
0.199495 0.601696 0.081767
0.202279 0.600986 0.081742
0.204971 0.599732 0.081733
0.208000 0.600108 0.081697
0.212298 0.606485 0.081546
0.216157 0.610421 0.081446
0.219869 0.613435 0.081367
0.222772 0.612610 0.081367
0.223254 0.601122 0.081580
0.226412 0.601589 0.081557
0.229412 0.601324 0.081549
0.232299 0.600569 0.081552
0.234747 0.598028 0.081589
0.238373 0.600226 0.081532
0.242299 0.603473 0.081453
0.245670 0.604455 0.081417
0.248677 0.604016 0.081409
0.251808 0.604029 0.081389
0.255486 0.605987 0.081329
0.258838 0.606700 0.081291
0.261067 0.603477 0.081329
0.265214 0.606884 0.081232
0.268896 0.608601 0.081165
0.272461 0.609857 0.081105
0.276286 0.611897 0.081025
0.278340 0.608209 0.081059
0.281651 0.608567 0.081007
0.285002 0.609017 0.080950
0.288042 0.608492 0.080909
0.290884 0.607377 0.080878
0.292171 0.601702 0.080938
0.294459 0.599081 0.080932
0.298361 0.601126 0.080824
0.303386 0.606250 0.080646
0.306932 0.607105 0.080555
0.309160 0.604318 0.080538
0.311520 0.601944 0.080510
0.314131 0.600284 0.080462
0.317042 0.599431 0.080394
0.320368 0.599653 0.080299
0.323380 0.599046 0.080219
0.325921 0.597248 0.080162
0.329131 0.597133 0.080063
0.333764 0.600478 0.079883
0.339011 0.605196 0.079667
0.344012 0.609179 0.079462
0.345111 0.603853 0.079469
0.346927 0.600303 0.079433
0.349730 0.599077 0.079339
0.353174 0.599307 0.079208
0.355400 0.596779 0.079140
0.360408 0.600434 0.078919
0.365838 0.604892 0.078674
0.369815 0.606081 0.078504
0.373216 0.605986 0.078362
0.375438 0.603377 0.078281
0.378214 0.601954 0.078167
0.381458 0.601496 0.078026
0.388824 0.609400 0.077664
0.391071 0.606801 0.077571
0.393399 0.604391 0.077471
0.395888 0.602320 0.077360
0.399443 0.602334 0.077190
0.402659 0.601665 0.077036
0.407878 0.604781 0.076775
0.411750 0.605265 0.076582
0.417253 0.608736 0.076302
0.418939 0.605084 0.076220
0.424216 0.608005 0.075947
0.428213 0.608526 0.075739
0.429721 0.604575 0.075660
0.430531 0.599445 0.075615
0.433649 0.598408 0.075447
0.437128 0.597978 0.075259
0.440804 0.597860 0.075058
0.443890 0.596712 0.074887
0.446809 0.595275 0.074722
0.457904 0.607340 0.074127
0.461963 0.607616 0.073898
0.463160 0.603219 0.073818
0.465292 0.600373 0.073688
0.468835 0.599786 0.073481
0.472016 0.598607 0.073292
0.474666 0.596587 0.073130
0.477116 0.594266 0.072976
0.480831 0.593880 0.072754
0.486627 0.596601 0.072420
0.492991 0.600079 0.072053
0.496007 0.598505 0.071863
0.499645 0.597833 0.071638
0.503935 0.598081 0.071376
0.507733 0.597581 0.071139
0.511129 0.596481 0.070922
0.514287 0.595030 0.070716
0.520277 0.597513 0.070357
0.524628 0.597650 0.070083
0.528276 0.596784 0.069845
0.531691 0.595581 0.069619
0.537588 0.597688 0.069256
0.546982 0.604358 0.068702
0.549539 0.601871 0.068516
0.551278 0.598328 0.068373
0.555894 0.598521 0.068072
0.559938 0.597939 0.067800
0.563791 0.597087 0.067536
0.568524 0.597315 0.067223
0.574899 0.599535 0.066817
0.579061 0.598950 0.066530
0.582880 0.597916 0.066261
0.588196 0.598669 0.065906
0.591682 0.597175 0.065650
0.594602 0.594997 0.065424
0.598252 0.593673 0.065155
0.606093 0.597207 0.064650
0.612447 0.598918 0.064225
0.614608 0.595767 0.064032
0.622857 0.599517 0.063495
0.626411 0.597891 0.063219
0.630041 0.596335 0.062936
0.634317 0.595475 0.062614
0.639558 0.595636 0.062234
0.645367 0.596362 0.061819
0.648848 0.594538 0.061534
0.653662 0.594113 0.061169
0.662739 0.598130 0.060557
0.670535 0.600693 0.060013
0.672377 0.597017 0.059809
0.675561 0.594731 0.059525
0.680527 0.594244 0.059134
0.684908 0.593128 0.058773
0.689067 0.591762 0.058422
0.691504 0.588674 0.058168
0.705765 0.597137 0.057216
0.716097 0.601594 0.056489
0.716555 0.596449 0.056338
0.715514 0.589920 0.056275
0.718397 0.587150 0.055975
0.729372 0.591924 0.055189
0.734498 0.591152 0.054745
0.742269 0.592759 0.054138
0.751047 0.595194 0.053464
0.759141 0.596911 0.052825
0.759256 0.591432 0.052664
0.766217 0.592036 0.052083
0.773260 0.592640 0.051490
0.777513 0.590756 0.051062
0.779977 0.587308 0.050740
0.786652 0.587443 0.050152
0.796945 0.590560 0.049331
0.803313 0.590279 0.048748
0.808665 0.589097 0.048221
0.814740 0.588463 0.047643
0.824171 0.590496 0.046845
0.831527 0.590755 0.046170
0.837634 0.589944 0.045567
0.845067 0.590123 0.044872
0.852261 0.590040 0.044183
0.862638 0.592347 0.043281
0.868794 0.591302 0.042643
0.874610 0.589942 0.042020
0.882423 0.590033 0.041258
0.895311 0.593820 0.040153
0.902816 0.593487 0.039392
0.909833 0.592723 0.038655
0.919191 0.593584 0.037753
0.926079 0.592578 0.037008
0.934035 0.592263 0.036182
0.940920 0.591118 0.035421
0.950752 0.591956 0.034450
0.956049 0.589572 0.033781
0.968861 0.592263 0.032586
0.975889 0.590913 0.031782
0.977942 0.586184 0.031318
0.982833 0.583335 0.030652
0.987895 0.580566 0.029969
1.002228 0.583758 0.028625
1.028488 0.594428 0.026420
1.036438 0.593190 0.025508
1.043766 0.591498 0.024638
1.055434 0.592443 0.023450
1.067515 0.593531 0.022226
1.079432 0.594409 0.021011
1.090693 0.594787 0.019840
1.096873 0.592051 0.019043
1.109532 0.593099 0.017770
1.118397 0.591837 0.016779
1.130362 0.592308 0.015561
1.148511 0.596215 0.013883
1.153422 0.592510 0.013205
1.169442 0.595006 0.011699
1.179812 0.594269 0.010629
1.186159 0.591293 0.009879
1.193767 0.589006 0.009048
1.204347 0.588304 0.008007
1.216063 0.588173 0.006897
1.225026 0.586564 0.006019
1.242058 0.589129 0.004541
1.257320 0.590705 0.003221
1.271410 0.591631 0.002017
1.281727 0.590627 0.001131
1.287640 0.587444 0.000614
1.309968 0.592381 -0.001144
1.316025 0.589301 -0.001612
1.312156 0.581503 -0.001280
1.329495 0.583975 -0.002556
1.332937 0.579845 -0.002726
0.153795 0.610976 0.081177
0.154794 0.599947 0.081174
0.156981 0.599169 0.080976
0.160641 0.610048 0.080542
0.163240 0.611547 0.080315
0.165263 0.608222 0.080204
0.168137 0.611068 0.079970
0.170692 0.611146 0.079808
0.173025 0.609372 0.079700
0.175051 0.605334 0.079655
0.178170 0.608462 0.079458
0.180598 0.606742 0.079383
0.183964 0.610729 0.079185
0.187059 0.612645 0.079045
0.188288 0.603253 0.079182
0.191004 0.602709 0.079118
0.193714 0.601998 0.079068
0.196453 0.601321 0.079024
0.199292 0.601073 0.078976
0.202127 0.600693 0.078938
0.204878 0.599789 0.078919
0.207525 0.598315 0.078918
0.211836 0.604834 0.078727
0.215625 0.608514 0.078608
0.219448 0.612113 0.078494
0.223227 0.615282 0.078393
0.223262 0.601780 0.078703
0.226243 0.601489 0.078691
0.229282 0.601406 0.078674
0.232075 0.600272 0.078684
0.234638 0.598215 0.078717
0.238195 0.600145 0.078650
0.241810 0.602197 0.078580
0.245349 0.603850 0.078518
0.248322 0.603302 0.078510
0.252268 0.606320 0.078411
0.255945 0.608235 0.078337
0.259225 0.608659 0.078298
0.261819 0.606665 0.078317
0.264321 0.604409 0.078340
0.268749 0.608670 0.078197
0.272673 0.611108 0.078096
0.276182 0.612104 0.078029
0.278492 0.609229 0.078055
0.280930 0.606829 0.078067
0.284267 0.607263 0.078004
0.286865 0.605422 0.077995
0.289196 0.602823 0.078002
0.294137 0.607971 0.077807
0.295465 0.602466 0.077883
0.299241 0.604101 0.077770
0.303569 0.607223 0.077615
0.306618 0.606686 0.077551
0.309362 0.605312 0.077506
0.311187 0.601479 0.077522
0.313864 0.599997 0.077474
0.317212 0.600292 0.077374
0.320490 0.600377 0.077276
0.323348 0.599366 0.077204
0.325989 0.597814 0.077144
0.329795 0.599169 0.077000
0.333514 0.600252 0.076860
0.340634 0.609500 0.076489
0.343922 0.609343 0.076374
0.346233 0.606867 0.076320
0.346285 0.599174 0.076413
0.349238 0.598307 0.076310
0.352528 0.598198 0.076181
0.356050 0.598585 0.076035
0.360650 0.601317 0.075816
0.366282 0.606212 0.075529
0.370840 0.608639 0.075309
0.373078 0.606034 0.075236
0.374320 0.601359 0.075223
0.376625 0.598981 0.075140
0.380046 0.598921 0.074982
0.382845 0.597569 0.074862
0.386985 0.598916 0.074654
0.389385 0.596739 0.074554
0.391991 0.594984 0.074438
0.395693 0.595370 0.074251
0.399070 0.595089 0.074083
0.402587 0.595049 0.073903
0.406586 0.595883 0.073692
0.410339 0.596208 0.073493
0.413373 0.595172 0.073338
0.421173 0.602790 0.072885
0.426652 0.606036 0.072574
0.430261 0.605852 0.072377
0.431111 0.600780 0.072349
0.433582 0.598603 0.072218
0.436967 0.598013 0.072029
0.440789 0.598146 0.071811
0.443821 0.596909 0.071640
0.446795 0.595565 0.071471
0.458008 0.607829 0.070794
0.461772 0.607622 0.070573
0.463079 0.603404 0.070500
0.464887 0.600039 0.070396
0.467935 0.598675 0.070213
0.471648 0.598343 0.069988
0.474812 0.597130 0.069795
0.478707 0.597028 0.069555
0.481679 0.595487 0.069371
0.488289 0.599425 0.068962
0.493823 0.601642 0.068616
0.496594 0.599693 0.068439
0.500300 0.599112 0.068203
0.504196 0.598781 0.067954
0.507888 0.598126 0.067715
0.511306 0.597056 0.067491
0.515640 0.597258 0.067210
0.519902 0.597318 0.066931
0.525257 0.598845 0.066584
0.528606 0.597564 0.066358
0.530878 0.594808 0.066197
0.536195 0.596151 0.065846
0.546005 0.603396 0.065216
0.549339 0.601943 0.064984
0.551516 0.598972 0.064822
0.556107 0.599131 0.064509
0.559634 0.597888 0.064259
0.563189 0.596662 0.064007
0.568066 0.597078 0.063670
0.573879 0.598607 0.063273
0.579026 0.599248 0.062915
0.583130 0.598563 0.062620
0.587789 0.598519 0.062288
0.591428 0.597214 0.062018
0.594667 0.595416 0.061770
0.599814 0.595850 0.061401
0.605172 0.596480 0.061017
0.613320 0.600272 0.060454
0.616684 0.598485 0.060189
0.621713 0.598571 0.059818
0.625721 0.597466 0.059507
0.630133 0.596786 0.059169
0.634692 0.596235 0.058819
0.640375 0.596876 0.058395
0.644556 0.595836 0.058063
0.649042 0.595095 0.057708
0.657308 0.598332 0.057109
0.665234 0.601106 0.056528
0.670607 0.601121 0.056107
0.672157 0.597141 0.055927
0.675342 0.594857 0.055640
0.679284 0.593333 0.055301
0.682398 0.590956 0.055012
0.682852 0.585925 0.054893
0.688657 0.586212 0.054423
0.705185 0.596921 0.053249
0.715937 0.601792 0.052446
0.716013 0.596277 0.052335
0.715145 0.589913 0.052284
0.720459 0.589435 0.051824
0.729397 0.592292 0.051119
0.733335 0.590419 0.050740
0.737290 0.588539 0.050355
0.746197 0.591134 0.049635
0.754783 0.593335 0.048931
0.760356 0.592751 0.048422
0.764976 0.591278 0.047971
0.774507 0.594068 0.047184
0.779262 0.592606 0.046713
0.786506 0.593246 0.046067
0.790719 0.591233 0.045621
0.796373 0.590408 0.045071
0.802741 0.590129 0.044465
0.810354 0.590820 0.043768
0.816967 0.590612 0.043131
0.823218 0.590046 0.042513
0.827926 0.588180 0.041995
0.839810 0.591996 0.040970
0.846219 0.591349 0.040318
0.850714 0.589146 0.039793
0.859795 0.590461 0.038938
0.868117 0.591094 0.038127
0.874553 0.590208 0.037442
0.884542 0.591932 0.036496
0.897019 0.595399 0.035360
0.902845 0.593814 0.034693
0.911225 0.594043 0.033833
0.918751 0.593568 0.033027
0.924891 0.592027 0.032313
0.935514 0.593610 0.031263
0.942204 0.592316 0.030493
0.955851 0.595796 0.029200
0.981285 0.607227 0.027019
0.989166 0.606386 0.026129
0.983833 0.596565 0.026223
0.981753 0.589022 0.026074
0.982116 0.583157 0.025740
0.990961 0.582865 0.024759
1.009368 0.588677 0.023041
1.027340 0.594001 0.021344
1.036969 0.593839 0.020279
1.045240 0.592739 0.019315
1.052282 0.590810 0.018443
1.068592 0.594523 0.016845
1.079663 0.594889 0.015653
1.089455 0.594392 0.014559
1.095991 0.591885 0.013724
1.110772 0.594200 0.012237
1.120924 0.593693 0.011120
1.132190 0.593761 0.009919
1.142313 0.593103 0.008815
1.147477 0.589593 0.008119
1.164899 0.592929 0.006445
1.175143 0.592171 0.005361
1.184499 0.590887 0.004362
1.190357 0.587687 0.003665
1.207908 0.590757 0.002032
1.215585 0.588497 0.001224
1.226359 0.587867 0.000183
1.239731 0.588564 -0.001047
1.257883 0.591668 -0.002646
1.264180 0.588674 -0.003245
1.279505 0.590255 -0.004559
1.293832 0.591296 -0.005762
1.302559 0.589555 -0.006473
1.307580 0.586040 -0.006849
1.323084 0.587651 -0.008054
1.330985 0.585606 -0.008601
1.350297 0.589007 -0.010051
0.154740 0.617947 0.078362
0.155178 0.602000 0.078514
0.157740 0.604424 0.078225
0.161136 0.613098 0.077786
0.163462 0.612484 0.077594
0.165275 0.607646 0.077525
0.167907 0.608830 0.077311
0.170304 0.607946 0.077163
0.172420 0.604857 0.077087
0.174900 0.604122 0.076960
0.177907 0.606642 0.076754
0.180708 0.607452 0.076606
0.183346 0.606976 0.076504
0.187977 0.618379 0.076078
0.188294 0.603533 0.076401
0.190924 0.602554 0.076342
0.193588 0.601649 0.076291
0.196317 0.600988 0.076240
0.199191 0.600992 0.076178
0.202009 0.600574 0.076134
0.204724 0.599536 0.076114
0.207458 0.598535 0.076099
0.211816 0.605321 0.075862
0.215681 0.609382 0.075708
0.219366 0.612357 0.075589
0.222784 0.613927 0.075513
0.223270 0.602447 0.075820
0.226155 0.601746 0.075815
0.229014 0.600915 0.075815
0.231681 0.599285 0.075839
0.234566 0.598560 0.075836
0.238277 0.601110 0.075737
0.241709 0.602438 0.075674
0.244872 0.602665 0.075641
0.248806 0.605737 0.075523
0.251837 0.605357 0.075506
0.255554 0.607440 0.075413
0.258505 0.606716 0.075402
0.260631 0.603132 0.075473
0.263436 0.601971 0.075470
0.266854 0.602888 0.075402
0.271000 0.606161 0.075260
0.274382 0.606827 0.075193
0.276659 0.603930 0.075231
0.279045 0.601451 0.075252
0.281930 0.600575 0.075222
0.284825 0.599738 0.075188
0.288434 0.601047 0.075085
0.291919 0.601935 0.074990
0.297502 0.608865 0.074707
0.300584 0.608418 0.074645
0.302630 0.605050 0.074670
0.308365 0.611998 0.074371
0.309338 0.605700 0.074481
0.310745 0.600731 0.074547
0.313442 0.599309 0.074499
0.316491 0.598831 0.074417
0.320476 0.600760 0.074255
0.323425 0.599975 0.074176
0.326052 0.598377 0.074119
0.330435 0.601158 0.073917
0.336441 0.607816 0.073584
0.341965 0.613112 0.073289
0.344136 0.610242 0.073258
0.343059 0.599771 0.073476
0.345823 0.598473 0.073389
0.349593 0.599489 0.073221
0.352757 0.599082 0.073097
0.355737 0.598243 0.072984
0.362075 0.604828 0.072613
0.366389 0.606799 0.072395
0.370462 0.608177 0.072193
0.373089 0.606405 0.072097
0.372647 0.598175 0.072227
0.376378 0.598805 0.072043
0.379499 0.598132 0.071901
0.383598 0.599435 0.071684
0.386969 0.599213 0.071520
0.389687 0.597667 0.071400
0.393983 0.599227 0.071163
0.396333 0.596937 0.071066
0.399320 0.595892 0.070919
0.403471 0.597049 0.070687
0.407059 0.597091 0.070493
0.410083 0.596050 0.070337
0.413422 0.595579 0.070157
0.418521 0.598285 0.069849
0.424778 0.602985 0.069458
0.429105 0.604115 0.069202
0.431707 0.602147 0.069067
0.433892 0.599460 0.068960
0.437306 0.598913 0.068763
0.440676 0.598268 0.068568
0.443665 0.596959 0.068397
0.446555 0.595477 0.068232
0.454408 0.602197 0.067716
0.460430 0.605746 0.067328
0.462885 0.603408 0.067189
0.464939 0.600441 0.067075
0.468202 0.599415 0.066875
0.471554 0.598513 0.066668
0.474966 0.597686 0.066454
0.479059 0.597889 0.066191
0.483849 0.599112 0.065878
0.489788 0.602007 0.065484
0.494012 0.602245 0.065207
0.496551 0.599951 0.065047
0.499631 0.598455 0.064847
0.503653 0.598316 0.064579
0.507717 0.598204 0.064307
0.511928 0.598264 0.064024
0.516293 0.598503 0.063728
0.520437 0.598389 0.063446
0.525248 0.599160 0.063116
0.528243 0.597394 0.062910
0.530987 0.595284 0.062720
0.539585 0.601028 0.062122
0.545202 0.602662 0.061730
0.549236 0.602142 0.061445
0.552952 0.601177 0.061181
0.555759 0.599017 0.060978
0.559328 0.597831 0.060720
0.563324 0.597169 0.060431
0.567319 0.596478 0.060140
0.572878 0.597701 0.059739
0.578085 0.598429 0.059359
0.583664 0.599555 0.058952
0.588073 0.599204 0.058624
0.591978 0.598214 0.058329
0.596403 0.597817 0.057996
0.603178 0.600147 0.057496
0.607959 0.600069 0.057134
0.613321 0.600619 0.056728
0.616499 0.598619 0.056472
0.620453 0.597490 0.056160
0.624743 0.596715 0.055822
0.629550 0.596484 0.055445
0.635456 0.597424 0.054988
0.639821 0.596618 0.054636
0.644183 0.595779 0.054282
0.649027 0.595424 0.053891
0.655228 0.596472 0.053401
0.663647 0.599787 0.052750
0.669873 0.600706 0.052252
0.672186 0.597519 0.052026
0.675051 0.594906 0.051759
0.678864 0.593253 0.051422
0.681566 0.590463 0.051160
0.688242 0.591632 0.050611
0.680278 0.578284 0.051105
0.704922 0.597010 0.049262
0.703260 0.589858 0.049298
0.708562 0.589469 0.048831
0.716041 0.591105 0.048203
0.722875 0.592050 0.047616
0.732798 0.595807 0.046800
0.737247 0.594376 0.046375
0.742585 0.593729 0.045881
0.746315 0.591577 0.045500
0.749508 0.588923 0.045152
0.760197 0.592943 0.044252
0.769622 0.595715 0.043437
0.777235 0.596788 0.042748
0.782956 0.596140 0.042193
0.785050 0.592324 0.041900
0.789489 0.590511 0.041428
0.796637 0.590954 0.040749
0.803384 0.590988 0.040093
0.809661 0.590567 0.039465
0.816490 0.590539 0.038790
0.822648 0.589898 0.038157
0.825654 0.586665 0.037756
0.838657 0.591390 0.036592
0.845466 0.591065 0.035888
0.850388 0.589198 0.035321
0.859644 0.590650 0.034415
0.865725 0.589563 0.033744
0.874933 0.590798 0.032824
0.883681 0.591586 0.031931
0.889306 0.589953 0.031272
0.900283 0.592221 0.030188
0.911707 0.594691 0.029060
0.918406 0.593613 0.028291
0.924147 0.591786 0.027590
0.936331 0.594481 0.026373
0.946325 0.595500 0.025319
0.960071 0.599021 0.023956
0.977690 0.605049 0.022272
0.989958 0.607222 0.021005
0.983324 0.596513 0.021251
0.982991 0.590138 0.020989
0.994692 0.591754 0.019749
1.003112 0.591102 0.018767
1.011832 0.590568 0.017756
1.023478 0.591830 0.016499
1.037030 0.594184 0.015078
1.043822 0.592161 0.014210
1.052996 0.591570 0.013143
1.068190 0.594603 0.011571
1.075944 0.592964 0.010619
1.085851 0.592569 0.009486
1.099297 0.594207 0.008056
1.108817 0.593419 0.006960
1.120106 0.593600 0.005717
1.132579 0.594385 0.004379
1.140435 0.592449 0.003441
1.151616 0.592362 0.002229
1.165317 0.593620 0.000811
1.174847 0.592487 -0.000236
1.180838 0.589389 -0.000963
1.194630 0.590524 -0.002346
1.209003 0.591899 -0.003763
1.220444 0.591653 -0.004905
1.228579 0.589644 -0.005738
1.238047 0.588338 -0.006663
1.257903 0.592362 -0.008466
1.265710 0.590165 -0.009193
1.264283 0.583356 -0.009087
1.283901 0.587145 -0.010785
1.299737 0.588990 -0.012122
1.307815 0.587012 -0.012752
1.319039 0.586596 -0.013622
1.328189 0.585202 -0.014278
1.358806 0.594015 -0.016762
0.154061 0.610394 0.075912
0.155597 0.604305 0.075835
0.157341 0.599938 0.075723
0.160674 0.608349 0.075244
0.162722 0.605817 0.075102
0.164946 0.604433 0.074938
0.167131 0.602517 0.074803
0.169361 0.600724 0.074677
0.171828 0.600395 0.074518
0.174791 0.603171 0.074272
0.177975 0.606979 0.074003
0.180310 0.604887 0.073933
0.183178 0.605997 0.073771
0.187278 0.614299 0.073384
0.188313 0.603869 0.073619
0.190824 0.602272 0.073575
0.193537 0.601718 0.073506
0.196395 0.601817 0.073424
0.199150 0.601221 0.073372
0.202020 0.601117 0.073311
0.204726 0.600067 0.073288
0.207534 0.599465 0.073256
0.212111 0.607331 0.072943
0.215850 0.610792 0.072783
0.219734 0.614686 0.072611
0.222723 0.614296 0.072587
0.223317 0.603300 0.072925
0.226090 0.602116 0.072933
0.228837 0.600824 0.072946
0.231574 0.599495 0.072962
0.234372 0.598426 0.072969
0.238856 0.604062 0.072747
0.242197 0.604991 0.072685
0.245522 0.605790 0.072626
0.248727 0.606085 0.072584
0.251672 0.605388 0.072574
0.253738 0.601520 0.072672
0.256338 0.599662 0.072698
0.259553 0.599990 0.072647
0.262627 0.599803 0.072612
0.265932 0.600379 0.072547
0.269190 0.600766 0.072485
0.272261 0.600512 0.072443
0.275309 0.600177 0.072401
0.278649 0.600754 0.072323
0.281551 0.599940 0.072291
0.284637 0.599692 0.072235
0.287606 0.599087 0.072189
0.290668 0.598755 0.072129
0.295515 0.603598 0.071882
0.301036 0.610206 0.071566
0.305596 0.613892 0.071349
0.306625 0.607645 0.071486
0.310105 0.608266 0.071372
0.310197 0.599705 0.071587
0.313148 0.598973 0.071516
0.316551 0.599425 0.071398
0.320232 0.600561 0.071250
0.323248 0.599947 0.071163
0.326191 0.599144 0.071079
0.329299 0.598747 0.070977
0.332787 0.599269 0.070836
0.340918 0.610985 0.070268
0.344089 0.610530 0.070154
0.343433 0.601040 0.070382
0.346787 0.601097 0.070243
0.349423 0.599475 0.070165
0.352388 0.598616 0.070055
0.355418 0.597894 0.069936
0.360752 0.602265 0.069613
0.365884 0.606060 0.069307
0.369155 0.605713 0.069160
0.373139 0.606867 0.068950
0.373335 0.599974 0.069061
0.376801 0.600032 0.068889
0.380323 0.600171 0.068710
0.383439 0.599452 0.068563
0.386709 0.599029 0.068401
0.390479 0.599578 0.068195
0.394320 0.600224 0.067980
0.398082 0.600671 0.067771
0.400103 0.597725 0.067703
0.404156 0.598678 0.067465
0.407364 0.597989 0.067294
0.410452 0.597061 0.067132
0.413484 0.596015 0.066971
0.418778 0.599075 0.066625
0.425074 0.603842 0.066197
0.429578 0.605281 0.065913
0.431582 0.602248 0.065828
0.434194 0.600305 0.065693
0.436914 0.598556 0.065546
0.440294 0.597934 0.065344
0.443382 0.596798 0.065164
0.446490 0.595684 0.064981
0.455402 0.604161 0.064336
0.461589 0.607965 0.063906
0.464747 0.606747 0.063714
0.465732 0.602032 0.063692
0.468338 0.599950 0.063540
0.471538 0.598807 0.063339
0.474808 0.597759 0.063132
0.478407 0.597203 0.062896
0.483932 0.599559 0.062509
0.488241 0.599994 0.062216
0.494338 0.603057 0.061781
0.495331 0.598468 0.061743
0.499004 0.597859 0.061494
0.503004 0.597700 0.061219
0.507186 0.597766 0.060927
0.511519 0.598007 0.060623
0.516765 0.599493 0.060246
0.520077 0.598214 0.060018
0.524955 0.599085 0.059667
0.528662 0.598297 0.059404
0.529761 0.593951 0.059342
0.540893 0.603116 0.058503
0.544442 0.601986 0.058249
0.548119 0.601006 0.057982
0.552047 0.600332 0.057695
0.555459 0.598964 0.057445
0.559074 0.597842 0.057178
0.563016 0.597113 0.056884
0.566282 0.595510 0.056640
0.572387 0.597427 0.056176
0.575864 0.596030 0.055912
0.583249 0.599388 0.055346
0.587563 0.598927 0.055014
0.591531 0.598019 0.054706
0.596144 0.597850 0.054346
0.604309 0.601819 0.053712
0.610101 0.602908 0.053257
0.612731 0.600282 0.053043
0.615917 0.598297 0.052784
0.620427 0.597804 0.052421
0.624003 0.596227 0.052128
0.627976 0.595076 0.051801
0.634871 0.597123 0.051246
0.639009 0.596075 0.050901
0.645106 0.597122 0.050402
0.648020 0.594688 0.050146
0.656162 0.597808 0.049483
0.658257 0.594458 0.049284
0.668051 0.599152 0.048486
0.667875 0.593408 0.048457
0.674612 0.594798 0.047889
0.678278 0.592999 0.047556
0.683134 0.592379 0.047127
0.689749 0.593474 0.046556
0.687647 0.585891 0.046662
0.698176 0.590752 0.045779
0.702230 0.589196 0.045397
0.707647 0.588926 0.044905
0.717595 0.592921 0.044052
0.727100 0.596370 0.043229
0.735956 0.599095 0.042452
0.739199 0.596518 0.042111
0.742266 0.593770 0.041779
0.747062 0.592586 0.041307
0.746196 0.586268 0.041278
0.746228 0.580809 0.041175
0.770844 0.597123 0.039112
0.778817 0.598501 0.038364
0.779407 0.593385 0.038200
0.783583 0.591385 0.037744
0.787528 0.589161 0.037302
0.798255 0.592637 0.036308
0.799674 0.588202 0.036057
0.804289 0.586431 0.035543
0.818396 0.592413 0.034254
0.820372 0.588357 0.033940
0.828835 0.589531 0.033093
0.830697 0.585348 0.032777
0.843705 0.589977 0.031543
0.855658 0.593620 0.030385
0.859273 0.590660 0.029904
0.861708 0.586777 0.029515
0.867732 0.585619 0.028823
0.877224 0.587018 0.027835
0.887617 0.588984 0.026763
0.899689 0.592071 0.025541
0.911862 0.595093 0.024300
0.918491 0.593961 0.023515
0.923287 0.591454 0.022878
0.934396 0.593392 0.021699
0.944501 0.594502 0.020596
0.953945 0.595045 0.019540
0.960353 0.593399 0.018736
0.967589 0.592264 0.017854
0.976203 0.591993 0.016847
0.983999 0.591094 0.015904
0.995697 0.592703 0.014616
1.002789 0.591178 0.013722
1.016058 0.593594 0.012283
1.024828 0.592989 0.011232
1.036171 0.593941 0.009951
1.044669 0.592999 0.008916
1.054608 0.592884 0.007751
1.068108 0.594874 0.006269
1.073937 0.592074 0.005468
1.080324 0.589585 0.004620
1.102635 0.596549 0.002347
1.109848 0.594394 0.001431
1.118924 0.593293 0.000353
1.130557 0.593619 -0.000949
1.141664 0.593567 -0.002196
1.155181 0.594812 -0.003652
1.166247 0.594599 -0.004873
1.173085 0.591996 -0.005695
1.180091 0.589486 -0.006515
1.207812 0.598190 -0.009215
1.212218 0.594184 -0.009760
1.221737 0.592931 -0.010751
1.227368 0.589632 -0.011362
1.230472 0.585061 -0.011714
1.256693 0.592434 -0.014167
1.260270 0.588125 -0.014508
1.271980 0.587984 -0.015569
1.273073 0.582546 -0.015622
1.294742 0.587361 -0.017536
1.309181 0.588551 -0.018751
1.315585 0.585834 -0.019195
1.326072 0.585133 -0.019981
1.338166 0.585218 -0.020879
0.153227 0.601441 0.073580
0.155364 0.600933 0.073334
0.157137 0.597052 0.073213
0.159545 0.598177 0.072936
0.161804 0.597721 0.072724
0.164573 0.600842 0.072399
0.166794 0.599414 0.072244
0.169076 0.598201 0.072094
0.171346 0.596675 0.071968
0.174718 0.602425 0.071591
0.177431 0.603253 0.071401
0.179958 0.602589 0.071278
0.182845 0.603974 0.071090
0.185982 0.606575 0.070866
0.188074 0.602664 0.070895
0.190809 0.602461 0.070796
0.193645 0.602657 0.070691
0.196424 0.602371 0.070613
0.199334 0.602643 0.070521
0.202011 0.601557 0.070489
0.204648 0.600193 0.070474
0.207467 0.599687 0.070432
0.211851 0.606662 0.070109
0.216173 0.612932 0.069817
0.220049 0.616777 0.069621
0.223182 0.617023 0.069567
0.223256 0.603680 0.070040
0.225887 0.601900 0.070070
0.228784 0.601263 0.070057
0.231754 0.600903 0.070035
0.234368 0.599077 0.070071
0.239406 0.606918 0.069731
0.243484 0.610673 0.069548
0.246137 0.608805 0.069585
0.249469 0.609525 0.069519
0.251556 0.605611 0.069633
0.253801 0.602386 0.069719
0.256525 0.600952 0.069733
0.259488 0.600382 0.069711
0.262005 0.598285 0.069747
0.265802 0.600546 0.069608
0.269187 0.601349 0.069523
0.272193 0.600875 0.069487
0.275199 0.600396 0.069447
0.278468 0.600746 0.069371
0.281619 0.600700 0.069307
0.284545 0.599951 0.069268
0.287478 0.599230 0.069225
0.290665 0.599264 0.069148
0.294637 0.601559 0.068975
0.299032 0.604978 0.068752
0.302639 0.606055 0.068620
0.306839 0.608728 0.068418
0.309757 0.607791 0.068360
0.309966 0.599548 0.068600
0.313405 0.600113 0.068473
0.316698 0.600260 0.068360
0.319863 0.600048 0.068258
0.323071 0.599930 0.068148
0.326106 0.599355 0.068053
0.329530 0.599741 0.067914
0.334578 0.604076 0.067603
0.339555 0.608101 0.067300
0.342464 0.607057 0.067208
0.344214 0.603279 0.067232
0.346452 0.600707 0.067200
0.349185 0.599314 0.067115
0.351795 0.597649 0.067038
0.354993 0.597315 0.066900
0.360688 0.602496 0.066513
0.364265 0.602886 0.066333
0.369844 0.607570 0.065957
0.373633 0.608286 0.065753
0.374109 0.601963 0.065866
0.375832 0.598362 0.065855
0.379953 0.599758 0.065611
0.383323 0.599562 0.065437
0.386601 0.599153 0.065269
0.390314 0.599589 0.065058
0.394218 0.600362 0.064827
0.398020 0.600886 0.064604
0.401332 0.600424 0.064425
0.404282 0.599251 0.064276
0.407163 0.597941 0.064132
0.410467 0.597417 0.063946
0.413828 0.596973 0.063754
0.418757 0.599365 0.063417
0.425975 0.605793 0.062872
0.429969 0.606306 0.062619
0.430685 0.600991 0.062657
0.433146 0.598800 0.062536
0.436337 0.597881 0.062348
0.439984 0.597725 0.062117
0.443093 0.596630 0.061933
0.445985 0.595159 0.061765
0.455650 0.604895 0.060999
0.461032 0.607378 0.060610
0.465066 0.607589 0.060339
0.468328 0.606521 0.060133
0.467985 0.599710 0.060241
0.471288 0.598734 0.060028
0.474426 0.597485 0.059828
0.477537 0.596183 0.059628
0.482430 0.597589 0.059272
0.488608 0.600872 0.058804
0.494300 0.603325 0.058377
0.495073 0.598410 0.058373
0.498789 0.597868 0.058113
0.502935 0.597922 0.057815
0.507209 0.598124 0.057505
0.511642 0.598509 0.057179
0.515178 0.597583 0.056929
0.520288 0.598835 0.056543
0.524682 0.599035 0.056217
0.529068 0.599181 0.055889
0.531815 0.597063 0.055700
0.537013 0.598238 0.055301
0.541974 0.599035 0.054920
0.546477 0.599175 0.054577
0.550326 0.598419 0.054287
0.554194 0.597661 0.053995
0.558477 0.597410 0.053665
0.563035 0.597472 0.053310
0.566426 0.596024 0.053052
0.569291 0.593909 0.052837
0.577641 0.598557 0.052157
0.586513 0.603713 0.051432
0.585190 0.596394 0.051563
0.589353 0.595746 0.051231
0.594352 0.596060 0.050825
0.602801 0.600387 0.050128
0.607174 0.599838 0.049771
0.611176 0.598827 0.049444
0.614834 0.597398 0.049142
0.618982 0.596506 0.048798
0.623753 0.596287 0.048398
0.628594 0.596104 0.047990
0.634007 0.596511 0.047531
0.638590 0.595958 0.047139
0.643545 0.595773 0.046713
0.653479 0.600886 0.045866
0.657583 0.599661 0.045506
0.655580 0.591978 0.045657
0.659872 0.590957 0.045275
0.668130 0.594010 0.044555
0.673124 0.593613 0.044108
0.678209 0.593266 0.043649
0.681936 0.591511 0.043301
0.687466 0.591535 0.042797
0.692356 0.590875 0.042344
0.696804 0.589743 0.041924
0.703345 0.590610 0.041323
0.707607 0.589219 0.040910
0.713840 0.589677 0.040327
0.722359 0.592229 0.039545
0.731509 0.595271 0.038704
0.737766 0.595521 0.038103
0.742414 0.594233 0.037635
0.744529 0.590608 0.037378
0.744878 0.585402 0.037268
0.749136 0.583721 0.036820
0.757892 0.585992 0.035980
0.770060 0.591150 0.034842
0.764579 0.580830 0.035214
0.778633 0.587442 0.033900
0.786449 0.588553 0.033117
0.796994 0.591883 0.032090
0.801526 0.590059 0.031577
0.810418 0.591814 0.030680
0.815397 0.590257 0.030115
0.824705 0.592181 0.029167
0.828325 0.589419 0.028708
0.833589 0.587950 0.028098
0.848435 0.594009 0.026641
0.859616 0.597012 0.025496
0.862876 0.593744 0.025040
0.858626 0.584697 0.025243
0.862050 0.581583 0.024763
0.875910 0.586311 0.023349
0.889170 0.590423 0.021977
0.896686 0.590134 0.021108
0.909720 0.593807 0.019737
0.917280 0.593362 0.018847
0.925296 0.593170 0.017909
0.933908 0.593322 0.016908
0.940816 0.592188 0.016055
0.950543 0.592953 0.014938
0.957481 0.591695 0.014067
0.965786 0.591309 0.013065
0.974877 0.591373 0.011984
0.984443 0.591666 0.010852
0.992287 0.590726 0.009873
1.008266 0.595043 0.008136
1.013999 0.592546 0.007342
1.026437 0.594310 0.005921
1.035353 0.593716 0.004823
1.045239 0.593657 0.003633
1.054418 0.593074 0.002506
1.064321 0.592864 0.001312
1.073031 0.591849 0.000230
1.083653 0.591926 -0.001030
1.099240 0.594880 -0.002760
1.108318 0.593858 -0.003867
1.117172 0.592654 -0.004946
1.129123 0.593191 -0.006314
1.143882 0.595253 -0.007942
1.149593 0.592096 -0.008690
1.156250 0.589474 -0.009515
1.171851 0.591799 -0.011186
1.178164 0.588942 -0.011944
1.186527 0.587208 -0.012881
1.197133 0.586671 -0.014014
1.220752 0.593011 -0.016385
1.226031 0.589562 -0.016956
1.230475 0.585722 -0.017419
1.238497 0.583780 -0.018202
1.266923 0.592246 -0.020935
1.268843 0.587174 -0.021067
1.281008 0.587305 -0.022161
1.289304 0.585520 -0.022849
1.309859 0.589768 -0.024688
1.315382 0.586655 -0.025040
1.330649 0.588287 -0.026297
1.345863 0.589874 -0.027513
0.152941 0.597334 0.071151
0.155250 0.598539 0.070832
0.157719 0.600654 0.070488
0.159836 0.599437 0.070282
0.162449 0.601835 0.069948
0.164373 0.598533 0.069847
0.166705 0.598107 0.069647
0.168864 0.596158 0.069519
0.171719 0.598876 0.069217
0.174443 0.600279 0.068979
0.177209 0.601612 0.068753
0.179910 0.602206 0.068569
0.183148 0.605877 0.068269
0.188271 0.620554 0.067520
0.187991 0.602359 0.068149
0.190776 0.602529 0.068024
0.193577 0.602598 0.067913
0.196485 0.603081 0.067794
0.199229 0.602518 0.067726
0.202014 0.602050 0.067663
0.204505 0.599985 0.067675
0.207248 0.599152 0.067641
0.211873 0.607356 0.067224
0.216043 0.612934 0.066924
0.219486 0.614819 0.066787
0.222549 0.614823 0.066734
0.223509 0.605458 0.067091
0.225567 0.601184 0.067230
0.228539 0.600900 0.067199
0.231409 0.600153 0.067189
0.234222 0.599157 0.067191
0.237453 0.599831 0.067121
0.242956 0.609302 0.066665
0.247094 0.613149 0.066455
0.249105 0.608838 0.066601
0.251778 0.607095 0.066633
0.253737 0.602811 0.066775
0.256529 0.601613 0.066781
0.259403 0.600723 0.066771
0.262616 0.601002 0.066707
0.266064 0.602045 0.066606
0.269089 0.601632 0.066567
0.272263 0.601700 0.066504
0.275374 0.601543 0.066447
0.278520 0.601484 0.066383
0.281543 0.601030 0.066334
0.284566 0.600572 0.066281
0.287446 0.599680 0.066244
0.290353 0.598875 0.066199
0.294075 0.600451 0.066044
0.298814 0.604874 0.065754
0.300802 0.601380 0.065821
0.304897 0.603828 0.065612
0.309131 0.606569 0.065385
0.309942 0.599962 0.065585
0.313534 0.600928 0.065432
0.316666 0.600637 0.065334
0.319876 0.600534 0.065222
0.322943 0.600048 0.065125
0.326050 0.599652 0.065019
0.330080 0.601540 0.064802
0.334815 0.605086 0.064501
0.338861 0.606843 0.064280
0.342127 0.606667 0.064147
0.343822 0.602761 0.064190
0.346297 0.600748 0.064138
0.349177 0.599690 0.064038
0.351824 0.598101 0.063960
0.354579 0.596769 0.063866
0.359284 0.599765 0.063555
0.364359 0.603469 0.063203
0.370104 0.608506 0.062779
0.373826 0.609070 0.062573
0.371937 0.597739 0.062965
0.376477 0.600067 0.062664
0.379439 0.599054 0.062529
0.383016 0.599287 0.062327
0.386668 0.599638 0.062115
0.390258 0.599825 0.061908
0.394617 0.601492 0.061619
0.397524 0.600262 0.061479
0.401207 0.600523 0.061256
0.404013 0.599076 0.061121
0.406784 0.597562 0.060987
0.409652 0.596230 0.060840
0.413082 0.595931 0.060635
0.419826 0.601643 0.060095
0.425113 0.604573 0.059702
0.429115 0.605114 0.059436
0.430218 0.600495 0.059456
0.432760 0.598453 0.059330
0.435679 0.597070 0.059165
0.439856 0.597832 0.058874
0.443227 0.597179 0.058661
0.446120 0.595706 0.058492
0.453875 0.602281 0.057850
0.457714 0.602267 0.057587
0.461073 0.601438 0.057370
0.465542 0.602374 0.057043
0.467232 0.598836 0.056983
0.470460 0.597755 0.056772
0.474464 0.597867 0.056486
0.477755 0.596841 0.056266
0.482572 0.598128 0.055900
0.489718 0.602874 0.055312
0.493529 0.602498 0.055039
0.494582 0.598006 0.055025
0.498383 0.597596 0.054750
0.502900 0.598197 0.054406
0.507753 0.599231 0.054029
0.510884 0.597756 0.053812
0.514737 0.597287 0.053526
0.519378 0.597893 0.053165
0.524377 0.598941 0.052770
0.528901 0.599281 0.052417
0.532041 0.597698 0.052192
0.533775 0.594216 0.052095
0.539102 0.595544 0.051663
0.544920 0.597454 0.051185
0.550150 0.598521 0.050760
0.553875 0.597581 0.050472
0.558305 0.597522 0.050117
0.563105 0.597894 0.049727
0.566520 0.596476 0.049463
0.571007 0.596379 0.049098
0.578410 0.599840 0.048464
0.586557 0.604106 0.047761
0.585020 0.596524 0.047941
0.590385 0.597319 0.047489
0.595855 0.598183 0.047025
0.597133 0.594052 0.046941
0.604454 0.597004 0.046304
0.607360 0.594756 0.046067
0.613634 0.596361 0.045522
0.617377 0.595023 0.045204
0.624499 0.597463 0.044576
0.628799 0.596670 0.044203
0.633008 0.595747 0.043835
0.638217 0.595889 0.043374
0.645185 0.597887 0.042750
0.653396 0.601136 0.042011
0.649610 0.591519 0.042359
0.650702 0.587171 0.042260
0.661382 0.592869 0.041287
0.667759 0.593961 0.040702
0.673625 0.594461 0.040160
0.676990 0.592362 0.039842
0.680823 0.590723 0.039478
0.689515 0.593910 0.038668
0.694398 0.593224 0.038201
0.699102 0.592322 0.037746
0.703657 0.591241 0.037301
0.708667 0.590565 0.036811
0.714012 0.590166 0.036285
0.721107 0.591374 0.035596
0.733102 0.597087 0.034454
0.735757 0.593984 0.034160
0.729885 0.583051 0.034643
0.733951 0.581304 0.034212
0.743747 0.584697 0.033251
0.748985 0.583898 0.032703
0.750778 0.580008 0.032466
0.748983 0.572983 0.032555
0.757581 0.575057 0.031682
0.777569 0.586832 0.029751
0.785118 0.587723 0.028961
0.794506 0.590087 0.027994
0.801098 0.590002 0.027279
0.809332 0.591214 0.026405
0.819372 0.593818 0.025356
0.824506 0.592315 0.024757
0.830981 0.591851 0.024025
0.837890 0.591671 0.023246
0.849629 0.595243 0.022007
0.860466 0.597966 0.020844
0.863275 0.594338 0.020428
0.864561 0.589534 0.020149
0.869153 0.587260 0.019553
0.882878 0.591835 0.018085
0.888232 0.589997 0.017402
0.901373 0.593870 0.015970
0.907772 0.592654 0.015172
0.915185 0.592115 0.014270
0.926050 0.593979 0.013029
0.933387 0.593219 0.012119
0.942458 0.593609 0.011034
0.948992 0.592140 0.010187
0.955253 0.590426 0.009360
0.967914 0.593027 0.007906
0.974712 0.591529 0.007015
0.983108 0.591043 0.005962
0.990199 0.589616 0.005032
0.997794 0.588461 0.004049
1.010061 0.590272 0.002602
1.026103 0.594381 0.000777
1.035439 0.594062 -0.000390
1.045933 0.594391 -0.001674
1.055900 0.594301 -0.002907
1.062710 0.592187 -0.003826
1.072617 0.591921 -0.005051
1.086626 0.594053 -0.006684
1.096475 0.593583 -0.007897
1.105599 0.592620 -0.009031
1.117276 0.593096 -0.010416
1.128769 0.593387 -0.011773
1.138089 0.592365 -0.012900
1.146861 0.590993 -0.013959
1.157492 0.590633 -0.015191
1.168613 0.590498 -0.016457
1.178749 0.589778 -0.017606
1.187492 0.588273 -0.018592
1.192226 0.584610 -0.019148
1.221078 0.593794 -0.022138
1.225426 0.589884 -0.022606
1.233421 0.587925 -0.023418
1.245885 0.588287 -0.024658
1.252646 0.585720 -0.025287
1.258335 0.582652 -0.025777
1.282551 0.588896 -0.028119
1.299198 0.591270 -0.029657
1.307877 0.589697 -0.030351
1.314059 0.586948 -0.030758
1.329583 0.588750 -0.032076
1.328883 0.582807 -0.031721
0.153009 0.596297 0.068638
0.155580 0.599903 0.068201
0.157832 0.600293 0.067907
0.160136 0.600719 0.067623
0.162435 0.600743 0.067368
0.164772 0.600725 0.067126
0.166561 0.596347 0.067088
0.168984 0.596454 0.066866
0.171736 0.598557 0.066567
0.174696 0.601670 0.066232
0.177660 0.604367 0.065927
0.180637 0.606749 0.065646
0.183735 0.609520 0.065357
0.186601 0.610510 0.065160
0.188083 0.603064 0.065364
0.190734 0.602521 0.065260
0.193450 0.602188 0.065156
0.196184 0.601805 0.065064
0.199068 0.602079 0.064950
0.201799 0.601403 0.064889
0.204496 0.600452 0.064848
0.206999 0.598464 0.064863
0.211986 0.608488 0.064314
0.215148 0.609318 0.064206
0.218710 0.611872 0.064020
0.221293 0.609805 0.064058
0.223513 0.606143 0.064178
0.225637 0.602160 0.064316
0.228304 0.600585 0.064341
0.231048 0.599339 0.064352
0.233842 0.598300 0.064355
0.237423 0.600398 0.064206
0.240448 0.600200 0.064169
0.245185 0.606537 0.063814
0.249001 0.609137 0.063639
0.251460 0.606603 0.063713
0.253279 0.601821 0.063895
0.256027 0.600490 0.063908
0.259340 0.601153 0.063821
0.262266 0.600445 0.063799
0.265670 0.601350 0.063696
0.269110 0.602326 0.063586
0.272053 0.601629 0.063555
0.275193 0.601568 0.063490
0.278317 0.601437 0.063425
0.281297 0.600847 0.063380
0.284412 0.600672 0.063310
0.287282 0.599746 0.063275
0.289587 0.597160 0.063319
0.293818 0.600240 0.063076
0.299478 0.607310 0.062626
0.300479 0.600988 0.062848
0.306015 0.607454 0.062419
0.308212 0.604552 0.062460
0.309667 0.599707 0.062598
0.312751 0.599323 0.062505
0.316463 0.600576 0.062323
0.319754 0.600684 0.062197
0.322755 0.600024 0.062106
0.325416 0.598502 0.062056
0.331177 0.604715 0.061598
0.334589 0.604968 0.061446
0.338888 0.607342 0.061178
0.341894 0.606535 0.061073
0.344278 0.604254 0.061044
0.345723 0.599817 0.061126
0.348846 0.599330 0.060995
0.351860 0.598580 0.060873
0.355246 0.598656 0.060704
0.358441 0.598281 0.060555
0.363091 0.601077 0.060229
0.369289 0.607125 0.059717
0.374771 0.611471 0.059293
0.373402 0.601204 0.059676
0.375435 0.598257 0.059651
0.379775 0.600108 0.059354
0.383125 0.599868 0.059171
0.386324 0.599299 0.059002
0.390708 0.601075 0.058696
0.393913 0.600455 0.058523
0.397764 0.601079 0.058274
0.400843 0.600167 0.058111
0.403713 0.598847 0.057969
0.406445 0.597263 0.057839
0.409587 0.596447 0.057662
0.412012 0.594292 0.057561
0.420025 0.602342 0.056844
0.424053 0.602997 0.056564
0.427322 0.602251 0.056367
0.430593 0.601489 0.056167
0.432832 0.598909 0.056077
0.436769 0.599281 0.055801
0.440055 0.598498 0.055593
0.443303 0.597635 0.055388
0.447187 0.597818 0.055113
0.451888 0.599317 0.054751
0.455417 0.598828 0.054511
0.459353 0.598973 0.054227
0.464023 0.600259 0.053864
0.467082 0.598923 0.053670
0.469672 0.596838 0.053522
0.473736 0.597057 0.053219
0.477120 0.596185 0.052985
0.484903 0.602014 0.052295
0.490075 0.603741 0.051874
0.492628 0.601476 0.051723
0.493791 0.597159 0.051712
0.497332 0.596378 0.051455
0.502108 0.597372 0.051070
0.507114 0.598638 0.050660
0.510209 0.597120 0.050444
0.515917 0.599279 0.049962
0.520660 0.600011 0.049576
0.524389 0.599286 0.049292
0.527527 0.597727 0.049065
0.531591 0.597416 0.048744
0.534020 0.594873 0.048585
0.539677 0.596638 0.048101
0.546439 0.599788 0.047505
0.551193 0.600215 0.047109
0.553572 0.597521 0.046948
0.559079 0.598846 0.046474
0.562346 0.597262 0.046221
0.566348 0.596592 0.045893
0.572993 0.599186 0.045302
0.577525 0.599083 0.044918
0.580465 0.596993 0.044690
0.588525 0.601104 0.043955
0.596664 0.605191 0.043210
0.598606 0.601789 0.043075
0.598298 0.595758 0.043158
0.603939 0.596738 0.042654
0.608610 0.596535 0.042243
0.613310 0.596326 0.041827
0.617263 0.595228 0.041481
0.624119 0.597372 0.040849
0.629279 0.597541 0.040381
0.631711 0.594650 0.040177
0.635128 0.592844 0.039874
0.646851 0.600028 0.038757
0.636071 0.582866 0.039835
0.637818 0.579301 0.039687
0.655749 0.592822 0.037955
0.665578 0.597584 0.037012
0.668886 0.595460 0.036702
0.671940 0.593064 0.036413
0.678103 0.593823 0.035818
0.681529 0.591761 0.035486
0.690114 0.594836 0.034647
0.694907 0.594053 0.034175
0.698617 0.592173 0.033804
0.703288 0.591207 0.033336
0.708937 0.591147 0.032768
0.716408 0.592772 0.032018
0.731188 0.601215 0.030550
0.737267 0.601306 0.029926
0.736469 0.594963 0.029970
0.731533 0.584877 0.030415
0.732745 0.580515 0.030255
0.744038 0.585268 0.029102
0.751062 0.586062 0.028363
0.750417 0.579991 0.028370
0.753468 0.577215 0.028010
0.765960 0.582635 0.026717
0.779736 0.588998 0.025290
0.787659 0.590189 0.024433
0.794950 0.590759 0.023631
0.799522 0.588977 0.023092
0.807699 0.590152 0.022190
0.817439 0.592522 0.021127
