ply
format ascii 1.0
comment ---
element vertex 1679
property float x
property float y
property float z
element face 0
property list uchar uint vertex_indices
end_header
-0.017873 0.616554 -0.229500
-0.014812 0.614875 -0.228993
-0.011773 0.613710 -0.228650
-0.008732 0.609680 -0.227395
-0.005729 0.608171 -0.226943
-0.002736 0.607604 -0.226792
0.000275 0.609342 -0.227376
0.003313 0.611769 -0.228180
0.006342 0.612484 -0.228440
0.009331 0.611307 -0.228097
0.012321 0.610551 -0.227889
0.015300 0.609669 -0.227641
0.018396 0.611959 -0.228405
0.021469 0.613202 -0.228837
0.024531 0.613964 -0.229116
0.027364 0.610357 -0.228001
0.030121 0.606028 -0.226657
0.033001 0.604267 -0.226132
0.036175 0.607035 -0.227054
0.039311 0.608889 -0.227686
0.042395 0.609843 -0.228030
0.045505 0.610973 -0.228432
0.048493 0.610581 -0.228348
0.051442 0.609807 -0.228144
0.054572 0.610925 -0.228545
0.057809 0.612970 -0.229243
0.060421 0.609014 -0.228024
0.063045 0.605491 -0.226943
0.065950 0.604630 -0.226715
0.069067 0.605555 -0.227058
0.072145 0.606077 -0.227275
0.075223 0.606541 -0.227474
0.078178 0.606061 -0.227371
0.081122 0.605514 -0.227249
0.084355 0.606951 -0.227763
0.087862 0.610067 -0.228817
0.090794 0.609314 -0.228632
0.093767 0.608838 -0.228537
0.096814 0.608806 -0.228586
0.099644 0.607497 -0.228227
0.102293 0.605216 -0.227557
0.105799 0.607743 -0.228432
0.108903 0.607960 -0.228567
0.112162 0.608951 -0.228952
0.116310 0.614377 -0.230765
0.118904 0.611819 -0.230013
0.121055 0.607215 -0.228604
0.125141 0.611928 -0.230195
0.129309 0.616771 -0.231830
0.130936 0.609936 -0.229708
0.134775 0.613104 -0.230808
0.138272 0.614634 -0.231384
0.141978 0.616945 -0.232213
0.144706 0.615100 -0.231705
0.146462 0.609371 -0.229945
0.149833 0.610233 -0.230315
0.151158 0.603092 -0.228101
0.154296 0.603093 -0.228196
0.157818 0.604491 -0.228745
0.162966 0.611751 -0.231193
0.166482 0.612846 -0.231651
0.169632 0.612575 -0.231669
0.172550 0.611471 -0.231420
0.175392 0.610114 -0.231092
0.178688 0.610280 -0.231260
0.181995 0.610439 -0.231428
0.184483 0.607911 -0.230727
0.186104 0.602681 -0.229150
0.189701 0.603741 -0.229620
0.193176 0.604355 -0.229947
0.196378 0.604081 -0.229989
0.199312 0.602981 -0.229765
0.203669 0.606027 -0.230896
0.208076 0.609079 -0.232033
0.212407 0.611777 -0.233059
0.214708 0.608690 -0.232200
0.218946 0.610968 -0.233097
0.222247 0.610597 -0.233132
0.224276 0.606806 -0.232050
0.226730 0.604195 -0.231356
0.230473 0.604947 -0.231768
0.234484 0.606314 -0.232385
0.238555 0.607746 -0.233027
0.242144 0.607899 -0.233253
0.246357 0.609525 -0.233968
0.251558 0.613439 -0.235440
0.255196 0.613489 -0.235644
0.255376 0.605399 -0.233163
0.258678 0.604696 -0.233121
0.261453 0.602770 -0.232677
0.264861 0.602277 -0.232708
0.268373 0.601990 -0.232809
0.272832 0.603747 -0.233590
0.276112 0.602879 -0.233502
0.278974 0.601109 -0.233115
0.282820 0.601426 -0.233421
0.286636 0.601648 -0.233696
0.290321 0.601574 -0.233873
0.294085 0.601642 -0.234096
0.298123 0.602244 -0.234496
0.301169 0.600859 -0.234231
0.305319 0.601658 -0.234692
0.308727 0.601006 -0.234665
0.313227 0.602459 -0.235339
0.316415 0.601415 -0.235171
0.318696 0.598719 -0.234442
0.323715 0.601152 -0.235430
0.326802 0.600039 -0.235218
0.329959 0.599110 -0.235061
0.333467 0.598868 -0.235125
0.338278 0.600975 -0.235971
0.341812 0.600859 -0.236059
0.344460 0.599271 -0.235639
0.348001 0.599306 -0.235754
0.350313 0.597324 -0.235177
0.354647 0.598844 -0.235770
-0.367711 0.596943 -0.231445
-0.365497 0.598793 -0.232071
-0.363303 0.600791 -0.232733
-0.360531 0.601914 -0.233092
-0.356872 0.601595 -0.232960
-0.352956 0.600890 -0.232688
-0.349702 0.601405 -0.232811
-0.346088 0.601346 -0.232732
-0.342523 0.601428 -0.232690
-0.339676 0.602869 -0.233089
-0.336628 0.604014 -0.233381
-0.333419 0.604921 -0.233586
-0.329464 0.604468 -0.233333
-0.326145 0.605244 -0.233480
-0.322074 0.604601 -0.233153
-0.318771 0.605457 -0.233317
-0.314783 0.604984 -0.233037
-0.310580 0.604067 -0.232607
-0.307865 0.606142 -0.233162
-0.303437 0.604741 -0.232568
-0.299798 0.604930 -0.232496
-0.296108 0.604998 -0.232384
-0.292677 0.605598 -0.232447
-0.289157 0.605995 -0.232442
-0.285739 0.606598 -0.232506
-0.281897 0.606242 -0.232255
-0.278204 0.606176 -0.232101
-0.274958 0.607089 -0.232269
-0.270222 0.604545 -0.231307
-0.266824 0.605025 -0.231337
-0.263408 0.605434 -0.231346
-0.259984 0.605790 -0.231341
-0.256472 0.605897 -0.231256
-0.252673 0.605249 -0.230928
-0.248889 0.604575 -0.230594
-0.245669 0.605274 -0.230711
-0.241805 0.604279 -0.230279
-0.238835 0.605557 -0.230591
-0.235240 0.605158 -0.230360
-0.231854 0.605266 -0.230297
-0.228516 0.605462 -0.230265
-0.225078 0.605338 -0.230133
-0.221429 0.604564 -0.229793
-0.218361 0.605394 -0.229977
-0.215301 0.606228 -0.230166
-0.211549 0.604985 -0.229683
-0.208058 0.604448 -0.229433
-0.204989 0.605144 -0.229586
-0.202083 0.606328 -0.229900
-0.198098 0.604081 -0.229105
-0.195196 0.605216 -0.229408
-0.192232 0.606142 -0.229648
-0.188360 0.604022 -0.228903
-0.185090 0.603837 -0.228787
-0.182203 0.604935 -0.229091
-0.179223 0.605705 -0.229290
-0.176052 0.605778 -0.229266
-0.172890 0.605848 -0.229244
-0.169460 0.604881 -0.228889
-0.166713 0.606446 -0.229355
-0.163573 0.606508 -0.229338
-0.160330 0.606132 -0.229181
-0.157015 0.605409 -0.228915
-0.154197 0.606684 -0.229296
-0.151097 0.606784 -0.229300
-0.147803 0.606022 -0.229028
-0.144737 0.606199 -0.229061
-0.141748 0.606698 -0.229200
-0.138646 0.606670 -0.229171
-0.135711 0.607405 -0.229390
-0.132303 0.605850 -0.228872
-0.129232 0.605863 -0.228861
-0.126244 0.606274 -0.228981
-0.123110 0.605915 -0.228854
-0.120044 0.605875 -0.228832
-0.117097 0.606465 -0.229015
-0.114250 0.607633 -0.229386
-0.110994 0.606451 -0.229000
-0.107960 0.606509 -0.229015
-0.105020 0.607132 -0.229214
-0.102229 0.608723 -0.229727
-0.099259 0.609211 -0.229886
-0.095736 0.605934 -0.228831
-0.092638 0.605413 -0.228666
-0.089572 0.605070 -0.228560
-0.086686 0.606037 -0.228878
-0.083342 0.603453 -0.228052
-0.080688 0.606300 -0.228979
-0.077725 0.606725 -0.229125
-0.074738 0.606957 -0.229211
-0.071582 0.605610 -0.228787
-0.068588 0.605706 -0.228831
-0.065650 0.606359 -0.229055
-0.062727 0.607232 -0.229351
-0.059651 0.606443 -0.229112
-0.056602 0.605857 -0.228939
-0.053705 0.607140 -0.229370
-0.050725 0.607447 -0.229488
-0.047678 0.606794 -0.229295
-0.044728 0.607561 -0.229563
-0.041741 0.607793 -0.229658
-0.038756 0.608109 -0.229781
-0.035793 0.608911 -0.230062
-0.032971 0.613114 -0.231443
-0.029837 0.610302 -0.230558
-0.026747 0.607968 -0.229828
-0.023787 0.609311 -0.230287
-0.020932 0.615597 -0.232345
-0.017902 0.615930 -0.232479
-0.014859 0.615518 -0.232373
-0.011801 0.613007 -0.231589
-0.008768 0.610863 -0.230924
-0.005757 0.608747 -0.230268
-0.002747 0.610220 -0.230774
0.000270 0.611005 -0.231059
0.003308 0.612593 -0.231604
0.006338 0.613047 -0.231783
0.009347 0.612448 -0.231622
0.012351 0.611852 -0.231462
0.015478 0.614958 -0.232502
0.018491 0.614404 -0.232357
0.021570 0.615454 -0.232733
0.024584 0.614956 -0.232608
0.027436 0.611540 -0.231538
0.030160 0.606506 -0.229943
0.033129 0.606052 -0.229834
0.036248 0.607831 -0.230450
0.039405 0.609871 -0.231152
0.042546 0.611452 -0.231705
0.045728 0.613312 -0.232351
0.048677 0.612307 -0.232067
0.051650 0.611660 -0.231901
0.054916 0.614039 -0.232718
0.058266 0.616992 -0.233723
0.060830 0.612379 -0.232271
0.063401 0.608216 -0.230966
0.066006 0.604661 -0.229858
0.069097 0.605339 -0.230128
0.072165 0.605761 -0.230315
0.075107 0.605188 -0.230181
0.078209 0.605797 -0.230431
0.081385 0.606863 -0.230832
0.084512 0.607511 -0.231098
0.087868 0.609588 -0.231831
0.090914 0.609551 -0.231878
0.094007 0.609783 -0.232013
0.097466 0.612162 -0.232849
0.099949 0.608718 -0.231789
0.103262 0.610129 -0.232313
0.106473 0.610873 -0.232622
0.109529 0.610733 -0.232643
0.112619 0.610748 -0.232717
0.115706 0.610719 -0.232779
0.118674 0.610084 -0.232644
0.121513 0.608825 -0.232307
0.125315 0.612137 -0.233466
0.128770 0.613671 -0.234046
0.131656 0.612544 -0.233758
0.134715 0.612205 -0.233730
0.138199 0.613676 -0.234297
0.141854 0.615771 -0.235070
0.145342 0.617061 -0.235583
0.146950 0.610682 -0.233583
0.149665 0.608904 -0.233094
0.153129 0.610066 -0.233571
0.156099 0.609270 -0.233408
0.158732 0.607217 -0.232835
0.163743 0.613897 -0.235134
0.166633 0.612686 -0.234843
0.169052 0.609823 -0.234011
0.172520 0.610655 -0.234397
0.175143 0.608551 -0.233819
0.178390 0.608561 -0.233940
0.181818 0.609128 -0.234248
0.184459 0.607099 -0.233702
0.186298 0.602559 -0.232329
0.189579 0.602619 -0.232478
0.193126 0.603453 -0.232886
0.196414 0.603434 -0.233015
0.199308 0.602209 -0.232748
0.203318 0.604233 -0.233561
0.206785 0.604592 -0.233826
0.210204 0.604760 -0.234031
0.213356 0.604135 -0.233976
0.216390 0.603161 -0.233809
0.220437 0.604904 -0.234548
0.223010 0.602632 -0.233956
0.226301 0.602261 -0.233998
0.229522 0.601677 -0.233973
0.233320 0.602530 -0.234431
0.236396 0.601502 -0.234265
0.239596 0.600766 -0.234199
0.242232 0.598630 -0.233667
0.245611 0.598298 -0.233741
0.248420 0.596577 -0.233353
0.251581 0.595685 -0.233244
0.257080 0.600167 -0.234943
0.260836 0.600521 -0.235259
0.264666 0.600994 -0.235618
0.268461 0.601339 -0.235936
0.272137 0.601379 -0.236154
0.275581 0.600885 -0.236192
0.278895 0.600097 -0.236132
0.283659 0.602348 -0.237100
0.286978 0.601519 -0.237027
0.291054 0.602239 -0.237477
0.294890 0.602442 -0.237752
0.298677 0.602525 -0.237985
0.302386 0.602444 -0.238160
0.305857 0.601899 -0.238173
0.310493 0.603612 -0.238952
0.313376 0.601952 -0.238578
0.316624 0.601029 -0.238449
0.320088 0.600549 -0.238465
0.323850 0.600651 -0.238673
0.327064 0.599782 -0.238541
0.330639 0.599618 -0.238641
0.334649 0.600272 -0.239013
0.338025 0.599845 -0.239004
0.341356 0.599398 -0.238977
0.345815 0.600966 -0.239631
0.348065 0.598790 -0.238987
0.350884 0.597687 -0.238699
0.354331 0.597730 -0.238791
-0.367326 0.595663 -0.234387
-0.366054 0.599066 -0.235550
-0.363818 0.600977 -0.236196
-0.360735 0.601552 -0.236378
-0.357206 0.601440 -0.236315
-0.353607 0.601272 -0.236222
-0.350561 0.602144 -0.236468
-0.347408 0.602904 -0.236665
-0.343905 0.603103 -0.236662
-0.339988 0.602599 -0.236412
-0.336898 0.603654 -0.236679
-0.333466 0.604132 -0.236742
-0.329761 0.604136 -0.236639
-0.326197 0.604436 -0.236628
-0.322994 0.605456 -0.236852
-0.318972 0.604917 -0.236548
-0.315487 0.605431 -0.236593
-0.311633 0.605222 -0.236391
-0.307874 0.605196 -0.236248
-0.304903 0.606777 -0.236641
-0.300139 0.604661 -0.235793
-0.296877 0.605634 -0.235979
-0.292769 0.604806 -0.235562
-0.289549 0.605848 -0.235770
-0.286228 0.606671 -0.235904
-0.282742 0.607116 -0.235913
-0.278444 0.605715 -0.235307
-0.275036 0.606266 -0.235354
-0.270934 0.605190 -0.234860
-0.266672 0.603671 -0.234222
-0.263905 0.605615 -0.234739
-0.260241 0.605410 -0.234543
-0.256835 0.605786 -0.234542
-0.253558 0.606448 -0.234639
-0.248929 0.603687 -0.233604
-0.245939 0.604974 -0.233914
-0.242612 0.605382 -0.233936
-0.239300 0.605795 -0.233963
-0.235937 0.606036 -0.233936
-0.232317 0.605541 -0.233668
-0.228806 0.605286 -0.233484
-0.225363 0.605162 -0.233346
-0.222028 0.605298 -0.233297
-0.218638 0.605230 -0.233184
-0.215205 0.604989 -0.233018
-0.212029 0.605459 -0.233089
-0.208256 0.604096 -0.232559
-0.205111 0.604571 -0.232638
-0.202058 0.605306 -0.232806
-0.198910 0.605722 -0.232872
-0.195647 0.605736 -0.232809
-0.192266 0.605322 -0.232608
-0.189067 0.605461 -0.232591
-0.185840 0.605467 -0.232534
-0.182497 0.605032 -0.232334
-0.179407 0.605436 -0.232414
-0.176369 0.606002 -0.232549
-0.173361 0.606659 -0.232717
-0.170075 0.606271 -0.232544
-0.167013 0.606679 -0.232635
-0.163592 0.605677 -0.232265
-0.160579 0.606214 -0.232404
-0.157263 0.605516 -0.232139
-0.154247 0.605991 -0.232262
-0.151290 0.606703 -0.232464
-0.148276 0.607168 -0.232588
-0.144913 0.606082 -0.232205
-0.141805 0.606065 -0.232175
-0.138757 0.606294 -0.232228
-0.135492 0.605477 -0.231939
-0.132422 0.605540 -0.231942
-0.129569 0.606652 -0.232290
-0.126572 0.607055 -0.232407
-0.123188 0.605435 -0.231863
-0.120151 0.605563 -0.231894
-0.117296 0.606675 -0.232249
-0.114380 0.607479 -0.232505
-0.111106 0.606214 -0.232083
-0.108087 0.606377 -0.232132
-0.105086 0.606643 -0.232216
-0.102185 0.607543 -0.232509
-0.099222 0.608067 -0.232681
-0.096031 0.607046 -0.232347
-0.092846 0.605973 -0.231997
-0.089754 0.605484 -0.231841
-0.086392 0.602895 -0.230997
-0.083823 0.606325 -0.232127
-0.080725 0.605674 -0.231921
-0.077729 0.605829 -0.231980
-0.074736 0.605999 -0.232046
-0.072065 0.609167 -0.233095
-0.068735 0.606180 -0.232127
-0.065781 0.606736 -0.232322
-0.062821 0.607259 -0.232507
-0.059875 0.607996 -0.232764
-0.056741 0.606526 -0.232297
-0.053734 0.606479 -0.232298
-0.050776 0.607085 -0.232514
-0.047785 0.607279 -0.232597
-0.044780 0.607265 -0.232611
-0.041798 0.607609 -0.232744
-0.038780 0.607354 -0.232681
-0.035806 0.607915 -0.232886
-0.032851 0.609053 -0.233283
-0.029857 0.609418 -0.233425
-0.026838 0.609152 -0.233362
-0.024055 0.616942 -0.235946
-0.021014 0.617144 -0.236038
-0.017856 0.611328 -0.234153
-0.014842 0.611649 -0.234286
-0.011833 0.612718 -0.234665
-0.008804 0.611706 -0.234361
-0.005783 0.615056 -0.235491
-0.002752 0.614062 -0.235194
0.000251 0.611247 -0.234299
0.003283 0.612184 -0.234639
0.006311 0.612464 -0.234763
0.009288 0.610532 -0.234160
0.012276 0.609616 -0.233893
0.015312 0.610324 -0.234160
0.018334 0.610470 -0.234243
0.021325 0.609893 -0.234089
0.024366 0.610434 -0.234303
0.027388 0.610500 -0.234362
0.030304 0.608735 -0.233819
0.033206 0.607023 -0.233294
0.036237 0.607407 -0.233460
0.039345 0.608771 -0.233950
0.042498 0.610518 -0.234567
0.045428 0.609369 -0.234230
0.048689 0.612086 -0.235170
0.051496 0.609626 -0.234403
0.054515 0.609555 -0.234425
0.057411 0.608283 -0.234052
0.060524 0.609118 -0.234374
0.063637 0.609857 -0.234666
0.066045 0.604541 -0.232961
0.069078 0.604717 -0.233069
0.072157 0.605230 -0.233290
0.075171 0.605184 -0.233327
0.078176 0.605060 -0.233340
0.081266 0.605523 -0.233549
0.084401 0.606241 -0.233843
0.087972 0.609744 -0.235060
0.090686 0.607564 -0.234398
0.093596 0.606708 -0.234175
0.096632 0.606625 -0.234211
0.099727 0.606871 -0.234356
0.102764 0.606748 -0.234381
0.105716 0.606148 -0.234249
0.108574 0.605048 -0.233953
0.111435 0.604001 -0.233677
0.114544 0.604233 -0.233826
0.117580 0.604070 -0.233846
0.120902 0.605265 -0.234319
0.123803 0.604397 -0.234108
0.126696 0.603505 -0.233892
0.129631 0.602813 -0.233744
0.132312 0.601005 -0.233227
0.135316 0.600636 -0.233190
0.138599 0.601428 -0.233541
0.142040 0.602804 -0.234090
0.145243 0.603132 -0.234293
0.148295 0.602819 -0.234284
0.151342 0.602466 -0.234264
0.154528 0.602619 -0.234416
0.157758 0.602900 -0.234613
0.160834 0.602571 -0.234609
0.163880 0.602112 -0.234565
0.167661 0.604214 -0.235379
0.170335 0.602388 -0.234883
0.173243 0.601378 -0.234662
0.177400 0.604528 -0.235838
0.180446 0.603892 -0.235749
0.183493 0.603242 -0.235658
0.186651 0.602928 -0.235682
0.189852 0.602712 -0.235743
0.193676 0.604373 -0.236438
0.196910 0.604159 -0.236506
0.199936 0.603295 -0.236359
0.203433 0.603785 -0.236671
0.206744 0.603687 -0.236789
0.209640 0.602372 -0.236500
0.213090 0.602594 -0.236732
0.216251 0.601974 -0.236684
0.220272 0.603646 -0.237414
0.222484 0.600420 -0.236491
0.226645 0.602341 -0.237313
0.229791 0.601544 -0.237218
0.233296 0.601637 -0.237429
0.236420 0.600730 -0.237304
0.240607 0.602426 -0.238065
0.243891 0.601830 -0.238052
0.246677 0.600014 -0.237626
0.250891 0.601582 -0.238356
0.254238 0.601042 -0.238370
0.258198 0.601888 -0.238860
0.261198 0.600489 -0.238586
0.264726 0.600272 -0.238718
0.268586 0.600756 -0.239091
0.272604 0.601541 -0.239570
0.276161 0.601277 -0.239691
0.280401 0.602445 -0.240304
0.284079 0.602374 -0.240493
0.287337 0.601413 -0.240375
0.291298 0.601893 -0.240752
0.295189 0.602203 -0.241070
0.299013 0.602360 -0.241334
0.302769 0.602373 -0.241545
0.306344 0.602029 -0.241630
0.310796 0.603385 -0.242299
0.314019 0.602379 -0.242146
0.317004 0.600961 -0.241844
0.320888 0.601268 -0.242133
0.323690 0.599602 -0.241729
0.328083 0.600897 -0.242347
0.331440 0.600337 -0.242310
0.334785 0.599812 -0.242276
0.338190 0.599450 -0.242287
0.341795 0.599499 -0.242431
0.345741 0.600193 -0.242788
0.348681 0.599220 -0.242551
0.351446 0.598037 -0.242227
0.353744 0.596167 -0.241650
-0.370459 0.600246 -0.239331
-0.367231 0.600383 -0.239396
-0.364411 0.601298 -0.239713
-0.361155 0.601561 -0.239794
-0.357523 0.601254 -0.239666
-0.353923 0.601070 -0.239567
-0.350950 0.602052 -0.239857
-0.348054 0.603254 -0.240209
-0.344587 0.603509 -0.240227
-0.340520 0.602727 -0.239878
-0.337060 0.603090 -0.239912
-0.333691 0.603670 -0.240011
-0.329708 0.603139 -0.239723
-0.326339 0.603792 -0.239832
-0.323137 0.604803 -0.240056
-0.319847 0.605682 -0.240230
-0.315902 0.605297 -0.239967
-0.312329 0.605649 -0.239951
-0.308486 0.605460 -0.239748
-0.305020 0.606033 -0.239801
-0.301372 0.606232 -0.239725
-0.296490 0.603825 -0.238761
-0.293638 0.605656 -0.239238
-0.289778 0.605337 -0.238983
-0.286420 0.606080 -0.239090
-0.283054 0.606794 -0.239187
-0.279059 0.606080 -0.238800
-0.275185 0.605589 -0.238491
-0.271808 0.606192 -0.238555
-0.267559 0.604733 -0.237922
-0.264864 0.606872 -0.238509
-0.260518 0.605065 -0.237764
-0.257173 0.605601 -0.237814
-0.253811 0.606064 -0.237842
-0.250167 0.605788 -0.237624
-0.245941 0.603976 -0.236891
-0.242773 0.604797 -0.237049
-0.239546 0.605441 -0.237150
-0.236462 0.606437 -0.237373
-0.232492 0.605023 -0.236788
-0.229105 0.605118 -0.236715
-0.225638 0.604947 -0.236555
-0.222528 0.605730 -0.236719
-0.219051 0.605441 -0.236527
-0.215125 0.603786 -0.235880
-0.211854 0.603973 -0.235854
-0.208990 0.605347 -0.236230
-0.205357 0.604366 -0.235819
-0.202041 0.604298 -0.235718
-0.199057 0.605232 -0.235955
-0.196131 0.606346 -0.236255
-0.192505 0.605159 -0.235789
-0.189283 0.605240 -0.235750
-0.186002 0.605080 -0.235634
-0.182812 0.605187 -0.235610
-0.179643 0.605336 -0.235602
-0.176589 0.605862 -0.235724
-0.173434 0.606001 -0.235718
-0.170392 0.606527 -0.235845
-0.167209 0.606504 -0.235791
-0.164097 0.606719 -0.235819
-0.160991 0.606931 -0.235849
-0.157353 0.604967 -0.235155
-0.154356 0.605527 -0.235306
-0.151346 0.606029 -0.235440
-0.148229 0.606056 -0.235418
-0.145133 0.606144 -0.235418
-0.141935 0.605745 -0.235258
-0.138512 0.604264 -0.234739
-0.135408 0.604182 -0.234689
-0.132573 0.605369 -0.235064
-0.129652 0.606161 -0.235309
-0.126674 0.606674 -0.235463
-0.123642 0.606907 -0.235526
-0.120411 0.606058 -0.235230
-0.117414 0.606426 -0.235341
-0.114464 0.607051 -0.235540
-0.111489 0.607541 -0.235695
-0.108337 0.606973 -0.235499
-0.105146 0.606110 -0.235207
-0.102094 0.606051 -0.235184
-0.099148 0.606663 -0.235386
-0.096069 0.606388 -0.235294
-0.092965 0.605899 -0.235132
-0.089942 0.605938 -0.235147
-0.086944 0.606156 -0.235224
-0.083941 0.606322 -0.235284
-0.080807 0.605410 -0.234986
-0.077778 0.605301 -0.234957
-0.074894 0.606455 -0.235350
-0.071807 0.605797 -0.235141
-0.068980 0.607596 -0.235751
-0.065958 0.607563 -0.235752
-0.062959 0.607748 -0.235826
-0.059927 0.607568 -0.235780
-0.056882 0.607196 -0.235671
-0.053849 0.606907 -0.235590
-0.050865 0.607229 -0.235715
-0.047855 0.607209 -0.235726
-0.044847 0.607192 -0.235739
-0.041819 0.606813 -0.235632
-0.038759 0.605753 -0.235299
-0.035794 0.606419 -0.235542
-0.032794 0.606415 -0.235563
-0.029775 0.605900 -0.235414
-0.026730 0.604453 -0.234955
-0.023707 0.603279 -0.234587
-0.020766 0.604992 -0.235184
-0.017780 0.605261 -0.235300
-0.014787 0.605126 -0.235281
-0.011805 0.606048 -0.235616
-0.008802 0.604467 -0.235117
-0.005814 0.606773 -0.235916
-0.002810 0.607713 -0.236259
0.000174 0.605715 -0.235623
0.003157 0.604969 -0.235405
0.006148 0.604972 -0.235437
0.009209 0.607820 -0.236421
0.012182 0.606723 -0.236089
0.015186 0.606813 -0.236153
0.018200 0.607125 -0.236293
0.021227 0.607639 -0.236501
0.024209 0.607131 -0.236367
0.027227 0.607372 -0.236485
0.030233 0.607341 -0.236514
0.033203 0.606731 -0.236349
0.036092 0.605025 -0.235818
0.039142 0.605707 -0.236088
0.042139 0.605627 -0.236103
0.045171 0.605944 -0.236252
0.048247 0.606712 -0.236553
0.051305 0.607194 -0.236759
0.054094 0.604870 -0.236027
0.057133 0.605166 -0.236173
0.060340 0.606973 -0.236826
0.063279 0.606238 -0.236629
0.066006 0.603754 -0.235846
0.069060 0.604102 -0.236015
0.072204 0.605108 -0.236405
0.075296 0.605630 -0.236634
0.078199 0.604728 -0.236387
0.081264 0.604997 -0.236533
0.084534 0.606617 -0.237136
0.087746 0.607727 -0.237568
0.090508 0.605890 -0.237012
0.093443 0.605214 -0.236847
0.096577 0.605739 -0.237088
0.099482 0.604882 -0.236865
0.102623 0.605378 -0.237099
0.105574 0.604785 -0.236969
0.108571 0.604441 -0.236924
0.111546 0.603980 -0.236841
0.114413 0.602966 -0.236573
0.117564 0.603382 -0.236790
0.120711 0.603729 -0.236985
0.123713 0.603348 -0.236937
0.126718 0.602973 -0.236893
0.129866 0.603227 -0.237063
0.133244 0.604451 -0.237563
0.136132 0.603488 -0.237327
0.138774 0.601502 -0.236746
0.142074 0.602275 -0.237101
0.145251 0.602489 -0.237270
0.148395 0.602532 -0.237383
0.151435 0.602136 -0.237350
0.154605 0.602219 -0.237482
0.158035 0.603228 -0.237931
0.160772 0.601635 -0.237500
0.163858 0.601319 -0.237505
0.167529 0.603027 -0.238200
0.170460 0.602090 -0.238000
0.173798 0.602523 -0.238269
0.177180 0.603052 -0.238573
0.180566 0.603536 -0.238866
0.183613 0.602874 -0.238772
0.186764 0.602523 -0.238786
0.190606 0.604287 -0.239526
0.193771 0.603886 -0.239530
0.197084 0.603897 -0.239679
0.200244 0.603415 -0.239663
0.203598 0.603471 -0.239834
0.207123 0.603968 -0.240160
0.210473 0.603915 -0.240301
0.213722 0.603535 -0.240334
0.217188 0.603719 -0.240564
0.220676 0.603910 -0.240800
0.224087 0.603843 -0.240952
0.227336 0.603312 -0.240947
0.230544 0.602644 -0.240899
0.233631 0.601644 -0.240739
0.237161 0.601735 -0.240959
0.240949 0.602414 -0.241385
0.244233 0.601804 -0.241370
0.247736 0.601693 -0.241530
0.251052 0.601100 -0.241527
0.254930 0.601789 -0.241970
0.258068 0.600717 -0.241806
0.261875 0.601154 -0.242167
0.265369 0.600841 -0.242270
0.269113 0.601050 -0.242557
0.272868 0.601245 -0.242841
0.276445 0.601018 -0.242979
0.280411 0.601595 -0.243398
0.284087 0.601524 -0.243591
0.287700 0.601302 -0.243732
0.291563 0.601576 -0.244045
0.295281 0.601537 -0.244248
0.298840 0.601172 -0.244334
0.303125 0.602237 -0.244918
0.307239 0.602944 -0.245375
0.310768 0.602515 -0.245428
0.314156 0.601834 -0.245387
0.317784 0.601637 -0.245509
0.320708 0.600159 -0.245173
0.324983 0.601218 -0.245725
0.328577 0.601052 -0.245835
0.331886 0.600414 -0.245769
0.334998 0.599484 -0.245589
0.338554 0.599406 -0.245699
0.342135 0.599426 -0.245833
0.345016 0.598300 -0.245548
0.349081 0.599281 -0.245996
0.352543 0.599293 -0.246088
0.356673 0.600495 -0.246588
-0.369664 0.598293 -0.242053
-0.367905 0.600858 -0.242969
-0.365093 0.601772 -0.243294
-0.361527 0.601491 -0.243189
-0.357603 0.600663 -0.242880
-0.354160 0.600728 -0.242869
-0.351282 0.601859 -0.243217
-0.348376 0.603025 -0.243565
-0.344670 0.602834 -0.243428
-0.340866 0.602513 -0.243235
-0.337392 0.602838 -0.243257
-0.333963 0.603293 -0.243315
-0.330712 0.604128 -0.243496
-0.326692 0.603548 -0.243178
-0.323227 0.604043 -0.243226
-0.319730 0.604505 -0.243257
-0.316103 0.604732 -0.243201
-0.312611 0.605238 -0.243237
-0.309150 0.605818 -0.243294
-0.305196 0.605401 -0.243003
-0.301906 0.606335 -0.243178
-0.297300 0.604520 -0.242400
-0.293838 0.605068 -0.242439
-0.290218 0.605267 -0.242356
-0.286551 0.605344 -0.242231
-0.283139 0.605954 -0.242291
-0.278733 0.604324 -0.241579
-0.275493 0.605260 -0.241754
-0.271800 0.605144 -0.241567
-0.268254 0.605328 -0.241486
-0.264735 0.605539 -0.241416
-0.260972 0.605127 -0.241135
-0.257378 0.605074 -0.240979
-0.254311 0.606273 -0.241257
-0.250813 0.606382 -0.241163
-0.246483 0.604336 -0.240334
-0.242946 0.604230 -0.240173
-0.239887 0.605319 -0.240424
-0.236603 0.605799 -0.240471
-0.233082 0.605608 -0.240291
-0.229195 0.604363 -0.239755
-0.225967 0.604861 -0.239818
-0.222509 0.604683 -0.239653
-0.218749 0.603584 -0.239178
-0.215702 0.604481 -0.239387
-0.212154 0.603878 -0.239089
-0.209007 0.604419 -0.239183
-0.205839 0.604867 -0.239249
-0.202239 0.603944 -0.238852
-0.199799 0.606614 -0.239680
-0.196580 0.606825 -0.239675
-0.193197 0.606467 -0.239480
-0.189775 0.605923 -0.239225
-0.186198 0.604793 -0.238774
-0.182963 0.604761 -0.238700
-0.179826 0.605036 -0.238732
-0.176692 0.605287 -0.238760
-0.173548 0.605479 -0.238769
-0.170463 0.605858 -0.238846
-0.167375 0.606202 -0.238913
-0.164356 0.606792 -0.239066
-0.161305 0.607243 -0.239175
-0.157728 0.605556 -0.238562
-0.154455 0.605017 -0.238340
-0.151608 0.606213 -0.238709
-0.148581 0.606650 -0.238823
-0.145156 0.605328 -0.238343
-0.142329 0.606603 -0.238745
-0.139367 0.607286 -0.238949
-0.135853 0.605370 -0.238275
-0.132845 0.605772 -0.238388
-0.129642 0.605201 -0.238174
-0.126676 0.605774 -0.238349
-0.123642 0.605998 -0.238408
-0.120635 0.606347 -0.238511
-0.117564 0.606339 -0.238495
-0.114598 0.606898 -0.238672
-0.111697 0.607837 -0.238980
-0.108628 0.607804 -0.238961
-0.105217 0.605633 -0.238220
-0.102184 0.605706 -0.238240
-0.099157 0.605806 -0.238270
-0.096172 0.606167 -0.238391
-0.093084 0.605808 -0.238269
-0.090068 0.605931 -0.238311
-0.087107 0.606452 -0.238490
-0.084033 0.606105 -0.238376
-0.080989 0.605953 -0.238330
-0.077933 0.605667 -0.238240
-0.074883 0.605389 -0.238153
-0.071819 0.604939 -0.238010
-0.068941 0.606239 -0.238459
-0.066010 0.607103 -0.238762
-0.063007 0.607267 -0.238830
-0.059967 0.607003 -0.238754
-0.056946 0.606928 -0.238743
-0.053917 0.606718 -0.238687
-0.050931 0.607046 -0.238814
-0.047908 0.606877 -0.238774
-0.044894 0.606794 -0.238764
-0.041859 0.606314 -0.238621
-0.038840 0.606041 -0.238548
-0.035846 0.606214 -0.238627
-0.032829 0.605879 -0.238536
-0.029796 0.605032 -0.238271
-0.026829 0.605850 -0.238572
-0.023808 0.605111 -0.238345
-0.020843 0.606344 -0.238788
-0.017828 0.605577 -0.238554
-0.014825 0.605148 -0.238435
-0.011836 0.605699 -0.238650
-0.008841 0.606071 -0.238804
-0.005842 0.605995 -0.238807
-0.002839 0.606881 -0.239137
0.000166 0.607051 -0.239225
0.003161 0.606465 -0.239058
0.006155 0.606084 -0.238961
0.009164 0.606433 -0.239113
0.012158 0.606175 -0.239059
0.015147 0.605827 -0.238975
0.018168 0.606337 -0.239184
0.021174 0.606402 -0.239243
0.024168 0.606191 -0.239208
0.027155 0.605858 -0.239133
0.030209 0.606712 -0.239462
0.033181 0.606143 -0.239309
0.036147 0.605545 -0.239147
0.039057 0.604256 -0.238750
0.042134 0.605229 -0.239123
0.045227 0.606257 -0.239517
0.048213 0.605953 -0.239458
0.051171 0.605358 -0.239302
0.054142 0.604946 -0.239208
0.057236 0.605737 -0.239525
0.060282 0.605996 -0.239662
0.063225 0.605305 -0.239478
0.066025 0.603445 -0.238896
0.069227 0.604981 -0.239472
0.072477 0.606748 -0.240127
0.075636 0.607687 -0.240503
0.078623 0.607284 -0.240423
0.081504 0.606147 -0.240093
0.084464 0.605602 -0.239967
0.087601 0.606231 -0.240243
0.090554 0.605629 -0.240100
0.093548 0.605298 -0.240051
0.096568 0.605110 -0.240053
0.099638 0.605209 -0.240154
0.102455 0.603850 -0.239759
0.105699 0.604875 -0.240180
0.108757 0.604834 -0.240239
0.111671 0.604020 -0.240035
0.114603 0.603311 -0.239869
0.117658 0.603221 -0.239917
0.120719 0.603133 -0.239967
0.124285 0.605396 -0.240825
0.126869 0.603023 -0.240097
0.130219 0.604159 -0.240574
0.133383 0.604400 -0.240746
0.136549 0.604610 -0.240910
0.139554 0.604102 -0.240830
0.142518 0.603418 -0.240692
0.145404 0.602420 -0.240448
0.148591 0.602613 -0.240616
0.151748 0.602646 -0.240732
0.154795 0.602231 -0.240696
0.158078 0.602670 -0.240958
0.161548 0.603742 -0.241440
0.164249 0.601987 -0.240951
0.167759 0.603100 -0.241455
0.171117 0.603610 -0.241753
0.174147 0.602956 -0.241652
0.177249 0.602527 -0.241633
0.180646 0.603034 -0.241940
0.183877 0.602950 -0.242047
0.187625 0.604464 -0.242710
0.190177 0.602174 -0.242059
0.194238 0.604520 -0.243018
0.197267 0.603649 -0.242866
0.200382 0.603021 -0.242801
0.203655 0.602828 -0.242891
0.207184 0.603327 -0.243225
0.210605 0.603464 -0.243438
0.214026 0.603552 -0.243636
0.217191 0.602892 -0.243579
0.220296 0.602047 -0.243460
0.223991 0.602742 -0.243882
0.227579 0.603095 -0.244189
0.230620 0.601986 -0.243988
0.233702 0.600964 -0.243821
0.237747 0.602335 -0.244496
0.241183 0.602121 -0.244619
0.244328 0.601164 -0.244484
0.247751 0.600853 -0.244580
0.251555 0.601409 -0.244983
0.255151 0.601422 -0.245198
0.258798 0.601513 -0.245444
0.262323 0.601286 -0.245580
0.265699 0.600694 -0.245589
0.269344 0.600674 -0.245802
0.272882 0.600391 -0.245923
0.276416 0.600074 -0.246034
0.280222 0.600314 -0.246342
0.284153 0.600786 -0.246733
0.287909 0.600861 -0.246983
0.291327 0.600229 -0.246980
0.295105 0.600322 -0.247234
0.298876 0.600392 -0.247477
0.303780 0.602682 -0.248509
0.306958 0.601564 -0.248322
0.310313 0.600817 -0.248262
0.314733 0.602121 -0.248929
0.318150 0.601529 -0.248913
0.322134 0.602024 -0.249278
0.325923 0.602179 -0.249513
0.329230 0.601490 -0.249436
0.332561 0.600900 -0.249385
0.335961 0.600490 -0.249387
0.339377 0.600166 -0.249409
0.342042 0.598601 -0.248971
0.346036 0.599415 -0.249376
0.349323 0.599073 -0.249352
0.352380 0.598421 -0.249202
0.355407 0.597803 -0.249050
-0.370183 0.598531 -0.245535
-0.368118 0.600564 -0.246281
-0.365383 0.601583 -0.246652
-0.361514 0.600766 -0.246359
-0.358022 0.600659 -0.246303
-0.354776 0.601052 -0.246410
-0.351657 0.601742 -0.246610
-0.348462 0.602378 -0.246777
-0.345218 0.602995 -0.246926
-0.341793 0.603352 -0.246971
-0.337767 0.602661 -0.246635
-0.334880 0.604110 -0.247046
-0.331160 0.604063 -0.246919
-0.328180 0.605451 -0.247290
-0.323205 0.603062 -0.246320
-0.320000 0.604075 -0.246545
-0.316638 0.604817 -0.246669
-0.312898 0.604829 -0.246530
-0.309882 0.606302 -0.246901
-0.305538 0.605097 -0.246326
-0.301554 0.604595 -0.245997
-0.298464 0.605941 -0.246315
-0.294592 0.605645 -0.246054
-0.290535 0.604921 -0.245644
-0.286871 0.605008 -0.245518
-0.283666 0.606080 -0.245737
-0.280253 0.606685 -0.245793
-0.276569 0.606659 -0.245629
-0.272208 0.605039 -0.244910
-0.268858 0.605693 -0.244988
-0.265022 0.605174 -0.244659
-0.261571 0.605522 -0.244634
-0.258334 0.606356 -0.244782
-0.254692 0.606173 -0.244578
-0.250813 0.605346 -0.244153
-0.247285 0.605339 -0.244017
-0.243470 0.604547 -0.243611
-0.240119 0.604899 -0.243607
-0.236914 0.605599 -0.243726
-0.233527 0.605785 -0.243671
-0.229554 0.604329 -0.243049
-0.226135 0.604316 -0.242933
-0.222799 0.604492 -0.242884
-0.219353 0.604312 -0.242717
-0.216030 0.604436 -0.242658
-0.212150 0.602871 -0.242018
-0.209143 0.603837 -0.242258
-0.206286 0.605244 -0.242653
-0.202891 0.604984 -0.242476
-0.199872 0.605860 -0.242694
-0.196727 0.606319 -0.242771
-0.193450 0.606319 -0.242694
-0.189995 0.605684 -0.242401
-0.186774 0.605777 -0.242361
-0.183093 0.604248 -0.241766
-0.180008 0.604714 -0.241862
-0.176934 0.605199 -0.241968
-0.173945 0.605974 -0.242177
-0.170612 0.605462 -0.241944
-0.167502 0.605735 -0.241986
-0.164506 0.606427 -0.242174
-0.161312 0.606328 -0.242092
-0.158166 0.606385 -0.242067
-0.154835 0.605645 -0.241771
-0.151633 0.605381 -0.241640
-0.148702 0.606238 -0.241898
-0.145384 0.605405 -0.241577
-0.142483 0.606368 -0.241876
-0.139367 0.606362 -0.241844
-0.136221 0.606181 -0.241755
-0.132923 0.605228 -0.241401
-0.129860 0.605360 -0.241424
-0.126631 0.604625 -0.241150
-0.123870 0.606263 -0.241694
-0.120750 0.606040 -0.241600
-0.117768 0.606538 -0.241755
-0.114926 0.607820 -0.242182
-0.111926 0.608238 -0.242314
-0.108503 0.606133 -0.241581
-0.105539 0.606692 -0.241765
-0.102599 0.607422 -0.242010
-0.099258 0.605538 -0.241357
-0.096263 0.605855 -0.241463
-0.093367 0.606864 -0.241808
-0.090407 0.607454 -0.242010
-0.087276 0.606783 -0.241781
-0.084195 0.606425 -0.241660
-0.081070 0.605658 -0.241401
-0.078034 0.605569 -0.241375
-0.075019 0.605627 -0.241402
-0.071925 0.604944 -0.241175
-0.068984 0.605664 -0.241431
-0.066019 0.606187 -0.241621
-0.063050 0.606704 -0.241810
-0.060013 0.606490 -0.241749
-0.056975 0.606226 -0.241671
-0.053984 0.606505 -0.241782
-0.050979 0.606617 -0.241836
-0.047981 0.606827 -0.241924
-0.044946 0.606456 -0.241815
-0.041920 0.606188 -0.241741
-0.038915 0.606221 -0.241772
-0.035953 0.607142 -0.242109
-0.032933 0.606913 -0.242051
-0.029881 0.605785 -0.241686
-0.026889 0.606110 -0.241821
-0.023891 0.606301 -0.241910
-0.020871 0.605623 -0.241702
-0.017874 0.605797 -0.241787
-0.014874 0.605910 -0.241853
-0.011876 0.606267 -0.242003
-0.008873 0.606150 -0.241991
-0.005870 0.606512 -0.242145
-0.002865 0.606550 -0.242188
0.000140 0.606637 -0.242248
0.003142 0.606366 -0.242187
0.006142 0.606166 -0.242150
0.009146 0.606162 -0.242182
0.012150 0.606172 -0.242220
0.015146 0.605926 -0.242170
0.018231 0.607951 -0.242904
0.021190 0.606705 -0.242511
0.024152 0.605736 -0.242215
0.027183 0.606205 -0.242415
0.030206 0.606441 -0.242536
0.033197 0.606138 -0.242472
0.036122 0.604887 -0.242082
0.039175 0.605526 -0.242345
0.042221 0.605979 -0.242545
0.045255 0.606224 -0.242674
0.048217 0.605605 -0.242506
0.051171 0.604955 -0.242329
0.054218 0.605295 -0.242494
0.057422 0.607097 -0.243165
0.060268 0.605416 -0.242635
0.063260 0.605151 -0.242595
0.066377 0.605943 -0.242921
0.069523 0.606886 -0.243301
0.072409 0.605711 -0.242950
0.075504 0.606173 -0.243167
0.078586 0.606489 -0.243334
0.081574 0.606106 -0.243262
0.084651 0.606324 -0.243399
0.087614 0.605762 -0.243267
0.090638 0.605602 -0.243275
0.093630 0.605227 -0.243211
0.096655 0.605052 -0.243218
0.099661 0.604753 -0.243184
0.102878 0.605629 -0.243559
0.105938 0.605576 -0.243614
0.108975 0.605381 -0.243621
0.111751 0.603817 -0.243155
0.114687 0.603108 -0.242988
0.117938 0.603963 -0.243366
0.121226 0.604931 -0.243785
0.124138 0.604056 -0.243566
0.127413 0.604858 -0.243933
0.130422 0.604402 -0.243864
0.133494 0.604216 -0.243892
0.136556 0.603962 -0.243898
0.139703 0.604043 -0.244024
0.142737 0.603627 -0.243978
0.145874 0.603608 -0.244074
0.148805 0.602749 -0.243880
0.151767 0.602005 -0.243728
0.155030 0.602400 -0.243976
0.158194 0.602376 -0.244082
0.161697 0.603547 -0.244608
0.165144 0.604443 -0.245042
0.168151 0.603724 -0.244913
0.171550 0.604343 -0.245257
0.174768 0.604293 -0.245369
0.178149 0.604743 -0.245660
0.181186 0.604017 -0.245542
0.184556 0.604346 -0.245798
0.187815 0.604270 -0.245915
0.191043 0.604059 -0.245988
0.194254 0.603762 -0.246034
0.197345 0.603074 -0.245946
0.200435 0.602361 -0.245853
0.203798 0.602418 -0.246035
0.207214 0.602581 -0.246258
0.210554 0.602482 -0.246393
0.214083 0.602867 -0.246703
0.217330 0.602424 -0.246723
0.220395 0.601459 -0.246563
0.224443 0.603080 -0.247323
0.227436 0.601858 -0.247078
0.230629 0.601137 -0.247015
0.233996 0.600836 -0.247105
0.237660 0.601238 -0.247448
0.240938 0.600636 -0.247437
0.244501 0.600697 -0.247666
0.247734 0.599925 -0.247601
0.251830 0.601163 -0.248257
0.255112 0.600437 -0.248214
0.258710 0.600414 -0.248425
0.262285 0.600303 -0.248607
0.265749 0.599908 -0.248689
0.269276 0.599629 -0.248815
0.272977 0.599702 -0.249068
0.276680 0.599748 -0.249313
0.280813 0.600675 -0.249876
0.284267 0.600138 -0.249911
0.287738 0.599626 -0.249954
0.291167 0.599028 -0.249965
0.294623 0.598485 -0.249993
0.300808 0.603371 -0.251984
0.303347 0.600978 -0.251337
0.306697 0.600216 -0.251276
0.310406 0.600168 -0.251468
0.315077 0.601957 -0.252322
0.318399 0.601197 -0.252243
0.321672 0.600385 -0.252137
0.325861 0.601298 -0.252651
0.329915 0.601984 -0.253072
0.333943 0.602649 -0.253476
0.337412 0.602356 -0.253519
0.341069 0.602451 -0.253691
0.343783 0.600964 -0.253272
0.344870 0.596772 -0.251850
0.347417 0.595214 -0.251377
0.350642 0.594899 -0.251343
0.355292 0.597043 -0.252195
-0.370362 0.598211 -0.248824
-0.368324 0.600264 -0.249592
-0.365277 0.600732 -0.249775
-0.361914 0.600752 -0.249782
-0.358094 0.600061 -0.249518
-0.355412 0.601409 -0.249974
-0.352149 0.601834 -0.250084
-0.348628 0.601874 -0.250042
-0.345475 0.602633 -0.250246
-0.342289 0.603406 -0.250443
-0.338466 0.603075 -0.250233
-0.335081 0.603592 -0.250316
-0.331926 0.604591 -0.250563
-0.328377 0.604895 -0.250551
-0.324773 0.605129 -0.250507
-0.320494 0.604075 -0.249994
-0.316908 0.604371 -0.249958
-0.313551 0.605140 -0.250087
-0.309423 0.604377 -0.249663
-0.305616 0.604245 -0.249462
-0.301714 0.603908 -0.249184
-0.298699 0.605403 -0.249558
-0.294819 0.605089 -0.249285
-0.291411 0.605759 -0.249362
-0.287232 0.604747 -0.248839
-0.283916 0.605580 -0.248974
-0.280419 0.606001 -0.248962
-0.276531 0.605517 -0.248630
-0.272911 0.605598 -0.248501
-0.269193 0.605414 -0.248279
-0.265956 0.606319 -0.248446
-0.262313 0.606240 -0.248266
-0.258619 0.605992 -0.248029
-0.255116 0.606161 -0.247942
-0.250862 0.604418 -0.247183
-0.247642 0.605194 -0.247318
-0.243702 0.604100 -0.246796
-0.240534 0.604939 -0.246959
-0.237339 0.605685 -0.247093
-0.233728 0.605287 -0.246828
-0.229965 0.604419 -0.246400
-0.226397 0.604015 -0.246140
-0.223002 0.604038 -0.246034
-0.219713 0.604320 -0.246022
-0.216597 0.605067 -0.246178
-0.213278 0.605193 -0.246119
-0.210115 0.605746 -0.246214
-0.206348 0.604428 -0.245655
-0.203224 0.605018 -0.245769
-0.199894 0.604934 -0.245651
-0.196700 0.605240 -0.245673
-0.193326 0.604926 -0.245481
-0.190213 0.605423 -0.245577
-0.186625 0.604294 -0.245106
-0.183580 0.604952 -0.245265
-0.180524 0.605552 -0.245406
-0.177368 0.605781 -0.245421
-0.174209 0.605968 -0.245424
-0.171034 0.606065 -0.245399
-0.167670 0.605414 -0.245115
-0.164555 0.605659 -0.245147
-0.161430 0.605838 -0.245159
-0.158078 0.605076 -0.244845
-0.155128 0.605902 -0.245089
-0.151680 0.604636 -0.244604
-0.148673 0.605172 -0.244751
-0.145810 0.606329 -0.245118
-0.142570 0.605817 -0.244904
-0.139417 0.605650 -0.244814
-0.136279 0.605516 -0.244737
-0.133134 0.605307 -0.244636
-0.129894 0.604595 -0.244362
-0.127049 0.605808 -0.244762
-0.124095 0.606499 -0.244982
-0.121024 0.606570 -0.244987
-0.117923 0.606449 -0.244928
-0.115005 0.607332 -0.245220
-0.112000 0.607731 -0.245346
-0.108798 0.606955 -0.245063
-0.105435 0.605118 -0.244413
-0.102420 0.605341 -0.244483
-0.099886 0.608714 -0.245652
-0.096462 0.606260 -0.244792
-0.093528 0.607046 -0.245062
-0.090505 0.607218 -0.245120
-0.087407 0.606812 -0.244979
-0.084285 0.606171 -0.244756
-0.081149 0.605333 -0.244467
-0.078131 0.605415 -0.244500
-0.075165 0.605941 -0.244688
-0.072170 0.606226 -0.244795
-0.069022 0.605029 -0.244385
-0.066113 0.606135 -0.244780
-0.063105 0.606276 -0.244839
-0.060076 0.606163 -0.244811
-0.057042 0.605966 -0.244756
-0.054045 0.606204 -0.244852
-0.051092 0.607045 -0.245160
-0.048042 0.606592 -0.245018
-0.045019 0.606456 -0.244988
-0.042033 0.606909 -0.245164
-0.039031 0.607140 -0.245264
-0.036021 0.607238 -0.245318
-0.032960 0.606165 -0.244965
-0.029939 0.605846 -0.244875
-0.026936 0.605953 -0.244935
-0.023933 0.606053 -0.244994
-0.020912 0.605469 -0.244815
-0.017931 0.606611 -0.245239
-0.014909 0.605663 -0.244934
-0.011922 0.607395 -0.245567
-0.008906 0.606547 -0.245299
-0.005898 0.606045 -0.245152
-0.002892 0.606170 -0.245226
0.000113 0.606084 -0.245227
0.003119 0.606039 -0.245243
0.006119 0.605755 -0.245176
0.009124 0.605736 -0.245203
0.012134 0.605895 -0.245293
0.015144 0.605967 -0.245354
0.018158 0.606135 -0.245449
0.021174 0.606286 -0.245539
0.024167 0.605912 -0.245447
0.027164 0.605670 -0.245401
0.030178 0.605747 -0.245468
0.033198 0.605879 -0.245556
0.036160 0.605151 -0.245343
0.039162 0.605026 -0.245342
0.042209 0.605476 -0.245544
0.045245 0.605731 -0.245679
0.048268 0.605789 -0.245746
0.051219 0.605056 -0.245537
0.054372 0.606423 -0.246065
0.057407 0.606504 -0.246143
0.060254 0.604825 -0.245606
0.063401 0.605917 -0.246042
0.066461 0.606161 -0.246181
0.069516 0.606329 -0.246296
0.072386 0.605019 -0.245892
0.075348 0.604477 -0.245760
0.078524 0.605503 -0.246180
0.081608 0.605798 -0.246345
0.084623 0.605582 -0.246332
0.087748 0.606071 -0.246569
0.090617 0.604893 -0.246220
0.093648 0.604754 -0.246239
0.096684 0.604633 -0.246266
0.099762 0.604735 -0.246373
0.102906 0.605180 -0.246603
0.105994 0.605268 -0.246709
0.109002 0.604897 -0.246656
0.111986 0.604400 -0.246560
0.114763 0.602857 -0.246097
0.118304 0.605123 -0.246979
0.121240 0.604343 -0.246790
0.124193 0.603654 -0.246635
0.127283 0.603594 -0.246703
0.130436 0.603791 -0.246866
0.133426 0.603235 -0.246764
0.136695 0.603866 -0.247085
0.139622 0.603006 -0.246881
0.142749 0.602972 -0.246972
0.145855 0.602822 -0.247024
0.148860 0.602247 -0.246929
0.151989 0.602139 -0.247002
0.155118 0.601999 -0.247067
0.158356 0.602236 -0.247268
0.161613 0.602495 -0.247481
0.164916 0.602872 -0.247738
0.168478 0.604108 -0.248304
0.171643 0.603894 -0.248359
0.174848 0.603783 -0.248454
0.178087 0.603755 -0.248581
0.181256 0.603454 -0.248614
0.184372 0.602959 -0.248582
0.188101 0.604362 -0.249231
0.191318 0.604099 -0.249289
0.194403 0.603397 -0.249194
0.197385 0.602367 -0.248985
0.200578 0.601951 -0.249000
0.203979 0.602105 -0.249222
0.207248 0.601836 -0.249296
0.210747 0.602176 -0.249593
0.214117 0.602103 -0.249746
0.217676 0.602504 -0.250073
0.220619 0.601193 -0.249788
0.223873 0.600700 -0.249801
0.227922 0.602242 -0.250552
0.231021 0.601261 -0.250397
0.234061 0.600115 -0.250185
0.237020 0.598752 -0.249899
0.240538 0.598759 -0.250110
0.244507 0.599811 -0.250704
0.247884 0.599381 -0.250764
0.251198 0.598772 -0.250763
0.255137 0.599589 -0.251282
0.258353 0.598689 -0.251180
0.261869 0.598454 -0.251322
0.265755 0.599012 -0.251754
0.269455 0.599115 -0.252023
0.273981 0.600973 -0.252934
0.280567 0.607166 -0.255431
0.282591 0.603531 -0.254338
0.288211 0.607469 -0.256016
0.290486 0.604398 -0.255126
0.299734 0.615574 -0.259461
0.299487 0.607384 -0.256688
0.302869 0.606590 -0.256625
0.303989 0.601379 -0.254932
0.307079 0.600111 -0.254684
0.311144 0.600750 -0.255132
0.314973 0.600940 -0.255409
0.318393 0.600381 -0.255402
0.321646 0.599551 -0.255286
0.327452 0.603441 -0.256907
0.329418 0.600335 -0.255929
0.333960 0.601950 -0.256688
0.339025 0.604503 -0.257784
0.341015 0.601671 -0.256871
0.342316 0.597758 -0.255541
0.343301 0.593444 -0.254047
0.342377 0.586035 -0.251387
0.345227 0.585195 -0.251152
0.351012 0.589341 -0.252756
-0.372189 0.600630 -0.253116
-0.368332 0.599640 -0.252788
-0.365552 0.600533 -0.253133
-0.361454 0.599277 -0.252677
-0.359530 0.601815 -0.253593
-0.355962 0.601621 -0.253496
-0.353120 0.602767 -0.253874
-0.348904 0.601567 -0.253381
-0.345625 0.602081 -0.253501
-0.342322 0.602620 -0.253618
-0.339136 0.603433 -0.253823
-0.335383 0.603261 -0.253658
-0.331659 0.603179 -0.253516
-0.328440 0.604083 -0.253724
-0.325007 0.604626 -0.253791
-0.321127 0.604337 -0.253548
-0.317276 0.604112 -0.253322
-0.314197 0.605426 -0.253651
-0.310167 0.604864 -0.253292
-0.306024 0.604058 -0.252841
-0.303363 0.606278 -0.253484
-0.298611 0.604180 -0.252560
-0.295148 0.604740 -0.252597
-0.291538 0.604978 -0.252516
-0.287299 0.603836 -0.251936
-0.284022 0.604750 -0.252099
-0.280477 0.605065 -0.252046
-0.276949 0.605392 -0.251999
-0.273279 0.605370 -0.251827
-0.269709 0.605542 -0.251727
-0.266061 0.605495 -0.251549
-0.262507 0.605632 -0.251441
-0.258828 0.605427 -0.251213
-0.255552 0.606162 -0.251325
-0.251923 0.605997 -0.251116
-0.248306 0.605811 -0.250904
-0.244281 0.604527 -0.250302
-0.240949 0.604962 -0.250319
-0.237793 0.605829 -0.250495
-0.233334 0.603181 -0.249416
-0.230372 0.604482 -0.249754
-0.227228 0.605272 -0.249913
-0.223234 0.603653 -0.249215
-0.219993 0.604084 -0.249253
-0.216804 0.604635 -0.249338
-0.213613 0.605153 -0.249414
-0.210220 0.605035 -0.249268
-0.206746 0.604622 -0.249020
-0.203504 0.604870 -0.249011
-0.200183 0.604834 -0.248905
-0.196660 0.604103 -0.248555
-0.193588 0.604776 -0.248708
-0.190401 0.605049 -0.248722
-0.187096 0.604891 -0.248587
-0.184051 0.605581 -0.248756
-0.180878 0.605806 -0.248763
-0.177781 0.606271 -0.248859
-0.174570 0.606301 -0.248804
-0.171064 0.605200 -0.248350
-0.167786 0.604879 -0.248176
-0.164669 0.605127 -0.248207
-0.161492 0.605117 -0.248150
-0.158376 0.605310 -0.248167
-0.154914 0.604063 -0.247677
-0.151993 0.604988 -0.247960
-0.148782 0.604684 -0.247809
-0.145821 0.605426 -0.248032
-0.142722 0.605550 -0.248038
-0.139588 0.605487 -0.247981
-0.136485 0.605534 -0.247965
-0.133346 0.605383 -0.247881
-0.130253 0.605419 -0.247866
-0.127259 0.605927 -0.248020
-0.124220 0.606199 -0.248093
-0.121006 0.605527 -0.247833
-0.118011 0.605986 -0.247976
-0.115066 0.606727 -0.248221
-0.111991 0.606734 -0.248208
-0.108835 0.606231 -0.248016
-0.105620 0.605306 -0.247678
-0.102762 0.606561 -0.248112
-0.099876 0.607691 -0.248503
-0.096710 0.606979 -0.248245
-0.093598 0.606570 -0.248096
-0.090554 0.606606 -0.248105
-0.087495 0.606507 -0.248068
-0.084304 0.605343 -0.247656
-0.081269 0.605336 -0.247655
-0.078253 0.605463 -0.247703
-0.075316 0.606278 -0.247996
-0.072351 0.606898 -0.248221
-0.069350 0.607201 -0.248335
-0.066125 0.605229 -0.247645
-0.063194 0.606185 -0.247993
-0.060190 0.606411 -0.248084
-0.057118 0.605819 -0.247886
-0.054093 0.605732 -0.247868
-0.051091 0.605924 -0.247950
-0.048104 0.606353 -0.248118
-0.045127 0.606986 -0.248358
-0.042156 0.607799 -0.248663
-0.039111 0.607376 -0.248532
-0.036029 0.606094 -0.248098
-0.033019 0.606155 -0.248140
-0.029955 0.604818 -0.247688
-0.026941 0.604558 -0.247618
-0.023970 0.605622 -0.248019
-0.020962 0.605616 -0.248041
-0.017934 0.604595 -0.247705
-0.014967 0.606989 -0.248580
-0.011930 0.604539 -0.247739
-0.008931 0.605181 -0.247994
-0.005927 0.605160 -0.248016
-0.002922 0.605233 -0.248072
0.000087 0.605599 -0.248233
0.003092 0.605398 -0.248193
0.006092 0.605095 -0.248119
0.009100 0.605179 -0.248182
0.012109 0.605291 -0.248257
0.015122 0.605432 -0.248343
0.018111 0.604942 -0.248206
0.021135 0.605328 -0.248380
0.024130 0.605018 -0.248309
0.027111 0.604501 -0.248165
0.030160 0.605211 -0.248458
0.033160 0.605021 -0.248432
0.036158 0.604806 -0.248399
0.039154 0.604580 -0.248362
0.042183 0.604784 -0.248480
0.045246 0.605358 -0.248730
0.048264 0.605335 -0.248770
0.051277 0.605246 -0.248787
0.054245 0.604689 -0.248639
0.057224 0.604275 -0.248542
0.060403 0.605720 -0.249109
0.063454 0.605899 -0.249227
0.066453 0.605591 -0.249172
0.069423 0.605066 -0.249042
0.072722 0.607114 -0.249830
0.075532 0.605324 -0.249252
0.078534 0.605030 -0.249208
0.081619 0.605317 -0.249373
0.084636 0.605102 -0.249361
0.087487 0.603796 -0.248961
0.090499 0.603564 -0.248946
0.093587 0.603792 -0.249097
0.096626 0.603688 -0.249131
0.099713 0.603843 -0.249260
0.102814 0.604047 -0.249408
0.105893 0.604088 -0.249500
0.108941 0.603939 -0.249526
0.111976 0.603709 -0.249525
0.115106 0.603939 -0.249691
0.118250 0.604198 -0.249869
0.121284 0.603888 -0.249846
0.124208 0.603049 -0.249636
0.127224 0.602645 -0.249585
0.130392 0.602905 -0.249773
0.133664 0.603577 -0.250112
0.136584 0.602688 -0.249894
0.139745 0.602811 -0.250041
0.142770 0.602341 -0.249978
0.145795 0.601856 -0.249913
0.149021 0.602147 -0.250129
0.152376 0.602887 -0.250510
0.155353 0.602140 -0.250359
0.158304 0.601290 -0.250174
0.161609 0.601722 -0.250454
0.165255 0.603314 -0.251155
0.168312 0.602749 -0.251082
0.171699 0.603302 -0.251417
0.174789 0.602794 -0.251371
0.177963 0.602546 -0.251423
0.181320 0.602858 -0.251681
0.184555 0.602729 -0.251784
0.187735 0.602394 -0.251815
0.192039 0.605500 -0.253097
0.195213 0.605025 -0.253086
0.198226 0.604044 -0.252895
0.201154 0.602801 -0.252612
0.203929 0.601109 -0.252169
0.207419 0.601465 -0.252474
0.210768 0.601368 -0.252619
0.214778 0.603056 -0.253419
0.217878 0.602174 -0.253286
0.221931 0.603823 -0.254081
0.225197 0.603303 -0.254089
0.228284 0.602289 -0.253919
0.231645 0.601960 -0.254003
0.235332 0.602418 -0.254380
0.240018 0.605303 -0.255651
0.243688 0.605571 -0.255967
0.246477 0.603659 -0.255485
0.252314 0.609020 -0.257682
0.255296 0.607483 -0.257345
0.257487 0.604114 -0.256334
0.263813 0.610248 -0.258831
0.266371 0.607684 -0.258122
0.269593 0.606630 -0.257971
0.270878 0.601319 -0.256245
0.277748 0.608214 -0.259040
0.281258 0.607716 -0.259098
0.284431 0.606497 -0.258887
0.287035 0.604101 -0.258238
0.290978 0.604503 -0.258627
0.294300 0.603620 -0.258536
0.298395 0.604297 -0.259024
0.303159 0.606281 -0.259997
0.303577 0.599706 -0.257768
0.308246 0.601519 -0.258668
0.311989 0.601527 -0.258887
0.315850 0.601775 -0.259189
0.318881 0.600488 -0.258907
0.322618 0.600560 -0.259127
0.328061 0.603781 -0.260519
0.330587 0.601700 -0.259910
0.329818 0.593818 -0.257104
0.335875 0.598224 -0.258910
0.338313 0.596258 -0.258303
