ply
format ascii 1.0
comment ---
element vertex 1677
property float x
property float y
property float z
element face 0
property list uchar uint vertex_indices
end_header
0.288527 0.597250 -0.354155
0.291174 0.595758 -0.353377
0.294140 0.594950 -0.353001
0.298487 0.596816 -0.354259
0.302286 0.597662 -0.354862
0.304910 0.596371 -0.354117
0.306294 0.592886 -0.351989
0.310744 0.595082 -0.353356
0.313717 0.594638 -0.353063
0.316375 0.593703 -0.352441
0.318972 0.592735 -0.351774
0.320804 0.590513 -0.350307
0.323297 0.589532 -0.349584
0.328159 0.592680 -0.351392
0.332742 0.595361 -0.352886
0.333622 0.591833 -0.350516
0.336176 0.591216 -0.349923
-0.320443 0.591713 -0.341226
-0.320129 0.596257 -0.344290
-0.317849 0.597282 -0.345215
-0.314963 0.597252 -0.345483
-0.311855 0.596871 -0.345516
-0.308251 0.595595 -0.344985
-0.305448 0.595917 -0.345397
-0.302792 0.596597 -0.346003
-0.299651 0.596398 -0.346055
-0.296311 0.595861 -0.345878
-0.293928 0.597312 -0.346883
-0.291741 0.599256 -0.348164
-0.288280 0.598673 -0.347892
-0.284500 0.597464 -0.347217
-0.280896 0.596659 -0.346764
-0.278964 0.599466 -0.348481
-0.276728 0.601734 -0.349850
-0.273299 0.601490 -0.349674
-0.269713 0.600938 -0.349293
-0.264888 0.597622 -0.347216
-0.261854 0.598345 -0.347571
-0.260276 0.602487 -0.349979
-0.255485 0.599248 -0.347899
-0.252718 0.600754 -0.348679
-0.249728 0.601792 -0.349160
-0.245914 0.600866 -0.348438
-0.242076 0.599873 -0.347665
-0.238573 0.599707 -0.347381
-0.235267 0.600050 -0.347394
-0.231722 0.599788 -0.347033
-0.228913 0.601463 -0.347832
-0.225557 0.601728 -0.347774
-0.220687 0.597881 -0.345231
-0.218061 0.600102 -0.346340
-0.214581 0.599990 -0.346039
-0.211352 0.600581 -0.346158
-0.207854 0.600395 -0.345806
-0.204170 0.599635 -0.345109
-0.201291 0.601251 -0.345837
-0.197791 0.601002 -0.345445
-0.194414 0.601100 -0.345262
-0.191146 0.601526 -0.345275
-0.187899 0.602010 -0.345325
-0.184763 0.602847 -0.345587
-0.181101 0.601917 -0.344795
-0.177684 0.601761 -0.344469
-0.174669 0.602967 -0.344959
-0.170968 0.601744 -0.344003
-0.167823 0.602460 -0.344207
-0.164197 0.601377 -0.343344
-0.161472 0.603641 -0.344478
-0.157625 0.601601 -0.343055
-0.154996 0.604276 -0.344441
-0.151470 0.603386 -0.343712
-0.147711 0.601447 -0.342366
-0.144904 0.603428 -0.343354
-0.141817 0.604249 -0.343657
-0.138243 0.602887 -0.342671
-0.134810 0.602067 -0.342012
-0.131622 0.602312 -0.341991
-0.128591 0.603290 -0.342408
-0.125351 0.603245 -0.342226
-0.122214 0.603681 -0.342333
-0.118517 0.601156 -0.340695
-0.115430 0.601745 -0.340905
-0.112401 0.602650 -0.341307
-0.109383 0.603637 -0.341763
-0.106149 0.603360 -0.341478
-0.102920 0.603059 -0.341184
-0.099780 0.603263 -0.341194
-0.096525 0.602682 -0.340746
-0.093433 0.603126 -0.340908
-0.090506 0.604734 -0.341762
-0.087163 0.603376 -0.340873
-0.084043 0.603564 -0.340901
-0.080916 0.603680 -0.340892
-0.077735 0.603316 -0.340605
-0.074711 0.604244 -0.341084
-0.071525 0.603746 -0.340729
-0.068268 0.602464 -0.339917
-0.065008 0.600987 -0.338996
-0.061889 0.600805 -0.338843
-0.058841 0.601377 -0.339139
-0.055781 0.601840 -0.339375
-0.052742 0.602591 -0.339785
-0.049705 0.603449 -0.340263
-0.046639 0.603971 -0.340549
-0.043533 0.603886 -0.340482
-0.040244 0.600495 -0.338475
-0.037057 0.598352 -0.337207
-0.033867 0.595613 -0.335594
-0.031208 0.605315 -0.341303
-0.028067 0.604131 -0.340613
-0.024891 0.601282 -0.338949
-0.021846 0.602531 -0.339701
-0.018751 0.601831 -0.339310
-0.015771 0.608786 -0.343427
-0.012645 0.607331 -0.342601
-0.009536 0.606335 -0.342050
-0.006446 0.601089 -0.339002
-0.003394 0.598285 -0.337395
-0.000398 0.593362 -0.334545
0.002722 0.598308 -0.337509
0.005838 0.600785 -0.339025
0.009015 0.604450 -0.341246
0.012253 0.608762 -0.343853
0.015442 0.610623 -0.345022
0.018543 0.609984 -0.344722
0.021654 0.609690 -0.344630
0.024361 0.602023 -0.340196
0.027783 0.607588 -0.343568
0.030669 0.604013 -0.341554
0.033875 0.605466 -0.342511
0.036718 0.601920 -0.340522
0.039633 0.599684 -0.339310
0.042931 0.602113 -0.340858
0.046212 0.604040 -0.342115
0.049401 0.604782 -0.342677
0.052586 0.605374 -0.343156
0.055195 0.600529 -0.340424
0.058100 0.598724 -0.339494
0.061902 0.604618 -0.343125
0.065235 0.606176 -0.344197
0.068090 0.603882 -0.342992
0.071052 0.602521 -0.342344
0.074155 0.602246 -0.342345
0.077480 0.603476 -0.343245
0.080403 0.601920 -0.342496
0.083305 0.600304 -0.341716
0.085929 0.597035 -0.339958
0.088255 0.592164 -0.337251
0.090983 0.589887 -0.336090
0.095022 0.595090 -0.339385
0.099342 0.601475 -0.343395
0.103031 0.604113 -0.345181
0.106553 0.605705 -0.346351
0.109401 0.603800 -0.345441
0.111550 0.598556 -0.342542
0.114301 0.596403 -0.341491
0.118053 0.598947 -0.343253
0.122045 0.602409 -0.345574
0.125104 0.601563 -0.345323
0.128269 0.601173 -0.345351
0.131595 0.601435 -0.345775
0.133318 0.595090 -0.342240
0.136346 0.594211 -0.341989
0.140547 0.597920 -0.344502
0.145030 0.602509 -0.347554
0.147479 0.599248 -0.345888
0.149892 0.595950 -0.344203
0.155182 0.603083 -0.348814
0.158266 0.602127 -0.348554
0.161855 0.602912 -0.349351
0.163762 0.597941 -0.346671
0.167169 0.598101 -0.347099
0.170344 0.597459 -0.347046
0.173839 0.597827 -0.347611
0.178220 0.600923 -0.349837
0.182329 0.603037 -0.351475
0.185404 0.601911 -0.351148
0.188522 0.600921 -0.350906
0.192161 0.601451 -0.351594
0.195699 0.601644 -0.352080
0.198242 0.598991 -0.350830
0.201055 0.597145 -0.350073
0.204368 0.596697 -0.350171
0.207291 0.595190 -0.349621
0.210503 0.594468 -0.349551
0.214736 0.596403 -0.351112
0.217666 0.594920 -0.350573
0.221853 0.596631 -0.351997
0.225600 0.597183 -0.352706
0.229429 0.597905 -0.353517
0.232591 0.596988 -0.353314
0.235791 0.596178 -0.353170
0.239943 0.597614 -0.354408
0.243362 0.597313 -0.354565
0.246903 0.597299 -0.354892
0.250181 0.596699 -0.354845
0.254029 0.597382 -0.355584
0.257458 0.597141 -0.355738
0.259865 0.594717 -0.354521
0.263716 0.595444 -0.355249
0.267421 0.595865 -0.355772
0.270924 0.595878 -0.356025
0.274434 0.595932 -0.356287
0.278015 0.596158 -0.356638
0.280984 0.595187 -0.356223
0.284692 0.595733 -0.356735
0.289023 0.597523 -0.358003
0.291652 0.596027 -0.357197
0.294865 0.595724 -0.357113
0.299279 0.597741 -0.358458
0.303483 0.599371 -0.359538
0.306056 0.598001 -0.358717
0.307228 0.594154 -0.356321
0.312886 0.598558 -0.359063
0.314159 0.595071 -0.356844
0.316333 0.593310 -0.355680
0.319282 0.593002 -0.355401
0.321762 0.591941 -0.354627
0.325372 0.592909 -0.355096
0.329866 0.595433 -0.356513
0.332823 0.595367 -0.356288
0.334173 0.592662 -0.354392
0.335334 0.589750 -0.352346
-0.317430 0.591122 -0.344457
-0.317617 0.596667 -0.348156
-0.314926 0.596964 -0.348641
-0.311801 0.596507 -0.348645
-0.307515 0.593884 -0.347304
-0.304645 0.594018 -0.347622
-0.303008 0.596634 -0.349435
-0.299958 0.596576 -0.349591
-0.296089 0.594944 -0.348761
-0.293030 0.594979 -0.348927
-0.291228 0.597639 -0.350678
-0.288477 0.598463 -0.351283
-0.284332 0.596454 -0.350129
-0.280677 0.595488 -0.349593
-0.278765 0.598283 -0.351338
-0.275943 0.599227 -0.351928
-0.273003 0.599987 -0.352384
-0.269509 0.599583 -0.352108
-0.265602 0.598285 -0.351263
-0.261203 0.595874 -0.349719
-0.258374 0.597058 -0.350359
-0.255850 0.599024 -0.351460
-0.252729 0.599656 -0.351729
-0.249351 0.599720 -0.351634
-0.245180 0.597873 -0.350357
-0.241430 0.597034 -0.349684
-0.238542 0.598352 -0.350316
-0.235583 0.599542 -0.350860
-0.232471 0.600384 -0.351180
-0.229183 0.600794 -0.351227
-0.226116 0.601808 -0.351634
-0.222578 0.601578 -0.351276
-0.218464 0.599752 -0.349941
-0.215157 0.600119 -0.349936
-0.211741 0.600178 -0.349739
-0.207597 0.598115 -0.348250
-0.204591 0.599325 -0.348748
-0.201544 0.600433 -0.349181
-0.198337 0.601076 -0.349330
-0.194324 0.599213 -0.347960
-0.191498 0.601018 -0.348813
-0.188341 0.601795 -0.349043
-0.184604 0.600670 -0.348124
-0.181102 0.600256 -0.347637
-0.178117 0.601567 -0.348195
-0.174835 0.601861 -0.348142
-0.171585 0.602247 -0.348147
-0.168190 0.602091 -0.347828
-0.165146 0.603193 -0.348271
-0.161912 0.603588 -0.348292
-0.158545 0.603445 -0.347993
-0.155180 0.603268 -0.347679
-0.151963 0.603645 -0.347702
-0.148585 0.603334 -0.347318
-0.144824 0.601342 -0.345929
-0.141543 0.601302 -0.345719
-0.138411 0.601883 -0.345885
-0.135265 0.602389 -0.346012
-0.132193 0.603232 -0.346346
-0.128753 0.602303 -0.345625
-0.125684 0.603121 -0.345955
-0.122457 0.603137 -0.345810
-0.119247 0.603205 -0.345702
-0.115859 0.602279 -0.345006
-0.112653 0.602262 -0.344859
-0.109548 0.602782 -0.345039
-0.106264 0.602243 -0.344592
-0.103204 0.602992 -0.344919
-0.100059 0.603211 -0.344936
-0.096819 0.602786 -0.344574
-0.093647 0.602750 -0.344450
-0.090566 0.603317 -0.344691
-0.087280 0.602384 -0.344043
-0.084382 0.604289 -0.345092
-0.081055 0.602912 -0.344191
-0.078041 0.603973 -0.344747
-0.074942 0.604349 -0.344901
-0.071578 0.602307 -0.343621
-0.068330 0.601131 -0.342862
-0.065166 0.600634 -0.342512
-0.061960 0.599591 -0.341843
-0.058871 0.599710 -0.341870
-0.055964 0.602010 -0.343200
-0.052876 0.602238 -0.343302
-0.049787 0.602465 -0.343409
-0.046764 0.603663 -0.344098
-0.043570 0.602246 -0.343237
-0.040421 0.601330 -0.342679
-0.037111 0.597027 -0.340112
-0.034061 0.597381 -0.340318
-0.031199 0.602453 -0.343336
-0.028146 0.603543 -0.343990
-0.024884 0.597980 -0.340692
-0.021851 0.599343 -0.341519
-0.018797 0.600246 -0.342075
-0.015601 0.591700 -0.337018
-0.012612 0.596499 -0.339902
-0.009562 0.597991 -0.340824
-0.006495 0.599840 -0.341963
-0.003440 0.597198 -0.340434
-0.000255 0.607295 -0.346491
0.002727 0.599882 -0.342133
0.005812 0.600321 -0.342452
0.008921 0.601441 -0.343182
0.012246 0.608582 -0.347502
0.015425 0.610002 -0.348420
0.018489 0.608459 -0.347579
0.021383 0.603767 -0.344866
0.024864 0.610662 -0.349062
0.027593 0.603798 -0.345063
0.031024 0.608757 -0.348116
0.034052 0.607231 -0.347309
0.036960 0.604311 -0.345673
0.039911 0.602271 -0.344566
0.043218 0.604556 -0.346046
0.046451 0.605731 -0.346869
0.049729 0.607215 -0.347883
0.052745 0.605948 -0.347257
0.055929 0.606336 -0.347626
0.058835 0.604196 -0.346488
0.062168 0.605814 -0.347603
0.065060 0.603703 -0.346492
0.068235 0.603921 -0.346779
0.071420 0.604159 -0.347084
0.074454 0.603264 -0.346716
0.077437 0.602056 -0.346164
0.080253 0.599788 -0.344982
0.083338 0.599363 -0.344910
0.085837 0.595310 -0.342664
0.088830 0.594439 -0.342333
0.091876 0.593889 -0.342201
0.095767 0.598076 -0.344925
0.100041 0.604060 -0.348739
0.103483 0.605267 -0.349686
0.106588 0.604639 -0.349533
0.109237 0.601731 -0.348010
0.111150 0.595360 -0.344399
0.113779 0.592678 -0.343019
0.118397 0.599263 -0.347245
0.121672 0.599447 -0.347609
0.124525 0.597731 -0.346830
0.128155 0.599385 -0.348097
0.131335 0.599039 -0.348160
0.134857 0.600070 -0.349063
0.137944 0.599280 -0.348867
0.141481 0.600240 -0.349741
0.144822 0.600377 -0.350121
0.148021 0.599934 -0.350154
0.151536 0.600631 -0.350887
0.154929 0.600819 -0.351317
0.158938 0.603130 -0.353048
0.161645 0.600828 -0.351969
0.164405 0.598757 -0.351034
0.167682 0.598439 -0.351175
0.170806 0.597601 -0.351002
0.174792 0.599504 -0.352515
0.178298 0.599802 -0.353048
0.181851 0.600199 -0.353647
0.185279 0.600169 -0.353989
0.188637 0.599900 -0.354186
0.192183 0.600157 -0.354711
0.196373 0.602217 -0.356352
0.199101 0.600066 -0.355397
0.201755 0.597751 -0.354338
0.205464 0.598358 -0.355087
0.209246 0.599118 -0.355932
0.211561 0.595963 -0.354350
0.214794 0.595267 -0.354290
0.219194 0.597553 -0.356081
0.222576 0.597195 -0.356228
0.226565 0.598334 -0.357303
0.231259 0.601149 -0.359421
0.232908 0.596552 -0.356911
0.236773 0.597330 -0.357747
0.239784 0.596088 -0.357314
0.244542 0.598902 -0.359411
0.248147 0.599025 -0.359815
0.251501 0.598586 -0.359856
0.254544 0.597480 -0.359468
0.256098 0.593170 -0.357053
0.261257 0.596742 -0.359575
0.265041 0.597322 -0.360203
0.268456 0.597134 -0.360333
0.271552 0.596316 -0.360048
0.275120 0.596513 -0.360385
0.278478 0.596308 -0.360450
0.281814 0.596102 -0.360494
0.284971 0.595583 -0.360320
0.287578 0.594043 -0.359480
0.292061 0.596198 -0.360950
0.294934 0.595279 -0.360457
0.298401 0.595549 -0.360691
0.303904 0.599660 -0.363329
0.304228 0.594177 -0.359880
0.310980 0.600605 -0.363933
0.310876 0.594553 -0.360076
0.313699 0.593922 -0.359620
0.316839 0.593922 -0.359538
0.319072 0.592387 -0.358462
0.322039 0.592216 -0.358224
0.324374 0.591018 -0.357313
0.329058 0.593917 -0.358962
0.333024 0.595607 -0.359824
0.334925 0.593860 -0.358497
-0.316848 0.595086 -0.350485
-0.314502 0.595980 -0.351357
-0.309812 0.592506 -0.349519
-0.306907 0.592455 -0.349765
-0.304372 0.593184 -0.350470
-0.303376 0.597005 -0.353061
-0.300634 0.597519 -0.353590
-0.296824 0.595978 -0.352827
-0.292741 0.593915 -0.351717
-0.290035 0.594677 -0.352330
-0.287147 0.595144 -0.352739
-0.283657 0.594425 -0.352391
-0.280877 0.595243 -0.352971
-0.277747 0.595390 -0.353114
-0.274974 0.596366 -0.353749
-0.271431 0.595731 -0.353365
-0.269028 0.597655 -0.354545
-0.265459 0.597058 -0.354144
-0.262002 0.596742 -0.353899
-0.258728 0.596878 -0.353914
-0.255927 0.598161 -0.354621
-0.252534 0.598107 -0.354485
-0.248521 0.596597 -0.353432
-0.245028 0.596335 -0.353137
-0.241480 0.595953 -0.352753
-0.237864 0.595407 -0.352257
-0.235618 0.598346 -0.353899
-0.232556 0.599278 -0.354291
-0.229355 0.599886 -0.354472
-0.226249 0.600771 -0.354815
-0.222196 0.599126 -0.353593
-0.218916 0.599550 -0.353638
-0.215678 0.600101 -0.353755
-0.211707 0.598580 -0.352593
-0.208254 0.598497 -0.352312
-0.204728 0.598185 -0.351886
-0.201456 0.598604 -0.351908
-0.199093 0.601790 -0.353623
-0.196057 0.602989 -0.354118
-0.192822 0.603579 -0.354239
-0.188137 0.599500 -0.351504
-0.184568 0.598901 -0.350900
-0.181609 0.600290 -0.351513
-0.178679 0.601804 -0.352203
-0.175788 0.603483 -0.352995
-0.171269 0.599425 -0.350291
-0.168309 0.600809 -0.350909
-0.165298 0.602033 -0.351432
-0.162078 0.602483 -0.351487
-0.158606 0.601943 -0.350944
-0.155288 0.601952 -0.350739
-0.152421 0.603745 -0.351623
-0.148584 0.601575 -0.350104
-0.145509 0.602487 -0.350462
-0.142631 0.604258 -0.351346
-0.138707 0.601429 -0.349445
-0.135741 0.602784 -0.350086
-0.132498 0.602878 -0.349968
-0.129247 0.602891 -0.349807
-0.125844 0.602117 -0.349176
-0.122736 0.602760 -0.349407
-0.119425 0.602333 -0.348997
-0.115690 0.599563 -0.347177
-0.112650 0.600439 -0.347567
-0.110056 0.603870 -0.349504
-0.106547 0.602090 -0.348300
-0.103357 0.602092 -0.348178
-0.100308 0.602943 -0.348574
-0.097188 0.603349 -0.348707
-0.093964 0.603044 -0.348417
-0.090604 0.601724 -0.347521
-0.087649 0.603207 -0.348320
-0.084385 0.602430 -0.347762
-0.081340 0.603280 -0.348191
-0.078155 0.603001 -0.347944
-0.075102 0.603810 -0.348359
-0.071721 0.601664 -0.347000
-0.068481 0.600611 -0.346305
-0.065477 0.601791 -0.346958
-0.062493 0.603270 -0.347796
-0.059287 0.602381 -0.347216
-0.056087 0.601414 -0.346594
-0.053001 0.601735 -0.346752
-0.049918 0.602114 -0.346949
-0.046850 0.602732 -0.347295
-0.043728 0.602535 -0.347157
-0.040551 0.601305 -0.346403
-0.037412 0.600510 -0.345916
-0.034203 0.597980 -0.344390
-0.031149 0.598551 -0.344733
-0.028051 0.598004 -0.344410
-0.025027 0.599671 -0.345422
-0.021938 0.599423 -0.345288
-0.018844 0.598710 -0.344878
-0.015825 0.602703 -0.347304
-0.012636 0.592289 -0.341072
-0.009606 0.595282 -0.342905
-0.006545 0.597439 -0.344241
-0.003451 0.601181 -0.346536
-0.000341 0.602883 -0.347608
0.002781 0.604262 -0.348492
0.005793 0.600215 -0.346116
0.008898 0.600917 -0.346602
0.012042 0.602537 -0.347645
0.015233 0.604896 -0.349139
0.018246 0.602625 -0.347849
0.021411 0.603884 -0.348690
0.024684 0.606822 -0.350549
0.027906 0.608369 -0.351575
0.030934 0.606669 -0.350649
0.034033 0.606198 -0.350469
0.036960 0.603507 -0.348954
0.040106 0.603809 -0.349249
0.043424 0.606032 -0.350710
0.046668 0.607158 -0.351513
0.049613 0.605056 -0.350373
0.052774 0.605245 -0.350622
0.055850 0.604595 -0.350368
0.059081 0.605333 -0.350959
0.062271 0.605621 -0.351283
0.065188 0.603657 -0.350250
0.068145 0.602135 -0.349489
0.071397 0.602878 -0.350105
0.074436 0.602009 -0.349749
0.077390 0.600592 -0.349067
0.080368 0.599393 -0.348522
0.083419 0.598710 -0.348294
0.086772 0.599896 -0.349207
0.089985 0.600138 -0.349553
0.092929 0.598773 -0.348928
0.096343 0.600084 -0.349935
0.099890 0.602000 -0.351318
0.103084 0.601912 -0.351488
0.106108 0.600914 -0.351108
0.108698 0.597774 -0.349428
0.111610 0.596326 -0.348783
0.114640 0.595477 -0.348509
0.118644 0.599110 -0.350981
0.122480 0.601770 -0.352866
0.123987 0.594071 -0.348419
0.128942 0.601429 -0.353194
0.132211 0.601369 -0.353435
0.135032 0.599454 -0.352544
0.138143 0.598736 -0.352393
0.141148 0.597599 -0.351989
0.144564 0.598043 -0.352562
0.148411 0.600033 -0.354094
0.151621 0.599580 -0.354127
0.155753 0.602401 -0.356186
0.158703 0.600932 -0.355605
0.161722 0.599718 -0.355186
0.164508 0.597734 -0.354294
0.167361 0.596009 -0.353565
0.172330 0.601169 -0.357105
0.175840 0.601461 -0.357637
0.178896 0.600295 -0.357268
0.181809 0.598699 -0.356635
0.185281 0.598808 -0.357064
0.188599 0.598425 -0.357190
0.192815 0.600635 -0.358935
0.196317 0.600699 -0.359346
0.199224 0.599066 -0.358699
0.202248 0.597782 -0.358269
0.205959 0.598382 -0.359018
0.209184 0.597640 -0.358927
0.212510 0.597167 -0.359002
0.216166 0.597541 -0.359607
0.219751 0.597709 -0.360082
0.222876 0.596702 -0.359813
0.226409 0.596719 -0.360185
0.229788 0.596354 -0.360311
0.234815 0.599943 -0.362925
0.237352 0.597540 -0.361753
0.240935 0.597640 -0.362152
0.244672 0.598092 -0.362765
0.247701 0.596934 -0.362348
0.250987 0.596388 -0.362307
0.254887 0.597221 -0.363128
0.258071 0.596489 -0.362943
0.261412 0.596133 -0.362982
0.265517 0.597423 -0.364051
0.268829 0.597044 -0.364043
0.271706 0.595804 -0.363468
0.274963 0.595399 -0.363407
0.279040 0.596692 -0.364407
0.282128 0.596019 -0.364134
0.283932 0.592869 -0.362261
0.287997 0.594237 -0.363246
0.292120 0.595728 -0.364288
0.294761 0.594412 -0.363515
0.297301 0.592979 -0.362645
0.301094 0.593964 -0.363293
0.304696 0.594628 -0.363713
0.306002 0.591138 -0.361457
0.309598 0.591914 -0.361900
0.312349 0.591217 -0.361377
0.315700 0.591654 -0.361554
0.320862 0.595321 -0.363765
0.320748 0.589796 -0.360094
0.323617 0.589577 -0.359780
0.328066 0.592118 -0.361201
0.331940 0.593703 -0.361987
-0.312018 0.591157 -0.351664
-0.309024 0.590822 -0.351774
-0.306407 0.591269 -0.352348
-0.305105 0.594337 -0.354532
-0.302407 0.594800 -0.355074
-0.300606 0.597111 -0.356745
-0.295562 0.593063 -0.354430
-0.292499 0.592986 -0.354567
-0.289920 0.593958 -0.355336
-0.287378 0.595088 -0.356181
-0.284225 0.595029 -0.356261
-0.280870 0.594603 -0.356089
-0.277306 0.593776 -0.355645
-0.273991 0.593522 -0.355536
-0.271261 0.594590 -0.356233
-0.268313 0.595253 -0.356655
-0.265758 0.596862 -0.357648
-0.262952 0.597984 -0.358317
-0.259595 0.597913 -0.358222
-0.256248 0.597902 -0.358145
-0.251245 0.594012 -0.355628
-0.248138 0.594589 -0.355885
-0.245480 0.596299 -0.356835
-0.242174 0.596489 -0.356820
-0.238728 0.596357 -0.356590
-0.235723 0.597356 -0.357054
-0.232718 0.598402 -0.357534
-0.229941 0.600087 -0.358402
-0.223999 0.593426 -0.354063
-0.221210 0.595068 -0.354886
-0.218935 0.598174 -0.356611
-0.216050 0.599682 -0.357334
-0.212144 0.598341 -0.356281
-0.208563 0.597883 -0.355772
-0.205058 0.597622 -0.355381
-0.201679 0.597716 -0.355208
-0.199102 0.600237 -0.356536
-0.196341 0.602261 -0.357553
-0.192712 0.601607 -0.356911
-0.188769 0.599897 -0.355616
-0.185224 0.599399 -0.355072
-0.182332 0.601036 -0.355847
-0.178807 0.600557 -0.355317
-0.176057 0.602719 -0.356419
-0.172322 0.601452 -0.355407
-0.168496 0.599773 -0.354146
-0.165491 0.601019 -0.354689
-0.162256 0.601415 -0.354713
-0.158025 0.597959 -0.352372
-0.155879 0.602527 -0.354967
-0.152447 0.602087 -0.354489
-0.149293 0.602730 -0.354680
-0.145576 0.600994 -0.353417
-0.142171 0.600483 -0.352910
-0.139156 0.601639 -0.353430
-0.136060 0.602442 -0.353739
-0.132970 0.603279 -0.354074
-0.129767 0.603579 -0.354084
-0.126151 0.601820 -0.352842
-0.122752 0.601023 -0.352194
-0.119603 0.601442 -0.352295
-0.116084 0.599863 -0.351181
-0.113285 0.602117 -0.352414
-0.109525 0.599007 -0.350377
-0.106707 0.601186 -0.351575
-0.103652 0.602034 -0.351966
-0.100523 0.602433 -0.352088
-0.097362 0.602613 -0.352083
-0.094150 0.602427 -0.351860
-0.090886 0.601813 -0.351382
-0.087785 0.602297 -0.351579
-0.084627 0.602355 -0.351522
-0.081431 0.602072 -0.351264
-0.078453 0.603522 -0.352065
-0.075125 0.602049 -0.351093
-0.071891 0.601240 -0.350531
-0.068844 0.602090 -0.350984
-0.065770 0.602723 -0.351310
-0.062648 0.602881 -0.351353
-0.059413 0.601741 -0.350611
-0.056259 0.601379 -0.350349
-0.053108 0.600979 -0.350069
-0.050123 0.602744 -0.351109
-0.047037 0.603261 -0.351396
-0.043946 0.603756 -0.351676
-0.040784 0.603046 -0.351228
-0.037532 0.600397 -0.349607
-0.034396 0.599608 -0.349122
-0.031237 0.598017 -0.348155
-0.028184 0.598881 -0.348683
-0.025173 0.601388 -0.350216
-0.022031 0.599712 -0.349212
-0.018930 0.599116 -0.348869
-0.015902 0.603151 -0.351345
-0.012789 0.602422 -0.350931
-0.009678 0.600111 -0.349561
-0.006589 0.599589 -0.349283
-0.003496 0.600311 -0.349766
-0.000390 0.601553 -0.350570
0.002705 0.601311 -0.350477
0.005797 0.601061 -0.350385
0.008842 0.599241 -0.349342
0.011915 0.598770 -0.349124
0.015019 0.599210 -0.349466
0.018167 0.600501 -0.350330
0.021328 0.601740 -0.351169
0.024529 0.603428 -0.352286
0.027718 0.604600 -0.353095
0.030836 0.604460 -0.353109
0.033753 0.601475 -0.351395
0.036837 0.601066 -0.351255
0.040040 0.602135 -0.352022
0.043084 0.601213 -0.351580
0.046093 0.599984 -0.350956
0.049173 0.599579 -0.350838
0.052310 0.599738 -0.351072
0.055549 0.600783 -0.351851
0.058679 0.600737 -0.351969
0.061958 0.601919 -0.352844
0.065168 0.602398 -0.353295
0.068219 0.601590 -0.352964
0.071273 0.600824 -0.352664
0.074399 0.600594 -0.352697
0.077475 0.600007 -0.352517
0.080653 0.600098 -0.352759
0.083755 0.599662 -0.352682
0.086881 0.599363 -0.352696
0.090147 0.599882 -0.353217
0.093379 0.600137 -0.353583
0.096499 0.599715 -0.353538
0.099688 0.599650 -0.353719
0.102890 0.599622 -0.353928
0.106067 0.599430 -0.354042
0.109106 0.598524 -0.353722
0.111963 0.596749 -0.352872
0.115910 0.600167 -0.355231
0.119013 0.599495 -0.355074
0.121450 0.595839 -0.353076
0.125962 0.601379 -0.356772
0.129030 0.600465 -0.356483
0.132311 0.600443 -0.356751
0.135531 0.600134 -0.356848
0.138398 0.598399 -0.356065
0.141713 0.598441 -0.356391
0.145500 0.600241 -0.357815
0.148867 0.600360 -0.358201
0.152410 0.601081 -0.358968
0.155514 0.600168 -0.358723
0.158761 0.599752 -0.358792
0.162538 0.601133 -0.359988
0.165599 0.600022 -0.359634
0.168551 0.598555 -0.359060
0.172292 0.599660 -0.360100
0.175951 0.600430 -0.360935
0.179040 0.599363 -0.360623
0.182378 0.599064 -0.360795
0.185524 0.598168 -0.360595
0.188992 0.598223 -0.360995
0.192044 0.597040 -0.360618
0.196075 0.598658 -0.362008
0.199409 0.598245 -0.362119
0.202543 0.597268 -0.361873
0.205685 0.596324 -0.361648
0.209717 0.597760 -0.362927
0.213165 0.597599 -0.363195
0.216566 0.597304 -0.363375
0.219338 0.595407 -0.362534
0.223583 0.597239 -0.364058
0.226636 0.596069 -0.363669
0.230473 0.596829 -0.364502
0.234131 0.597135 -0.365040
0.237840 0.597552 -0.365641
0.241049 0.596793 -0.365483
0.244318 0.596197 -0.365418
0.247366 0.595124 -0.365036
0.250618 0.594548 -0.364960
0.254360 0.595075 -0.365577
0.258079 0.595557 -0.366151
0.261365 0.595119 -0.366119
0.264743 0.594909 -0.366217
0.268304 0.595109 -0.366562
0.271400 0.594376 -0.366288
0.275018 0.594756 -0.366711
0.278786 0.595465 -0.367325
0.281983 0.595058 -0.367201
0.284555 0.593468 -0.366293
0.288689 0.594997 -0.367371
0.291596 0.594176 -0.366912
0.294358 0.593142 -0.366294
0.296877 0.591723 -0.365403
0.300712 0.592836 -0.366119
0.304357 0.593628 -0.366605
0.306379 0.591495 -0.365181
0.308258 0.589200 -0.363630
0.312331 0.590932 -0.364648
0.315764 0.591553 -0.364925
0.319935 0.593515 -0.366041
0.321667 0.591258 -0.364418
0.323187 0.588731 -0.362600
0.326200 0.588862 -0.362468
-0.311038 0.589200 -0.353699
-0.309855 0.592249 -0.355947
-0.307309 0.592809 -0.356615
-0.303727 0.591439 -0.356050
-0.302167 0.594060 -0.357969
-0.299403 0.594422 -0.358448
-0.294714 0.591016 -0.356533
-0.291358 0.590287 -0.356278
-0.289879 0.593430 -0.358441
-0.288117 0.596118 -0.360296
-0.285042 0.596192 -0.360480
-0.280822 0.593917 -0.359160
-0.276717 0.591889 -0.357973
-0.274254 0.593410 -0.359003
-0.271074 0.593455 -0.359080
-0.268314 0.594480 -0.359755
-0.265511 0.595484 -0.360395
-0.262759 0.596673 -0.361133
-0.259934 0.597770 -0.361792
-0.255960 0.596262 -0.360789
-0.253033 0.597221 -0.361324
-0.249078 0.595784 -0.360330
-0.246213 0.596977 -0.360980
-0.243202 0.597876 -0.361428
-0.239506 0.597116 -0.360816
-0.236504 0.598110 -0.361296
-0.233372 0.598818 -0.361583
-0.230116 0.599240 -0.361678
-0.224230 0.592714 -0.357391
-0.221498 0.594481 -0.358314
-0.218902 0.596683 -0.359500
-0.216010 0.598134 -0.360207
-0.212895 0.599001 -0.360538
-0.208941 0.597481 -0.359366
-0.205025 0.596013 -0.358224
-0.202054 0.597295 -0.358801
-0.199128 0.598747 -0.359482
-0.195933 0.599407 -0.359663
-0.191641 0.596627 -0.357691
-0.188847 0.598518 -0.358640
-0.185595 0.598966 -0.358685
-0.183058 0.601784 -0.360211
-0.179971 0.602824 -0.360626
-0.176161 0.601378 -0.359491
-0.172629 0.600826 -0.358917
-0.169021 0.599950 -0.358144
-0.165619 0.599758 -0.357800
-0.162529 0.600700 -0.358165
-0.159503 0.601898 -0.358692
-0.156130 0.601747 -0.358384
-0.152760 0.601571 -0.358065
-0.149588 0.602165 -0.358228
-0.146327 0.602371 -0.358155
-0.142395 0.599662 -0.356279
-0.139247 0.600240 -0.356446
-0.136317 0.601797 -0.357225
-0.133082 0.601983 -0.357160
-0.129717 0.601516 -0.356696
-0.126059 0.599545 -0.355307
-0.123070 0.600800 -0.355919
-0.119756 0.600402 -0.355515
-0.116503 0.600262 -0.355276
-0.112902 0.598162 -0.353833
-0.110142 0.600660 -0.355234
-0.106949 0.600744 -0.355151
-0.104013 0.602349 -0.356010
-0.100812 0.602365 -0.355896
-0.097499 0.601616 -0.355316
-0.094302 0.601546 -0.355161
-0.091159 0.601811 -0.355217
-0.087899 0.601207 -0.354744
-0.084728 0.601188 -0.354637
-0.081705 0.602283 -0.355222
-0.078542 0.602292 -0.355143
-0.075395 0.602397 -0.355130
-0.072249 0.602486 -0.355112
-0.069102 0.602525 -0.355069
-0.065955 0.602533 -0.355013
-0.062826 0.602694 -0.355056
-0.059874 0.604815 -0.356309
-0.056610 0.603449 -0.355425
-0.053305 0.601325 -0.354081
-0.050235 0.602068 -0.354503
-0.047168 0.602931 -0.355004
-0.044073 0.603463 -0.355308
-0.040898 0.602646 -0.354789
-0.037747 0.602067 -0.354420
-0.034633 0.602125 -0.354449
-0.031462 0.600785 -0.353624
-0.028416 0.602487 -0.354673
-0.025298 0.602353 -0.354598
-0.022146 0.600775 -0.353643
-0.019114 0.604436 -0.355910
-0.015948 0.601321 -0.354021
-0.012846 0.601667 -0.354263
-0.009743 0.602750 -0.354962
-0.006632 0.602350 -0.354756
-0.003535 0.600506 -0.353667
-0.000429 0.600959 -0.353995
0.002671 0.600788 -0.353945
0.005794 0.601632 -0.354523
0.008896 0.601420 -0.354458
0.011933 0.599299 -0.353224
0.015052 0.599855 -0.353641
0.018174 0.600295 -0.353992
0.021357 0.601838 -0.355027
0.024488 0.602101 -0.355279
0.027636 0.602573 -0.355666
0.030781 0.602887 -0.355961
0.033867 0.602290 -0.355700
0.037000 0.602361 -0.355856
0.040134 0.602407 -0.356001
0.043495 0.605006 -0.357726
0.046364 0.601957 -0.355974
0.049224 0.599109 -0.354350
0.052529 0.600841 -0.355558
0.055696 0.601093 -0.355857
0.058843 0.601114 -0.356019
0.061894 0.600287 -0.355664
0.065082 0.600595 -0.356015
0.068295 0.601040 -0.356457
0.071452 0.600994 -0.356600
0.074760 0.601987 -0.357393
0.077927 0.601914 -0.357532
0.080954 0.600880 -0.357081
0.083864 0.599144 -0.356199
0.086959 0.598623 -0.356077
0.090252 0.599270 -0.356685
0.093527 0.599741 -0.357190
0.096724 0.599708 -0.357389
0.099797 0.598969 -0.357154
0.102972 0.598773 -0.357263
0.106292 0.599287 -0.357819
0.109658 0.599964 -0.358485
0.113142 0.601138 -0.359466
0.116485 0.601548 -0.359979
0.119535 0.600556 -0.359622
0.123176 0.602214 -0.360926
0.126111 0.600681 -0.360243
0.129198 0.599827 -0.359989
0.132628 0.600399 -0.360634
0.136020 0.600751 -0.361148
0.139175 0.600114 -0.361047
0.142517 0.600188 -0.361398
0.145684 0.599557 -0.361312
0.149070 0.599730 -0.361737
0.152370 0.599549 -0.361944
0.155586 0.599036 -0.361948
0.158812 0.598541 -0.361968
0.162810 0.600672 -0.363650
0.166119 0.600372 -0.363803
0.168921 0.598386 -0.362894
0.172095 0.597640 -0.362772
0.175464 0.597503 -0.363040
0.179256 0.598653 -0.364126
0.182676 0.598597 -0.364452
0.185916 0.597975 -0.364421
0.188887 0.596551 -0.363882
0.192900 0.598163 -0.365275
0.196478 0.598458 -0.365833
0.200207 0.599142 -0.366640
0.203724 0.599194 -0.367044
0.206805 0.598048 -0.366682
0.210267 0.597931 -0.366975
0.213541 0.597307 -0.366941
0.216379 0.595566 -0.366188
0.219631 0.594914 -0.366127
0.223370 0.595491 -0.366851
0.227487 0.596971 -0.368150
0.230846 0.596565 -0.368231
0.234418 0.596679 -0.368638
0.238103 0.597054 -0.369205
0.241881 0.597638 -0.369898
0.244156 0.594772 -0.368352
0.247495 0.594395 -0.368400
0.250766 0.593890 -0.368352
0.254430 0.594277 -0.368868
0.258336 0.595200 -0.369715
0.261522 0.594577 -0.369546
0.264305 0.593143 -0.368832
0.268202 0.594098 -0.369650
0.271354 0.593524 -0.369457
0.274673 0.593336 -0.369495
0.278296 0.593802 -0.369936
0.281891 0.594241 -0.370339
0.284978 0.593710 -0.370090
0.287851 0.592819 -0.369583
0.290763 0.592069 -0.369146
0.293402 0.590863 -0.368388
0.296234 0.590094 -0.367890
0.299896 0.590940 -0.368419
0.303417 0.591559 -0.368776
0.306499 0.591419 -0.368615
0.308637 0.589630 -0.367357
0.312009 0.590141 -0.367571
0.316770 0.593158 -0.369388
0.319479 0.592574 -0.368842
0.321992 0.591717 -0.368095
0.323871 0.589841 -0.366664
-0.310700 0.593738 -0.360161
-0.307181 0.592411 -0.359658
-0.302746 0.589351 -0.358033
-0.299906 0.589411 -0.358362
-0.297366 0.590130 -0.359088
-0.292492 0.586273 -0.356885
-0.291360 0.589933 -0.359436
-0.289816 0.592897 -0.361524
-0.287512 0.594422 -0.362675
-0.284120 0.593777 -0.362423
-0.280366 0.592414 -0.361691
-0.277443 0.592847 -0.362080
-0.273694 0.591566 -0.361354
-0.271854 0.594472 -0.363275
-0.268763 0.594737 -0.363492
-0.264252 0.591888 -0.361702
-0.261088 0.592061 -0.361819
-0.258434 0.593450 -0.362691
-0.256367 0.596283 -0.364464
-0.253395 0.597101 -0.364933
-0.250446 0.598032 -0.365457
-0.247186 0.598270 -0.365522
-0.243821 0.598287 -0.365430
-0.240750 0.599065 -0.365807
-0.236072 0.595827 -0.363614
-0.233590 0.598144 -0.364944
-0.229751 0.597017 -0.364069
-0.226039 0.596201 -0.363383
-0.222559 0.595996 -0.363074
-0.220505 0.599684 -0.365229
-0.216104 0.596985 -0.363318
-0.212939 0.597683 -0.363558
-0.209909 0.598790 -0.364050
-0.205376 0.595544 -0.361777
-0.202484 0.597051 -0.362512
-0.199704 0.598938 -0.363483
-0.196124 0.598420 -0.362928
-0.192536 0.597843 -0.362335
-0.189537 0.599105 -0.362902
-0.186255 0.599478 -0.362906
-0.183338 0.601053 -0.363667
-0.179965 0.601123 -0.363480
-0.176266 0.600050 -0.362572
-0.172759 0.599577 -0.362046
-0.169273 0.599137 -0.361542
-0.165827 0.598793 -0.361101
-0.162774 0.599874 -0.361560
-0.159740 0.601046 -0.362078
-0.156486 0.601375 -0.362069
-0.153108 0.601187 -0.361740
-0.149903 0.601666 -0.361833
-0.146548 0.601500 -0.361526
-0.142857 0.599848 -0.360292
-0.139916 0.601381 -0.361059
-0.136172 0.599324 -0.359584
-0.132897 0.599296 -0.359383
-0.129785 0.600004 -0.359649
-0.126798 0.601325 -0.360302
-0.123275 0.599988 -0.359300
-0.119902 0.599305 -0.358712
-0.116605 0.598951 -0.358336
-0.113506 0.599616 -0.358601
-0.110236 0.599322 -0.358274
-0.107398 0.601487 -0.359485
-0.104269 0.602000 -0.359672
-0.101085 0.602169 -0.359650
-0.097696 0.600976 -0.358785
-0.094496 0.600930 -0.358642
-0.091276 0.600696 -0.358386
-0.088005 0.600035 -0.357871
-0.084887 0.600431 -0.358020
-0.081832 0.601310 -0.358475
-0.078704 0.601636 -0.358591
-0.075549 0.601719 -0.358562
-0.072590 0.603531 -0.359613
-0.069261 0.601986 -0.358583
-0.066051 0.601423 -0.358170
-0.063056 0.603028 -0.359109
-0.059921 0.603208 -0.359168
-0.056805 0.603598 -0.359363
-0.053684 0.603944 -0.359537
-0.050227 0.599720 -0.356879
-0.047177 0.600773 -0.357502
-0.044089 0.601351 -0.357836
-0.041048 0.602824 -0.358731
-0.037899 0.602478 -0.358503
-0.034737 0.601736 -0.358034
-0.031636 0.602234 -0.358340
-0.028516 0.602317 -0.358394
-0.025397 0.602389 -0.358446
-0.022310 0.603773 -0.359318
-0.019223 0.605772 -0.360577
-0.016073 0.604927 -0.360076
-0.012920 0.602667 -0.358702
-0.009800 0.602709 -0.358763
-0.006680 0.603018 -0.358994
-0.003567 0.601787 -0.358275
-0.000467 0.600481 -0.357513
0.002652 0.601092 -0.357948
0.005768 0.601239 -0.358100
0.008904 0.602015 -0.358647
0.012024 0.602025 -0.358725
0.015077 0.600273 -0.357712
0.018243 0.601486 -0.358548
0.021390 0.602019 -0.358966
0.024479 0.601346 -0.358640
0.027647 0.602085 -0.359197
0.030823 0.602787 -0.359737
0.033969 0.602927 -0.359933
0.037119 0.603056 -0.360127
0.040376 0.604448 -0.361114
0.043560 0.604803 -0.361461
0.046634 0.603886 -0.361020
0.049592 0.601854 -0.359889
0.052620 0.600681 -0.359299
0.055870 0.601623 -0.360034
0.059033 0.601685 -0.360225
0.062042 0.600417 -0.359591
0.065433 0.602270 -0.360913
0.068518 0.601597 -0.360662
0.071697 0.601631 -0.360859
0.074898 0.601779 -0.361133
0.078083 0.601769 -0.361315
0.081192 0.601226 -0.361168
0.084377 0.601170 -0.361332
0.087595 0.601278 -0.361606
0.090595 0.600049 -0.361046
0.093678 0.599339 -0.360817
0.096979 0.599846 -0.361359
0.100181 0.599750 -0.361528
0.103626 0.600897 -0.362485
0.106790 0.600513 -0.362485
0.110205 0.601349 -0.363260
0.113075 0.599485 -0.362339
0.116420 0.599904 -0.362864
0.119890 0.600832 -0.363716
0.122940 0.599806 -0.363340
0.126022 0.598933 -0.363067
0.129367 0.599177 -0.363506
0.132797 0.599725 -0.364144
0.136323 0.600598 -0.364994
0.139682 0.600735 -0.365383
0.142680 0.599430 -0.364865
0.145983 0.599302 -0.365097
0.149155 0.598656 -0.365006
0.152388 0.598218 -0.365052
0.155665 0.597921 -0.365193
0.159433 0.599308 -0.366412
0.162956 0.599768 -0.367045
0.166152 0.599087 -0.366955
0.169142 0.597720 -0.366430
0.172090 0.596236 -0.365833
0.175564 0.596438 -0.366317
0.179169 0.597005 -0.367038
0.182737 0.597408 -0.367658
0.186058 0.597032 -0.367781
0.189403 0.596711 -0.367940
0.192602 0.595955 -0.367820
0.197256 0.599326 -0.370359
0.200800 0.599466 -0.370819
0.203725 0.597883 -0.370166
0.206948 0.597136 -0.370049
0.210533 0.597353 -0.370554
0.214381 0.598239 -0.371488
0.216696 0.595143 -0.369839
0.220233 0.595223 -0.370243
0.224449 0.596985 -0.371733
0.228255 0.597683 -0.372527
0.231713 0.597516 -0.372751
0.235021 0.596996 -0.372738
0.238517 0.596935 -0.373013
0.242337 0.597634 -0.373772
0.245340 0.596454 -0.373295
0.247865 0.594241 -0.372129
0.251530 0.594636 -0.372652
0.255652 0.596042 -0.373821
0.259220 0.596232 -0.374180
0.261815 0.594362 -0.373173
0.264563 0.592887 -0.372406
0.267872 0.592649 -0.372431
0.271358 0.592812 -0.372698
0.274608 0.592526 -0.372651
0.278353 0.593280 -0.373265
0.281879 0.593623 -0.373587
0.284608 0.592432 -0.372881
0.287570 0.591765 -0.372495
0.290387 0.590881 -0.371944
0.293539 0.590702 -0.371832
0.296218 0.589686 -0.371146
0.299601 0.590053 -0.371344
0.302889 0.590288 -0.371431
0.305088 0.588587 -0.370224
0.308277 0.588763 -0.370225
0.312321 0.590518 -0.371237
0.315809 0.591312 -0.371594
0.319857 0.593130 -0.372598
0.322258 0.592109 -0.371717
0.325065 0.591863 -0.371322
-0.305894 0.589829 -0.361286
-0.301535 0.586857 -0.359717
-0.297862 0.585229 -0.358985
-0.294501 0.584247 -0.358644
-0.292247 0.585513 -0.359721
-0.291257 0.589409 -0.362465
-0.289968 0.592844 -0.364894
-0.286987 0.592933 -0.365154
-0.281908 0.588725 -0.362628
-0.279844 0.590819 -0.364131
-0.277900 0.593273 -0.365843
-0.274125 0.591903 -0.365074
-0.271617 0.593313 -0.366071
-0.269218 0.595050 -0.367258
-0.265416 0.593750 -0.366468
-0.260995 0.591067 -0.364767
-0.257830 0.591235 -0.364881
-0.255235 0.592774 -0.365858
-0.253116 0.595512 -0.367589
-0.250147 0.596339 -0.368070
-0.246850 0.596431 -0.368060
-0.243573 0.596608 -0.368088
-0.237529 0.589942 -0.363699
-0.236213 0.595028 -0.366855
-0.233214 0.595983 -0.367339
-0.230173 0.596877 -0.367770
-0.226440 0.595986 -0.367043
-0.223067 0.596048 -0.366917
-0.219450 0.595455 -0.366361
-0.216297 0.596137 -0.366613
-0.213314 0.597322 -0.367179
-0.209509 0.596193 -0.366255
-0.206202 0.596478 -0.366231
-0.203080 0.597311 -0.366551
-0.199908 0.598018 -0.366787
-0.196934 0.599345 -0.367414
-0.193550 0.599430 -0.367244
-0.189436 0.597178 -0.365580
-0.186607 0.598990 -0.366509
-0.183573 0.600174 -0.367036
-0.180257 0.600436 -0.366974
-0.176481 0.599103 -0.365896
-0.172631 0.597427 -0.364602
-0.169301 0.597521 -0.364437
-0.166340 0.598942 -0.365117
-0.163043 0.599134 -0.365018
-0.160222 0.601126 -0.366064
-0.156952 0.601420 -0.366035
-0.153404 0.600586 -0.365293
-0.150037 0.600418 -0.364978
-0.146801 0.600757 -0.364989
-0.143282 0.599863 -0.364224
-0.140494 0.602098 -0.365443
-0.136166 0.597474 -0.362327
-0.133020 0.598036 -0.362498
-0.130098 0.599647 -0.363337
-0.127165 0.601261 -0.364181
-0.124015 0.601837 -0.364375
-0.119973 0.597807 -0.361667
-0.116688 0.597522 -0.361330
-0.113970 0.600276 -0.362914
-0.110849 0.600892 -0.363155
-0.107689 0.601282 -0.363259
-0.104530 0.601660 -0.363361
-0.101279 0.601452 -0.363100
-0.098012 0.601088 -0.362747
-0.094622 0.599832 -0.361839
-0.091497 0.600279 -0.362008
-0.088351 0.600566 -0.362082
-0.084667 0.596806 -0.359618
-0.081933 0.600110 -0.361600
-0.078758 0.600069 -0.361485
-0.075748 0.601397 -0.362236
-0.072883 0.604113 -0.363865
-0.069444 0.601645 -0.362243
-0.066188 0.600698 -0.361583
-0.063045 0.600786 -0.361578
-0.060019 0.602149 -0.362379
-0.056947 0.603092 -0.362922
-0.053822 0.603465 -0.363112
-0.050456 0.600577 -0.361264
-0.047179 0.598491 -0.359923
-0.044182 0.600452 -0.361127
-0.041132 0.601824 -0.361967
-0.038086 0.603516 -0.363013
-0.034814 0.600722 -0.361251
-0.031666 0.600167 -0.360899
-0.028608 0.601881 -0.361975
-0.025491 0.602220 -0.362195
-0.022393 0.603450 -0.362979
-0.019282 0.604609 -0.363724
-0.016140 0.604439 -0.363640
-0.012987 0.602822 -0.362655
-0.009860 0.603299 -0.362988
-0.006729 0.603401 -0.363092
-0.003598 0.603155 -0.362982
-0.000491 0.601240 -0.361831
0.002617 0.600466 -0.361401
0.005739 0.600676 -0.361593
0.008854 0.600495 -0.361546
0.012011 0.601637 -0.362335
0.015136 0.601583 -0.362379
0.018278 0.601891 -0.362655
0.021395 0.601599 -0.362560
0.024566 0.602318 -0.363105
0.027666 0.601704 -0.362818
0.030821 0.601987 -0.363101
0.034061 0.603385 -0.364091
0.037273 0.604193 -0.364716
0.040411 0.603961 -0.364692
0.043465 0.602745 -0.364053
0.046520 0.601659 -0.363502
0.049600 0.600912 -0.363169
0.052697 0.600371 -0.362972
0.055890 0.600723 -0.363344
0.059249 0.602458 -0.364594
0.062426 0.602487 -0.364774
0.065338 0.600363 -0.363600
0.068608 0.601113 -0.364247
0.071676 0.600282 -0.363901
0.074923 0.600744 -0.364377
0.078316 0.602129 -0.365445
0.081374 0.601184 -0.365044
0.084546 0.600986 -0.365121
0.087781 0.601146 -0.365432
0.090911 0.600641 -0.365327
0.094002 0.599906 -0.365082
0.096970 0.598500 -0.364417
0.100602 0.600713 -0.366056
0.104102 0.602068 -0.367157
0.107315 0.601851 -0.367266
0.110351 0.600735 -0.366808
0.113021 0.597880 -0.365247
0.116748 0.600083 -0.366916
0.120059 0.600240 -0.367287
0.122887 0.598206 -0.366265
0.126150 0.598118 -0.366491
0.129571 0.598665 -0.367129
0.133134 0.599733 -0.368107
0.136547 0.600113 -0.368651
0.139950 0.600397 -0.369140
0.143262 0.600281 -0.369378
0.146347 0.599275 -0.369050
0.149628 0.599001 -0.369197
0.152513 0.597270 -0.368412
0.155667 0.596530 -0.368268
0.159267 0.597329 -0.369119
0.162821 0.597907 -0.369833
0.166135 0.597628 -0.370000
0.169311 0.596879 -0.369865
0.172452 0.596012 -0.369658
0.175881 0.596052 -0.370039
0.179626 0.597041 -0.371038
0.182844 0.596364 -0.370961
0.186200 0.596093 -0.371148
0.189811 0.596557 -0.371814
0.193487 0.597165 -0.372574
0.197601 0.598968 -0.374114
0.200833 0.598236 -0.374003
0.202993 0.594577 -0.371980
0.206199 0.593835 -0.371855
0.212089 0.600209 -0.376378
0.215593 0.600150 -0.376697
0.218329 0.598112 -0.375715
0.221196 0.596458 -0.374976
0.225429 0.598247 -0.376488
0.228782 0.597823 -0.376542
0.231720 0.596411 -0.375937
0.235224 0.596386 -0.376233
0.238296 0.595354 -0.375856
0.241884 0.595554 -0.376279
0.245975 0.596907 -0.377449
0.249693 0.597398 -0.378037
0.253269 0.597575 -0.378405
0.256350 0.596686 -0.378053
0.259068 0.595056 -0.377193
0.262199 0.594376 -0.376943
0.264747 0.592511 -0.375891
0.268068 0.592335 -0.375935
0.271717 0.592870 -0.376430
0.274920 0.592524 -0.376321
0.278102 0.592181 -0.376193
0.281204 0.591729 -0.375970
0.283903 0.590538 -0.375235
0.286632 0.589480 -0.374564
0.290532 0.590737 -0.375405
0.294226 0.591625 -0.375978
0.296988 0.590793 -0.375386
0.300350 0.591147 -0.375556
0.304256 0.592547 -0.376395
0.304242 0.586826 -0.372494
0.308044 0.588161 -0.373242
0.312015 0.589828 -0.374185
0.315690 0.590994 -0.374772
0.318971 0.591504 -0.374902
0.322736 0.592905 -0.375596
-0.300929 0.585570 -0.362138
-0.297282 0.583944 -0.361417
-0.294379 0.583815 -0.361641
-0.291960 0.584709 -0.362505
-0.291413 0.589449 -0.365839
-0.290804 0.594222 -0.369176
-0.287785 0.594210 -0.369392
-0.280047 0.584452 -0.363264
-0.278997 0.588587 -0.366123
-0.275450 0.587566 -0.365615
-0.272485 0.587830 -0.365919
-0.270774 0.590884 -0.368014
-0.268519 0.592864 -0.369390
-0.265939 0.594222 -0.370342
-0.262601 0.593954 -0.370215
-0.258341 0.591617 -0.368722
-0.254752 0.590821 -0.368210
-0.252017 0.592046 -0.368994
-0.249416 0.593664 -0.370014
-0.246235 0.593966 -0.370160
-0.242740 0.593544 -0.369819
-0.239750 0.594392 -0.370287
-0.236099 0.593628 -0.369691
-0.233197 0.594780 -0.370326
-0.229506 0.593945 -0.369656
-0.225199 0.591479 -0.367916
-0.222562 0.593418 -0.369022
-0.219762 0.594990 -0.369878
-0.216641 0.595733 -0.370187
-0.212967 0.594959 -0.369503
-0.209467 0.594655 -0.369116
-0.206270 0.595223 -0.369287
-0.203154 0.596045 -0.369616
-0.199511 0.595309 -0.368931
-0.195507 0.593435 -0.367508
-0.192928 0.595921 -0.368897
-0.188773 0.593484 -0.367104
-0.186432 0.596808 -0.369027
-0.183687 0.598911 -0.370158
-0.180747 0.600420 -0.370905
-0.177101 0.599549 -0.370119
-0.172570 0.595525 -0.367305
-0.169459 0.596380 -0.367633
-0.166486 0.597744 -0.368288
-0.163381 0.598652 -0.368650
-0.160345 0.599830 -0.369189
-0.157238 0.600756 -0.369568
-0.153762 0.600225 -0.369014
-0.149952 0.598277 -0.367557
-0.146694 0.598501 -0.367496
-0.143676 0.599727 -0.368081
-0.140140 0.598714 -0.367236
-0.137234 0.600441 -0.368149
-0.134143 0.601366 -0.368553
-0.130492 0.599662 -0.367282
-0.127519 0.601115 -0.368033
-0.124416 0.601961 -0.368400
-0.120668 0.599509 -0.366669
-0.117488 0.599871 -0.366739
-0.113873 0.597847 -0.365294
-0.111061 0.600172 -0.366626
-0.107870 0.600412 -0.366634
-0.104701 0.600756 -0.366715
-0.101514 0.600972 -0.366720
-0.098149 0.600015 -0.365985
-0.095117 0.601170 -0.366598
-0.092075 0.602304 -0.367204
-0.088778 0.601652 -0.366680
-0.085409 0.600374 -0.365765
-0.082115 0.599520 -0.365125
-0.078932 0.599461 -0.364996
-0.075767 0.599510 -0.364942
-0.073075 0.603745 -0.367550
-0.069941 0.604226 -0.367781
-0.066755 0.604199 -0.367695
-0.063570 0.604142 -0.367597
-0.060230 0.602317 -0.366383
-0.056837 0.599581 -0.364597
-0.053694 0.599597 -0.364562
-0.050732 0.602015 -0.366057
-0.047480 0.600543 -0.365090
-0.044341 0.600572 -0.365081
-0.041316 0.602521 -0.366294
-0.038227 0.603630 -0.366980
-0.035085 0.603819 -0.367090
-0.031734 0.598958 -0.364003
-0.028632 0.599510 -0.364354
-0.025562 0.601254 -0.365466
-0.022445 0.601840 -0.365849
-0.019331 0.602856 -0.366510
-0.016197 0.603108 -0.366693
-0.013060 0.603450 -0.366938
-0.009914 0.602051 -0.366086
-0.006780 0.602802 -0.366601
-0.003635 0.603923 -0.367357
-0.000495 0.603624 -0.367218
0.002621 0.602112 -0.366316
0.005715 0.600338 -0.365252
0.008824 0.599746 -0.364943
0.011950 0.599783 -0.365040
0.015099 0.600399 -0.365508
0.018264 0.601182 -0.366089
0.021461 0.602423 -0.366967
0.024602 0.602359 -0.367022
0.027694 0.601461 -0.366552
0.030803 0.600932 -0.366322
0.034036 0.602195 -0.367237
0.037262 0.603158 -0.367968
0.040293 0.601579 -0.367087
0.043437 0.601447 -0.367132
0.046625 0.601770 -0.367473
0.049541 0.599266 -0.366019
0.052906 0.601309 -0.367467
0.056195 0.602411 -0.368322
0.059319 0.601944 -0.368183
0.062429 0.601359 -0.367974
0.065538 0.600787 -0.367779
0.068615 0.599972 -0.367435
0.071842 0.600293 -0.367822
0.075052 0.600428 -0.368096
0.078338 0.601039 -0.368682
0.081582 0.601284 -0.369039
0.084692 0.600639 -0.368833
0.088099 0.601802 -0.369791
0.091236 0.601263 -0.369665
0.094233 0.599923 -0.369030
0.097424 0.599704 -0.369121
0.100846 0.600695 -0.369995
0.104159 0.601021 -0.370448
0.107503 0.601456 -0.370978
0.110600 0.600606 -0.370688
0.113542 0.599020 -0.369929
0.117039 0.600074 -0.370877
0.120074 0.598932 -0.370415
0.123390 0.599058 -0.370777
0.126807 0.599577 -0.371398
0.130213 0.599984 -0.371954
0.133386 0.599374 -0.371859
0.136674 0.599221 -0.372064
0.140116 0.599642 -0.372646
0.143470 0.599671 -0.372981
0.147025 0.600421 -0.373789
0.150191 0.599668 -0.373626
0.152551 0.596003 -0.371575
0.156030 0.596409 -0.372173
0.159291 0.596010 -0.372251
0.162702 0.596102 -0.372654
0.166293 0.596758 -0.373429
0.169902 0.597415 -0.374208
0.173274 0.597258 -0.374460
0.176527 0.596703 -0.374453
0.180479 0.598294 -0.375854
0.183889 0.598162 -0.376129
0.186817 0.596574 -0.375450
0.189879 0.595411 -0.375048
0.193610 0.596184 -0.375918
0.197364 0.596977 -0.376802
0.200750 0.596700 -0.376981
0.203306 0.594152 -0.375659
0.206281 0.592796 -0.375119
0.212233 0.599334 -0.379788
0.215711 0.599225 -0.380065
0.218445 0.597203 -0.379071
0.221623 0.596358 -0.378847
0.225268 0.596694 -0.379399
0.228398 0.595759 -0.379099
0.231425 0.594606 -0.378644
0.234091 0.592632 -0.377632
0.238223 0.594156 -0.378933
0.241939 0.594685 -0.379561
0.246120 0.596274 -0.380882
0.249803 0.596716 -0.381425
0.253070 0.596245 -0.381345
0.255601 0.594197 -0.380195
0.258670 0.593389 -0.379856
0.262079 0.593354 -0.380013
0.265402 0.593168 -0.380050
0.268634 0.592831 -0.379966
0.271764 0.592328 -0.379751
0.274727 0.591535 -0.379320
0.276738 0.588890 -0.377629
0.280327 0.589478 -0.378077
0.283681 0.589636 -0.378215
0.286713 0.589212 -0.377940
0.290660 0.590599 -0.378854
0.295092 0.592926 -0.380373
0.298101 0.592584 -0.380082
0.299722 0.589719 -0.378079
0.300935 0.586215 -0.375627
0.304996 0.588021 -0.376701
0.308122 0.588161 -0.376637
0.310923 0.587770 -0.376196
0.314172 0.588237 -0.376303
0.317212 0.588384 -0.376174
-0.298273 0.585763 -0.365840
-0.295053 0.584991 -0.365665
-0.291700 0.584000 -0.365325
-0.290868 0.588118 -0.368301
-0.289694 0.591689 -0.370902
-0.287495 0.593291 -0.372195
-0.283331 0.590911 -0.370859
-0.278067 0.586227 -0.367991
-0.274591 0.585290 -0.367553
-0.271449 0.585105 -0.367586
-0.269013 0.586507 -0.368636
-0.266559 0.587956 -0.369697
-0.265322 0.592202 -0.372572
-0.262294 0.592566 -0.372880
-0.258170 0.590487 -0.371563
-0.254194 0.588742 -0.370445
-0.251323 0.589583 -0.371004
-0.248918 0.591596 -0.372314
-0.246135 0.592793 -0.373069
-0.243255 0.593821 -0.373696
-0.239699 0.593238 -0.373247
-0.236855 0.594458 -0.373967
-0.232425 0.591697 -0.372059
-0.227871 0.588558 -0.369889
-0.225106 0.590041 -0.370738
-0.222376 0.591685 -0.371679
-0.219505 0.593013 -0.372400
-0.216739 0.594685 -0.373335
-0.213120 0.594034 -0.372739
-0.209874 0.594427 -0.372818
-0.206375 0.594103 -0.372420
-0.202999 0.594134 -0.372247
-0.199421 0.593556 -0.371670
-0.196121 0.593800 -0.371625
-0.191975 0.591418 -0.369862
-0.190182 0.596385 -0.372889
-0.186128 0.594234 -0.371271
-0.183620 0.597067 -0.372898
-0.180483 0.597885 -0.373211
-0.177007 0.597561 -0.372779
-0.173089 0.595658 -0.371321
-0.169834 0.596017 -0.371334
-0.166565 0.596314 -0.371308
-0.163362 0.596846 -0.371436
-0.160429 0.598393 -0.372223
-0.157376 0.599518 -0.372738
-0.153190 0.596171 -0.370358
-0.149900 0.596272 -0.370216
-0.146785 0.597076 -0.370532
-0.143472 0.597039 -0.370308
-0.140261 0.597413 -0.370353
-0.137251 0.598671 -0.370973
-0.134217 0.599847 -0.371545
-0.131090 0.600616 -0.371858
-0.127660 0.599920 -0.371229
-0.124168 0.598836 -0.370357
-0.121237 0.600531 -0.371282
-0.118009 0.600718 -0.371238
-0.114520 0.599458 -0.370269
-0.111085 0.598386 -0.369427
-0.107924 0.598790 -0.369541
