ply
format ascii 1.0
comment ---
element vertex 1678
property float x
property float y
property float z
element face 0
property list uchar uint vertex_indices
end_header
0.230154 0.599533 -0.388471
0.233340 0.598441 -0.388174
0.237095 0.598751 -0.388714
0.240809 0.598944 -0.389179
0.244813 0.599807 -0.390043
0.248416 0.599709 -0.390322
0.252016 0.599604 -0.390590
0.255512 0.599270 -0.390710
0.258767 0.598413 -0.390505
0.262652 0.598977 -0.391146
0.266420 0.599283 -0.391620
0.269790 0.598747 -0.391571
0.273007 0.597921 -0.391332
0.276555 0.597834 -0.391524
0.279423 0.596375 -0.390867
0.282857 0.596136 -0.390931
0.286499 0.596359 -0.391256
0.290073 0.596481 -0.391500
0.294155 0.597642 -0.392355
0.298567 0.599467 -0.393591
0.301886 0.599196 -0.393532
0.304781 0.598177 -0.392995
0.307890 0.597640 -0.392726
0.310970 0.597115 -0.392440
0.313317 0.595310 -0.391352
0.317890 0.597664 -0.392767
0.321565 0.598412 -0.393181
0.324707 0.598257 -0.393020
0.327195 0.597011 -0.392172
0.329997 0.596409 -0.391689
0.331541 0.593695 -0.389900
0.335021 0.594434 -0.390183
0.338042 0.594444 -0.390000
0.342055 0.596201 -0.390852
0.344639 0.595599 -0.390249
-0.351630 0.590472 -0.382692
-0.350673 0.593750 -0.384969
-0.347484 0.593288 -0.384984
-0.344464 0.593182 -0.385190
-0.341539 0.593314 -0.385516
-0.338106 0.592612 -0.385317
-0.335473 0.593403 -0.385991
-0.333339 0.595184 -0.387237
-0.330416 0.595622 -0.387652
-0.328270 0.597574 -0.388954
-0.325265 0.598025 -0.389328
-0.322258 0.598547 -0.389721
-0.318668 0.598032 -0.389466
-0.315111 0.597629 -0.389254
-0.311959 0.598065 -0.389525
-0.308935 0.598818 -0.389963
-0.305539 0.598901 -0.389975
-0.301908 0.598561 -0.389711
-0.298376 0.598462 -0.389571
-0.295084 0.598901 -0.389735
-0.291974 0.599770 -0.390138
-0.288300 0.599503 -0.389840
-0.285202 0.600499 -0.390283
-0.281602 0.600457 -0.390086
-0.277750 0.599883 -0.389556
-0.274294 0.600201 -0.389547
-0.270613 0.600031 -0.389232
-0.266796 0.599561 -0.388726
-0.263311 0.599858 -0.388670
-0.260078 0.600765 -0.388969
-0.256231 0.600229 -0.388397
-0.252587 0.600169 -0.388102
-0.249072 0.600421 -0.387988
-0.246034 0.601865 -0.388580
-0.242245 0.601433 -0.388048
-0.238295 0.600557 -0.387249
-0.234417 0.599826 -0.386535
-0.230805 0.599758 -0.386214
-0.227219 0.599738 -0.385922
-0.224227 0.601328 -0.386585
-0.219641 0.598482 -0.384616
-0.216607 0.599928 -0.385196
-0.213243 0.600441 -0.385224
-0.209541 0.599940 -0.384652
-0.206230 0.600564 -0.384750
-0.203308 0.602360 -0.385545
-0.199621 0.601810 -0.384955
-0.196089 0.601694 -0.384626
-0.192471 0.601257 -0.384112
-0.189556 0.603077 -0.384933
-0.185915 0.602495 -0.384343
-0.181928 0.600667 -0.383025
-0.179050 0.602590 -0.383920
-0.175491 0.602131 -0.383419
-0.171907 0.601516 -0.382833
-0.168448 0.601302 -0.382488
-0.165001 0.601079 -0.382143
-0.161820 0.601838 -0.382380
-0.158347 0.601431 -0.381939
-0.154974 0.601369 -0.381707
-0.151603 0.601272 -0.381459
-0.148424 0.601940 -0.381666
-0.145190 0.602361 -0.381733
-0.142076 0.603297 -0.382108
-0.138531 0.602269 -0.381339
-0.135051 0.601451 -0.380701
-0.131711 0.601225 -0.380414
-0.128556 0.601854 -0.380631
-0.125235 0.601636 -0.380361
-0.121952 0.601568 -0.380183
-0.118519 0.600647 -0.379514
-0.115421 0.601483 -0.379874
-0.112186 0.601546 -0.379790
-0.108959 0.601629 -0.379722
-0.105782 0.601978 -0.379815
-0.102761 0.603288 -0.380472
-0.099484 0.602991 -0.380199
-0.095974 0.601067 -0.378986
-0.092978 0.602549 -0.379758
-0.089840 0.603073 -0.379978
-0.086515 0.602197 -0.379390
-0.083315 0.602187 -0.379310
-0.080054 0.601640 -0.378922
-0.077052 0.603236 -0.379785
-0.074004 0.604538 -0.380481
-0.070523 0.601822 -0.378850
-0.067324 0.601597 -0.378669
-0.064216 0.602279 -0.379019
-0.061100 0.602909 -0.379343
-0.057973 0.603453 -0.379623
-0.054699 0.602166 -0.378844
-0.051543 0.602276 -0.378880
-0.048408 0.602654 -0.379077
-0.045299 0.603492 -0.379544
-0.042176 0.604192 -0.379936
-0.039055 0.605033 -0.380414
-0.035810 0.603404 -0.379463
-0.032615 0.602538 -0.378960
-0.029456 0.602352 -0.378855
-0.026365 0.604236 -0.379955
-0.023179 0.603199 -0.379365
-0.020026 0.603202 -0.379382
-0.016881 0.603668 -0.379673
-0.013725 0.603448 -0.379569
-0.010574 0.603774 -0.379786
-0.007419 0.601509 -0.378504
-0.004271 0.602629 -0.379191
-0.001119 0.602887 -0.379381
0.002028 0.602660 -0.379294
0.005177 0.602616 -0.379318
0.008333 0.602832 -0.379496
0.011489 0.602956 -0.379626
0.014656 0.603303 -0.379889
0.017814 0.603314 -0.379962
0.020908 0.601942 -0.379235
0.024011 0.600974 -0.378747
0.027235 0.602259 -0.379572
0.030404 0.602421 -0.379750
0.033527 0.601847 -0.379504
0.036622 0.600940 -0.379068
0.039955 0.603146 -0.380448
0.043067 0.602413 -0.380122
0.046239 0.602405 -0.380223
0.049308 0.601284 -0.379681
0.052503 0.601497 -0.379919
0.055702 0.601702 -0.380158
0.058925 0.602059 -0.380490
0.062101 0.601947 -0.380554
0.065257 0.601652 -0.380516
0.068495 0.601985 -0.380849
0.071672 0.601800 -0.380885
0.074808 0.601296 -0.380739
0.077909 0.600551 -0.380458
0.081152 0.600776 -0.380748
0.084359 0.600719 -0.380879
0.087559 0.600582 -0.380969
0.090872 0.601103 -0.381449
0.094244 0.601905 -0.382098
0.097384 0.601294 -0.381927
0.100692 0.601612 -0.382305
0.104170 0.602786 -0.383191
0.107286 0.601965 -0.382913
0.109839 0.598304 -0.380971
0.113715 0.601319 -0.382957
0.116778 0.600239 -0.382542
0.119807 0.599011 -0.382045
0.123205 0.599490 -0.382559
0.126563 0.599729 -0.382937
0.129869 0.599693 -0.383160
0.133248 0.599921 -0.383545
0.136744 0.600587 -0.384194
0.140254 0.601238 -0.384842
0.143576 0.601078 -0.385016
0.146775 0.600408 -0.384895
0.150162 0.600435 -0.385192
0.153513 0.600288 -0.385391
0.156664 0.599384 -0.385148
0.160202 0.599850 -0.385723
0.163838 0.600595 -0.386471
0.167061 0.599867 -0.386348
0.169855 0.597687 -0.385366
0.173554 0.598525 -0.386186
0.177070 0.598703 -0.386619
0.181200 0.600775 -0.388187
0.184809 0.601121 -0.388731
0.188347 0.601200 -0.389120
0.191742 0.600810 -0.389233
0.194849 0.599552 -0.388829
0.198383 0.599539 -0.389174
0.201982 0.599682 -0.389616
0.205435 0.599375 -0.389790
0.208812 0.598844 -0.389831
0.212284 0.598558 -0.390020
0.215770 0.598292 -0.390222
0.219434 0.598476 -0.390695
0.223452 0.599548 -0.391704
0.226920 0.599169 -0.391836
0.230089 0.598037 -0.391509
0.234077 0.598941 -0.392412
0.237701 0.598926 -0.392753
0.241393 0.599064 -0.393183
0.244960 0.598898 -0.393422
0.248696 0.599129 -0.393895
0.252265 0.598971 -0.394122
0.255538 0.598154 -0.393939
0.259121 0.598060 -0.394185
0.262941 0.598499 -0.394744
0.266691 0.598793 -0.395202
0.270193 0.598566 -0.395328
0.273536 0.598035 -0.395251
0.276405 0.596553 -0.394576
0.280173 0.596992 -0.395059
0.283018 0.595577 -0.394386
0.287314 0.597154 -0.395528
0.291178 0.597873 -0.396124
0.293883 0.596346 -0.395320
0.297668 0.596998 -0.395830
0.300761 0.596356 -0.395524
0.303690 0.595471 -0.395044
0.308424 0.598054 -0.396670
0.310948 0.596529 -0.395749
0.314353 0.596717 -0.395855
0.318107 0.597600 -0.396362
0.321192 0.597321 -0.396131
0.323305 0.595376 -0.394852
0.325605 0.593862 -0.393813
0.327876 0.592393 -0.392776
0.332573 0.595233 -0.394359
0.334299 0.592972 -0.392789
0.337415 0.593191 -0.392715
0.340290 0.593065 -0.392408
-0.350323 0.592928 -0.387902
-0.347571 0.593182 -0.388366
-0.344900 0.593649 -0.388937
-0.342691 0.595010 -0.390027
-0.340022 0.595646 -0.390655
-0.335370 0.592806 -0.389150
-0.332588 0.593366 -0.389684
-0.330987 0.596167 -0.391556
-0.328909 0.598209 -0.392943
-0.326607 0.599939 -0.394117
-0.322715 0.598773 -0.393506
-0.319171 0.598308 -0.393297
-0.315636 0.597912 -0.393105
-0.311997 0.597364 -0.392798
-0.308948 0.598022 -0.393200
-0.305772 0.598497 -0.393469
-0.301674 0.597176 -0.392623
-0.298251 0.597249 -0.392603
-0.295383 0.598514 -0.393288
-0.291813 0.598386 -0.393106
-0.288467 0.598766 -0.393214
-0.285140 0.599232 -0.393355
-0.281275 0.598574 -0.392798
-0.277744 0.598658 -0.392675
-0.274561 0.599545 -0.393025
-0.270961 0.599534 -0.392816
-0.267349 0.599510 -0.392587
-0.263153 0.598143 -0.391533
-0.259710 0.598516 -0.391524
-0.257064 0.600809 -0.392665
-0.253312 0.600490 -0.392219
-0.249451 0.599889 -0.391596
-0.246140 0.600639 -0.391783
-0.242323 0.600120 -0.391200
-0.238552 0.599690 -0.390667
-0.235546 0.601233 -0.391319
-0.231599 0.600307 -0.390482
-0.228001 0.600273 -0.390181
-0.224071 0.599304 -0.389318
-0.220780 0.600061 -0.389492
-0.216769 0.598773 -0.388440
-0.213916 0.600757 -0.389352
-0.210241 0.600364 -0.388839
-0.206967 0.601125 -0.389021
-0.203439 0.601106 -0.388739
-0.200044 0.601464 -0.388685
-0.196659 0.601828 -0.388638
-0.192865 0.600856 -0.387798
-0.189425 0.600971 -0.387611
-0.186027 0.601190 -0.387491
-0.182905 0.602320 -0.387918
-0.179604 0.602834 -0.387983
-0.175730 0.601296 -0.386832
-0.172339 0.601399 -0.386664
-0.169082 0.601966 -0.386776
-0.165948 0.602976 -0.387156
-0.162002 0.600857 -0.385686
-0.158680 0.601063 -0.385602
-0.155709 0.602657 -0.386344
-0.152338 0.602627 -0.386130
-0.148601 0.601008 -0.384983
-0.145572 0.602332 -0.385582
-0.142218 0.602243 -0.385352
-0.138976 0.602612 -0.385398
-0.135090 0.599957 -0.383664
-0.131918 0.600540 -0.383849
-0.128765 0.601204 -0.384086
-0.125468 0.601141 -0.383901
-0.122165 0.600997 -0.383674
-0.119137 0.602280 -0.384293
-0.115547 0.600501 -0.383114
-0.112494 0.601619 -0.383647
-0.109249 0.601650 -0.383546
-0.106126 0.602377 -0.383858
-0.102925 0.602630 -0.383898
-0.099644 0.602340 -0.383624
-0.096392 0.602184 -0.383434
-0.093197 0.602376 -0.383454
-0.089800 0.601082 -0.382606
-0.086675 0.601694 -0.382883
-0.083309 0.600429 -0.382063
-0.080334 0.602219 -0.383042
-0.077270 0.603379 -0.383655
-0.074064 0.603329 -0.383563
-0.070804 0.602729 -0.383153
-0.067567 0.602260 -0.382825
-0.064335 0.601748 -0.382477
-0.061271 0.603015 -0.383177
-0.058101 0.603141 -0.383212
-0.054914 0.603039 -0.383118
-0.051696 0.602469 -0.382755
-0.048522 0.602416 -0.382699
-0.045461 0.604099 -0.383666
-0.042296 0.604270 -0.383750
-0.039141 0.604609 -0.383938
-0.035956 0.604381 -0.383798
-0.032728 0.603017 -0.382995
-0.029583 0.603475 -0.383266
-0.026421 0.603517 -0.383297
-0.023287 0.604641 -0.383967
-0.020109 0.604123 -0.383678
-0.016930 0.603210 -0.383162
-0.013772 0.603343 -0.383265
-0.010612 0.603340 -0.383291
-0.007453 0.602176 -0.382641
-0.004300 0.602064 -0.382611
-0.001140 0.602708 -0.383030
0.002025 0.603227 -0.383380
0.005173 0.602624 -0.383076
0.008324 0.602357 -0.382973
0.011492 0.602712 -0.383240
0.014667 0.603080 -0.383519
0.017861 0.603797 -0.384007
0.021028 0.603772 -0.384064
0.024171 0.603247 -0.383832
0.027318 0.602850 -0.383679
0.030411 0.601645 -0.383056
0.033539 0.601097 -0.382823
0.036756 0.601792 -0.383326
0.039815 0.600377 -0.382592
0.043144 0.602304 -0.383829
0.046174 0.600628 -0.382950
0.049505 0.602280 -0.384035
0.052539 0.600765 -0.383261
0.055890 0.602359 -0.384322
0.058918 0.600862 -0.383567
0.062141 0.601142 -0.383864
0.065445 0.602026 -0.384522
0.068624 0.601820 -0.384543
0.071798 0.601551 -0.384532
0.074916 0.600867 -0.384280
0.078161 0.601086 -0.384567
0.081206 0.599906 -0.384032
0.084476 0.600231 -0.384392
0.087933 0.601669 -0.385417
0.090898 0.599990 -0.384603
0.094288 0.600879 -0.385314
0.097716 0.601891 -0.386104
0.100968 0.601835 -0.386266
0.104156 0.601398 -0.386209
0.107448 0.601486 -0.386469
0.110804 0.601859 -0.386905
0.113993 0.601350 -0.386822
0.117163 0.600737 -0.386683
0.120081 0.598941 -0.385846
0.123424 0.599125 -0.386192
0.126882 0.599773 -0.386821
0.130249 0.599958 -0.387181
0.133497 0.599588 -0.387215
0.137092 0.600629 -0.388099
0.140494 0.600805 -0.388472
0.143732 0.600284 -0.388435
0.146972 0.599754 -0.388398
0.150337 0.599676 -0.388637
0.153764 0.599793 -0.388999
0.157050 0.599351 -0.389032
0.160388 0.599077 -0.389171
0.163853 0.599213 -0.389562
0.167457 0.599776 -0.390216
0.170798 0.599400 -0.390311
0.173776 0.597812 -0.389680
0.177526 0.598727 -0.390562
0.181140 0.599140 -0.391147
0.184827 0.599729 -0.391844
0.188577 0.600453 -0.392627
0.191949 0.599987 -0.392694
0.195220 0.599208 -0.392575
0.198783 0.599265 -0.392965
0.202425 0.599510 -0.393472
0.205782 0.598926 -0.393477
0.209178 0.598440 -0.393543
0.212549 0.597876 -0.393562
0.215952 0.597390 -0.393627
0.219605 0.597551 -0.394087
0.223567 0.598481 -0.395016
0.227283 0.598743 -0.395534
0.230672 0.598166 -0.395537
0.233714 0.596741 -0.395015
0.237756 0.597770 -0.395992
0.241580 0.598245 -0.396623
0.245040 0.597847 -0.396712
0.248869 0.598315 -0.397326
0.252472 0.598258 -0.397606
0.255089 0.595989 -0.396514
0.259118 0.596931 -0.397388
0.263005 0.597549 -0.398050
0.267311 0.599080 -0.399262
0.270523 0.598252 -0.399003
0.272741 0.595377 -0.397461
0.277102 0.597067 -0.398723
0.280742 0.597265 -0.399045
0.283968 0.596653 -0.398846
0.287665 0.597043 -0.399247
0.291396 0.597533 -0.399688
0.294854 0.597523 -0.399798
0.297037 0.595087 -0.398381
0.299825 0.593920 -0.397726
0.305207 0.597754 -0.400150
0.308609 0.597846 -0.400228
0.311613 0.597255 -0.399857
0.314350 0.596244 -0.399201
0.317934 0.596860 -0.399530
0.320747 0.596135 -0.399001
0.322634 0.593835 -0.397470
0.324594 0.591773 -0.396063
0.327662 0.591756 -0.395899
0.331549 0.593228 -0.396633
0.335126 0.594209 -0.397038
0.337375 0.592970 -0.396045
0.340172 0.592748 -0.395659
-0.346470 0.591050 -0.390498
-0.344459 0.592617 -0.391762
-0.342769 0.594845 -0.393409
-0.340425 0.596021 -0.394391
-0.336517 0.594482 -0.393685
-0.332876 0.593465 -0.393276
-0.330379 0.594588 -0.394154
-0.328696 0.597303 -0.395986
-0.325845 0.597959 -0.396530
-0.322844 0.598413 -0.396926
-0.319210 0.597734 -0.396602
-0.315554 0.597060 -0.396256
-0.312847 0.598278 -0.397049
-0.309167 0.597667 -0.396694
-0.305173 0.596470 -0.395957
-0.301872 0.596696 -0.396070
-0.299163 0.598181 -0.396937
-0.296189 0.599204 -0.397497
-0.291968 0.597692 -0.396480
-0.288409 0.597583 -0.396305
-0.285415 0.598716 -0.396874
-0.281658 0.598259 -0.396449
-0.277529 0.597002 -0.395518
-0.274238 0.597602 -0.395709
-0.270943 0.598231 -0.395904
-0.267177 0.597821 -0.395449
-0.263908 0.598563 -0.395688
-0.260433 0.598854 -0.395639
-0.256978 0.599208 -0.395618
-0.252819 0.597873 -0.394557
-0.249390 0.598289 -0.394558
-0.245679 0.598014 -0.394130
-0.242273 0.598493 -0.394157
-0.239024 0.599382 -0.394428
-0.235611 0.599859 -0.394444
-0.232070 0.599997 -0.394251
-0.228350 0.599636 -0.393753
-0.224702 0.599443 -0.393356
-0.221185 0.599582 -0.393160
-0.217579 0.599451 -0.392801
-0.213879 0.599020 -0.392260
-0.210638 0.599884 -0.392506
-0.206917 0.599323 -0.391891
-0.203743 0.600368 -0.392251
-0.200426 0.600975 -0.392347
-0.196967 0.601123 -0.392169
-0.193422 0.600965 -0.391811
-0.189525 0.599614 -0.390737
-0.186345 0.600563 -0.391055
-0.183311 0.602006 -0.391674
-0.179745 0.601623 -0.391199
-0.176264 0.601486 -0.390876
-0.172775 0.601277 -0.390516
-0.169386 0.601384 -0.390351
-0.166056 0.601678 -0.390304
-0.162368 0.600566 -0.389419
-0.159071 0.600903 -0.389410
-0.155997 0.602110 -0.389926
-0.152815 0.602888 -0.390191
-0.149391 0.602639 -0.389847
-0.145704 0.601202 -0.388799
-0.142406 0.601372 -0.388719
-0.139871 0.604969 -0.390690
-0.135696 0.601084 -0.388199
-0.132229 0.600328 -0.387584
-0.129115 0.601224 -0.387960
-0.125817 0.601199 -0.387792
-0.122511 0.601094 -0.387582
-0.119242 0.601136 -0.387467
-0.116005 0.601321 -0.387441
-0.112756 0.601406 -0.387362
-0.109592 0.601950 -0.387562
-0.106312 0.601792 -0.387350
-0.103047 0.601683 -0.387172
-0.099831 0.601838 -0.387156
-0.096702 0.602548 -0.387476
-0.093314 0.601471 -0.386740
-0.090053 0.601189 -0.386481
-0.087013 0.602503 -0.387176
-0.083810 0.602621 -0.387165
-0.080538 0.602147 -0.386808
-0.077455 0.603200 -0.387362
-0.074175 0.602558 -0.386916
-0.070903 0.601885 -0.386457
-0.067692 0.601707 -0.386295
-0.064633 0.603066 -0.387051
-0.061514 0.603875 -0.387486
-0.058230 0.602814 -0.386816
-0.055141 0.604027 -0.387499
-0.051964 0.604184 -0.387561
-0.048740 0.603661 -0.387224
-0.045544 0.603430 -0.387066
-0.042433 0.604593 -0.387737
-0.039166 0.603005 -0.386784
-0.035974 0.602619 -0.386547
-0.032860 0.603903 -0.387304
-0.029688 0.603980 -0.387351
-0.026511 0.603863 -0.387288
-0.023323 0.603289 -0.386958
-0.020141 0.602643 -0.386590
-0.016964 0.601815 -0.386118
-0.013816 0.602948 -0.386813
-0.010651 0.602902 -0.386814
-0.007486 0.602405 -0.386552
-0.004329 0.601424 -0.386007
-0.001165 0.602085 -0.386440
0.002008 0.602840 -0.386934
0.005171 0.602682 -0.386890
0.008328 0.602360 -0.386754
0.011512 0.602972 -0.387177
0.014713 0.603810 -0.387738
0.017882 0.603674 -0.387726
0.021041 0.603318 -0.387587
0.024187 0.602741 -0.387322
0.027335 0.602286 -0.387134
0.030477 0.601779 -0.386920
0.033598 0.601000 -0.386548
0.036759 0.600845 -0.386551
0.039968 0.601287 -0.386915
0.043074 0.600417 -0.386503
0.046394 0.602000 -0.387555
0.049432 0.600415 -0.386727
0.052791 0.602141 -0.387874
0.055938 0.601671 -0.387720
0.059164 0.601909 -0.387992
0.062359 0.601836 -0.388084
0.065579 0.601935 -0.388283
0.068859 0.602458 -0.388740
0.072101 0.602612 -0.388984
0.075212 0.601781 -0.388644
0.078381 0.601367 -0.388558
0.081751 0.602307 -0.389287
0.084768 0.600853 -0.388590
0.088152 0.601754 -0.389307
0.091228 0.600700 -0.388860
0.094559 0.601166 -0.389328
0.097893 0.601580 -0.389771
0.101071 0.601074 -0.389669
0.104303 0.600846 -0.389739
0.107528 0.600558 -0.389778
0.110874 0.600855 -0.390174
0.114142 0.600716 -0.390315
0.117252 0.599789 -0.389989
0.120577 0.599872 -0.390275
0.123889 0.599855 -0.390507
0.127439 0.600849 -0.391354
0.130520 0.599728 -0.390934
0.134014 0.600363 -0.391577
0.137491 0.600859 -0.392144
0.140719 0.600289 -0.392073
0.143886 0.599461 -0.391852
0.147104 0.598832 -0.391756
0.150354 0.598306 -0.391729
0.153726 0.598212 -0.391968
0.157156 0.598293 -0.392320
0.160519 0.598093 -0.392507
0.164118 0.598680 -0.393178
0.167784 0.599434 -0.393956
0.171218 0.599345 -0.394227
0.174648 0.599212 -0.394476
0.178126 0.599197 -0.394802
0.181336 0.598303 -0.394597
0.185088 0.599082 -0.395417
0.188615 0.599117 -0.395786
0.192416 0.599931 -0.396636
0.195614 0.598920 -0.396372
0.198989 0.598421 -0.396424
0.202615 0.598621 -0.396906
0.206074 0.598320 -0.397082
0.209410 0.597667 -0.397042
0.213464 0.598942 -0.398189
0.216693 0.597969 -0.397951
0.220228 0.597807 -0.398212
0.224676 0.599972 -0.399907
0.228102 0.599474 -0.399957
0.230756 0.597058 -0.398814
0.234006 0.596165 -0.398607
0.238514 0.598330 -0.400290
0.241634 0.597124 -0.399876
0.245872 0.598576 -0.401105
0.249227 0.597949 -0.401033
0.252932 0.598143 -0.401461
0.256303 0.597590 -0.401412
0.259264 0.596156 -0.400802
0.263016 0.596510 -0.401291
0.267334 0.598099 -0.402537
0.270819 0.597893 -0.402647
0.273115 0.595216 -0.401196
0.277648 0.597293 -0.402697
0.281046 0.597020 -0.402710
0.284347 0.596597 -0.402609
0.287353 0.595633 -0.402148
0.291526 0.597048 -0.403154
0.294237 0.595616 -0.402355
0.297055 0.594471 -0.401712
0.300322 0.594267 -0.401635
0.304599 0.596035 -0.402769
0.308327 0.596795 -0.403247
0.311832 0.597185 -0.403468
0.314552 0.596181 -0.402791
0.316806 0.594415 -0.401610
0.319943 0.594336 -0.401462
0.322747 0.593729 -0.400959
0.325440 0.593002 -0.400356
0.329072 0.593998 -0.400806
0.332661 0.594968 -0.401214
0.335224 0.594222 -0.400526
0.338525 0.594813 -0.400649
-0.343508 0.590726 -0.394034
-0.341423 0.592207 -0.395250
-0.340246 0.595394 -0.397501
-0.336808 0.594656 -0.397301
-0.332869 0.593065 -0.396549
-0.329372 0.592319 -0.396296
-0.325909 0.591686 -0.396087
-0.323457 0.592990 -0.397056
-0.321481 0.595280 -0.398613
-0.318096 0.595005 -0.398554
-0.315549 0.596394 -0.399504
-0.312078 0.596079 -0.399372
-0.309468 0.597506 -0.400298
-0.304866 0.595066 -0.398800
-0.302377 0.596868 -0.399912
-0.300306 0.599613 -0.401588
-0.296136 0.598154 -0.400632
-0.291681 0.596112 -0.399293
-0.288613 0.596986 -0.399744
-0.285426 0.597669 -0.400056
-0.282012 0.597910 -0.400076
-0.277968 0.596812 -0.399249
-0.274346 0.596649 -0.398985
-0.270901 0.596904 -0.398966
-0.267729 0.597809 -0.399334
-0.264483 0.598585 -0.399608
-0.261091 0.599056 -0.399682
-0.257124 0.598182 -0.398913
-0.252914 0.596701 -0.397761
-0.248849 0.595533 -0.396795
-0.245883 0.597063 -0.397486
-0.242555 0.597721 -0.397632
-0.239338 0.598677 -0.397955
-0.235603 0.598306 -0.397456
-0.232218 0.598834 -0.397508
-0.228530 0.598549 -0.397057
-0.225249 0.599347 -0.397269
-0.221482 0.598803 -0.396655
-0.217635 0.597993 -0.395879
-0.214228 0.598391 -0.395845
-0.210659 0.598304 -0.395514
-0.207651 0.599852 -0.396184
-0.203944 0.599310 -0.395578
-0.200831 0.600548 -0.396063
-0.197698 0.601736 -0.396518
-0.193663 0.600048 -0.395222
-0.190174 0.600039 -0.394955
-0.186784 0.600321 -0.394869
-0.183448 0.600765 -0.394886
-0.179998 0.600789 -0.394652
-0.176311 0.599941 -0.393893
-0.173147 0.600904 -0.394239
-0.169296 0.599340 -0.393057
-0.166237 0.600642 -0.393619
-0.162872 0.600785 -0.393484
-0.159415 0.600534 -0.393115
-0.156271 0.601489 -0.393482
-0.153060 0.602166 -0.393687
-0.149564 0.601642 -0.393171
-0.145957 0.600569 -0.392329
-0.142673 0.600827 -0.392298
-0.139753 0.602702 -0.393249
-0.136336 0.602331 -0.392849
-0.132613 0.600436 -0.391537
-0.129445 0.601115 -0.391782
-0.126183 0.601320 -0.391749
-0.122549 0.599566 -0.390541
-0.119292 0.599680 -0.390465
-0.116067 0.599934 -0.390478
-0.112874 0.600345 -0.390592
-0.109827 0.601594 -0.391215
-0.106560 0.601558 -0.391071
-0.103205 0.600931 -0.390577
-0.100003 0.601207 -0.390632
-0.096840 0.601728 -0.390839
-0.093828 0.603288 -0.391676
-0.090181 0.600365 -0.389826
-0.087139 0.601695 -0.390536
-0.083898 0.601542 -0.390360
-0.080660 0.601368 -0.390177
-0.077497 0.601778 -0.390350
-0.074290 0.601790 -0.390288
-0.071027 0.601250 -0.389902
-0.067885 0.601798 -0.390173
-0.064813 0.603107 -0.390904
-0.061541 0.602330 -0.390391
-0.058443 0.603446 -0.391017
-0.055317 0.604338 -0.391513
-0.052078 0.603795 -0.391155
-0.048785 0.602348 -0.390260
-0.045638 0.602908 -0.390572
-0.042465 0.603098 -0.390667
-0.039300 0.603438 -0.390857
-0.036100 0.603083 -0.390635
-0.032895 0.602485 -0.390272
-0.029740 0.603005 -0.390584
-0.026573 0.603304 -0.390768
-0.023355 0.601768 -0.389857
-0.020152 0.600122 -0.388886
-0.017031 0.602449 -0.390298
-0.013851 0.601618 -0.389824
-0.010691 0.602657 -0.390474
-0.007520 0.602088 -0.390166
-0.004357 0.601096 -0.389609
-0.001189 0.601579 -0.389940
0.001994 0.602605 -0.390601
0.005157 0.602161 -0.390386
0.008311 0.601540 -0.390069
0.011498 0.602111 -0.390472
0.014688 0.602583 -0.390819
0.017866 0.602626 -0.390914
0.021020 0.602114 -0.390682
0.024197 0.602105 -0.390755
0.027398 0.602487 -0.391068
0.030540 0.601842 -0.390770
0.033687 0.601329 -0.390555
0.036840 0.600930 -0.390413
0.039984 0.600447 -0.390226
0.043262 0.601569 -0.391008
0.046495 0.602019 -0.391391
0.049702 0.602118 -0.391568
0.052864 0.601721 -0.391453
0.056013 0.601215 -0.391276
0.059177 0.600845 -0.391186
0.062433 0.601269 -0.391580
0.065751 0.602121 -0.392237
0.069108 0.603170 -0.393018
0.072269 0.602627 -0.392845
0.075387 0.601783 -0.392497
0.078588 0.601540 -0.392515
0.081740 0.600946 -0.392327
0.085028 0.601239 -0.392681
0.088281 0.601255 -0.392873
0.091499 0.601016 -0.392916
0.094729 0.600830 -0.392997
0.097924 0.600415 -0.392945
0.101221 0.600550 -0.393232
0.104537 0.600738 -0.393557
0.107738 0.600282 -0.393498
0.110927 0.599751 -0.393398
0.114127 0.599264 -0.393331
0.117490 0.599540 -0.393734
0.120940 0.600163 -0.394354
0.124351 0.600539 -0.394830
0.127523 0.599805 -0.394637
0.130924 0.600050 -0.395046
0.134358 0.600384 -0.395516
0.137683 0.600212 -0.395684
0.140926 0.599680 -0.395637
0.144037 0.598614 -0.395270
0.147332 0.598262 -0.395344
0.150527 0.597507 -0.395178
0.153769 0.596918 -0.395118
0.157214 0.597046 -0.395504
0.160816 0.597683 -0.396207
0.164572 0.598786 -0.397203
0.168273 0.599624 -0.398042
0.171636 0.599268 -0.398153
0.175333 0.599977 -0.398924
0.178560 0.599120 -0.398736
0.182276 0.599795 -0.399496
0.185687 0.599470 -0.399643
0.189272 0.599647 -0.400103
0.192762 0.599505 -0.400370
0.196021 0.598664 -0.400206
0.199352 0.598026 -0.400169
0.202903 0.598005 -0.400517
0.205949 0.596553 -0.399976
0.210387 0.598928 -0.401814
0.214105 0.599267 -0.402387
0.217417 0.598504 -0.402272
0.221037 0.598548 -0.402658
0.225183 0.599921 -0.403872
0.228238 0.598486 -0.403329
0.230991 0.596337 -0.402332
0.234118 0.595159 -0.401935
0.238039 0.595926 -0.402749
0.241796 0.596280 -0.403298
0.246672 0.599245 -0.405477
0.250054 0.598683 -0.405433
0.253381 0.598021 -0.405315
0.256806 0.597611 -0.405342
0.259884 0.596459 -0.404888
0.263509 0.596550 -0.405202
0.267269 0.596957 -0.405699
0.269855 0.594877 -0.404611
0.273811 0.595762 -0.405375
0.277249 0.595585 -0.405450
0.281691 0.597506 -0.406831
0.285219 0.597570 -0.407018
0.288127 0.596434 -0.406425
0.290200 0.593717 -0.404808
0.293740 0.593982 -0.405055
0.296792 0.593347 -0.404709
0.300539 0.594112 -0.405223
0.304034 0.594437 -0.405436
0.307900 0.595509 -0.406096
0.311208 0.595584 -0.406100
0.314499 0.595687 -0.406097
0.317191 0.594760 -0.405417
0.319254 0.592780 -0.404046
0.322962 0.593838 -0.404572
0.326417 0.594494 -0.404818
0.329918 0.595283 -0.405123
0.332220 0.594043 -0.404123
0.335205 0.594064 -0.403895
-0.342176 0.588204 -0.395880
-0.341886 0.592786 -0.399057
-0.338031 0.591188 -0.398358
-0.335602 0.592183 -0.399254
-0.332353 0.591779 -0.399254
-0.328043 0.589498 -0.398054
-0.324772 0.589154 -0.398043
-0.322789 0.591266 -0.399545
-0.320544 0.592992 -0.400781
-0.318355 0.594923 -0.402123
-0.314921 0.594567 -0.402008
-0.312116 0.595486 -0.402667
-0.308685 0.595256 -0.402583
-0.305941 0.596440 -0.403361
-0.303346 0.598005 -0.404355
-0.299680 0.597485 -0.404020
-0.295231 0.595393 -0.402675
-0.292013 0.595858 -0.402913
-0.289075 0.596968 -0.403535
-0.285885 0.597608 -0.403841
-0.281148 0.594964 -0.402071
-0.278342 0.596508 -0.402907
-0.274846 0.596592 -0.402811
-0.271171 0.596305 -0.402467
-0.268208 0.597654 -0.403132
-0.265599 0.599877 -0.404328
-0.261420 0.598506 -0.403264
-0.257715 0.598232 -0.402874
-0.253254 0.596137 -0.401338
-0.249213 0.595014 -0.400400
-0.246090 0.596136 -0.400855
-0.243014 0.597407 -0.401393
-0.238509 0.595062 -0.399674
-0.236149 0.598203 -0.401364
-0.232901 0.599093 -0.401648
-0.229222 0.598840 -0.401217
-0.225346 0.598028 -0.400437
-0.221956 0.598517 -0.400463
-0.218305 0.598265 -0.400029
-0.215454 0.600274 -0.400995
-0.212108 0.600885 -0.401094
-0.208290 0.600089 -0.400324
-0.204488 0.599285 -0.399551
-0.201365 0.600508 -0.400033
-0.198052 0.601153 -0.400159
-0.194339 0.600508 -0.399493
-0.190404 0.599086 -0.398353
-0.187017 0.599385 -0.398276
-0.183666 0.599785 -0.398267
-0.180265 0.599991 -0.398141
-0.176769 0.599830 -0.397795
-0.173671 0.601055 -0.398305
-0.169970 0.600082 -0.397470
-0.166479 0.599816 -0.397076
-0.163318 0.600759 -0.397427
-0.159883 0.600630 -0.397128
-0.156454 0.600481 -0.396821
-0.152984 0.600115 -0.396387
-0.149545 0.599818 -0.396003
-0.146178 0.599779 -0.395781
-0.142840 0.599823 -0.395617
-0.139806 0.601195 -0.396269
-0.136796 0.602711 -0.397014
-0.133166 0.601325 -0.395994
-0.129685 0.600544 -0.395351
-0.126618 0.601757 -0.395927
-0.123056 0.600443 -0.394971
-0.119689 0.600044 -0.394579
-0.116323 0.599590 -0.394159
-0.113472 0.601970 -0.395469
-0.110008 0.600895 -0.394683
-0.106813 0.601325 -0.394818
-0.103524 0.601157 -0.394595
-0.100184 0.600612 -0.394149
-0.097020 0.601158 -0.394372
-0.093709 0.600691 -0.393984
-0.090400 0.600161 -0.393565
-0.087198 0.600352 -0.393588
-0.084142 0.601656 -0.394292
-0.080738 0.600210 -0.393334
-0.077609 0.600925 -0.393691
-0.074461 0.601496 -0.393967
-0.071159 0.600652 -0.393389
-0.068066 0.601745 -0.393991
-0.064935 0.602518 -0.394405
-0.061685 0.602037 -0.394063
-0.058527 0.602534 -0.394319
-0.055389 0.603308 -0.394748
-0.052154 0.602863 -0.394443
-0.048851 0.601319 -0.393478
-0.045664 0.601297 -0.393440
-0.042551 0.602491 -0.394143
-0.039376 0.602737 -0.394276
-0.036125 0.601405 -0.393460
-0.032939 0.601241 -0.393355
-0.029784 0.601797 -0.393691
-0.026623 0.602337 -0.394022
-0.023467 0.603197 -0.394551
-0.020281 0.603107 -0.394510
-0.017067 0.601120 -0.393326
-0.013903 0.601807 -0.393765
-0.010729 0.601859 -0.393824
-0.007554 0.602193 -0.394059
-0.004382 0.601233 -0.393515
-0.001206 0.601707 -0.393844
0.001993 0.603252 -0.394827
0.005141 0.601562 -0.393854
0.008292 0.600643 -0.393354
0.011483 0.601234 -0.393773
0.014676 0.601711 -0.394128
0.017837 0.601256 -0.393923
0.021018 0.601298 -0.394024
0.024271 0.602660 -0.394930
0.027443 0.602357 -0.394832
0.030576 0.601451 -0.394372
0.033810 0.602116 -0.394871
0.037024 0.602379 -0.395131
0.040177 0.601802 -0.394886
0.043292 0.600821 -0.394400
0.046496 0.600910 -0.394570
0.049758 0.601562 -0.395086
0.052991 0.601818 -0.395368
0.056085 0.600700 -0.394818
0.059248 0.600276 -0.394696
0.062706 0.602376 -0.396116
0.065909 0.602174 -0.396141
0.069235 0.602904 -0.396738
0.072420 0.602492 -0.396645
0.075469 0.601090 -0.395953
0.078621 0.600469 -0.395744
0.081882 0.600592 -0.395993
0.085195 0.600996 -0.396420
0.088333 0.600246 -0.396148
0.091651 0.600593 -0.396552
0.094794 0.599862 -0.396302
0.098035 0.599688 -0.396400
0.101244 0.599309 -0.396377
0.104646 0.599940 -0.396979
0.107870 0.599579 -0.396979
0.111150 0.599478 -0.397145
0.114383 0.599114 -0.397155
0.117584 0.598578 -0.397065
0.121006 0.599051 -0.397602
0.124624 0.600344 -0.398650
0.127953 0.600267 -0.398861
0.131136 0.599522 -0.398667
0.134481 0.599454 -0.398896
0.137984 0.599995 -0.399507
0.141164 0.599180 -0.399287
0.144402 0.598586 -0.399210
0.147593 0.597799 -0.399018
0.151182 0.598496 -0.399750
0.154842 0.599389 -0.400609
0.157871 0.597936 -0.400021
0.161310 0.597948 -0.400346
0.164970 0.598684 -0.401126
0.168415 0.598626 -0.401418
0.171968 0.598893 -0.401917
0.175606 0.599387 -0.402563
0.179393 0.600305 -0.403478
0.182647 0.599485 -0.403313
0.185966 0.598860 -0.403273
0.189485 0.598827 -0.403606
0.192877 0.598390 -0.403689
0.196273 0.597950 -0.403771
0.199997 0.598435 -0.404434
0.203404 0.597988 -0.404515
0.206824 0.597564 -0.404609
0.211236 0.599835 -0.406397
0.214584 0.599161 -0.406334
0.217877 0.598342 -0.406177
0.221743 0.599022 -0.406961
0.225238 0.598720 -0.407123
0.228339 0.597425 -0.406653
0.231101 0.595323 -0.405665
0.234514 0.594864 -0.405709
0.238371 0.595486 -0.406430
0.242584 0.596938 -0.407668
0.247173 0.599230 -0.409431
0.250259 0.598003 -0.408951
0.253310 0.596742 -0.408437
0.257258 0.597541 -0.409217
0.260912 0.597685 -0.409568
0.264666 0.598069 -0.410056
0.266916 0.595227 -0.408472
0.269463 0.593118 -0.407336
0.273463 0.594147 -0.408181
0.276622 0.593440 -0.407900
0.282035 0.597408 -0.410582
0.285711 0.597806 -0.410964
0.288582 0.596631 -0.410320
0.290215 0.593078 -0.408134
0.292796 0.591511 -0.407192
0.297948 0.595005 -0.409460
0.300402 0.593315 -0.408391
0.304291 0.594433 -0.409092
0.307574 0.594450 -0.409065
0.310826 0.594470 -0.409014
0.314231 0.594831 -0.409156
0.316862 0.593841 -0.408410
0.319512 0.592965 -0.407712
0.322484 0.592745 -0.407408
0.327085 0.595473 -0.408959
0.328932 0.593391 -0.407419
0.331912 0.593380 -0.407175
0.334495 0.592748 -0.406514
-0.341070 0.591150 -0.401462
-0.337176 0.589433 -0.400698
-0.333696 0.588491 -0.400397
-0.330736 0.588540 -0.400698
-0.327935 0.588943 -0.401200
-0.325244 0.589626 -0.401854
-0.322972 0.591163 -0.403026
-0.320989 0.593340 -0.404579
-0.318765 0.595168 -0.405888
-0.314807 0.593769 -0.405130
-0.311386 0.593445 -0.405029
-0.308454 0.594130 -0.405542
-0.305670 0.595181 -0.406264
-0.302927 0.596394 -0.407065
-0.298263 0.593794 -0.405427
-0.295311 0.594697 -0.405986
-0.292108 0.595147 -0.406236
-0.289329 0.596544 -0.407065
-0.285875 0.596583 -0.407012
-0.282347 0.596503 -0.406865
-0.277913 0.594481 -0.405470
-0.275558 0.597034 -0.406952
-0.271973 0.596929 -0.406735
-0.267567 0.594984 -0.405340
-0.264519 0.596132 -0.405885
-0.261776 0.598043 -0.406898
-0.257601 0.596633 -0.405801
-0.253879 0.596282 -0.405362
-0.250016 0.595585 -0.404694
-0.246620 0.596026 -0.404735
-0.243296 0.596664 -0.404891
-0.239683 0.596582 -0.404587
-0.236475 0.597541 -0.404931
-0.233373 0.598801 -0.405458
-0.229731 0.598648 -0.405093
-0.225561 0.597040 -0.403812
-0.222445 0.598275 -0.404312
-0.219404 0.599742 -0.404954
-0.215874 0.599842 -0.404740
-0.212281 0.599739 -0.404398
-0.208591 0.599320 -0.403858
-0.204948 0.599000 -0.403382
-0.201509 0.599265 -0.403273
-0.198229 0.600009 -0.403465
-0.194304 0.598695 -0.402376
-0.190677 0.598264 -0.401842
-0.187188 0.598234 -0.401561
-0.183739 0.598308 -0.401349
-0.180438 0.598856 -0.401435
-0.177153 0.599446 -0.401551
-0.173929 0.600238 -0.401797
-0.170501 0.600281 -0.401583
-0.166831 0.599384 -0.400791
-0.163502 0.599709 -0.400762
-0.160232 0.600240 -0.400866
-0.156491 0.598876 -0.399803
-0.153015 0.598486 -0.399349
-0.149796 0.599114 -0.399529
-0.146391 0.598934 -0.399217
-0.143367 0.600374 -0.399910
-0.140095 0.600733 -0.399941
-0.136722 0.600605 -0.399678
-0.133292 0.600156 -0.399223
-0.130000 0.600310 -0.399146
-0.126810 0.600945 -0.399371
-0.123690 0.601934 -0.399820
-0.120113 0.600521 -0.398796
-0.116867 0.600787 -0.398812
-0.113735 0.601672 -0.399214
-0.110101 0.599655 -0.397838
-0.106962 0.600436 -0.398187
-0.103807 0.601131 -0.398490
-0.100705 0.602171 -0.399009
-0.097143 0.600190 -0.397680
-0.093912 0.600297 -0.397639
-0.090801 0.601243 -0.398118
-0.087576 0.601369 -0.398099
-0.084159 0.599977 -0.397156
-0.081098 0.601305 -0.397885
-0.077961 0.602077 -0.398279
-0.074619 0.601060 -0.397582
-0.071287 0.599997 -0.396863
-0.068213 0.601325 -0.397613
-0.065070 0.602031 -0.397987
-0.061816 0.601575 -0.397656
-0.058601 0.601469 -0.397544
-0.055440 0.601992 -0.397822
-0.052204 0.601543 -0.397510
-0.048939 0.600573 -0.396885
-0.045749 0.600583 -0.396864
-0.042629 0.601723 -0.397541
-0.039465 0.602242 -0.397841
-0.036244 0.601654 -0.397470
-0.032991 0.600153 -0.396545
-0.029869 0.601646 -0.397457
-0.026708 0.602407 -0.397926
-0.023519 0.602368 -0.397910
-0.020330 0.602293 -0.397877
-0.017138 0.601922 -0.397668
-0.013952 0.601671 -0.397538
-0.010771 0.601830 -0.397663
-0.007588 0.601034 -0.397209
-0.004412 0.600698 -0.397040
-0.001229 0.601250 -0.397420
0.001966 0.602194 -0.398045
0.005167 0.602918 -0.398542
0.008295 0.600539 -0.397142
0.011521 0.602007 -0.398102
0.014709 0.602013 -0.398174
0.017851 0.600900 -0.397563
0.021060 0.601397 -0.397945
0.024326 0.602833 -0.398907
0.027481 0.602068 -0.398525
0.030623 0.601215 -0.398094
0.033885 0.602168 -0.398776
0.037097 0.602294 -0.398955
0.040242 0.601530 -0.398594
0.043411 0.601103 -0.398444
0.046474 0.599523 -0.397591
0.049891 0.601775 -0.399098
0.053123 0.601920 -0.399315
0.056388 0.602331 -0.399702
0.059626 0.602425 -0.399899
0.062746 0.601469 -0.399456
0.066044 0.602001 -0.399934
0.069563 0.604181 -0.401432
0.072414 0.601156 -0.399731
0.075465 0.599756 -0.399035
0.078644 0.599315 -0.398935
0.082033 0.600270 -0.399703
0.085245 0.599975 -0.399705
0.088470 0.599751 -0.399757
0.091686 0.599445 -0.399763
0.095019 0.599800 -0.400185
0.098242 0.599474 -0.400191
0.101405 0.598802 -0.399989
0.104489 0.597708 -0.399531
0.108046 0.599077 -0.400605
0.111375 0.599189 -0.400907
0.114668 0.599077 -0.401076
0.118021 0.599221 -0.401410
0.121643 0.600556 -0.402490
0.125069 0.600905 -0.402965
0.128347 0.600545 -0.403004
0.131369 0.599062 -0.402351
0.134856 0.599558 -0.402936
0.138201 0.599413 -0.403127
0.141535 0.599190 -0.403276
0.144717 0.598342 -0.403041
0.148169 0.598523 -0.403453
0.151693 0.598925 -0.404010
0.155400 0.599943 -0.404958
0.158397 0.598338 -0.404270
0.161678 0.597754 -0.404226
0.165108 0.597672 -0.404500
0.168518 0.597486 -0.404715
0.172191 0.598141 -0.405463
0.175921 0.598923 -0.406296
0.179506 0.599178 -0.406802
0.182729 0.598261 -0.406573
0.185817 0.596929 -0.406084
0.189540 0.597527 -0.406815
0.193179 0.597829 -0.407362
0.196478 0.597098 -0.407258
0.200128 0.597374 -0.407792
0.203756 0.597551 -0.408264
0.207455 0.597897 -0.408842
0.211480 0.599096 -0.409963
0.214968 0.598801 -0.410134
0.218537 0.598715 -0.410435
0.222318 0.599165 -0.411073
0.225549 0.598187 -0.410797
0.228426 0.596345 -0.409962
0.231689 0.595505 -0.409760
0.235127 0.595115 -0.409837
0.238523 0.594635 -0.409848
0.242894 0.596481 -0.411339
0.246802 0.597201 -0.412099
0.250056 0.596407 -0.411877
0.253183 0.595362 -0.411479
0.257176 0.596301 -0.412342
0.261034 0.596937 -0.412996
0.264472 0.596667 -0.413050
0.267423 0.595381 -0.412433
0.269227 0.591725 -0.410271
0.272909 0.592134 -0.410706
0.277463 0.594376 -0.412303
0.280686 0.593880 -0.412114
0.285283 0.596217 -0.413730
0.288454 0.595695 -0.413480
0.288720 0.589494 -0.409543
0.294634 0.594519 -0.412825
0.297922 0.594413 -0.412771
0.301432 0.594787 -0.413004
0.304684 0.594723 -0.412928
0.307593 0.594076 -0.412451
0.310407 0.593326 -0.411883
0.312974 0.592200 -0.411048
0.316723 0.593304 -0.411625
0.319197 0.592155 -0.410726
0.321783 0.591291 -0.409986
0.325879 0.593173 -0.410990
0.330228 0.595530 -0.412274
0.332436 0.594192 -0.411157
-0.335628 0.586482 -0.402244
-0.332629 0.586341 -0.402466
-0.329919 0.586783 -0.403037
-0.327893 0.588548 -0.404428
-0.325492 0.589721 -0.405419
-0.323868 0.592425 -0.407365
-0.322040 0.594863 -0.409119
-0.318255 0.593705 -0.408553
-0.314913 0.593432 -0.408527
-0.310575 0.591287 -0.407280
-0.308335 0.593264 -0.408645
-0.305020 0.593213 -0.408688
-0.300513 0.590833 -0.407218
-0.298205 0.592903 -0.408572
-0.295314 0.593880 -0.409203
-0.292502 0.595094 -0.409965
-0.288771 0.594456 -0.409519
-0.285879 0.595627 -0.410209
-0.282943 0.596775 -0.410865
-0.279362 0.596586 -0.410645
-0.275758 0.596376 -0.410395
-0.271707 0.595191 -0.409503
-0.267442 0.593520 -0.408285
-0.264220 0.594222 -0.408567
-0.261342 0.595766 -0.409372
-0.257931 0.596112 -0.409398
-0.253973 0.595172 -0.408593
-0.250519 0.595441 -0.408547
-0.246935 0.595404 -0.408296
-0.243477 0.595686 -0.408238
-0.239890 0.595647 -0.407969
-0.236714 0.596668 -0.408365
-0.233969 0.598846 -0.409491
-0.230186 0.598316 -0.408890
-0.225838 0.596228 -0.407299
-0.222529 0.596920 -0.407468
-0.219307 0.597862 -0.407791
-0.216027 0.598651 -0.408016
-0.212292 0.598127 -0.407409
-0.208802 0.598285 -0.407232
-0.205252 0.598244 -0.406931
-0.201810 0.598503 -0.406821
-0.197931 0.597385 -0.405843
-0.194422 0.597364 -0.405561
-0.191260 0.598434 -0.405967
-0.187670 0.598104 -0.405495
-0.184170 0.598029 -0.405188
-0.180707 0.598041 -0.404939
-0.177483 0.598857 -0.405198
-0.174244 0.599613 -0.405423
-0.170784 0.599556 -0.405144
-0.167065 0.598500 -0.404243
-0.163776 0.598991 -0.404317
-0.160580 0.599826 -0.404611
-0.157303 0.600338 -0.404708
-0.153671 0.599391 -0.403899
-0.150174 0.598919 -0.403392
-0.147073 0.600072 -0.403906
-0.143824 0.600595 -0.404032
-0.140276 0.599764 -0.403319
-0.136931 0.599784 -0.403144
-0.133512 0.599410 -0.402728
-0.130306 0.600010 -0.402926
-0.127107 0.600637 -0.403146
-0.123781 0.600612 -0.402966
-0.120556 0.601070 -0.403092
-0.117210 0.600861 -0.402810
-0.113782 0.600136 -0.402214
-0.110505 0.600201 -0.402114
-0.106982 0.598755 -0.401082
-0.104126 0.601294 -0.402530
-0.100881 0.601484 -0.402525
-0.097410 0.600145 -0.401578
-0.094167 0.600234 -0.401522
-0.091022 0.600992 -0.401888
-0.087831 0.601431 -0.402061
-0.084550 0.601168 -0.401804
-0.081318 0.601239 -0.401760
-0.078193 0.602181 -0.402262
-0.075082 0.603299 -0.402877
-0.071670 0.601686 -0.401807
-0.068366 0.600931 -0.401274
-0.065199 0.601461 -0.401542
-0.061909 0.600668 -0.400997
-0.058668 0.600303 -0.400721
-0.055516 0.600962 -0.401085
-0.052369 0.601739 -0.401527
-0.049028 0.599824 -0.400309
-0.045856 0.600167 -0.400493
-0.042724 0.601218 -0.401119
-0.039579 0.602197 -0.401707
-0.036367 0.601962 -0.401549
-0.033164 0.601836 -0.401463
-0.029948 0.601316 -0.401139
-0.026785 0.602187 -0.401680
-0.023569 0.601402 -0.401202
-0.020380 0.601465 -0.401254
-0.017205 0.602357 -0.401823
-0.013999 0.601291 -0.401187
-0.010813 0.601610 -0.401412
-0.007623 0.600462 -0.400735
-0.004443 0.599761 -0.400339
-0.001244 0.601555 -0.401491
0.001965 0.602762 -0.402286
0.005167 0.602983 -0.402476
0.008368 0.603055 -0.402578
0.011557 0.602710 -0.402428
0.014705 0.601295 -0.401620
0.017908 0.601506 -0.401823
0.021148 0.602412 -0.402463
0.024305 0.601538 -0.402005
0.027504 0.601511 -0.402077
0.030689 0.601248 -0.402008
0.033906 0.601437 -0.402224
0.037098 0.601230 -0.402200
0.040317 0.601351 -0.402385
0.043494 0.600938 -0.402243
0.046659 0.600394 -0.402026
0.049978 0.601489 -0.402832
0.053227 0.601733 -0.403114
0.056507 0.602209 -0.403547
0.059605 0.600980 -0.402925
0.062822 0.600839 -0.402985
0.066133 0.601443 -0.403515
0.069288 0.600741 -0.403237
0.072694 0.601931 -0.404143
0.075463 0.598418 -0.402126
0.078755 0.598743 -0.402504
0.082191 0.599968 -0.403449
0.085382 0.599498 -0.403345
0.088558 0.598926 -0.403181
0.091832 0.598939 -0.403389
0.095321 0.600156 -0.404356
0.098616 0.600175 -0.404580
0.101583 0.598362 -0.403664
0.104815 0.598023 -0.403676
0.108221 0.598552 -0.404238
0.111651 0.599133 -0.404838
0.114893 0.598732 -0.404830
0.118301 0.599098 -0.405309
0.122056 0.601000 -0.406760
0.125530 0.601511 -0.407343
0.128472 0.599620 -0.406423
0.131611 0.598626 -0.406072
0.134994 0.598656 -0.406371
0.138532 0.599280 -0.407050
0.141781 0.598681 -0.406965
0.145118 0.598413 -0.407094
0.148734 0.599183 -0.407885
0.152097 0.598937 -0.408039
0.155388 0.598400 -0.408014
0.158638 0.597703 -0.407893
0.161854 0.596875 -0.407693
0.165174 0.596404 -0.407724
0.169080 0.597884 -0.408998
0.172589 0.597962 -0.409387
0.176241 0.598468 -0.410052
0.179625 0.598070 -0.410146
0.182588 0.596342 -0.409394
0.185981 0.595960 -0.409502
0.189728 0.596628 -0.410283
0.193280 0.596669 -0.410665
0.196625 0.596084 -0.410648
0.200117 0.595909 -0.410893
0.203813 0.596290 -0.411495
0.207796 0.597430 -0.412584
0.211814 0.598610 -0.413697
0.215411 0.598609 -0.414051
0.218823 0.598112 -0.414082
0.222715 0.598858 -0.414908
0.226226 0.598602 -0.415085
0.228965 0.596413 -0.414008
0.231910 0.594798 -0.413292
0.235573 0.594975 -0.413724
0.238852 0.594230 -0.413550
0.241730 0.592567 -0.412771
0.246591 0.595577 -0.415006
0.250059 0.595318 -0.415112
0.253456 0.594920 -0.415115
0.257101 0.595110 -0.415483
0.261037 0.595959 -0.416263
0.264458 0.595691 -0.416301
0.267377 0.594381 -0.415643
0.269892 0.592281 -0.414452
0.273884 0.593363 -0.415310
0.276778 0.592187 -0.414677
0.280230 0.592221 -0.414811
0.284159 0.593261 -0.415578
0.287850 0.593851 -0.416029
0.291982 0.595346 -0.417046
0.295589 0.595836 -0.417384
0.298840 0.595681 -0.417277
0.301920 0.595260 -0.416972
0.305129 0.595148 -0.416844
0.307877 0.594235 -0.416169
0.309544 0.591397 -0.414216
0.311676 0.589531 -0.412871
0.315184 0.590259 -0.413191
0.317818 0.589465 -0.412495
0.321110 0.589921 -0.412589
0.325086 0.591640 -0.413478
0.329476 0.594115 -0.414833
-0.332591 0.586067 -0.405702
-0.330322 0.587268 -0.406782
-0.328132 0.588700 -0.407990
-0.326039 0.590401 -0.409350
-0.324529 0.593283 -0.411447
-0.322114 0.594589 -0.412508
-0.318757 0.594199 -0.412450
-0.313776 0.590754 -0.410398
-0.312247 0.593979 -0.412624
-0.307804 0.591633 -0.411231
-0.304369 0.591288 -0.411105
-0.300933 0.590990 -0.410986
-0.297105 0.589945 -0.410361
-0.295069 0.592598 -0.412102
-0.292052 0.593331 -0.412580
-0.289165 0.594404 -0.413255
-0.285915 0.594779 -0.413458
-0.283190 0.596332 -0.414402
-0.279568 0.596015 -0.414116
-0.275363 0.594442 -0.413001
-0.271671 0.594006 -0.412602
-0.267874 0.593352 -0.412046
-0.264170 0.592920 -0.411616
-0.261036 0.593824 -0.412033
-0.257986 0.594973 -0.412593
-0.254253 0.594536 -0.412118
-0.250293 0.593551 -0.411278
-0.247301 0.594930 -0.411949
-0.244050 0.595708 -0.412222
-0.240278 0.595192 -0.411655
-0.237382 0.596917 -0.412519
-0.234627 0.599064 -0.413646
-0.230819 0.598472 -0.413008
-0.226468 0.596385 -0.411408
-0.222285 0.594677 -0.410050
-0.219511 0.596835 -0.411163
-0.215888 0.596639 -0.410767
-0.212510 0.597126 -0.410805
-0.209319 0.598156 -0.411189
-0.205899 0.598515 -0.411145
-0.202038 0.597518 -0.410235
-0.198378 0.597080 -0.409685
-0.195005 0.597505 -0.409685
-0.191715 0.598187 -0.409851
-0.188325 0.598532 -0.409805
-0.184486 0.597354 -0.408794
-0.181157 0.597837 -0.408842
-0.177812 0.598251 -0.408850
-0.174368 0.598295 -0.408627
-0.170956 0.598419 -0.408459
-0.167544 0.598509 -0.408274
-0.164039 0.598215 -0.407851
-0.160723 0.598603 -0.407865
-0.157565 0.599593 -0.408265
-0.154284 0.600092 -0.408359
-0.150729 0.599435 -0.407728
-0.147325 0.599352 -0.407465
-0.144111 0.600051 -0.407702
-0.140778 0.600214 -0.407606
-0.137085 0.598689 -0.406453
-0.133778 0.598863 -0.406377
-0.130525 0.599265 -0.406450
-0.127283 0.599708 -0.406554
-0.123895 0.599382 -0.406181
-0.120696 0.599996 -0.406405
-0.117560 0.600941 -0.406842
-0.113913 0.599055 -0.405508
-0.110497 0.598336 -0.404913
-0.107530 0.600205 -0.405948
-0.104268 0.600336 -0.405898
-0.100992 0.600354 -0.405783
-0.097774 0.600713 -0.405888
-0.094449 0.600331 -0.405535
-0.091213 0.600507 -0.405537
-0.087969 0.600598 -0.405492
-0.084743 0.600798 -0.405520
-0.081527 0.601051 -0.405588
-0.078403 0.602064 -0.406137
-0.075315 0.603453 -0.406926
-0.071717 0.600219 -0.404829
-0.068554 0.600848 -0.405154
-0.065291 0.600469 -0.404854
-0.062047 0.600221 -0.404642
-0.058756 0.599357 -0.404051
-0.055689 0.601107 -0.405098
-0.052532 0.601875 -0.405538
-0.049293 0.601552 -0.405300
-0.046024 0.600682 -0.404727
-0.042793 0.600237 -0.404424
-0.039661 0.601504 -0.405197
-0.036500 0.602419 -0.405755
-0.033251 0.601498 -0.405170
-0.030066 0.601949 -0.405448
-0.026849 0.601537 -0.405193
-0.023646 0.601415 -0.405124
-0.020428 0.600549 -0.404595
-0.017251 0.601495 -0.405203
-0.014065 0.602607 -0.405920
-0.010859 0.602096 -0.405628
-0.007658 0.601815 -0.405486
-0.004462 0.601259 -0.405176
-0.001255 0.602293 -0.405866
0.001947 0.602273 -0.405902
0.005146 0.602103 -0.405849
0.008351 0.602174 -0.405952
0.011545 0.601833 -0.405803
0.014733 0.601426 -0.405618
0.017935 0.601397 -0.405674
0.021117 0.600924 -0.405458
0.024307 0.600665 -0.405380
0.027472 0.600005 -0.405057
0.030680 0.600079 -0.405198
0.033909 0.600406 -0.405504
0.037125 0.600484 -0.405659
0.040344 0.600554 -0.405815
0.043653 0.601622 -0.406602
0.046981 0.602750 -0.407433
0.050148 0.602031 -0.407110
0.053303 0.601242 -0.406749
0.056427 0.600201 -0.406235
0.059663 0.600226 -0.406395
0.062843 0.599726 -0.406232
0.066066 0.599586 -0.406301
0.069334 0.599770 -0.406578
0.072612 0.599978 -0.406878
0.076044 0.601234 -0.407843
0.079277 0.600980 -0.407863
0.082299 0.599316 -0.407001
0.085549 0.599181 -0.407108
0.088749 0.598711 -0.407009
0.092199 0.599731 -0.407857
0.095420 0.599318 -0.407806
0.098908 0.600387 -0.408699
0.102067 0.599564 -0.408401
0.105103 0.598103 -0.407706
0.108467 0.598367 -0.408108
0.112009 0.599464 -0.409044
0.115215 0.598835 -0.408893
0.118556 0.598834 -0.409146
0.122469 0.601424 -0.411050
0.125703 0.600798 -0.410920
0.128759 0.599389 -0.410298
0.131833 0.598084 -0.409746
0.135374 0.598746 -0.410452
0.138832 0.598999 -0.410904
0.142176 0.598749 -0.411041
0.145347 0.597801 -0.410739
0.148694 0.597522 -0.410868
0.152226 0.597908 -0.411428
0.155615 0.597720 -0.411626
0.158885 0.597077 -0.411538
0.162130 0.596335 -0.411391
0.166297 0.598745 -0.413269
0.169631 0.598231 -0.413276
0.173069 0.598045 -0.413498
0.176302 0.597170 -0.413281
0.179638 0.596623 -0.413277
0.183002 0.596153 -0.413324
0.186476 0.596005 -0.413581
0.189853 0.595542 -0.413637
0.193352 0.595431 -0.413920
0.196898 0.595436 -0.414279
0.200184 0.594677 -0.414143
0.203761 0.594736 -0.414535
0.207889 0.596290 -0.415896
0.211744 0.597038 -0.416733
0.215420 0.597271 -0.417233
0.218988 0.597206 -0.417535
0.222377 0.596667 -0.417524
0.226480 0.597955 -0.418696
0.229071 0.595419 -0.417370
0.233271 0.596920 -0.418666
0.235907 0.594585 -0.417450
0.239567 0.594772 -0.417870
0.243229 0.594968 -0.418284
0.246819 0.595004 -0.418582
0.250166 0.594498 -0.418510
0.253958 0.595029 -0.419104
0.257607 0.595248 -0.419477
0.261247 0.595470 -0.419836
0.265129 0.596239 -0.420536
0.267750 0.594317 -0.419450
0.271193 0.594219 -0.419542
0.273748 0.592303 -0.418419
0.276954 0.591819 -0.418214
0.280163 0.591398 -0.418029
0.283758 0.591810 -0.418369
0.287652 0.592856 -0.419103
0.290913 0.592683 -0.419011
0.294286 0.592783 -0.419074
0.298186 0.593955 -0.419818
0.301603 0.594232 -0.419949
0.305262 0.595020 -0.420390
0.307782 0.593723 -0.419435
0.309162 0.590398 -0.417124
0.310490 0.587106 -0.414810
