ply
format ascii 1.0
comment ---
element vertex 1683
property float x
property float y
property float z
element face 0
property list uchar uint vertex_indices
end_header
0.177873 0.600083 -0.412748
0.181820 0.600344 -0.413262
0.185554 0.599575 -0.413183
0.189400 0.599294 -0.413394
0.193478 0.599985 -0.414180
0.197174 0.598984 -0.413987
0.201049 0.598718 -0.414229
0.205253 0.599743 -0.415233
0.209121 0.599348 -0.415416
0.213100 0.599356 -0.415841
0.217665 0.601521 -0.417540
0.221882 0.602264 -0.418415
0.225008 0.598985 -0.416933
0.229405 0.600292 -0.418155
0.233970 0.602079 -0.419668
0.237300 0.599548 -0.418644
0.240916 0.598022 -0.418219
0.244734 0.597162 -0.418193
0.248648 0.596598 -0.418348
0.252999 0.597386 -0.419312
0.257659 0.599052 -0.420805
0.261416 0.597869 -0.420614
0.265251 0.596910 -0.420563
0.269561 0.597335 -0.421340
0.273954 0.597941 -0.422233
0.278358 0.598510 -0.423111
0.281475 0.595427 -0.421812
0.286684 0.598143 -0.423986
0.290732 0.597595 -0.424211
0.294888 0.597312 -0.424599
0.298751 0.596232 -0.424512
0.303047 0.596262 -0.425095
0.307795 0.597400 -0.426347
0.311235 0.595209 -0.425595
0.315643 0.595430 -0.426297
0.320669 0.597108 -0.427881
0.324508 0.595883 -0.427708
0.328729 0.595565 -0.428082
0.332754 0.594780 -0.428169
0.338305 0.597483 -0.430373
0.341676 0.595186 -0.429530
0.345056 0.592962 -0.428722
0.348856 0.591710 -0.428495
0.354354 0.594154 -0.430518
0.359513 0.595808 -0.432050
0.363689 0.595354 -0.432281
0.368311 0.595846 -0.433078
0.372429 0.595301 -0.433224
0.376544 0.594780 -0.433368
0.380762 0.594496 -0.433639
0.385029 0.594337 -0.433968
0.389017 0.593667 -0.433961
0.393024 0.593078 -0.433981
0.396612 0.591742 -0.433516
0.399110 0.588421 -0.431798
0.405269 0.592036 -0.434343
0.409233 0.591576 -0.434341
0.412846 0.590533 -0.433951
0.416397 0.589455 -0.433509
0.420891 0.590136 -0.434128
0.425856 0.591693 -0.435262
0.430044 0.591921 -0.435541
0.433824 0.591502 -0.435388
0.436460 0.589197 -0.434034
0.439264 0.587289 -0.432894
0.445095 0.590571 -0.434944
0.448246 0.589399 -0.434199
0.450994 0.587653 -0.433067
0.454216 0.586786 -0.432450
0.458155 0.587167 -0.432577
0.461352 0.586420 -0.431974
0.464327 0.585406 -0.431176
-0.335166 0.591067 -0.403245
-0.331923 0.591189 -0.403769
-0.328537 0.591119 -0.404158
-0.325149 0.591131 -0.404569
-0.322487 0.592674 -0.405839
-0.318957 0.592589 -0.406143
-0.315903 0.593555 -0.407030
-0.313938 0.596863 -0.409246
-0.311416 0.599171 -0.410860
-0.306103 0.595753 -0.409130
-0.302258 0.595455 -0.409180
-0.298702 0.595850 -0.409606
-0.295198 0.596443 -0.410122
-0.291421 0.596526 -0.410316
-0.287850 0.597139 -0.410793
-0.284342 0.597976 -0.411375
-0.280927 0.599113 -0.412108
-0.276778 0.598645 -0.411885
-0.272780 0.598577 -0.411873
-0.268348 0.597531 -0.411270
-0.264003 0.596713 -0.410780
-0.260573 0.598150 -0.411581
-0.256650 0.598446 -0.411700
-0.252554 0.598355 -0.411578
-0.248337 0.597986 -0.411278
-0.244597 0.598862 -0.411687
-0.240573 0.599042 -0.411678
-0.236623 0.599446 -0.411787
-0.232796 0.600205 -0.412091
-0.227821 0.597847 -0.410577
-0.224214 0.599232 -0.411224
-0.220045 0.599072 -0.410969
-0.215636 0.598209 -0.410300
-0.211976 0.599505 -0.410877
-0.207648 0.598845 -0.410316
-0.203484 0.598642 -0.410017
-0.199818 0.599954 -0.410591
-0.195183 0.598247 -0.409418
-0.191619 0.599882 -0.410177
-0.188597 0.603323 -0.411976
-0.183841 0.601096 -0.410504
-0.179502 0.600166 -0.409783
-0.175303 0.599651 -0.409303
-0.171624 0.600912 -0.409850
-0.167846 0.601836 -0.410205
-0.163664 0.601271 -0.409706
-0.159447 0.600511 -0.409098
-0.155495 0.600696 -0.409039
-0.151749 0.601650 -0.409427
-0.147787 0.601740 -0.409323
-0.143631 0.600991 -0.408741
-0.139706 0.601134 -0.408678
-0.135642 0.600642 -0.408256
-0.132071 0.602246 -0.409043
-0.128492 0.603845 -0.409833
-0.124552 0.603813 -0.409693
-0.119945 0.600561 -0.407711
-0.116503 0.602767 -0.408867
-0.112618 0.602828 -0.408799
-0.108783 0.603099 -0.408858
-0.105020 0.603716 -0.409121
-0.100858 0.602150 -0.408140
-0.097178 0.603142 -0.408632
-0.092757 0.599855 -0.406678
-0.089040 0.600523 -0.406998
-0.085783 0.604033 -0.408950
-0.081540 0.601425 -0.407406
-0.077848 0.602229 -0.407822
-0.074162 0.603092 -0.408278
-0.070498 0.604129 -0.408840
-0.066499 0.602711 -0.408004
-0.062621 0.602070 -0.407618
-0.058838 0.602088 -0.407616
-0.055031 0.601857 -0.407478
-0.051260 0.601875 -0.407489
-0.047496 0.601916 -0.407519
-0.043766 0.602246 -0.407720
-0.040011 0.602310 -0.407775
-0.036208 0.601810 -0.407514
-0.032426 0.601449 -0.407338
-0.028704 0.601729 -0.407535
-0.025053 0.602940 -0.408271
-0.021374 0.603879 -0.408856
-0.017599 0.603462 -0.408672
-0.013834 0.603113 -0.408532
-0.010123 0.603623 -0.408890
-0.006411 0.604158 -0.409268
-0.002630 0.603260 -0.408830
0.001114 0.602992 -0.408759
0.004840 0.603150 -0.408938
0.008635 0.600935 -0.407761
0.012276 0.604139 -0.409698
0.016032 0.602966 -0.409129
0.019749 0.603699 -0.409661
0.023483 0.603285 -0.409539
0.027207 0.604478 -0.410345
0.030941 0.604088 -0.410247
0.034671 0.603738 -0.410178
0.038393 0.603007 -0.409895
0.042100 0.601832 -0.409363
0.045774 0.599707 -0.408288
0.049546 0.601782 -0.409635
0.053273 0.601822 -0.409816
0.056954 0.600659 -0.409311
0.060655 0.600159 -0.409192
0.064424 0.601113 -0.409916
0.068257 0.603003 -0.411185
0.071951 0.602200 -0.410908
0.075635 0.601349 -0.410609
0.079345 0.600938 -0.410569
0.083129 0.601528 -0.411111
0.086900 0.601841 -0.411500
0.090605 0.601302 -0.411402
0.094344 0.601160 -0.411539
0.098147 0.601651 -0.412048
0.101957 0.602124 -0.412553
0.105734 0.602200 -0.412834
0.109489 0.602030 -0.412978
0.113252 0.601901 -0.413152
0.117093 0.602371 -0.413680
0.121010 0.603350 -0.414510
0.124782 0.603134 -0.414651
0.128468 0.602271 -0.414423
0.132120 0.601194 -0.414075
0.135926 0.601177 -0.414351
0.139797 0.601535 -0.414852
0.143741 0.602278 -0.415584
0.147440 0.601461 -0.415413
0.151139 0.600649 -0.415251
0.154854 0.599929 -0.415148
0.158830 0.600638 -0.415888
0.162831 0.601399 -0.416665
0.166477 0.600232 -0.416321
0.170410 0.600528 -0.416841
0.174333 0.600718 -0.417306
0.178232 0.600733 -0.417675
0.182103 0.600571 -0.417948
0.185575 0.598570 -0.417146
0.190108 0.601298 -0.419135
0.193602 0.599376 -0.418393
0.197153 0.597737 -0.417823
0.201102 0.597760 -0.418240
0.205453 0.599348 -0.419591
0.209370 0.599117 -0.419875
0.213000 0.597743 -0.419489
0.217506 0.599675 -0.421070
0.221758 0.600542 -0.422030
0.225818 0.600634 -0.422537
0.229990 0.601071 -0.423258
0.233154 0.597949 -0.421866
0.237312 0.598280 -0.422537
0.241119 0.597376 -0.422480
0.244934 0.596489 -0.422439
0.249571 0.598219 -0.423971
0.253294 0.596964 -0.423723
0.257959 0.598620 -0.425227
0.261985 0.598231 -0.425513
0.265877 0.597408 -0.425543
0.270008 0.597271 -0.425991
0.274524 0.598199 -0.427088
0.278987 0.598907 -0.428059
0.282749 0.597594 -0.427815
0.286518 0.596301 -0.427586
0.290641 0.595965 -0.427940
0.294706 0.595444 -0.428184
0.298859 0.595135 -0.428560
0.303175 0.595218 -0.429176
0.307863 0.596204 -0.430344
0.312003 0.595766 -0.430647
0.316251 0.595575 -0.431100
0.320343 0.594983 -0.431307
0.324468 0.594465 -0.431556
0.328393 0.593470 -0.431509
0.333074 0.594233 -0.432537
0.337487 0.594346 -0.433160
0.342112 0.594920 -0.434062
0.345506 0.592741 -0.433260
0.349127 0.591111 -0.432785
0.354467 0.593231 -0.434615
0.359035 0.593651 -0.435384
0.363168 0.593153 -0.435572
0.367198 0.592465 -0.435628
0.372484 0.594377 -0.437280
0.376817 0.594333 -0.437702
0.380602 0.593218 -0.437439
0.384635 0.592644 -0.437492
0.388594 0.591969 -0.437459
0.392591 0.591416 -0.437479
0.395679 0.589184 -0.436426
0.400280 0.589890 -0.437181
0.404508 0.589931 -0.437495
0.408625 0.589815 -0.437683
0.411593 0.587660 -0.436568
0.416459 0.589022 -0.437625
0.420208 0.588422 -0.437424
0.424439 0.588743 -0.437769
0.430320 0.592000 -0.439924
0.433777 0.591065 -0.439421
0.435532 0.587302 -0.437115
0.438787 0.586219 -0.436457
0.443244 0.587245 -0.437090
0.448732 0.590035 -0.438798
0.451612 0.588544 -0.437791
0.454546 0.587238 -0.436870
0.457646 0.586294 -0.436147
0.462031 0.587504 -0.436742
-0.334222 0.589016 -0.405951
-0.331112 0.589330 -0.406608
-0.327255 0.588280 -0.406446
-0.323848 0.588181 -0.406813
-0.320721 0.588721 -0.407527
-0.317836 0.589845 -0.408558
-0.314866 0.590905 -0.409526
-0.312869 0.594067 -0.411698
-0.311156 0.597967 -0.414279
-0.307633 0.598242 -0.414713
-0.302846 0.595925 -0.413603
-0.298969 0.595585 -0.413624
-0.295260 0.595680 -0.413873
-0.291793 0.596382 -0.414453
-0.287456 0.595244 -0.413928
-0.283324 0.594606 -0.413670
-0.280105 0.596097 -0.414639
-0.277150 0.598298 -0.416001
-0.273878 0.599874 -0.416974
-0.269768 0.599569 -0.416819
-0.265295 0.598435 -0.416157
-0.260814 0.597296 -0.415471
-0.256691 0.597052 -0.415293
-0.252611 0.596949 -0.415179
-0.249586 0.599555 -0.416638
-0.244660 0.597370 -0.415270
-0.240345 0.596745 -0.414803
-0.235848 0.595635 -0.414039
-0.231988 0.596229 -0.414262
-0.228170 0.596965 -0.414558
-0.224441 0.597982 -0.415009
-0.220089 0.597274 -0.414440
-0.215372 0.595491 -0.413234
-0.211516 0.596163 -0.413461
-0.208480 0.599291 -0.415119
-0.204277 0.598984 -0.414762
-0.199558 0.597058 -0.413456
-0.195598 0.597430 -0.413491
-0.191744 0.598128 -0.413715
-0.188018 0.599249 -0.414185
-0.183721 0.598492 -0.413558
-0.179776 0.598867 -0.413594
-0.175960 0.599671 -0.413880
-0.172103 0.600329 -0.414083
-0.168120 0.600525 -0.414019
-0.164309 0.601325 -0.414309
-0.160240 0.601155 -0.414039
-0.156072 0.600557 -0.413523
-0.152196 0.601035 -0.413638
-0.148136 0.600753 -0.413316
-0.144103 0.600530 -0.413032
-0.140087 0.600320 -0.412762
-0.136268 0.600899 -0.412955
-0.132426 0.601360 -0.413086
-0.128696 0.602301 -0.413500
-0.124917 0.603019 -0.413792
-0.120906 0.602624 -0.413443
-0.116679 0.601115 -0.412454
-0.112982 0.602122 -0.412931
-0.109349 0.603461 -0.413607
-0.105491 0.603644 -0.413619
-0.101395 0.602492 -0.412864
-0.097479 0.602237 -0.412635
-0.093745 0.602959 -0.412979
-0.089516 0.600730 -0.411621
-0.085740 0.601103 -0.411775
-0.082144 0.602590 -0.412582
-0.078135 0.601414 -0.411853
-0.074486 0.602567 -0.412480
-0.070824 0.603668 -0.413081
-0.066865 0.602609 -0.412440
-0.062977 0.601967 -0.412047
-0.059206 0.602153 -0.412139
-0.055514 0.602975 -0.412606
-0.051492 0.600936 -0.411423
-0.047691 0.600677 -0.411277
-0.044068 0.602076 -0.412096
-0.040255 0.601630 -0.411854
-0.036594 0.602733 -0.412515
-0.032722 0.601514 -0.411837
-0.029141 0.603623 -0.413092
-0.025349 0.603239 -0.412910
-0.021609 0.603479 -0.413096
-0.017854 0.603484 -0.413151
-0.014062 0.602836 -0.412834
-0.010320 0.602929 -0.412952
-0.006558 0.602598 -0.412831
-0.002805 0.602335 -0.412754
0.000939 0.602190 -0.412751
0.004667 0.602410 -0.412966
0.008386 0.602954 -0.413374
0.012145 0.602066 -0.412958
0.015881 0.601851 -0.412938
0.019618 0.601349 -0.412756
0.023340 0.601922 -0.413204
0.027072 0.601372 -0.413006
0.030801 0.602360 -0.413706
0.034534 0.602515 -0.413928
0.038266 0.602351 -0.413970
0.041991 0.601851 -0.413823
0.045746 0.602851 -0.414553
0.049496 0.603262 -0.414946
0.053332 0.606072 -0.416742
0.056900 0.601166 -0.414053
0.060616 0.600757 -0.413985
0.064452 0.602817 -0.415362
0.068205 0.602939 -0.415615
0.071909 0.602169 -0.415354
0.075536 0.600301 -0.414458
0.079331 0.601044 -0.415091
0.083232 0.603049 -0.416467
0.086886 0.601715 -0.415898
0.090512 0.600164 -0.415208
0.094245 0.599931 -0.415294
0.098102 0.600953 -0.416120
0.101970 0.601934 -0.416928
0.105726 0.601742 -0.417056
0.109421 0.600977 -0.416855
0.113159 0.600608 -0.416890
0.117301 0.603492 -0.418841
0.120821 0.601276 -0.417805
0.124634 0.601374 -0.418135
0.128306 0.600414 -0.417848
0.132017 0.599746 -0.417738
0.136009 0.600951 -0.418738
0.139916 0.601485 -0.419350
0.143950 0.602726 -0.420385
0.147741 0.602385 -0.420495
0.151121 0.599638 -0.419191
0.154891 0.599203 -0.419257
0.158731 0.599140 -0.419550
0.162880 0.600666 -0.420791
0.166655 0.600139 -0.420825
0.170405 0.599465 -0.420777
0.174498 0.600462 -0.421728
0.178458 0.600723 -0.422250
0.182134 0.599611 -0.421964
0.186540 0.601801 -0.423649
0.190162 0.600390 -0.423199
0.193648 0.598412 -0.422417
0.197242 0.596931 -0.421937
0.201152 0.596768 -0.422250
0.206007 0.600356 -0.424814
0.209547 0.598580 -0.424180
0.213177 0.597177 -0.423774
0.217138 0.597030 -0.424128
0.221505 0.598335 -0.425362
0.226234 0.600839 -0.427325
0.229405 0.597701 -0.425905
0.233226 0.596886 -0.425888
0.236987 0.595853 -0.425745
0.241091 0.595949 -0.426291
0.245217 0.596068 -0.426858
0.249417 0.596373 -0.427545
0.254292 0.598739 -0.429489
0.258097 0.597675 -0.429361
0.261992 0.596873 -0.429399
0.266368 0.597488 -0.430303
0.271057 0.598952 -0.431731
0.275069 0.598377 -0.431924
0.278666 0.596605 -0.431392
0.282673 0.595990 -0.431568
0.286601 0.595138 -0.431603
0.290764 0.594908 -0.432021
0.295646 0.596551 -0.433592
0.299303 0.594916 -0.433154
0.303925 0.595769 -0.434246
0.308072 0.595367 -0.434568
0.312263 0.595057 -0.434946
0.316624 0.595146 -0.435569
0.320961 0.595147 -0.436137
0.325035 0.594502 -0.436301
0.329813 0.595504 -0.437483
0.335018 0.597447 -0.439245
0.338333 0.595020 -0.438288
0.342523 0.594613 -0.438577
0.347219 0.595332 -0.439559
0.350017 0.591884 -0.437931
0.354737 0.592669 -0.438932
0.358637 0.591695 -0.438821
0.362298 0.590253 -0.438402
0.367416 0.591877 -0.439886
0.372695 0.593803 -0.441545
0.376508 0.592742 -0.441313
0.380245 0.591583 -0.440997
0.384437 0.591374 -0.441257
0.388445 0.590842 -0.441291
0.391923 0.589340 -0.440689
0.395798 0.588667 -0.440584
0.399882 0.588445 -0.440737
0.404755 0.589741 -0.441822
0.408107 0.588260 -0.441125
0.413639 0.590828 -0.442958
0.417577 0.590529 -0.442950
0.422109 0.591350 -0.443621
0.425356 0.589952 -0.442858
0.430144 0.591329 -0.443820
0.432298 0.588195 -0.441896
0.434763 0.585719 -0.440357
0.438194 0.584994 -0.439894
0.443005 0.586665 -0.440919
0.447700 0.588183 -0.441814
0.451517 0.588296 -0.441790
0.455137 0.588153 -0.441574
0.460370 0.590699 -0.443028
0.461326 0.586399 -0.440125
-0.329175 0.585338 -0.408160
-0.326840 0.587176 -0.409708
-0.323802 0.587748 -0.410491
-0.319960 0.586815 -0.410364
-0.316547 0.586811 -0.410757
-0.313989 0.588628 -0.412199
-0.310944 0.589565 -0.413098
-0.310086 0.595135 -0.416709
-0.306568 0.595338 -0.417125
-0.302889 0.595287 -0.417365
-0.298364 0.593501 -0.416550
-0.295127 0.594543 -0.417384
-0.291694 0.595257 -0.417997
-0.287304 0.593937 -0.417380
-0.282701 0.592178 -0.416476
-0.279264 0.593092 -0.417133
-0.276859 0.596469 -0.419228
-0.273619 0.598049 -0.420233
-0.270118 0.599112 -0.420909
-0.265761 0.598209 -0.420396
-0.260895 0.596098 -0.419145
-0.256722 0.595676 -0.418878
-0.253081 0.596614 -0.419398
-0.248670 0.595667 -0.418782
-0.244790 0.596090 -0.418963
-0.240518 0.595528 -0.418544
-0.236118 0.594638 -0.417917
-0.231781 0.593909 -0.417372
-0.228020 0.594748 -0.417745
-0.224163 0.595355 -0.417971
-0.221127 0.598305 -0.419573
-0.215576 0.594145 -0.416958
-0.212043 0.595729 -0.417736
-0.209017 0.598867 -0.419427
-0.205330 0.600111 -0.419991
-0.200996 0.599400 -0.419396
-0.196039 0.596699 -0.417621
-0.192019 0.596867 -0.417540
-0.188131 0.597447 -0.417701
-0.185413 0.601893 -0.420142
-0.180871 0.600336 -0.419041
-0.176776 0.600228 -0.418795
-0.172091 0.598015 -0.417311
-0.169375 0.602721 -0.419905
-0.165083 0.601833 -0.419206
-0.160898 0.601272 -0.418703
-0.156637 0.600357 -0.417996
-0.152412 0.599504 -0.417329
-0.148469 0.599693 -0.417279
-0.144457 0.599565 -0.417048
-0.140532 0.599755 -0.417009
-0.136608 0.599909 -0.416954
-0.132903 0.600986 -0.417446
-0.129065 0.601477 -0.417600
-0.125229 0.601956 -0.417752
-0.121271 0.601836 -0.417558
-0.117231 0.601263 -0.417105
-0.113262 0.600971 -0.416824
-0.109655 0.602457 -0.417591
-0.105711 0.602213 -0.417350
-0.101705 0.601570 -0.416882
-0.097856 0.601715 -0.416882
-0.093976 0.601643 -0.416762
-0.089998 0.600939 -0.416279
-0.086152 0.600946 -0.416218
-0.082570 0.602579 -0.417115
-0.078717 0.602501 -0.417018
-0.074723 0.601405 -0.416332
-0.071097 0.602785 -0.417101
-0.067284 0.602848 -0.417106
-0.063336 0.601841 -0.416492
-0.059689 0.603097 -0.417208
-0.056073 0.604679 -0.418121
-0.052375 0.605641 -0.418678
-0.048466 0.604715 -0.418137
-0.044398 0.602123 -0.416628
-0.040494 0.600862 -0.415904
-0.036694 0.600526 -0.415727
-0.033071 0.602117 -0.416684
-0.029292 0.601984 -0.416638
-0.025554 0.602313 -0.416869
-0.021843 0.603011 -0.417322
-0.018085 0.603088 -0.417417
-0.014282 0.602378 -0.417059
-0.010468 0.601302 -0.416492
-0.006717 0.601215 -0.416509
-0.002977 0.601268 -0.416615
0.000757 0.601482 -0.416821
0.004467 0.602353 -0.417417
0.008237 0.601491 -0.417004
0.011977 0.601475 -0.417092
0.015732 0.600544 -0.416651
0.019470 0.600173 -0.416542
0.023194 0.600835 -0.417046
0.026929 0.600174 -0.416779
0.030660 0.600889 -0.417325
0.034403 0.602172 -0.418210
0.038129 0.600988 -0.417654
0.041866 0.601046 -0.417831
0.045620 0.601792 -0.418419
0.049411 0.603540 -0.419602
0.053156 0.603326 -0.419638
0.056882 0.602648 -0.419407
0.060435 0.598156 -0.416935
0.064319 0.601291 -0.418959
0.068119 0.602247 -0.419706
0.071793 0.600874 -0.419087
0.075528 0.600635 -0.419142
0.079367 0.601861 -0.420066
0.083210 0.602924 -0.420902
0.086911 0.602056 -0.420603
0.090269 0.597283 -0.418002
0.094161 0.598841 -0.419148
0.098009 0.599745 -0.419914
0.101850 0.600434 -0.420558
0.105783 0.601862 -0.421648
0.109414 0.600455 -0.421064
0.113149 0.600001 -0.421052
0.116948 0.600062 -0.421350
0.120955 0.601683 -0.422581
0.124581 0.600305 -0.422038
0.128167 0.598699 -0.421365
0.132171 0.600051 -0.422458
0.136226 0.601599 -0.423674
0.140062 0.601590 -0.423971
0.144075 0.602635 -0.424903
0.147742 0.601497 -0.424541
0.151369 0.600149 -0.424060
0.155025 0.599005 -0.423705
0.159039 0.599838 -0.424540
0.162859 0.599548 -0.424710
0.166672 0.599189 -0.424846
0.170321 0.597987 -0.424484
0.174695 0.600338 -0.426259
0.178528 0.599949 -0.426399
0.182163 0.598620 -0.425981
0.186181 0.599035 -0.426619
0.190384 0.600198 -0.427715
0.193674 0.597341 -0.426397
0.197887 0.598437 -0.427468
0.202046 0.599214 -0.428356
0.206269 0.600165 -0.429358
0.209690 0.597887 -0.428415
0.213288 0.596339 -0.427920
0.217294 0.596339 -0.428368
0.222113 0.599272 -0.430605
0.225904 0.598342 -0.430506
0.229821 0.597847 -0.430678
0.233304 0.595826 -0.429928
0.237244 0.595384 -0.430145
0.241407 0.595651 -0.430802
0.245602 0.595964 -0.431495
0.249859 0.596419 -0.432282
0.254097 0.596749 -0.433000
0.258060 0.596177 -0.433172
0.261930 0.595300 -0.433163
0.265899 0.594703 -0.433330
0.271151 0.597828 -0.435794
0.275219 0.597407 -0.436082
0.278697 0.595294 -0.435330
0.282332 0.593648 -0.434867
0.286444 0.593320 -0.435222
0.290998 0.594149 -0.436296
0.295559 0.594935 -0.437348
0.300141 0.595715 -0.438399
0.303897 0.594329 -0.438106
0.308238 0.594428 -0.438735
0.312353 0.593933 -0.438994
0.317334 0.595546 -0.440567
0.321388 0.594857 -0.440700
0.325789 0.594991 -0.441345
0.329839 0.594282 -0.441456
0.333403 0.592462 -0.440863
0.338700 0.594619 -0.442759
0.342679 0.593754 -0.442749
0.347259 0.594238 -0.443578
0.351538 0.594051 -0.443973
0.355046 0.592217 -0.443316
0.360577 0.594728 -0.445389
0.362812 0.590286 -0.443050
0.368999 0.594138 -0.445942
0.373043 0.593540 -0.445999
0.376708 0.592217 -0.445576
0.380465 0.591133 -0.445283
0.385026 0.591689 -0.446009
0.388961 0.591048 -0.445950
0.394505 0.593552 -0.447869
0.396545 0.589383 -0.445513
0.400680 0.589289 -0.445725
0.405574 0.590653 -0.446839
0.408388 0.588217 -0.445501
0.412140 0.587590 -0.445288
0.418433 0.591604 -0.448007
0.421815 0.590410 -0.447372
0.425277 0.589444 -0.446852
0.427983 0.587241 -0.445510
0.431047 0.585763 -0.444600
0.434555 0.585137 -0.444203
0.438310 0.585009 -0.444095
0.442449 0.585595 -0.444411
0.446486 0.586068 -0.444625
0.450763 0.586999 -0.445100
0.455610 0.588913 -0.446174
0.460979 0.591713 -0.447781
-0.327502 0.588218 -0.414217
-0.323870 0.587583 -0.414309
-0.320249 0.587044 -0.414433
-0.316624 0.586569 -0.414569
-0.313726 0.587642 -0.415601
-0.311353 0.589897 -0.417314
-0.307790 0.589817 -0.417610
-0.306783 0.595166 -0.421121
-0.302464 0.593708 -0.420543
-0.297174 0.590219 -0.418724
-0.294324 0.592009 -0.420033
-0.290697 0.592213 -0.420369
-0.286948 0.592229 -0.420567
-0.283207 0.592334 -0.420792
-0.280375 0.594573 -0.422270
-0.276737 0.595082 -0.422689
-0.273418 0.596411 -0.423575
-0.269839 0.597220 -0.424126
-0.266082 0.597683 -0.424448
-0.260734 0.594358 -0.422475
-0.256656 0.594107 -0.422327
-0.253501 0.596194 -0.423560
-0.248939 0.594827 -0.422705
-0.244827 0.594608 -0.422519
-0.241310 0.595963 -0.423262
-0.236403 0.593716 -0.421830
-0.231915 0.592545 -0.421030
-0.228408 0.594030 -0.421809
-0.225237 0.596506 -0.423169
-0.220684 0.595185 -0.422244
-0.217329 0.597255 -0.423341
-0.213447 0.597862 -0.423553
-0.209463 0.598190 -0.423591
-0.205768 0.599393 -0.424146
-0.201664 0.599375 -0.423966
-0.197299 0.598534 -0.423291
-0.192805 0.597236 -0.422339
-0.189040 0.598227 -0.422753
-0.185261 0.599189 -0.423148
-0.181619 0.600628 -0.423826
-0.176963 0.598619 -0.422448
-0.172128 0.595879 -0.420637
-0.168696 0.597995 -0.421720
-0.165283 0.600238 -0.422881
-0.161487 0.601117 -0.423231
-0.157054 0.599578 -0.422145
-0.152809 0.598664 -0.421436
-0.149096 0.599783 -0.421939
-0.145025 0.599456 -0.421587
-0.141318 0.600584 -0.422104
-0.137569 0.601546 -0.422527
-0.134139 0.603898 -0.423779
-0.129849 0.602485 -0.422803
-0.125790 0.602011 -0.422390
-0.121684 0.601245 -0.421810
-0.117668 0.600825 -0.421440
-0.113799 0.601065 -0.421469
-0.109699 0.600098 -0.420789
-0.106098 0.601636 -0.421599
-0.102121 0.601193 -0.421242
-0.098185 0.600903 -0.420982
-0.094233 0.600453 -0.420634
-0.090357 0.600376 -0.420513
-0.087045 0.603695 -0.422409
-0.083167 0.603611 -0.422298
-0.079248 0.603210 -0.422005
-0.075314 0.602625 -0.421611
-0.071136 0.600223 -0.420148
-0.067517 0.601683 -0.420977
-0.063748 0.602072 -0.421178
-0.059985 0.602494 -0.421406
-0.056282 0.603407 -0.421931
-0.052506 0.603715 -0.422104
-0.048617 0.602973 -0.421664
-0.044711 0.601949 -0.421063
-0.040864 0.601367 -0.420729
-0.036943 0.599873 -0.419863
-0.033187 0.600030 -0.419979
-0.029463 0.600536 -0.420308
-0.025751 0.601226 -0.420753
-0.022063 0.602313 -0.421439
-0.018309 0.602516 -0.421607
-0.014510 0.601992 -0.421353
-0.010656 0.600352 -0.420443
-0.006915 0.600528 -0.420614
-0.003204 0.601359 -0.421180
0.000532 0.601760 -0.421497
0.004257 0.602510 -0.422026
0.008009 0.602616 -0.422180
0.011808 0.600782 -0.421192
0.015520 0.602384 -0.422244
0.019283 0.601593 -0.421885
0.023013 0.603425 -0.423086
0.026766 0.604339 -0.423750
0.030526 0.603641 -0.423463
0.034274 0.602373 -0.422844
0.037996 0.600000 -0.421575
0.041717 0.598963 -0.421103
0.045492 0.600722 -0.422298
0.049319 0.603631 -0.424183
0.053090 0.603896 -0.424504
0.056741 0.600955 -0.422924
0.060498 0.601085 -0.423175
0.064261 0.601268 -0.423464
0.067994 0.600836 -0.423392
0.071739 0.600634 -0.423465
0.075481 0.600372 -0.423506
0.079310 0.601334 -0.424284
0.083094 0.601542 -0.424618
0.086845 0.601267 -0.424671
0.090559 0.600550 -0.424464
0.094225 0.599364 -0.423984
0.097874 0.598082 -0.423452
0.102056 0.602098 -0.426095
0.105779 0.601413 -0.425933
0.109529 0.600985 -0.425931
0.113260 0.600394 -0.425837
0.117054 0.600324 -0.426061
0.120854 0.600260 -0.426296
0.124604 0.599786 -0.426291
0.128261 0.598635 -0.425886
0.132359 0.600562 -0.427338
0.136222 0.600754 -0.427753
0.140115 0.601074 -0.428253
0.143898 0.600652 -0.428313
0.147697 0.600306 -0.428426
0.151392 0.599331 -0.428166
0.155496 0.600674 -0.429312
0.159134 0.599347 -0.428852
0.162914 0.598807 -0.428875
0.166634 0.597939 -0.428706
0.170761 0.599113 -0.429781
0.174710 0.599309 -0.430272
0.178506 0.598720 -0.430295
0.182219 0.597736 -0.430083
0.185879 0.596512 -0.429733
0.190092 0.597730 -0.430875
0.194760 0.600793 -0.433152
0.198298 0.598935 -0.432437
0.202259 0.598844 -0.432807
0.206125 0.598332 -0.432928
0.210456 0.599612 -0.434153
0.213987 0.597731 -0.433450
0.217586 0.596135 -0.432929
0.221675 0.596354 -0.433526
0.226171 0.597975 -0.434993
0.230315 0.598247 -0.435640
0.233874 0.596447 -0.435020
0.238221 0.597329 -0.436057
0.242394 0.597556 -0.436699
0.246164 0.596420 -0.436505
0.249997 0.595479 -0.436439
0.253963 0.594945 -0.436629
0.257959 0.594476 -0.436865
0.262068 0.594323 -0.437303
0.266533 0.595187 -0.438379
0.269686 0.592158 -0.437038
0.275087 0.595625 -0.439745
0.278683 0.593857 -0.439196
0.282529 0.592800 -0.439093
0.286561 0.592247 -0.439306
0.290554 0.591575 -0.439447
0.295438 0.593234 -0.441050
0.299175 0.591837 -0.440738
0.304427 0.594321 -0.442866
0.308371 0.593411 -0.442859
0.312549 0.593085 -0.443218
0.317105 0.593666 -0.444147
0.321714 0.594336 -0.445129
0.325678 0.593443 -0.445119
0.329620 0.592509 -0.445076
0.334521 0.593797 -0.446433
0.338587 0.593147 -0.446554
0.342365 0.591866 -0.446264
0.346481 0.591366 -0.446458
0.351287 0.592381 -0.447604
0.355632 0.592386 -0.448094
0.361222 0.595039 -0.450260
0.365620 0.595144 -0.450784
0.369308 0.593798 -0.450362
0.373280 0.593087 -0.450325
0.376542 0.590988 -0.449378
0.380597 0.590548 -0.449471
0.384687 0.590218 -0.449612
0.390351 0.592989 -0.451720
0.393422 0.590759 -0.450590
0.397734 0.590978 -0.451008
0.401820 0.590814 -0.451151
0.406389 0.591597 -0.451877
0.409956 0.590578 -0.451413
0.412236 0.587298 -0.449461
0.416663 0.588000 -0.450047
0.421039 0.588657 -0.450573
0.423833 0.586576 -0.449302
0.426856 0.584999 -0.448326
0.429960 0.583655 -0.447468
0.434341 0.584586 -0.448048
0.437700 0.583834 -0.447511
0.442351 0.585333 -0.448395
0.445847 0.584949 -0.448036
0.449459 0.584834 -0.447819
0.456966 0.591155 -0.451719
-0.323499 0.586598 -0.417618
-0.318957 0.584173 -0.416629
-0.316060 0.585085 -0.417617
-0.313957 0.587706 -0.419609
-0.310009 0.586687 -0.419388
-0.308527 0.590828 -0.422248
-0.305086 0.591044 -0.422720
-0.304982 0.598399 -0.427474
-0.298772 0.592949 -0.424475
-0.293211 0.588857 -0.422267
-0.290247 0.590423 -0.423450
-0.287676 0.592972 -0.425203
-0.284082 0.593363 -0.425626
-0.281121 0.595269 -0.426940
-0.277176 0.595034 -0.426934
-0.273545 0.595586 -0.427381
-0.270024 0.596474 -0.428007
-0.264948 0.593734 -0.426412
-0.260197 0.591762 -0.425260
-0.256723 0.592915 -0.425981
-0.253877 0.595707 -0.427674
-0.250063 0.596184 -0.427946
-0.246074 0.596266 -0.427959
-0.241419 0.594658 -0.426932
-0.237908 0.596044 -0.427703
-0.232641 0.592800 -0.425655
-0.228828 0.593430 -0.425939
-0.225541 0.595552 -0.427113
-0.221617 0.595968 -0.427244
-0.217670 0.596340 -0.427337
-0.214097 0.597817 -0.428090
-0.210073 0.598016 -0.428061
-0.205902 0.597778 -0.427762
-0.202038 0.598465 -0.428015
-0.197864 0.598202 -0.427690
-0.193425 0.597080 -0.426843
-0.189201 0.596595 -0.426377
-0.185340 0.597265 -0.426606
-0.181205 0.597020 -0.426283
-0.176981 0.596442 -0.425758
-0.172889 0.596271 -0.425478
-0.168722 0.595797 -0.425018
-0.165427 0.598439 -0.426434
-0.161849 0.600110 -0.427268
-0.157832 0.600161 -0.427128
-0.153209 0.597828 -0.425559
-0.149345 0.598357 -0.425715
-0.145782 0.600092 -0.426598
-0.140775 0.595887 -0.423918
-0.138241 0.601922 -0.427392
-0.134615 0.603464 -0.428171
-0.130656 0.603563 -0.428090
-0.126225 0.601465 -0.426697
-0.122069 0.600500 -0.425990
-0.118142 0.600540 -0.425891
-0.114189 0.600410 -0.425696
-0.110605 0.602096 -0.426595
-0.106221 0.599652 -0.425028
-0.102285 0.599431 -0.424798
-0.098385 0.599346 -0.424655
-0.094557 0.599618 -0.424733
-0.090733 0.599881 -0.424812
-0.087399 0.603105 -0.426670
-0.083573 0.603392 -0.426776
-0.079657 0.603075 -0.426528
-0.075754 0.602765 -0.426291
-0.071761 0.601755 -0.425642
-0.067787 0.600756 -0.425007
-0.064036 0.601316 -0.425310
-0.060229 0.601444 -0.425362
-0.056287 0.600405 -0.424723
-0.052484 0.600431 -0.424727
-0.048684 0.600439 -0.424727
-0.044962 0.601146 -0.425151
-0.041224 0.601724 -0.425505
-0.037443 0.601852 -0.425596
-0.033555 0.600750 -0.424959
-0.029838 0.601506 -0.425439
-0.026129 0.602427 -0.426024
-0.022290 0.601643 -0.425596
-0.018538 0.601983 -0.425846
-0.014710 0.601096 -0.425369
-0.010924 0.600757 -0.425226
-0.007272 0.602887 -0.426566
-0.003465 0.602127 -0.426184
0.000285 0.602503 -0.426488
0.004065 0.602076 -0.426317
0.007865 0.600822 -0.425656
0.011602 0.601507 -0.426163
0.015341 0.602404 -0.426804
0.019104 0.602242 -0.426816
0.022865 0.602128 -0.426863
0.026620 0.602892 -0.427443
0.030383 0.602865 -0.427554
0.034129 0.600472 -0.426253
0.037867 0.599469 -0.425790
0.041648 0.601462 -0.427131
0.045403 0.601378 -0.427233
0.049205 0.602950 -0.428335
0.052929 0.601620 -0.427700
0.056690 0.601601 -0.427858
0.060388 0.600110 -0.427137
0.064210 0.601403 -0.428097
0.068064 0.603003 -0.429248
0.071681 0.600296 -0.427813
0.075413 0.599777 -0.427700
0.079181 0.599787 -0.427912
0.083035 0.600901 -0.428797
0.086841 0.601223 -0.429210
0.090533 0.600151 -0.428788
0.094245 0.599380 -0.428554
0.098069 0.599806 -0.429049
0.101905 0.600260 -0.429569
0.105768 0.600869 -0.430188
0.109527 0.600464 -0.430200
0.113324 0.600373 -0.430410
0.117039 0.599588 -0.430205
0.121057 0.601159 -0.431435
0.124581 0.598898 -0.430347
0.128419 0.599009 -0.430705
0.132112 0.598071 -0.430433
0.136273 0.600253 -0.432064
0.140047 0.599765 -0.432079
0.143851 0.599456 -0.432210
0.147915 0.600667 -0.433275
0.151795 0.600695 -0.433626
0.155631 0.600430 -0.433805
0.159224 0.598813 -0.433166
0.163030 0.598369 -0.433249
0.167179 0.599665 -0.434405
0.171258 0.600492 -0.435283
0.174713 0.598196 -0.434254
0.178529 0.597686 -0.434326
0.182370 0.597264 -0.434460
0.186203 0.596785 -0.434566
0.190433 0.598023 -0.435735
0.194677 0.599209 -0.436882
0.198902 0.600217 -0.437928
0.202176 0.597251 -0.436531
0.206001 0.596564 -0.436547
0.210286 0.597657 -0.437669
0.214105 0.596878 -0.437642
0.217875 0.595903 -0.437500
0.221888 0.595807 -0.437911
0.226102 0.596387 -0.438748
0.230701 0.598248 -0.440390
0.234588 0.597540 -0.440444
0.238131 0.595658 -0.439771
0.242675 0.597105 -0.441180
0.246559 0.596316 -0.441202
0.250192 0.594709 -0.440718
0.254051 0.593826 -0.440690
0.258468 0.594640 -0.441732
0.262675 0.594751 -0.442339
0.266187 0.592760 -0.441630
0.270618 0.593470 -0.442623
0.274031 0.591205 -0.441747
0.278888 0.593035 -0.443455
0.283080 0.592929 -0.443946
0.286873 0.591710 -0.443736
0.290785 0.590813 -0.443730
0.294659 0.589814 -0.443659
0.299564 0.591483 -0.445281
0.304285 0.592604 -0.446557
0.309139 0.594000 -0.448008
0.313453 0.593994 -0.448565
0.317285 0.592797 -0.448359
0.321816 0.593294 -0.449230
0.326260 0.593554 -0.449944
0.330369 0.593015 -0.450140
0.334127 0.591676 -0.449815
0.338406 0.591550 -0.450256
0.342128 0.590181 -0.449889
0.346392 0.590047 -0.450301
0.350716 0.590050 -0.450789
0.355524 0.591099 -0.451936
0.360546 0.592586 -0.453351
0.365217 0.593318 -0.454263
0.369307 0.592855 -0.454384
0.372857 0.591326 -0.453796
0.376077 0.589200 -0.452797
0.379343 0.587249 -0.451886
0.384705 0.589493 -0.453671
0.388682 0.589034 -0.453679
0.393417 0.590082 -0.454639
0.397177 0.589301 -0.454384
0.401527 0.589692 -0.454864
0.405803 0.589987 -0.455253
0.409920 0.590038 -0.455453
0.412937 0.588147 -0.454360
0.415377 0.585315 -0.452624
0.420023 0.586522 -0.453487
0.423467 0.585652 -0.452967
0.425720 0.582786 -0.451116
0.429771 0.583141 -0.451332
0.434545 0.584790 -0.452360
0.438001 0.584244 -0.451928
0.441937 0.584580 -0.452040
0.445261 0.583958 -0.451499
0.450995 0.587390 -0.453565
-0.324722 0.588795 -0.422826
-0.318843 0.583689 -0.420223
-0.316274 0.585207 -0.421606
-0.313318 0.586053 -0.422560
-0.311225 0.588765 -0.424622
-0.307593 0.588433 -0.424811
-0.304972 0.590285 -0.426303
-0.300459 0.588264 -0.425412
-0.301978 0.599156 -0.432365
-0.294729 0.591442 -0.427950
-0.291312 0.591996 -0.428550
-0.289009 0.595101 -0.430682
-0.285561 0.595792 -0.431316
-0.280936 0.593908 -0.430350
-0.277738 0.595317 -0.431371
-0.274580 0.596920 -0.432488
-0.270112 0.595549 -0.431760
-0.265186 0.593112 -0.430357
-0.260059 0.590182 -0.428628
-0.257258 0.592915 -0.430344
-0.254781 0.596577 -0.432608
-0.251190 0.597586 -0.433228
-0.246633 0.596201 -0.432363
-0.242939 0.597050 -0.432848
-0.237580 0.593579 -0.430672
-0.233492 0.593426 -0.430510
-0.230285 0.595678 -0.431807
-0.225807 0.594527 -0.431006
-0.221979 0.595174 -0.431295
-0.218093 0.595690 -0.431491
-0.214009 0.595659 -0.431343
-0.210230 0.596531 -0.431738
-0.206341 0.597105 -0.431943
-0.202109 0.596652 -0.431513
-0.198339 0.597610 -0.431940
-0.193701 0.595852 -0.430704
-0.189778 0.596317 -0.430821
-0.185509 0.595650 -0.430245
-0.181048 0.594298 -0.429249
-0.177102 0.594626 -0.429277
-0.174440 0.599403 -0.432014
-0.169888 0.597651 -0.430773
-0.166706 0.600750 -0.432486
-0.162254 0.599262 -0.431410
-0.157902 0.598055 -0.430507
-0.153417 0.596248 -0.429243
-0.149598 0.596949 -0.429507
-0.145923 0.598225 -0.430122
-0.141849 0.597873 -0.429753
-0.137467 0.596168 -0.428568
-0.134595 0.600867 -0.431272
-0.130794 0.601643 -0.431601
-0.126492 0.600134 -0.430550
-0.122177 0.598443 -0.429394
-0.118424 0.599311 -0.429794
-0.114940 0.601500 -0.431002
-0.110911 0.601017 -0.430595
-0.106481 0.598367 -0.428884
-0.102407 0.597423 -0.428212
-0.098816 0.599040 -0.429096
-0.094950 0.599146 -0.429073
-0.091339 0.600708 -0.429936
-0.087474 0.600784 -0.429907
-0.083771 0.601835 -0.430474
-0.079937 0.602062 -0.430550
-0.075981 0.601435 -0.430117
-0.072111 0.601308 -0.429992
-0.068232 0.601068 -0.429806
-0.064318 0.600484 -0.429418
-0.060430 0.600016 -0.429108
-0.056520 0.599275 -0.428639
-0.052571 0.598073 -0.427899
-0.048832 0.598611 -0.428216
-0.045056 0.598808 -0.428334
-0.041392 0.600093 -0.429117
-0.037845 0.602721 -0.430717
-0.034023 0.602531 -0.430622
-0.030193 0.602166 -0.430427
-0.026345 0.601491 -0.430052
-0.022547 0.601341 -0.430000
-0.018729 0.600822 -0.429731
-0.014928 0.600438 -0.429552
-0.011147 0.600300 -0.429526
-0.007505 0.602764 -0.431081
-0.003872 0.605923 -0.433063
0.000108 0.601440 -0.430429
0.003899 0.600855 -0.430159
0.007677 0.600436 -0.429995
0.011501 0.597942 -0.428582
0.015174 0.601702 -0.430961
0.018946 0.601310 -0.430833
0.022716 0.600635 -0.430539
0.026474 0.601208 -0.431007
0.030239 0.602124 -0.431690
0.034009 0.602376 -0.431977
0.037770 0.601664 -0.431686
0.041532 0.601387 -0.431664
0.045305 0.601675 -0.431991
0.049073 0.601643 -0.432131
0.052830 0.601250 -0.432058
0.056552 0.600013 -0.431477
0.060351 0.600794 -0.432129
0.064061 0.599550 -0.431556
0.068066 0.603910 -0.434399
0.071774 0.602500 -0.433738
0.075336 0.599033 -0.431830
0.079156 0.599706 -0.432449
0.082989 0.600413 -0.433095
0.086900 0.601954 -0.434256
0.090645 0.601335 -0.434107
0.094400 0.600861 -0.434053
0.098067 0.599485 -0.433454
0.101874 0.599573 -0.433756
0.105741 0.600173 -0.434377
0.109679 0.601287 -0.435320
0.113304 0.599629 -0.434574
0.117418 0.602006 -0.436305
0.121103 0.600833 -0.435869
0.124743 0.599372 -0.435261
0.128287 0.597295 -0.434282
0.132388 0.599147 -0.435722
0.136125 0.598418 -0.435583
0.140170 0.599663 -0.436665
0.143982 0.599332 -0.436786
0.148003 0.600235 -0.437674
0.151948 0.600591 -0.438232
0.155527 0.598832 -0.437494
0.159568 0.599640 -0.438347
0.163331 0.598886 -0.438242
0.167344 0.599411 -0.438936
0.171073 0.598449 -0.438717
0.174777 0.597367 -0.438430
0.178622 0.596961 -0.438570
0.182474 0.596563 -0.438722
0.186626 0.597480 -0.439697
0.190866 0.598691 -0.440865
0.195042 0.599527 -0.441809
0.198958 0.599188 -0.442030
0.202732 0.598239 -0.441877
0.206237 0.596216 -0.441060
0.209982 0.595173 -0.440861
0.214101 0.595546 -0.441554
0.218488 0.596857 -0.442844
0.222279 0.595893 -0.442716
0.226481 0.596391 -0.443512
0.230827 0.597326 -0.444591
0.234585 0.596159 -0.444356
0.238402 0.595188 -0.444250
0.241321 0.591250 -0.442277
0.246783 0.595645 -0.445568
0.250447 0.594123 -0.445130
0.254755 0.594621 -0.445975
0.258985 0.594819 -0.446636
0.263124 0.594695 -0.447099
0.267053 0.593915 -0.447150
0.270677 0.592236 -0.446631
0.274790 0.591973 -0.447016
0.279096 0.592221 -0.447730
0.284010 0.594101 -0.449489
0.287640 0.592406 -0.448968
0.291108 0.590303 -0.448184
0.295593 0.590903 -0.449129
0.299830 0.590819 -0.449636
0.304383 0.591513 -0.450642
0.309544 0.593686 -0.452598
0.313701 0.593298 -0.452905
0.317718 0.592560 -0.452981
0.321789 0.591961 -0.453140
0.326194 0.592154 -0.453804
0.330848 0.592910 -0.454824
0.334852 0.592150 -0.454855
0.338093 0.589683 -0.453766
0.342263 0.589356 -0.454053
0.346840 0.589938 -0.454916
0.350934 0.589465 -0.455079
0.354956 0.588862 -0.455141
0.359677 0.589765 -0.456168
0.364613 0.591112 -0.457467
0.368808 0.590924 -0.457744
0.372466 0.589675 -0.457307
0.375056 0.586340 -0.455482
0.380261 0.588308 -0.457102
0.384685 0.588735 -0.457689
0.387869 0.586787 -0.456695
0.392371 0.587453 -0.457387
0.397262 0.588887 -0.458557
0.401070 0.588309 -0.458377
0.405225 0.588439 -0.458634
0.409130 0.588160 -0.458593
0.411970 0.586012 -0.457294
0.415968 0.586045 -0.457397
0.421333 0.588567 -0.459106
0.423295 0.585113 -0.456856
0.425474 0.582167 -0.454910
0.430894 0.584933 -0.456687
0.435917 0.587035 -0.457998
0.439029 0.585926 -0.457167
0.440907 0.582833 -0.455004
0.444752 0.583134 -0.455041
-0.322313 0.590369 -0.428175
-0.316760 0.585922 -0.425944
-0.313514 0.586140 -0.426541
-0.310202 0.586310 -0.427084
-0.307747 0.588335 -0.428740
-0.302965 0.585625 -0.427464
-0.300697 0.588242 -0.429436
-0.297667 0.589371 -0.430468
-0.295765 0.593035 -0.433037
-0.291752 0.592254 -0.432843
-0.288481 0.593168 -0.433668
-0.284332 0.592219 -0.433318
-0.280727 0.592548 -0.433730
-0.277608 0.594067 -0.434852
-0.274936 0.596727 -0.436656
-0.271256 0.597158 -0.437057
-0.266148 0.594264 -0.435380
-0.259898 0.588602 -0.431967
-0.257013 0.591059 -0.433551
-0.254859 0.595445 -0.436307
-0.251353 0.596607 -0.437049
-0.247104 0.595956 -0.436650
-0.241882 0.592813 -0.434691
-0.237620 0.592130 -0.434235
-0.233855 0.592783 -0.434589
-0.230418 0.594373 -0.435507
-0.226863 0.595710 -0.436253
-0.222471 0.594777 -0.435584
-0.217796 0.593027 -0.434397
-0.213881 0.593422 -0.434526
-0.210318 0.594875 -0.435297
-0.206649 0.596064 -0.435897
-0.202899 0.597051 -0.436363
-0.198141 0.594954 -0.434920
-0.194738 0.597039 -0.436051
-0.190739 0.597283 -0.436042
-0.185948 0.594936 -0.434432
-0.181696 0.594279 -0.433862
-0.178403 0.596832 -0.435267
-0.174155 0.596159 -0.434683
-0.170500 0.597531 -0.435358
-0.166517 0.597753 -0.435325
-0.162491 0.597793 -0.435181
-0.157891 0.595652 -0.433699
-0.153650 0.594762 -0.432987
-0.149802 0.595343 -0.433183
-0.146291 0.597268 -0.434205
-0.142339 0.597430 -0.434149
-0.138083 0.596284 -0.433295
-0.134583 0.598305 -0.434388
-0.130974 0.599900 -0.435223
-0.126523 0.597723 -0.433750
-0.122564 0.597677 -0.433590
-0.118829 0.598652 -0.434060
-0.115475 0.601502 -0.435684
-0.111236 0.600011 -0.434655
-0.107115 0.598998 -0.433926
-0.103011 0.597970 -0.433194
-0.099345 0.599240 -0.433873
-0.095836 0.601435 -0.435125
-0.091615 0.599558 -0.433893
-0.087665 0.599147 -0.433564
-0.083891 0.599760 -0.433868
-0.080024 0.599767 -0.433808
-0.076334 0.600920 -0.434455
-0.072453 0.600770 -0.434313
-0.068662 0.601223 -0.434545
-0.064781 0.600983 -0.434361
-0.060764 0.599605 -0.433489
-0.057021 0.600302 -0.433891
-0.053233 0.600633 -0.434077
-0.049003 0.596967 -0.431828
-0.045260 0.597488 -0.432143
-0.041475 0.597590 -0.432209
-0.037797 0.598795 -0.432955
-0.034182 0.600798 -0.434196
-0.030365 0.600606 -0.434102
-0.026598 0.600972 -0.434356
-0.022809 0.601049 -0.434440
-0.018967 0.600314 -0.434035
-0.015106 0.599087 -0.433335
-0.011347 0.599381 -0.433572
-0.007749 0.602764 -0.435703
-0.003999 0.603635 -0.436306
-0.000057 0.600041 -0.434185
0.003678 0.601063 -0.434893
0.007449 0.601228 -0.435084
0.011232 0.600949 -0.435009
0.015010 0.600679 -0.434946
0.018780 0.600763 -0.435106
0.022560 0.599872 -0.434676
0.026303 0.605193 -0.438056
0.030095 0.602903 -0.436782
0.033871 0.602091 -0.436419
0.037639 0.601210 -0.436020
0.041397 0.600268 -0.435590
0.045169 0.600347 -0.435791
0.048955 0.600866 -0.436270
0.052742 0.601212 -0.436649
0.056528 0.601390 -0.436931
0.060262 0.600285 -0.436432
0.064144 0.602411 -0.437924
0.067823 0.600330 -0.436837
0.071709 0.602054 -0.438096
0.075411 0.600624 -0.437421
0.079136 0.599694 -0.437060
0.083021 0.600961 -0.438058
0.086749 0.600087 -0.437745
0.090581 0.600478 -0.438217
0.094344 0.600024 -0.438175
0.098091 0.599421 -0.438048
0.101962 0.600041 -0.438682
0.105856 0.600765 -0.439388
0.109586 0.599936 -0.439141
0.113338 0.599320 -0.439032
0.117145 0.599153 -0.439208
0.121074 0.599902 -0.439957
0.124844 0.599370 -0.439921
0.128485 0.597913 -0.439317
0.132217 0.597141 -0.439145
0.136336 0.598941 -0.440577
0.140112 0.598378 -0.440549
0.144290 0.600289 -0.442067
0.148213 0.600507 -0.442540
0.151947 0.599572 -0.442302
0.155994 0.600401 -0.443171
0.159685 0.599203 -0.442784
0.163548 0.598938 -0.442986
0.167285 0.597990 -0.442767
0.170996 0.596923 -0.442482
0.174748 0.596063 -0.442332
0.178395 0.594707 -0.441878
0.182713 0.596457 -0.443380
0.186854 0.597278 -0.444308
0.191012 0.598086 -0.445238
0.195104 0.598530 -0.445946
0.198887 0.597615 -0.445807
0.202662 0.596662 -0.445650
0.206396 0.595547 -0.445398
0.210036 0.594066 -0.444921
0.214260 0.594823 -0.445865
0.218383 0.595124 -0.446530
0.223012 0.597207 -0.448332
0.227204 0.597604 -0.449074
0.231094 0.596881 -0.449112
0.235213 0.596924 -0.449643
0.238591 0.594435 -0.448569
0.242888 0.595022 -0.449460
0.246918 0.594681 -0.449764
0.250987 0.594431 -0.450133
0.254962 0.593858 -0.450300
0.259581 0.595229 -0.451717
0.263646 0.594850 -0.452019
0.267717 0.594464 -0.452320
0.271489 0.593185 -0.452049
0.275747 0.593298 -0.452677
0.279938 0.593185 -0.453161
0.284366 0.593693 -0.454049
0.288349 0.592948 -0.454128
0.292152 0.591718 -0.453894
0.297788 0.595302 -0.456775
0.300593 0.591447 -0.454836
0.304658 0.590887 -0.455029
0.309598 0.592510 -0.456636
0.314012 0.592772 -0.457357
0.317692 0.591229 -0.456896
0.321716 0.590544 -0.456985
0.326371 0.591351 -0.458042
0.331082 0.592261 -0.459157
0.335167 0.591707 -0.459305
0.338843 0.590250 -0.458849
0.342776 0.589406 -0.458780
0.346985 0.589198 -0.459115
0.351444 0.589549 -0.459800
0.355821 0.589728 -0.460356
0.360063 0.589637 -0.460716
0.364916 0.590842 -0.461911
0.369212 0.590897 -0.462327
0.372362 0.588649 -0.461202
0.376318 0.588108 -0.461179
0.381684 0.590408 -0.463009
0.384477 0.587654 -0.461473
0.387741 0.585916 -0.460581
0.392108 0.586375 -0.461115
0.397486 0.588783 -0.462914
0.402005 0.589580 -0.463617
0.405786 0.589047 -0.463409
0.408934 0.587419 -0.462447
0.411255 0.584384 -0.460519
0.415405 0.584749 -0.460817
0.420662 0.587136 -0.462426
0.423810 0.585827 -0.461552
0.425234 0.581603 -0.458714
0.429737 0.582835 -0.459465
0.436284 0.587602 -0.462530
0.437827 0.583873 -0.459931
0.439138 0.579888 -0.457134
0.440780 0.576589 -0.454765
-0.318350 0.588894 -0.431667
-0.312845 0.584523 -0.429453
-0.310705 0.587025 -0.431462
-0.305837 0.584025 -0.430042
-0.300907 0.580914 -0.428524
-0.299232 0.584680 -0.431246
-0.297912 0.589361 -0.434515
-0.295253 0.591339 -0.436082
-0.291470 0.590991 -0.436177
-0.286405 0.587884 -0.434528
-0.282327 0.586978 -0.434223
-0.279820 0.589671 -0.436134
-0.276514 0.590672 -0.436967
-0.273909 0.593392 -0.438848
-0.270717 0.594871 -0.439930
-0.266554 0.594146 -0.439613
-0.259180 0.585740 -0.434476
-0.256075 0.587571 -0.435706
-0.254170 0.592471 -0.438834
-0.251094 0.594624 -0.440223
-0.245811 0.591275 -0.438156
-0.241596 0.590628 -0.437757
-0.237443 0.590164 -0.437453
-0.234306 0.592419 -0.438831
-0.230677 0.593450 -0.439428
-0.226643 0.593430 -0.439353
-0.221306 0.589805 -0.437012
-0.216968 0.588908 -0.436363
-0.213990 0.591912 -0.438137
-0.210079 0.592297 -0.438265
-0.206851 0.594740 -0.439667
-0.203401 0.596596 -0.440693
-0.199230 0.596300 -0.440370
-0.194980 0.595743 -0.439877
-0.190925 0.595783 -0.439751
-0.186674 0.595175 -0.439218
-0.182215 0.593842 -0.438228
-0.178492 0.594929 -0.438744
-0.174730 0.595909 -0.439190
-0.170436 0.595035 -0.438482
-0.166598 0.595744 -0.438757
-0.162429 0.595239 -0.438279
-0.158451 0.595399 -0.438214
-0.154306 0.594899 -0.437741
-0.150609 0.596097 -0.438325
-0.146670 0.596348 -0.438323
-0.143013 0.597731 -0.439026
-0.138906 0.597257 -0.438580
-0.135310 0.598917 -0.439462
-0.131433 0.599384 -0.439608
-0.127369 0.598988 -0.439223
-0.123402 0.598979 -0.439084
-0.119559 0.599516 -0.439288
-0.115564 0.599300 -0.439031
-0.111829 0.600332 -0.439552
-0.107580 0.598727 -0.438447
-0.103780 0.599365 -0.438736
-0.099995 0.600075 -0.439076
-0.096048 0.599877 -0.438861
-0.092115 0.599696 -0.438661
-0.087896 0.597737 -0.437371
-0.084131 0.598416 -0.437717
-0.080694 0.601222 -0.439384
-0.076566 0.599562 -0.438298
-0.072851 0.600591 -0.438880
-0.069092 0.601338 -0.439295
-0.065355 0.602259 -0.439824
-0.061375 0.601319 -0.439210
-0.057409 0.600353 -0.438587
-0.053788 0.602203 -0.439710
-0.049696 0.599960 -0.438313
-0.045697 0.598316 -0.437293
-0.041844 0.597903 -0.437039
-0.038113 0.598671 -0.437522
-0.034262 0.598150 -0.437215
-0.030596 0.599692 -0.438189
-0.026839 0.600262 -0.438570
-0.023058 0.600523 -0.438766
-0.019158 0.599051 -0.437899
-0.015314 0.598170 -0.437404
-0.011604 0.599406 -0.438223
-0.007808 0.599191 -0.438152
-0.004042 0.599515 -0.438421
-0.000330 0.601171 -0.439521
0.003459 0.601142 -0.439585
0.007253 0.600903 -0.439526
0.011079 0.599287 -0.438623
0.014834 0.600217 -0.439299
0.018620 0.599691 -0.439083
0.022389 0.600293 -0.439570
0.026163 0.601305 -0.440319
0.029948 0.602959 -0.441471
0.033732 0.601720 -0.440839
0.037500 0.600163 -0.440016
0.041276 0.599999 -0.440063
0.045047 0.599641 -0.439995
0.048845 0.600380 -0.440615
0.052671 0.601690 -0.441595
0.056469 0.601868 -0.441880
0.060251 0.601593 -0.441890
0.064041 0.601477 -0.442006
0.067810 0.600966 -0.441883
0.071577 0.600480 -0.441781
0.075317 0.599607 -0.441446
0.079084 0.599207 -0.441411
0.082895 0.599395 -0.441749
0.086645 0.598773 -0.441589
0.090546 0.599935 -0.442547
0.094470 0.601155 -0.443549
0.098040 0.598565 -0.442181
0.101888 0.598907 -0.442650
0.105790 0.599664 -0.443384
0.109547 0.599041 -0.443264
0.113241 0.597890 -0.442820
0.117025 0.597518 -0.442870
0.120993 0.598557 -0.443810
0.124810 0.598344 -0.443974
0.128515 0.597311 -0.443631
0.132299 0.596850 -0.443652
0.136219 0.597270 -0.444235
0.140440 0.599533 -0.445983
0.144538 0.600844 -0.447143
0.148395 0.600587 -0.447324
0.152365 0.600953 -0.447905
0.156098 0.599920 -0.447612
0.159760 0.598527 -0.447098
0.163588 0.598037 -0.447161
0.167454 0.597719 -0.447341
0.171112 0.596342 -0.446857
0.174815 0.595209 -0.446535
0.178895 0.595867 -0.447354
0.183349 0.598154 -0.449215
0.187010 0.596734 -0.448733
0.191178 0.597552 -0.449679
0.194986 0.596750 -0.449604
0.198630 0.595255 -0.449094
0.202530 0.594822 -0.449268
0.206859 0.596062 -0.450515
0.210735 0.595445 -0.450586
0.214172 0.593147 -0.449589
0.218324 0.593549 -0.450324
0.223443 0.597404 -0.453280
0.227838 0.598480 -0.454466
0.231638 0.597391 -0.454269
0.235398 0.596163 -0.453990
0.239079 0.594675 -0.453547
0.242768 0.593225 -0.453133
0.247238 0.594305 -0.454355
0.251554 0.594817 -0.455217
0.255887 0.595321 -0.456080
0.259646 0.594015 -0.455777
0.263917 0.594253 -0.456477
0.268004 0.593901 -0.456798
0.272112 0.593584 -0.457145
0.275909 0.592362 -0.456905
0.280835 0.594299 -0.458723
0.284620 0.593008 -0.458441
0.288452 0.591857 -0.458248
0.292846 0.592208 -0.459034
0.297320 0.592729 -0.459932
0.301447 0.592319 -0.460218
0.305327 0.591275 -0.460085
0.309687 0.591443 -0.460741
0.314945 0.593795 -0.462829
0.318341 0.591559 -0.461894
0.322099 0.590240 -0.461553
0.326972 0.591574 -0.462951
0.331708 0.592548 -0.464103
0.334994 0.590183 -0.463037
0.339147 0.589839 -0.463293
0.342843 0.588497 -0.462873
0.346738 0.587635 -0.462755
0.351535 0.588763 -0.463940
0.355565 0.588238 -0.464010
0.360742 0.590166 -0.465693
0.365021 0.590200 -0.466096
0.369023 0.589693 -0.466117
0.373044 0.589266 -0.466168
0.376608 0.587967 -0.465613
0.381046 0.588468 -0.466234
0.384856 0.587769 -0.466027
0.388225 0.586277 -0.465264
0.392365 0.586338 -0.465510
0.397318 0.587984 -0.466788
0.401545 0.588286 -0.467139
0.405721 0.588542 -0.467430
0.409399 0.587935 -0.467114
0.411653 0.584819 -0.465088
0.415334 0.584383 -0.464825
0.419948 0.585673 -0.465687
0.422293 0.583011 -0.463874
0.425031 0.581146 -0.462564
0.428970 0.581452 -0.462677
0.434038 0.583746 -0.464091
0.436172 0.581094 -0.462165
0.437720 0.577571 -0.459630
