ply
format ascii 1.0
comment ---
element vertex 1675
property float x
property float y
property float z
element face 0
property list uchar uint vertex_indices
end_header
-0.339191 0.606759 -0.126743
-0.335828 0.606756 -0.126788
-0.333342 0.608415 -0.127089
-0.330398 0.609305 -0.127275
-0.326884 0.609185 -0.127311
-0.323501 0.609345 -0.127391
-0.319659 0.608655 -0.127344
-0.316532 0.609357 -0.127511
-0.314047 0.611352 -0.127877
-0.310738 0.611767 -0.128003
-0.307117 0.611566 -0.128036
-0.303788 0.611955 -0.128160
-0.300505 0.612439 -0.128299
-0.297141 0.612755 -0.128414
-0.293582 0.612651 -0.128463
-0.289659 0.611745 -0.128390
-0.286427 0.612288 -0.128539
-0.283238 0.612912 -0.128701
-0.279283 0.611821 -0.128598
-0.275879 0.611908 -0.128676
-0.272685 0.612440 -0.128822
-0.269183 0.612236 -0.128854
-0.266191 0.613186 -0.129063
-0.262980 0.613597 -0.129188
-0.259258 0.612747 -0.129118
-0.256073 0.613141 -0.129239
-0.252657 0.612930 -0.129265
-0.249455 0.613207 -0.129366
-0.246389 0.613792 -0.129513
-0.242481 0.612176 -0.129319
-0.239584 0.613113 -0.129519
-0.236570 0.613720 -0.129667
-0.233183 0.613296 -0.129654
-0.230230 0.613999 -0.129814
-0.226273 0.611890 -0.129537
-0.223240 0.612278 -0.129647
-0.220240 0.612729 -0.129765
-0.216736 0.611683 -0.129649
-0.213776 0.612166 -0.129771
-0.211099 0.613468 -0.130019
-0.208069 0.613697 -0.130098
-0.204717 0.612892 -0.130016
-0.201885 0.613657 -0.130178
-0.198509 0.612665 -0.130064
-0.195493 0.612772 -0.130121
-0.192620 0.613314 -0.130245
-0.189793 0.613993 -0.130389
-0.186860 0.614295 -0.130474
-0.183850 0.614299 -0.130511
-0.180758 0.613980 -0.130497
-0.177767 0.613974 -0.130531
-0.174982 0.614692 -0.130677
-0.171891 0.614257 -0.130643
-0.169044 0.614703 -0.130745
-0.166163 0.614998 -0.130823
-0.163069 0.614429 -0.130765
-0.160096 0.614298 -0.130775
-0.157226 0.614552 -0.130844
-0.154367 0.614835 -0.130918
-0.151629 0.615622 -0.131069
-0.148580 0.615045 -0.131006
-0.145699 0.615168 -0.131053
-0.142678 0.614630 -0.130994
-0.139991 0.615608 -0.131174
-0.137167 0.615947 -0.131253
-0.134213 0.615634 -0.131228
-0.131258 0.615279 -0.131196
-0.128357 0.615159 -0.131201
-0.125590 0.615726 -0.131314
-0.122727 0.615768 -0.131343
-0.119831 0.615613 -0.131341
-0.116994 0.615766 -0.131386
-0.114135 0.615774 -0.131409
-0.111338 0.616134 -0.131487
-0.108443 0.615891 -0.131469
-0.105530 0.615491 -0.131426
-0.102610 0.615007 -0.131369
-0.099787 0.615132 -0.131408
-0.097037 0.615769 -0.131527
-0.094134 0.615309 -0.131473
-0.091350 0.615705 -0.131554
-0.088522 0.615768 -0.131582
-0.085747 0.616253 -0.131676
-0.082897 0.616126 -0.131673
-0.080070 0.616166 -0.131696
-0.077278 0.616535 -0.131771
-0.074330 0.615400 -0.131608
-0.071538 0.615725 -0.131676
-0.068774 0.616377 -0.131795
-0.065863 0.615426 -0.131660
-0.062999 0.614919 -0.131595
-0.060218 0.615380 -0.131683
-0.057415 0.615602 -0.131733
-0.054621 0.615968 -0.131806
-0.051763 0.615377 -0.131727
-0.048921 0.614969 -0.131676
-0.046098 0.614802 -0.131664
-0.043284 0.614780 -0.131674
-0.040462 0.614581 -0.131657
-0.037637 0.614251 -0.131618
-0.034829 0.614294 -0.131638
-0.032040 0.614925 -0.131751
-0.029244 0.615504 -0.131856
-0.026412 0.614754 -0.131750
-0.023602 0.614786 -0.131768
-0.020790 0.614730 -0.131772
-0.017978 0.614473 -0.131743
-0.015168 0.614525 -0.131764
-0.012358 0.614715 -0.131806
-0.009548 0.614591 -0.131798
-0.006730 0.615238 -0.131913
-0.003904 0.616029 -0.132050
-0.001074 0.616654 -0.132161
0.001709 0.615139 -0.131932
0.004576 0.616885 -0.132220
0.007336 0.615062 -0.131942
0.010186 0.615966 -0.132096
0.013016 0.616198 -0.132144
0.015797 0.615391 -0.132026
0.018540 0.613980 -0.131813
0.021357 0.614069 -0.131837
0.024174 0.614132 -0.131857
0.027037 0.614849 -0.131981
0.029907 0.615570 -0.132105
0.032652 0.614564 -0.131955
0.035508 0.615012 -0.132035
0.038213 0.613665 -0.131831
0.041011 0.613459 -0.131807
0.043941 0.614629 -0.132001
0.046805 0.615026 -0.132073
0.049578 0.614514 -0.132000
0.052473 0.615139 -0.132108
0.055225 0.614454 -0.132006
0.057963 0.613697 -0.131894
0.060703 0.612997 -0.131790
0.063545 0.613119 -0.131816
0.066570 0.614585 -0.132056
0.069419 0.614667 -0.132076
0.072226 0.614437 -0.132045
0.075039 0.614243 -0.132020
0.077852 0.614050 -0.131995
0.080764 0.614473 -0.132068
0.083622 0.614525 -0.132081
0.086332 0.613673 -0.131950
0.088866 0.611832 -0.131661
0.091778 0.612200 -0.131724
0.094884 0.613596 -0.131950
0.097729 0.613505 -0.131938
0.100419 0.612591 -0.131795
0.103277 0.612558 -0.131792
0.106080 0.612229 -0.131742
0.108788 0.611434 -0.131617
0.111702 0.611631 -0.131649
0.114654 0.611968 -0.131703
0.117753 0.612938 -0.131857
0.120545 0.612479 -0.131784
0.123298 0.611843 -0.131682
0.126183 0.611774 -0.131669
0.128737 0.610304 -0.131433
0.131643 0.610302 -0.131430
0.134383 0.609606 -0.131316
0.137153 0.609031 -0.131221
0.140499 0.610660 -0.131475
0.143036 0.609153 -0.131230
0.146337 0.610493 -0.131438
0.149367 0.610774 -0.131476
0.152429 0.611127 -0.131526
0.155384 0.611059 -0.131507
0.158232 0.610598 -0.131425
0.161163 0.610394 -0.131383
0.163882 0.609462 -0.131225
0.166918 0.609564 -0.131231
0.170309 0.610766 -0.131411
0.172919 0.609428 -0.131185
0.176066 0.609764 -0.131226
0.179417 0.610676 -0.131357
0.182293 0.610092 -0.131249
0.185174 0.609502 -0.131140
0.188295 0.609593 -0.131138
0.191959 0.611203 -0.131377
0.195163 0.611422 -0.131393
0.197917 0.610334 -0.131201
0.200674 0.609248 -0.131009
0.204304 0.610516 -0.131189
0.207369 0.610199 -0.131117
0.209109 0.606353 -0.130484
0.213290 0.608915 -0.130866
0.216529 0.608950 -0.130847
0.219971 0.609452 -0.130901
0.223165 0.609280 -0.130847
0.226262 0.608830 -0.130749
0.228844 0.607102 -0.130446
0.232270 0.607392 -0.130463
0.235792 0.607858 -0.130507
0.239014 0.607573 -0.130431
0.241873 0.606420 -0.130216
0.244831 0.605477 -0.130035
0.248483 0.606074 -0.130096
0.252026 0.606377 -0.130110
0.255479 0.606435 -0.130085
0.258475 0.605474 -0.129898
0.262232 0.606123 -0.129965
0.265964 0.606669 -0.130015
0.269182 0.606109 -0.129891
0.272858 0.606476 -0.129913
0.276021 0.605772 -0.129766
0.279691 0.606080 -0.129778
0.283510 0.606660 -0.129834
0.286997 0.606567 -0.129784
0.290463 0.606430 -0.129728
0.294059 0.606541 -0.129712
0.296812 0.605067 -0.129448
0.300771 0.605882 -0.129545
0.304699 0.606637 -0.129634
0.307810 0.605906 -0.129491
0.311509 0.606279 -0.129523
0.315010 0.606322 -0.129506
0.318168 0.605796 -0.129402
0.321113 0.604956 -0.129251
0.324148 0.604337 -0.129138
0.326025 0.601799 -0.128727
-0.349557 0.607015 -0.129733
-0.345589 0.605778 -0.129572
-0.343423 0.607788 -0.129925
-0.338936 0.605731 -0.129640
-0.336363 0.607164 -0.129908
-0.333693 0.608499 -0.130164
-0.330598 0.609123 -0.130310
-0.327201 0.609232 -0.130377
-0.323829 0.609422 -0.130458
-0.320056 0.608877 -0.130426
-0.317262 0.610239 -0.130696
-0.314124 0.610970 -0.130868
-0.310820 0.611401 -0.130994
-0.308049 0.612913 -0.131292
-0.303858 0.611573 -0.131140
-0.300552 0.612015 -0.131270
-0.297438 0.612857 -0.131463
-0.294048 0.613119 -0.131565
-0.289617 0.611142 -0.131312
-0.286612 0.612178 -0.131537
-0.283254 0.612438 -0.131638
-0.279549 0.611902 -0.131613
-0.276032 0.611744 -0.131647
-0.272816 0.612231 -0.131783
-0.269727 0.612989 -0.131962
-0.266742 0.613967 -0.132176
-0.262972 0.613070 -0.132089
-0.259359 0.612484 -0.132052
-0.256086 0.612666 -0.132136
-0.252681 0.612485 -0.132161
-0.249496 0.612804 -0.132265
-0.246295 0.613046 -0.132356
-0.243033 0.613093 -0.132415
-0.239876 0.613369 -0.132509
-0.236603 0.613299 -0.132548
-0.233395 0.613358 -0.132606
-0.230330 0.613761 -0.132718
-0.227509 0.614810 -0.132933
-0.223456 0.612376 -0.132587
-0.220435 0.612771 -0.132696
-0.217051 0.612084 -0.132629
-0.214273 0.613114 -0.132837
-0.211594 0.614433 -0.133091
-0.207805 0.612375 -0.132800
-0.205123 0.613628 -0.133042
-0.201916 0.613232 -0.133017
-0.198722 0.612825 -0.132990
-0.195702 0.612929 -0.133044
-0.192750 0.613221 -0.133127
-0.189917 0.613882 -0.133270
-0.187063 0.614460 -0.133398
-0.184011 0.614330 -0.133411
-0.181092 0.614631 -0.133493
-0.178075 0.614553 -0.133513
-0.174785 0.613434 -0.133364
-0.172180 0.614802 -0.133616
-0.169131 0.614496 -0.133597
-0.166250 0.614794 -0.133675
-0.163231 0.614529 -0.133661
-0.160139 0.613925 -0.133592
-0.157250 0.614106 -0.133649
-0.154422 0.614520 -0.133743
-0.151557 0.614761 -0.133809
-0.148775 0.615349 -0.133930
-0.145850 0.615293 -0.133947
-0.142583 0.613636 -0.133703
-0.139932 0.614769 -0.133911
-0.137202 0.615555 -0.134062
-0.134351 0.615751 -0.134118
-0.131380 0.615331 -0.134072
-0.128565 0.615671 -0.134150
-0.125757 0.616039 -0.134232
-0.122805 0.615623 -0.134186
-0.119951 0.615708 -0.134221
-0.117079 0.615671 -0.134236
-0.114202 0.615588 -0.134242
-0.111312 0.615395 -0.134231
-0.108539 0.615903 -0.134333
-0.105592 0.615303 -0.134255
-0.102799 0.615669 -0.134333
-0.100110 0.616759 -0.134529
-0.097234 0.616567 -0.134516
-0.094312 0.616012 -0.134444
-0.091466 0.615982 -0.134456
-0.088635 0.616052 -0.134485
-0.085770 0.615831 -0.134466
-0.082910 0.615611 -0.134447
-0.080051 0.615372 -0.134425
-0.077355 0.616619 -0.134644
-0.074457 0.616000 -0.134559
-0.071589 0.615601 -0.134510
-0.068686 0.614784 -0.134392
-0.065989 0.616197 -0.134638
-0.063232 0.617039 -0.134790
-0.060265 0.615305 -0.134523
-0.057495 0.615997 -0.134650
-0.054666 0.615910 -0.134651
-0.051853 0.616064 -0.134690
-0.048973 0.615102 -0.134547
-0.046126 0.614570 -0.134474
-0.043350 0.615325 -0.134611
-0.040488 0.614361 -0.134468
-0.037659 0.613973 -0.134418
-0.034857 0.614189 -0.134466
-0.032064 0.614779 -0.134576
-0.029244 0.614561 -0.134553
-0.026444 0.615094 -0.134653
-0.023627 0.615005 -0.134651
-0.020801 0.614067 -0.134511
-0.017987 0.613633 -0.134452
-0.015182 0.614459 -0.134599
-0.012370 0.614370 -0.134597
-0.009562 0.613705 -0.134500
-0.006749 0.614143 -0.134584
-0.003954 0.613115 -0.134428
-0.001141 0.613436 -0.134492
0.001686 0.614167 -0.134623
0.004499 0.614207 -0.134641
0.007319 0.614424 -0.134688
0.010183 0.615685 -0.134905
0.013008 0.615779 -0.134931
0.015804 0.615247 -0.134855
0.018534 0.613575 -0.134592
0.021299 0.612758 -0.134469
0.024136 0.613201 -0.134552
0.027029 0.614400 -0.134758
0.029870 0.614703 -0.134818
0.032754 0.615514 -0.134961
0.035372 0.612987 -0.134557
0.038267 0.613905 -0.134717
0.041009 0.613050 -0.134586
0.043958 0.614410 -0.134818
0.046756 0.614144 -0.134783
0.049620 0.614508 -0.134852
0.052401 0.614079 -0.134790
0.055138 0.613289 -0.134669
0.057898 0.612736 -0.134587
0.060694 0.612502 -0.134556
0.063540 0.612656 -0.134589
0.066615 0.614492 -0.134897
0.069466 0.614571 -0.134918
0.072273 0.614330 -0.134885
0.075028 0.613737 -0.134795
0.077854 0.613623 -0.134782
0.080678 0.613492 -0.134767
0.083590 0.613889 -0.134838
0.086342 0.613291 -0.134745
0.088974 0.612015 -0.134541
0.091612 0.610828 -0.134352
0.094721 0.612263 -0.134592
0.097585 0.612295 -0.134601
0.100590 0.613038 -0.134727
0.103386 0.612665 -0.134669
0.105967 0.611227 -0.134436
0.108648 0.610313 -0.134289
0.111499 0.610223 -0.134276
0.114507 0.610845 -0.134380
0.117500 0.611345 -0.134464
0.120557 0.612082 -0.134586
0.123296 0.611387 -0.134472
0.126013 0.610605 -0.134344
0.128622 0.609379 -0.134142
0.131435 0.609009 -0.134081
0.134452 0.609436 -0.134149
0.137217 0.608835 -0.134049
0.139897 0.607904 -0.133894
0.143351 0.609889 -0.134216
0.146373 0.610178 -0.134260
0.149391 0.610411 -0.134294
0.152135 0.609628 -0.134161
0.155053 0.609454 -0.134127
0.157438 0.607419 -0.133787
0.160258 0.606888 -0.133694
0.164266 0.610292 -0.134244
0.167022 0.609457 -0.134100
0.169567 0.607937 -0.133842
0.173449 0.610656 -0.134278
0.175860 0.608677 -0.133944
0.179027 0.609036 -0.133992
0.182006 0.608781 -0.133938
0.184930 0.608332 -0.133852
0.188700 0.610328 -0.134167
0.191532 0.609527 -0.134021
0.194986 0.610472 -0.134162
0.198189 0.610646 -0.134175
0.201101 0.609977 -0.134049
0.203946 0.609101 -0.133888
0.206987 0.608732 -0.133810
0.209857 0.607881 -0.133652
0.212064 0.605289 -0.133208
0.217425 0.610797 -0.134089
0.219746 0.608439 -0.133682
0.221740 0.605289 -0.133145
0.224881 0.604995 -0.133075
0.228915 0.606829 -0.133351
0.232197 0.606773 -0.133317
0.235528 0.606790 -0.133295
0.238865 0.606779 -0.133267
0.241574 0.605286 -0.132997
0.244551 0.604397 -0.132825
0.248074 0.604710 -0.132848
0.252110 0.606111 -0.133048
0.255373 0.605754 -0.132961
0.258828 0.605782 -0.132936
0.262935 0.607161 -0.133131
0.266131 0.606564 -0.133003
0.269396 0.606095 -0.132897
0.272707 0.605705 -0.132803
0.276417 0.606109 -0.132838
0.279600 0.605430 -0.132697
0.282979 0.605142 -0.132620
0.287291 0.606666 -0.132838
0.290390 0.605812 -0.132670
0.293533 0.605058 -0.132520
0.296858 0.604668 -0.132429
0.300301 0.604516 -0.132378
0.304653 0.606056 -0.132603
0.308087 0.605910 -0.132556
0.311512 0.605778 -0.132513
0.315280 0.606292 -0.132577
0.317224 0.603616 -0.132125
0.321026 0.604282 -0.132217
0.323888 0.603359 -0.132054
0.327567 0.603909 -0.132133
-0.349682 0.606643 -0.132746
-0.346163 0.606204 -0.132706
-0.343527 0.607392 -0.132933
-0.341217 0.609253 -0.133272
-0.337203 0.608118 -0.133127
-0.334098 0.608677 -0.133260
-0.330994 0.609295 -0.133405
-0.327290 0.608841 -0.133377
-0.323735 0.608691 -0.133400
-0.320666 0.609498 -0.133581
-0.317514 0.610181 -0.133743
-0.314085 0.610353 -0.133822
-0.310994 0.611207 -0.134015
-0.307559 0.611392 -0.134098
-0.302939 0.609172 -0.133790
-0.300244 0.610851 -0.134119
-0.297297 0.612033 -0.134367
-0.292500 0.609325 -0.133979
-0.290524 0.612556 -0.134563
-0.287176 0.612873 -0.134670
-0.283248 0.611901 -0.134565
-0.279756 0.611841 -0.134610
-0.276694 0.612712 -0.134807
-0.273239 0.612675 -0.134854
-0.269949 0.612981 -0.134957
-0.266192 0.612160 -0.134875
-0.262842 0.612243 -0.134940
-0.259722 0.612839 -0.135089
-0.256513 0.613188 -0.135197
-0.252561 0.611669 -0.134995
-0.249289 0.611766 -0.135060
-0.246273 0.612471 -0.135224
-0.243224 0.613066 -0.135369
-0.239626 0.612196 -0.135271
-0.236445 0.612360 -0.135343
-0.233454 0.612994 -0.135492
-0.230401 0.613434 -0.135608
-0.226680 0.611989 -0.135412
-0.223423 0.611759 -0.135415
-0.220367 0.612055 -0.135505
-0.217260 0.612164 -0.135563
-0.214206 0.612392 -0.135640
-0.211424 0.613398 -0.135845
-0.208433 0.613755 -0.135942
-0.204914 0.612453 -0.135762
-0.202309 0.613936 -0.136044
-0.198915 0.612910 -0.135909
-0.195938 0.613162 -0.135985
-0.193089 0.613803 -0.136126
-0.189954 0.613471 -0.136104
-0.186864 0.613242 -0.136098
-0.183991 0.613720 -0.136209
-0.181132 0.614229 -0.136324
-0.178241 0.614606 -0.136417
-0.175121 0.614124 -0.136367
-0.171949 0.613392 -0.136274
-0.169307 0.614618 -0.136506
-0.165974 0.613175 -0.136293
-0.163267 0.614122 -0.136478
-0.160520 0.614913 -0.136637
-0.157409 0.614208 -0.136545
-0.154514 0.614352 -0.136595
-0.151554 0.614191 -0.136593
-0.148691 0.614420 -0.136655
-0.145802 0.614518 -0.136696
-0.142941 0.614717 -0.136752
-0.140247 0.615683 -0.136937
-0.137422 0.616038 -0.137019
-0.134392 0.615383 -0.136932
-0.131796 0.616849 -0.137198
-0.128899 0.616819 -0.137215
-0.125788 0.615623 -0.137036
-0.122894 0.615524 -0.137040
-0.120039 0.615616 -0.137075
-0.117227 0.615935 -0.137148
-0.114211 0.615057 -0.137021
-0.111342 0.614988 -0.137028
-0.108497 0.615052 -0.137058
-0.105755 0.615756 -0.137194
-0.102922 0.615892 -0.137235
-0.100134 0.616319 -0.137324
-0.097311 0.616510 -0.137374
-0.094454 0.616450 -0.137381
-0.091540 0.615936 -0.137312
-0.088653 0.615572 -0.137268
-0.085839 0.615776 -0.137319
-0.083104 0.616645 -0.137481
-0.080314 0.617086 -0.137571
-0.077359 0.616016 -0.137407
-0.074549 0.616253 -0.137463
-0.071667 0.615758 -0.137395
-0.068794 0.615287 -0.137331
-0.066011 0.615775 -0.137428
-0.063130 0.615146 -0.137337
-0.060357 0.615786 -0.137460
-0.057520 0.615635 -0.137449
-0.054718 0.615965 -0.137518
-0.051871 0.615618 -0.137474
-0.049016 0.615095 -0.137401
-0.046198 0.615123 -0.137419
-0.043369 0.614940 -0.137402
-0.040535 0.614603 -0.137359
-0.037689 0.613874 -0.137250
-0.034978 0.616658 -0.137731
-0.032165 0.617058 -0.137811
-0.029382 0.618685 -0.138098
-0.026564 0.619428 -0.138236
-0.023706 0.618302 -0.138059
-0.020871 0.618098 -0.138038
-0.018037 0.617868 -0.138012
-0.015212 0.619584 -0.138313
-0.012374 0.619305 -0.138278
-0.009523 0.621418 -0.138646
-0.006663 0.622531 -0.138845
-0.003828 0.621381 -0.138664
-0.000952 0.622712 -0.138900
0.001796 0.618488 -0.138201
0.004628 0.618389 -0.138196
0.007478 0.618815 -0.138279
0.010434 0.621815 -0.138796
0.013217 0.620248 -0.138543
0.016205 0.623164 -0.139045
0.018995 0.621875 -0.138839
0.021868 0.622185 -0.138902
0.024712 0.621997 -0.138882
0.027625 0.622829 -0.139033
0.030229 0.619282 -0.138445
0.033094 0.619539 -0.138499
0.036048 0.620837 -0.138728
0.039003 0.621988 -0.138932
0.041718 0.620388 -0.138672
0.044519 0.619832 -0.138588
0.047254 0.618661 -0.138400
0.050228 0.619840 -0.138609
0.053230 0.621154 -0.138839
0.055745 0.618125 -0.138337
0.058612 0.618254 -0.138368
0.061645 0.619687 -0.138618
0.063627 0.612900 -0.137482
0.066518 0.613338 -0.137564
0.069440 0.613952 -0.137675
0.072299 0.614077 -0.137704
0.075111 0.613859 -0.137675
0.077849 0.613154 -0.137563
0.080793 0.613778 -0.137675
0.084238 0.617410 -0.138295
0.087187 0.617872 -0.138380
0.090132 0.618270 -0.138453
0.093300 0.619878 -0.138731
0.095679 0.617058 -0.138260
0.098688 0.617727 -0.138378
0.101353 0.616557 -0.138186
0.104136 0.616019 -0.138100
0.107702 0.619362 -0.138668
0.110517 0.618896 -0.138594
0.113923 0.621222 -0.138990
0.115621 0.615537 -0.138033
0.119067 0.617964 -0.138446
0.122198 0.618877 -0.138603
0.124853 0.617664 -0.138400
0.127392 0.615990 -0.138119
0.130733 0.617679 -0.138406
0.133477 0.616854 -0.138267
0.136842 0.618504 -0.138546
0.139457 0.617133 -0.138315
0.142677 0.618104 -0.138478
0.145929 0.619129 -0.138650
0.147254 0.612974 -0.137609
0.150240 0.613032 -0.137617
0.153322 0.613400 -0.137677
0.156861 0.615321 -0.137998
0.160035 0.615885 -0.138090
0.162537 0.614131 -0.137789
0.165833 0.615036 -0.137937
0.168984 0.615404 -0.137994
0.172369 0.616478 -0.138169
0.175673 0.617221 -0.138288
0.178105 0.615198 -0.137940
0.180503 0.613093 -0.137576
0.183699 0.613422 -0.137624
0.185730 0.610246 -0.137078
0.188092 0.608099 -0.136706
0.191569 0.609177 -0.136878
0.194829 0.609572 -0.136933
0.198222 0.610283 -0.137042
0.201217 0.609838 -0.136954
0.206358 0.615175 -0.137841
0.209190 0.614154 -0.137655
0.211570 0.611931 -0.137265
0.215799 0.614522 -0.137687
0.218369 0.612754 -0.137373
0.220726 0.610453 -0.136968
0.223446 0.609074 -0.136718
0.227285 0.610437 -0.136930
0.230912 0.611203 -0.137040
0.232021 0.605895 -0.136126
0.236781 0.609282 -0.136676
0.239900 0.608726 -0.136562
0.241645 0.604989 -0.135911
0.244518 0.603864 -0.135700
0.248644 0.605524 -0.135957
0.252607 0.606745 -0.136139
0.255847 0.606322 -0.136045
0.259781 0.607366 -0.136196
0.263572 0.608046 -0.136286
0.266841 0.607583 -0.136184
0.270187 0.607262 -0.136105
0.274477 0.608851 -0.136347
0.276695 0.606196 -0.135876
0.280016 0.605784 -0.135782
0.286011 0.610640 -0.136573
0.289974 0.611411 -0.136678
0.291220 0.606922 -0.135901
0.295223 0.607786 -0.136023
0.298909 0.608035 -0.136042
0.301545 0.606333 -0.135736
0.304730 0.605694 -0.135608
0.308282 0.605758 -0.135600
0.311902 0.605967 -0.135618
0.315698 0.606519 -0.135695
0.318797 0.605867 -0.135572
0.320779 0.603323 -0.135134
0.324392 0.603698 -0.135187
0.327340 0.602982 -0.135059
-0.348040 0.603191 -0.135243
-0.347015 0.607112 -0.135930
-0.344564 0.608648 -0.136220
-0.341446 0.609081 -0.136327
-0.337670 0.608387 -0.136247
-0.334541 0.608915 -0.136374
-0.331149 0.609011 -0.136430
-0.327683 0.609011 -0.136472
-0.324221 0.609050 -0.136522
-0.320799 0.609195 -0.136591
-0.317248 0.609111 -0.136623
-0.314220 0.610064 -0.136830
-0.311196 0.611056 -0.137045
-0.307642 0.611011 -0.137086
-0.303557 0.609884 -0.136945
-0.300151 0.610118 -0.137034
-0.297341 0.611584 -0.137331
-0.294147 0.612260 -0.137494
-0.291049 0.613136 -0.137692
-0.287430 0.612886 -0.137699
-0.283612 0.612163 -0.137626
-0.279855 0.611527 -0.137568
-0.276497 0.611736 -0.137652
-0.273329 0.612348 -0.137804
-0.269879 0.612286 -0.137841
-0.266643 0.612684 -0.137955
-0.262959 0.611990 -0.137884
-0.259937 0.612823 -0.138071
-0.256929 0.613671 -0.138260
-0.252374 0.610677 -0.137797
-0.249535 0.611853 -0.138040
-0.246537 0.612610 -0.138212
-0.243503 0.613251 -0.138363
-0.240406 0.613700 -0.138481
-0.236719 0.612553 -0.138327
-0.233578 0.612795 -0.138408
-0.230367 0.612806 -0.138449
-0.226320 0.610459 -0.138088
-0.223364 0.611061 -0.138228
-0.220425 0.611684 -0.138371
-0.217262 0.611634 -0.138399
-0.214133 0.611640 -0.138435
-0.211276 0.612418 -0.138603
-0.208246 0.612647 -0.138676
-0.205144 0.612625 -0.138706
-0.202245 0.613193 -0.138836
-0.199064 0.612843 -0.138808
-0.196008 0.612846 -0.138840
-0.193146 0.613447 -0.138974
-0.190245 0.613901 -0.139082
-0.187055 0.613348 -0.139017
-0.183867 0.612741 -0.138942
-0.181107 0.613592 -0.139116
-0.178359 0.614479 -0.139296
-0.175281 0.614156 -0.139268
-0.172238 0.613919 -0.139254
-0.169396 0.614402 -0.139363
-0.166657 0.615269 -0.139537
-0.163871 0.615954 -0.139680
-0.160575 0.614575 -0.139468
-0.157705 0.614866 -0.139543
-0.154715 0.614630 -0.139526
-0.151800 0.614681 -0.139558
-0.148650 0.613672 -0.139408
-0.145915 0.614454 -0.139564
-0.143118 0.614958 -0.139673
-0.140307 0.615390 -0.139769
-0.137354 0.615138 -0.139747
-0.134517 0.615418 -0.139816
-0.131946 0.617027 -0.140113
-0.129102 0.617283 -0.140177
-0.125900 0.615632 -0.139913
-0.122896 0.614951 -0.139816
-0.120119 0.615473 -0.139925
-0.117219 0.615299 -0.139914
-0.114205 0.614427 -0.139782
-0.111372 0.614573 -0.139825
-0.108608 0.615144 -0.139942
-0.105791 0.615389 -0.140002
-0.103019 0.615927 -0.140112
-0.100179 0.616021 -0.140145
-0.097368 0.616300 -0.140210
-0.094524 0.616351 -0.140236
-0.091678 0.616366 -0.140255
-0.088682 0.615181 -0.140067
-0.085911 0.615738 -0.140179
-0.083218 0.616986 -0.140410
-0.080338 0.616667 -0.140370
-0.077421 0.615958 -0.140264
-0.074548 0.615591 -0.140216
-0.071772 0.616171 -0.140331
-0.068911 0.615882 -0.140296
-0.065957 0.614509 -0.140074
-0.063158 0.614805 -0.140139
-0.060373 0.615307 -0.140240
-0.057552 0.615378 -0.140267
-0.054743 0.615616 -0.140322
-0.051903 0.615404 -0.140300
-0.049029 0.614570 -0.140169
-0.046225 0.614860 -0.140233
-0.043402 0.614823 -0.140240
-0.040552 0.614179 -0.140142
-0.037745 0.614405 -0.140195
-0.035120 0.619688 -0.141121
-0.032240 0.618494 -0.140928
-0.029344 0.616303 -0.140562
-0.026537 0.617118 -0.140716
-0.023765 0.620458 -0.141307
-0.020912 0.619843 -0.141213
-0.018066 0.619387 -0.141147
-0.015223 0.618577 -0.141019
-0.012388 0.617761 -0.140890
-0.009553 0.618117 -0.140964
-0.006643 0.624949 -0.142159
-0.003811 0.622671 -0.141777
-0.001023 0.619331 -0.141211
0.001768 0.617333 -0.140877
0.004640 0.618672 -0.141121
0.007583 0.621675 -0.141652
0.010484 0.622860 -0.141869
0.013326 0.622470 -0.141813
0.016175 0.622271 -0.141790
0.019046 0.622513 -0.141844
0.021861 0.621739 -0.141721
0.024765 0.622493 -0.141862
0.027633 0.622582 -0.141889
0.030411 0.621428 -0.141700
0.033080 0.618986 -0.141287
0.035942 0.619164 -0.141329
0.038768 0.618899 -0.141293
0.041656 0.619314 -0.141375
0.044664 0.620933 -0.141666
0.047580 0.621467 -0.141769
0.049960 0.616890 -0.140985
0.052932 0.618039 -0.141194
0.055981 0.619746 -0.141500
0.058772 0.619155 -0.141407
0.061740 0.620014 -0.141565
0.063720 0.613190 -0.140390
0.066527 0.612973 -0.140361
0.069410 0.613304 -0.140427
0.072366 0.614097 -0.140573
0.075300 0.614685 -0.140683
0.078066 0.614123 -0.140594
0.080722 0.612884 -0.140386
0.084424 0.618102 -0.141300
0.087652 0.620183 -0.141669
0.090844 0.621927 -0.141979
0.093669 0.621490 -0.141910
0.096238 0.619663 -0.141599
0.098833 0.618045 -0.141325
0.101482 0.616767 -0.141109
0.104112 0.615437 -0.140884
0.107246 0.616644 -0.141099
0.110810 0.619849 -0.141661
0.113208 0.617383 -0.141238
0.116164 0.617578 -0.141276
0.119155 0.617898 -0.141336
0.122000 0.617536 -0.141277
0.124495 0.615651 -0.140953
0.127375 0.615451 -0.140922
0.130734 0.617219 -0.141232
0.134217 0.619388 -0.141612
0.136842 0.618035 -0.141379
0.139860 0.618237 -0.141416
0.142715 0.617778 -0.141337
0.146066 0.619175 -0.141581
0.148569 0.617357 -0.141266
0.151338 0.616540 -0.141124
0.154479 0.617048 -0.141212
0.157534 0.617203 -0.141238
0.160241 0.616123 -0.141049
0.163188 0.615861 -0.141002
0.166170 0.615686 -0.140970
0.168858 0.614524 -0.140765
0.171538 0.613341 -0.140556
0.175757 0.617016 -0.141191
0.178421 0.615707 -0.140960
0.181082 0.614395 -0.140727
0.183678 0.612890 -0.140460
0.184937 0.607432 -0.139506
0.188408 0.608554 -0.139695
0.191584 0.608755 -0.139723
0.194896 0.609293 -0.139809
0.198328 0.610111 -0.139943
0.201555 0.610300 -0.139967
0.206970 0.616361 -0.141010
0.210243 0.616492 -0.141023
0.213940 0.617689 -0.141220
0.216105 0.614843 -0.140715
0.219708 0.615703 -0.140852
0.223252 0.616348 -0.140952
0.226222 0.615503 -0.140792
0.228536 0.613030 -0.140349
0.231893 0.613102 -0.140348
0.234278 0.610810 -0.139935
0.235720 0.606315 -0.139141
0.239227 0.606692 -0.139190
0.242464 0.606397 -0.139123
0.245368 0.605316 -0.138919
0.249608 0.607203 -0.139229
0.251864 0.604634 -0.138766
0.255194 0.604426 -0.138712
0.261639 0.610879 -0.139811
0.264177 0.608849 -0.139441
0.266724 0.606857 -0.139077
0.271133 0.608735 -0.139383
0.272247 0.603809 -0.138511
0.274946 0.602178 -0.138210
0.282428 0.610105 -0.139563
0.285857 0.609840 -0.139498
0.288496 0.608034 -0.139167
0.290235 0.604528 -0.138542
0.294907 0.606683 -0.138897
0.298869 0.607453 -0.139013
0.302246 0.607128 -0.138941
0.304879 0.605457 -0.138637
0.309008 0.606562 -0.138814
0.312185 0.605956 -0.138696
0.315666 0.605936 -0.138681
0.319052 0.605786 -0.138645
0.322350 0.605529 -0.138593
0.325699 0.605416 -0.138566
0.326677 0.601307 -0.137852
-0.350555 0.606968 -0.138961
-0.347638 0.607611 -0.139100
-0.343852 0.606792 -0.138987
-0.340961 0.607623 -0.139163
-0.338568 0.609429 -0.139509
-0.334939 0.609062 -0.139480
-0.331206 0.608540 -0.139426
-0.327903 0.608849 -0.139518
-0.324831 0.609634 -0.139693
-0.321553 0.610068 -0.139808
-0.317201 0.608456 -0.139570
-0.314719 0.610479 -0.139963
-0.311404 0.610907 -0.140080
-0.308119 0.611410 -0.140211
-0.304157 0.610546 -0.140104
-0.300894 0.611090 -0.140243
-0.297709 0.611795 -0.140409
-0.294759 0.612997 -0.140663
-0.291093 0.612679 -0.140652
-0.287982 0.613529 -0.140844
-0.283910 0.612269 -0.140668
-0.280322 0.612017 -0.140668
-0.276616 0.611459 -0.140614
-0.272998 0.611050 -0.140585
-0.269905 0.611803 -0.140759
-0.266761 0.612417 -0.140908
-0.263394 0.612477 -0.140960
-0.260022 0.612484 -0.141002
-0.256998 0.613296 -0.141184
-0.253368 0.612589 -0.141100
-0.250078 0.612667 -0.141153
-0.247088 0.613465 -0.141331
-0.243890 0.613703 -0.141410
-0.240648 0.613788 -0.141463
-0.237509 0.614101 -0.141554
-0.233622 0.612369 -0.141287
-0.230502 0.612631 -0.141368
-0.227264 0.612528 -0.141384
-0.223535 0.610997 -0.141149
-0.220681 0.611871 -0.141336
-0.217572 0.611988 -0.141389
-0.214426 0.611956 -0.141416
-0.211281 0.611885 -0.141435
-0.208279 0.612199 -0.141521
-0.205454 0.613031 -0.141697
-0.202852 0.614545 -0.141993
-0.199241 0.612854 -0.141725
-0.196096 0.612577 -0.141705
-0.193283 0.613343 -0.141868
-0.190676 0.614789 -0.142150
-0.186964 0.612479 -0.141770
-0.183726 0.611696 -0.141659
-0.181252 0.613544 -0.142010
-0.178456 0.614268 -0.142163
-0.175605 0.614781 -0.142279
-0.172617 0.614768 -0.142301
-0.169549 0.614419 -0.142264
-0.166735 0.615003 -0.142390
-0.163838 0.615255 -0.142458
-0.160847 0.615102 -0.142454
-0.157747 0.614467 -0.142365
-0.154923 0.614931 -0.142469
-0.151972 0.614845 -0.142475
-0.149090 0.615029 -0.142529
-0.146198 0.615144 -0.142570
-0.143305 0.615235 -0.142607
-0.140329 0.614916 -0.142571
-0.137396 0.614757 -0.142563
-0.134564 0.615065 -0.142637
-0.131883 0.616119 -0.142843
-0.128924 0.615775 -0.142801
-0.125801 0.614521 -0.142598
-0.122992 0.614879 -0.142680
-0.120155 0.615083 -0.142734
-0.117083 0.613928 -0.142547
-0.114263 0.614167 -0.142608
-0.111466 0.614544 -0.142692
-0.108754 0.615452 -0.142870
-0.105958 0.615856 -0.142958
-0.103151 0.616192 -0.143034
-0.100336 0.616481 -0.143102
-0.097423 0.616075 -0.143046
-0.094634 0.616534 -0.143144
-0.091654 0.615559 -0.142987
-0.088716 0.614828 -0.142873
-0.086083 0.616514 -0.143188
-0.083243 0.616565 -0.143212
-0.080337 0.616014 -0.143130
-0.077410 0.615210 -0.143002
-0.074640 0.615836 -0.143128
-0.071777 0.615561 -0.143094
-0.068887 0.614967 -0.143003
-0.066014 0.614473 -0.142930
-0.063230 0.614981 -0.143035
-0.060448 0.615570 -0.143153
-0.057658 0.616092 -0.143260
-0.054807 0.615817 -0.143225
-0.051899 0.614607 -0.143024
-0.049081 0.614701 -0.143054
-0.046251 0.614573 -0.143045
-0.043401 0.614023 -0.142961
-0.040551 0.613358 -0.142856
-0.037747 0.613634 -0.142919
-0.035096 0.618151 -0.143734
-0.032218 0.616884 -0.143522
-0.029309 0.613991 -0.143021
-0.026503 0.614512 -0.143127
-0.023729 0.617141 -0.143607
-0.020922 0.619126 -0.143972
-0.018090 0.620288 -0.144192
-0.015232 0.617071 -0.143632
-0.012403 0.615293 -0.143328
-0.009572 0.616529 -0.143561
-0.006702 0.620168 -0.144220
-0.003845 0.620814 -0.144348
-0.001028 0.619151 -0.144064
0.001780 0.617782 -0.143832
0.004665 0.619386 -0.144130
0.007587 0.621602 -0.144536
0.010449 0.621760 -0.144576
0.013254 0.620569 -0.144376
0.016090 0.620254 -0.144332
0.018950 0.620419 -0.144373
0.021805 0.620454 -0.144390
0.024708 0.621246 -0.144543
0.027549 0.621001 -0.144511
0.030395 0.620831 -0.144491
0.033092 0.618763 -0.144134
0.035775 0.616749 -0.143786
0.038538 0.615855 -0.143637
0.041461 0.616786 -0.143814
0.044682 0.620712 -0.144524
0.047616 0.621408 -0.144659
0.050298 0.619663 -0.144358
0.053157 0.619647 -0.144366
0.055924 0.618826 -0.144230
0.058859 0.619443 -0.144350
0.061370 0.616618 -0.143856
0.063749 0.612976 -0.143216
0.066566 0.612822 -0.143198
0.069443 0.613094 -0.143255
0.072530 0.614789 -0.143567
0.075389 0.614832 -0.143584
0.078129 0.614082 -0.143459
0.080912 0.613627 -0.143386
0.084501 0.618115 -0.144195
0.088052 0.622102 -0.144915
0.091007 0.622406 -0.144978
0.094033 0.623072 -0.145105
0.096972 0.623208 -0.145137
0.099108 0.619045 -0.144401
0.101191 0.614791 -0.143649
0.104097 0.614899 -0.143675
0.107327 0.616577 -0.143982
0.110123 0.616062 -0.143896
0.113215 0.616947 -0.144060
0.116073 0.616687 -0.144020
0.119124 0.617284 -0.144133
0.121505 0.614879 -0.143708
0.123945 0.612806 -0.143343
0.126769 0.612420 -0.143279
0.130386 0.615304 -0.143799
0.133683 0.616748 -0.144062
0.136188 0.614958 -0.143746
0.138841 0.613785 -0.143540
0.142032 0.614687 -0.143704
0.145535 0.616701 -0.144067
0.148651 0.617183 -0.144156
0.151510 0.616687 -0.144070
0.154129 0.615326 -0.143829
0.156190 0.612030 -0.143241
0.159971 0.614718 -0.143723
0.163604 0.616784 -0.144093
0.166544 0.616448 -0.144033
0.168391 0.612526 -0.143333
0.171000 0.611138 -0.143084
0.174206 0.611644 -0.143174
0.177868 0.613513 -0.143507
0.179915 0.610353 -0.142940
0.183239 0.611093 -0.143071
0.185299 0.608029 -0.142520
0.188608 0.608661 -0.142631
0.191671 0.608528 -0.142603
0.195371 0.610161 -0.142891
0.198790 0.610918 -0.143022
0.201824 0.610557 -0.142953
0.207143 0.616343 -0.143981
0.211165 0.618465 -0.144354
0.213963 0.617264 -0.144133
0.216578 0.615583 -0.143826
0.220217 0.616517 -0.143985
0.223668 0.616909 -0.144047
0.225162 0.612386 -0.143231
0.227428 0.609833 -0.142767
0.231558 0.611806 -0.143110
0.233715 0.608983 -0.142596
0.236191 0.606940 -0.142221
0.239702 0.607310 -0.142276
0.242529 0.606061 -0.142042
0.247166 0.608894 -0.142536
0.249584 0.606665 -0.142127
0.251922 0.604276 -0.141688
0.254257 0.601903 -0.141253
0.258710 0.604100 -0.141632
0.263006 0.605874 -0.141935
0.265021 0.602800 -0.141374
0.266288 0.598225 -0.140545
0.269391 0.597485 -0.140400
0.275123 0.602041 -0.141198
0.281045 0.606845 -0.142042
0.285508 0.608648 -0.142350
0.286885 0.604391 -0.141578
0.291515 0.606483 -0.141938
0.294564 0.605517 -0.141754
0.298622 0.606474 -0.141913
0.301670 0.605539 -0.141735
0.304924 0.605018 -0.141632
0.308424 0.604975 -0.141615
0.312559 0.606099 -0.141807
0.314948 0.604125 -0.141448
0.318859 0.604910 -0.141582
0.323735 0.607402 -0.142021
0.327446 0.607883 -0.142103
0.319663 0.588789 -0.138703
-0.350737 0.606682 -0.142000
-0.347566 0.606885 -0.142062
-0.345041 0.608304 -0.142342
-0.340805 0.606750 -0.142093
-0.337833 0.607506 -0.142258
-0.335623 0.609724 -0.142685
-0.331704 0.608875 -0.142567
-0.328248 0.608911 -0.142607
-0.325013 0.609397 -0.142728
-0.321864 0.610085 -0.142887
-0.318799 0.610970 -0.143081
-0.314254 0.608997 -0.142766
-0.311922 0.611361 -0.143226
-0.308387 0.611375 -0.143267
-0.305316 0.612328 -0.143476
-0.301071 0.610887 -0.143256
-0.297906 0.611639 -0.143430
-0.294769 0.612454 -0.143614
-0.291115 0.612163 -0.143601
-0.287471 0.611863 -0.143586
-0.283910 0.611708 -0.143596
-0.280333 0.611482 -0.143594
-0.276884 0.611503 -0.143635
-0.273626 0.611921 -0.143748
-0.269978 0.611415 -0.143694
-0.266901 0.612187 -0.143869
-0.263740 0.612738 -0.144005
-0.260221 0.612405 -0.143981
-0.256928 0.612568 -0.144045
-0.253479 0.612307 -0.144033
-0.250378 0.612863 -0.144168
-0.247277 0.613387 -0.144296
-0.244029 0.613505 -0.144350
-0.240751 0.613499 -0.144382
-0.237639 0.613888 -0.144485
-0.234451 0.614038 -0.144543
-0.230381 0.611744 -0.144161
-0.227319 0.612123 -0.144260
-0.224120 0.612082 -0.144282
-0.220860 0.611822 -0.144265
-0.217839 0.612203 -0.144363
-0.214680 0.612146 -0.144381
-0.211466 0.611878 -0.144361
-0.208261 0.611586 -0.144336
-0.205426 0.612382 -0.144507
-0.202754 0.613675 -0.144767
-0.199848 0.614226 -0.144893
-0.196241 0.612483 -0.144603
-0.193609 0.613853 -0.144876
-0.190714 0.614351 -0.144992
-0.187079 0.612306 -0.144646
-0.184546 0.613973 -0.144971
-0.181404 0.613512 -0.144912
-0.178535 0.613984 -0.145020
-0.175617 0.614256 -0.145092
-0.172663 0.614369 -0.145135
-0.169670 0.614304 -0.145146
-0.166661 0.614142 -0.145138
-0.163831 0.614652 -0.145252
-0.160868 0.614609 -0.145265
-0.157871 0.614398 -0.145248
-0.154760 0.613668 -0.145136
-0.152010 0.614426 -0.145293
-0.149219 0.615009 -0.145419
-0.146394 0.615435 -0.145516
-0.143476 0.615429 -0.145534
-0.140576 0.615484 -0.145563
-0.137486 0.614603 -0.145421
-0.134637 0.614831 -0.145481
-0.131779 0.615006 -0.145531
-0.128955 0.615339 -0.145609
-0.125963 0.614783 -0.145526
-0.123026 0.614469 -0.145487
-0.120191 0.614681 -0.145542
-0.117425 0.615277 -0.145668
-0.114304 0.613805 -0.145417
-0.111735 0.615564 -0.145753
-0.108946 0.616038 -0.145856
-0.106120 0.616281 -0.145916
-0.103207 0.615948 -0.145872
-0.100357 0.616008 -0.145899
-0.097558 0.616410 -0.145987
-0.094597 0.615635 -0.145862
-0.091736 0.615550 -0.145862
-0.088939 0.615945 -0.145949
-0.086121 0.616189 -0.146009
-0.083265 0.616110 -0.146009
-0.080404 0.615958 -0.145996
-0.077570 0.616039 -0.146026
-0.074738 0.616124 -0.146056
-0.071800 0.615133 -0.145889
-0.068876 0.614183 -0.145731
-0.066056 0.614272 -0.145761
-0.063322 0.615388 -0.145979
-0.060539 0.616021 -0.146108
-0.057729 0.616343 -0.146180
-0.054902 0.616464 -0.146216
-0.052013 0.615644 -0.146080
-0.049186 0.615705 -0.146105
-0.046276 0.614258 -0.145855
-0.043404 0.613296 -0.145692
-0.040571 0.612974 -0.145647
-0.037771 0.613357 -0.145730
-0.035143 0.618559 -0.146693
-0.032308 0.618764 -0.146743
-0.029338 0.614088 -0.145902
-0.026601 0.617803 -0.146594
-0.023752 0.617178 -0.146492
-0.020923 0.617655 -0.146592
-0.018113 0.621059 -0.147227
-0.015271 0.624585 -0.147884
-0.012410 0.618230 -0.146735
-0.009559 0.620052 -0.147081
-0.006704 0.620538 -0.147182
-0.003852 0.620586 -0.147203
-0.000996 0.620789 -0.147253
0.001842 0.620188 -0.147155
0.004664 0.619217 -0.146990
0.007466 0.617928 -0.146766
0.010446 0.621443 -0.147421
0.013229 0.619762 -0.147126
0.016052 0.619185 -0.147032
0.018891 0.619012 -0.147012
0.021755 0.619281 -0.147073
0.024595 0.619113 -0.147054
0.027405 0.618520 -0.146957
0.030246 0.618419 -0.146950
0.033084 0.618276 -0.146935
0.035823 0.616936 -0.146701
0.038537 0.615443 -0.146439
0.041548 0.617336 -0.146797
0.044550 0.618929 -0.147100
0.047441 0.619268 -0.147173
0.050392 0.620118 -0.147339
0.053223 0.619811 -0.147294
0.056113 0.620020 -0.147343
0.058866 0.619068 -0.147179
0.061509 0.617292 -0.146864
0.063777 0.612755 -0.146043
0.066620 0.612780 -0.146058
0.069485 0.612951 -0.146099
0.072354 0.613124 -0.146141
0.075321 0.613921 -0.146296
0.078211 0.614157 -0.146349
0.080958 0.613464 -0.146232
0.084650 0.618565 -0.147176
0.088152 0.622226 -0.147856
0.091285 0.623539 -0.148106
0.093972 0.622257 -0.147880
0.097092 0.623394 -0.148098
0.099807 0.622292 -0.147904
0.101750 0.617224 -0.146983
0.105065 0.619324 -0.147377
0.108085 0.619850 -0.147481
0.110355 0.616707 -0.146912
0.113608 0.618323 -0.147216
0.116620 0.618732 -0.147299
0.119338 0.617773 -0.147130
0.122118 0.617107 -0.147015
0.124129 0.613126 -0.146291
0.126658 0.611474 -0.145995
0.130251 0.614264 -0.146513
0.133555 0.615745 -0.146791
0.135726 0.612639 -0.146227
0.138663 0.612612 -0.146227
0.141774 0.613223 -0.146345
0.144988 0.614164 -0.146523
0.148058 0.614514 -0.146592
0.150937 0.614131 -0.146526
0.153594 0.612940 -0.146311
0.157128 0.614820 -0.146661
0.159524 0.612703 -0.146276
0.163449 0.615773 -0.146843
0.167039 0.617599 -0.147181
0.168160 0.611287 -0.146025
0.170429 0.608827 -0.145575
0.174031 0.610607 -0.145904
0.177439 0.611694 -0.146106
0.180802 0.612575 -0.146269
0.183204 0.610502 -0.145889
0.185406 0.607861 -0.145405
0.188077 0.606632 -0.145180
0.191913 0.608736 -0.145566
0.195396 0.609742 -0.145751
0.198684 0.610134 -0.145822
0.201719 0.609781 -0.145756
0.207546 0.616938 -0.147069
0.212009 0.620214 -0.147669
0.214394 0.617900 -0.147241
0.216257 0.614256 -0.146570
0.219387 0.613904 -0.146502
0.222931 0.614558 -0.146619
0.224758 0.610889 -0.145941
0.227907 0.610511 -0.145868
0.231293 0.610672 -0.145893
0.233570 0.608145 -0.145424
0.236276 0.606648 -0.145144
0.240072 0.607673 -0.145327
0.243906 0.608716 -0.145512
0.247455 0.609049 -0.145567
0.250431 0.608055 -0.145378
0.252492 0.605033 -0.144817
0.254067 0.600995 -0.144069
0.258022 0.602126 -0.144269
0.261485 0.602152 -0.144267
0.264964 0.602178 -0.144264
0.266972 0.599138 -0.143699
0.270189 0.598612 -0.143595
0.275233 0.601756 -0.144164
0.282570 0.609368 -0.145553
0.285451 0.608019 -0.145298
0.288520 0.607055 -0.145113
0.293045 0.608903 -0.145445
0.298492 0.612455 -0.146090
0.298948 0.606561 -0.145003
0.301386 0.604486 -0.144616
0.304645 0.603976 -0.144518
0.309471 0.606343 -0.144947
0.311873 0.604330 -0.144574
0.315401 0.604391 -0.144583
0.319255 0.605064 -0.144704
0.322412 0.604550 -0.144609
0.328059 0.608386 -0.145312
0.319538 0.588037 -0.141583
-0.350162 0.605079 -0.144801
-0.347587 0.606318 -0.145051
-0.344772 0.607224 -0.145242
-0.342186 0.608620 -0.145524
-0.337605 0.606499 -0.145161
-0.334633 0.607320 -0.145340
-0.331816 0.608488 -0.145583
-0.328365 0.608538 -0.145622
-0.324998 0.608780 -0.145697
-0.322052 0.609855 -0.145926
-0.319082 0.610930 -0.146155
-0.315316 0.610488 -0.146106
-0.312022 0.610975 -0.146228
-0.308475 0.610971 -0.146260
-0.305411 0.611940 -0.146471
-0.301399 0.610982 -0.146328
-0.297545 0.610315 -0.146238
-0.294516 0.611346 -0.146461
-0.290789 0.610895 -0.146411
-0.287506 0.611365 -0.146531
-0.284238 0.611853 -0.146654
-0.280563 0.611420 -0.146607
-0.277359 0.611997 -0.146745
-0.274097 0.612419 -0.146856
-0.270954 0.613091 -0.147012
-0.267332 0.612623 -0.146957
-0.264109 0.613042 -0.147065
-0.260602 0.612750 -0.147042
-0.257189 0.612635 -0.147051
-0.253769 0.612454 -0.147048
-0.250459 0.612496 -0.147085
-0.246901 0.611867 -0.146998
-0.243705 0.612105 -0.147071
-0.240844 0.613174 -0.147297
-0.237592 0.613196 -0.147329
-0.234367 0.613243 -0.147365
-0.231197 0.613398 -0.147421
-0.227623 0.612394 -0.147262
-0.224295 0.612006 -0.147216
-0.221163 0.612118 -0.147263
-0.217893 0.611791 -0.147228
-0.214810 0.611956 -0.147283
-0.211653 0.611866 -0.147291
-0.208415 0.611483 -0.147244
-0.205409 0.611760 -0.147319
-0.202660 0.612810 -0.147538
-0.199928 0.613906 -0.147765
-0.196572 0.612981 -0.147616
-0.193579 0.613179 -0.147675
-0.190646 0.613547 -0.147766
-0.187527 0.613256 -0.147733
-0.184448 0.613056 -0.147718
-0.181790 0.614298 -0.147970
-0.178623 0.613720 -0.147883
-0.175665 0.613852 -0.147928
-0.172713 0.613973 -0.147971
-0.169718 0.613905 -0.147979
-0.166621 0.613407 -0.147906
-0.163748 0.613739 -0.147987
-0.160906 0.614180 -0.148088
-0.157800 0.613524 -0.147985
-0.154943 0.613849 -0.148064
-0.152066 0.614078 -0.148125
-0.149218 0.614413 -0.148206
-0.146458 0.615129 -0.148357
-0.143674 0.615741 -0.148489
-0.140594 0.614970 -0.148363
-0.137555 0.614338 -0.148263
-0.134658 0.614340 -0.148280
-0.131860 0.614812 -0.148385
-0.128957 0.614752 -0.148391
-0.125984 0.614291 -0.148321
-0.123147 0.614518 -0.148380
-0.120364 0.615035 -0.148493
-0.117481 0.614989 -0.148500
-0.114806 0.616143 -0.148732
-0.111976 0.616404 -0.148796
-0.109039 0.615998 -0.148736
-0.106068 0.615332 -0.148627
-0.103242 0.615555 -0.148684
-0.100383 0.615557 -0.148700
-0.097469 0.615150 -0.148639
-0.094654 0.615427 -0.148706
-0.091793 0.615348 -0.148706
-0.088987 0.615685 -0.148783
-0.086137 0.615675 -0.148796
-0.083329 0.616006 -0.148872
-0.080489 0.616060 -0.148897
-0.077658 0.616200 -0.148937
-0.074774 0.615810 -0.148879
-0.071911 0.615598 -0.148853
-0.068901 0.613775 -0.148526
-0.066127 0.614392 -0.148655
-0.063362 0.615176 -0.148816
-0.060607 0.616169 -0.149015
-0.057733 0.615697 -0.148941
-0.054847 0.614956 -0.148816
-0.052107 0.616343 -0.149089
-0.049245 0.615930 -0.149025
-0.046280 0.613578 -0.148598
-0.043502 0.614448 -0.148774
-0.040655 0.614000 -0.148703
-0.037825 0.613834 -0.148685
-0.035186 0.618842 -0.149637
-0.032361 0.619488 -0.149771
-0.029484 0.618451 -0.149589
-0.026621 0.617597 -0.149442
-0.023762 0.616517 -0.149253
-0.020923 0.616146 -0.149196
-0.018134 0.621557 -0.150223
-0.015274 0.621052 -0.150141
-0.012408 0.627890 -0.151436
-0.009542 0.624185 -0.150754
-0.006694 0.622105 -0.150377
-0.003840 0.621597 -0.150294
-0.000984 0.621434 -0.150276
0.001815 0.619066 -0.149844
0.004638 0.618218 -0.149698
0.007455 0.617437 -0.149563
0.010378 0.619503 -0.149963
0.013349 0.622198 -0.150481
0.016113 0.620147 -0.150109
0.018920 0.619229 -0.149948
0.021788 0.619500 -0.150011
0.024591 0.618698 -0.149872
0.027319 0.616893 -0.149545
0.030244 0.618013 -0.149768
0.033039 0.617306 -0.149646
0.035869 0.617098 -0.149619
0.038663 0.616488 -0.149516
0.041557 0.617018 -0.149627
0.044216 0.615062 -0.149271
0.047131 0.615784 -0.149418
0.050244 0.618298 -0.149902
0.053187 0.619053 -0.150055
0.056053 0.619068 -0.150069
0.059063 0.620257 -0.150304
0.061718 0.618511 -0.149987
0.063702 0.611728 -0.148722
0.066774 0.613477 -0.149062
0.069768 0.614522 -0.149269
0.072447 0.613313 -0.149052
0.075446 0.614301 -0.149248
0.078203 0.613646 -0.149135
0.081117 0.613999 -0.149212
0.084554 0.617510 -0.149883
0.088294 0.622594 -0.150850
0.090793 0.620226 -0.150414
0.093584 0.619610 -0.150308
0.096577 0.620101 -0.150411
0.099531 0.620346 -0.150466
0.101730 0.616643 -0.149779
0.105171 0.619385 -0.150304
0.108439 0.621114 -0.150639
0.110962 0.619153 -0.150279
0.113994 0.619657 -0.150383
0.116995 0.619973 -0.150451
0.119864 0.619656 -0.150400
0.122452 0.618089 -0.150114
0.124291 0.613341 -0.149228
0.126479 0.610234 -0.148650
0.129688 0.611452 -0.148888
0.133722 0.615936 -0.149741
0.135662 0.611900 -0.148988
0.138260 0.610556 -0.148742
0.141510 0.611723 -0.148969
0.144439 0.611619 -0.148956
0.147189 0.610826 -0.148814
0.150612 0.612464 -0.149129
0.154077 0.614163 -0.149456
0.157242 0.614725 -0.149569
0.160124 0.614265 -0.149488
0.162083 0.610682 -0.148818
0.165726 0.612756 -0.149215
0.169496 0.615143 -0.149670
0.171113 0.610524 -0.148805
0.175352 0.614274 -0.149517
0.178550 0.614642 -0.149591
0.181162 0.613174 -0.149319
0.183415 0.610637 -0.148844
0.185525 0.607721 -0.148298
0.189454 0.610143 -0.148759
0.192339 0.609461 -0.148634
0.195520 0.609596 -0.148663
0.198472 0.609048 -0.148562
0.201319 0.608188 -0.148403
0.207667 0.616759 -0.150022
0.209779 0.613773 -0.149461
0.213262 0.614424 -0.149586
0.215889 0.612799 -0.149281
0.218770 0.611825 -0.149098
0.221314 0.609985 -0.148752
0.224582 0.609948 -0.148746
0.229120 0.612972 -0.149317
0.232747 0.613670 -0.149449
0.233330 0.607066 -0.148204
0.236446 0.606541 -0.148104
0.241074 0.609487 -0.148660
0.243896 0.608185 -0.148413
0.247118 0.607779 -0.148336
0.250216 0.607065 -0.148200
0.253036 0.605719 -0.147945
0.254974 0.602455 -0.147328
0.259075 0.603872 -0.147594
0.264316 0.607630 -0.148301
0.267038 0.605998 -0.147991
0.269002 0.602814 -0.147389
0.270990 0.599731 -0.146805
0.274918 0.600604 -0.146968
0.281671 0.607054 -0.148183
0.285344 0.607281 -0.148224
0.287802 0.605133 -0.147817
0.293289 0.608839 -0.148515
0.298108 0.611189 -0.148957
0.300401 0.608751 -0.148496
0.301379 0.603936 -0.147587
0.306837 0.607458 -0.148252
0.309113 0.605150 -0.147817
0.312602 0.605094 -0.147807
0.315809 0.604570 -0.147709
0.318756 0.603636 -0.147535
0.322668 0.604443 -0.147691
0.327621 0.607072 -0.148190
0.333265 0.610882 -0.148913
-0.353055 0.609484 -0.148725
-0.347936 0.606320 -0.148149
-0.344907 0.606855 -0.148271
-0.341908 0.607517 -0.148419
-0.337756 0.606168 -0.148188
-0.334596 0.606650 -0.148303
-0.331650 0.607582 -0.148504
-0.328418 0.608037 -0.148615
-0.325070 0.608318 -0.148695
-0.322699 0.610492 -0.149132
-0.319158 0.610480 -0.149156
-0.315219 0.609705 -0.149037
-0.311830 0.610004 -0.149121
-0.308752 0.610932 -0.149324
-0.305230 0.610982 -0.149361
-0.302048 0.611721 -0.149528
-0.297926 0.610517 -0.149328
-0.294211 0.610118 -0.149280
-0.291499 0.611820 -0.149630
-0.288246 0.612374 -0.149763
-0.284556 0.611960 -0.149711
-0.281242 0.612335 -0.149810
-0.277885 0.612591 -0.149885
-0.274700 0.613204 -0.150028
-0.271305 0.613315 -0.150076
-0.267741 0.612991 -0.150041
-0.264393 0.613130 -0.150093
-0.261187 0.613568 -0.150202
-0.257569 0.612975 -0.150115
-0.253781 0.611902 -0.149936
-0.250569 0.612191 -0.150016
-0.247324 0.612359 -0.150073
-0.244134 0.612624 -0.150147
-0.240528 0.611771 -0.150009
-0.236699 0.610257 -0.149744
-0.234200 0.612216 -0.150141
-0.231094 0.612538 -0.150225
-0.228173 0.613334 -0.150399
-0.224570 0.612196 -0.150205
-0.221220 0.611701 -0.150133
-0.218098 0.611803 -0.150174
-0.214989 0.611903 -0.150214
-0.211981 0.612262 -0.150304
-0.208908 0.612394 -0.150350
-0.206065 0.613197 -0.150524
-0.203060 0.613479 -0.150598
-0.199875 0.613156 -0.150557
-0.196857 0.613319 -0.150608
-0.193770 0.613223 -0.150609
-0.190824 0.613557 -0.150692
-0.187580 0.612852 -0.150577
-0.184829 0.613791 -0.150775
-0.182067 0.614686 -0.150965
-0.178836 0.613896 -0.150833
-0.175911 0.614160 -0.150902
-0.172955 0.614286 -0.150944
-0.169678 0.613166 -0.150748
-0.166682 0.613052 -0.150744
-0.163774 0.613253 -0.150800
-0.160979 0.613880 -0.150937
-0.158059 0.613992 -0.150975
-0.155146 0.614106 -0.151014
-0.152302 0.614492 -0.151105
-0.149368 0.614475 -0.151118
-0.146522 0.614817 -0.151200
-0.143677 0.615154 -0.151281
-0.140765 0.615169 -0.151300
-0.137561 0.613760 -0.151047
-0.134770 0.614285 -0.151163
-0.131968 0.614751 -0.151268
-0.129037 0.614554 -0.151246
-0.126119 0.614390 -0.151230
-0.123422 0.615396 -0.151438
-0.120604 0.615755 -0.151522
-0.117722 0.615753 -0.151537
-0.114916 0.616171 -0.151632
-0.112026 0.616088 -0.151631
-0.109104 0.615779 -0.151587
-0.106108 0.614960 -0.151445
-0.103218 0.614773 -0.151423
-0.100428 0.615234 -0.151526
-0.097547 0.615068 -0.151509
-0.094638 0.614670 -0.151447
-0.091830 0.614993 -0.151523
-0.088960 0.614831 -0.151506
-0.086174 0.615328 -0.151616
-0.083322 0.615294 -0.151623
-0.080516 0.615647 -0.151705
-0.077664 0.615596 -0.151709
-0.074840 0.615783 -0.151759
-0.071999 0.615813 -0.151778
-0.069147 0.615716 -0.151773
-0.066238 0.614957 -0.151641
-0.063503 0.616155 -0.151885
-0.060639 0.615880 -0.151846
-0.057717 0.614767 -0.151645
-0.054861 0.614439 -0.151596
-0.052118 0.615781 -0.151867
-0.049293 0.615972 -0.151917
-0.046381 0.614613 -0.151669
-0.043527 0.614153 -0.151594
-0.040701 0.614182 -0.151612
-0.037861 0.613870 -0.151566
-0.035205 0.618470 -0.152463
-0.032385 0.619322 -0.152640
-0.029492 0.617771 -0.152354
-0.026630 0.616902 -0.152200
-0.023784 0.616526 -0.152141
-0.020883 0.611515 -0.151190
-0.018076 0.612303 -0.151354
