ply
format ascii 1.0
comment ---
element vertex 1738
property float x
property float y
property float z
element face 0
property list uchar uint vertex_indices
end_header
-0.112356 0.613343 0.302937
-0.109956 0.616564 0.303827
-0.106584 0.613985 0.302770
-0.103679 0.614158 0.302643
-0.100742 0.614094 0.302442
-0.097854 0.614317 0.302343
-0.094930 0.614270 0.302157
-0.091795 0.612659 0.301454
-0.089282 0.615546 0.302260
-0.086376 0.615559 0.302109
-0.083133 0.612810 0.301041
-0.079991 0.610653 0.300177
-0.077150 0.610906 0.300122
-0.074300 0.611064 0.300040
-0.071597 0.612609 0.300425
-0.068762 0.612945 0.300411
-0.065921 0.613212 0.300379
-0.062966 0.612197 0.299926
-0.060126 0.612379 0.299875
-0.057278 0.612451 0.299792
-0.054459 0.612873 0.299830
-0.051636 0.613260 0.299861
-0.048687 0.611753 0.299268
-0.045947 0.613394 0.299723
-0.043158 0.614399 0.299971
-0.040301 0.614239 0.299838
-0.037456 0.614255 0.299768
-0.034677 0.615839 0.300221
-0.031880 0.617284 0.300632
-0.029015 0.617008 0.300478
-0.026250 0.620257 0.301493
-0.023343 0.618511 0.300862
-0.020383 0.612790 0.298923
-0.017554 0.612980 0.298941
-0.014729 0.613685 0.299134
-0.011893 0.613322 0.298977
-0.009062 0.612831 0.298783
-0.006229 0.613318 0.298916
-0.003389 0.614021 0.299124
-0.000433 0.621643 0.301619
0.002364 0.617943 0.300384
0.005201 0.617223 0.300136
0.008007 0.615656 0.299612
0.010818 0.614649 0.299278
0.013734 0.616503 0.299892
0.016550 0.615663 0.299622
0.019372 0.615098 0.299446
0.022457 0.619458 0.300900
0.025192 0.617137 0.300154
0.027819 0.613452 0.298962
0.031107 0.619878 0.301111
0.033580 0.614329 0.299313
0.036143 0.610586 0.298115
0.039159 0.612703 0.298855
0.041828 0.610604 0.298208
0.044721 0.611118 0.298429
0.048078 0.616298 0.300195
0.050888 0.615618 0.300031
0.053169 0.610021 0.298245
0.056518 0.614418 0.299768
0.059946 0.619094 0.301389
0.062539 0.616501 0.300610
0.065191 0.614542 0.300045
0.067664 0.611329 0.299069
0.070532 0.611215 0.299124
0.073573 0.612292 0.299578
0.076754 0.614227 0.300322
0.079240 0.611400 0.299491
0.082137 0.611353 0.299587
0.084842 0.610083 0.299281
0.088325 0.613542 0.300553
0.090455 0.608847 0.299117
0.093329 0.608613 0.299169
0.096339 0.609108 0.299469
0.099537 0.610562 0.300094
0.102643 0.611417 0.300525
0.105393 0.610378 0.300328
0.108443 0.610847 0.300639
0.111037 0.609043 0.300195
0.114882 0.613233 0.301761
0.117068 0.609497 0.300678
0.119324 0.606220 0.299752
0.123124 0.609893 0.301160
0.126939 0.613435 0.302531
0.131968 0.621927 0.305573
0.131589 0.607617 0.300949
0.133468 0.603029 0.299595
0.135061 0.597464 0.297912
0.140709 0.607890 0.301627
0.143791 0.608078 0.301893
0.145812 0.604254 0.300804
0.149546 0.606840 0.301885
0.152043 0.604847 0.301418
0.153736 0.600055 0.300002
0.156461 0.598999 0.299852
0.161327 0.605261 0.302192
0.165495 0.608941 0.303658
0.169358 0.611471 0.304734
0.170729 0.605829 0.303024
0.172076 0.600283 0.301341
0.176580 0.604787 0.303089
0.180172 0.606323 0.303822
0.183158 0.605966 0.303904
0.186451 0.606525 0.304297
0.189279 0.605697 0.304209
0.192699 0.606601 0.304711
0.195539 0.605827 0.304631
0.197859 0.603619 0.304050
0.199764 0.600335 0.303089
0.204726 0.605475 0.305024
0.202215 0.590423 0.299984
0.207783 0.597183 0.302459
0.211971 0.600172 0.303623
0.216546 0.604094 0.305100
0.220098 0.605333 0.305638
0.223249 0.605562 0.305814
0.226568 0.606225 0.306126
0.229595 0.606188 0.306182
0.230096 0.600090 0.304122
0.228667 0.589578 0.300517
0.234192 0.595728 0.302668
0.235654 0.592317 0.301490
0.230931 0.574808 0.295410
0.233121 0.573456 0.294911
0.245875 0.595917 0.302646
0.244670 0.586903 0.299458
0.242556 0.576133 0.295646
0.246783 0.579435 0.296689
0.250364 0.581327 0.297225
0.257044 0.589832 0.300027
0.263706 0.598180 0.302752
0.268885 0.603319 0.304347
0.269069 0.598083 0.302345
0.263024 0.580239 0.295988
0.259909 0.568729 0.291806
0.261112 0.566168 0.290690
-0.300833 0.608641 0.308295
-0.298005 0.608312 0.308380
-0.295339 0.608371 0.308582
-0.292803 0.608757 0.308879
-0.290346 0.609374 0.309238
-0.287843 0.609966 0.309568
-0.284600 0.609040 0.309348
-0.281361 0.608160 0.309124
-0.277809 0.606634 0.308654
-0.275504 0.607882 0.309136
-0.273206 0.609227 0.309633
-0.270211 0.609078 0.309587
-0.266438 0.607197 0.308914
-0.264038 0.608494 0.309337
-0.261433 0.609389 0.309600
-0.258800 0.610281 0.309844
-0.255438 0.609493 0.309481
-0.252142 0.608881 0.309164
-0.250043 0.611233 0.309867
-0.247306 0.612090 0.310031
-0.243635 0.610645 0.309375
-0.240493 0.610541 0.309174
-0.237300 0.610327 0.308922
-0.234003 0.609854 0.308566
-0.230991 0.610149 0.308466
-0.228052 0.610665 0.308433
-0.225309 0.611744 0.308583
-0.222495 0.612669 0.308671
-0.219634 0.613496 0.308715
-0.216503 0.613576 0.308493
-0.211943 0.609498 0.306828
-0.208994 0.610053 0.306759
-0.205993 0.610468 0.306636
-0.203780 0.613296 0.307339
-0.200409 0.612610 0.306828
-0.197212 0.612437 0.306492
-0.194182 0.612783 0.306331
-0.190954 0.612475 0.305945
-0.187621 0.611788 0.305428
-0.184333 0.611208 0.304949
-0.181553 0.612336 0.305053
-0.178903 0.613938 0.305318
-0.175855 0.614152 0.305110
-0.172017 0.611466 0.303920
-0.168857 0.611168 0.303544
-0.166295 0.613090 0.303922
-0.162982 0.612161 0.303338
-0.159910 0.612109 0.303054
-0.157024 0.612775 0.303014
-0.153953 0.612672 0.302719
-0.151192 0.613834 0.302854
-0.148299 0.614444 0.302805
-0.145116 0.613776 0.302332
-0.141898 0.612881 0.301788
-0.138620 0.611635 0.301131
-0.136079 0.613757 0.301606
-0.133226 0.614442 0.301604
-0.129967 0.613125 0.300939
-0.127003 0.613191 0.300740
-0.124384 0.615016 0.301131
-0.121443 0.615182 0.300974
-0.118177 0.613539 0.300222
-0.115152 0.613127 0.299884
-0.112448 0.614509 0.300145
-0.109519 0.614592 0.299981
-0.106920 0.616669 0.300481
-0.103440 0.613260 0.299172
-0.100643 0.614059 0.299260
-0.097658 0.613597 0.298936
-0.094624 0.612730 0.298484
-0.091927 0.614196 0.298804
-0.089015 0.614118 0.298622
-0.086002 0.613212 0.298172
-0.083094 0.613047 0.297971
-0.080265 0.613497 0.297976
-0.077030 0.610383 0.296817
-0.074249 0.611118 0.296926
-0.071633 0.613466 0.297568
-0.068815 0.613962 0.297607
-0.065877 0.613210 0.297242
-0.062948 0.612448 0.296879
-0.060140 0.612977 0.296942
-0.057357 0.613845 0.297121
-0.054555 0.614536 0.297246
-0.051752 0.615274 0.297390
-0.048829 0.614243 0.296962
-0.045983 0.614285 0.296888
-0.043161 0.614726 0.296949
-0.040292 0.614284 0.296726
-0.037354 0.612221 0.295980
-0.034651 0.615308 0.296915
-0.031964 0.619571 0.298236
-0.029058 0.618236 0.297740
-0.026205 0.618364 0.297724
-0.023417 0.621328 0.298634
-0.020416 0.613901 0.296171
-0.017589 0.614345 0.296271
-0.014754 0.614153 0.296168
-0.011919 0.613626 0.295961
-0.009089 0.613691 0.295950
-0.006255 0.614324 0.296128
-0.003383 0.617767 0.297222
-0.000656 0.609974 0.294673
0.002220 0.612993 0.295638
0.004960 0.609519 0.294499
0.008017 0.617636 0.297127
0.010628 0.610717 0.294878
0.013487 0.611695 0.295197
0.016495 0.615792 0.296533
0.019497 0.618934 0.297563
0.022200 0.615961 0.296612
0.025151 0.617655 0.297181
0.028053 0.618301 0.297413
0.030768 0.616086 0.296721
0.033589 0.615583 0.296590
0.036057 0.610582 0.295001
0.038908 0.610752 0.295096
0.042046 0.614158 0.296248
0.044966 0.614808 0.296508
0.048288 0.619507 0.298090
0.051332 0.620995 0.298632
0.053977 0.618593 0.297914
0.056861 0.618496 0.297950
0.059992 0.620497 0.298674
0.063133 0.622392 0.299368
0.064827 0.612652 0.296277
0.067718 0.612721 0.296385
0.070421 0.611372 0.296035
0.073348 0.611667 0.296226
0.076505 0.613489 0.296920
0.079455 0.613786 0.297122
0.082141 0.612337 0.296758
0.085375 0.614351 0.297530
0.088654 0.616485 0.298348
0.091577 0.616366 0.298433
0.093443 0.610203 0.296543
0.096129 0.608883 0.296243
0.099061 0.608926 0.296395
0.102071 0.609345 0.296675
0.105551 0.612116 0.297732
0.108452 0.611818 0.297786
0.111352 0.611498 0.297838
0.113782 0.608928 0.297153
0.117047 0.610316 0.297776
0.120646 0.613121 0.298872
0.122950 0.610025 0.298025
0.126537 0.612596 0.299054
0.127439 0.603635 0.296273
0.130786 0.605169 0.296967
0.133896 0.605645 0.297314
0.137104 0.606459 0.297778
0.139836 0.605350 0.297607
0.142145 0.602641 0.296906
0.144883 0.601615 0.296766
0.148627 0.604297 0.297865
0.151808 0.604823 0.298248
0.153459 0.599879 0.296808
0.157615 0.603803 0.298330
0.162123 0.608767 0.300204
0.165209 0.608758 0.300417
0.166784 0.603746 0.298953
0.169714 0.603279 0.299010
0.172038 0.600875 0.298416
0.175774 0.602960 0.299330
0.180104 0.606794 0.300832
0.182998 0.606138 0.300821
0.186665 0.607798 0.301588
0.190058 0.608594 0.302061
0.193187 0.608595 0.302261
0.195874 0.607334 0.302028
0.197978 0.604475 0.301247
0.200056 0.601629 0.300462
0.204954 0.606555 0.302306
0.209967 0.611658 0.304205
0.209912 0.603205 0.301487
0.212789 0.602659 0.301446
0.215638 0.602072 0.301380
0.219521 0.604146 0.302208
0.223361 0.606082 0.302979
0.226861 0.607149 0.303439
0.229623 0.606413 0.303271
0.230311 0.600725 0.301398
0.230806 0.594748 0.299409
0.231953 0.590488 0.297990
0.234560 0.589764 0.297762
0.232191 0.577656 0.293629
0.235543 0.578869 0.294029
0.239404 0.581242 0.294809
0.239538 0.575326 0.292740
0.246608 0.584829 0.295918
0.252011 0.590553 0.297785
0.255743 0.592609 0.298382
0.256088 0.587463 0.296505
0.260396 0.590828 0.297511
0.271968 0.609338 0.303648
0.270324 0.600229 0.300369
0.262235 0.578157 0.292675
0.260157 0.568742 0.289272
0.264020 0.571492 0.289981
-0.303718 0.608438 0.305312
-0.301390 0.609101 0.305743
-0.298489 0.608666 0.305777
-0.295957 0.609043 0.306072
-0.293107 0.608824 0.306143
-0.290843 0.609887 0.306636
-0.288052 0.609916 0.306753
-0.285500 0.610510 0.307045
-0.282668 0.610571 0.307134
-0.277843 0.606332 0.305717
-0.275762 0.608115 0.306360
-0.273240 0.609006 0.306676
-0.270148 0.608679 0.306553
-0.267137 0.608581 0.306489
-0.264398 0.609155 0.306638
-0.261645 0.609753 0.306778
-0.259143 0.611004 0.307124
-0.256837 0.612796 0.307640
-0.252503 0.609748 0.306470
-0.249954 0.611044 0.306782
-0.247020 0.611447 0.306771
-0.243695 0.610906 0.306420
-0.240454 0.610589 0.306132
-0.236727 0.609026 0.305404
-0.234417 0.611163 0.305935
-0.231088 0.610662 0.305548
-0.227542 0.609572 0.304951
-0.225055 0.611367 0.305331
-0.222064 0.611820 0.305243
-0.218559 0.610836 0.304657
-0.215864 0.612147 0.304846
-0.212651 0.611989 0.304529
-0.208556 0.609211 0.303317
-0.205988 0.610930 0.303629
-0.203374 0.612554 0.303903
-0.199979 0.611791 0.303366
-0.196888 0.611950 0.303138
-0.194190 0.613361 0.303332
-0.191211 0.613885 0.303224
-0.187701 0.612636 0.302520
-0.184317 0.611751 0.301938
-0.181293 0.612047 0.301755
-0.178642 0.613639 0.302007
-0.174640 0.610429 0.300653
-0.171546 0.610381 0.300360
-0.168980 0.612261 0.300713
-0.165847 0.612038 0.300367
-0.162747 0.611901 0.300052
-0.159940 0.612883 0.300112
-0.157166 0.614002 0.300221
-0.154219 0.614422 0.300101
-0.150463 0.611431 0.298856
-0.147739 0.612701 0.299026
-0.144844 0.613243 0.298958
-0.141592 0.612168 0.298362
-0.138746 0.612870 0.298357
-0.136056 0.614305 0.298596
-0.133248 0.615203 0.298663
-0.130115 0.614501 0.298209
-0.126821 0.612917 0.297471
-0.123744 0.612332 0.297067
-0.120948 0.613182 0.297136
-0.118174 0.614157 0.297252
-0.115228 0.614181 0.297061
-0.112358 0.614610 0.297007
-0.109545 0.615360 0.297062
-0.106541 0.614950 0.296745
-0.103452 0.613935 0.296236
-0.100541 0.613981 0.296077
-0.097664 0.614219 0.295986
-0.094581 0.613003 0.295428
-0.091854 0.614231 0.295667
-0.088928 0.614025 0.295446
-0.085957 0.613411 0.295098
-0.082997 0.612795 0.294754
-0.080162 0.613151 0.294730
-0.077179 0.612204 0.294289
-0.074337 0.612418 0.294228
-0.071702 0.614608 0.294809
-0.068836 0.614649 0.294700
-0.065890 0.613805 0.294312
-0.062955 0.612963 0.293929
-0.060148 0.613491 0.293991
-0.057398 0.614753 0.294293
-0.054600 0.615516 0.294439
-0.051634 0.613950 0.293842
-0.048792 0.613999 0.293767
-0.046013 0.615068 0.294025
-0.043161 0.614963 0.293909
-0.040246 0.613573 0.293386
-0.037444 0.614302 0.293547
-0.034886 0.621026 0.295631
-0.031999 0.620511 0.295401
-0.029092 0.619197 0.294919
-0.026318 0.622221 0.295829
-0.023460 0.622787 0.295957
-0.020452 0.615132 0.293461
-0.017592 0.613164 0.292788
-0.014761 0.612414 0.292508
-0.011938 0.611950 0.292324
-0.009116 0.613968 0.292937
-0.006274 0.616359 0.293673
-0.003439 0.615859 0.293490
-0.000673 0.611279 0.292007
0.002133 0.610793 0.291836
0.004951 0.610912 0.291863
0.007889 0.615015 0.293166
0.010747 0.615617 0.293355
0.013425 0.611512 0.292045
0.016411 0.615231 0.293237
0.019234 0.614861 0.293128
0.022119 0.615682 0.293404
0.024804 0.612938 0.292545
0.027613 0.612529 0.292436
0.030597 0.614702 0.293156
0.033713 0.618386 0.294363
0.036618 0.618862 0.294550
0.039575 0.619874 0.294912
0.042378 0.619002 0.294677
0.045322 0.619701 0.294948
0.048213 0.619756 0.295018
0.051252 0.621236 0.295548
0.054189 0.621585 0.295721
0.057444 0.624725 0.296792
0.059972 0.621320 0.295772
0.062493 0.618106 0.294818
0.064834 0.613676 0.293477
0.067651 0.613170 0.293398
0.070434 0.612423 0.293246
0.073290 0.612211 0.293270
0.076288 0.612949 0.293604
0.079259 0.613430 0.293861
0.082189 0.613582 0.294016
0.085306 0.614863 0.294540
0.089072 0.619950 0.296294
0.091594 0.617409 0.295597
0.093817 0.613261 0.294387
0.096099 0.609640 0.293350
0.099074 0.609917 0.293574
0.102223 0.611061 0.294083
0.105531 0.612933 0.294833
0.108213 0.611539 0.294532
0.111123 0.611294 0.294607
0.114351 0.612542 0.295170
0.116884 0.610464 0.294660
0.121047 0.615847 0.296575
0.123603 0.613825 0.296092
0.124364 0.604060 0.293094
0.126831 0.601930 0.292580
0.129881 0.602284 0.292878
0.133758 0.605954 0.294262
0.136750 0.605915 0.294441
0.138904 0.602569 0.293543
0.140947 0.598899 0.292541
0.144770 0.602030 0.293766
0.149295 0.607592 0.295794
0.150785 0.601951 0.294151
0.149072 0.585125 0.288832
0.158032 0.606059 0.295923
0.162026 0.609232 0.297182
0.163346 0.603282 0.295438
0.165189 0.599242 0.294321
0.166700 0.594241 0.292884
0.172051 0.601644 0.295545
0.175528 0.602899 0.296176
0.179053 0.604248 0.296838
0.182925 0.606590 0.297829
0.186483 0.607909 0.298479
0.190243 0.609770 0.299307
0.193382 0.609767 0.299512
0.196050 0.608415 0.299263
0.198090 0.605335 0.298431
0.200368 0.603009 0.297843
0.206755 0.611955 0.301014
0.209157 0.609940 0.300516
0.209898 0.603588 0.298556
0.211607 0.599954 0.297494
0.215516 0.602104 0.298360
0.219487 0.604372 0.299255
0.223574 0.606888 0.300222
0.227244 0.608332 0.300817
0.230380 0.608458 0.300957
0.232382 0.605876 0.300171
0.232757 0.599508 0.298097
0.235788 0.599585 0.298174
0.235602 0.592214 0.295728
0.237255 0.589283 0.294760
0.238351 0.585196 0.293386
0.238073 0.578158 0.291001
0.241260 0.579017 0.291258
0.249157 0.590253 0.294987
0.255099 0.597045 0.297201
0.255938 0.592769 0.295675
0.258572 0.592455 0.295462
0.269001 0.608620 0.300763
0.272109 0.609248 0.300825
0.269881 0.598898 0.297189
0.267773 0.589050 0.293708
0.270627 0.589497 0.293660
0.277523 0.598106 0.296320
0.282679 0.603152 0.297767
-0.304805 0.609943 0.303110
-0.301671 0.609033 0.302989
-0.298798 0.608695 0.303042
-0.296286 0.609151 0.303346
-0.293508 0.609124 0.303467
-0.290953 0.609623 0.303747
-0.288509 0.610424 0.304110
-0.286113 0.611400 0.304512
-0.281055 0.606706 0.302965
-0.278835 0.608160 0.303490
-0.276272 0.608941 0.303767
-0.273870 0.610154 0.304172
-0.271071 0.610545 0.304277
-0.267824 0.609974 0.304036
-0.264355 0.608919 0.303612
-0.261953 0.610379 0.304026
-0.258491 0.609407 0.303594
-0.255316 0.609137 0.303385
-0.252747 0.610368 0.303670
-0.249990 0.611199 0.303803
-0.246923 0.611311 0.303677
-0.243827 0.611382 0.303522
-0.240312 0.610406 0.303000
-0.237250 0.610596 0.302861
-0.234259 0.610999 0.302783
-0.231234 0.611333 0.302670
-0.227710 0.610340 0.302101
-0.224397 0.609906 0.301711
-0.221501 0.610624 0.301702
-0.218517 0.611117 0.301609
-0.215191 0.610644 0.301187
-0.212843 0.613001 0.301707
-0.209633 0.612874 0.301389
-0.206246 0.612201 0.300886
-0.203334 0.612945 0.300853
-0.200257 0.613189 0.300651
-0.196662 0.611784 0.299899
-0.193906 0.613013 0.300022
-0.190940 0.613575 0.299922
-0.187721 0.613294 0.299543
-0.184488 0.612929 0.299137
-0.181102 0.611996 0.298545
-0.177718 0.611012 0.297939
-0.174384 0.610136 0.297372
-0.171707 0.611598 0.297576
-0.168734 0.611983 0.297428
-0.165430 0.611099 0.296868
-0.162716 0.612425 0.297034
-0.159678 0.612495 0.296793
-0.156706 0.612800 0.296632
-0.153268 0.611160 0.295840
-0.150274 0.611284 0.295629
-0.147438 0.612056 0.295633
-0.144652 0.613046 0.295711
-0.141601 0.612852 0.295409
-0.138565 0.612683 0.295120
-0.135968 0.614535 0.295489
-0.133103 0.615144 0.295461
-0.130025 0.614695 0.295095
-0.126774 0.613308 0.294433
-0.123565 0.612027 0.293810
-0.120855 0.613303 0.294016
-0.117902 0.613284 0.293809
-0.115134 0.614260 0.293928
-0.112230 0.614471 0.293805
-0.109370 0.614913 0.293761
-0.106345 0.614336 0.293395
-0.103553 0.615160 0.293483
-0.100302 0.612992 0.292620
-0.097667 0.614806 0.293033
-0.094768 0.614868 0.292892
-0.091744 0.613981 0.292453
-0.088856 0.614024 0.292315
-0.085900 0.613492 0.291999
-0.083069 0.613900 0.291987
-0.080237 0.614294 0.291975
-0.077403 0.614664 0.291960
-0.074487 0.614278 0.291709
-0.071600 0.614098 0.291528
-0.068826 0.614996 0.291694
-0.065928 0.614648 0.291469
-0.063014 0.614039 0.291166
-0.060164 0.614072 0.291071
-0.057361 0.614668 0.291158
-0.054547 0.615157 0.291215
-0.051480 0.612082 0.290151
-0.048748 0.613629 0.290551
-0.045979 0.614772 0.290827
-0.043139 0.614790 0.290752
-0.040258 0.613992 0.290425
-0.037370 0.612836 0.289989
-0.034877 0.620863 0.292450
-0.031998 0.620464 0.292259
-0.029148 0.620798 0.292304
-0.026309 0.621588 0.292497
-0.023462 0.622351 0.292684
-0.020471 0.615384 0.290445
-0.017622 0.614093 0.289995
-0.014789 0.613333 0.289716
-0.011969 0.613904 0.289860
-0.009143 0.615228 0.290245
-0.006291 0.618712 0.291312
-0.003446 0.618445 0.291204
-0.000630 0.616447 0.290556
0.002145 0.613383 0.289578
0.005037 0.616094 0.290418
0.007886 0.616514 0.290542
0.010761 0.617504 0.290849
0.013615 0.617727 0.290919
0.016433 0.617045 0.290709
0.019344 0.618367 0.291133
0.022284 0.619972 0.291649
0.024749 0.613168 0.289528
0.027368 0.609783 0.288485
0.030458 0.613766 0.289761
0.033848 0.621322 0.292164
0.036826 0.622599 0.292599
0.039697 0.622408 0.292576
0.042312 0.619274 0.291633
0.045241 0.619843 0.291858
0.047884 0.617379 0.291132
0.050738 0.617179 0.291124
0.053779 0.618725 0.291670
0.057473 0.625968 0.294014
0.060216 0.624394 0.293587
0.062292 0.617409 0.291458
0.064875 0.614948 0.290759
0.067473 0.612749 0.290146
0.070316 0.612488 0.290149
0.073269 0.612990 0.290397
0.076185 0.613175 0.290550
0.079127 0.613483 0.290747
0.082008 0.613346 0.290807
0.085226 0.615284 0.291529
0.088918 0.619949 0.293119
0.091621 0.618488 0.292776
0.093493 0.612327 0.290947
0.096105 0.610580 0.290520
0.098958 0.610193 0.290529
0.102533 0.613602 0.291749
0.105556 0.613966 0.292007
0.107522 0.608983 0.290568
0.111770 0.615355 0.292748
0.114258 0.612996 0.292153
0.116694 0.610474 0.291510
0.119336 0.608965 0.291193
0.123778 0.615493 0.293449
0.124664 0.606241 0.290665
0.127446 0.605415 0.290578
0.131003 0.607819 0.291530
0.133217 0.604617 0.290689
0.135260 0.600825 0.289661
0.138313 0.601105 0.289943
0.142233 0.604670 0.291286
0.145444 0.605399 0.291721
0.149410 0.608854 0.293039
0.152290 0.608219 0.293043
0.152062 0.596536 0.289478
0.157089 0.603577 0.291965
0.159906 0.602771 0.291919
0.162342 0.600684 0.291457
0.163855 0.595593 0.290020
0.168620 0.601225 0.292066
0.172571 0.604041 0.293200
0.175841 0.604604 0.293601
0.178723 0.603934 0.293601
0.182684 0.606546 0.294671
0.186072 0.607348 0.295149
0.190114 0.610038 0.296243
0.193324 0.610223 0.296515
0.195443 0.607280 0.295757
0.198464 0.606957 0.295853
0.200991 0.605273 0.295496
0.206092 0.610664 0.297459
0.208440 0.608494 0.296929
0.208763 0.601025 0.294643
0.210936 0.598611 0.294012
0.215451 0.602315 0.295389
0.219828 0.605581 0.296614
0.224020 0.608317 0.297653
0.227206 0.608508 0.297839
0.228898 0.605065 0.296810
0.232095 0.605369 0.297006
0.235282 0.605674 0.297189
0.235692 0.599465 0.295197
0.238981 0.600140 0.295471
0.238831 0.592929 0.293114
0.241460 0.592241 0.292902
0.241860 0.586603 0.291033
0.244794 0.586765 0.291068
0.251430 0.595103 0.293796
0.255655 0.598066 0.294724
0.258851 0.598808 0.294896
0.261601 0.598635 0.294747
0.271313 0.613175 0.299448
0.271655 0.607950 0.297587
0.270529 0.599855 0.294761
0.271921 0.597118 0.293690
0.277182 0.602321 0.295220
0.281789 0.606175 0.296284
0.282169 0.601614 0.294558
-0.308366 0.611074 0.300559
-0.304923 0.609543 0.300239
-0.301926 0.608945 0.300211
-0.299188 0.608919 0.300355
-0.296960 0.610000 0.300850
-0.294220 0.610103 0.300999
-0.290516 0.608246 0.300470
-0.289090 0.611227 0.301543
-0.286746 0.612368 0.301980
-0.282548 0.609586 0.301080
-0.279906 0.610192 0.301298
-0.277166 0.610649 0.301446
-0.273932 0.610067 0.301226
-0.270550 0.609187 0.300886
-0.268411 0.611172 0.301489
-0.264688 0.609588 0.300877
-0.261339 0.608884 0.300542
-0.257899 0.607988 0.300127
-0.255410 0.609385 0.300463
-0.253109 0.611308 0.300958
-0.250194 0.611801 0.300960
-0.247085 0.611855 0.300800
-0.243761 0.611391 0.300454
-0.240927 0.612188 0.300517
-0.237140 0.610556 0.299758
-0.234457 0.611797 0.299945
-0.231815 0.613195 0.300174
-0.228235 0.612102 0.299567
-0.224754 0.611253 0.299033
-0.221599 0.611294 0.298787
-0.218462 0.611382 0.298551
-0.214948 0.610390 0.297953
-0.212773 0.613267 0.298626
-0.208848 0.611036 0.297612
-0.206744 0.614211 0.298373
-0.203206 0.613082 0.297717
-0.200194 0.613536 0.297579
-0.196148 0.610716 0.296369
-0.193305 0.611650 0.296388
-0.190544 0.612863 0.296496
-0.187579 0.613416 0.296389
-0.184520 0.613642 0.296177
-0.180921 0.611982 0.295354
-0.177905 0.612287 0.295171
-0.174831 0.612361 0.294916
-0.171658 0.612049 0.294539
-0.168819 0.612934 0.294552
-0.165612 0.612424 0.294117
-0.162544 0.612398 0.293843
-0.159538 0.612584 0.293640
-0.156478 0.612523 0.293363
-0.153439 0.612508 0.293104
-0.150297 0.612024 0.292699
-0.147326 0.612216 0.292515
-0.144568 0.613317 0.292627
-0.141708 0.613971 0.292599
-0.138444 0.612760 0.291981
-0.135615 0.613503 0.291992
-0.132898 0.614782 0.292176
-0.129900 0.614702 0.291933
-0.126810 0.614106 0.291532
-0.123786 0.613788 0.291224
-0.121361 0.616615 0.291917
-0.117579 0.612110 0.290295
-0.114820 0.613084 0.290411
-0.111877 0.613007 0.290200
-0.109180 0.614360 0.290444
-0.106181 0.613899 0.290122
-0.103321 0.614250 0.290059
-0.100417 0.614301 0.289908
-0.097484 0.614118 0.289688
-0.094594 0.614187 0.289551
-0.091589 0.613388 0.289148
-0.088966 0.615370 0.289620
-0.085995 0.614745 0.289280
-0.083092 0.614583 0.289090
-0.080279 0.615136 0.289128
-0.076972 0.611344 0.287814
-0.074156 0.611691 0.287797
-0.071654 0.615066 0.288729
-0.068810 0.615274 0.288677
-0.065960 0.615401 0.288604
-0.063029 0.614597 0.288245
-0.060097 0.613668 0.287852
-0.057308 0.614362 0.287968
-0.054203 0.610913 0.286801
-0.051478 0.612355 0.287159
-0.048753 0.613971 0.287574
-0.046002 0.615395 0.287933
-0.043155 0.615292 0.287821
-0.040265 0.614291 0.287436
-0.037504 0.615829 0.287842
-0.034712 0.616935 0.288118
-0.031964 0.619470 0.288840
-0.029060 0.617886 0.288290
-0.026190 0.616939 0.287942
-0.023345 0.616643 0.287799
-0.020426 0.612011 0.286319
-0.017654 0.615165 0.287251
-0.014823 0.614833 0.287109
-0.011996 0.614451 0.286956
-0.009173 0.613189 0.286534
-0.006341 0.615559 0.287239
-0.003468 0.619550 0.288449
-0.000665 0.616656 0.287534
0.002127 0.614486 0.286848
0.004942 0.614080 0.286710
0.007745 0.613372 0.286483
0.010620 0.614899 0.286950
0.013558 0.617634 0.287795
0.016466 0.619094 0.288249
0.019480 0.622395 0.289276
0.022202 0.619638 0.288436
0.025106 0.620414 0.288691
0.027228 0.608678 0.285084
0.030480 0.615181 0.287116
0.033355 0.615617 0.287278
0.036509 0.619571 0.288532
0.039268 0.618238 0.288156
0.041621 0.612366 0.286379
0.044665 0.614578 0.287107
0.047628 0.615711 0.287506
0.050542 0.616229 0.287719
0.053185 0.614111 0.287119
0.055823 0.612102 0.286558
0.059477 0.618985 0.288755
0.062464 0.619773 0.289069
0.064930 0.616316 0.288072
0.067400 0.613121 0.287160
0.069980 0.610928 0.286562
0.073065 0.612450 0.287121
0.075981 0.612679 0.287284
0.078574 0.610705 0.286766
0.081910 0.613619 0.287773
0.084831 0.613721 0.287911
0.088582 0.618824 0.289610
0.091328 0.617672 0.289367
0.093647 0.614102 0.288375
0.096084 0.611354 0.287642
0.099006 0.611345 0.287768
0.101778 0.610511 0.287642
0.104792 0.610932 0.287911
0.107607 0.610292 0.287855
0.110453 0.609806 0.287850
0.114307 0.614118 0.289354
0.116317 0.609594 0.288094
0.118368 0.605433 0.286949
0.120949 0.603783 0.286596
0.124525 0.606500 0.287620
0.128375 0.610237 0.288971
0.131705 0.611610 0.289584
0.135014 0.612807 0.290146
0.137966 0.612495 0.290237
0.140688 0.611255 0.290039
0.143404 0.610014 0.289844
0.147225 0.612946 0.290973
0.150760 0.614679 0.291728
0.155364 0.620190 0.293686
0.156114 0.611755 0.291220
0.156050 0.600753 0.287933
0.159071 0.600702 0.288130
0.162819 0.603071 0.289100
0.167594 0.608736 0.291125
0.170685 0.608699 0.291334
0.173376 0.607363 0.291128
0.175064 0.602893 0.289918
0.177770 0.601700 0.289754
0.182154 0.605632 0.291236
0.185792 0.607191 0.291956
0.190134 0.610761 0.293322
0.192414 0.608222 0.292721
0.194504 0.605212 0.291961
0.198094 0.606505 0.292586
0.201771 0.607996 0.293271
0.205414 0.609348 0.293906
0.206962 0.605023 0.292696
0.208420 0.600586 0.291441
0.211828 0.601380 0.291872
0.215704 0.603372 0.292685
0.220002 0.606397 0.293824
0.223514 0.607382 0.294291
0.226482 0.607013 0.294305
0.228560 0.604498 0.293608
0.233718 0.609511 0.295351
0.234138 0.603127 0.293364
0.239266 0.608022 0.295041
0.239346 0.601087 0.292842
0.240062 0.595813 0.291169
0.241945 0.593358 0.290399
0.247172 0.598510 0.292096
0.246483 0.590450 0.289461
0.251821 0.595853 0.291204
0.256221 0.599147 0.292241
0.259688 0.600415 0.292597
0.270121 0.616519 0.297774
0.264090 0.597697 0.291539
0.262499 0.588561 0.288448
0.272337 0.603234 0.293095
0.271331 0.595527 0.290435
0.273394 0.594233 0.289844
0.275760 0.593628 0.289460
0.271891 0.580709 0.285063
0.275210 0.582225 0.285336
0.279725 0.586105 0.286354
-0.309625 0.607689 0.296506
-0.307305 0.608339 0.296914
-0.304905 0.608901 0.297275
-0.302628 0.609785 0.297723
-0.299914 0.609856 0.297884
-0.297265 0.610123 0.298089
-0.296154 0.613641 0.299349
-0.291534 0.609950 0.298207
-0.289389 0.611469 0.298767
-0.286647 0.611805 0.298916
-0.285357 0.615336 0.300102
-0.281165 0.612667 0.299217
-0.278067 0.612408 0.299109
-0.275225 0.612763 0.299185
-0.271233 0.610582 0.298404
-0.268142 0.610452 0.298282
-0.265237 0.610792 0.298298
-0.262055 0.610534 0.298099
-0.258839 0.610229 0.297868
-0.255575 0.609835 0.297592
-0.252953 0.611023 0.297822
-0.250607 0.612949 0.298280
-0.246606 0.610829 0.297392
-0.244156 0.612592 0.297769
-0.240808 0.612124 0.297400
-0.237533 0.611848 0.297084
-0.234684 0.612698 0.297127
-0.231946 0.613881 0.297269
-0.228458 0.613070 0.296750
-0.224837 0.611872 0.296100
-0.221685 0.611949 0.295858
-0.218136 0.610901 0.295246
-0.215304 0.611876 0.295286
-0.212118 0.611837 0.294993
-0.208631 0.610894 0.294405
-0.206355 0.613559 0.294980
-0.203121 0.613360 0.294628
-0.199300 0.611305 0.293677
-0.196103 0.611138 0.293334
-0.193143 0.611703 0.293228
-0.190312 0.612692 0.293257
-0.187372 0.613321 0.293171
-0.184238 0.613290 0.292876
-0.181353 0.614088 0.292847
-0.178085 0.613539 0.292390
-0.174694 0.612493 0.291779
-0.171845 0.613360 0.291780
-0.168203 0.611269 0.290844
-0.165482 0.612564 0.290987
-0.162823 0.614114 0.291214
-0.159059 0.611323 0.290071
-0.156487 0.613191 0.290406
-0.153634 0.613946 0.290392
-0.149938 0.611140 0.289261
-0.147910 0.615359 0.290346
-0.144796 0.614948 0.289978
-0.141182 0.612231 0.288893
-0.138505 0.613663 0.289114
-0.135604 0.614067 0.289016
-0.132623 0.614067 0.288798
-0.129695 0.614293 0.288655
-0.126765 0.614484 0.288506
-0.123908 0.615021 0.288469
-0.120762 0.614005 0.287954
-0.118216 0.616192 0.288440
-0.114539 0.612076 0.286973
-0.112227 0.615611 0.287886
-0.109211 0.615113 0.287552
-0.106313 0.615269 0.287426
-0.103415 0.615399 0.287296
-0.100558 0.615762 0.287244
-0.097546 0.615071 0.286870
-0.094543 0.614350 0.286493
-0.091550 0.613620 0.286117
-0.088878 0.615208 0.286461
-0.086143 0.616389 0.286683
-0.082915 0.613627 0.285697
-0.080096 0.614054 0.285696
-0.077424 0.615775 0.286097
-0.074594 0.616161 0.286091
-0.071735 0.616266 0.286004
-0.068830 0.615883 0.285772
-0.065945 0.615639 0.285587
-0.062858 0.613070 0.284695
-0.060052 0.613494 0.284723
-0.057166 0.612923 0.284451
-0.054396 0.613797 0.284624
-0.051549 0.613658 0.284492
-0.048777 0.614600 0.284695
-0.045994 0.615483 0.284883
-0.043177 0.615864 0.284921
-0.040329 0.615673 0.284789
-0.037506 0.615942 0.284802
-0.034761 0.618112 0.285397
-0.031965 0.619429 0.285736
-0.028990 0.615515 0.284486
-0.026189 0.616561 0.284750
-0.023343 0.616017 0.284534
-0.020516 0.616208 0.284545
-0.017672 0.615114 0.284170
-0.014839 0.614168 0.283843
-0.012017 0.613479 0.283598
-0.009200 0.614259 0.283804
-0.006380 0.614098 0.283728
-0.003523 0.617652 0.284784
-0.000669 0.618808 0.285115
0.002113 0.615785 0.284180
0.004774 0.609078 0.282130
0.007491 0.606393 0.281305
0.010514 0.613276 0.283391
0.013457 0.616437 0.284350
0.016780 0.627492 0.287710
0.019166 0.617191 0.284588
0.022077 0.618472 0.284987
0.024884 0.617751 0.284782
0.027886 0.620187 0.285541
0.029963 0.608626 0.282050
0.033032 0.612211 0.283165
0.035928 0.613096 0.283463
0.038748 0.612916 0.283443
0.041348 0.610203 0.282656
0.044147 0.609915 0.282610
0.047276 0.613029 0.283602
0.050217 0.613970 0.283939
0.052782 0.611261 0.283168
0.055803 0.612855 0.283712
0.058838 0.614410 0.284248
0.062087 0.617575 0.285280
0.064881 0.616847 0.285130
0.067321 0.613419 0.284160
0.069960 0.611679 0.283710
0.072795 0.611420 0.283715
0.075624 0.611114 0.283710
0.078761 0.612843 0.284331
0.081571 0.612320 0.284270
0.084494 0.612498 0.284427
0.087823 0.615101 0.285330
0.090790 0.615382 0.285529
0.093422 0.613694 0.285128
0.096758 0.615990 0.285954
0.098985 0.612109 0.284890
0.101911 0.612090 0.285015
0.104790 0.611793 0.285059
0.107793 0.612100 0.285293
0.109744 0.607201 0.283930
0.113977 0.613412 0.285993
0.116124 0.609561 0.284960
0.118203 0.605540 0.283878
0.120781 0.603886 0.283529
0.124255 0.606182 0.284405
0.126980 0.605144 0.284256
0.132783 0.616973 0.288096
0.135499 0.615650 0.287869
0.138878 0.617001 0.288476
0.140985 0.613270 0.287510
0.143472 0.611117 0.287035
0.147499 0.614823 0.288388
0.151874 0.619641 0.290093
0.154527 0.617993 0.289788
0.153552 0.603449 0.285457
0.155285 0.598875 0.284236
0.160100 0.605024 0.286372
0.164796 0.610527 0.288312
0.168372 0.612095 0.289024
0.171715 0.612824 0.289475
0.174152 0.610602 0.289000
0.176530 0.608244 0.288481
0.179029 0.606317 0.288096
0.182265 0.606678 0.288432
0.185637 0.607417 0.288888
0.190241 0.611752 0.290481
0.191734 0.606902 0.289164
0.194816 0.606731 0.289326
0.198178 0.607348 0.289734
0.201546 0.607956 0.290136
0.205762 0.610859 0.291264
0.207628 0.607342 0.290342
0.208980 0.602564 0.289010
0.213917 0.607314 0.290709
0.219011 0.612345 0.292493
0.220634 0.608407 0.291401
0.223588 0.607935 0.291407
0.226433 0.607222 0.291324
0.228566 0.604804 0.290683
0.231384 0.604128 0.290586
0.239887 0.617058 0.294845
0.239942 0.609790 0.292605
0.240107 0.602989 0.290499
0.239005 0.593474 0.287503
0.241480 0.592349 0.287187
0.244952 0.593532 0.287596
0.246850 0.591233 0.286869
0.250782 0.593497 0.287592
0.254933 0.596231 0.288447
0.259565 0.599991 0.289614
0.261463 0.597912 0.288885
0.262319 0.593733 0.287463
0.265160 0.593829 0.287397
0.268080 0.594140 0.287380
0.270473 0.593425 0.287015
0.270921 0.588846 0.285394
0.269828 0.581325 0.282816
0.271136 0.578764 0.281811
0.279561 0.590302 0.285291
0.284151 0.594217 0.286314
0.279772 0.580792 0.281793
-0.312355 0.607237 0.293431
-0.309915 0.607618 0.293753
-0.307239 0.607601 0.293926
-0.305306 0.609125 0.294582
-0.303013 0.610016 0.295012
-0.300216 0.609962 0.295116
-0.297401 0.609931 0.295208
-0.294738 0.610274 0.295402
-0.293483 0.613626 0.296555
-0.289593 0.611543 0.295918
-0.286723 0.611650 0.295974
-0.284392 0.612976 0.296408
-0.281635 0.613457 0.296546
-0.278950 0.614158 0.296737
-0.274395 0.610758 0.295572
-0.271461 0.610983 0.295570
-0.268717 0.611692 0.295707
-0.265652 0.611719 0.295604
-0.262795 0.612274 0.295657
-0.259507 0.611858 0.295377
-0.255852 0.610585 0.294804
-0.253145 0.611614 0.294963
-0.250452 0.612731 0.295136
-0.247168 0.612427 0.294836
-0.243630 0.611495 0.294321
-0.240362 0.611247 0.294016
-0.237558 0.612211 0.294092
-0.234958 0.613749 0.294343
-0.231560 0.613206 0.293914
-0.228145 0.612606 0.293461
-0.224570 0.611547 0.292854
-0.221193 0.611008 0.292410
-0.218072 0.611174 0.292186
-0.215420 0.612684 0.292387
-0.211662 0.610999 0.291565
-0.209085 0.612757 0.291838
-0.206315 0.613970 0.291935
-0.202928 0.613314 0.291436
-0.199390 0.612142 0.290774
-0.196181 0.611952 0.290424
-0.193092 0.612121 0.290188
-0.190167 0.612804 0.290115
-0.187187 0.613304 0.289986
-0.184285 0.614056 0.289937
-0.181185 0.614119 0.289674
-0.177732 0.612911 0.289015
-0.174692 0.613108 0.288800
-0.171433 0.612476 0.288330
-0.168181 0.611808 0.287852
-0.165281 0.612423 0.287778
-0.162704 0.614281 0.288095
-0.159100 0.612108 0.287162
-0.156474 0.613763 0.287423
-0.153687 0.614788 0.287492
-0.150642 0.614731 0.287230
-0.147565 0.614491 0.286916
-0.144523 0.614363 0.286641
-0.141203 0.612934 0.285971
-0.138517 0.614324 0.286174
-0.135612 0.614711 0.286073
-0.132488 0.614014 0.285643
-0.129398 0.613413 0.285249
-0.126565 0.614055 0.285241
-0.123698 0.614506 0.285179
-0.120927 0.615466 0.285277
-0.117827 0.614620 0.284828
-0.114588 0.612912 0.284121
-0.112258 0.616350 0.284989
-0.109578 0.617856 0.285271
-0.106158 0.614850 0.284185
-0.103517 0.616574 0.284543
-0.100553 0.616255 0.284284
-0.097546 0.615583 0.283923
-0.094412 0.613932 0.283270
-0.091564 0.614211 0.283207
-0.089002 0.616624 0.283795
-0.086169 0.617065 0.283789
-0.082976 0.614578 0.282903
-0.080069 0.614271 0.282681
-0.077478 0.616692 0.283287
-0.074650 0.617100 0.283288
-0.071697 0.616309 0.282933
-0.068631 0.614271 0.282207
-0.065766 0.614111 0.282050
-0.062977 0.614751 0.282139
-0.060055 0.613858 0.281771
-0.057251 0.614300 0.281808
-0.054380 0.613877 0.281589
-0.051586 0.614451 0.281674
-0.048777 0.614840 0.281707
-0.045971 0.615293 0.281762
-0.043107 0.614780 0.281532
-0.040271 0.614647 0.281420
-0.037480 0.615454 0.281594
-0.034744 0.617708 0.282204
-0.031922 0.618169 0.282281
-0.029085 0.618269 0.282253
-0.026243 0.618176 0.282172
-0.023377 0.616933 0.281750
-0.020535 0.616359 0.281532
-0.017677 0.614073 0.280807
-0.014852 0.613162 0.280496
-0.012046 0.614795 0.280949
-0.009227 0.614487 0.280825
-0.006410 0.614235 0.280722
-0.003533 0.619936 0.282401
-0.000647 0.622634 0.283187
0.002136 0.618898 0.282054
0.004880 0.615045 0.280890
0.007716 0.615492 0.281015
0.010461 0.613137 0.280306
0.013278 0.613194 0.280321
0.015981 0.610584 0.279543
0.019012 0.615211 0.280930
0.021788 0.614228 0.280646
0.024575 0.613551 0.280457
0.027253 0.611220 0.279777
0.030138 0.612243 0.280103
0.032916 0.611634 0.279946
0.035797 0.612397 0.280202
0.038467 0.610478 0.279660
0.042048 0.619225 0.282311
0.044382 0.613423 0.280616
0.046736 0.608370 0.279150
0.049686 0.609663 0.279584
0.053085 0.615034 0.281243
0.055663 0.612505 0.280542
0.058564 0.612946 0.280734
0.061676 0.615070 0.281435
0.064692 0.616234 0.281853
0.067288 0.614053 0.281273
0.069979 0.612696 0.280943
0.072775 0.612153 0.280862
0.076165 0.615724 0.282020
0.078562 0.612388 0.281109
0.081192 0.610731 0.280706
0.084177 0.611379 0.281000
0.087466 0.613800 0.281832
0.090488 0.614467 0.282142
0.094153 0.618755 0.283547
0.096477 0.615288 0.282622
0.098981 0.612944 0.282038
0.101828 0.612510 0.282035
0.104813 0.612768 0.282245
0.107426 0.611111 0.281881
0.110737 0.612922 0.282570
0.113484 0.611910 0.282410
0.115614 0.608027 0.281385
0.118628 0.608322 0.281629
0.123194 0.615505 0.283969
0.125239 0.611320 0.282864
0.126112 0.602277 0.280284
0.128346 0.599270 0.279540
0.131022 0.598166 0.279379
0.135039 0.602452 0.280866
0.137753 0.601411 0.280733
0.141916 0.605959 0.282312
0.144311 0.603616 0.281790
0.146996 0.602407 0.281617
0.150322 0.603538 0.282164
0.152608 0.600885 0.281555
0.155442 0.600218 0.281557
0.159075 0.602294 0.282405
0.163037 0.605375 0.283568
0.167483 0.609928 0.285190
0.170491 0.609607 0.285312
0.173582 0.609538 0.285512
0.176844 0.609983 0.285874
0.179847 0.609585 0.285975
0.182668 0.608624 0.285902
0.184700 0.605305 0.285094
0.189827 0.611217 0.287156
0.192949 0.611100 0.287343
0.194864 0.607514 0.286445
0.198196 0.608019 0.286820
0.201518 0.608476 0.287176
0.205979 0.612030 0.288498
0.207455 0.607424 0.287260
0.209541 0.604571 0.286563
0.213163 0.605827 0.287149
0.217429 0.608720 0.288241
0.219739 0.606553 0.287735
0.223830 0.608938 0.288652
0.226476 0.607687 0.288414
0.229457 0.607305 0.288438
0.232506 0.607122 0.288513
0.238085 0.613004 0.290491
0.242412 0.615818 0.291487
0.240047 0.603013 0.287532
0.240140 0.596207 0.285454
0.240139 0.589383 0.283354
0.242143 0.587262 0.282726
0.248119 0.594051 0.284901
0.252331 0.596856 0.285798
0.256060 0.598597 0.286340
0.259474 0.599671 0.286653
0.261518 0.597862 0.286035
0.261983 0.592823 0.284377
0.266178 0.595706 0.285206
0.271413 0.600726 0.286691
0.272970 0.598199 0.285772
0.274858 0.596449 0.285079
0.273100 0.587490 0.282096
0.275926 0.587846 0.282034
0.280432 0.591555 0.283008
0.284131 0.593684 0.283465
0.286747 0.593744 0.283253
-0.313072 0.607985 0.290940
-0.309378 0.605959 0.290476
-0.308186 0.608891 0.291578
-0.305878 0.609718 0.291988
-0.303442 0.610367 0.292322
-0.300667 0.610402 0.292439
-0.297927 0.610571 0.292579
-0.295853 0.612180 0.293162
-0.293337 0.612959 0.293457
-0.290292 0.612695 0.293398
-0.286416 0.610711 0.292767
-0.284004 0.611894 0.293133
-0.281804 0.613622 0.293653
-0.277417 0.610618 0.292636
-0.273765 0.609233 0.292120
-0.271899 0.611892 0.292882
-0.268997 0.612292 0.292902
-0.266024 0.612579 0.292868
-0.262856 0.612455 0.292687
-0.259689 0.612367 0.292500
-0.256446 0.612127 0.292251
-0.253520 0.612680 0.292240
-0.250715 0.613567 0.292323
-0.246928 0.612053 0.291628
-0.243470 0.611350 0.291180
-0.240380 0.611583 0.291020
-0.237503 0.612388 0.291032
-0.234854 0.613825 0.291234
-0.231294 0.612873 0.290672
-0.228045 0.612738 0.290363
-0.224986 0.613120 0.290210
-0.222469 0.615022 0.290531
-0.218352 0.612438 0.289436
-0.214946 0.611809 0.288953
-0.213067 0.615617 0.289859
-0.209444 0.614347 0.289170
-0.206223 0.614232 0.288842
-0.202638 0.612973 0.288158
-0.199406 0.612752 0.287797
-0.196298 0.612897 0.287552
-0.192864 0.611964 0.286972
-0.189949 0.612680 0.286906
-0.187134 0.613724 0.286943
-0.184147 0.614191 0.286804
-0.180846 0.613555 0.286326
-0.177695 0.613391 0.285997
-0.174738 0.613884 0.285874
-0.171798 0.614427 0.285770
-0.168319 0.612940 0.285046
-0.165203 0.612741 0.284722
-0.162252 0.613141 0.284586
-0.159345 0.613694 0.284500
-0.156438 0.614235 0.284415
-0.154232 0.617652 0.285210
-0.150446 0.614512 0.284013
-0.147434 0.614534 0.283783
-0.144456 0.614669 0.283593
-0.141096 0.613046 0.282875
-0.138619 0.615390 0.283363
-0.135770 0.616048 0.283345
-0.132313 0.613749 0.282439
-0.129207 0.613044 0.282020
-0.126250 0.613020 0.281811
-0.123660 0.614873 0.282173
-0.120866 0.615693 0.282227
-0.117529 0.613535 0.281392
-0.114558 0.613285 0.281135
-0.111722 0.613764 0.281102
-0.109004 0.614946 0.281284
-0.106224 0.615781 0.281366
-0.103297 0.615689 0.281175
-0.100446 0.616054 0.281126
-0.097090 0.612980 0.280055
-0.094207 0.612977 0.279905
-0.091643 0.615257 0.280440
-0.088946 0.616664 0.280719
-0.086243 0.618097 0.281009
-0.083161 0.616525 0.280410
-0.080173 0.615578 0.280001
-0.077260 0.615178 0.279760
-0.074174 0.613121 0.279032
-0.071306 0.612929 0.278861
-0.068471 0.613018 0.278778
-0.065668 0.613429 0.278793
-0.062953 0.614818 0.279103
-0.060143 0.615221 0.279124
-0.057271 0.614856 0.278922
-0.054443 0.614981 0.278869
-0.051562 0.614355 0.278598
-0.048749 0.614617 0.278593
-0.045929 0.614782 0.278563
-0.043083 0.614482 0.278400
-0.040297 0.615267 0.278560
-0.037496 0.615824 0.278657
-0.034792 0.618836 0.279480
-0.031901 0.617495 0.279025
-0.029174 0.620810 0.279944
-0.026332 0.621047 0.279961
-0.023433 0.618869 0.279271
-0.020482 0.612488 0.277349
-0.017710 0.615169 0.278096
-0.014889 0.614930 0.277987
-0.012079 0.617108 0.278592
-0.009253 0.615599 0.278117
-0.006441 0.614181 0.277673
-0.003494 0.626795 0.281353
-0.000683 0.622677 0.280123
0.002077 0.617940 0.278715
0.004898 0.617480 0.278567
0.007722 0.617229 0.278483
0.010508 0.615907 0.278089
0.013199 0.612468 0.277077
0.015917 0.610346 0.276455
0.018761 0.611232 0.276720
0.021710 0.613887 0.277507
0.024566 0.614474 0.277692
0.027329 0.613468 0.277412
0.030205 0.614253 0.277661
0.033293 0.617833 0.278736
0.036047 0.616615 0.278405
0.038972 0.617592 0.278722
0.041678 0.615913 0.278264
0.044237 0.612772 0.277379
0.047136 0.613433 0.277616
0.050292 0.616551 0.278578
0.052995 0.615079 0.278196
0.055445 0.611418 0.277173
0.057995 0.608903 0.276491
0.061328 0.613060 0.277776
0.064604 0.616403 0.278827
0.067019 0.612846 0.277850
0.070044 0.614043 0.278277
0.072847 0.613530 0.278205
0.075642 0.612964 0.278122
0.078465 0.612586 0.278098
0.081325 0.612442 0.278147
0.083906 0.610523 0.277677
0.087550 0.615161 0.279148
0.090633 0.616177 0.279555
0.093075 0.613411 0.278847
0.096143 0.614267 0.279215
0.098885 0.613266 0.279038
0.101665 0.612485 0.278931
0.104323 0.611080 0.278643
0.107239 0.611009 0.278755
0.110107 0.610672 0.278793
0.113416 0.612424 0.279457
0.116925 0.614999 0.280371
0.119228 0.611903 0.279602
0.123451 0.617498 0.281428
0.125124 0.611653 0.279846
0.126878 0.606379 0.278437
0.130345 0.608461 0.279229
0.133165 0.607771 0.279197
0.136110 0.607573 0.279317
0.139553 0.609311 0.280022
0.142097 0.607475 0.279659
0.145405 0.608566 0.280179
0.148227 0.607778 0.280139
0.150919 0.606516 0.279959
0.153994 0.606632 0.280197
0.156674 0.605327 0.280010
0.159293 0.603828 0.279766
0.162499 0.604338 0.280133
0.165333 0.603563 0.280114
0.169382 0.606756 0.281300
0.172547 0.606974 0.281587
0.176292 0.608987 0.282422
0.179882 0.610430 0.283086
0.182479 0.608770 0.282806
0.185581 0.608657 0.282997
0.188939 0.609287 0.283414
0.192292 0.609862 0.283815
0.196056 0.611586 0.284567
0.197870 0.607735 0.283606
0.201300 0.608483 0.284053
0.205730 0.611940 0.285331
0.208831 0.611703 0.285469
0.210330 0.607207 0.284288
0.213543 0.607332 0.284525
0.216660 0.607212 0.284678
0.219953 0.607549 0.284966
0.223436 0.608364 0.285393
0.226890 0.609098 0.285786
0.228091 0.604307 0.284455
0.232199 0.606690 0.285337
0.235840 0.607921 0.285851
0.237399 0.604236 0.284823
0.239197 0.601231 0.283992
0.241050 0.598453 0.283216
0.241857 0.593400 0.281715
0.243984 0.591470 0.281170
0.254014 0.607174 0.286102
0.256866 0.606804 0.286011
0.255015 0.596277 0.282737
0.263121 0.607413 0.286194
0.260066 0.594647 0.282186
0.259735 0.587928 0.280045
0.267473 0.598188 0.283172
0.272512 0.602736 0.284500
0.278220 0.608615 0.286221
0.278453 0.603380 0.284467
0.278539 0.598011 0.282655
0.280691 0.596895 0.282145
0.285876 0.601813 0.283488
0.285821 0.596507 0.281644
0.288828 0.597260 0.281659
0.289894 0.594348 0.280524
-0.315928 0.607784 0.287940
-0.313814 0.608806 0.288449
-0.312448 0.611370 0.289426
-0.308390 0.608744 0.288748
-0.306056 0.609557 0.289135
-0.303961 0.610927 0.289678
-0.301559 0.611763 0.290033
-0.298976 0.612309 0.290276
-0.296417 0.612974 0.290537
-0.293391 0.612738 0.290493
-0.289202 0.610103 0.289670
-0.286338 0.610293 0.289720
-0.283719 0.611070 0.289936
-0.281170 0.612069 0.290202
-0.278593 0.613079 0.290453
-0.275552 0.613127 0.290381
-0.272186 0.612491 0.290075
-0.269295 0.612963 0.290102
-0.266305 0.613260 0.290056
-0.262534 0.611774 0.289433
-0.259418 0.611835 0.289282
-0.256493 0.612386 0.289270
-0.253719 0.613344 0.289373
-0.250734 0.613831 0.289314
-0.247230 0.613058 0.288849
-0.243978 0.612914 0.288571
-0.240946 0.613345 0.288462
-0.238105 0.614295 0.288506
-0.234615 0.613565 0.288018
-0.231308 0.613305 0.287670
-0.228057 0.613189 0.287361
-0.225494 0.614961 0.287632
-0.222682 0.616081 0.287696
-0.218615 0.613665 0.286662
-0.215461 0.613793 0.286412
-0.212548 0.614617 0.286375
-0.209527 0.615126 0.286239
-0.205998 0.614095 0.285629
-0.202708 0.613743 0.285228
-0.199559 0.613798 0.284953
-0.196017 0.612577 0.284289
-0.193000 0.612984 0.284124
-0.189783 0.612720 0.283756
-0.187015 0.613921 0.283837
-0.183926 0.614037 0.283589
-0.180584 0.613249 0.283071
-0.177474 0.613216 0.282785
-0.174608 0.614025 0.282757
-0.171666 0.614551 0.282648
-0.167882 0.611914 0.281588
-0.164838 0.611957 0.281342
-0.162056 0.612985 0.281395
-0.159442 0.614684 0.281654
-0.156224 0.613968 0.281193
-0.153534 0.615370 0.281370
-0.150247 0.614268 0.280803
-0.147197 0.614104 0.280521
-0.144288 0.614515 0.280416
-0.141380 0.614913 0.280312
-0.138816 0.616881 0.280679
-0.135886 0.617167 0.280551
-0.132305 0.614277 0.279484
-0.129206 0.613599 0.279081
-0.126177 0.613201 0.278765
-0.123590 0.615059 0.279122
-0.120784 0.615796 0.279151
-0.117833 0.615740 0.278951
-0.114771 0.615015 0.278559
-0.111741 0.614392 0.278202
-0.109173 0.616472 0.278644
-0.106326 0.616908 0.278608
-0.103196 0.615539 0.278046
-0.100512 0.616973 0.278311
-0.097677 0.617440 0.278297
-0.094299 0.614083 0.277167
-0.091513 0.614765 0.277226
-0.088954 0.617166 0.277791
-0.085963 0.616340 0.277416
-0.083193 0.617205 0.277540
-0.080070 0.615120 0.276807
-0.077366 0.616509 0.277091
-0.074133 0.613117 0.275987
-0.071335 0.613578 0.276010
-0.068512 0.613784 0.275962
-0.065618 0.613228 0.275697
-0.062972 0.615354 0.276215
-0.060141 0.615498 0.276161
-0.057304 0.615541 0.276081
-0.054448 0.615297 0.275922
-0.051464 0.613172 0.275222
-0.048686 0.613860 0.275340
-0.045830 0.613317 0.275106
-0.043191 0.616535 0.275965
-0.040361 0.616586 0.275910
-0.037561 0.617247 0.276035
-0.034688 0.616267 0.275689
-0.031906 0.617487 0.275982
-0.029051 0.616735 0.275709
-0.026348 0.621253 0.276963
-0.023424 0.617834 0.275926
-0.020551 0.615433 0.275188
-0.017734 0.615575 0.275187
-0.014921 0.616148 0.275315
-0.012098 0.615556 0.275109
-0.009282 0.614534 0.274783
-0.006463 0.615610 0.275066
-0.003529 0.626645 0.278226
-0.000794 0.617793 0.275651
0.001917 0.611904 0.273935
0.004652 0.609203 0.273142
0.007589 0.614227 0.274581
0.010423 0.614820 0.274745
0.013227 0.614471 0.274641
0.015910 0.611408 0.273758
0.018737 0.611867 0.273894
0.021676 0.614342 0.274615
0.024592 0.615992 0.275101
0.027320 0.614367 0.274647
0.030265 0.616146 0.275178
0.033102 0.616175 0.275208
0.036034 0.617404 0.275588
0.038799 0.616426 0.275335
0.041549 0.615352 0.275058
0.044235 0.613648 0.274603
0.047164 0.614620 0.274924
0.049923 0.613791 0.274728
0.052580 0.612041 0.274270
0.055434 0.612193 0.274366
0.058108 0.610737 0.274001
0.061570 0.615927 0.275561
0.064327 0.615048 0.275371
0.066989 0.613467 0.274982
0.069840 0.613374 0.275027
0.072904 0.614778 0.275510
0.075656 0.613899 0.275336
0.078402 0.612997 0.275159
0.081223 0.612614 0.275137
0.084312 0.613904 0.275605
0.087358 0.614821 0.275970
0.089864 0.612451 0.275384
0.092624 0.611640 0.275255
0.095633 0.612236 0.275539
0.098686 0.613007 0.275880
0.101529 0.612589 0.275879
0.104392 0.612261 0.275908
0.106997 0.610611 0.275557
0.109863 0.610293 0.275598
0.114183 0.616933 0.277678
0.116929 0.615847 0.277506
0.119364 0.613351 0.276925
0.121882 0.611303 0.276478
0.125209 0.612848 0.277090
0.127972 0.611879 0.276969
0.130448 0.609710 0.276499
0.133320 0.609223 0.276528
0.136431 0.609678 0.276838
0.139566 0.610176 0.277166
0.142433 0.609582 0.277176
0.145243 0.608763 0.277124
0.148711 0.610383 0.277796
0.151828 0.610626 0.278067
0.154692 0.609926 0.278061
0.157245 0.608124 0.277732
0.160479 0.608703 0.278113
0.163565 0.608727 0.278332
0.166545 0.608365 0.278440
0.170221 0.610265 0.279224
0.172954 0.609039 0.279079
0.175229 0.606376 0.278505
0.179350 0.609517 0.279668
0.182441 0.609379 0.279852
0.185421 0.608889 0.279932
0.188473 0.608604 0.280072
0.191686 0.608780 0.280351
0.194853 0.608799 0.280581
0.198479 0.610100 0.281197
