ply
format ascii 1.0
comment ---
element vertex 1764
property float x
property float y
property float z
element face 0
property list uchar uint vertex_indices
end_header
-0.022600 0.604574 0.498262
-0.019651 0.603891 0.498319
-0.016627 0.602663 0.497995
-0.013832 0.604064 0.499406
-0.010854 0.603845 0.499721
-0.007879 0.603932 0.500226
-0.004717 0.601925 0.499313
-0.001714 0.602150 0.499879
0.001233 0.603573 0.501235
0.004269 0.604127 0.501996
0.007336 0.604598 0.502689
0.010314 0.607252 0.504838
0.013512 0.606115 0.504428
0.016649 0.606571 0.505079
0.019963 0.602592 0.502729
0.023083 0.604119 0.504083
0.026257 0.604691 0.504784
0.029456 0.604893 0.505229
0.032670 0.604983 0.505591
0.035895 0.605161 0.506006
0.039130 0.605428 0.506478
0.042375 0.604633 0.506224
0.045625 0.604615 0.506494
0.048842 0.601659 0.504766
0.052140 0.604263 0.506810
0.055385 0.603321 0.506444
0.058657 0.603422 0.506785
0.062023 0.605964 0.508789
0.065315 0.605920 0.509032
0.068593 0.605505 0.509024
0.071972 0.607023 0.510335
0.075254 0.606518 0.510268
0.078479 0.605153 0.509616
0.081806 0.605421 0.510080
0.085302 0.607864 0.512036
0.088534 0.606645 0.511491
0.091778 0.605690 0.511129
0.095137 0.606084 0.511695
0.098531 0.606746 0.512449
0.101892 0.606997 0.512927
0.105162 0.606344 0.512788
0.108542 0.606698 0.513346
0.111924 0.607006 0.513878
0.115486 0.608697 0.515369
0.118347 0.604870 0.513063
0.121845 0.605986 0.514169
0.124992 0.604527 0.513504
0.128438 0.605172 0.514298
0.131975 0.606334 0.515456
0.135221 0.605563 0.515283
0.138649 0.605916 0.515895
0.142032 0.605959 0.516299
0.145434 0.606076 0.516761
0.149066 0.607425 0.518086
0.152575 0.608004 0.518884
0.155855 0.607341 0.518825
0.159262 0.607322 0.519221
0.162564 0.606761 0.519246
0.166040 0.607031 0.519857
0.169516 0.607252 0.520441
0.172842 0.606758 0.520533
0.176099 0.605958 0.520417
0.179585 0.606145 0.520999
0.182963 0.605839 0.521243
0.186383 0.605687 0.521602
0.190458 0.608115 0.523782
0.194064 0.608578 0.524591
0.197535 0.608476 0.525009
0.200698 0.607200 0.524605
0.204021 0.606529 0.524635
0.207283 0.605634 0.524513
0.211060 0.606538 0.525671
0.214906 0.607605 0.526955
0.218201 0.606751 0.526884
0.222019 0.607616 0.528041
0.226040 0.609062 0.529622
0.228877 0.606685 0.528488
0.232857 0.607897 0.529919
0.236596 0.608298 0.530782
0.239974 0.607574 0.530847
0.243959 0.608617 0.532187
0.247512 0.608342 0.532590
0.250092 0.605291 0.531006
0.254834 0.608316 0.533798
0.258043 0.607014 0.533485
0.261747 0.607047 0.534142
0.265747 0.607824 0.535346
0.269422 0.607694 0.535904
0.273008 0.607305 0.536282
0.276927 0.607725 0.537256
0.280922 0.608283 0.538340
0.284257 0.607176 0.538222
0.287913 0.606836 0.538670
0.291844 0.607118 0.539582
0.295565 0.606861 0.540109
0.299477 0.607011 0.540944
0.302902 0.606017 0.540949
0.306320 0.604996 0.540940
0.311455 0.607737 0.543713
0.315142 0.607222 0.544099
0.319499 0.608112 0.545534
0.322781 0.606673 0.545254
0.327204 0.607602 0.546740
0.330868 0.606909 0.547032
0.335385 0.607915 0.548600
0.339383 0.607818 0.549358
0.343016 0.606965 0.549562
0.347614 0.607960 0.551160
0.350564 0.605736 0.550354
0.356219 0.608631 0.553406
0.360075 0.608057 0.553862
0.363853 0.607311 0.554199
0.365789 0.603194 0.551994
0.373029 0.608643 0.557046
0.377023 0.608167 0.557623
0.381563 0.608609 0.558910
0.384895 0.606913 0.558579
0.389224 0.606910 0.559551
0.394449 0.608369 0.561658
0.399435 0.609349 0.563414
0.402965 0.607866 0.563290
0.407456 0.607932 0.564370
0.413287 0.610094 0.567085
0.416247 0.607614 0.566222
0.419374 0.605405 0.565575
0.424918 0.606936 0.567847
0.429996 0.607672 0.569517
0.434239 0.607082 0.570165
0.438061 0.605827 0.570304
0.442244 0.605088 0.570857
0.449327 0.608541 0.574726
0.455273 0.610228 0.577227
0.458626 0.608137 0.576753
0.463466 0.608137 0.577946
0.465277 0.603875 0.575756
0.471142 0.605238 0.578054
0.475763 0.604829 0.578951
0.479758 0.603542 0.579153
0.484373 0.603060 0.580009
0.490894 0.605049 0.582868
0.496203 0.605372 0.584397
0.500369 0.604173 0.584703
0.504477 0.602883 0.584937
0.508894 0.601966 0.585479
0.514113 0.602024 0.586822
0.520027 0.602894 0.588837
0.526124 0.603929 0.590997
0.533226 0.606113 0.594112
0.537580 0.604940 0.594465
0.542251 0.604129 0.595114
0.546063 0.602302 0.594915
0.550040 0.600670 0.594869
0.555532 0.600772 0.596263
0.560522 0.600276 0.597151
0.565916 0.600217 0.598398
0.572905 0.601899 0.601104
0.578805 0.602334 0.602755
0.583171 0.601079 0.602965
0.587667 0.599974 0.603284
0.595215 0.602117 0.606347
0.599794 0.601086 0.606695
0.603410 0.599064 0.606172
0.607941 0.598020 0.606458
0.615711 0.600300 0.609574
0.619796 0.598809 0.609428
0.627860 0.601335 0.612716
0.633434 0.601349 0.613814
0.637691 0.600075 0.613767
0.642621 0.599490 0.614283
0.648339 0.599690 0.615448
0.654538 0.600361 0.616990
0.660499 0.600812 0.618309
0.666770 0.601566 0.619858
0.672965 0.602258 0.621318
0.676410 0.600422 0.620525
0.681813 0.600435 0.621313
0.685082 0.598537 0.620381
0.689114 0.597385 0.620062
0.692622 0.595814 0.619332
0.699653 0.597422 0.621368
0.708261 0.600424 0.624599
0.715610 0.602314 0.626812
-0.057015 0.603438 0.486159
-0.054548 0.603437 0.486858
-0.052028 0.603321 0.487467
-0.049045 0.600398 0.486239
-0.046491 0.600419 0.486903
-0.043938 0.600687 0.487711
-0.041732 0.603695 0.490290
-0.038816 0.601907 0.489727
-0.036250 0.602918 0.490974
-0.033603 0.603621 0.492004
-0.030663 0.602220 0.491639
-0.027873 0.602259 0.492200
-0.025264 0.604200 0.493995
-0.022368 0.603898 0.494299
-0.019424 0.603385 0.494447
-0.016502 0.603327 0.494878
-0.013451 0.602159 0.494559
-0.010725 0.604870 0.496791
-0.007763 0.605340 0.497525
-0.004522 0.602552 0.496086
-0.001483 0.602497 0.496442
0.001503 0.603541 0.497515
0.004582 0.603577 0.497907
0.007730 0.602718 0.497689
0.010779 0.603972 0.498868
0.013724 0.608189 0.502013
0.016958 0.606696 0.501342
0.020365 0.600191 0.497312
0.023424 0.603571 0.499875
0.026581 0.604912 0.501070
0.029792 0.604726 0.501237
0.033012 0.604498 0.501369
0.036235 0.604915 0.501928
0.039472 0.604688 0.502051
0.042718 0.605639 0.502961
0.045962 0.604323 0.502346
0.049221 0.604577 0.502783
0.052489 0.604888 0.503256
0.055750 0.604543 0.503287
0.059012 0.604196 0.503316
0.062358 0.606138 0.504887
0.065677 0.606815 0.505608
0.068838 0.603939 0.503932
0.072255 0.606414 0.505869
0.075594 0.607038 0.506560
0.078853 0.606260 0.506306
0.082065 0.604877 0.505644
0.085414 0.605489 0.506335
0.088594 0.603891 0.505533
0.092007 0.605153 0.506673
0.095347 0.605454 0.507166
0.098744 0.606259 0.508006
0.102049 0.606071 0.508177
0.105472 0.606953 0.509080
0.108795 0.606852 0.509321
0.112163 0.607111 0.509811
0.115188 0.604600 0.508420
0.118513 0.604550 0.508710
0.121899 0.604933 0.509302
0.125466 0.606527 0.510728
0.128485 0.604277 0.509532
0.131975 0.605223 0.510529
0.135446 0.605964 0.511392
0.138829 0.606093 0.511842
0.142344 0.606953 0.512802
0.145624 0.606410 0.512805
0.148959 0.606168 0.513021
0.152526 0.607149 0.514085
0.155258 0.603732 0.512127
0.158768 0.604383 0.512978
0.162908 0.608038 0.515909
0.166225 0.607565 0.516000
0.169676 0.607709 0.516524
0.172973 0.607117 0.516546
0.176201 0.606228 0.516369
0.179375 0.605115 0.516041
0.183111 0.606373 0.517367
0.186588 0.606481 0.517901
0.190003 0.606309 0.518248
0.193643 0.606986 0.519194
0.196883 0.606082 0.519045
0.200129 0.605205 0.518921
0.203954 0.606439 0.520279
0.207082 0.605106 0.519850
0.210792 0.605825 0.520864
0.214440 0.606266 0.521693
0.218179 0.606963 0.522709
0.222997 0.611138 0.526182
0.224880 0.605672 0.522876
0.228559 0.606051 0.523692
0.232606 0.607519 0.525287
0.236404 0.608141 0.526293
0.239643 0.607034 0.526084
0.242830 0.605782 0.525777
0.246385 0.605595 0.526233
0.250363 0.606576 0.527528
0.254262 0.607270 0.528629
0.258180 0.607953 0.529732
0.261332 0.606519 0.529331
0.265149 0.606853 0.530202
0.268963 0.607131 0.531041
0.272308 0.606160 0.530993
0.276544 0.607431 0.532564
0.280209 0.607206 0.533068
0.283700 0.606524 0.533253
0.287266 0.606005 0.533562
0.291521 0.607097 0.535045
0.295200 0.606771 0.535512
0.298866 0.606388 0.535946
0.302817 0.606621 0.536837
0.306452 0.606104 0.537191
0.310664 0.606829 0.538462
0.315037 0.607845 0.539955
0.318477 0.606794 0.539950
0.322969 0.607952 0.541570
0.326321 0.606666 0.541409
0.330846 0.607777 0.543020
0.334830 0.607725 0.543786
0.338814 0.607630 0.544532
0.342566 0.607040 0.544922
0.346253 0.606297 0.545208
0.351571 0.608657 0.547808
0.353670 0.604823 0.545816
0.357997 0.605205 0.546969
0.363081 0.606926 0.549136
0.366934 0.606323 0.549580
0.371387 0.606765 0.550818
0.374741 0.605206 0.550565
0.379592 0.606259 0.552288
0.381495 0.602146 0.550125
0.388227 0.606331 0.554243
0.393291 0.607557 0.556142
0.397511 0.607299 0.556931
0.402491 0.608253 0.558655
0.406659 0.607817 0.559334
0.410607 0.606989 0.559725
0.415191 0.607143 0.560881
0.419587 0.606952 0.561785
0.423959 0.606678 0.562639
0.429131 0.607588 0.564419
0.432994 0.606449 0.564630
0.436992 0.605489 0.564990
0.441824 0.605734 0.566297
0.446787 0.606118 0.567727
0.452276 0.607202 0.569720
0.455621 0.605153 0.569275
0.458750 0.602798 0.568595
0.463761 0.603072 0.569989
0.470298 0.605395 0.573016
0.474962 0.605064 0.573963
0.479126 0.604020 0.574355
0.483329 0.603002 0.574775
0.490836 0.606314 0.578659
0.495139 0.605330 0.579129
0.499724 0.604686 0.579878
0.505013 0.604908 0.581331
0.509021 0.603466 0.581452
0.513410 0.602487 0.581948
0.519672 0.603795 0.584303
0.524076 0.602769 0.584770
0.530079 0.603652 0.586797
0.537382 0.606031 0.590054
0.543098 0.606447 0.591715
0.547098 0.604813 0.591694
0.550238 0.602187 0.590847
0.554642 0.601029 0.591201
0.559132 0.599964 0.591624
0.564446 0.599816 0.592800
0.570466 0.600427 0.594602
0.577034 0.601604 0.596871
0.581993 0.600990 0.597635
0.586778 0.600182 0.598222
0.592058 0.599903 0.599238
0.598600 0.600945 0.601351
0.601464 0.598121 0.600181
0.605226 0.596273 0.599808
0.614357 0.599946 0.604100
0.621051 0.601079 0.606219
0.624389 0.598824 0.605425
0.629841 0.598716 0.606434
0.634178 0.597519 0.606479
0.639923 0.597727 0.607699
0.645893 0.598160 0.609081
0.654171 0.600809 0.612346
0.659773 0.600888 0.613363
0.665031 0.600660 0.614080
0.671033 0.601151 0.615383
0.677298 0.601899 0.616874
0.677197 0.596822 0.613260
0.680052 0.594546 0.612034
0.686170 0.595277 0.613389
0.693187 0.596829 0.615426
0.700241 0.598420 0.617460
0.707401 0.600112 0.619545
0.711643 0.599262 0.619364
0.715918 0.598488 0.619209
-0.058989 0.600464 0.480349
-0.056629 0.600910 0.481323
-0.054304 0.601818 0.482580
-0.051975 0.602972 0.483981
-0.049074 0.600677 0.483152
-0.046386 0.599920 0.483291
-0.043991 0.601381 0.484845
-0.041345 0.601380 0.485439
-0.038691 0.601570 0.486141
-0.036110 0.602586 0.487361
-0.033482 0.603557 0.488537
-0.030422 0.601297 0.487598
-0.027397 0.599415 0.486883
-0.024761 0.601132 0.488495
-0.022192 0.603911 0.490785
-0.019149 0.602573 0.490373
-0.016130 0.601622 0.490197
-0.013241 0.602271 0.491051
-0.010293 0.602593 0.491676
-0.007518 0.605385 0.493908
-0.004356 0.603772 0.493235
-0.001219 0.602587 0.492828
0.001742 0.604181 0.494236
0.004855 0.603884 0.494387
0.008012 0.603051 0.494173
0.011076 0.604214 0.495264
0.014147 0.605861 0.496666
0.017318 0.605786 0.496922
0.020673 0.600721 0.493869
0.023743 0.604038 0.496351
0.026951 0.603542 0.496304
0.030153 0.603627 0.496636
0.033370 0.603276 0.496673
0.036586 0.603885 0.497342
0.039816 0.605082 0.498398
0.043058 0.604427 0.498222
0.046327 0.606656 0.499960
0.049587 0.606266 0.499956
0.052851 0.605962 0.500007
0.056126 0.606052 0.500320
0.059400 0.605940 0.500499
0.062667 0.605567 0.500504
0.065930 0.605106 0.500450
0.069273 0.606359 0.501544
0.072578 0.606576 0.501947
0.075821 0.605654 0.501591
0.079040 0.604468 0.501061
0.082233 0.603066 0.500389
0.085546 0.603419 0.500894
0.089038 0.605902 0.502833
0.092246 0.604766 0.502349
0.095616 0.605492 0.503119
0.098929 0.605521 0.503426
0.102227 0.605389 0.503630
0.105684 0.606687 0.504801
0.109035 0.606918 0.505261
0.112179 0.605388 0.504538
0.115398 0.604569 0.504300
0.118849 0.605547 0.505279
0.122165 0.605444 0.505535
0.125458 0.605168 0.505680
0.128822 0.605354 0.506145
0.132244 0.605888 0.506850
0.135625 0.606094 0.507341
0.139063 0.606608 0.508047
0.142420 0.606592 0.508401
0.145877 0.607112 0.509125
0.149160 0.606620 0.509168
0.152410 0.605951 0.509096
0.155828 0.606162 0.509631
0.158888 0.604542 0.508922
0.162281 0.604603 0.509367
0.166201 0.607129 0.511505
0.169569 0.606943 0.511796
0.172955 0.606820 0.512137
0.176152 0.605845 0.511901
0.179781 0.606728 0.512946
0.183437 0.607656 0.514031
0.186906 0.607741 0.514544
0.190128 0.606815 0.514367
0.193392 0.606058 0.514313
0.196795 0.605833 0.514632
0.200197 0.605582 0.514940
0.203431 0.604697 0.514816
0.206945 0.604810 0.515390
0.210681 0.605662 0.516484
0.214773 0.607659 0.518383
0.217922 0.606389 0.518019
0.221078 0.605156 0.517687
0.224729 0.605529 0.518479
0.228346 0.605749 0.519174
0.232015 0.606085 0.519957
0.235638 0.606233 0.520618
0.239386 0.606713 0.521519
0.242646 0.605711 0.521388
0.245572 0.603744 0.520584
0.250466 0.607388 0.523736
0.253880 0.606745 0.523880
0.257457 0.606538 0.524339
0.261519 0.607605 0.525707
0.264890 0.606770 0.525737
0.268252 0.605901 0.525751
0.271621 0.605042 0.525778
0.275854 0.606354 0.527356
0.280178 0.607811 0.529049
0.283853 0.607599 0.529563
0.287638 0.607620 0.530252
0.291519 0.607829 0.531085
0.294793 0.606576 0.530878
0.298316 0.605895 0.531089
0.302754 0.607267 0.532785
0.306809 0.607707 0.533822
0.310356 0.606975 0.534023
0.313926 0.606272 0.534254
0.318342 0.607362 0.535791
0.322007 0.606794 0.536138
0.326041 0.606970 0.537035
0.329818 0.606573 0.537524
0.334501 0.607980 0.539340
0.338553 0.608045 0.540189
0.342663 0.608183 0.541103
0.346327 0.607406 0.541356
0.349357 0.605392 0.540709
0.353445 0.605390 0.541550
0.359067 0.608213 0.544487
0.362415 0.606723 0.544254
0.366316 0.606236 0.544772
0.370737 0.606652 0.545972
0.374113 0.605157 0.545762
0.377614 0.603873 0.545717
0.382269 0.604574 0.547165
0.385277 0.602397 0.546472
0.392668 0.607631 0.551345
0.396659 0.607018 0.551852
0.401276 0.607404 0.553123
0.405250 0.606689 0.553576
0.409112 0.605764 0.553881
0.412692 0.604364 0.553836
0.417459 0.604814 0.555207
0.423918 0.607831 0.558549
0.427885 0.606908 0.558906
0.432342 0.606699 0.559821
0.435841 0.605013 0.559614
0.440494 0.605025 0.560722
0.445335 0.605264 0.562018
0.450209 0.605496 0.563323
0.454614 0.605003 0.564081
0.458778 0.604130 0.564556
0.465533 0.606849 0.567840
0.470203 0.606579 0.568812
0.474917 0.606325 0.569808
0.477546 0.603211 0.568571
0.482573 0.603322 0.569872
0.488013 0.603928 0.571577
0.494084 0.605298 0.573899
0.499222 0.605384 0.575220
0.503805 0.604714 0.575950
0.509072 0.604877 0.577351
0.513758 0.604266 0.578143
0.517050 0.601901 0.577534
0.521979 0.601545 0.578537
0.528200 0.602719 0.580779
0.536794 0.606666 0.585274
0.542924 0.607575 0.587326
0.546294 0.605194 0.586710
0.551079 0.604467 0.587433
0.553961 0.601541 0.586355
0.559614 0.601788 0.587864
0.563819 0.600374 0.588006
0.569695 0.600818 0.589668
0.575747 0.601422 0.591457
0.581647 0.601825 0.593075
0.585788 0.600305 0.593086
0.591622 0.600604 0.594595
0.598036 0.601494 0.596583
0.601011 0.598760 0.595527
0.603536 0.595607 0.594088
0.612895 0.599509 0.598554
0.620182 0.601231 0.601174
0.623668 0.599099 0.600520
0.627616 0.597468 0.600258
0.633461 0.597745 0.601583
0.639140 0.597862 0.602743
0.645542 0.598685 0.604477
0.650452 0.598077 0.604958
0.656480 0.598557 0.606336
0.664201 0.600641 0.609057
0.671665 0.602468 0.611529
0.674585 0.600080 0.610341
0.676978 0.597272 0.608747
0.679939 0.595056 0.607617
0.685349 0.595113 0.608410
0.692813 0.597039 0.610781
0.698158 0.597082 0.611485
0.703322 0.596997 0.612038
0.711716 0.599770 0.615034
0.713894 0.597143 0.613298
0.716851 0.595262 0.612166
-0.060897 0.597365 0.474517
-0.058387 0.596730 0.474794
-0.056530 0.600215 0.477668
-0.054549 0.603328 0.480298
-0.052023 0.603373 0.480967
-0.049091 0.600992 0.480073
-0.046325 0.599831 0.479937
-0.043877 0.601037 0.481296
-0.041272 0.601439 0.482126
-0.038554 0.601276 0.482576
-0.035970 0.602386 0.483828
-0.033247 0.602724 0.484568
-0.030373 0.602096 0.484668
-0.027347 0.600376 0.484047
-0.024449 0.599930 0.484228
-0.021981 0.603748 0.487150
-0.018908 0.602244 0.486616
-0.015939 0.601937 0.486840
-0.012983 0.602022 0.487302
-0.010108 0.603339 0.488549
-0.007078 0.603199 0.488836
-0.003887 0.601211 0.487907
-0.000975 0.603154 0.489522
0.002360 0.599261 0.487322
0.005088 0.605057 0.491428
0.008241 0.604553 0.491416
0.011398 0.604179 0.491478
0.014467 0.606032 0.492986
0.017599 0.607124 0.493989
0.020864 0.604991 0.492873
0.024114 0.603010 0.491848
0.027282 0.604088 0.492821
0.030500 0.603584 0.492751
0.033719 0.603226 0.492772
0.036933 0.604148 0.493630
0.040165 0.604511 0.494117
0.043407 0.604552 0.494391
0.046688 0.607939 0.496865
0.049933 0.606287 0.496022
0.053161 0.604452 0.495056
0.056483 0.606735 0.496804
0.059765 0.606909 0.497164
0.062990 0.605376 0.496396
0.066143 0.602510 0.494749
0.069633 0.607185 0.498088
0.072898 0.606676 0.498002
0.076087 0.604955 0.497117
0.079333 0.604358 0.496978
0.082629 0.604539 0.497357
0.085883 0.604103 0.497332
0.089146 0.603815 0.497409
0.092679 0.606621 0.499545
0.095929 0.606029 0.499429
0.099247 0.606171 0.499806
0.102562 0.606239 0.500139
0.105896 0.606460 0.500579
0.109267 0.606946 0.501201
0.112400 0.605404 0.500477
0.115670 0.605054 0.500552
0.118976 0.604989 0.500824
0.122423 0.605926 0.501771
0.125763 0.606022 0.502163
0.129179 0.606591 0.502878
0.132534 0.606701 0.503292
0.135889 0.606783 0.503694
0.139124 0.606104 0.503590
0.142784 0.607928 0.505176
0.146089 0.607599 0.505321
0.149231 0.606373 0.504869
0.152529 0.606026 0.505014
0.155987 0.606491 0.505714
0.159220 0.605775 0.505623
0.162414 0.604883 0.505418
0.165886 0.605325 0.506122
0.169728 0.607415 0.507950
0.173049 0.607034 0.508112
0.176385 0.606707 0.508317
0.179571 0.605721 0.508081
0.183346 0.607208 0.509533
0.186697 0.606869 0.509750
0.190014 0.606379 0.509870
0.193260 0.605601 0.509800
0.196766 0.605816 0.510415
0.200279 0.606013 0.511025
0.203562 0.605334 0.511042
0.206653 0.603965 0.510591
0.210522 0.605335 0.512028
0.214006 0.605298 0.512506
0.217033 0.603700 0.511916
0.221069 0.605441 0.513633
0.224518 0.605193 0.513986
0.228421 0.606353 0.515321
0.231985 0.606387 0.515886
0.235670 0.606751 0.516686
0.239198 0.606597 0.517136
0.242693 0.606317 0.517505
0.246287 0.606299 0.518064
0.249818 0.606063 0.518479
0.253619 0.606556 0.519409
0.257785 0.607994 0.521010
0.261573 0.608330 0.521850
0.264414 0.606106 0.520903
0.267660 0.604977 0.520730
0.271109 0.604365 0.520925
0.275590 0.606343 0.522951
0.279862 0.607702 0.524554
0.284348 0.609505 0.526482
0.288046 0.609316 0.527013
0.291231 0.607877 0.526666
0.294535 0.606720 0.526527
0.298095 0.606148 0.526808
0.302233 0.606867 0.528016
0.306560 0.607948 0.529494
0.310014 0.607034 0.529559
0.313597 0.606388 0.529822
0.317567 0.606549 0.530672
0.321901 0.607432 0.532052
0.326165 0.608108 0.533293
0.329820 0.607470 0.533601
0.333038 0.605924 0.533260
0.336917 0.605699 0.533882
0.341830 0.607481 0.535969
0.345347 0.606453 0.536030
0.348993 0.605659 0.536270
0.352809 0.605166 0.536738
0.357734 0.606718 0.538709
0.362217 0.607370 0.540038
0.365881 0.606469 0.540241
0.369359 0.605211 0.540192
0.373691 0.605459 0.541259
0.377919 0.605474 0.542166
0.381761 0.604774 0.542559
0.386749 0.606010 0.544394
0.390150 0.604485 0.544197
0.396072 0.607163 0.547135
0.399632 0.605833 0.547106
0.403626 0.605194 0.547602
0.408139 0.605359 0.548711
0.412347 0.604989 0.549432
0.416830 0.605013 0.550462
0.421978 0.606021 0.552248
0.427770 0.607948 0.554745
0.431535 0.606704 0.554860
0.435774 0.606150 0.555509
0.439858 0.605332 0.555969
0.444345 0.605072 0.556866
0.448896 0.604864 0.557815
0.454652 0.606337 0.560066
0.458731 0.605352 0.560446
0.463526 0.605342 0.561589
0.469536 0.606967 0.564007
0.472096 0.603782 0.562720
0.474829 0.600852 0.561631
0.482102 0.604017 0.565288
0.487813 0.604997 0.567265
0.492355 0.604375 0.568004
0.495415 0.601802 0.567222
0.499923 0.601091 0.567904
0.505913 0.602227 0.570050
0.512605 0.604171 0.572851
0.516021 0.601970 0.572381
0.520415 0.600971 0.572866
0.527048 0.602665 0.575501
0.531772 0.601992 0.576256
0.537295 0.602242 0.577755
0.545688 0.605814 0.581930
0.547022 0.601079 0.579423
0.554489 0.603453 0.582647
0.558774 0.602127 0.582880
0.563136 0.600885 0.583174
0.567895 0.600080 0.583815
0.575629 0.602543 0.587119
0.579961 0.601220 0.587325
0.584777 0.600426 0.587950
0.589185 0.599191 0.588198
0.597280 0.601865 0.591658
0.600103 0.598950 0.590486
0.603983 0.597178 0.590234
0.613968 0.601700 0.595196
0.618753 0.600841 0.595667
0.622469 0.598921 0.595224
0.628033 0.598881 0.596325
0.633422 0.598671 0.597258
0.639966 0.599601 0.599124
0.645127 0.599183 0.599825
0.649495 0.598022 0.599866
0.654627 0.597622 0.600516
0.663625 0.600895 0.604249
0.670155 0.601821 0.605961
0.674845 0.601045 0.606191
0.677262 0.598219 0.604630
0.682068 0.597643 0.604947
0.687742 0.597888 0.605927
0.692118 0.596994 0.605893
0.696264 0.595942 0.605680
0.704329 0.598393 0.608438
0.711356 0.599932 0.610375
0.714348 0.597979 0.609265
0.716572 0.595430 0.607597
0.719354 0.593432 0.606360
-0.063370 0.597700 0.470891
-0.060782 0.596528 0.470829
-0.058692 0.598426 0.472678
-0.056410 0.599488 0.473990
-0.053655 0.597889 0.473613
-0.052097 0.604045 0.478109
-0.048697 0.598727 0.475351
-0.046346 0.600401 0.476991
-0.043801 0.601064 0.477978
-0.041116 0.601015 0.478495
-0.038508 0.601782 0.479515
-0.035847 0.602439 0.480450
-0.033160 0.603203 0.481436
-0.030326 0.603061 0.481828
-0.027481 0.603076 0.482304
-0.024599 0.603025 0.482720
-0.021776 0.603794 0.483646
-0.018896 0.604339 0.484412
-0.015781 0.602772 0.483808
-0.012860 0.603426 0.484614
-0.009856 0.603479 0.485019
-0.006843 0.603704 0.485521
-0.003686 0.602324 0.484976
-0.000581 0.601784 0.484958
0.002364 0.603884 0.486633
0.005345 0.606045 0.488337
0.008562 0.604593 0.487697
0.011741 0.603906 0.487541
0.014877 0.604358 0.488114
0.018030 0.604820 0.488685
0.021204 0.605163 0.489172
0.024392 0.605512 0.489657
0.027616 0.604843 0.489475
0.030838 0.604372 0.489417
0.034058 0.604355 0.489649
0.037282 0.604769 0.490158
0.040518 0.602950 0.489212
0.043758 0.604582 0.490510
0.047001 0.604365 0.490603
0.050244 0.604041 0.490626
0.053525 0.605457 0.491783
0.056789 0.605490 0.492039
0.060009 0.604078 0.491352
0.063249 0.603524 0.491226
0.066496 0.603207 0.491256
0.069766 0.603386 0.491614
0.073090 0.604463 0.492563
0.076420 0.605424 0.493440
0.079722 0.605757 0.493909
0.083039 0.606216 0.494464
0.086346 0.606448 0.494875
0.089587 0.605828 0.494731
0.092928 0.606407 0.495380
0.096342 0.607673 0.496485
0.099523 0.606412 0.495933
0.102846 0.606638 0.496365
0.106139 0.606533 0.496584
0.109418 0.606305 0.496728
0.112661 0.605773 0.496676
0.115831 0.604698 0.496271
0.119367 0.606453 0.497742
0.122741 0.606865 0.498331
0.125951 0.606082 0.498136
0.129258 0.605983 0.498400
0.132800 0.607387 0.499667
0.136113 0.607238 0.499911
0.139304 0.606340 0.499663
0.142694 0.606634 0.500213
0.146158 0.607300 0.501018
0.149152 0.605330 0.500074
0.152841 0.607137 0.501653
0.156047 0.606325 0.501492
0.159384 0.606184 0.501785
0.162662 0.605733 0.501877
0.165622 0.603777 0.500968
0.169698 0.607030 0.503555
0.173102 0.607074 0.503999
0.176174 0.605633 0.503453
0.180105 0.607901 0.505406
0.183268 0.606824 0.505117
0.186266 0.605098 0.504394
0.189710 0.605195 0.504907
0.193299 0.605814 0.505780
0.196477 0.604816 0.505566
0.200197 0.605842 0.506729
0.203590 0.605601 0.507041
0.206626 0.604068 0.506483
0.210264 0.604662 0.507375
0.214133 0.605993 0.508776
0.217681 0.606157 0.509392
0.220594 0.604198 0.508566
0.224588 0.605763 0.510152
0.228207 0.606050 0.510874
0.232091 0.607113 0.512135
0.235624 0.607032 0.512620
0.239125 0.606822 0.513024
0.242409 0.605951 0.512981
0.246152 0.606399 0.513851
0.249142 0.604657 0.513220
0.252757 0.604683 0.513814
0.257027 0.606470 0.515634
0.261261 0.608063 0.517331
0.264365 0.606569 0.516898
0.267598 0.605426 0.516713
0.271230 0.605305 0.517244
0.276021 0.608083 0.519805
0.279133 0.606558 0.519375
0.283032 0.606969 0.520305
0.287873 0.609606 0.522801
0.291070 0.608217 0.522490
0.294439 0.607233 0.522468
0.298323 0.607428 0.523283
0.302261 0.607703 0.524163
0.306264 0.608076 0.525122
0.309740 0.607235 0.525232
0.313354 0.606679 0.525551
0.317223 0.606645 0.526250
0.319122 0.602403 0.523967
0.326213 0.609077 0.529454
0.329605 0.607912 0.529377
0.332974 0.606691 0.529268
0.336804 0.606384 0.529820
0.340880 0.606532 0.530707
0.345155 0.607022 0.531852
0.348816 0.606274 0.532116
0.352798 0.606114 0.532814
0.357162 0.606632 0.534012
0.362263 0.608459 0.536171
0.365761 0.607266 0.536155
0.369142 0.605848 0.535984
0.373812 0.606718 0.537487
0.377656 0.606068 0.537895
0.381614 0.605588 0.538438
0.385684 0.605267 0.539107
0.390386 0.605981 0.540549
0.394233 0.605199 0.540904
0.398136 0.604482 0.541317
0.402638 0.604716 0.542444
0.407279 0.605122 0.543712
0.412408 0.606250 0.545530
0.416470 0.605622 0.546058
0.421168 0.605950 0.547312
0.426236 0.606794 0.548965
0.430869 0.606907 0.550088
0.435313 0.606685 0.550974
0.439710 0.606349 0.551786
0.443676 0.605338 0.552101
0.447650 0.604314 0.552417
0.452950 0.605166 0.554166
0.458476 0.606272 0.556124
0.463003 0.605900 0.556975
0.467690 0.605709 0.557975
0.470871 0.603406 0.557372
0.474120 0.601198 0.556844
0.479430 0.601755 0.558450
0.485926 0.603824 0.561239
0.491912 0.605129 0.563457
0.497778 0.606202 0.565512
0.500933 0.603724 0.564820
0.505886 0.603535 0.565915
0.510511 0.602892 0.566664
0.515481 0.602645 0.567730
0.519432 0.601108 0.567789
0.526088 0.602845 0.570433
0.531189 0.602634 0.571551
0.535738 0.601728 0.572123
0.541515 0.602248 0.573830
0.548506 0.604130 0.576628
0.553535 0.603677 0.577571
0.557474 0.601955 0.577495
0.561520 0.600357 0.577510
0.565516 0.598705 0.577473
0.574222 0.602259 0.581636
0.580288 0.602829 0.583388
0.584460 0.601314 0.583441
0.589777 0.601034 0.584485
0.596053 0.601758 0.586337
0.601285 0.601354 0.587257
0.604065 0.598400 0.586064
0.608097 0.596781 0.585941
0.616322 0.599456 0.589339
0.621836 0.599341 0.590418
0.627536 0.599412 0.591628
0.633575 0.599819 0.593093
0.638931 0.599553 0.593973
0.643331 0.598372 0.594059
0.647696 0.597188 0.594109
0.653809 0.597705 0.595550
0.662176 0.600358 0.598755
0.667856 0.600465 0.599791
0.673910 0.600938 0.601101
0.679308 0.600822 0.601878
0.682649 0.598856 0.601051
0.687322 0.598155 0.601252
0.692062 0.597556 0.601499
0.697718 0.597811 0.602432
0.705098 0.599615 0.604644
0.713006 0.601886 0.607218
0.716716 0.600509 0.606643
0.714853 0.594387 0.601968
0.720535 0.594847 0.602873
-0.063487 0.598184 0.468037
-0.061213 0.598907 0.469139
-0.058748 0.598755 0.469684
-0.056154 0.598037 0.469859
-0.053984 0.600122 0.471768
-0.051072 0.597826 0.470926
-0.049271 0.602909 0.474684
-0.046201 0.599967 0.473401
-0.043692 0.600987 0.474585
-0.041041 0.601298 0.475308
-0.038429 0.602166 0.476364
-0.035713 0.602544 0.477096
-0.032862 0.602134 0.477314
-0.030378 0.604992 0.479581
-0.027374 0.603840 0.479296
-0.024488 0.603923 0.479777
-0.021637 0.604607 0.480622
-0.018821 0.605979 0.481889
-0.015847 0.606099 0.482348
-0.012743 0.605067 0.482057
-0.009658 0.604414 0.481993
-0.006449 0.602393 0.481042
-0.003518 0.604067 0.482434
-0.000404 0.603649 0.482480
0.002705 0.603520 0.482699
0.005783 0.604171 0.483405
0.008885 0.604791 0.484083
0.012118 0.603137 0.483296
0.015266 0.603328 0.483682
0.018388 0.604589 0.484746
0.021560 0.605052 0.485294
0.024780 0.604294 0.485052
0.027964 0.605235 0.485896
0.031207 0.603645 0.485108
0.034403 0.605493 0.486530
0.037654 0.601930 0.484464
0.040872 0.603844 0.485924
0.044106 0.603705 0.486059
0.047359 0.605158 0.487222
0.050573 0.602966 0.486031
0.053828 0.603622 0.486680
0.057108 0.604787 0.487658
0.060372 0.604978 0.488010
0.063616 0.604566 0.487972
0.066853 0.604020 0.487851
0.070026 0.602277 0.486956
0.073445 0.605306 0.489156
0.076722 0.605401 0.489459
0.080024 0.605848 0.489994
0.083498 0.608589 0.492024
0.086626 0.606435 0.490879
0.089959 0.607033 0.491526
0.093251 0.607067 0.491812
0.096515 0.606773 0.491889
0.099816 0.606869 0.492225
0.103061 0.606408 0.492203
0.106337 0.606245 0.492381
0.109653 0.606420 0.492784
0.112924 0.606194 0.492932
0.116152 0.605627 0.492863
0.119463 0.605710 0.493223
0.122642 0.604817 0.492951
0.125850 0.604165 0.492842
0.129459 0.606219 0.494514
0.132758 0.606103 0.494769
0.136323 0.607629 0.496110
0.139673 0.607734 0.496524
0.142841 0.606748 0.496227
0.146039 0.605964 0.496067
0.149110 0.604511 0.495471
0.152204 0.603239 0.494999
0.155940 0.605311 0.496744
0.159010 0.603914 0.496201
0.162626 0.605219 0.497454
0.165935 0.604974 0.497686
0.169222 0.604609 0.497846
0.172772 0.605412 0.498787
0.175932 0.604441 0.498556
0.179023 0.603190 0.498145
0.182695 0.604389 0.499371
0.185933 0.603735 0.499368
0.189547 0.604577 0.500372
0.193276 0.605795 0.501634
0.196788 0.606103 0.502296
0.199726 0.604230 0.501503
0.203463 0.605313 0.502697
0.206963 0.605471 0.503279
0.210500 0.605720 0.503929
0.215105 0.609581 0.507019
0.217787 0.606805 0.505647
0.220720 0.604929 0.504884
0.224765 0.606679 0.506577
0.228275 0.606633 0.507065
0.231500 0.605672 0.506939
0.235102 0.605860 0.507598
0.238829 0.606380 0.508490
0.242276 0.606023 0.508794
0.245553 0.605153 0.508754
0.249071 0.604961 0.509183
0.252758 0.605213 0.509923
0.256877 0.606607 0.511452
0.260427 0.606383 0.511882
0.264169 0.606637 0.512649
0.267098 0.604725 0.511934
0.272485 0.609158 0.515591
0.275396 0.607146 0.514822
0.279150 0.607263 0.515526
0.282413 0.606132 0.515376
0.284984 0.603327 0.514071
0.290597 0.607807 0.517824
0.294333 0.607717 0.518419
0.298358 0.608258 0.519461
0.302454 0.608908 0.520590
0.305801 0.607819 0.520514
0.309358 0.607185 0.520764
0.312927 0.606558 0.521025
0.315786 0.604385 0.520209
0.318920 0.602811 0.519818
0.324980 0.607360 0.523746
0.329057 0.607656 0.524693
0.333123 0.607881 0.525601
0.336917 0.607512 0.526099
0.341109 0.607901 0.527143
0.345321 0.608279 0.528191
0.348773 0.607138 0.528169
0.352533 0.606571 0.528564
0.356058 0.605533 0.528632
0.360498 0.606177 0.529912
0.365266 0.607363 0.531593
0.369298 0.607146 0.532281
0.372601 0.605587 0.532013
0.377193 0.606297 0.533390
0.381090 0.605733 0.533860
0.385623 0.606234 0.535111
0.389940 0.606309 0.536067
0.393886 0.605715 0.536549
0.397440 0.604440 0.536544
0.401885 0.604607 0.537603
0.407641 0.606846 0.540193
0.411398 0.605788 0.540382
0.416152 0.606284 0.541724
0.421025 0.606907 0.543175
0.425467 0.606801 0.544103
0.429594 0.606169 0.544655
0.434036 0.605979 0.545546
0.439310 0.606983 0.547338
0.442641 0.605053 0.546960
0.446998 0.604612 0.547701
0.452278 0.605459 0.549422
0.457260 0.605814 0.550789
0.462553 0.606549 0.552458
0.466565 0.605436 0.552747
0.469954 0.603441 0.552377
0.474266 0.602696 0.552962
0.479624 0.603325 0.554604
0.486983 0.606551 0.558244
0.491240 0.605577 0.558695
0.495374 0.604415 0.559011
0.500905 0.605027 0.560699
0.504821 0.603523 0.560768
0.509172 0.602552 0.561254
0.513569 0.601612 0.561771
0.519217 0.602187 0.563472
0.524306 0.602023 0.564608
0.530895 0.603626 0.567134
0.535581 0.602884 0.567833
0.539464 0.601169 0.567771
0.545695 0.602190 0.569864
0.550612 0.601633 0.570717
0.555535 0.601059 0.571556
0.561005 0.601079 0.572867
0.566771 0.601398 0.574414
0.571634 0.600680 0.575132
0.579514 0.603251 0.578482
0.586231 0.604484 0.580760
0.592447 0.605130 0.582564
0.598696 0.605778 0.584361
0.601328 0.602591 0.583042
0.604086 0.599585 0.581843
0.609426 0.599286 0.582821
0.615231 0.599457 0.584166
0.620148 0.598722 0.584750
0.626575 0.599508 0.586558
0.632824 0.600102 0.588189
0.637482 0.599127 0.588502
0.641433 0.597488 0.588236
0.646027 0.596506 0.588480
0.652970 0.597797 0.590578
0.659283 0.598483 0.592144
0.666126 0.599670 0.594097
0.673702 0.601537 0.596587
0.679955 0.602174 0.598018
0.683753 0.600583 0.597546
0.686985 0.598532 0.596646
0.692194 0.598319 0.597246
0.698895 0.599468 0.598954
0.707492 0.602306 0.602049
0.711936 0.601492 0.602026
0.712135 0.597035 0.598881
0.718238 0.597775 0.600085
0.719724 0.594590 0.597924
0.728508 0.597690 0.601048
-0.066164 0.599731 0.465174
-0.063948 0.600679 0.466406
-0.061597 0.601110 0.467307
-0.058842 0.599396 0.466870
-0.056324 0.599245 0.467380
-0.053807 0.599321 0.468014
-0.051348 0.599988 0.468998
-0.048838 0.600599 0.469932
-0.046347 0.601608 0.471098
-0.043601 0.601146 0.471332
-0.041043 0.602252 0.472527
-0.038318 0.602432 0.473128
-0.035667 0.603455 0.474239
-0.032810 0.603150 0.474504
-0.030323 0.606166 0.476831
-0.027357 0.605530 0.476856
-0.024266 0.603958 0.476276
-0.021332 0.603995 0.476689
-0.018565 0.605960 0.478301
-0.015732 0.607708 0.479762
-0.012590 0.606475 0.479332
-0.009395 0.604739 0.478570
-0.006233 0.603446 0.478072
-0.003177 0.603664 0.478515
-0.000128 0.604289 0.479205
0.002974 0.604437 0.479583
0.006082 0.604780 0.480075
0.009262 0.604130 0.479928
0.012430 0.603842 0.480001
0.015685 0.601715 0.478900
0.018732 0.604879 0.481151
0.021930 0.604663 0.481250
0.025155 0.603693 0.480865
0.028377 0.602735 0.480483
0.031584 0.602556 0.480592
0.034770 0.604763 0.482218
0.037995 0.605267 0.482759
0.041229 0.604413 0.482431
0.044469 0.605271 0.483195
0.047700 0.604279 0.482779
0.050928 0.603533 0.482518
0.054167 0.603480 0.482702
0.057447 0.604812 0.483772
0.060725 0.605612 0.484506
0.063972 0.605305 0.484532
0.067177 0.604115 0.483996
0.070407 0.603648 0.483925
0.073753 0.605318 0.485228
0.077019 0.605347 0.485483
0.080203 0.604129 0.484940
0.083415 0.603474 0.484763
0.086855 0.605819 0.486520
0.090053 0.604927 0.486199
0.093330 0.605006 0.486508
0.096579 0.604773 0.486621
0.099913 0.605400 0.487294
0.103188 0.605381 0.487556
0.106684 0.607335 0.489098
0.109867 0.606395 0.488777
0.113230 0.606995 0.489456
0.116470 0.606568 0.489477
0.119594 0.605272 0.488941
0.122903 0.605402 0.489334
0.126148 0.605049 0.489420
0.129166 0.603186 0.488530
0.132765 0.605168 0.490145
0.136415 0.607309 0.491871
0.139847 0.607975 0.492646
0.142840 0.606022 0.491720
0.146182 0.606127 0.492141
0.149340 0.605196 0.491892
0.152340 0.603457 0.491120
0.155600 0.603125 0.491273
0.159786 0.607412 0.494457
0.162960 0.606518 0.494256
0.166050 0.605243 0.493811
0.169461 0.605487 0.494368
0.172966 0.606113 0.495183
0.176274 0.605811 0.495395
0.179253 0.604089 0.494677
0.182700 0.604372 0.495285
0.186013 0.604062 0.495509
0.189236 0.603380 0.495493
0.192751 0.603828 0.496231
0.196810 0.606294 0.498313
0.200333 0.606632 0.498994
0.203173 0.604431 0.497995
0.207008 0.605837 0.499398
0.210528 0.606055 0.500019
0.214035 0.606186 0.500590
0.217411 0.605839 0.500848
0.220748 0.605342 0.501012
0.224091 0.604851 0.501186
0.228101 0.606453 0.502769
0.231426 0.605837 0.502873
0.234301 0.603834 0.502051
0.238340 0.605355 0.503604
0.241980 0.605614 0.504315
0.245407 0.605214 0.504590
0.248662 0.604302 0.504526
0.252259 0.604344 0.505112
0.255618 0.603693 0.505236
0.260817 0.608001 0.508730
0.263884 0.606466 0.508271
0.266877 0.604748 0.507692
0.270064 0.603549 0.507471
0.275090 0.607011 0.510435
0.278952 0.607425 0.511330
0.282355 0.606663 0.511431
0.285766 0.605904 0.511539
0.289353 0.605551 0.511933
0.293620 0.606769 0.513414
0.297070 0.606022 0.513553
0.300888 0.606097 0.514266
0.305494 0.607901 0.516182
0.309206 0.607637 0.516680
0.312462 0.606346 0.516473
0.315796 0.605219 0.516387
0.319524 0.604921 0.516884
0.324559 0.607328 0.519274
0.328881 0.608155 0.520577
0.332891 0.608286 0.521404
0.336425 0.607418 0.521542
0.340085 0.606780 0.521848
0.343606 0.605845 0.521955
0.348257 0.607077 0.523595
0.351694 0.605920 0.523563
0.355984 0.606355 0.524664
0.360234 0.606665 0.525688
0.364251 0.606495 0.526384
0.368218 0.606196 0.526998
0.372356 0.606167 0.527816
0.376227 0.605624 0.528277
0.380519 0.605783 0.529251
0.385488 0.607061 0.531039
0.388680 0.605240 0.530616
0.392859 0.605075 0.531393
0.397502 0.605640 0.532708
0.400943 0.604174 0.532568
0.406020 0.605346 0.534349
0.410716 0.605836 0.535651
0.415561 0.606503 0.537096
0.420490 0.607237 0.538606
0.424900 0.607105 0.539497
0.429593 0.607359 0.540685
0.432085 0.604236 0.539407
0.436993 0.604742 0.540804
0.442054 0.605413 0.542338
0.444138 0.601676 0.540627
0.450139 0.603625 0.543133
0.455367 0.604377 0.544771
0.460968 0.605590 0.546768
0.465523 0.605265 0.547636
0.469990 0.604779 0.548394
0.474408 0.604184 0.549084
0.479056 0.603864 0.549991
0.485314 0.605646 0.552497
0.489984 0.605246 0.553372
0.496023 0.606589 0.555581
0.499984 0.605176 0.555710
0.503769 0.603520 0.555661
0.507458 0.601731 0.555515
0.511927 0.600906 0.556112
0.518543 0.602700 0.558730
0.524212 0.603254 0.560409
0.529302 0.603052 0.561514
0.533355 0.601572 0.561635
0.538241 0.601064 0.562513
0.543692 0.601186 0.563886
0.549792 0.602017 0.565819
0.554453 0.601144 0.566423
0.559187 0.600336 0.567076
0.565510 0.601291 0.569117
0.570558 0.600779 0.570000
0.576378 0.601095 0.571537
0.582616 0.601831 0.573403
0.589191 0.602887 0.575523
0.598270 0.606565 0.579736
0.601185 0.603655 0.578673
0.603400 0.600056 0.577031
0.610187 0.601233 0.579210
0.615463 0.600832 0.580104
0.620343 0.600030 0.580652
0.626241 0.600257 0.582014
0.632599 0.600935 0.583723
0.636593 0.599276 0.583502
0.640140 0.597218 0.582923
0.646700 0.598112 0.584729
0.653665 0.599386 0.586823
0.658608 0.598735 0.587304
0.664760 0.599246 0.588709
0.671600 0.600406 0.590619
0.677942 0.601108 0.592117
0.683619 0.601213 0.593086
0.687740 0.599931 0.592865
0.691251 0.598149 0.592186
0.698415 0.599684 0.594229
0.705272 0.600954 0.596014
0.706649 0.597429 0.593753
0.709484 0.595263 0.592582
0.716546 0.596817 0.594483
0.724029 0.598745 0.596661
0.728386 0.598023 0.596575
0.733760 0.598209 0.597211
-0.068482 0.599398 0.461167
-0.066502 0.601495 0.463086
-0.064416 0.603299 0.464816
-0.061852 0.602657 0.465042
-0.059213 0.601758 0.465093
-0.056573 0.601035 0.465235
-0.054166 0.601936 0.466355
-0.051620 0.602235 0.467091
-0.049064 0.602717 0.467923
-0.046232 0.601600 0.467753
-0.043495 0.601318 0.468080
-0.040843 0.601870 0.468904
-0.038408 0.604327 0.470890
-0.035577 0.604151 0.471232
-0.032686 0.603722 0.471401
-0.029815 0.603690 0.471798
-0.027086 0.605145 0.473103
-0.023931 0.603096 0.472214
-0.021081 0.604027 0.473162
-0.018142 0.604408 0.473754
-0.015271 0.605815 0.474972
-0.012208 0.605478 0.475088
-0.008808 0.601365 0.472832
-0.005996 0.604396 0.475026
-0.002838 0.603433 0.474712
0.000241 0.603715 0.475166
0.003308 0.604488 0.475918
0.006354 0.606018 0.477136
0.009554 0.605206 0.476877
0.012789 0.603719 0.476185
0.015859 0.606051 0.477886
0.019050 0.606040 0.478109
0.022263 0.605583 0.478047
0.025476 0.605298 0.478087
0.028708 0.604271 0.477657
0.031921 0.604180 0.477813
0.035129 0.605056 0.478576
0.038354 0.605547 0.479096
0.041588 0.605439 0.479236
0.044825 0.605547 0.479513
0.048050 0.604277 0.478920
0.051282 0.604025 0.478970
0.054497 0.603035 0.478554
0.057789 0.605017 0.480021
0.061039 0.605115 0.480297
0.064287 0.605069 0.480485
0.067490 0.604008 0.480033
0.070788 0.605039 0.480911
0.074091 0.605921 0.481698
0.077310 0.605258 0.481508
0.080510 0.604411 0.481205
0.083734 0.604004 0.481186
0.087009 0.604288 0.481611
0.090415 0.606082 0.483003
0.093597 0.605131 0.482651
0.096894 0.605488 0.483139
0.100076 0.604642 0.482864
0.103292 0.604182 0.482840
0.106565 0.604270 0.483172
0.110372 0.608895 0.486412
0.113264 0.605605 0.484595
0.116343 0.604048 0.483891
0.119603 0.603955 0.484129
0.123039 0.605108 0.485173
0.126320 0.605088 0.485472
0.129557 0.604742 0.485567
0.132890 0.605021 0.486069
0.136212 0.605190 0.486507
0.139523 0.605252 0.486883
0.142942 0.605914 0.487652
0.146189 0.605539 0.487758
0.149473 0.605369 0.488002
0.152942 0.606152 0.488870
0.155812 0.603791 0.487708
0.159274 0.604491 0.488535
0.162890 0.605865 0.489805
0.166279 0.606071 0.490325
0.169599 0.605917 0.490617
0.173225 0.607113 0.491794
0.176512 0.606736 0.491955
0.179797 0.606340 0.492109
0.182723 0.604437 0.491285
0.185975 0.603919 0.491369
0.189312 0.603728 0.491674
0.193155 0.605482 0.493259
0.196693 0.605968 0.494020
0.200173 0.606186 0.494614
0.203954 0.607457 0.495906
0.206701 0.604953 0.494722
0.210563 0.606419 0.496157
0.213444 0.604429 0.495321
0.216966 0.604639 0.495941
0.220734 0.605617 0.497076
0.223995 0.604884 0.497086
0.227972 0.606416 0.498603
0.230731 0.604070 0.497556
0.234743 0.605598 0.499086
0.238458 0.606148 0.499974
0.241924 0.605911 0.500346
0.245139 0.604920 0.500221
0.248535 0.604442 0.500445
0.251788 0.603546 0.500394
0.255914 0.605048 0.501957
0.259971 0.606274 0.503344
0.264213 0.607920 0.505022
0.266894 0.605388 0.503899
0.270229 0.604588 0.503946
0.274473 0.606079 0.505545
0.278380 0.606647 0.506532
0.282238 0.607042 0.507409
0.285853 0.606798 0.507863
0.289570 0.606769 0.508469
0.293324 0.606789 0.509117
0.296907 0.606375 0.509477
0.300570 0.606118 0.509951
0.303926 0.605139 0.509939
0.308643 0.607168 0.511994
0.312247 0.606669 0.512328
0.315362 0.605089 0.511927
0.319914 0.606571 0.513638
0.323916 0.606818 0.514510
0.328670 0.608574 0.516434
0.332185 0.607715 0.516563
0.335288 0.606011 0.516113
0.339083 0.605684 0.516625
0.344118 0.607756 0.518814
0.346412 0.604432 0.517259
0.350651 0.604864 0.518327
0.356192 0.607699 0.521087
0.360071 0.607327 0.521618
0.363504 0.606101 0.521559
0.367522 0.605926 0.522246
0.372074 0.606667 0.523590
0.375841 0.605959 0.523924
0.379475 0.604992 0.524084
0.383040 0.603886 0.524154
0.388103 0.605314 0.526033
0.391460 0.603791 0.525827
0.396645 0.605301 0.527793
0.401095 0.605520 0.528853
0.405573 0.605733 0.529921
0.410384 0.606430 0.531351
0.415326 0.607272 0.532899
0.419327 0.606570 0.533350
0.423147 0.605558 0.533587
0.427579 0.605458 0.534495
0.431486 0.604517 0.534806
0.435415 0.603583 0.535132
0.440188 0.603868 0.536358
0.445180 0.604418 0.537793
0.449653 0.604157 0.538650
0.454980 0.605071 0.540382
0.459089 0.604196 0.540813
0.464019 0.604435 0.542079
0.470088 0.606192 0.544483
0.473616 0.604391 0.544266
0.478970 0.605044 0.545882
0.484169 0.605426 0.547313
0.489058 0.605340 0.548408
0.495276 0.606941 0.550781
0.499775 0.606237 0.551440
0.502468 0.603191 0.550341
0.507527 0.603152 0.551518
0.513159 0.603781 0.553212
0.517313 0.602523 0.553484
0.523415 0.603627 0.555563
0.527028 0.601648 0.555299
0.531232 0.600374 0.555575
0.537048 0.600994 0.557310
0.542845 0.601534 0.558994
0.549860 0.603433 0.561736
0.554691 0.602747 0.562487
0.558779 0.601194 0.562564
0.563287 0.600109 0.563001
0.568901 0.600242 0.564386
0.575610 0.601543 0.566687
0.581906 0.602339 0.568593
0.587270 0.602086 0.569671
0.595523 0.604895 0.573163
0.599661 0.603280 0.573151
0.604382 0.602288 0.573617
0.607468 0.599608 0.572722
0.614091 0.600590 0.574727
0.620424 0.601247 0.576461
0.625123 0.600244 0.576844
0.630659 0.600089 0.577886
0.634917 0.598676 0.577891
0.638386 0.596523 0.577266
0.645457 0.597897 0.579467
0.653134 0.599833 0.582103
0.658527 0.599580 0.582932
0.659412 0.595104 0.580282
0.667702 0.597628 0.583310
0.671663 0.596128 0.583014
0.681535 0.600089 0.587161
0.687221 0.600206 0.588122
0.691469 0.599054 0.587999
0.696422 0.598580 0.588394
0.701184 0.597975 0.588640
0.704562 0.596198 0.587874
0.709423 0.595775 0.588187
0.715914 0.596803 0.589662
0.722243 0.597713 0.591001
0.727719 0.597922 0.591717
0.732405 0.597499 0.591866
0.736866 0.596934 0.591856
-0.070998 0.600230 0.457882
-0.068486 0.599332 0.457980
-0.065772 0.597485 0.457490
-0.064696 0.604949 0.462603
-0.062004 0.603702 0.462448
-0.059294 0.602510 0.462308
-0.056982 0.603880 0.463704
-0.054425 0.604030 0.464344
-0.051749 0.603666 0.464655
-0.048817 0.601833 0.464053
-0.046077 0.601422 0.464299
-0.043434 0.601909 0.465075
-0.040776 0.602553 0.465932
-0.038131 0.603593 0.467015
-0.035366 0.604026 0.467710
-0.032519 0.604077 0.468154
-0.029451 0.602525 0.467597
-0.026526 0.602345 0.467865
-0.023910 0.605228 0.470005
-0.020564 0.601635 0.468139
-0.017607 0.601844 0.468602
-0.014810 0.604023 0.470268
-0.012038 0.606983 0.472405
-0.008705 0.603857 0.470767
-0.005360 0.600408 0.468914
-0.002559 0.604129 0.471490
0.000550 0.604141 0.471759
0.003691 0.603891 0.471856
0.006782 0.604694 0.472598
0.009873 0.605918 0.473594
0.013173 0.603178 0.472120
0.016303 0.604104 0.472919
0.019466 0.604627 0.473461
0.022600 0.606560 0.474878
0.025832 0.605732 0.474572
0.029016 0.607171 0.475676
0.032256 0.606238 0.475298
0.035497 0.604567 0.474458
0.038723 0.603305 0.473871
0.041942 0.603329 0.474086
0.045171 0.604384 0.474946
0.048398 0.604154 0.475003
0.051609 0.603036 0.474506
0.054836 0.603045 0.474716
0.058082 0.603618 0.475281
0.061359 0.604863 0.476270
0.064608 0.605045 0.476597
0.067810 0.604128 0.476237
0.071048 0.604087 0.476429
0.074376 0.605625 0.477619
0.077636 0.605791 0.477951
0.080857 0.605328 0.477891
0.084127 0.605594 0.478294
0.087346 0.605163 0.478264
0.090578 0.604922 0.478357
0.093813 0.604732 0.478488
0.097067 0.604745 0.478753
0.100356 0.605092 0.479233
0.103579 0.604766 0.479294
0.106841 0.604800 0.479588
0.110103 0.604816 0.479876
0.113419 0.605253 0.480437
0.116602 0.604593 0.480308
0.119949 0.605193 0.480984
0.123251 0.605404 0.481420
0.126526 0.605383 0.481714
0.129845 0.605642 0.482193
0.133175 0.605928 0.482695
0.136498 0.606123 0.483145
0.139818 0.606268 0.483570
0.143044 0.605831 0.483630
0.146276 0.605427 0.483716
0.149878 0.607037 0.485097
0.152589 0.603821 0.483395
0.155678 0.602701 0.483039
0.159632 0.605928 0.485477
0.162893 0.605589 0.485634
0.165991 0.604468 0.485295
0.169738 0.606362 0.486901
0.172729 0.604740 0.486250
0.176341 0.605885 0.487388
0.179558 0.605259 0.487391
0.182634 0.604046 0.487019
0.186071 0.604326 0.487618
0.189560 0.604769 0.488329
0.193364 0.606383 0.489806
0.196925 0.606973 0.490627
0.200494 0.607532 0.491435
0.203896 0.607432 0.491821
0.207380 0.607590 0.492382
0.209935 0.604468 0.490811
0.213273 0.604114 0.491048
0.216592 0.603681 0.491239
0.220394 0.604820 0.492466
0.224359 0.606409 0.493994
0.227284 0.604606 0.493307
0.231350 0.606390 0.494980
0.234245 0.604493 0.494241
0.238787 0.607573 0.496783
0.241947 0.606438 0.496557
0.245011 0.605027 0.496154
0.248138 0.603812 0.495885
0.251770 0.604014 0.496559
0.255358 0.604055 0.497133
0.259967 0.606821 0.499524
0.262774 0.604665 0.498654
0.266382 0.604638 0.499205
0.270681 0.606362 0.500931
0.274555 0.606915 0.501885
0.278218 0.606887 0.502459
0.281865 0.606786 0.502991
0.285710 0.607129 0.503829
0.288879 0.605810 0.503558
0.292458 0.605460 0.503945
0.296945 0.607186 0.505738
0.300203 0.606017 0.505588
0.303902 0.605838 0.506113
0.307121 0.604558 0.505900
0.311396 0.605589 0.507261
0.315229 0.605598 0.507938
0.319022 0.605484 0.508540
0.322535 0.604746 0.508724
0.327431 0.606852 0.510859
0.331497 0.607166 0.511781
0.335703 0.607717 0.512876
0.338161 0.604733 0.511554
0.341772 0.604052 0.511818
0.346190 0.604911 0.513152
0.350348 0.605209 0.514110
0.354850 0.606108 0.515495
0.359174 0.606608 0.516617
0.363040 0.606214 0.517129
0.366732 0.605471 0.517407
0.372006 0.607540 0.519655
0.375495 0.606353 0.519645
0.378965 0.605118 0.519609
0.382999 0.604845 0.520256
0.386831 0.604188 0.520643
0.391488 0.604895 0.522002
0.396167 0.605577 0.523356
0.400755 0.606047 0.524574
0.405645 0.606950 0.526114
0.409488 0.606103 0.526425
0.413699 0.605815 0.527144
0.418948 0.607116 0.529010
0.423062 0.606577 0.529576
0.427151 0.605965 0.530101
0.431098 0.605103 0.530459
0.435206 0.604455 0.530981
0.439735 0.604396 0.531939
0.445228 0.605700 0.533897
0.449509 0.605171 0.534545
0.453489 0.604174 0.534863
0.458692 0.604879 0.536433
0.463382 0.604801 0.537447
0.467701 0.604161 0.538063
0.473566 0.605600 0.540217
0.475746 0.601970 0.538659
0.481792 0.603543 0.540941
0.487123 0.604086 0.542481
0.491832 0.603751 0.543384
0.496677 0.603551 0.544399
0.501630 0.603443 0.545496
0.506287 0.602912 0.546288
0.513047 0.604978 0.549037
0.518166 0.604919 0.550208
0.520546 0.601453 0.548822
0.525329 0.600930 0.549656
0.530829 0.601232 0.551123
0.535807 0.600862 0.552090
0.540222 0.599795 0.552530
0.548711 0.603441 0.556577
0.553942 0.603223 0.557683
0.557793 0.601402 0.557559
0.561701 0.599644 0.557479
