ply
format ascii 1.0
comment ---
element vertex 1708
property float x
property float y
property float z
element face 0
property list uchar uint vertex_indices
end_header
0.867366 0.592376 -0.109379
0.872001 0.593776 -0.109771
0.876281 0.594000 -0.109993
0.880613 0.594341 -0.110232
0.884550 0.593451 -0.110292
0.888613 0.592928 -0.110405
0.892520 0.591937 -0.110449
0.897361 0.593620 -0.110887
0.901508 0.593260 -0.111025
0.905792 0.593256 -0.111216
0.910035 0.593108 -0.111386
0.914034 0.592268 -0.111453
0.918578 0.592874 -0.111736
0.922819 0.592630 -0.111892
0.927165 0.592629 -0.112086
0.931331 0.592134 -0.112205
0.935377 0.591312 -0.112276
0.939491 0.590647 -0.112371
0.943556 0.589843 -0.112445
0.947335 0.588327 -0.112412
0.951882 0.588655 -0.112656
0.956513 0.589134 -0.112924
0.961522 0.590444 -0.113318
0.965900 0.590230 -0.113482
0.972033 0.593972 -0.114247
0.976608 0.594083 -0.114463
0.979140 0.589616 -0.113983
0.983727 0.589722 -0.114198
0.989225 0.591755 -0.114707
0.993431 0.590933 -0.114782
0.997882 0.590607 -0.114933
1.002691 0.590991 -0.115194
1.006868 0.590018 -0.115247
1.009767 0.586416 -0.114896
1.014531 0.586609 -0.115128
1.019241 0.586645 -0.115336
1.023878 0.586488 -0.115516
1.028337 0.585941 -0.115636
1.034352 0.588350 -0.116215
1.040191 0.590320 -0.116728
1.044593 0.589494 -0.116807
1.049241 0.589090 -0.116953
1.054227 0.589264 -0.117189
1.058999 0.588991 -0.117357
1.063545 0.588264 -0.117454
1.068870 0.588882 -0.117763
1.073728 0.588609 -0.117933
1.079699 0.590222 -0.118401
1.085287 0.591083 -0.118752
1.089920 0.590240 -0.118836
1.094511 0.589283 -0.118902
1.100074 0.589907 -0.119220
1.104951 0.589323 -0.119347
1.110583 0.589922 -0.119663
1.115648 0.589530 -0.119823
1.120329 0.588468 -0.119877
1.127200 0.590827 -0.120478
1.132427 0.590499 -0.120652
1.137587 0.590007 -0.120801
1.142907 0.589705 -0.120981
1.148061 0.589092 -0.121113
1.153056 0.588186 -0.121198
1.158584 0.588023 -0.121405
1.165201 0.589397 -0.121861
1.172982 0.592369 -0.122579
1.178569 0.592058 -0.122767
1.184081 0.591579 -0.122930
1.189024 0.590245 -0.122954
1.194812 0.590053 -0.123165
1.202920 0.593010 -0.123893
1.208844 0.592859 -0.124115
1.214110 0.591764 -0.124184
1.220450 0.592077 -0.124485
1.226063 0.591366 -0.124619
1.232594 0.591826 -0.124947
1.239477 0.592691 -0.125345
1.245076 0.591845 -0.125460
1.252231 0.592965 -0.125903
1.258708 0.593177 -0.126197
1.264439 0.592428 -0.126332
1.272031 0.593979 -0.126851
1.277872 0.593342 -0.127007
1.283720 0.592721 -0.127165
1.289927 0.592546 -0.127399
1.297497 0.594009 -0.127909
1.303168 0.593221 -0.128040
1.308167 0.591685 -0.128045
1.313405 0.590487 -0.128105
1.319682 0.590545 -0.128378
1.323126 0.587422 -0.128110
0.337215 0.595305 -0.088509
0.339455 0.600033 -0.089261
0.341109 0.606831 -0.090267
0.345929 0.604232 -0.090147
0.349263 0.606337 -0.090597
0.354890 0.601356 -0.090193
0.358073 0.604220 -0.090741
0.361985 0.604895 -0.091025
0.366372 0.604106 -0.091134
0.370675 0.603657 -0.091286
0.378288 0.591843 -0.090050
0.383939 0.586557 -0.089608
0.387336 0.589185 -0.090136
0.390534 0.592672 -0.090771
0.394688 0.592768 -0.090991
0.400263 0.587506 -0.090550
0.402926 0.593279 -0.091471
0.405356 0.600197 -0.092538
0.408001 0.606529 -0.093534
0.412479 0.605576 -0.093627
0.417750 0.601229 -0.093296
0.422224 0.600072 -0.093361
0.426159 0.601180 -0.093708
0.429438 0.605231 -0.094425
0.435383 0.597195 -0.093623
0.440050 0.594715 -0.093516
0.444100 0.595018 -0.093758
0.448123 0.595410 -0.094011
0.452276 0.595091 -0.094173
0.455260 0.600741 -0.095093
0.458636 0.604534 -0.095777
0.462629 0.605082 -0.096049
0.466192 0.608001 -0.096624
0.469474 0.612626 -0.097417
0.474312 0.608192 -0.097050
0.479163 0.603336 -0.096625
0.483842 0.599177 -0.096287
0.487203 0.603250 -0.097008
0.491120 0.603771 -0.097271
0.494917 0.605082 -0.097636
0.499101 0.603619 -0.097640
0.502922 0.604666 -0.097970
0.507346 0.601050 -0.097692
0.511299 0.600855 -0.097858
0.515527 0.598275 -0.097711
0.519045 0.601557 -0.098330
0.522731 0.603523 -0.098777
0.526626 0.603620 -0.098979
0.531079 0.598105 -0.098442
0.535059 0.596900 -0.098470
0.538804 0.598053 -0.098808
0.543018 0.593864 -0.098440
0.546772 0.594714 -0.098737
0.550590 0.594779 -0.098929
0.554462 0.594030 -0.099013
0.558285 0.593837 -0.099170
0.562069 0.594170 -0.099397
0.565789 0.595557 -0.099765
0.569447 0.598275 -0.100310
0.573365 0.596192 -0.100214
0.577390 0.591243 -0.099731
0.581093 0.593106 -0.100162
0.584864 0.593459 -0.100390
0.588573 0.595908 -0.100900
0.592379 0.595457 -0.101020
0.596199 0.594192 -0.101029
0.599981 0.594352 -0.101230
0.603822 0.589882 -0.100803
0.607584 0.590443 -0.101058
0.611335 0.596247 -0.102027
0.615130 0.595861 -0.102154
0.618926 0.595889 -0.102337
0.622725 0.595985 -0.102530
0.626535 0.596679 -0.102804
0.630335 0.596460 -0.102954
0.634151 0.596884 -0.103191
0.637972 0.597239 -0.103420
0.641779 0.597021 -0.103569
0.645568 0.596321 -0.103652
0.649382 0.596248 -0.103822
0.653194 0.596099 -0.103981
0.656873 0.593383 -0.103783
0.660785 0.595110 -0.104202
0.664749 0.597326 -0.104690
0.668584 0.597241 -0.104858
0.672333 0.595917 -0.104854
0.676060 0.594402 -0.104822
0.680003 0.595670 -0.105179
0.683868 0.595835 -0.105383
0.687726 0.595840 -0.105564
0.691608 0.596047 -0.105773
0.695419 0.595473 -0.105873
0.699196 0.594570 -0.105927
0.703278 0.596478 -0.106377
0.706961 0.594687 -0.106305
0.710856 0.594768 -0.106498
0.714968 0.596546 -0.106932
0.718763 0.595686 -0.106992
0.722546 0.594741 -0.107039
0.726363 0.594069 -0.107125
0.730254 0.593906 -0.107284
0.734114 0.593504 -0.107409
0.738073 0.593730 -0.107624
0.742217 0.595077 -0.108001
0.746152 0.595013 -0.108175
0.749992 0.594341 -0.108262
0.754161 0.595583 -0.108625
0.758052 0.595137 -0.108745
0.761920 0.594552 -0.108845
0.765907 0.594593 -0.109035
0.770102 0.595683 -0.109379
0.773946 0.594891 -0.109449
0.777785 0.594079 -0.109517
0.782134 0.595738 -0.109945
0.786130 0.595611 -0.110113
0.789990 0.594821 -0.110184
0.793913 0.594320 -0.110297
0.797845 0.593844 -0.110414
0.802127 0.594866 -0.110752
0.806185 0.594863 -0.110940
0.810169 0.594521 -0.111077
0.814011 0.593576 -0.111126
0.817878 0.592736 -0.111190
0.822423 0.594546 -0.111647
0.826696 0.595211 -0.111936
0.830652 0.594624 -0.112038
0.834285 0.592835 -0.111962
0.838432 0.592940 -0.112168
0.842616 0.593140 -0.112388
0.846674 0.592858 -0.112537
0.850640 0.592239 -0.112635
0.855239 0.593746 -0.113053
0.859510 0.594081 -0.113295
0.863280 0.592737 -0.113286
0.867330 0.592304 -0.113413
0.871583 0.592492 -0.113635
0.876238 0.593890 -0.114040
0.880721 0.594688 -0.114355
0.884842 0.594336 -0.114496
0.888796 0.593470 -0.114559
0.893161 0.593794 -0.114804
0.896152 0.590129 -0.114441
0.901554 0.593363 -0.115130
0.905644 0.592811 -0.115242
0.909515 0.591637 -0.115260
0.913517 0.590818 -0.115331
0.917877 0.590945 -0.115548
0.922330 0.591279 -0.115797
0.927415 0.593208 -0.116293
0.931375 0.592170 -0.116332
0.935401 0.591290 -0.116396
0.939513 0.590612 -0.116491
0.943865 0.590506 -0.116675
0.948058 0.589981 -0.116794
0.952517 0.590068 -0.117009
0.957949 0.592413 -0.117577
0.962437 0.592460 -0.117787
0.967586 0.593986 -0.118230
0.972995 0.596029 -0.118754
0.977520 0.595994 -0.118955
0.981427 0.594549 -0.118934
0.985247 0.592907 -0.118883
0.989951 0.593174 -0.119132
0.997852 0.600229 -0.120454
1.001557 0.598207 -0.120345
1.007366 0.600582 -0.120932
1.014680 0.605959 -0.121998
1.015282 0.597481 -0.120864
1.018224 0.593869 -0.120502
1.025731 0.599385 -0.121595
1.033095 0.604442 -0.122618
1.039002 0.606501 -0.123165
1.034564 0.588562 -0.120508
1.039265 0.588358 -0.120691
1.044532 0.589172 -0.121038
1.048975 0.588385 -0.121128
1.054895 0.590278 -0.121652
1.059291 0.589305 -0.121714
1.063600 0.588140 -0.121747
1.068357 0.587743 -0.121903
1.074215 0.589235 -0.122368
1.081128 0.592474 -0.123120
1.085704 0.591562 -0.123197
1.090146 0.590381 -0.123232
1.095222 0.590234 -0.123436
1.100499 0.590364 -0.123686
1.105131 0.589366 -0.123754
1.110728 0.589901 -0.124074
1.115470 0.588981 -0.124156
1.121659 0.590327 -0.124613
1.127221 0.590590 -0.124893
1.132722 0.590687 -0.125148
1.138187 0.590659 -0.125383
1.143512 0.590351 -0.125574
1.148825 0.589966 -0.125753
1.153539 0.588623 -0.125774
1.159486 0.589070 -0.126094
1.165187 0.589081 -0.126344
1.171469 0.589870 -0.126726
1.178406 0.591519 -0.127255
1.183538 0.590498 -0.127338
1.189608 0.590756 -0.127637
1.194931 0.589904 -0.127750
1.202929 0.592701 -0.128483
1.208486 0.592045 -0.128633
1.214426 0.591865 -0.128865
1.220744 0.592137 -0.129177
1.226918 0.592163 -0.129448
1.232641 0.591546 -0.129610
1.238939 0.591645 -0.129897
1.245723 0.592328 -0.130285
1.252872 0.593428 -0.130746
1.258433 0.592470 -0.130855
1.264395 0.592009 -0.131050
1.271999 0.593570 -0.131596
1.278009 0.593136 -0.131797
1.284131 0.592842 -0.132023
1.290271 0.592577 -0.132254
1.298088 0.594324 -0.132837
1.303648 0.593393 -0.132952
1.309025 0.592290 -0.133036
1.314519 0.591376 -0.133153
1.320020 0.590526 -0.133279
1.325405 0.589606 -0.133391
0.343745 0.574988 -0.089861
0.338086 0.603038 -0.093542
0.340462 0.607692 -0.094314
0.344387 0.607871 -0.094530
0.348253 0.608377 -0.094790
0.353298 0.605290 -0.094601
0.357335 0.605473 -0.094824
0.361355 0.605825 -0.095071
0.365994 0.604222 -0.095072
0.371598 0.599384 -0.094663
0.375697 0.599628 -0.094899
0.380153 0.598693 -0.094985
0.385700 0.593874 -0.094577
0.387868 0.601204 -0.095719
0.393004 0.597830 -0.095495
0.397749 0.595824 -0.095445
0.401725 0.596701 -0.095764
0.404812 0.601109 -0.096538
0.408487 0.603324 -0.097031
0.412386 0.604694 -0.097416
0.416681 0.604434 -0.097590
0.419216 0.611658 -0.098735
0.423802 0.610187 -0.098752
0.428523 0.607999 -0.098675
0.435351 0.596010 -0.097317
0.439914 0.594009 -0.097258
0.443843 0.594892 -0.097575
0.447830 0.595464 -0.097851
0.451908 0.595542 -0.098062
0.455746 0.596791 -0.098426
0.459497 0.598495 -0.098850
0.463939 0.596444 -0.098778
0.468217 0.595124 -0.098800
0.472694 0.592505 -0.098649
0.476336 0.594603 -0.099123
0.480558 0.593203 -0.099131
0.484608 0.592720 -0.099260
0.488761 0.591460 -0.099285
0.492312 0.594066 -0.099825
0.496917 0.589463 -0.099400
0.500561 0.591354 -0.099844
0.504387 0.591941 -0.100112
0.508310 0.591744 -0.100275
0.512119 0.592367 -0.100548
0.516155 0.591065 -0.100560
0.520094 0.590427 -0.100661
0.523727 0.592407 -0.101116
0.527677 0.591508 -0.101180
0.531492 0.591773 -0.101402
0.535186 0.593240 -0.101788
0.538975 0.593756 -0.102044
0.542787 0.593979 -0.102259
0.546638 0.593692 -0.102405
0.550417 0.594222 -0.102662
0.554186 0.594886 -0.102937
0.558093 0.593561 -0.102938
0.561855 0.594233 -0.103214
0.565577 0.595635 -0.103591
0.569373 0.595872 -0.103807
0.573094 0.597578 -0.104227
0.577007 0.595322 -0.104097
0.580872 0.593684 -0.104052
0.584604 0.595289 -0.104457
0.588411 0.594897 -0.104585
0.592206 0.594805 -0.104754
0.595981 0.595527 -0.105036
0.599764 0.596170 -0.105309
0.603571 0.595355 -0.105376
0.607369 0.594717 -0.105468
0.611154 0.596648 -0.105922
0.614953 0.595568 -0.105951
0.618747 0.595076 -0.106063
0.622554 0.596210 -0.106405
0.626348 0.595643 -0.106507
0.630151 0.595662 -0.106691
0.633945 0.595250 -0.106814
0.637789 0.596569 -0.107184
0.641601 0.596526 -0.107360
0.645413 0.596401 -0.107524
0.649225 0.596242 -0.107683
0.653048 0.596262 -0.107869
0.656836 0.595548 -0.107948
0.660674 0.595756 -0.108161
0.664526 0.596100 -0.108393
0.668423 0.596992 -0.108704
0.672218 0.596283 -0.108785
0.675893 0.594028 -0.108642
0.679759 0.594339 -0.108870
0.683674 0.595134 -0.109168
0.687582 0.595704 -0.109434
0.691507 0.596353 -0.109713
0.695302 0.595572 -0.109783
0.699168 0.595492 -0.109955
0.703122 0.596168 -0.110239
0.707001 0.596085 -0.110411
0.710880 0.595953 -0.110577
0.714709 0.595385 -0.110679
0.718576 0.595099 -0.110822
0.722426 0.594666 -0.110944
0.726445 0.595435 -0.111243
0.730151 0.593917 -0.111205
0.733988 0.593344 -0.111306
0.737948 0.593565 -0.111525
0.741960 0.594060 -0.111785
0.746057 0.595008 -0.112113
0.750042 0.595193 -0.112328
0.754000 0.595166 -0.112512
0.758122 0.596024 -0.112828
0.761922 0.595026 -0.112867
0.765520 0.592958 -0.112746
0.769074 0.590725 -0.112599
0.773184 0.591401 -0.112889
0.777307 0.592068 -0.113178
0.781553 0.593264 -0.113548
0.785946 0.595064 -0.114010
0.789938 0.594884 -0.114174
0.794026 0.595115 -0.114400
0.797865 0.594197 -0.114452
0.801794 0.593676 -0.114564
0.806157 0.594979 -0.114954
0.810100 0.594448 -0.115065
0.813809 0.592957 -0.115030
0.817835 0.592753 -0.115192
0.821945 0.592852 -0.115400
0.826322 0.593935 -0.115760
0.830258 0.593286 -0.115854
0.834230 0.592762 -0.115968
0.838155 0.592053 -0.116053
0.842264 0.591993 -0.116238
0.846202 0.591306 -0.116327
0.850468 0.591733 -0.116589
0.855297 0.594015 -0.117139
0.859514 0.594157 -0.117357
0.863468 0.593401 -0.117437
0.867136 0.591723 -0.117373
0.871694 0.592876 -0.117751
0.876864 0.595858 -0.118415
0.881270 0.596379 -0.118696
0.885904 0.597534 -0.119078
0.891081 0.600231 -0.119702
0.894823 0.598628 -0.119652
0.899336 0.599253 -0.119952
0.903959 0.600140 -0.120295
0.911393 0.608800 -0.121867
0.913372 0.602188 -0.121027
0.913117 0.589683 -0.119249
0.917452 0.589753 -0.119463
0.922344 0.591248 -0.119904
0.927072 0.592245 -0.120267
0.931651 0.592796 -0.120559
0.937477 0.596446 -0.121348
0.941361 0.595123 -0.121343
0.947372 0.599026 -0.122177
0.953268 0.602511 -0.122945
0.958989 0.605447 -0.123628
0.965454 0.610027 -0.124578
0.971033 0.612386 -0.125172
0.973851 0.608285 -0.124725
0.978539 0.608500 -0.124975
0.986148 0.615225 -0.126281
0.993271 0.620666 -0.127382
0.995247 0.614658 -0.126626
0.995238 0.604457 -0.125184
0.998000 0.600381 -0.124737
1.001695 0.598329 -0.124620
1.007475 0.600635 -0.125215
1.014694 0.605807 -0.126283
1.018308 0.603465 -0.126120
1.021208 0.599693 -0.125722
1.027495 0.602702 -0.126440
1.033053 0.604161 -0.126905
1.034593 0.597717 -0.126066
1.033680 0.586656 -0.124459
1.038889 0.587433 -0.124811
1.043865 0.587705 -0.125081
1.049480 0.589104 -0.125540
1.055070 0.590377 -0.125979
1.059783 0.589970 -0.126140
1.063775 0.588224 -0.126078
1.068792 0.588282 -0.126319
1.074912 0.590221 -0.126877
1.080638 0.591377 -0.127306
1.085625 0.591177 -0.127508
1.090217 0.590250 -0.127589
1.096054 0.591379 -0.128019
1.100435 0.589997 -0.128025
1.105608 0.589888 -0.128249
1.110608 0.589437 -0.128415
1.116179 0.589853 -0.128731
1.121933 0.590487 -0.129086
1.127344 0.590504 -0.129338
1.132869 0.590631 -0.129610
1.138142 0.590300 -0.129806
1.144158 0.591048 -0.130189
1.148141 0.588633 -0.130030
1.154516 0.589786 -0.130486
1.160445 0.590188 -0.130815
1.165962 0.589911 -0.131029
1.172971 0.591740 -0.131610
1.179517 0.592799 -0.132060
1.185057 0.592340 -0.132249
1.190237 0.591318 -0.132341
1.196241 0.591403 -0.132628
1.202985 0.592445 -0.133085
1.208503 0.591732 -0.133237
1.214041 0.591003 -0.133386
1.220821 0.591895 -0.133823
1.226853 0.591727 -0.134075
1.233239 0.591978 -0.134403
1.237898 0.589935 -0.134326
1.245607 0.591817 -0.134946
1.252444 0.592514 -0.135357
1.258047 0.591613 -0.135486
1.263739 0.590814 -0.135633
1.271008 0.591963 -0.136129
1.278491 0.593342 -0.136667
1.283450 0.591626 -0.136651
1.290144 0.592031 -0.137015
1.297569 0.593308 -0.137536
1.304290 0.593748 -0.137907
1.310202 0.593260 -0.138110
1.316301 0.593030 -0.138357
1.320450 0.590605 -0.138205
1.324531 0.588194 -0.138052
0.332711 0.606407 -0.097714
0.340699 0.594143 -0.096315
0.343424 0.597614 -0.096954
0.345840 0.602287 -0.097754
0.350166 0.601283 -0.097818
0.354507 0.600329 -0.097890
0.358180 0.601614 -0.098256
0.361710 0.603514 -0.098705
0.365459 0.604844 -0.099081
0.372045 0.596708 -0.098215
0.376801 0.594658 -0.098147
0.381365 0.593268 -0.098166
0.385452 0.593573 -0.098408
0.390086 0.591938 -0.098395
0.394256 0.591985 -0.098604
0.398363 0.592283 -0.098846
0.403009 0.590524 -0.098815
0.407848 0.587931 -0.098671
0.411731 0.589052 -0.099023
0.415341 0.591315 -0.099527
0.419802 0.590084 -0.099564
0.423378 0.592547 -0.100096
0.427769 0.591522 -0.100159
0.431707 0.592420 -0.100480
0.435365 0.594592 -0.100973
0.439435 0.594875 -0.101212
0.443555 0.594875 -0.101411
0.447435 0.595987 -0.101760
0.451593 0.595692 -0.101918
0.455615 0.596004 -0.102159
0.459630 0.596300 -0.102396
0.463840 0.595475 -0.102479
0.468021 0.594692 -0.102567
0.472148 0.594088 -0.102679
0.476206 0.593786 -0.102831
0.479982 0.595101 -0.103205
0.484304 0.592985 -0.103106
0.488375 0.592277 -0.103199
0.491889 0.595175 -0.103791
0.495738 0.595866 -0.104078
0.499925 0.594101 -0.104023
0.504027 0.592765 -0.104027
0.507724 0.594357 -0.104438
0.511877 0.592354 -0.104347
0.516076 0.589727 -0.104167
0.519582 0.592789 -0.104783
0.523538 0.591985 -0.104857
0.527251 0.593311 -0.105230
0.531104 0.593316 -0.105417
0.534904 0.593783 -0.105669
0.538727 0.593978 -0.105882
0.542610 0.593439 -0.105991
0.546437 0.593439 -0.106177
0.550126 0.595141 -0.106603
0.553758 0.597751 -0.107159
0.557651 0.596870 -0.107219
0.561622 0.594556 -0.107074
0.565387 0.595299 -0.107364
0.569178 0.595636 -0.107597
0.573002 0.595292 -0.107732
0.576801 0.595401 -0.107931
0.580608 0.595255 -0.108095
0.584397 0.595518 -0.108316
0.588185 0.595878 -0.108552
0.592005 0.595098 -0.108623
0.595786 0.595726 -0.108897
0.599568 0.596611 -0.109210
0.603344 0.598552 -0.109675
0.607177 0.595840 -0.109465
0.610974 0.596175 -0.109698
0.614774 0.595933 -0.109847
0.618573 0.595576 -0.109978
0.622368 0.595071 -0.110088
0.626158 0.594430 -0.110178
0.629956 0.594375 -0.110354
0.633776 0.595152 -0.110652
0.637580 0.595040 -0.110820
0.641448 0.596788 -0.111262
0.645224 0.595640 -0.111277
0.649044 0.595690 -0.111469
0.652867 0.595722 -0.111659
0.656677 0.595426 -0.111800
0.660487 0.595118 -0.111940
0.664319 0.595133 -0.112127
0.668133 0.594821 -0.112266
0.671980 0.594957 -0.112472
0.675856 0.595392 -0.112723
0.679664 0.594869 -0.112831
0.683533 0.595070 -0.113048
0.687469 0.595923 -0.113362
0.691384 0.596428 -0.113625
0.695223 0.596065 -0.113758
0.698977 0.594864 -0.113764
0.702895 0.595219 -0.114006
0.706641 0.593979 -0.114006
0.710561 0.594259 -0.114236
0.714370 0.593569 -0.114320
0.718320 0.593987 -0.114572
0.722407 0.595350 -0.114968
0.726271 0.594955 -0.115097
0.730163 0.594736 -0.115254
0.733941 0.593717 -0.115288
0.737826 0.593422 -0.115432
0.741871 0.594112 -0.115728
0.745904 0.594651 -0.116002
0.749901 0.594900 -0.116231
0.753795 0.594490 -0.116360
0.757681 0.594020 -0.116479
0.761601 0.593720 -0.116625
0.764771 0.589376 -0.116145
0.768869 0.590062 -0.116442
0.772925 0.590466 -0.116697
0.777212 0.591959 -0.117122
0.782284 0.597155 -0.118124
0.785936 0.595341 -0.118036
0.789972 0.595347 -0.118232
0.793970 0.595146 -0.118396
0.797784 0.594106 -0.118428
0.801826 0.594061 -0.118617
0.806158 0.595215 -0.118994
0.810173 0.594968 -0.119152
0.814423 0.595654 -0.119457
0.823631 0.616055 -0.122875
0.827455 0.614566 -0.122843
0.829137 0.604889 -0.121513
0.832672 0.602511 -0.121337
0.837210 0.603893 -0.121758
0.842255 0.607030 -0.122458
0.848095 0.612846 -0.123588
0.850823 0.607549 -0.122947
0.853032 0.600619 -0.122044
0.857768 0.602423 -0.122535
0.863421 0.607175 -0.123501
0.867751 0.607421 -0.123745
0.870604 0.602886 -0.123222
0.875343 0.604418 -0.123674
0.879345 0.603580 -0.123744
0.883983 0.604678 -0.124128
0.889314 0.607794 -0.124839
0.893622 0.607749 -0.125041
0.896075 0.602263 -0.124359
0.899536 0.599805 -0.124168
0.907297 0.609551 -0.125963
0.910515 0.606313 -0.125646
0.912919 0.600898 -0.124972
0.913131 0.589668 -0.123345
0.917890 0.590858 -0.123748
0.922428 0.591400 -0.124046
0.927016 0.592022 -0.124358
0.931088 0.591270 -0.124444
0.937510 0.596438 -0.125507
0.941583 0.595577 -0.125578
0.945882 0.595260 -0.125739
0.953673 0.603380 -0.127298
0.960205 0.608240 -0.128322
0.964561 0.607794 -0.128467
0.967026 0.602909 -0.127874
0.973140 0.606511 -0.128693
0.979092 0.609612 -0.129432
0.984198 0.610697 -0.129837
0.989859 0.612945 -0.130437
0.990910 0.604998 -0.129329
0.996207 0.606386 -0.129787
0.998052 0.600323 -0.128992
1.003530 0.602030 -0.129505
1.009133 0.603912 -0.130049
1.015863 0.608029 -0.130974
1.020730 0.608207 -0.131234
1.026287 0.609723 -0.131723
1.029274 0.606041 -0.131331
1.032438 0.602743 -0.131002
1.031595 0.591678 -0.129349
1.035028 0.589035 -0.129129
1.039071 0.587562 -0.129109
1.043825 0.587407 -0.129316
1.048965 0.587920 -0.129638
1.054828 0.589699 -0.130180
1.061152 0.592222 -0.130853
1.064924 0.590049 -0.130718
1.068908 0.588243 -0.130647
1.074576 0.589382 -0.131086
1.079981 0.589979 -0.131434
1.085022 0.589881 -0.131663
1.089804 0.589284 -0.131806
1.094563 0.588601 -0.131936
1.101017 0.590696 -0.132553
1.106192 0.590574 -0.132785
1.110941 0.589700 -0.132887
1.116344 0.589836 -0.133167
1.121160 0.588966 -0.133272
1.127027 0.589710 -0.133664
1.133388 0.591145 -0.134180
1.138020 0.589811 -0.134209
1.142645 0.588428 -0.134230
1.149071 0.589732 -0.134731
1.155451 0.590875 -0.135205
1.160498 0.589951 -0.135314
1.167013 0.591133 -0.135800
1.172827 0.591204 -0.136091
1.178267 0.590672 -0.136276
1.184905 0.591789 -0.136759
1.190730 0.591674 -0.137023
1.196135 0.590912 -0.137173
1.202704 0.591711 -0.137606
1.209374 0.592571 -0.138053
1.214779 0.591645 -0.138178
1.220626 0.591275 -0.138406
1.227484 0.592199 -0.138871
1.234348 0.593064 -0.139328
1.238946 0.590926 -0.139238
1.247183 0.593467 -0.140005
1.252578 0.592305 -0.140095
1.258108 0.591306 -0.140216
1.263989 0.590739 -0.140416
1.272195 0.593040 -0.141147
1.278340 0.592761 -0.141401
1.283700 0.591531 -0.141480
1.291280 0.592992 -0.142057
1.298874 0.594453 -0.142635
1.304460 0.593536 -0.142769
1.310228 0.592874 -0.142949
1.316390 0.592714 -0.143222
1.320388 0.590113 -0.143033
1.322420 0.585368 -0.142438
0.340694 0.581843 -0.098367
0.343707 0.584081 -0.098852
0.348257 0.581897 -0.098745
0.350159 0.587912 -0.099745
0.352841 0.591820 -0.100464
0.358125 0.587745 -0.100107
0.362418 0.586843 -0.100179
0.365377 0.590374 -0.100853
0.368694 0.592927 -0.101397
0.374242 0.588113 -0.100940
0.378413 0.587937 -0.101114
0.381720 0.590831 -0.101708
0.385403 0.592542 -0.102141
0.389652 0.592296 -0.102308
0.393994 0.591725 -0.102430
0.398101 0.592027 -0.102671
0.401899 0.593539 -0.103080
0.405715 0.595036 -0.103487
0.410095 0.594320 -0.103588
0.413987 0.595548 -0.103959
0.418318 0.594972 -0.104079
0.422916 0.593192 -0.104030
0.427055 0.593292 -0.104242
0.431316 0.592805 -0.104372
0.434916 0.595258 -0.104913
0.438868 0.596122 -0.105231
0.442982 0.596198 -0.105439
0.447319 0.595113 -0.105483
0.451093 0.596734 -0.105907
0.455078 0.597282 -0.106180
0.459165 0.597250 -0.106370
0.463480 0.595895 -0.106373
0.467720 0.594811 -0.106413
0.471741 0.594841 -0.106610
0.475457 0.596592 -0.107051
0.479666 0.595370 -0.107069
0.483888 0.593913 -0.107053
0.487779 0.594423 -0.107316
0.491713 0.594597 -0.107531
0.495699 0.594337 -0.107684
0.499719 0.593739 -0.107787
0.503444 0.595199 -0.108186
0.507384 0.595031 -0.108350
0.511292 0.595028 -0.108538
0.515299 0.594127 -0.108596
0.519284 0.593258 -0.108658
0.523077 0.593968 -0.108948
0.526943 0.593971 -0.109135
0.530740 0.594574 -0.109409
0.534602 0.594493 -0.109584
0.538490 0.594056 -0.109706
0.542352 0.593786 -0.109853
0.546178 0.593851 -0.110048
0.549931 0.594777 -0.110370
0.553679 0.595821 -0.110709
0.557431 0.596896 -0.111053
0.561374 0.595076 -0.110970
0.565140 0.595865 -0.111272
0.568976 0.595480 -0.111401
0.572804 0.595100 -0.111530
0.576656 0.594057 -0.111561
0.580439 0.594419 -0.111800
0.584139 0.597125 -0.112387
0.588002 0.595403 -0.112316
0.591803 0.595324 -0.112490
0.595604 0.595212 -0.112659
0.599380 0.596437 -0.113028
0.603201 0.595027 -0.113002
0.606998 0.594982 -0.113181
0.610795 0.595018 -0.113372
0.614594 0.595996 -0.113705
0.618393 0.595220 -0.113774
0.622182 0.594081 -0.113788
0.625932 0.590829 -0.113483
0.629786 0.594386 -0.114207
0.633577 0.593897 -0.114319
0.637395 0.594383 -0.114579
0.641195 0.594146 -0.114730
0.645053 0.595388 -0.115106
0.648939 0.596944 -0.115531
0.652724 0.595991 -0.115573
0.656500 0.594971 -0.115605
0.660310 0.594662 -0.115746
0.664102 0.594030 -0.115837
0.667941 0.594125 -0.116040
0.671869 0.595413 -0.116426
0.675686 0.595009 -0.116553
0.679561 0.595311 -0.116789
0.683420 0.595336 -0.116983
0.687340 0.595981 -0.117272
0.691263 0.596530 -0.117548
0.695124 0.596361 -0.117712
0.698896 0.595290 -0.117737
0.702589 0.593546 -0.117656
0.706506 0.593860 -0.117896
0.710284 0.592923 -0.117941
0.714288 0.593840 -0.118276
0.718302 0.594723 -0.118606
0.722187 0.594527 -0.118768
0.726321 0.596104 -0.119209
0.730539 0.598115 -0.119719
0.735078 0.602129 -0.120546
0.738327 0.597367 -0.119990
0.742971 0.601743 -0.120877
0.747856 0.607298 -0.121953
0.752612 0.611713 -0.122851
0.756288 0.609544 -0.122706
0.760523 0.610620 -0.123077
0.764469 0.610005 -0.123178
0.768088 0.607622 -0.122998
0.771929 0.606485 -0.123016
0.776155 0.607329 -0.123351
0.779313 0.602779 -0.122822
0.782619 0.599129 -0.122436
0.786644 0.599022 -0.122618
0.791189 0.601295 -0.123184
0.794055 0.595821 -0.122501
0.797834 0.594597 -0.122503
0.801910 0.594676 -0.122716
0.805951 0.594572 -0.122900
0.810465 0.596400 -0.123397
0.814528 0.596282 -0.123579
0.822260 0.610774 -0.126141
0.826858 0.612407 -0.126613
0.830352 0.609704 -0.126378
0.834663 0.610148 -0.126658
0.838343 0.608210 -0.126548
0.842947 0.609655 -0.126992
0.847447 0.610647 -0.127363
0.851102 0.608616 -0.127237
0.853554 0.602495 -0.126438
0.857681 0.602201 -0.126597
0.863065 0.606056 -0.127442
0.866382 0.603007 -0.127147
0.871401 0.605484 -0.127767
0.876469 0.608002 -0.128396
0.879397 0.603760 -0.127902
0.882904 0.601391 -0.127719
0.888279 0.604681 -0.128479
0.893110 0.606223 -0.128950
0.895723 0.601220 -0.128326
0.899185 0.598770 -0.128128
0.903960 0.600075 -0.128561
0.909379 0.603103 -0.129284
0.911356 0.596553 -0.128396
0.913649 0.591011 -0.127676
0.918022 0.591146 -0.127912
0.922066 0.590374 -0.127996
0.926066 0.589477 -0.128059
0.932751 0.595438 -0.129286
0.937845 0.597187 -0.129801
0.941147 0.594390 -0.129544
0.944666 0.592162 -0.129383
0.950189 0.594816 -0.130056
0.957701 0.602124 -0.131527
0.962086 0.601817 -0.131698
0.964572 0.597051 -0.131105
0.969889 0.598885 -0.131644
0.976839 0.604343 -0.132809
0.979775 0.600615 -0.132395
0.982383 0.596209 -0.131862
0.985919 0.593905 -0.131691
0.986948 0.586191 -0.130583
0.999086 0.602356 -0.133616
1.004460 0.603811 -0.134101
1.009136 0.603732 -0.134322
1.016301 0.608739 -0.135431
1.022458 0.611528 -0.136157
1.029293 0.615569 -0.137104
1.031506 0.610272 -0.136419
1.032328 0.602313 -0.135264
1.031356 0.590996 -0.133516
1.034874 0.588519 -0.133320
1.039184 0.587553 -0.133390
1.043971 0.587451 -0.133614
1.049888 0.589401 -0.134203
1.056372 0.592297 -0.134962
1.060869 0.591463 -0.135062
1.064614 0.589241 -0.134916
1.069910 0.589769 -0.135260
1.074674 0.589296 -0.135428
1.079502 0.588883 -0.135608
1.084787 0.589209 -0.135922
1.089804 0.589013 -0.136145
1.095132 0.589283 -0.136453
1.101766 0.591661 -0.137143
1.106333 0.590522 -0.137202
1.110895 0.589335 -0.137254
1.115537 0.588239 -0.137324
1.121689 0.589511 -0.137824
1.127364 0.589938 -0.138174
1.133871 0.591591 -0.138750
1.138972 0.590970 -0.138915
1.143680 0.589694 -0.138961
1.150028 0.590860 -0.139457
1.155023 0.589908 -0.139566
1.160877 0.590183 -0.139904
1.167476 0.591476 -0.140431
1.172579 0.590505 -0.140544
1.177747 0.589582 -0.140667
1.184274 0.590543 -0.141141
1.190054 0.590370 -0.141408
1.197078 0.591870 -0.141989
1.203574 0.592549 -0.142419
1.209836 0.592836 -0.142779
1.215734 0.592567 -0.143038
1.222153 0.592945 -0.143420
1.229143 0.594019 -0.143934
1.234922 0.593435 -0.144140
1.240157 0.592113 -0.144206
1.244703 0.589890 -0.144103
1.253892 0.593584 -0.145122
1.259665 0.592872 -0.145306
1.266792 0.593837 -0.145811
1.273366 0.594082 -0.146179
1.278453 0.592492 -0.146197
1.284755 0.592398 -0.146500
1.291842 0.593253 -0.146985
1.298779 0.593921 -0.147433
1.304074 0.592661 -0.147509
1.308715 0.590684 -0.147445
1.314785 0.590430 -0.147710
1.320421 0.589723 -0.147884
1.324386 0.587176 -0.147698
0.339595 0.583992 -0.102498
0.341529 0.589473 -0.103447
0.345976 0.587684 -0.103387
0.350244 0.586536 -0.103417
0.353617 0.588274 -0.103851
0.357586 0.588312 -0.104049
0.361077 0.589999 -0.104479
0.365399 0.589136 -0.104553
0.368934 0.590949 -0.105003
0.372532 0.592696 -0.105446
0.376894 0.591950 -0.105537
0.381079 0.591858 -0.105722
0.385324 0.591594 -0.105882
0.389437 0.591834 -0.106113
0.393568 0.592045 -0.106341
0.397522 0.592942 -0.106666
0.401443 0.594007 -0.107015
0.405526 0.594474 -0.107280
0.409610 0.594945 -0.107545
0.413733 0.595256 -0.107786
0.418354 0.593477 -0.107728
0.422737 0.592595 -0.107797
0.426667 0.593604 -0.108138
0.430510 0.595001 -0.108535
0.434415 0.596122 -0.108892
0.438345 0.597127 -0.109233
0.442853 0.595355 -0.109171
0.446841 0.595979 -0.109455
0.451032 0.595543 -0.109585
0.454846 0.596958 -0.109984
0.458875 0.597236 -0.110218
0.463212 0.595781 -0.110198
0.467299 0.595564 -0.110358
0.471258 0.595989 -0.110611
0.475188 0.596527 -0.110881
0.479371 0.595481 -0.110918
0.483509 0.594571 -0.110974
0.487680 0.593315 -0.110978
0.491638 0.593311 -0.111166
0.495682 0.592629 -0.111253
0.499654 0.592333 -0.111397
0.503419 0.593469 -0.111754
0.507246 0.594123 -0.112039
0.511148 0.594154 -0.112231
0.515036 0.594228 -0.112430
0.519027 0.593343 -0.112485
0.522916 0.593215 -0.112652
0.526727 0.593726 -0.112916
0.530542 0.594169 -0.113169
0.534412 0.594013 -0.113332
0.538328 0.593278 -0.113408
0.542103 0.593983 -0.113700
0.545920 0.594194 -0.113919
0.549762 0.594043 -0.114082
0.553522 0.594913 -0.114400
0.557283 0.595824 -0.114725
0.561080 0.596237 -0.114974
0.565011 0.594419 -0.114884
0.568754 0.595637 -0.115256
0.572554 0.595875 -0.115479
0.576439 0.594265 -0.115420
0.580314 0.592480 -0.115333
0.583920 0.597548 -0.116297
0.587842 0.594119 -0.115957
0.591642 0.593994 -0.116125
0.595432 0.594214 -0.116346
0.599251 0.592865 -0.116325
0.603032 0.593489 -0.116608
0.606819 0.594051 -0.116882
0.610611 0.594641 -0.117161
0.614409 0.593404 -0.117157
0.618201 0.592980 -0.117279
0.621998 0.593346 -0.117524
0.625825 0.595389 -0.118031
0.629556 0.591421 -0.117600
0.633358 0.591816 -0.117850
0.637178 0.592657 -0.118170
0.641044 0.594540 -0.118654
0.644961 0.597219 -0.119265
0.648878 0.599239 -0.119773
0.652782 0.600530 -0.120168
0.656904 0.605691 -0.121174
0.660905 0.607790 -0.121699
0.665307 0.616027 -0.123197
0.668274 0.601367 -0.121070
0.672659 0.608581 -0.122408
0.675837 0.598880 -0.121061
0.679362 0.594564 -0.120567
0.683294 0.595469 -0.120904
0.687200 0.595922 -0.121170
0.691081 0.596004 -0.121376
0.694922 0.595629 -0.121510
0.699749 0.604701 -0.123159
0.703935 0.607047 -0.123733
0.707191 0.600948 -0.122949
0.711354 0.602964 -0.123470
0.715745 0.606615 -0.124257
0.719340 0.603725 -0.123988
0.722652 0.598867 -0.123401
0.726196 0.595986 -0.123131
0.730900 0.601395 -0.124206
0.735748 0.607388 -0.125379
0.739367 0.604875 -0.125170
0.743534 0.605961 -0.125548
0.748199 0.610018 -0.126411
0.752031 0.608793 -0.126413
0.755806 0.607271 -0.126367
0.759677 0.606327 -0.126414
0.763708 0.606280 -0.126609
0.767909 0.607112 -0.126949
0.772086 0.607728 -0.127255
0.776849 0.611271 -0.128043
0.780516 0.609142 -0.127897
0.783418 0.603363 -0.127146
0.786718 0.599702 -0.126744
0.790866 0.600103 -0.127014
0.794689 0.598978 -0.127032
0.797634 0.593978 -0.126404
0.801682 0.593935 -0.126601
0.806111 0.595482 -0.127063
0.810299 0.595925 -0.127343
0.814027 0.594446 -0.127301
0.819915 0.601608 -0.128708
0.823547 0.599626 -0.128583
0.830217 0.609346 -0.130427
0.834243 0.608711 -0.130530
0.838500 0.608921 -0.130777
0.841713 0.605301 -0.130377
0.845993 0.605577 -0.130636
0.849978 0.604782 -0.130713
0.852547 0.599117 -0.129964
0.856980 0.599903 -0.130309
0.860991 0.599233 -0.130407
0.864373 0.596498 -0.130153
0.870568 0.602848 -0.131451
0.876562 0.608322 -0.132602
0.878107 0.599771 -0.131354
0.880292 0.593418 -0.130479
0.885894 0.597506 -0.131396
0.890919 0.599724 -0.131993
0.896014 0.602049 -0.132611
0.899258 0.598951 -0.132295
0.904791 0.602388 -0.133107
0.909351 0.602979 -0.133430
0.912873 0.600664 -0.133249
0.913803 0.591366 -0.131854
0.917547 0.589809 -0.131803
0.922557 0.591590 -0.132333
0.927138 0.592174 -0.132655
0.932476 0.594644 -0.133309
0.938763 0.599405 -0.134366
0.943097 0.599141 -0.134545
0.945147 0.593232 -0.133734
0.944909 0.581896 -0.131965
0.950771 0.585414 -0.132809
0.955912 0.587102 -0.133332
0.962468 0.592007 -0.134426
0.969069 0.596851 -0.135512
0.975661 0.601513 -0.136571
0.982163 0.605814 -0.137569
0.982212 0.595669 -0.136000
0.983443 0.588316 -0.134925
0.987681 0.587601 -0.135031
0.996726 0.597131 -0.136970
1.005526 0.605873 -0.138773
1.009345 0.603974 -0.138676
1.013260 0.602270 -0.138613
1.020799 0.607942 -0.139878
1.028222 0.613200 -0.141073
1.033561 0.614142 -0.141493
1.031999 0.601445 -0.139450
1.030718 0.589533 -0.137542
1.033651 0.585941 -0.137138
1.039299 0.587538 -0.137677
1.045121 0.589375 -0.138262
1.051486 0.592125 -0.139016
1.056396 0.592090 -0.139265
1.060523 0.590581 -0.139247
1.065260 0.590145 -0.139425
1.070805 0.591097 -0.139861
1.074650 0.588984 -0.139735
1.079746 0.589035 -0.140008
1.086371 0.591654 -0.140758
1.090886 0.590570 -0.140826
1.096706 0.591644 -0.141296
1.101871 0.591542 -0.141551
1.106443 0.590405 -0.141615
1.110986 0.589181 -0.141664
1.115863 0.588459 -0.141809
1.122556 0.590584 -0.142488
1.128185 0.590919 -0.142836
1.133123 0.590103 -0.142970
1.138910 0.590549 -0.143344
1.144847 0.591150 -0.143749
1.150129 0.590679 -0.143956
1.155031 0.589582 -0.144046
1.161522 0.590796 -0.144576
1.166430 0.589594 -0.144651
1.172702 0.590332 -0.145097
1.178597 0.590447 -0.145427
1.185008 0.591227 -0.145887
1.191283 0.591735 -0.146298
1.197942 0.592703 -0.146800
1.203667 0.592304 -0.147042
1.209459 0.591943 -0.147294
1.216263 0.592899 -0.147803
1.221931 0.592261 -0.148006
1.228916 0.593328 -0.148540
1.235041 0.593197 -0.148845
1.240461 0.592109 -0.148966
1.247042 0.592494 -0.149374
1.253730 0.592972 -0.149801
1.260866 0.593975 -0.150334
1.266403 0.592939 -0.150467
1.273321 0.593610 -0.150935
1.278927 0.592652 -0.151083
1.285028 0.592308 -0.151351
1.291720 0.592681 -0.151760
1.298445 0.593096 -0.152176
1.303608 0.591682 -0.152227
1.308733 0.590274 -0.152277
1.314652 0.589843 -0.152517
1.321029 0.589985 -0.152869
1.325922 0.588485 -0.152889
0.338353 0.586543 -0.106714
0.340862 0.590350 -0.107450
0.345003 0.589502 -0.107518
0.349735 0.586968 -0.107343
0.353593 0.587209 -0.107569
0.356849 0.589482 -0.108090
0.360862 0.589521 -0.108288
0.364749 0.590074 -0.108562
0.368624 0.590783 -0.108859
0.372381 0.591995 -0.109230
0.376340 0.592627 -0.109518
0.380647 0.592129 -0.109640
0.384905 0.591835 -0.109792
0.389060 0.591937 -0.110002
0.393203 0.592112 -0.110223
0.397251 0.592669 -0.110500
0.401254 0.593423 -0.110805
0.405187 0.594478 -0.111156
0.409485 0.594106 -0.111295
0.414116 0.592340 -0.111228
0.418420 0.591834 -0.111346
0.422254 0.593263 -0.111752
0.426567 0.592634 -0.111851
0.430381 0.594149 -0.112269
0.434226 0.595539 -0.112669
0.438484 0.595017 -0.112783
0.442354 0.596252 -0.113160
0.446491 0.596184 -0.113342
0.450841 0.594973 -0.113351
0.454772 0.595785 -0.113664
0.458814 0.595978 -0.113883
0.462987 0.595398 -0.113986
0.467212 0.594423 -0.114028
0.471080 0.595351 -0.114358
0.474881 0.596647 -0.114744
0.479397 0.593609 -0.114471
0.483535 0.592665 -0.114516
0.487547 0.592393 -0.114662
0.491522 0.592268 -0.114831
0.495546 0.591715 -0.114933
0.499509 0.591474 -0.115084
0.503290 0.592478 -0.115424
0.507088 0.593339 -0.115743
0.511236 0.591420 -0.115635
0.515058 0.591948 -0.115903
0.519057 0.590923 -0.115931
0.522903 0.591108 -0.116146
0.526485 0.593680 -0.116730
0.530340 0.593759 -0.116929
0.534239 0.593321 -0.117048
0.537667 0.597831 -0.117935
0.541921 0.593384 -0.117431
0.545678 0.594317 -0.117763
0.549490 0.594582 -0.117991
0.552992 0.599008 -0.118870
0.556839 0.598992 -0.119056
0.560912 0.595404 -0.118682
0.564759 0.594972 -0.118802
0.568607 0.594382 -0.118897
0.572310 0.596470 -0.119413
0.575959 0.600120 -0.120177
0.579498 0.607167 -0.121478
0.583293 0.608991 -0.121958
0.587174 0.608642 -0.122094
0.591080 0.607189 -0.122056
0.594987 0.605068 -0.121911
0.598912 0.600876 -0.121436
0.602619 0.609923 -0.123067
0.606516 0.606885 -0.122776
0.610365 0.609068 -0.123317
0.614232 0.605528 -0.122944
0.618026 0.594122 -0.121310
0.621926 0.604144 -0.123108
0.625759 0.603002 -0.123117
0.629646 0.605110 -0.123650
0.633460 0.603247 -0.123543
0.637346 0.604425 -0.123927
0.641240 0.605433 -0.124284
0.645017 0.603029 -0.124090
0.648825 0.601796 -0.124085
0.652689 0.601922 -0.124300
0.656688 0.604573 -0.124926
0.660758 0.607944 -0.125671
0.664344 0.602863 -0.125040
0.668213 0.602708 -0.125211
0.672204 0.604235 -0.125657
0.675580 0.597375 -0.124731
0.679418 0.597016 -0.124868
0.683077 0.594527 -0.124656
0.687063 0.595892 -0.125076
0.690847 0.594934 -0.125115
0.694602 0.593713 -0.125111
0.699927 0.607652 -0.127611
0.704229 0.610915 -0.128351
0.708007 0.609228 -0.128274
0.711744 0.607278 -0.128152
0.716211 0.611364 -0.129033
0.719746 0.607807 -0.128644
0.722726 0.600266 -0.127590
0.726172 0.596606 -0.127181
0.730116 0.596637 -0.127387
0.734906 0.602383 -0.128550
0.739620 0.607209 -0.129562
0.743556 0.606735 -0.129687
0.747291 0.605001 -0.129601
0.750781 0.601859 -0.129277
0.754774 0.601783 -0.129468
0.758819 0.601965 -0.129704
0.761617 0.595215 -0.128768
0.766101 0.597839 -0.129417
0.770889 0.601881 -0.130308
0.774997 0.602217 -0.130572
0.780027 0.607085 -0.131607
0.783436 0.603800 -0.131257
0.786585 0.599397 -0.130714
0.790553 0.598958 -0.130847
0.794407 0.597990 -0.130890
0.797675 0.594426 -0.130487
0.801709 0.594303 -0.130675
0.805938 0.594981 -0.131000
0.809842 0.594242 -0.131082
0.815154 0.599235 -0.132152
0.818741 0.597105 -0.131996
0.824327 0.602850 -0.133200
0.828706 0.603708 -0.133562
0.831754 0.599486 -0.133044
0.835448 0.597778 -0.132961
0.839267 0.596552 -0.132961
0.843982 0.598526 -0.133519
0.848883 0.601047 -0.134174
0.852124 0.597742 -0.133812
0.855898 0.596320 -0.133779
0.861571 0.601213 -0.134853
0.865652 0.600718 -0.134984
0.872402 0.608767 -0.136618
0.877032 0.609830 -0.137026
0.876582 0.595053 -0.134642
0.877789 0.585773 -0.133222
0.883975 0.591727 -0.134493
0.890265 0.597774 -0.135783
0.895135 0.599463 -0.136305
0.900211 0.601655 -0.136917
0.905750 0.605061 -0.137748
0.910133 0.605110 -0.137982
0.914153 0.604124 -0.138033
0.913434 0.590304 -0.135789
0.918596 0.592535 -0.136413
0.922189 0.590543 -0.136282
0.927401 0.592770 -0.136908
0.931952 0.593208 -0.137215
0.937498 0.596111 -0.137967
0.942869 0.598463 -0.138622
0.945473 0.593918 -0.138032
0.945906 0.584193 -0.136503
0.952172 0.588637 -0.137540
0.956229 0.587715 -0.137605
0.962522 0.591989 -0.138615
0.968733 0.595927 -0.139569
0.976805 0.603954 -0.141271
0.981592 0.604368 -0.141589
0.984892 0.601436 -0.141295
0.985783 0.593264 -0.140040
0.992409 0.597644 -0.141086
0.998578 0.600899 -0.141930
1.002870 0.600073 -0.142025
1.006411 0.597656 -0.141827
1.009076 0.593445 -0.141298
1.010409 0.586576 -0.140275
1.022768 0.602007 -0.143387
1.034229 0.615245 -0.146102
1.038691 0.614371 -0.146200
1.028628 0.585243 -0.141032
1.034629 0.587586 -0.141725
1.040591 0.589752 -0.142387
1.045247 0.589365 -0.142575
1.050512 0.590065 -0.142968
1.056414 0.591867 -0.143571
1.060745 0.590720 -0.143622
1.065894 0.591016 -0.143946
1.070312 0.589948 -0.144014
1.075601 0.590378 -0.144368
1.079037 0.587521 -0.144101
1.086438 0.591481 -0.145129
1.091719 0.591694 -0.145449
1.096337 0.590725 -0.145546
1.101504 0.590629 -0.145812
1.107047 0.591091 -0.146187
1.111893 0.590346 -0.146334
1.116918 0.589842 -0.146528
1.123771 0.592198 -0.147276
1.128788 0.591543 -0.147447
1.132874 0.589382 -0.147330
1.139145 0.590576 -0.147863
1.144518 0.590306 -0.148116
1.149881 0.589957 -0.148356
1.155161 0.589426 -0.148563
1.161165 0.589911 -0.148971
1.167260 0.590451 -0.149394
1.173476 0.591090 -0.149838
1.179545 0.591438 -0.150229
1.185492 0.591540 -0.150575
1.191558 0.591742 -0.150943
1.197836 0.592172 -0.151359
1.203550 0.591754 -0.151611
1.210004 0.592294 -0.152055
1.215792 0.591866 -0.152309
1.221443 0.591209 -0.152519
1.227159 0.590598 -0.152740
1.234193 0.591678 -0.153301
1.241884 0.593544 -0.154022
1.247356 0.592482 -0.154158
1.253663 0.592468 -0.154505
1.260698 0.593341 -0.155032
1.267250 0.593570 -0.155430
1.273743 0.593702 -0.155809
1.278780 0.592042 -0.155824
1.285205 0.592089 -0.156184
1.291448 0.591919 -0.156498
1.298333 0.592525 -0.156970
1.304945 0.592817 -0.157376
1.310245 0.591598 -0.157469
1.314973 0.589773 -0.157434
1.321707 0.590319 -0.157881
1.323728 0.585551 -0.157229
0.335567 0.593601 -0.111627
0.341079 0.588590 -0.111074
0.345881 0.585730 -0.110838
0.349893 0.585346 -0.110971
0.353114 0.587540 -0.111490
0.356887 0.588196 -0.111779
0.360556 0.589317 -0.112139
0.364435 0.589899 -0.112419
0.368443 0.590169 -0.112652
0.372429 0.590605 -0.112910
0.376494 0.590858 -0.113141
0.380575 0.591125 -0.113374
0.384537 0.591868 -0.113679
0.388496 0.592689 -0.113996
0.392647 0.592861 -0.114214
0.396805 0.593026 -0.114432
0.400710 0.594172 -0.114798
0.405008 0.593825 -0.114937
0.409364 0.593222 -0.115037
0.413731 0.592530 -0.115122
0.417891 0.592635 -0.115329
0.422400 0.591232 -0.115304
0.426410 0.591888 -0.115594
0.430320 0.592971 -0.115951
0.434262 0.593903 -0.116283
0.438181 0.594934 -0.116632
0.442119 0.595858 -0.116964
0.446299 0.595586 -0.117111
0.450611 0.594572 -0.117143
0.454679 0.594684 -0.117348
0.458546 0.595784 -0.117708
0.462869 0.594408 -0.117681
0.467055 0.593640 -0.117749
0.470925 0.594555 -0.118080
0.474731 0.595815 -0.118464
0.478307 0.598465 -0.119066
0.482725 0.595944 -0.118859
0.486278 0.598743 -0.119486
0.490493 0.597250 -0.119439
0.493725 0.602316 -0.120424
0.497176 0.606091 -0.121208
0.501838 0.601163 -0.120619
0.505846 0.600770 -0.120745
0.508778 0.608762 -0.122200
0.512278 0.612644 -0.123006
0.516474 0.610808 -0.122905
0.521390 0.602330 -0.121746
0.525774 0.597969 -0.121240
0.529137 0.603059 -0.122240
0.532678 0.606751 -0.123019
0.537032 0.602037 -0.122455
0.540546 0.606210 -0.123313
0.544624 0.604064 -0.123159
0.548660 0.602123 -0.123037
0.552947 0.596498 -0.122321
0.556894 0.594916 -0.122254
0.560574 0.597146 -0.122803
0.564538 0.594958 -0.122638
0.568361 0.594865 -0.122812
0.572213 0.594144 -0.122884
0.575712 0.600820 -0.124157
0.579369 0.605143 -0.125051
0.583106 0.608353 -0.125765
0.587087 0.604891 -0.125394
0.590991 0.602972 -0.125273
0.594700 0.608777 -0.126415
0.598607 0.606681 -0.126266
0.602528 0.602100 -0.125709
0.606325 0.606531 -0.126630
0.610184 0.606510 -0.126821
0.614041 0.599034 -0.125785
0.617890 0.603665 -0.126742
0.621724 0.602127 -0.126683
0.625576 0.602793 -0.126988
0.629412 0.602169 -0.127080
0.633351 0.606030 -0.127916
0.637265 0.607668 -0.128385
0.641068 0.605356 -0.128199
0.644773 0.600965 -0.127664
0.648530 0.598710 -0.127485
0.652459 0.600465 -0.127975
0.656113 0.596525 -0.127513
0.659837 0.594415 -0.127357
0.663907 0.598221 -0.128192
0.667834 0.599233 -0.128561
0.671395 0.594882 -0.128027
0.675384 0.596688 -0.128530
0.679127 0.595143 -0.128468
0.683183 0.597409 -0.129050
0.686855 0.595096 -0.128859
0.690629 0.594036 -0.128879
0.694385 0.592842 -0.128876
0.699571 0.605475 -0.131224
0.703882 0.608896 -0.132010
0.707573 0.606497 -0.131806
0.711794 0.608732 -0.132392
0.715854 0.609432 -0.132718
0.718784 0.601180 -0.131511
0.722198 0.597138 -0.131023
0.725822 0.594854 -0.130835
0.729822 0.595322 -0.131119
0.734683 0.601581 -0.132402
0.739775 0.608909 -0.133873
0.742508 0.600688 -0.132661
0.745749 0.596056 -0.132068
0.749375 0.593971 -0.131913
0.752941 0.591614 -0.131710
0.757935 0.597451 -0.132931
0.761730 0.596310 -0.132941
0.765214 0.593512 -0.132662
0.769487 0.594958 -0.133122
0.773922 0.597120 -0.133709
0.777386 0.594297 -0.133425
0.783261 0.603302 -0.135213
0.787487 0.604011 -0.135550
0.790794 0.600385 -0.135126
0.794859 0.600327 -0.135329
0.797476 0.593809 -0.134393
0.801655 0.594316 -0.134695
0.805622 0.593867 -0.134828
0.809719 0.593946 -0.135055
0.814372 0.596250 -0.135678
0.819738 0.601270 -0.136784
0.824197 0.602512 -0.137222
0.827404 0.598866 -0.136790
0.830155 0.593609 -0.136069
0.834141 0.593076 -0.136190
0.838651 0.594431 -0.136650
0.842764 0.594290 -0.136842
0.849450 0.603119 -0.138645
0.850893 0.593590 -0.137154
0.854440 0.591464 -0.136990
0.862322 0.603760 -0.139427
0.863855 0.594898 -0.138050
0.871155 0.604798 -0.140062
0.875414 0.604745 -0.140278
0.874818 0.589588 -0.137754
0.877603 0.585209 -0.137181
0.881203 0.583385 -0.137071
0.889422 0.595260 -0.139457
0.894921 0.598812 -0.140331
0.900116 0.601349 -0.141023
0.903895 0.599770 -0.140964
0.909924 0.604474 -0.142056
0.913485 0.602228 -0.141876
0.913161 0.589498 -0.139767
0.918370 0.591856 -0.140431
0.923015 0.592631 -0.140805
0.927023 0.591697 -0.140865
0.931195 0.591173 -0.141001
0.937421 0.595808 -0.142094
0.943163 0.599080 -0.142938
0.945512 0.593891 -0.142212
0.947672 0.588346 -0.141417
0.952521 0.589340 -0.141840
0.956288 0.587714 -0.141775
0.962662 0.592169 -0.142849
0.970913 0.600788 -0.144706
0.976396 0.602862 -0.145341
0.980364 0.601445 -0.145323
0.984257 0.599856 -0.145273
0.988836 0.599763 -0.145505
0.993150 0.599058 -0.145623
0.995021 0.593110 -0.144750
1.002221 0.598504 -0.146025
1.009301 0.603473 -0.147223
1.008976 0.593030 -0.145497
1.012153 0.589911 -0.145160
1.023183 0.602615 -0.147841
1.033115 0.612796 -0.150050
1.035835 0.608519 -0.149500
1.030859 0.589340 -0.146092
1.033162 0.584525 -0.145432
1.040830 0.589955 -0.146742
1.045426 0.589446 -0.146913
1.050770 0.590283 -0.147345
1.056057 0.590945 -0.147746
1.061446 0.591723 -0.148173
1.065112 0.589334 -0.147987
1.070395 0.589814 -0.148360
1.075135 0.589273 -0.148537
1.080889 0.590446 -0.149051
1.086591 0.591446 -0.149533
1.091484 0.590991 -0.149734
1.096182 0.590155 -0.149863
1.100761 0.589081 -0.149947
1.106580 0.590004 -0.150426
1.112224 0.590563 -0.150836
1.117398 0.590287 -0.151085
1.124008 0.592241 -0.151778
1.128677 0.591028 -0.151848
1.133765 0.590430 -0.152041
1.138515 0.589254 -0.152122
1.144516 0.589948 -0.152578
1.149922 0.589662 -0.152842
1.155523 0.589604 -0.153154
1.161030 0.589342 -0.153429
1.166949 0.589622 -0.153815
1.174132 0.591663 -0.154560
1.180561 0.592513 -0.155069
1.185277 0.590847 -0.155072
1.192071 0.592072 -0.155663
1.197401 0.591171 -0.155827
1.203957 0.591915 -0.156327
1.210108 0.592031 -0.156702
1.215360 0.590875 -0.156820
1.220966 0.590160 -0.157030
1.228696 0.592215 -0.157810
1.234029 0.591043 -0.157930
1.241576 0.592719 -0.158638
1.248235 0.593182 -0.159099
1.255102 0.593865 -0.159606
1.259827 0.591810 -0.159546
1.267040 0.592870 -0.160134
1.273386 0.592822 -0.160491
1.279391 0.592347 -0.160758
1.285847 0.592422 -0.161139
1.292401 0.592616 -0.161543
1.299478 0.593439 -0.162078
1.306549 0.594256 -0.162611
1.311317 0.592399 -0.162576
1.316406 0.590981 -0.162628
1.321603 0.589751 -0.162716
1.329773 0.591966 -0.163530
0.337995 0.585389 -0.114275
0.341243 0.586984 -0.114710
0.345676 0.585215 -0.114629
0.349598 0.585099 -0.114801
0.353300 0.585801 -0.115100
0.356620 0.587852 -0.115608
0.360270 0.589033 -0.115981
0.364002 0.590091 -0.116336
0.368078 0.590146 -0.116536
0.372315 0.589744 -0.116664
0.376245 0.590446 -0.116964
0.380583 0.589818 -0.117057
0.384270 0.591522 -0.117512
0.387968 0.593282 -0.117977
0.391846 0.594475 -0.118354
0.396010 0.594661 -0.118573
0.398110 0.602738 -0.120031
0.401260 0.607050 -0.120900
0.403828 0.613838 -0.122160
0.408498 0.612360 -0.122121
0.412946 0.611707 -0.122210
0.415591 0.618633 -0.123497
0.420680 0.615238 -0.123152
0.425811 0.611455 -0.122745
0.431545 0.604714 -0.121865
0.437717 0.595565 -0.120599
0.441958 0.595081 -0.120709
0.446145 0.594773 -0.120846
0.450479 0.593646 -0.120853
0.452949 0.601923 -0.122363
0.456197 0.606486 -0.123281
0.460482 0.605620 -0.123331
0.464830 0.604285 -0.123305
0.468376 0.607360 -0.123987
0.474411 0.595950 -0.122338
0.476104 0.609972 -0.124786
0.480284 0.609312 -0.124868
0.485372 0.602708 -0.123989
0.489409 0.602546 -0.124151
0.493417 0.602484 -0.124328
0.497380 0.602666 -0.124545
0.500430 0.609454 -0.125838
0.505073 0.604571 -0.125231
0.508934 0.605391 -0.125554
0.512918 0.605197 -0.125711
0.517258 0.601863 -0.125354
0.521609 0.598073 -0.124922
0.525376 0.599287 -0.125309
0.529452 0.597541 -0.125210
0.533400 0.596851 -0.125284
