ply
format ascii 1.0
comment ---
element vertex 1678
property float x
property float y
property float z
element face 0
property list uchar uint vertex_indices
end_header
0.117281 0.619474 -0.168522
0.119697 0.616844 -0.167956
0.121394 0.611108 -0.166708
0.124267 0.610715 -0.166632
0.127269 0.610867 -0.166676
0.130784 0.613125 -0.167182
0.134135 0.614599 -0.167516
0.137562 0.616291 -0.167899
0.139274 0.611152 -0.166783
0.141732 0.609056 -0.166335
0.143584 0.604722 -0.165395
0.147894 0.609638 -0.166486
0.150158 0.606896 -0.165897
0.153056 0.606489 -0.165820
0.156408 0.607662 -0.166090
0.160016 0.609642 -0.166538
0.162598 0.608046 -0.166201
0.165437 0.607326 -0.166056
0.169807 0.611614 -0.167012
0.172077 0.608959 -0.166443
0.174318 0.606265 -0.165866
0.177778 0.607424 -0.166136
0.180777 0.607094 -0.166078
0.183275 0.605226 -0.165683
0.186178 0.604583 -0.165558
0.190056 0.606771 -0.166055
0.193708 0.608206 -0.166387
0.196744 0.607808 -0.166316
0.199546 0.606725 -0.166095
0.202702 0.606612 -0.166088
0.209999 0.617696 -0.168544
0.214368 0.620586 -0.169199
0.212736 0.607534 -0.166346
0.213529 0.601109 -0.164951
0.216133 0.599462 -0.164608
0.221425 0.604605 -0.165760
0.225096 0.605524 -0.165983
0.228255 0.605116 -0.165914
0.233339 0.609339 -0.166865
0.237625 0.611497 -0.167362
0.241040 0.611495 -0.167383
0.242047 0.605849 -0.166162
0.243270 0.600803 -0.165072
0.246420 0.600210 -0.164964
0.251054 0.602909 -0.165582
0.253688 0.601082 -0.165203
0.256424 0.599482 -0.164874
0.260660 0.601108 -0.165257
0.264788 0.602427 -0.165572
0.269704 0.605326 -0.166237
0.274189 0.607228 -0.166681
0.276973 0.605569 -0.166340
0.278704 0.601792 -0.165531
0.282149 0.601501 -0.165492
0.286724 0.603420 -0.165941
0.289885 0.602518 -0.165767
0.292043 0.599690 -0.165167
0.296326 0.600957 -0.165472
0.300602 0.602174 -0.165765
0.304533 0.602719 -0.165910
0.308526 0.603366 -0.166077
0.311663 0.602451 -0.165898
0.316245 0.604167 -0.166300
0.319325 0.603194 -0.166106
0.326862 0.610105 -0.167657
0.327882 0.605562 -0.166672
0.328409 0.600301 -0.165526
0.327405 0.592580 -0.163835
0.334204 0.598230 -0.165102
0.338626 0.599851 -0.165477
-0.352894 0.604552 -0.168131
-0.350102 0.605506 -0.168345
-0.346927 0.605864 -0.168423
-0.343781 0.606347 -0.168528
-0.340240 0.606182 -0.168486
-0.336543 0.605778 -0.168390
-0.333492 0.606610 -0.168569
-0.329970 0.606617 -0.168562
-0.326618 0.606981 -0.168634
-0.323440 0.607715 -0.168788
-0.320456 0.608861 -0.169033
-0.317643 0.610388 -0.169363
-0.313751 0.609812 -0.169221
-0.310153 0.609815 -0.169208
-0.306413 0.609528 -0.169130
-0.302432 0.608726 -0.168937
-0.299387 0.609847 -0.169173
-0.295313 0.608804 -0.168925
-0.291909 0.609146 -0.168987
-0.288479 0.609415 -0.169032
-0.285144 0.609871 -0.169120
-0.281707 0.610081 -0.169152
-0.278008 0.609669 -0.169045
-0.274925 0.610619 -0.169244
-0.270761 0.609050 -0.168878
-0.267447 0.609394 -0.168942
-0.264611 0.610844 -0.169252
-0.260782 0.609891 -0.169026
-0.256874 0.608675 -0.168741
-0.253683 0.609157 -0.168837
-0.251066 0.611056 -0.169249
-0.247537 0.610630 -0.169142
-0.243920 0.609920 -0.168972
-0.240655 0.610065 -0.168994
-0.237532 0.610548 -0.169092
-0.234185 0.610390 -0.169046
-0.230537 0.609354 -0.168805
-0.227303 0.609395 -0.168805
-0.224369 0.610242 -0.168986
-0.221412 0.611004 -0.169148
-0.217903 0.610127 -0.168944
-0.214840 0.610505 -0.169021
-0.211981 0.611468 -0.169229
-0.208928 0.611823 -0.169302
-0.205316 0.610402 -0.168978
-0.202436 0.611211 -0.169153
-0.198989 0.610179 -0.168917
-0.196160 0.611096 -0.169117
-0.193165 0.611453 -0.169192
-0.189812 0.610566 -0.168990
-0.186863 0.611003 -0.169084
-0.183342 0.609409 -0.168724
-0.180999 0.611935 -0.169285
-0.177799 0.611393 -0.169162
-0.174653 0.610999 -0.169071
-0.171804 0.611674 -0.169220
-0.168781 0.611673 -0.169218
-0.165747 0.611595 -0.169199
-0.162805 0.611847 -0.169254
-0.159901 0.612236 -0.169340
-0.156963 0.612464 -0.169390
-0.153777 0.611618 -0.169201
-0.150836 0.611769 -0.169235
-0.147892 0.611887 -0.169261
-0.144915 0.611829 -0.169249
-0.141928 0.611698 -0.169221
-0.139025 0.611928 -0.169273
-0.136090 0.611994 -0.169289
-0.133097 0.611740 -0.169234
-0.130240 0.612150 -0.169327
-0.127322 0.612237 -0.169348
-0.124158 0.610972 -0.169068
-0.121423 0.612000 -0.169300
-0.118648 0.612835 -0.169489
-0.115725 0.612825 -0.169490
-0.112777 0.612643 -0.169452
-0.109834 0.612459 -0.169414
-0.106976 0.612789 -0.169491
-0.104117 0.613112 -0.169567
-0.101253 0.613409 -0.169637
-0.098301 0.613081 -0.169567
-0.095356 0.612771 -0.169502
-0.092446 0.612675 -0.169485
-0.089556 0.612721 -0.169499
-0.086752 0.613456 -0.169668
-0.083754 0.612589 -0.169478
-0.080855 0.612504 -0.169464
-0.078027 0.613057 -0.169592
-0.075101 0.612701 -0.169517
-0.072163 0.612166 -0.169403
-0.069284 0.612201 -0.169416
-0.066432 0.612530 -0.169494
-0.063571 0.612774 -0.169554
-0.060761 0.613679 -0.169762
-0.057874 0.613657 -0.169762
-0.054894 0.612292 -0.169463
-0.052018 0.612307 -0.169472
-0.049166 0.612733 -0.169572
-0.046413 0.615009 -0.170087
-0.043449 0.613503 -0.169756
-0.040502 0.612065 -0.169441
-0.037634 0.612211 -0.169479
-0.035036 0.619931 -0.171211
-0.032068 0.618114 -0.170811
-0.029109 0.615966 -0.170337
-0.026195 0.614917 -0.170109
-0.023264 0.612285 -0.169526
-0.020364 0.610180 -0.169062
-0.017503 0.610726 -0.169190
-0.014638 0.611410 -0.169350
-0.011767 0.611284 -0.169328
-0.008895 0.611593 -0.169404
-0.005918 0.620268 -0.171351
-0.003023 0.619151 -0.171107
-0.000177 0.616202 -0.170454
0.002644 0.613420 -0.169839
0.005484 0.612057 -0.169541
0.008444 0.614374 -0.170066
0.011418 0.616468 -0.170541
0.014201 0.613949 -0.169985
0.017088 0.613928 -0.169987
0.020149 0.617070 -0.170697
0.023028 0.616649 -0.170610
0.025749 0.613854 -0.169992
0.028605 0.613359 -0.169889
0.031503 0.613486 -0.169924
0.034624 0.616408 -0.170586
0.037643 0.617752 -0.170894
0.040731 0.619729 -0.171344
0.043576 0.618886 -0.171163
0.046315 0.617041 -0.170758
0.048921 0.614061 -0.170099
0.051769 0.613572 -0.169997
0.054744 0.614242 -0.170155
0.057839 0.615863 -0.170526
0.060328 0.612390 -0.169757
0.062778 0.608861 -0.168975
0.065616 0.608517 -0.168906
0.068663 0.609698 -0.169179
0.071687 0.610625 -0.169396
0.074479 0.609894 -0.169241
0.077392 0.609992 -0.169271
0.080362 0.610436 -0.169380
0.083978 0.614834 -0.170375
0.087366 0.617594 -0.171002
0.089267 0.611476 -0.169641
0.092039 0.610635 -0.169462
0.094653 0.608947 -0.169094
0.097241 0.607188 -0.168709
0.100390 0.608440 -0.169000
0.103402 0.608913 -0.169117
0.106318 0.608860 -0.169115
0.109446 0.609825 -0.169343
0.112611 0.610899 -0.169594
0.117578 0.620279 -0.171709
0.120141 0.618288 -0.171274
0.122267 0.614421 -0.170419
0.125021 0.613427 -0.170208
0.127453 0.611080 -0.169694
0.130209 0.610155 -0.169498
0.133813 0.612707 -0.170084
0.137043 0.613632 -0.170304
0.139940 0.613188 -0.170218
0.141605 0.607993 -0.169066
0.145214 0.610304 -0.169598
0.147129 0.606224 -0.168697
0.149973 0.605646 -0.168581
0.152680 0.604567 -0.168354
0.156261 0.606565 -0.168818
0.159979 0.608930 -0.169364
0.163286 0.609792 -0.169574
0.165594 0.607265 -0.169022
0.169149 0.608869 -0.169399
0.171723 0.607231 -0.169048
0.174262 0.605500 -0.168677
0.177614 0.606322 -0.168879
0.180548 0.605802 -0.168781
0.183303 0.604720 -0.168556
0.187122 0.606791 -0.169041
0.190232 0.606691 -0.169038
0.193919 0.608213 -0.169400
0.196819 0.607421 -0.169242
0.199902 0.607121 -0.169196
0.202875 0.606487 -0.169075
0.209107 0.614664 -0.170937
0.215261 0.622351 -0.172690
0.210631 0.601386 -0.167993
0.213628 0.600763 -0.167877
0.216040 0.598623 -0.167418
0.222144 0.605811 -0.169062
0.225551 0.606045 -0.169139
0.229550 0.607682 -0.169534
0.233453 0.608998 -0.169856
0.237676 0.610995 -0.170333
0.240737 0.610159 -0.170172
0.242049 0.605233 -0.169088
0.243888 0.601604 -0.168298
0.247093 0.601116 -0.168216
0.250705 0.601507 -0.168333
0.253714 0.600519 -0.168139
0.257833 0.601927 -0.168486
0.262096 0.603571 -0.168887
0.265703 0.603741 -0.168956
0.270427 0.606212 -0.169545
0.274238 0.606695 -0.169685
0.277836 0.606700 -0.169717
0.280453 0.604693 -0.169295
0.283103 0.602772 -0.168892
0.287290 0.603903 -0.169179
0.291779 0.605571 -0.169588
0.293328 0.601529 -0.168704
0.296008 0.599720 -0.168326
0.299617 0.599690 -0.168349
0.304356 0.601755 -0.168847
0.308820 0.603272 -0.169219
0.312795 0.603873 -0.169384
0.315770 0.602679 -0.169142
0.321791 0.606942 -0.170135
0.326875 0.609489 -0.170738
0.330952 0.610266 -0.170940
0.330110 0.602600 -0.169225
0.329578 0.595664 -0.167674
0.332300 0.594400 -0.167407
0.340585 0.602501 -0.169264
-0.354284 0.606337 -0.171715
-0.350758 0.606017 -0.171639
-0.347410 0.606076 -0.171649
-0.343998 0.606087 -0.171645
-0.340738 0.606432 -0.171716
-0.337317 0.606543 -0.171732
-0.333741 0.606414 -0.171691
-0.330429 0.606819 -0.171771
-0.326924 0.606899 -0.171776
-0.324126 0.608366 -0.172097
-0.321024 0.609298 -0.172294
-0.317785 0.609996 -0.172437
-0.313997 0.609630 -0.172335
-0.310322 0.609485 -0.172283
-0.306273 0.608572 -0.172054
-0.302776 0.608765 -0.172079
-0.299278 0.608949 -0.172101
-0.295773 0.609105 -0.172117
-0.292358 0.609436 -0.172172
-0.289112 0.610116 -0.172307
-0.285675 0.610368 -0.172345
-0.281881 0.609799 -0.172194
-0.278629 0.610401 -0.172312
-0.274695 0.609423 -0.172068
-0.271503 0.610100 -0.172204
-0.267852 0.609677 -0.172088
-0.264572 0.610083 -0.172162
-0.261508 0.610977 -0.172348
-0.257643 0.609892 -0.172082
-0.254385 0.610239 -0.172144
-0.250568 0.609140 -0.171875
-0.247919 0.610946 -0.172272
-0.244714 0.611315 -0.172341
-0.240880 0.609998 -0.172024
-0.237701 0.610342 -0.172088
-0.234385 0.610276 -0.172059
-0.231029 0.610052 -0.171994
-0.227566 0.609477 -0.171849
-0.224603 0.610253 -0.172014
-0.221406 0.610333 -0.172020
-0.217775 0.609105 -0.171728
-0.214851 0.609890 -0.171896
-0.212039 0.610994 -0.172138
-0.208952 0.611246 -0.172186
-0.205816 0.611313 -0.172191
-0.202705 0.611415 -0.172206
-0.199456 0.611040 -0.172112
-0.196288 0.610873 -0.172066
-0.193104 0.610606 -0.171997
-0.190066 0.610787 -0.172032
-0.187037 0.610963 -0.172065
-0.183978 0.611006 -0.172069
-0.180973 0.611204 -0.172109
-0.178216 0.612273 -0.172348
-0.174938 0.611417 -0.172148
-0.171917 0.611466 -0.172155
-0.168952 0.611696 -0.172203
-0.165858 0.611395 -0.172131
-0.163016 0.612058 -0.172279
-0.160060 0.612248 -0.172320
-0.157037 0.612141 -0.172293
-0.154097 0.612347 -0.172338
-0.151004 0.611870 -0.172228
-0.147977 0.611634 -0.172173
-0.145013 0.611642 -0.172174
-0.142082 0.611782 -0.172205
-0.139149 0.611888 -0.172229
-0.136254 0.612162 -0.172291
-0.133272 0.611984 -0.172251
-0.130388 0.612281 -0.172319
-0.127511 0.612600 -0.172393
-0.124554 0.612481 -0.172367
-0.121442 0.611473 -0.172138
-0.118627 0.612081 -0.172279
-0.115757 0.612377 -0.172348
-0.112789 0.612080 -0.172282
-0.109975 0.612702 -0.172427
-0.107034 0.612525 -0.172389
-0.104163 0.612786 -0.172451
-0.101324 0.613260 -0.172562
-0.098441 0.613434 -0.172605
-0.095479 0.613030 -0.172517
-0.092514 0.612558 -0.172412
-0.089608 0.612494 -0.172401
-0.086685 0.612267 -0.172353
-0.083807 0.612397 -0.172387
-0.080985 0.613016 -0.172533
-0.078122 0.613296 -0.172601
-0.075117 0.612205 -0.172356
-0.072196 0.611848 -0.172279
-0.069323 0.611966 -0.172311
-0.066474 0.612345 -0.172403
-0.063672 0.613319 -0.172630
-0.060813 0.613675 -0.172716
-0.057939 0.613871 -0.172766
-0.054935 0.612202 -0.172390
-0.052083 0.612642 -0.172497
-0.049295 0.614203 -0.172859
-0.046404 0.614155 -0.172853
-0.043435 0.612532 -0.172488
-0.040558 0.612582 -0.172506
-0.037679 0.612591 -0.172514
-0.035097 0.620889 -0.174415
-0.032158 0.620220 -0.174269
-0.029179 0.617807 -0.173724
-0.026238 0.616053 -0.173329
-0.023288 0.612821 -0.172597
-0.020383 0.610665 -0.172111
-0.017513 0.610668 -0.172118
-0.014645 0.611567 -0.172330
-0.011768 0.612911 -0.172643
-0.008891 0.612270 -0.172504
-0.005894 0.622115 -0.174761
-0.003011 0.619581 -0.174188
-0.000115 0.618785 -0.174013
0.002720 0.615926 -0.173367
0.005765 0.620640 -0.174452
0.008496 0.615407 -0.173263
0.011391 0.615386 -0.173265
0.014253 0.614633 -0.173100
0.017166 0.615013 -0.173194
0.020084 0.615410 -0.173292
0.022843 0.613092 -0.172770
0.025601 0.611083 -0.172318
0.028479 0.611049 -0.172318
0.031464 0.612462 -0.172649
0.034817 0.618323 -0.173997
0.037955 0.620945 -0.174605
0.040795 0.619923 -0.174379
0.043893 0.621736 -0.174802
0.046449 0.617873 -0.173927
0.049142 0.615672 -0.173432
0.051886 0.614128 -0.173087
0.054816 0.614343 -0.173145
0.058102 0.617550 -0.173887
0.060585 0.613947 -0.173072
0.062762 0.608196 -0.171764
0.065660 0.608310 -0.171799
0.068802 0.610171 -0.172235
0.071737 0.610430 -0.172303
0.074637 0.610426 -0.172312
0.077333 0.609057 -0.172008
0.080288 0.609410 -0.172099
0.083956 0.614142 -0.173193
0.087446 0.617508 -0.173974
0.089793 0.613992 -0.173179
0.092664 0.613624 -0.173106
0.094746 0.608899 -0.172034
0.097315 0.607023 -0.171616
0.100327 0.607547 -0.171747
0.103375 0.608212 -0.171911
0.106495 0.609178 -0.172144
0.109601 0.610012 -0.172347
0.114304 0.618379 -0.174277
0.117615 0.619873 -0.174632
0.120786 0.620638 -0.174821
0.123500 0.619318 -0.174532
0.125873 0.616551 -0.173911
0.128224 0.613783 -0.173290
0.130005 0.608725 -0.172145
0.132596 0.607156 -0.171799
0.136594 0.611254 -0.172754
0.139343 0.610261 -0.172541
0.142366 0.610335 -0.172574
0.145065 0.609156 -0.172319
0.147419 0.606717 -0.171776
0.149811 0.604473 -0.171278
0.153495 0.606893 -0.171850
0.156642 0.607311 -0.171964
0.159751 0.607556 -0.172038
0.164783 0.614263 -0.173596
0.167440 0.612810 -0.173281
0.169703 0.610085 -0.172675
0.172575 0.609374 -0.172532
0.175209 0.607901 -0.172214
0.177806 0.606322 -0.171872
0.182422 0.610938 -0.172954
0.182609 0.602027 -0.170927
0.186273 0.603671 -0.171328
0.190109 0.605726 -0.171823
0.193788 0.607227 -0.172192
0.197033 0.607416 -0.172259
0.199881 0.606450 -0.172062
0.203388 0.607283 -0.172279
0.209116 0.614067 -0.173866
0.210413 0.608784 -0.172677
0.211473 0.602987 -0.171369
0.213746 0.600457 -0.170814
0.217868 0.602682 -0.171354
0.221827 0.604389 -0.171776
0.225733 0.605875 -0.172148
0.228896 0.605452 -0.172081
0.232609 0.606326 -0.172314
0.238700 0.612804 -0.173839
0.241926 0.612321 -0.173760
0.243872 0.608835 -0.172989
0.246590 0.607164 -0.172637
0.248561 0.603805 -0.171895
0.250626 0.600700 -0.171213
0.255042 0.602810 -0.171735
0.260026 0.606061 -0.172521
0.263598 0.606156 -0.172579
0.266361 0.604496 -0.172231
0.269164 0.602926 -0.171905
0.274579 0.606755 -0.172828
0.278108 0.606608 -0.172831
0.282054 0.607275 -0.173023
0.286231 0.608358 -0.173311
0.288682 0.605996 -0.172802
0.291018 0.603445 -0.172249
0.297186 0.608298 -0.173410
0.296672 0.600341 -0.171604
0.299796 0.599385 -0.171418
0.304674 0.601703 -0.171991
0.309198 0.603321 -0.172401
0.312838 0.603308 -0.172433
0.316366 0.603108 -0.172420
0.320268 0.603594 -0.172565
0.326985 0.609036 -0.173858
0.332983 0.613146 -0.174842
0.333363 0.607555 -0.173572
0.332606 0.600187 -0.171888
0.334088 0.596788 -0.171122
0.340228 0.601275 -0.172186
-0.355549 0.607893 -0.175271
-0.350718 0.605298 -0.174657
-0.347485 0.605558 -0.174712
-0.344081 0.605581 -0.174708
-0.340575 0.605478 -0.174673
-0.337403 0.606038 -0.174791
-0.332517 0.603481 -0.174176
-0.330014 0.605373 -0.174603
-0.327776 0.607842 -0.175164
-0.324488 0.608384 -0.175271
-0.321256 0.609069 -0.175411
-0.317380 0.608523 -0.175260
-0.314124 0.609202 -0.175396
-0.310330 0.608818 -0.175282
-0.306940 0.609245 -0.175357
-0.302613 0.607747 -0.174981
-0.299317 0.608346 -0.175096
-0.296380 0.609702 -0.175388
-0.293012 0.610151 -0.175467
-0.289532 0.610342 -0.175486
-0.285985 0.610364 -0.175465
-0.281741 0.608803 -0.175073
-0.278639 0.609741 -0.175267
-0.275361 0.610263 -0.175364
-0.271709 0.609896 -0.175253
-0.268228 0.609880 -0.175225
-0.264946 0.610292 -0.175298
-0.261048 0.609188 -0.175016
-0.257563 0.609021 -0.174954
-0.254392 0.609580 -0.175062
-0.251087 0.609770 -0.175085
-0.247941 0.610327 -0.175194
-0.244243 0.609425 -0.174962
-0.241043 0.609754 -0.175019
-0.237846 0.610057 -0.175071
-0.235352 0.612221 -0.175558
-0.231152 0.609723 -0.174956
-0.227976 0.609954 -0.174993
-0.224706 0.609881 -0.174959
-0.221540 0.610054 -0.174984
-0.217766 0.608418 -0.174586
-0.214826 0.609157 -0.174745
-0.212102 0.610523 -0.175049
-0.208946 0.610570 -0.175047
-0.205791 0.610576 -0.175036
-0.202682 0.610689 -0.175050
-0.199398 0.610199 -0.174924
-0.196135 0.609720 -0.174802
-0.193184 0.610221 -0.174908
-0.190106 0.610270 -0.174910
-0.186867 0.609728 -0.174774
-0.183966 0.610312 -0.174902
-0.181194 0.611344 -0.175135
-0.178310 0.611968 -0.175273
-0.175066 0.611247 -0.175098
-0.172033 0.611259 -0.175094
-0.168850 0.610656 -0.174948
-0.165898 0.610907 -0.175001
-0.163071 0.611635 -0.175165
-0.160268 0.612459 -0.175353
-0.157201 0.612180 -0.175284
-0.154226 0.612256 -0.175298
-0.151359 0.612769 -0.175414
-0.148219 0.612067 -0.175248
-0.145266 0.612152 -0.175265
-0.142093 0.611192 -0.175039
-0.139287 0.611908 -0.175204
-0.136456 0.612505 -0.175342
-0.133495 0.612458 -0.175330
-0.130569 0.612569 -0.175356
-0.127663 0.612760 -0.175400
-0.124630 0.612251 -0.175281
-0.121816 0.612905 -0.175434
-0.118713 0.611931 -0.175208
-0.115768 0.611805 -0.175179
-0.112997 0.612694 -0.175388
-0.110012 0.612292 -0.175296
-0.107151 0.612633 -0.175377
-0.104183 0.612274 -0.175295
-0.101329 0.612650 -0.175385
-0.098484 0.613096 -0.175492
-0.095526 0.612733 -0.175410
-0.092527 0.612014 -0.175245
-0.089613 0.611890 -0.175219
-0.086694 0.611701 -0.175179
-0.083869 0.612275 -0.175316
-0.081032 0.612780 -0.175438
-0.078109 0.612519 -0.175381
-0.075157 0.611943 -0.175250
-0.072240 0.611643 -0.175185
-0.069375 0.611864 -0.175241
-0.066543 0.612462 -0.175385
-0.063737 0.613430 -0.175616
-0.060882 0.613881 -0.175726
-0.057899 0.612665 -0.175447
-0.054973 0.612076 -0.175315
-0.052092 0.612097 -0.175325
-0.049259 0.612896 -0.175517
-0.046353 0.612519 -0.175435
-0.043417 0.611463 -0.175194
-0.040606 0.612911 -0.175538
-0.037746 0.613509 -0.175683
-0.035166 0.622041 -0.177680
-0.032199 0.620762 -0.177388
-0.029216 0.618385 -0.176839
-0.026254 0.615931 -0.176273
-0.023318 0.613666 -0.175751
-0.020401 0.611070 -0.175151
-0.017518 0.609948 -0.174896
-0.014650 0.610227 -0.174968
-0.011776 0.611558 -0.175285
-0.008897 0.611692 -0.175323
-0.005866 0.624349 -0.178286
-0.002962 0.622301 -0.177814
-0.000103 0.619000 -0.177051
0.002887 0.621865 -0.177727
0.005779 0.620706 -0.177464
0.008585 0.617451 -0.176711
0.011410 0.615386 -0.176236
0.014307 0.615340 -0.176233
0.017121 0.613660 -0.175848
0.019961 0.612705 -0.175633
0.022753 0.611108 -0.175268
0.025569 0.610090 -0.175038
0.028370 0.608988 -0.174788
0.031333 0.610198 -0.175079
0.034576 0.614766 -0.176155
0.038048 0.621526 -0.177743
0.041185 0.623777 -0.178277
0.044174 0.624205 -0.178386
0.046886 0.621765 -0.177825
0.049357 0.617214 -0.176770
0.052158 0.616097 -0.176518
0.055011 0.615522 -0.176393
0.057706 0.613644 -0.175963
0.060213 0.610372 -0.175208
0.062832 0.608201 -0.174710
0.065894 0.609527 -0.175030
0.068904 0.610362 -0.175235
0.071771 0.610120 -0.175188
0.074652 0.609975 -0.175165
0.077552 0.609945 -0.175168
0.080711 0.611554 -0.175555
0.083942 0.613493 -0.176020
0.086863 0.613442 -0.176019
0.090079 0.615096 -0.176418
0.092685 0.613180 -0.175981
0.095158 0.610612 -0.175392
0.097370 0.606756 -0.174502
0.100473 0.607748 -0.174747
0.103219 0.606845 -0.174548
0.106482 0.608543 -0.174959
0.109678 0.609812 -0.175269
0.113151 0.612318 -0.175870
0.117510 0.618799 -0.177401
0.120511 0.618802 -0.177417
0.123241 0.617581 -0.177146
0.126855 0.620225 -0.177780
0.129062 0.616754 -0.176983
0.130721 0.611124 -0.175680
0.132751 0.607206 -0.174778
0.135914 0.607946 -0.174968
0.139404 0.609910 -0.175445
0.142279 0.609410 -0.175346
0.145032 0.608442 -0.175137
0.147937 0.608040 -0.175061
0.150929 0.607942 -0.175057
0.154132 0.608567 -0.175223
0.156685 0.606866 -0.174844
0.161303 0.612292 -0.176137
0.165113 0.614769 -0.176739
0.168030 0.614163 -0.176619
0.170796 0.613048 -0.176380
0.173696 0.612369 -0.176243
0.174364 0.604624 -0.174448
0.179593 0.611268 -0.176032
0.182750 0.611328 -0.176071
0.182519 0.601151 -0.173705
0.186598 0.604023 -0.174405
0.189924 0.604572 -0.174561
0.193883 0.606884 -0.175131
0.197074 0.606911 -0.175165
0.200410 0.607305 -0.175286
0.203765 0.607697 -0.175407
0.208453 0.611641 -0.176365
0.211279 0.610463 -0.176119
0.212621 0.605380 -0.174954
0.215101 0.603342 -0.174506
0.217667 0.601541 -0.174115
0.220782 0.601127 -0.174050
0.224863 0.603081 -0.174545
0.228603 0.604098 -0.174819
0.232168 0.604623 -0.174979
0.238751 0.612277 -0.176820
0.241756 0.611273 -0.176620
0.244675 0.610051 -0.176371
0.248704 0.611356 -0.176717
0.251628 0.610087 -0.176458
0.252554 0.604354 -0.175145
0.255757 0.603736 -0.175039
0.261325 0.608229 -0.176141
0.264826 0.608135 -0.176161
0.263988 0.598820 -0.174002
0.268332 0.600533 -0.174449
0.272930 0.602694 -0.175003
0.279287 0.608353 -0.176385
0.281506 0.605512 -0.175757
0.285810 0.606860 -0.176119
0.288766 0.605501 -0.175841
0.291477 0.603679 -0.175454
0.295458 0.604321 -0.175649
0.300965 0.607828 -0.176523
0.298166 0.595678 -0.173685
0.305433 0.602456 -0.175334
0.309407 0.603050 -0.175515
0.313088 0.603108 -0.175569
0.316601 0.602877 -0.175553
0.320108 0.602660 -0.175538
0.328002 0.610165 -0.177356
0.332628 0.611874 -0.177797
0.335157 0.609985 -0.177381
0.333150 0.600474 -0.175151
0.335049 0.597774 -0.174537
0.339028 0.598644 -0.174768
-0.351132 0.599561 -0.176475
-0.350018 0.603415 -0.177395
-0.347469 0.604872 -0.177736
-0.343994 0.604762 -0.177698
-0.340500 0.604676 -0.177663
-0.336870 0.604392 -0.177578
-0.334649 0.606756 -0.178127
-0.329758 0.604216 -0.177496
-0.327676 0.606972 -0.178135
-0.324715 0.608133 -0.178389
-0.321241 0.608352 -0.178415
-0.317629 0.608320 -0.178380
-0.313686 0.607641 -0.178189
-0.310563 0.608592 -0.178387
-0.307421 0.609529 -0.178582
-0.303747 0.609385 -0.178516
-0.300047 0.609172 -0.178434
-0.296457 0.609167 -0.178401
-0.293071 0.609578 -0.178468
-0.289622 0.609838 -0.178499
-0.285940 0.609566 -0.178402
-0.282362 0.609486 -0.178351
-0.278879 0.609584 -0.178344
-0.275352 0.609546 -0.178304
-0.271954 0.609768 -0.178326
-0.268621 0.610106 -0.178377
-0.265087 0.609934 -0.178307
-0.261685 0.610033 -0.178302
-0.257433 0.608014 -0.177791
-0.254410 0.608934 -0.177984
-0.251369 0.609792 -0.178162
-0.248184 0.610259 -0.178248
-0.244968 0.610612 -0.178307
-0.240874 0.608630 -0.177809
-0.237647 0.608845 -0.177836
-0.234844 0.610167 -0.178129
-0.231461 0.609891 -0.178041
-0.227825 0.608856 -0.177773
-0.224763 0.609363 -0.177873
-0.221655 0.609712 -0.177937
-0.218433 0.609690 -0.177912
-0.215468 0.610385 -0.178060
-0.212238 0.610263 -0.178013
-0.208870 0.609668 -0.177855
-0.205794 0.609920 -0.177899
-0.202723 0.610150 -0.177939
-0.199078 0.608506 -0.177532
-0.196227 0.609355 -0.177721
-0.193443 0.610419 -0.177961
-0.190414 0.610650 -0.178004
-0.186819 0.608906 -0.177576
-0.184040 0.609914 -0.177805
-0.181391 0.611387 -0.178146
-0.178306 0.611294 -0.178114
-0.175338 0.611595 -0.178176
-0.172138 0.610997 -0.178025
-0.168984 0.610520 -0.177903
-0.165966 0.610523 -0.177896
-0.163214 0.611554 -0.178135
-0.160358 0.612171 -0.178275
-0.157541 0.612945 -0.178454
-0.154480 0.612686 -0.178387
-0.151406 0.612327 -0.178296
-0.148436 0.612385 -0.178306
-0.145241 0.611393 -0.178065
-0.142437 0.612147 -0.178242
-0.139395 0.611772 -0.178149
-0.136493 0.612042 -0.178211
-0.133599 0.612334 -0.178278
-0.130744 0.612814 -0.178391
-0.127820 0.612936 -0.178418
-0.124754 0.612273 -0.178259
-0.121831 0.612346 -0.178276
-0.119047 0.613183 -0.178475
-0.115931 0.612111 -0.178220
-0.112978 0.611932 -0.178178
-0.110118 0.612306 -0.178267
-0.107243 0.612579 -0.178333
-0.104377 0.612912 -0.178414
-0.101334 0.612035 -0.178207
-0.098541 0.612852 -0.178403
-0.095524 0.612066 -0.178218
-0.092567 0.611669 -0.178126
-0.089655 0.611571 -0.178105
-0.086795 0.611875 -0.178181
-0.083948 0.612296 -0.178284
-0.081067 0.612433 -0.178320
-0.078138 0.612134 -0.178253
-0.075213 0.611823 -0.178182
-0.072314 0.611738 -0.178166
-0.069435 0.611840 -0.178195
-0.066615 0.612605 -0.178381
-0.063735 0.612733 -0.178416
-0.060851 0.612822 -0.178442
-0.057947 0.612626 -0.178400
-0.055014 0.611980 -0.178251
-0.052122 0.611866 -0.178229
-0.049244 0.611960 -0.178257
-0.046349 0.611750 -0.178212
-0.043448 0.611369 -0.178127
-0.040625 0.612608 -0.178428
-0.037760 0.613106 -0.178553
-0.035126 0.620152 -0.180238
-0.032191 0.619679 -0.180131
-0.029205 0.617152 -0.179535
-0.026279 0.616246 -0.179326
-0.023342 0.614133 -0.178829
-0.020377 0.608022 -0.177379
-0.017524 0.609327 -0.177696
-0.014654 0.609108 -0.177651
-0.011783 0.610325 -0.177948
-0.008916 0.609323 -0.177716
-0.005894 0.621992 -0.180744
-0.003015 0.618920 -0.180018
-0.000199 0.614295 -0.178923
0.002711 0.614861 -0.179065
0.005684 0.617266 -0.179647
0.008582 0.616939 -0.179576
0.011599 0.619559 -0.180209
0.014356 0.615968 -0.179360
0.017099 0.612740 -0.178598
0.019907 0.611247 -0.178250
0.022868 0.612528 -0.178564
0.025694 0.611509 -0.178329
0.028480 0.610058 -0.177991
0.031238 0.608410 -0.177607
0.034143 0.608792 -0.177706
0.037227 0.611255 -0.178303
0.040345 0.613807 -0.178921
0.043463 0.616091 -0.179475
0.046443 0.616732 -0.179637
0.049402 0.617104 -0.179736
0.052284 0.616722 -0.179654
0.054961 0.614542 -0.179144
0.057704 0.613084 -0.178805
0.060311 0.610621 -0.178228
0.062903 0.608212 -0.177663
0.066030 0.610003 -0.178101
0.068900 0.609777 -0.178057
0.071856 0.610159 -0.178160
0.074887 0.611011 -0.178374
0.077845 0.611310 -0.178457
0.080784 0.611456 -0.178504
0.083969 0.613091 -0.178906
0.087007 0.613738 -0.179073
0.089984 0.613967 -0.179140
0.093130 0.615127 -0.179430
0.095908 0.614174 -0.179216
0.097256 0.605574 -0.177174
0.100125 0.605355 -0.177135
0.103501 0.607711 -0.177712
0.106580 0.608453 -0.177904
0.109728 0.609477 -0.178163
0.112881 0.610454 -0.178412
0.115952 0.610984 -0.178554
0.119059 0.611627 -0.178724
0.122621 0.614241 -0.179365
0.125699 0.614616 -0.179472
0.129611 0.618489 -0.180416
0.131744 0.614782 -0.179547
0.133326 0.608956 -0.178170
0.136257 0.608724 -0.178133
0.139696 0.610459 -0.178568
0.142991 0.611544 -0.178847
0.146005 0.611504 -0.178858
0.148464 0.609387 -0.178371
0.151472 0.609307 -0.178373
0.153489 0.605674 -0.177525
0.156850 0.606837 -0.177826
0.160847 0.610115 -0.178634
0.164247 0.611230 -0.178925
0.166675 0.609047 -0.178426
0.171727 0.615468 -0.179990
0.174533 0.614432 -0.179768
0.177463 0.613789 -0.179640
0.180779 0.614326 -0.179796
0.182012 0.608448 -0.178413
0.182549 0.600626 -0.176565
0.185641 0.600570 -0.176580
0.190616 0.605965 -0.177905
0.193949 0.606445 -0.178050
0.197241 0.606755 -0.178156
0.200817 0.607805 -0.178441
0.204051 0.607846 -0.178484
0.207889 0.609475 -0.178909
0.211688 0.610912 -0.179289
0.215597 0.612552 -0.179720
0.217659 0.609322 -0.178979
0.217805 0.601256 -0.177076
0.221070 0.601214 -0.177104
0.224496 0.601527 -0.177218
0.228293 0.602694 -0.177538
0.232181 0.604006 -0.177895
0.236139 0.605402 -0.178273
0.239977 0.606435 -0.178564
0.242676 0.604760 -0.178204
0.247248 0.607364 -0.178876
0.251046 0.608109 -0.179100
0.254406 0.607817 -0.179076
0.257081 0.605985 -0.178680
0.261111 0.607099 -0.178996
0.262357 0.602180 -0.177856
0.264241 0.598697 -0.177062
0.267835 0.598835 -0.177144
0.273650 0.603512 -0.178323
0.276385 0.601770 -0.177951
0.280152 0.602118 -0.178085
0.283803 0.602199 -0.178154
0.289425 0.606124 -0.179154
0.290870 0.601833 -0.178165
0.294001 0.600858 -0.177978
0.297573 0.600730 -0.177995
0.301637 0.601519 -0.178235
0.305421 0.601768 -0.178342
0.309641 0.602812 -0.178642
0.313970 0.604039 -0.178985
0.317445 0.603725 -0.178953
0.320352 0.602433 -0.178682
0.327924 0.609364 -0.180406
0.331956 0.610045 -0.180610
0.330952 0.602118 -0.178720
0.331127 0.596396 -0.177363
0.330231 0.589041 -0.175606
0.344338 0.606843 -0.179963
-0.352220 0.600806 -0.179949
-0.350168 0.603022 -0.180486
-0.347084 0.603526 -0.180598
-0.344631 0.605236 -0.181004
-0.341350 0.605542 -0.181061
-0.339149 0.607884 -0.181616
-0.334764 0.606285 -0.181201
-0.331312 0.606437 -0.181213
-0.327858 0.606625 -0.181232
-0.324859 0.607715 -0.181470
-0.321289 0.607747 -0.181447
-0.317640 0.607640 -0.181388
-0.314010 0.607580 -0.181340
-0.310762 0.608287 -0.181479
-0.307353 0.608683 -0.181540
-0.304098 0.609397 -0.181679
-0.300805 0.610040 -0.181799
-0.297220 0.610065 -0.181768
-0.292852 0.608401 -0.181323
-0.289381 0.608607 -0.181336
-0.286059 0.609118 -0.181424
-0.282735 0.609604 -0.181506
-0.279551 0.610384 -0.181660
-0.274717 0.607391 -0.180892
-0.272426 0.610149 -0.181530
-0.268912 0.610079 -0.181478
-0.265120 0.609307 -0.181254
-0.261606 0.609137 -0.181179
-0.258316 0.609466 -0.181226
-0.255015 0.609730 -0.181258
-0.251939 0.610521 -0.181420
-0.248440 0.610210 -0.181313
-0.245194 0.610498 -0.181353
-0.241915 0.610661 -0.181364
-0.237824 0.608624 -0.180839
-0.234406 0.608291 -0.180730
-0.231956 0.610556 -0.181256
-0.228592 0.610299 -0.181168
-0.224751 0.608643 -0.180740
-0.221761 0.609330 -0.180883
-0.218764 0.609971 -0.181017
-0.215690 0.610358 -0.181089
-0.212675 0.610892 -0.181198
-0.208973 0.609304 -0.180791
-0.206023 0.609952 -0.180930
-0.203335 0.611403 -0.181265
-0.199754 0.610000 -0.180905
-0.196982 0.611145 -0.181167
-0.193720 0.610665 -0.181034
-0.190711 0.610982 -0.181096
-0.187742 0.611409 -0.181185
-0.184204 0.609819 -0.180785
-0.181469 0.610997 -0.181058
-0.178490 0.611296 -0.181119
-0.175340 0.610937 -0.181020
-0.172302 0.610953 -0.181013
-0.169408 0.611487 -0.181132
-0.166752 0.612938 -0.181476
-0.163383 0.611567 -0.181133
-0.160568 0.612368 -0.181320
-0.157612 0.612581 -0.181364
-0.154621 0.612624 -0.181367
-0.151548 0.612286 -0.181278
-0.148362 0.611396 -0.181056
-0.145398 0.611451 -0.181063
-0.142425 0.611432 -0.181054
-0.139585 0.612022 -0.181193
-0.136422 0.611041 -0.180950
-0.133557 0.611471 -0.181051
-0.130815 0.612525 -0.181305
-0.127855 0.612464 -0.181287
-0.124687 0.611262 -0.180993
-0.121820 0.611630 -0.181081
-0.118936 0.611903 -0.181146
-0.116055 0.612182 -0.181213
-0.112992 0.611367 -0.181014
-0.110137 0.611770 -0.181112
-0.107389 0.612856 -0.181376
-0.104487 0.612979 -0.181407
-0.101446 0.612146 -0.181205
-0.098519 0.612043 -0.181181
-0.095646 0.612307 -0.181247
-0.092624 0.611444 -0.181039
-0.089715 0.611380 -0.181026
-0.086842 0.611597 -0.181081
-0.084022 0.612266 -0.181246
-0.081105 0.612110 -0.181211
-0.078196 0.612007 -0.181189
-0.075295 0.611960 -0.181181
-0.072393 0.611874 -0.181164
-0.069534 0.612233 -0.181255
-0.066656 0.612394 -0.181298
-0.063793 0.612754 -0.181390
-0.060872 0.612402 -0.181309
-0.057983 0.612424 -0.181319
-0.055070 0.612099 -0.181245
-0.052182 0.612100 -0.181250
-0.049355 0.613111 -0.181501
-0.046383 0.611646 -0.181150
-0.043528 0.612237 -0.181300
-0.040637 0.612124 -0.181278
-0.037752 0.612159 -0.181292
-0.035075 0.617949 -0.182707
-0.032101 0.615990 -0.182236
-0.029227 0.617118 -0.182517
-0.026311 0.616807 -0.182448
-0.023371 0.614899 -0.181990
-0.020474 0.615027 -0.182028
-0.017592 0.617383 -0.182608
-0.014676 0.615056 -0.182049
-0.011779 0.614085 -0.181819
-0.008897 0.612253 -0.181381
-0.006042 0.609663 -0.180758
-0.003135 0.611542 -0.181222
-0.000249 0.611665 -0.181260
0.002660 0.612552 -0.181483
0.005569 0.613180 -0.181644
0.008664 0.618767 -0.183012
0.011631 0.619907 -0.183298
0.014455 0.617654 -0.182757
0.017107 0.612427 -0.181493
0.019988 0.612225 -0.181452
0.023102 0.615908 -0.182357
0.026123 0.617618 -0.182783
0.028775 0.613785 -0.181858
0.031390 0.609939 -0.180930
0.034028 0.606838 -0.180184
0.037061 0.608762 -0.180662
0.039865 0.607898 -0.180461
0.042705 0.607485 -0.180370
0.045816 0.609845 -0.180954
0.049249 0.615087 -0.182241
0.052445 0.617652 -0.182877
0.055340 0.617333 -0.182809
0.058017 0.615182 -0.182296
0.061164 0.617005 -0.182751
0.063156 0.609640 -0.180967
0.066026 0.609414 -0.180923
0.069016 0.610063 -0.181093
0.071939 0.610188 -0.181135
0.074952 0.610892 -0.181319
0.077912 0.611187 -0.181403
0.080912 0.611702 -0.181541
0.084462 0.615570 -0.182497
0.088075 0.619567 -0.183485
0.090655 0.617299 -0.182946
0.093122 0.614502 -0.182277
0.095329 0.610405 -0.181292
0.098193 0.610027 -0.181214
0.100942 0.609047 -0.180990
0.104775 0.613624 -0.182122
0.107805 0.613964 -0.182221
0.110435 0.612322 -0.181836
0.112026 0.605810 -0.180263
0.115460 0.608114 -0.180842
0.118371 0.607923 -0.180813
0.121359 0.608053 -0.180863
0.124561 0.609082 -0.181132
0.129567 0.617699 -0.183256
0.131353 0.612556 -0.182019
0.133505 0.609087 -0.181191
0.136375 0.608592 -0.181091
0.139849 0.610450 -0.181566
0.143253 0.611940 -0.181952
0.146287 0.611957 -0.181978
0.149088 0.611081 -0.181787
0.150929 0.606729 -0.180746
0.153798 0.606164 -0.180632
0.156685 0.605648 -0.180530
0.159660 0.605424 -0.180501
0.162873 0.605975 -0.180662
0.165914 0.605906 -0.180671
0.171040 0.612599 -0.182338
0.175063 0.615500 -0.183077
0.178755 0.617229 -0.183529
0.181418 0.615673 -0.183179
0.182985 0.610787 -0.182013
0.182977 0.601287 -0.179716
0.188417 0.608151 -0.181431
0.191062 0.606629 -0.181091
0.194262 0.606704 -0.181144
0.196939 0.605264 -0.180826
0.200742 0.606954 -0.181276
0.204795 0.609238 -0.181874
0.208127 0.609469 -0.181968
0.211895 0.610809 -0.182336
0.215586 0.611865 -0.182636
0.218261 0.610225 -0.182274
0.220091 0.606430 -0.181384
0.226106 0.613211 -0.183093
0.229007 0.612048 -0.182851
0.229715 0.605510 -0.181288
0.231934 0.602749 -0.180655
0.235591 0.603435 -0.180870
0.239034 0.603559 -0.180948
0.242176 0.602936 -0.180843
0.245689 0.603133 -0.180941
0.252622 0.610986 -0.182927
0.254071 0.606397 -0.181847
0.257630 0.606515 -0.181928
0.260666 0.605455 -0.181720
0.262837 0.602533 -0.181052
0.264929 0.599479 -0.180352
0.270072 0.602825 -0.181233
0.273368 0.602253 -0.181147
0.276414 0.601153 -0.180930
0.280098 0.601331 -0.181030
0.283737 0.601388 -0.181099
0.290500 0.607549 -0.182680
0.291894 0.603138 -0.181644
0.293730 0.599663 -0.180839
0.297862 0.600601 -0.181126
0.302071 0.601654 -0.181440
0.306138 0.602419 -0.181683
0.310013 0.602818 -0.181834
0.314725 0.604730 -0.182360
0.317761 0.603620 -0.182133
0.320522 0.602067 -0.181795
0.329801 0.611974 -0.184301
0.327673 0.601965 -0.181858
0.327780 0.596028 -0.180423
0.326793 0.588404 -0.178565
0.331201 0.590035 -0.179005
0.334101 0.589182 -0.178824
-0.356533 0.607638 -0.184846
-0.350510 0.602963 -0.183663
-0.347261 0.603174 -0.183702
-0.344062 0.603544 -0.183778
-0.341666 0.605434 -0.184232
-0.338386 0.605802 -0.184301
-0.334888 0.605824 -0.184280
-0.331394 0.605896 -0.184269
-0.328294 0.606748 -0.184451
-0.325159 0.607584 -0.184627
-0.321661 0.607759 -0.184635
-0.317865 0.607370 -0.184500
-0.314668 0.608169 -0.184661
-0.310917 0.607881 -0.184549
-0.307544 0.608352 -0.184626
-0.304322 0.609138 -0.184781
-0.301003 0.609729 -0.184886
-0.296687 0.608221 -0.184466
-0.293348 0.608737 -0.184552
-0.289973 0.609163 -0.184616
-0.286186 0.608671 -0.184450
-0.283020 0.609513 -0.184617
-0.279656 0.609896 -0.184671
-0.276143 0.609917 -0.184634
-0.272419 0.609412 -0.184466
-0.269611 0.610992 -0.184820
-0.265346 0.609123 -0.184314
-0.262121 0.609657 -0.184408
-0.258740 0.609782 -0.184400
-0.255651 0.610586 -0.184563
-0.251964 0.609870 -0.184348
-0.248607 0.609922 -0.184326
-0.245205 0.609815 -0.184264
-0.242048 0.610298 -0.184351
-0.238931 0.610855 -0.184457
-0.235067 0.609368 -0.184055
-0.231417 0.608378 -0.183777
-0.228781 0.610122 -0.184182
-0.225761 0.610792 -0.184320
-0.222059 0.609485 -0.183967
-0.218909 0.609694 -0.183993
-0.215809 0.610015 -0.184047
-0.212527 0.609754 -0.183957
-0.209291 0.609582 -0.183891
-0.206255 0.609979 -0.183967
-0.203318 0.610661 -0.184114
-0.200090 0.610392 -0.184027
-0.196871 0.610100 -0.183934
-0.193855 0.610429 -0.183997
-0.190868 0.610830 -0.184078
-0.187828 0.611022 -0.184109
-0.184765 0.611101 -0.184112
-0.181501 0.610435 -0.183931
-0.178582 0.610953 -0.184045
-0.175295 0.610095 -0.183818
-0.172357 0.610486 -0.183902
-0.169647 0.611728 -0.184198
-0.166621 0.611751 -0.184192
-0.163497 0.611350 -0.184081
-0.160463 0.611268 -0.184051
-0.157613 0.611915 -0.184202
-0.154626 0.611980 -0.184208
-0.151570 0.611712 -0.184134
-0.148517 0.611419 -0.184053
-0.145464 0.611082 -0.183963
-0.142478 0.611014 -0.183939
-0.139566 0.611267 -0.183996
-0.136569 0.611093 -0.183948
-0.133709 0.611567 -0.184060
-0.130791 0.611739 -0.184099
-0.127886 0.611969 -0.184152
-0.124636 0.610329 -0.183742
-0.121781 0.610756 -0.183845
-0.118975 0.611462 -0.184018
-0.115974 0.611051 -0.183914
-0.113061 0.611123 -0.183931
-0.110238 0.611732 -0.184081
-0.107416 0.612370 -0.184239
-0.104498 0.612392 -0.184244
-0.101525 0.612026 -0.184153
-0.098542 0.611544 -0.184034
-0.095729 0.612249 -0.184210
-0.092683 0.611229 -0.183958
-0.089735 0.610877 -0.183873
-0.086882 0.611264 -0.183971
-0.084047 0.611812 -0.184109
-0.081140 0.611753 -0.184096
-0.078260 0.611930 -0.184143
-0.075414 0.612436 -0.184272
-0.072513 0.612415 -0.184270
-0.069569 0.611924 -0.184152
-0.066716 0.612395 -0.184272
-0.063838 0.612609 -0.184329
-0.060948 0.612681 -0.184352
-0.057976 0.611643 -0.184098
-0.055083 0.611587 -0.184089
-0.052275 0.612827 -0.184402
-0.049339 0.612132 -0.184234
-0.046463 0.612374 -0.184300
-0.043553 0.612004 -0.184213
-0.040665 0.612018 -0.184222
-0.037793 0.612394 -0.184322
-0.035089 0.617566 -0.185611
-0.032155 0.616927 -0.185459
-0.029289 0.618643 -0.185891
-0.026294 0.615135 -0.185027
-0.023382 0.614573 -0.184894
-0.020522 0.617913 -0.185730
-0.017603 0.617428 -0.185616
-0.014687 0.616511 -0.185396
-0.011781 0.615217 -0.185082
-0.008887 0.613842 -0.184748
-0.006026 0.610839 -0.184009
-0.003135 0.611322 -0.184137
-0.000263 0.610688 -0.183987
0.002617 0.610578 -0.183968
0.005574 0.612926 -0.184559
0.008684 0.618877 -0.186045
0.011651 0.619931 -0.186315
0.014415 0.616308 -0.185424
0.017186 0.613511 -0.184737
0.020107 0.613880 -0.184838
0.023258 0.617999 -0.185870
0.026191 0.618144 -0.185915
0.028924 0.615400 -0.185243
0.031579 0.611953 -0.184396
0.034335 0.610172 -0.183963
0.037171 0.609537 -0.183814
0.040106 0.610067 -0.183956
0.042800 0.607962 -0.183443
0.046056 0.611734 -0.184391
0.049302 0.615051 -0.185226
0.052519 0.617781 -0.185915
0.055498 0.618171 -0.186023
0.058548 0.619111 -0.186269
0.061545 0.619536 -0.186386
0.063225 0.609626 -0.183933
0.066104 0.609442 -0.183899
0.069068 0.609878 -0.184020
0.072067 0.610521 -0.184192
0.074952 0.610321 -0.184155
0.077813 0.609968 -0.184081
0.080785 0.610321 -0.184182
0.084919 0.617807 -0.186059
0.087683 0.616631 -0.185780
0.090494 0.615780 -0.185583
0.092809 0.612149 -0.184694
0.095029 0.608171 -0.183719
0.098040 0.608624 -0.183848
0.101589 0.611844 -0.184665
0.104853 0.613429 -0.185077
0.108144 0.615056 -0.185499
0.110432 0.611715 -0.184684
0.111963 0.604923 -0.183010
0.115388 0.607188 -0.183593
0.118523 0.608011 -0.183817
0.121556 0.608326 -0.183915
0.124683 0.609010 -0.184105
0.129281 0.615876 -0.185837
0.131264 0.611579 -0.184787
0.133476 0.608359 -0.184006
0.136979 0.610389 -0.184534
0.140967 0.614203 -0.185509
0.143800 0.613421 -0.185338
0.146869 0.613523 -0.185387
0.149742 0.612873 -0.185251
0.151700 0.608903 -0.184286
0.153887 0.605862 -0.183553
0.156575 0.604647 -0.183276
0.159616 0.604649 -0.183305
0.162784 0.605050 -0.183433
0.165906 0.605251 -0.183513
0.170549 0.610366 -0.184821
0.174968 0.614555 -0.185900
0.179018 0.617412 -0.186647
0.182015 0.616878 -0.186547
0.182558 0.608842 -0.184571
0.183302 0.601626 -0.182801
0.188337 0.607268 -0.184249
0.191657 0.607714 -0.184397
0.194307 0.606188 -0.184053
0.196601 0.603662 -0.183459
0.201577 0.608620 -0.184740
0.204741 0.608433 -0.184735
0.208573 0.610013 -0.185173
0.211730 0.609707 -0.185139
0.213901 0.606786 -0.184451
0.216480 0.604958 -0.184038
0.220983 0.608034 -0.184856
0.224759 0.609156 -0.185185
0.228993 0.611336 -0.185781
0.230804 0.607496 -0.184867
0.231834 0.601839 -0.183496
0.235703 0.603029 -0.183847
0.238937 0.602655 -0.183806
0.242980 0.604116 -0.184227
0.246831 0.605057 -0.184518
0.253118 0.611411 -0.186174
0.256214 0.610470 -0.185994
0.257737 0.606061 -0.184942
0.261089 0.605681 -0.184905
0.263736 0.603766 -0.184482
0.266899 0.602948 -0.184336
0.270623 0.603285 -0.184481
0.273227 0.601272 -0.184035
0.276740 0.601126 -0.184059
0.280891 0.602232 -0.184400
0.284026 0.601272 -0.184220
0.291347 0.608509 -0.186111
0.299262 0.616704 -0.188246
0.301039 0.612951 -0.187359
0.297906 0.599996 -0.184142
0.301580 0.600050 -0.184215
0.307543 0.604326 -0.185357
0.311134 0.604180 -0.185378
0.314605 0.603829 -0.185346
0.318028 0.603416 -0.185295
0.320926 0.602105 -0.185015
0.326179 0.604964 -0.185791
0.325848 0.598141 -0.184106
0.325901 0.592157 -0.182631
0.328353 0.590402 -0.182226
0.331514 0.589918 -0.182140
0.357744 0.627795 -0.191800
-0.355876 0.605838 -0.187610
-0.351170 0.603454 -0.186987
-0.347665 0.603217 -0.186911
-0.344206 0.603124 -0.186867
-0.341272 0.604037 -0.187078
-0.338465 0.605254 -0.187363
-0.334061 0.603602 -0.186910
-0.331178 0.604791 -0.187182
-0.329157 0.607669 -0.187883
-0.325542 0.607601 -0.187827
-0.322093 0.607874 -0.187857
-0.318488 0.607866 -0.187813
-0.315283 0.608659 -0.187972
-0.311820 0.608961 -0.188003
-0.308072 0.608692 -0.187888
-0.304758 0.609299 -0.187996
-0.300917 0.608816 -0.187824
-0.297414 0.609015 -0.187827
-0.293860 0.609092 -0.187798
-0.290594 0.609765 -0.187921
-0.287027 0.609772 -0.187874
-0.283684 0.610246 -0.187946
-0.279764 0.609401 -0.187683
-0.276302 0.609542 -0.187671
-0.273035 0.610096 -0.187765
-0.269484 0.609961 -0.187685
-0.266227 0.610475 -0.187770
-0.262950 0.610916 -0.187838
-0.259917 0.611915 -0.188048
-0.255983 0.610675 -0.187690
-0.252282 0.609937 -0.187461
-0.248743 0.609543 -0.187320
-0.245195 0.609067 -0.187159
-0.242022 0.609507 -0.187233
-0.238912 0.610083 -0.187342
-0.235410 0.609574 -0.187176
-0.231956 0.609135 -0.187030
-0.228976 0.609947 -0.187202
-0.225762 0.610082 -0.187204
-0.222589 0.610288 -0.187225
-0.219216 0.609880 -0.187090
-0.215715 0.609031 -0.186845
-0.212576 0.609199 -0.186860
-0.209445 0.609349 -0.186871
-0.206451 0.609885 -0.186981
-0.203189 0.609556 -0.186872
-0.200316 0.610416 -0.187066
-0.197318 0.610859 -0.187155
-0.194046 0.610368 -0.187009
-0.191036 0.610701 -0.187072
-0.187924 0.610659 -0.187042
-0.184995 0.611217 -0.187164
-0.181917 0.611223 -0.187147
-0.178409 0.609642 -0.186729
-0.175346 0.609601 -0.186703
-0.172552 0.610536 -0.186924
-0.169740 0.611403 -0.187129
-0.166685 0.611321 -0.187094
-0.163554 0.610901 -0.186975
-0.160595 0.611129 -0.187020
-0.157620 0.611269 -0.187044
-0.154792 0.612008 -0.187221
-0.151675 0.611492 -0.187080
-0.148714 0.611619 -0.187103
-0.145880 0.612295 -0.187265
-0.143080 0.613135 -0.187470
-0.139325 0.609456 -0.186531
-0.136485 0.610015 -0.186666
-0.133840 0.611548 -0.187048
-0.131047 0.612375 -0.187252
-0.127969 0.611735 -0.187085
-0.124918 0.611176 -0.186939
-0.121929 0.610905 -0.186867
-0.118985 0.610855 -0.186851
-0.116091 0.611069 -0.186902
-0.113298 0.611880 -0.187105
-0.110427 0.612236 -0.187193
-0.107438 0.611847 -0.187093
-0.104485 0.611642 -0.187040
-0.101616 0.611981 -0.187126
-0.098721 0.612134 -0.187164
-0.095797 0.612074 -0.187150
-0.092699 0.610681 -0.186798
-0.089805 0.610757 -0.186818
-0.087030 0.611796 -0.187082
-0.084040 0.611085 -0.186904
-0.081203 0.611642 -0.187047
-0.078355 0.612130 -0.187173
-0.075442 0.612030 -0.187150
-0.072554 0.612161 -0.187186
-0.069663 0.612253 -0.187213
-0.066696 0.611486 -0.187022
-0.063819 0.611695 -0.187079
-0.060919 0.611627 -0.187065
-0.058014 0.611466 -0.187029
-0.055154 0.611908 -0.187145
-0.052248 0.611713 -0.187101
-0.049413 0.612646 -0.187342
-0.046480 0.611961 -0.187174
-0.043590 0.612009 -0.187191
-0.040710 0.612251 -0.187258
-0.037820 0.612312 -0.187279
-0.035265 0.621654 -0.189650
-0.032126 0.615183 -0.188018
-0.029192 0.614126 -0.187757
-0.026310 0.614996 -0.187984
-0.023454 0.617844 -0.188711
-0.020550 0.619070 -0.189029
-0.017630 0.619696 -0.189195
-0.014698 0.617877 -0.188741
-0.011783 0.616090 -0.188296
-0.008893 0.613291 -0.187594
-0.006036 0.609971 -0.186761
-0.003156 0.609850 -0.186738
-0.000264 0.610324 -0.186866
0.002634 0.610842 -0.187005
0.005559 0.612044 -0.187318
0.008716 0.619333 -0.189173
0.011665 0.619814 -0.189304
0.014481 0.617289 -0.188673
0.017336 0.615981 -0.188350
0.020220 0.615436 -0.188221
0.023265 0.617613 -0.188782
0.026171 0.617331 -0.188720
0.029030 0.616401 -0.188494
0.031695 0.612972 -0.187635
0.034244 0.608507 -0.186513
0.037163 0.608905 -0.186624
0.040124 0.609735 -0.186845
0.043098 0.610586 -0.187071
0.046165 0.612287 -0.187514
0.049377 0.615220 -0.188268
0.052743 0.619287 -0.189311
0.055335 0.616175 -0.188534
0.058178 0.615427 -0.188356
0.060850 0.613329 -0.187836
0.063273 0.609439 -0.186861
0.066125 0.609038 -0.186772
0.069151 0.609915 -0.187008
0.072195 0.610846 -0.187257
0.075041 0.610355 -0.187147
0.077802 0.609322 -0.186898
0.080699 0.609200 -0.186882
0.084665 0.615659 -0.188536
0.087377 0.614215 -0.188185
0.090191 0.613431 -0.188001
0.093123 0.613337 -0.187993
0.095505 0.610201 -0.187214
0.098509 0.610550 -0.187319
0.101877 0.612756 -0.187897
0.105103 0.614106 -0.188257
0.108023 0.613852 -0.188211
0.110709 0.612457 -0.187876
0.111979 0.604405 -0.185849
0.115580 0.607472 -0.186648
0.118585 0.607689 -0.186724
0.121552 0.607706 -0.186749
0.125232 0.610776 -0.187551
0.129062 0.614332 -0.188478
0.132207 0.614872 -0.188638
0.134615 0.612373 -0.188026
0.138619 0.616296 -0.189049
0.142006 0.617635 -0.189415
0.145132 0.617893 -0.189506
0.148024 0.617231 -0.189365
0.150556 0.615243 -0.188886
0.153480 0.614712 -0.188779
0.154113 0.606039 -0.186600
0.156696 0.604439 -0.186222
0.159871 0.604895 -0.186368
0.163013 0.605190 -0.186475
0.166208 0.605618 -0.186616
0.170481 0.609501 -0.187639
0.175601 0.615932 -0.189313
0.178282 0.614442 -0.188969
0.180353 0.611077 -0.188147
0.182350 0.607558 -0.187286
0.183885 0.602729 -0.186092
0.188069 0.605826 -0.186921
0.191672 0.607101 -0.187287
0.194888 0.607191 -0.187352
0.197836 0.606482 -0.187213
0.200916 0.606121 -0.187165
0.205288 0.609262 -0.188013
0.208961 0.610385 -0.188346
0.211838 0.609320 -0.188121
0.214002 0.606378 -0.187417
0.216608 0.604616 -0.187016
0.221226 0.607973 -0.187926
0.225256 0.609719 -0.188426
0.228830 0.610245 -0.188614
0.231389 0.608238 -0.188155
0.231560 0.600498 -0.186226
0.236483 0.604194 -0.187230
0.239827 0.604049 -0.187251
0.243187 0.603903 -0.187273
0.247522 0.605937 -0.187856
0.252329 0.608935 -0.188688
0.257350 0.612286 -0.189612
0.259955 0.610216 -0.189144
0.261805 0.606528 -0.188261
0.264741 0.605209 -0.187987
0.269809 0.608379 -0.188869
0.273149 0.607837 -0.188797
0.273500 0.601133 -0.187137
0.277745 0.602463 -0.187548
0.281071 0.601889 -0.187468
0.284798 0.602099 -0.187590
0.295585 0.616089 -0.191270
0.296820 0.611265 -0.190093
0.297681 0.605823 -0.188756
0.298192 0.599838 -0.187276
0.301713 0.599602 -0.187280
0.307543 0.603627 -0.188386
0.311048 0.603327 -0.188372
0.314782 0.603457 -0.188467
0.318660 0.603854 -0.188629
0.322697 0.604545 -0.188866
0.320071 0.593621 -0.186089
0.325764 0.597326 -0.187101
0.333883 0.605139 -0.189176
0.330445 0.593288 -0.186146
0.336592 0.597777 -0.187352
0.332983 0.586056 -0.184346
-0.357758 0.608433 -0.191513
-0.351881 0.604029 -0.190347
-0.348118 0.603343 -0.190149
-0.344967 0.603799 -0.190247
-0.343730 0.607777 -0.191262
-0.339205 0.605903 -0.190741
-0.334133 0.603030 -0.189956
-0.331258 0.604229 -0.190233
-0.328897 0.606459 -0.190776
-0.326331 0.608380 -0.191236
-0.322242 0.607433 -0.190943
-0.318858 0.607857 -0.191006
-0.315599 0.608546 -0.191138
-0.312257 0.609094 -0.191230
-0.308795 0.609411 -0.191261
-0.305125 0.609304 -0.191180
-0.301815 0.609931 -0.191290
-0.297877 0.609239 -0.191055
-0.294503 0.609710 -0.191123
-0.290962 0.609809 -0.191095
-0.287125 0.609237 -0.190891
-0.283708 0.609548 -0.190918
-0.280200 0.609630 -0.190886
-0.276952 0.610268 -0.190999
-0.273465 0.610337 -0.190964
-0.269756 0.609848 -0.190785
-0.266637 0.610698 -0.190956
-0.263351 0.611129 -0.191018
-0.259862 0.611035 -0.190944
-0.255886 0.609692 -0.190547
-0.252791 0.610468 -0.190702
-0.249382 0.610424 -0.190645
-0.245372 0.608785 -0.190176
-0.242006 0.608731 -0.190119
-0.238943 0.609433 -0.190259
-0.235833 0.609980 -0.190360
-0.232743 0.610554 -0.190469
-0.229118 0.609614 -0.190188
-0.226368 0.611059 -0.190525
-0.223371 0.611800 -0.190681
