ply
format ascii 1.0
comment ---
element vertex 1710
property float x
property float y
property float z
element face 0
property list uchar uint vertex_indices
end_header
0.166716 0.593115 0.000266
0.169122 0.592776 0.000471
0.171585 0.592853 0.000663
0.174043 0.591949 0.000828
0.176595 0.592229 0.000985
0.179281 0.594224 0.001142
0.181902 0.594089 0.001258
0.184418 0.591591 0.001332
0.187107 0.591419 0.001409
0.189933 0.592694 0.001482
0.192790 0.593694 0.001533
0.195684 0.594562 0.001562
0.198604 0.595196 0.001570
0.201417 0.594037 0.001540
0.204286 0.593210 0.001494
0.207307 0.593709 0.001443
0.210072 0.591161 0.001343
0.213156 0.591640 0.001256
0.216319 0.592521 0.001156
0.219527 0.593462 0.001040
0.222841 0.594992 0.000913
0.225899 0.594023 0.000747
0.229127 0.594280 0.000579
0.232114 0.592430 0.000378
0.235396 0.592760 0.000185
0.238818 0.593926 -0.000013
0.242007 0.593218 -0.000237
0.245243 0.592747 -0.000468
0.248587 0.592894 -0.000703
0.251982 0.593249 -0.000944
0.255412 0.593707 -0.001192
0.259192 0.596166 -0.001433
0.262824 0.597539 -0.001688
0.266488 0.598945 -0.001948
0.270149 0.600201 -0.002213
0.273217 0.598108 -0.002498
0.276949 0.599583 -0.002767
0.281791 0.606662 -0.003017
0.285898 0.609650 -0.003287
0.288407 0.604614 -0.003586
0.291397 0.602077 -0.003874
0.294590 0.600577 -0.004156
0.297347 0.597118 -0.004439
0.300419 0.595191 -0.004716
0.304009 0.595586 -0.004986
0.307030 0.593498 -0.005257
0.309814 0.590481 -0.005523
0.314022 0.593417 -0.005784
0.317333 0.592599 -0.006042
0.320867 0.592667 -0.006298
0.324483 0.593032 -0.006549
0.329733 0.599578 -0.006806
0.333552 0.600512 -0.007053
0.336855 0.599498 -0.007294
0.339719 0.596918 -0.007526
0.345327 0.604112 -0.007778
0.349642 0.606535 -0.008016
0.352780 0.604835 -0.008237
0.355216 0.600807 -0.008446
0.358880 0.600948 -0.008663
0.363344 0.603656 -0.008886
0.366108 0.600819 -0.009082
0.368916 0.598187 -0.009273
0.373054 0.599728 -0.009479
0.376644 0.599525 -0.009672
0.379990 0.598568 -0.009856
0.385164 0.603017 -0.010067
0.387314 0.598502 -0.010221
0.389403 0.593915 -0.010369
0.391245 0.588739 -0.010506
0.395021 0.589068 -0.010673
0.401183 0.595911 -0.010882
0.406991 0.601576 -0.011082
0.412550 0.606388 -0.011273
0.414387 0.601237 -0.011386
0.416762 0.597590 -0.011505
0.419636 0.595291 -0.011629
0.424856 0.598953 -0.011797
0.426071 0.592495 -0.011878
0.428253 0.588556 -0.011974
0.432184 0.588936 -0.012103
0.436193 0.589460 -0.012229
0.440081 0.589653 -0.012349
0.444792 0.591731 -0.012482
0.452777 0.601282 -0.012684
0.457114 0.602245 -0.012802
0.460241 0.600427 -0.012890
0.463812 0.599604 -0.012983
0.469024 0.602373 -0.013109
0.471725 0.599589 -0.013175
0.473551 0.594959 -0.013219
0.476086 0.591906 -0.013274
0.477712 0.586985 -0.013306
0.484138 0.592080 -0.013439
0.487178 0.590094 -0.013495
0.493673 0.595106 -0.013622
0.498936 0.597504 -0.013718
0.504760 0.600920 -0.013823
0.511947 0.606887 -0.013954
0.516863 0.608295 -0.014031
0.519914 0.606066 -0.014064
0.523657 0.605157 -0.014109
0.523375 0.596703 -0.014063
0.524436 0.590880 -0.014044
0.531649 0.596399 -0.014152
0.536540 0.597561 -0.014206
0.537727 0.592025 -0.014179
0.541382 0.590943 -0.014201
0.547766 0.587121 -0.014214
0.551317 0.585830 -0.014223
0.558742 0.591105 -0.014307
0.562778 0.590534 -0.014317
0.566541 0.589484 -0.014319
0.578530 0.601955 -0.014478
0.583611 0.602876 -0.014496
0.586338 0.599942 -0.014465
0.588398 0.595962 -0.014417
0.590994 0.592866 -0.014377
0.592830 0.588603 -0.014319
0.595208 0.585224 -0.014268
0.602703 0.589717 -0.014306
0.610025 0.593816 -0.014336
0.609322 0.585730 -0.014218
0.613669 0.585276 -0.014186
0.621825 0.590403 -0.014216
0.631254 0.597246 -0.014261
0.634062 0.594342 -0.014188
0.635759 0.589862 -0.014092
0.638653 0.587121 -0.014013
0.642524 0.585759 -0.013945
0.651368 0.591293 -0.013951
0.658350 0.594112 -0.013922
0.667472 0.599751 -0.013918
0.668900 0.594844 -0.013791
0.668737 0.587854 -0.013637
0.671899 0.585357 -0.013529
0.676131 0.584264 -0.013431
0.682754 0.586255 -0.013361
0.692330 0.591965 -0.013323
0.699457 0.594393 -0.013244
0.704451 0.594032 -0.013131
0.708709 0.592706 -0.013002
0.715890 0.594980 -0.012902
0.707817 0.578415 -0.012614
0.710562 0.575279 -0.012453
0.718330 0.578210 -0.012343
0.730614 0.586432 -0.012273
0.734766 0.584821 -0.012105
0.735902 0.579650 -0.011901
0.726399 0.562156 -0.011590
0.739171 0.570582 -0.011490
0.756249 0.583712 -0.011416
0.771912 0.594944 -0.011312
0.772980 0.589571 -0.011074
0.774724 0.584987 -0.010836
0.787361 0.592407 -0.010674
0.789133 0.587799 -0.010421
0.792470 0.584904 -0.010174
0.796063 0.582277 -0.009922
0.802913 0.583089 -0.009682
0.809898 0.583967 -0.009433
0.821036 0.589087 -0.009194
0.825828 0.587513 -0.008914
0.824844 0.580007 -0.008604
0.834667 0.583507 -0.008328
0.842595 0.584981 -0.008035
0.843362 0.579252 -0.007712
0.849553 0.578901 -0.007397
0.863600 0.586148 -0.007087
0.871135 0.586908 -0.006752
0.866985 0.576406 -0.006400
0.872366 0.575067 -0.006052
0.890900 0.586037 -0.005693
0.905573 0.593144 -0.005317
0.910767 0.591316 -0.004937
0.913425 0.587137 -0.004556
0.917680 0.584412 -0.004169
0.924200 0.583698 -0.003771
0.930360 0.582612 -0.003369
0.937006 0.581906 -0.002960
0.942325 0.579991 -0.002553
0.947256 0.577709 -0.002146
0.959359 0.581539 -0.001700
0.971554 0.585310 -0.001247
0.978041 0.584159 -0.000824
0.982474 0.581259 -0.000414
0.991228 0.581911 0.000022
1.002170 0.584277 0.000473
1.010281 0.584255 0.000901
1.018403 0.584188 0.001324
1.026842 0.584320 0.001743
1.035389 0.584485 0.002156
1.045431 0.585764 0.002573
1.050506 0.583145 0.002932
1.060918 0.584611 0.003329
1.067096 0.582807 0.003668
1.075630 0.582770 0.004015
1.085309 0.583553 0.004355
1.094032 0.583591 0.004665
1.099226 0.581031 0.004913
1.103906 0.578125 0.005130
1.126511 0.588101 0.005529
1.140132 0.591508 0.005799
1.141750 0.586395 0.005899
1.142263 0.580597 0.005955
1.146400 0.577406 0.006022
1.157768 0.579230 0.006143
1.168997 0.580935 0.006229
1.171364 0.576644 0.006177
1.180628 0.577047 0.006172
1.195791 0.581371 0.006199
1.209310 0.584558 0.006169
1.214053 0.581988 0.006004
1.219414 0.579881 0.005811
1.226147 0.578710 0.005598
1.232632 0.577424 0.005347
1.239721 0.576566 0.005068
1.245721 0.575065 0.004743
1.251685 0.573593 0.004385
0.163706 0.592709 -0.002739
0.166010 0.590156 -0.002544
0.168657 0.595906 -0.002325
0.171121 0.595368 -0.002153
0.173730 0.597190 -0.001988
0.176592 0.603058 -0.001816
0.179285 0.604118 -0.001690
0.181848 0.601982 -0.001602
0.183915 0.591195 -0.001587
0.186591 0.590558 -0.001531
0.189500 0.592826 -0.001476
0.192278 0.592466 -0.001457
0.195261 0.594318 -0.001444
0.198155 0.594396 -0.001462
0.201061 0.594153 -0.001501
0.203991 0.593792 -0.001559
0.208145 0.606321 -0.001558
0.210854 0.602430 -0.001676
0.214110 0.603963 -0.001778
0.217525 0.606569 -0.001893
0.220426 0.603996 -0.002052
0.222616 0.595131 -0.002258
0.225952 0.596359 -0.002425
0.229621 0.599992 -0.002596
0.233427 0.604237 -0.002778
0.236733 0.604240 -0.002993
0.239846 0.602663 -0.003224
0.243139 0.602319 -0.003460
0.246974 0.605578 -0.003694
0.250236 0.604712 -0.003949
0.253474 0.603639 -0.004211
0.256343 0.600238 -0.004484
0.259965 0.601502 -0.004752
0.263305 0.600962 -0.005027
0.266821 0.601392 -0.005305
0.270484 0.602555 -0.005587
0.273375 0.599410 -0.005871
0.277114 0.600863 -0.006156
0.281857 0.607374 -0.006447
0.285246 0.606715 -0.006735
0.287948 0.602680 -0.007018
0.291269 0.601761 -0.007302
0.294904 0.602328 -0.007588
0.297903 0.599926 -0.007865
0.301064 0.598322 -0.008140
0.303990 0.595738 -0.008408
0.307251 0.594670 -0.008678
0.310632 0.594126 -0.008946
0.314043 0.593709 -0.009211
0.317353 0.592876 -0.009471
0.320874 0.592887 -0.009730
0.324942 0.594997 -0.009999
0.330403 0.602312 -0.010296
0.333559 0.600719 -0.010538
0.335983 0.596476 -0.010756
0.339478 0.596221 -0.010995
0.344601 0.601715 -0.011273
0.349374 0.605775 -0.011539
0.352190 0.602987 -0.011748
0.355047 0.600404 -0.011952
0.358351 0.599362 -0.012164
0.362034 0.599562 -0.012382
0.365056 0.597616 -0.012575
0.368066 0.595669 -0.012763
0.372813 0.599135 -0.012999
0.375614 0.596538 -0.013171
0.379446 0.597087 -0.013370
0.382418 0.595048 -0.013537
0.385657 0.593825 -0.013708
0.387498 0.588596 -0.013829
0.390104 0.585654 -0.013970
0.395252 0.589850 -0.014188
0.399730 0.592061 -0.014381
0.404226 0.594227 -0.014570
0.408567 0.595888 -0.014750
0.414551 0.601799 -0.014980
0.416817 0.597861 -0.015082
0.421226 0.599490 -0.015252
0.423688 0.596123 -0.015352
0.426043 0.592545 -0.015444
0.428287 0.588755 -0.015528
0.432215 0.589123 -0.015664
0.436229 0.589656 -0.015799
0.441317 0.592685 -0.015967
0.445099 0.592550 -0.016086
0.452073 0.599756 -0.016308
0.456920 0.601899 -0.016455
0.460663 0.601470 -0.016560
0.459150 0.589324 -0.016487
0.462322 0.587731 -0.016567
0.466530 0.588392 -0.016677
0.471004 0.589573 -0.016791
0.475705 0.591172 -0.016910
0.485600 0.603579 -0.017195
0.482975 0.589738 -0.017065
0.489891 0.595709 -0.017244
0.492132 0.592047 -0.017267
0.498187 0.596062 -0.017410
0.503192 0.597872 -0.017514
0.508366 0.599934 -0.017620
0.515424 0.605555 -0.017782
0.519883 0.606047 -0.017857
0.523343 0.604599 -0.017896
0.529294 0.607803 -0.018010
0.529590 0.600439 -0.017944
0.530365 0.594073 -0.017891
0.533838 0.592689 -0.017918
0.538769 0.593906 -0.017985
0.547198 0.601256 -0.018154
0.553764 0.605145 -0.018262
0.547797 0.587178 -0.017992
0.551927 0.586875 -0.018021
0.558543 0.590762 -0.018119
0.562863 0.590669 -0.018145
0.566441 0.589306 -0.018146
0.578550 0.601972 -0.018387
0.584292 0.603968 -0.018440
0.584878 0.597566 -0.018344
0.585097 0.590666 -0.018235
0.588843 0.589438 -0.018222
0.594110 0.590573 -0.018246
0.597229 0.588319 -0.018207
0.603142 0.590351 -0.018240
0.609443 0.592891 -0.018278
0.611991 0.589698 -0.018212
0.615617 0.588128 -0.018170
0.626740 0.597597 -0.018317
0.631013 0.596840 -0.018281
0.633692 0.593753 -0.018202
0.629935 0.581469 -0.017960
0.630548 0.575572 -0.017825
0.636499 0.577240 -0.017815
0.645039 0.582429 -0.017862
0.659621 0.595794 -0.018042
0.667703 0.599996 -0.018060
0.668292 0.593951 -0.017901
0.669661 0.589017 -0.017756
0.672125 0.585582 -0.017632
0.676750 0.585002 -0.017551
0.681498 0.584545 -0.017468
0.690647 0.589718 -0.017471
0.697672 0.592036 -0.017421
0.702224 0.591136 -0.017313
0.700980 0.582945 -0.017083
0.705159 0.581586 -0.016958
0.708232 0.578843 -0.016805
0.713140 0.578334 -0.016683
0.720094 0.580253 -0.016591
0.730087 0.585716 -0.016546
0.733980 0.583805 -0.016382
0.729133 0.571625 -0.016061
0.733408 0.570218 -0.015895
0.746043 0.578408 -0.015859
0.752218 0.579026 -0.015707
0.765503 0.587614 -0.015657
0.757179 0.571789 -0.015264
0.764685 0.573764 -0.015109
0.783133 0.587673 -0.015100
0.791087 0.589840 -0.014927
0.792699 0.585065 -0.014657
0.796558 0.582720 -0.014412
0.802311 0.582365 -0.014183
0.811804 0.585882 -0.013991
0.821145 0.589115 -0.013784
0.824485 0.586043 -0.013499
0.828075 0.583220 -0.013210
0.829940 0.578641 -0.012896
0.836743 0.579031 -0.012625
0.834922 0.570788 -0.012266
0.846035 0.575355 -0.012017
0.866781 0.589161 -0.011833
0.872716 0.588345 -0.011512
0.868083 0.577368 -0.011106
0.876273 0.578679 -0.010789
0.893500 0.588385 -0.010516
0.902193 0.589904 -0.010176
0.909363 0.589922 -0.009818
0.913025 0.586669 -0.009435
0.916994 0.583684 -0.009050
0.921799 0.581436 -0.008663
0.928513 0.580856 -0.008277
0.941358 0.585609 -0.007901
0.940327 0.578120 -0.007486
0.940573 0.571805 -0.007077
0.949662 0.573101 -0.006679
0.973490 0.586789 -0.006283
0.977605 0.583621 -0.005869
0.986034 0.584034 -0.005455
0.987017 0.578247 -0.005047
1.002099 0.584005 -0.004626
1.011006 0.584609 -0.004213
1.019257 0.584620 -0.003804
1.025623 0.583082 -0.003405
1.038596 0.586709 -0.002993
1.045802 0.585734 -0.002607
1.053537 0.585138 -0.002230
1.061383 0.584595 -0.001864
1.067993 0.583086 -0.001519
1.075924 0.582559 -0.001183
1.085460 0.583202 -0.000857
1.095500 0.584174 -0.000546
1.100361 0.581327 -0.000286
1.105928 0.579020 -0.000046
1.120977 0.583526 0.000228
1.129456 0.583277 0.000436
1.133928 0.580203 0.000590
1.144720 0.581583 0.000755
1.150659 0.579582 0.000859
1.158877 0.579179 0.000945
1.166464 0.578358 0.000995
1.171700 0.575976 0.000996
1.177521 0.574034 0.000966
1.189358 0.576123 0.000942
1.210008 0.583981 0.000938
1.216831 0.582723 0.000807
1.221912 0.580380 0.000631
1.226924 0.578053 0.000419
1.233546 0.576811 0.000182
1.238629 0.574643 -0.000099
1.246839 0.574495 -0.000397
1.254737 0.574184 -0.000733
0.163194 0.595865 -0.005530
0.165501 0.592579 -0.005341
0.167982 0.593381 -0.005167
0.170591 0.596171 -0.005008
0.173140 0.596228 -0.004870
0.175957 0.600954 -0.004743
0.178851 0.605685 -0.004633
0.180936 0.594523 -0.004572
0.183492 0.591978 -0.004516
0.186128 0.590356 -0.004478
0.188910 0.590477 -0.004456
0.191972 0.593968 -0.004446
0.194769 0.593033 -0.004466
0.197729 0.593762 -0.004501
0.200648 0.593482 -0.004557
0.203564 0.592772 -0.004633
0.207982 0.608077 -0.004701
0.211014 0.607260 -0.004815
0.213965 0.605380 -0.004947
0.217061 0.604720 -0.005095
0.219760 0.600215 -0.005261
0.222022 0.591971 -0.005443
0.225838 0.597244 -0.005629
0.229755 0.602752 -0.005831
0.234000 0.610243 -0.006050
0.237115 0.608484 -0.006279
0.239913 0.604371 -0.006516
0.244072 0.610012 -0.006771
0.246917 0.606174 -0.007024
0.250195 0.605329 -0.007288
0.252919 0.600871 -0.007549
0.256583 0.602450 -0.007829
0.259669 0.600359 -0.008104
0.263184 0.600842 -0.008389
0.266446 0.599781 -0.008673
0.270207 0.601501 -0.008970
0.273716 0.601712 -0.009263
0.275697 0.593780 -0.009516
0.279617 0.596202 -0.009819
0.283509 0.598331 -0.010123
0.287351 0.600077 -0.010426
0.290726 0.599468 -0.010713
0.294360 0.600067 -0.011007
0.297392 0.597854 -0.011279
0.301160 0.599015 -0.011573
0.304165 0.596751 -0.011837
0.307013 0.593882 -0.012091
0.310069 0.591987 -0.012349
0.313485 0.591628 -0.012616
0.317355 0.593095 -0.012898
0.321011 0.593634 -0.013168
0.324855 0.594861 -0.013442
0.330398 0.602490 -0.013782
0.333846 0.601988 -0.014032
0.336450 0.598379 -0.014242
0.339269 0.595656 -0.014455
0.341438 0.590707 -0.014635
0.344774 0.589962 -0.014861
0.348807 0.591604 -0.015112
0.352633 0.592473 -0.015351
0.358394 0.599681 -0.015671
0.361812 0.599015 -0.015882
0.364726 0.596732 -0.016066
0.368487 0.597165 -0.016283
0.373108 0.600218 -0.016534
0.377323 0.601914 -0.016763
0.379045 0.596047 -0.016872
0.383938 0.599705 -0.017123
0.385934 0.594790 -0.017235
0.388755 0.592358 -0.017380
0.390947 0.588190 -0.017492
0.396731 0.594123 -0.017765
0.402666 0.600274 -0.018042
0.404386 0.594804 -0.018118
0.407644 0.593565 -0.018261
0.413889 0.600198 -0.018538
0.418896 0.603399 -0.018753
0.420929 0.598865 -0.018826
0.425478 0.600780 -0.019011
0.426523 0.593870 -0.019030
0.428470 0.589329 -0.019087
0.432055 0.588855 -0.019215
0.436384 0.590145 -0.019374
0.441179 0.592473 -0.019549
0.445493 0.593584 -0.019698
0.451113 0.597646 -0.019901
0.458086 0.604662 -0.020161
0.460666 0.601576 -0.020219
0.457814 0.586444 -0.020031
0.462312 0.587800 -0.020169
0.467027 0.589556 -0.020311
0.471540 0.590806 -0.020441
0.475274 0.590336 -0.020532
0.483111 0.598441 -0.020799
0.485693 0.595436 -0.020832
0.490583 0.597191 -0.020961
0.493978 0.595844 -0.021022
0.496904 0.593552 -0.021060
0.503559 0.598650 -0.021252
0.509484 0.602169 -0.021409
0.513697 0.602262 -0.021489
0.518850 0.604113 -0.021604
0.525080 0.607920 -0.021760
0.532219 0.613306 -0.021948
0.533182 0.607113 -0.021879
0.531757 0.596643 -0.021711
0.533674 0.592411 -0.021676
0.542108 0.599901 -0.021900
0.549710 0.605717 -0.022084
0.553037 0.603879 -0.022094
0.548961 0.589201 -0.021812
0.553056 0.588811 -0.021848
0.559776 0.592851 -0.021980
0.563715 0.592092 -0.022001
0.566700 0.589723 -0.021983
0.578410 0.601726 -0.022288
0.583000 0.601841 -0.022320
0.582966 0.594458 -0.022178
0.583675 0.588369 -0.022061
0.588782 0.589312 -0.022102
0.592659 0.588270 -0.022094
0.597954 0.589403 -0.022132
0.607119 0.596408 -0.022302
0.610717 0.594781 -0.022270
0.615386 0.594753 -0.022272
0.620028 0.594643 -0.022267
0.623720 0.593093 -0.022227
0.629515 0.594598 -0.022252
0.629858 0.588152 -0.022091
0.630697 0.582499 -0.021945
0.628893 0.573164 -0.021711
0.631372 0.569978 -0.021614
0.645746 0.583344 -0.021890
0.659957 0.596185 -0.022149
0.669663 0.602593 -0.022256
0.670552 0.596926 -0.022085
0.669671 0.588953 -0.021857
0.673178 0.586898 -0.021759
0.677106 0.585387 -0.021669
0.682073 0.585209 -0.021604
0.688806 0.587262 -0.021583
0.695494 0.589170 -0.021554
0.698736 0.586639 -0.021421
0.701847 0.583943 -0.021280
0.705192 0.581538 -0.021140
0.710834 0.581950 -0.021056
0.713547 0.578740 -0.020888
0.713809 0.572582 -0.020652
0.721883 0.575822 -0.020611
0.729259 0.578124 -0.020544
0.739759 0.583995 -0.020543
0.748923 0.588153 -0.020499
0.753486 0.586884 -0.020335
0.753804 0.580742 -0.020066
0.757252 0.578195 -0.019864
0.756744 0.571210 -0.019569
0.762302 0.571026 -0.019403
0.777179 0.581034 -0.019426
0.790008 0.588569 -0.019390
0.792600 0.584864 -0.019131
0.796864 0.582953 -0.018899
0.802263 0.582221 -0.018681
0.811088 0.585037 -0.018519
0.816458 0.584148 -0.018282
0.819646 0.580965 -0.017998
0.827520 0.582561 -0.017788
0.828909 0.577506 -0.017458
0.826639 0.568815 -0.017064
0.831462 0.567261 -0.016781
0.846548 0.575766 -0.016647
0.882537 0.604419 -0.016801
0.882680 0.597868 -0.016406
0.879660 0.588345 -0.015965
0.892407 0.593870 -0.015732
0.893557 0.588338 -0.015337
0.895879 0.583928 -0.014954
0.905448 0.586209 -0.014649
0.914014 0.587463 -0.014322
0.917875 0.584369 -0.013936
0.921200 0.580784 -0.013541
0.922487 0.575387 -0.013123
0.936142 0.580896 -0.012812
0.937092 0.575169 -0.012385
0.942371 0.573217 -0.011991
0.959647 0.581486 -0.011680
0.975138 0.581381 -0.010899
0.974638 0.574384 -0.010459
0.971505 0.565287 -0.010014
1.003727 0.578503 -0.009308
1.016603 0.582251 -0.008935
1.026718 0.583684 -0.008554
1.034723 0.583382 -0.008170
1.047198 0.586509 -0.007803
1.054648 0.585659 -0.007433
1.060575 0.583617 -0.007072
1.068899 0.583383 -0.006728
1.075163 0.581572 -0.006397
1.089475 0.585731 -0.006085
1.097179 0.584925 -0.005789
1.103947 0.583424 -0.005512
1.110156 0.581522 -0.005259
1.119342 0.581765 -0.005028
1.125924 0.580142 -0.004825
1.131413 0.577768 -0.004650
1.147150 0.582565 -0.004490
1.154480 0.581471 -0.004370
1.161907 0.580461 -0.004282
1.168353 0.578806 -0.004228
1.173407 0.576250 -0.004209
1.180969 0.575420 -0.004220
1.198227 0.581027 -0.004250
1.206217 0.580480 -0.004331
1.217426 0.582053 -0.004443
1.223810 0.580508 -0.004598
1.228466 0.577905 -0.004790
1.231172 0.574129 -0.005019
1.240033 0.574316 -0.005277
1.250146 0.575311 -0.005572
1.264517 0.578962 -0.005903
1.264159 0.573519 -0.006268
0.160310 0.600141 -0.008558
0.162639 0.597476 -0.008356
0.164850 0.590573 -0.008159
0.167222 0.588208 -0.007997
0.169653 0.586667 -0.007855
0.172667 0.597669 -0.007766
0.175380 0.599797 -0.007669
0.177720 0.593532 -0.007572
0.180201 0.589903 -0.007502
0.182878 0.589360 -0.007458
0.185638 0.589568 -0.007436
0.188572 0.591731 -0.007438
0.191632 0.594873 -0.007461
0.194575 0.595580 -0.007499
0.197338 0.593450 -0.007549
0.200427 0.595004 -0.007627
0.203688 0.597952 -0.007727
0.207297 0.604048 -0.007855
0.210956 0.609764 -0.008002
0.213828 0.606799 -0.008141
0.216834 0.605060 -0.008299
0.219869 0.603460 -0.008472
0.222801 0.600820 -0.008655
0.225615 0.597160 -0.008846
0.230128 0.607427 -0.009109
0.234204 0.613332 -0.009370
0.235626 0.598521 -0.009540
0.240442 0.609437 -0.009849
0.243072 0.604005 -0.010081
0.246248 0.602549 -0.010340
0.249178 0.599447 -0.010595
0.252496 0.598928 -0.010872
0.254635 0.590990 -0.011098
0.259071 0.597373 -0.011434
0.262355 0.596538 -0.011719
0.266128 0.598490 -0.012030
0.270072 0.601243 -0.012352
0.273494 0.600958 -0.012649
0.274809 0.589493 -0.012836
0.278606 0.591372 -0.013151
0.282910 0.595679 -0.013493
0.286483 0.596151 -0.013795
0.291457 0.603294 -0.014172
0.293574 0.596683 -0.014391
0.297406 0.598208 -0.014701
0.300973 0.598450 -0.014995
0.304140 0.596903 -0.015262
0.306893 0.593622 -0.015502
0.309911 0.591566 -0.015753
0.313310 0.591142 -0.016022
0.317750 0.594920 -0.016349
0.321296 0.594986 -0.016619
0.324966 0.595512 -0.016892
0.330857 0.604456 -0.017295
0.334090 0.603113 -0.017534
0.335777 0.596117 -0.017675
0.338980 0.594820 -0.017902
0.341297 0.590406 -0.018071
0.344794 0.590229 -0.018307
0.349208 0.593171 -0.018594
0.352873 0.593473 -0.018830
0.361247 0.609303 -0.019350
0.362668 0.601987 -0.019440
0.365054 0.597968 -0.019584
0.368691 0.597991 -0.019800
0.373328 0.601083 -0.020072
0.376513 0.599624 -0.020251
0.381152 0.602550 -0.020513
0.385151 0.603466 -0.020732
0.388447 0.602280 -0.020903
0.390209 0.596697 -0.020977
0.393972 0.596909 -0.021167
0.401816 0.608459 -0.021598
0.403713 0.603309 -0.021667
0.405799 0.598789 -0.021742
0.408086 0.594899 -0.021826
0.412493 0.596670 -0.022032
0.417557 0.600070 -0.022272
0.421343 0.600069 -0.022432
0.423995 0.597170 -0.022521
0.426402 0.593703 -0.022591
0.428693 0.590009 -0.022651
0.432117 0.589132 -0.022774
0.436592 0.590768 -0.022953
0.440437 0.590834 -0.023091
0.445903 0.594657 -0.023318
0.452765 0.601576 -0.023619
0.457670 0.603824 -0.023804
0.459586 0.599250 -0.023816
0.459756 0.590864 -0.023727
0.462476 0.588255 -0.023778
0.467407 0.590473 -0.023949
0.471974 0.591822 -0.024095
0.475884 0.591712 -0.024201
0.482850 0.597973 -0.024468
0.486059 0.596269 -0.024528
0.489175 0.594380 -0.024578
0.495301 0.598586 -0.024786
0.497748 0.595302 -0.024794
0.504274 0.600121 -0.025014
0.510218 0.603658 -0.025198
0.513194 0.601338 -0.025223
0.517527 0.601627 -0.025314
0.523459 0.604894 -0.025484
0.527850 0.605171 -0.025570
0.531644 0.604296 -0.025621
0.531567 0.596322 -0.025476
0.532863 0.590964 -0.025397
0.539130 0.594585 -0.025563
0.548832 0.604173 -0.025892
0.552265 0.602533 -0.025907
0.549600 0.590312 -0.025625
0.554544 0.591365 -0.025709
0.559622 0.592583 -0.025795
0.563810 0.592244 -0.025834
0.568904 0.593375 -0.025912
0.580228 0.604700 -0.026274
0.584221 0.603810 -0.026290
0.582817 0.594192 -0.026055
0.583418 0.587929 -0.025911
0.587308 0.586949 -0.025914
0.592025 0.587242 -0.025950
0.596661 0.587362 -0.025977
0.604309 0.592056 -0.026132
0.609253 0.592511 -0.026163
0.614994 0.594112 -0.026223
0.620197 0.594841 -0.026254
0.625684 0.595930 -0.026293
0.627959 0.592268 -0.026192
0.634076 0.594185 -0.026247
0.636519 0.590765 -0.026145
0.633354 0.579419 -0.025814
0.642131 0.585007 -0.025962
0.650648 0.590084 -0.026092
0.658677 0.594347 -0.026194
0.667522 0.599594 -0.026319
0.676075 0.604304 -0.026425
0.668666 0.587526 -0.025916
0.673078 0.586681 -0.025855
0.677268 0.585514 -0.025781
0.684266 0.587973 -0.025804
0.688450 0.586714 -0.025717
0.694624 0.587968 -0.025697
0.698764 0.586582 -0.025597
0.701628 0.583575 -0.025447
0.707422 0.584208 -0.025393
0.711312 0.582442 -0.025268
0.717024 0.582875 -0.025197
0.706568 0.563755 -0.024586
0.716979 0.569866 -0.024661
0.732411 0.581756 -0.024886
0.745084 0.590140 -0.025006
0.755134 0.595267 -0.025030
0.750902 0.583808 -0.024604
0.749145 0.575328 -0.024253
0.759805 0.580978 -0.024271
0.769716 0.585631 -0.024254
0.770094 0.579569 -0.023950
0.776527 0.580216 -0.023814
0.788674 0.587014 -0.023827
0.794008 0.586280 -0.023639
0.795171 0.581042 -0.023331
0.802329 0.582190 -0.023176
0.817924 0.592108 -0.023226
0.818267 0.585927 -0.022875
0.821869 0.583154 -0.022600
0.828181 0.583134 -0.022383
0.831562 0.580088 -0.022088
0.829096 0.571178 -0.021652
0.830464 0.566172 -0.021301
0.885981 0.607669 -0.021708
0.894642 0.609310 -0.021466
0.893032 0.594355 -0.020576
0.899114 0.593446 -0.020260
0.899106 0.586820 -0.019823
0.914234 0.594191 -0.019653
0.915312 0.588533 -0.019224
0.918943 0.585217 -0.018834
0.924855 0.583936 -0.018477
0.930292 0.582188 -0.018106
0.939687 0.583881 -0.017788
0.943560 0.580665 -0.017381
0.956203 0.585005 -0.017093
0.961731 0.583115 -0.016698
0.975271 0.587974 -0.016402
0.962497 0.570612 -0.015779
0.975724 0.575105 -0.015473
0.968421 0.562559 -0.014934
0.984506 0.569247 -0.014654
1.003316 0.577947 -0.014391
1.017744 0.582921 -0.014077
1.025774 0.582677 -0.013704
1.035931 0.584049 -0.013352
1.044845 0.584376 -0.012994
1.053675 0.584583 -0.012643
1.059242 0.582249 -0.012278
1.067664 0.582072 -0.011945
1.082299 0.586508 -0.011663
1.089141 0.585045 -0.011347
1.095054 0.582893 -0.011043
1.105730 0.584218 -0.010784
1.113337 0.583279 -0.010530
1.120408 0.581953 -0.010296
1.127299 0.580505 -0.010086
1.138335 0.581979 -0.009919
1.148307 0.582677 -0.009775
1.155828 0.581667 -0.009650
1.162036 0.579776 -0.009551
1.168629 0.578179 -0.009485
1.178100 0.578548 -0.009463
1.189007 0.579876 -0.009478
1.198297 0.580126 -0.009523
1.209067 0.581356 -0.009607
1.211554 0.577203 -0.009699
1.229406 0.583035 -0.009881
1.230472 0.578071 -0.010039
1.233577 0.574502 -0.010239
1.245522 0.576576 -0.010510
1.260040 0.580251 -0.010830
1.263843 0.577263 -0.011139
1.265224 0.572863 -0.011469
0.159587 0.595924 -0.011362
0.162098 0.599380 -0.011213
0.164279 0.590685 -0.010992
0.166402 0.580866 -0.010785
0.169001 0.583767 -0.010687
0.172204 0.599195 -0.010689
0.175262 0.608203 -0.010665
0.177672 0.602246 -0.010561
0.179852 0.592094 -0.010452
0.182338 0.587803 -0.010400
0.185185 0.589204 -0.010405
0.188175 0.591964 -0.010438
0.191296 0.595719 -0.010497
0.194235 0.596083 -0.010554
0.197122 0.595241 -0.010622
0.200051 0.594555 -0.010709
0.203497 0.599468 -0.010854
0.206798 0.601937 -0.011000
0.210849 0.611699 -0.011218
0.213724 0.608490 -0.011360
0.216638 0.605627 -0.011518
0.219681 0.603921 -0.011700
0.222510 0.600216 -0.011877
0.226594 0.607232 -0.012159
0.230593 0.612831 -0.012444
0.233424 0.608646 -0.012653
0.237797 0.616304 -0.012984
0.238634 0.597339 -0.013063
0.242945 0.604160 -0.013404
0.245643 0.599343 -0.013632
0.248691 0.597062 -0.013891
0.251511 0.593355 -0.014138
0.254758 0.592460 -0.014419
0.258122 0.592256 -0.014712
0.262432 0.597581 -0.015079
0.265972 0.598137 -0.015389
0.269610 0.599159 -0.015707
0.272585 0.596480 -0.015976
0.276228 0.597432 -0.016294
0.279670 0.597261 -0.016597
0.282990 0.596455 -0.016889
0.286434 0.596262 -0.017189
0.289633 0.594874 -0.017468
0.295267 0.604947 -0.017934
0.297566 0.599244 -0.018137
0.301279 0.600115 -0.018448
0.304511 0.598813 -0.018718
0.307066 0.594634 -0.018931
0.310172 0.592924 -0.019183
0.313641 0.592759 -0.019460
0.317505 0.594179 -0.019764
0.321295 0.595224 -0.020058
0.324864 0.595353 -0.020330
0.330987 0.605186 -0.020798
0.332483 0.597333 -0.020898
0.334934 0.593249 -0.021069
0.338184 0.592169 -0.021298
0.342085 0.593411 -0.021573
0.344565 0.589645 -0.021733
0.349628 0.594818 -0.022089
0.352905 0.593788 -0.022301
0.358802 0.601429 -0.022710
0.364206 0.607191 -0.023076
0.365989 0.601160 -0.023158
0.369852 0.601841 -0.023395
0.373130 0.600665 -0.023583
0.376046 0.598391 -0.023739
0.380428 0.600567 -0.024001
0.385241 0.603922 -0.024290
0.388801 0.603495 -0.024480
0.391587 0.600834 -0.024607
0.394882 0.599659 -0.024768
0.396399 0.593532 -0.024793
0.401500 0.597401 -0.025079
0.405473 0.598073 -0.025276
0.408358 0.595789 -0.025390
0.411626 0.594547 -0.025527
0.416705 0.598011 -0.025791
0.420899 0.599085 -0.025986
0.423564 0.596228 -0.026066
0.425840 0.592445 -0.026116
0.428580 0.589870 -0.026196
0.432752 0.590812 -0.026372
0.436501 0.590681 -0.026515
0.440330 0.590709 -0.026658
0.445667 0.594229 -0.026902
0.450016 0.595346 -0.027072
0.457029 0.602477 -0.027420
0.460273 0.600907 -0.027505
0.459742 0.590938 -0.027333
0.462663 0.588765 -0.027392
0.467643 0.591082 -0.027584
0.472101 0.592188 -0.027736
0.475807 0.591636 -0.027835
0.480724 0.593601 -0.028009
0.485122 0.594407 -0.028145
0.489358 0.594826 -0.028266
0.492810 0.593615 -0.028333
0.496642 0.593152 -0.028421
0.502234 0.596146 -0.028616
0.509925 0.603140 -0.028936
0.515849 0.606521 -0.029140
0.517357 0.601346 -0.029067
0.520154 0.598684 -0.029070
0.520906 0.592219 -0.028947
0.528166 0.597895 -0.029215
0.530937 0.595195 -0.029209
0.533874 0.592816 -0.029209
0.537966 0.592516 -0.029275
0.547617 0.602033 -0.029661
0.550234 0.598981 -0.029631
0.549349 0.589880 -0.029397
0.554814 0.591827 -0.029527
0.558429 0.590552 -0.029546
0.562919 0.590735 -0.029611
0.567006 0.590205 -0.029650
0.578803 0.602337 -0.030111
0.582331 0.600708 -0.030108
0.580840 0.590978 -0.029828
0.583446 0.587945 -0.029770
0.587435 0.587115 -0.029784
0.591690 0.586680 -0.029808
0.602115 0.595765 -0.030153
0.604613 0.592476 -0.030074
0.604805 0.585710 -0.029873
0.608806 0.584761 -0.029867
0.615938 0.588446 -0.030016
0.619991 0.587482 -0.030003
0.627648 0.591751 -0.030165
0.641157 0.604349 -0.030609
0.647363 0.606210 -0.030683
0.647252 0.599040 -0.030444
0.643844 0.587336 -0.030045
0.654742 0.595695 -0.030330
0.661385 0.597992 -0.030403
0.668499 0.600842 -0.030491
0.672858 0.599872 -0.030444
0.666561 0.584624 -0.029905
0.672000 0.585164 -0.029901
0.681119 0.590476 -0.030056
0.685923 0.590033 -0.030010
0.688717 0.586963 -0.029870
0.699726 0.594379 -0.030081
0.707945 0.598084 -0.030161
0.703351 0.585632 -0.029689
0.707764 0.584531 -0.029597
0.712103 0.583311 -0.029495
0.710272 0.574556 -0.029136
0.723365 0.583904 -0.029378
0.725519 0.579963 -0.029170
0.731903 0.581049 -0.029124
0.746025 0.591135 -0.029370
0.751943 0.591452 -0.029284
0.752723 0.585795 -0.028997
0.753053 0.579676 -0.028689
0.762556 0.583978 -0.028716
0.770530 0.586432 -0.028675
0.772265 0.581868 -0.028400
0.775978 0.579503 -0.028191
0.792760 0.591353 -0.028427
0.791361 0.583315 -0.028023
0.796248 0.582084 -0.027828
0.801007 0.580680 -0.027621
0.814554 0.588462 -0.027690
0.824843 0.592653 -0.027638
0.828576 0.589951 -0.027367
0.830563 0.585455 -0.027035
0.834272 0.582719 -0.026749
0.838465 0.580454 -0.026471
0.843076 0.578581 -0.026197
0.851078 0.580012 -0.026012
0.869815 0.591806 -0.026112
0.881776 0.596777 -0.026003
0.887492 0.588993 -0.025264
0.893672 0.588223 -0.024970
0.902775 0.590114 -0.024740
0.913905 0.593769 -0.024546
0.913248 0.586527 -0.024059
0.919818 0.585884 -0.023739
0.925372 0.584272 -0.023387
0.934261 0.585577 -0.023101
0.941486 0.585325 -0.022769
0.946519 0.583100 -0.022385
0.950720 0.580128 -0.021979
0.974951 0.594252 -0.021957
0.973367 0.586197 -0.021427
0.978418 0.583787 -0.021023
0.980604 0.578974 -0.020568
0.993247 0.576163 -0.019802
1.004015 0.578290 -0.019490
1.022205 0.586248 -0.019288
1.032129 0.587451 -0.018955
1.036878 0.584515 -0.018551
1.044759 0.584012 -0.018197
1.052271 0.583182 -0.017845
1.061226 0.583419 -0.017520
1.074015 0.586500 -0.017251
1.081881 0.585797 -0.016932
1.089432 0.584834 -0.016624
1.097870 0.584503 -0.016342
1.106157 0.584038 -0.016075
1.115316 0.584182 -0.015837
1.122908 0.583179 -0.015605
1.133083 0.584004 -0.015421
1.140887 0.583134 -0.015239
1.148126 0.581876 -0.015078
1.153836 0.579580 -0.014933
1.160758 0.578148 -0.014828
1.173105 0.580413 -0.014802
1.180505 0.579323 -0.014765
1.190198 0.579785 -0.014781
1.202901 0.582235 -0.014856
1.207439 0.579318 -0.014897
1.219545 0.581375 -0.015037
1.228630 0.581475 -0.015188
1.237022 0.581152 -0.015370
1.243088 0.579388 -0.015567
1.249567 0.577936 -0.015805
1.257857 0.577665 -0.016094
1.268430 0.578838 -0.016441
1.297165 0.591166 -0.017000
0.156144 0.574715 -0.014120
0.158843 0.590208 -0.014130
0.161433 0.596683 -0.014047
0.163787 0.593003 -0.013865
0.165872 0.581198 -0.013614
0.169195 0.602320 -0.013742
0.171907 0.604464 -0.013680
0.174901 0.611420 -0.013689
0.177321 0.604947 -0.013573
0.179324 0.590850 -0.013398
0.182431 0.597037 -0.013457
0.184800 0.589790 -0.013395
0.187735 0.591430 -0.013445
0.190874 0.595219 -0.013539
0.193836 0.595675 -0.013616
0.196736 0.594783 -0.013698
0.199701 0.594321 -0.013802
0.202841 0.595516 -0.013943
0.206275 0.599464 -0.014134
0.210293 0.608835 -0.014407
0.212608 0.599949 -0.014482
0.215606 0.598101 -0.014654
0.218840 0.598320 -0.014865
0.220652 0.585691 -0.014924
0.224724 0.593059 -0.015251
0.227942 0.592701 -0.015490
0.231285 0.593180 -0.015751
0.234613 0.593356 -0.016017
0.240454 0.611857 -0.016560
0.242799 0.604157 -0.016732
0.245465 0.599054 -0.016944
0.248389 0.595891 -0.017188
0.251906 0.596668 -0.017499
0.255497 0.597782 -0.017820
0.258624 0.595943 -0.018095
0.262683 0.599657 -0.018468
0.266713 0.602939 -0.018838
0.269371 0.598331 -0.019067
0.272370 0.595780 -0.019332
0.276317 0.598344 -0.019692
0.280201 0.600421 -0.020045
0.283443 0.599126 -0.020330
0.286673 0.597804 -0.020613
0.290709 0.600392 -0.020974
0.294365 0.601052 -0.021294
0.297923 0.601204 -0.021602
0.300829 0.598405 -0.021840
0.304301 0.598189 -0.022132
0.307482 0.596706 -0.022391
0.310398 0.594153 -0.022621
0.313793 0.593657 -0.022894
0.317544 0.594598 -0.023197
0.321148 0.594903 -0.023482
0.324549 0.594383 -0.023742
0.329640 0.600307 -0.024162
0.332291 0.596861 -0.024341
0.334651 0.592448 -0.024487
0.338010 0.591776 -0.024725
0.341273 0.590769 -0.024950
0.345812 0.594213 -0.025290
0.349167 0.593466 -0.025513
0.352498 0.592641 -0.025730
0.359027 0.602394 -0.026240
0.363057 0.603675 -0.026510
0.367156 0.605110 -0.026782
0.370150 0.602994 -0.026946
0.372245 0.598131 -0.027024
0.375388 0.596591 -0.027194
0.380173 0.600003 -0.027508
0.384655 0.602388 -0.027789
0.387414 0.599652 -0.027910
0.390460 0.597789 -0.028053
0.392655 0.593547 -0.028116
0.393927 0.586823 -0.028095
0.397294 0.586020 -0.028255
0.404049 0.594391 -0.028705
0.408052 0.595144 -0.028909
0.411513 0.594417 -0.029062
0.414861 0.593386 -0.029202
0.420114 0.597235 -0.029498
0.424254 0.598132 -0.029695
0.425739 0.592344 -0.029665
0.428461 0.589724 -0.029736
0.433351 0.592411 -0.029982
0.436622 0.591108 -0.030090
0.442146 0.595146 -0.030378
0.443360 0.588962 -0.030312
0.451990 0.600033 -0.030839
0.456789 0.602051 -0.031052
0.460752 0.602104 -0.031193
0.462757 0.597761 -0.031176
0.462971 0.589548 -0.031017
0.467546 0.590972 -0.031197
0.471906 0.591865 -0.031355
0.475776 0.591661 -0.031471
0.480235 0.592661 -0.031627
0.485198 0.594646 -0.031818
0.489122 0.594422 -0.031925
0.492789 0.593644 -0.032010
0.496512 0.592960 -0.032095
0.501699 0.595150 -0.032284
0.508188 0.599801 -0.032562
0.515384 0.605675 -0.032885
0.516973 0.600660 -0.032799
0.517034 0.592826 -0.032603
0.522510 0.595256 -0.032790
0.525822 0.593591 -0.032820
0.529755 0.593059 -0.032890
0.532042 0.589521 -0.032842
0.539286 0.594897 -0.033132
0.542215 0.592477 -0.033122
0.550347 0.599188 -0.033460
0.550211 0.591377 -0.033237
0.555135 0.592377 -0.033351
0.558857 0.591274 -0.033380
0.563547 0.591780 -0.033469
0.567818 0.591541 -0.033527
0.576413 0.598383 -0.033858
0.579982 0.596857 -0.033861
0.580688 0.590705 -0.033679
0.583815 0.588501 -0.033649
0.588200 0.588289 -0.033694
0.592612 0.588082 -0.033736
0.602695 0.596619 -0.034121
0.605720 0.594126 -0.034067
0.604699 0.585499 -0.033768
0.600222 0.571806 -0.033263
0.605744 0.573219 -0.033354
0.615384 0.580631 -0.033680
0.629473 0.594346 -0.034255
0.639157 0.601389 -0.034562
0.648080 0.607161 -0.034815
0.647885 0.599859 -0.034544
0.645410 0.589456 -0.034144
0.651370 0.590927 -0.034215
0.660632 0.596871 -0.034461
0.669240 0.601765 -0.034661
0.670469 0.596557 -0.034454
0.666484 0.584430 -0.033966
0.671583 0.584517 -0.033962
0.678643 0.587130 -0.034055
0.684751 0.588411 -0.034090
0.689972 0.588477 -0.034073
0.705701 0.601894 -0.034582
0.710076 0.600669 -0.034504
0.704053 0.586405 -0.033902
0.707313 0.583866 -0.033762
0.710429 0.581147 -0.033610
0.727232 0.595083 -0.034113
0.726492 0.587562 -0.033761
0.723316 0.577220 -0.033293
0.736777 0.586703 -0.033601
0.748420 0.593826 -0.033809
0.759763 0.600417 -0.033989
0.764405 0.599122 -0.033854
0.771874 0.601017 -0.033837
0.767756 0.589735 -0.033302
0.768036 0.583525 -0.032960
0.775301 0.585117 -0.032913
0.783143 0.587258 -0.032880
0.789747 0.587955 -0.032784
0.792883 0.584840 -0.032536
0.796271 0.581991 -0.032293
0.800593 0.580124 -0.032080
0.813261 0.586987 -0.032185
0.824095 0.591756 -0.032203
0.828044 0.589285 -0.031944
0.829690 0.584447 -0.031591
0.837746 0.586113 -0.031470
0.846263 0.588147 -0.031352
0.845523 0.580892 -0.030894
0.849112 0.577961 -0.030584
0.864628 0.586635 -0.030676
0.872651 0.581306 -0.030036
0.875729 0.577730 -0.029675
0.888206 0.582970 -0.029607
0.895372 0.583108 -0.029355
0.908565 0.588724 -0.029277
0.913792 0.586896 -0.028944
0.918766 0.584802 -0.028595
0.925895 0.584607 -0.028301
0.928367 0.580212 -0.027867
0.945639 0.588832 -0.027834
0.948070 0.584302 -0.027385
0.951771 0.580882 -0.026968
0.970600 0.590374 -0.026931
0.981925 0.593269 -0.026688
0.975376 0.581061 -0.026003
0.998137 0.586611 -0.025492
1.009046 0.588823 -0.025215
1.010266 0.583111 -0.024721
1.020124 0.584346 -0.024417
1.031481 0.586683 -0.024143
1.037305 0.584577 -0.023756
1.044376 0.583423 -0.023399
1.056004 0.585741 -0.023135
1.062994 0.584430 -0.022789
1.071372 0.584142 -0.022478
1.080243 0.584182 -0.022186
1.090821 0.585446 -0.021935
1.098351 0.584410 -0.021645
1.106370 0.583715 -0.021381
1.115777 0.584002 -0.021157
1.127661 0.586025 -0.020991
1.135902 0.585413 -0.020789
1.143390 0.584268 -0.020601
1.149133 0.581917 -0.020414
1.155910 0.580311 -0.020270
1.173868 0.586353 -0.020312
1.182818 0.586199 -0.020256
1.185135 0.581604 -0.020142
1.193452 0.581082 -0.020144
1.200609 0.579814 -0.020163
1.214758 0.583147 -0.020311
1.219288 0.580211 -0.020365
1.227873 0.579948 -0.020509
1.238318 0.580894 -0.020715
1.246230 0.580250 -0.020923
1.252208 0.578429 -0.021142
1.256143 0.575395 -0.021367
1.275174 0.581753 -0.021840
1.264496 0.569853 -0.021929
0.155640 0.578941 -0.016935
0.158329 0.593346 -0.017005
0.160755 0.593109 -0.016861
0.162910 0.582761 -0.016581
0.165900 0.597488 -0.016700
0.168708 0.603520 -0.016704
0.171656 0.610801 -0.016745
0.174183 0.606676 -0.016636
0.176223 0.592411 -0.016397
0.179223 0.597445 -0.016463
0.182096 0.598829 -0.016496
0.184531 0.592156 -0.016429
0.187394 0.592270 -0.016482
0.190422 0.594170 -0.016581
0.193387 0.594452 -0.016675
0.196324 0.593866 -0.016775
0.199409 0.594700 -0.016914
0.202509 0.595217 -0.017067
0.205665 0.595922 -0.017240
0.209146 0.599652 -0.017478
0.211663 0.593014 -0.017564
0.214999 0.594566 -0.017797
0.218554 0.597762 -0.018074
0.220710 0.588053 -0.018141
0.224415 0.592108 -0.018457
0.227734 0.592502 -0.018720
0.231529 0.596473 -0.019060
0.234698 0.595237 -0.019313
0.241165 0.618239 -0.020039
0.243174 0.607857 -0.020136
0.245658 0.601310 -0.020308
0.248869 0.599936 -0.020585
0.252649 0.602241 -0.020942
0.256401 0.604154 -0.021296
0.259485 0.601831 -0.021562
0.262910 0.601596 -0.021875
0.266731 0.603603 -0.022240
0.270181 0.603380 -0.022556
0.272918 0.599248 -0.022780
0.276363 0.599044 -0.023093
0.279520 0.597330 -0.023369
0.282817 0.596374 -0.023661
0.286830 0.598963 -0.024041
0.290711 0.600769 -0.024400
0.294094 0.600129 -0.024694
0.296920 0.596938 -0.024917
0.300180 0.595814 -0.025191
0.303847 0.596510 -0.025510
0.307360 0.596490 -0.025806
0.310203 0.593628 -0.026019
0.313720 0.593646 -0.026308
0.317467 0.594572 -0.026619
0.321209 0.595422 -0.026926
0.324764 0.595489 -0.027205
0.329882 0.601497 -0.027660
0.333681 0.602323 -0.027957
0.335871 0.597188 -0.028066
0.337942 0.591785 -0.028158
0.341546 0.591986 -0.028420
0.345277 0.592596 -0.028691
0.348931 0.592900 -0.028948
0.352395 0.592533 -0.029179
0.357342 0.597059 -0.029568
0.362369 0.601674 -0.029958
0.367126 0.605246 -0.030312
0.369206 0.600248 -0.030373
0.370641 0.593381 -0.030362
0.376818 0.601173 -0.030851
0.381819 0.605166 -0.031208
0.385281 0.604452 -0.031397
0.388055 0.601728 -0.031510
0.390081 0.596906 -0.031543
0.391703 0.591052 -0.031532
0.393764 0.586561 -0.031564
0.397676 0.587259 -0.031780
0.402935 0.591557 -0.032126
0.409126 0.598197 -0.032558
0.411271 0.593958 -0.032582
0.412587 0.587645 -0.032522
0.420748 0.599031 -0.033128
0.424912 0.599962 -0.033337
0.425852 0.592788 -0.033231
0.429218 0.591744 -0.033356
0.433052 0.591833 -0.033521
0.437450 0.593243 -0.033735
0.441594 0.593978 -0.033920
0.444492 0.591747 -0.033985
0.451391 0.598782 -0.034415
0.458515 0.606119 -0.034857
0.462706 0.606629 -0.035025
0.464073 0.600807 -0.034934
0.462808 0.589301 -0.034607
0.467774 0.591573 -0.034836
0.472128 0.592443 -0.035005
0.476896 0.594132 -0.035205
0.482654 0.597823 -0.035486
0.486822 0.598097 -0.035625
0.489515 0.595307 -0.035633
0.498650 0.605583 -0.036184
0.503943 0.607898 -0.036402
0.503926 0.599619 -0.036171
0.506776 0.597097 -0.036179
0.511828 0.598853 -0.036365
0.518465 0.603562 -0.036676
0.519138 0.596849 -0.036496
0.524806 0.599589 -0.036718
0.528356 0.598311 -0.036766
0.530287 0.594062 -0.036682
0.532969 0.591224 -0.036656
0.534801 0.586884 -0.036562
0.547643 0.602107 -0.037317
0.548607 0.596146 -0.037148
0.549998 0.591013 -0.037010
0.553115 0.588909 -0.037002
0.559338 0.592085 -0.037225
0.563472 0.591645 -0.037285
0.567963 0.591766 -0.037368
0.574864 0.595814 -0.037623
0.578209 0.593943 -0.037613
0.579768 0.589192 -0.037471
0.582436 0.586267 -0.037407
0.588529 0.588772 -0.037584
0.593119 0.588833 -0.037649
0.599331 0.591365 -0.037822
0.610719 0.601738 -0.038346
0.607119 0.589117 -0.037831
0.603841 0.577188 -0.037343
0.604701 0.571607 -0.037137
0.616532 0.582259 -0.037664
0.624197 0.586582 -0.037902
0.631129 0.589718 -0.038084
0.638676 0.593632 -0.038298
0.642506 0.592160 -0.038263
0.646746 0.591248 -0.038251
0.652492 0.592400 -0.038329
0.660904 0.597156 -0.038569
0.670887 0.603915 -0.038897
0.682442 0.612623 -0.039310
0.668310 0.586775 -0.038140
0.672780 0.586004 -0.038112
0.677096 0.585000 -0.038069
0.680878 0.583274 -0.037989
0.690096 0.588531 -0.038225
0.701718 0.596706 -0.038590
0.703438 0.592173 -0.038369
0.703313 0.585368 -0.038039
0.706555 0.582813 -0.037900
0.710600 0.581243 -0.037801
0.726953 0.594626 -0.038378
0.728851 0.590288 -0.038143
0.728484 0.583274 -0.037781
0.727806 0.575971 -0.037401
0.751452 0.597257 -0.038313
0.758993 0.599399 -0.038350
0.766739 0.601682 -0.038387
0.771040 0.599941 -0.038236
0.769830 0.591951 -0.037798
0.766413 0.581585 -0.037250
0.775988 0.585754 -0.037347
0.788420 0.592929 -0.037571
0.787765 0.585671 -0.037145
0.794559 0.586520 -0.037073
0.797175 0.582831 -0.036794
0.801420 0.580875 -0.036585
0.812357 0.585912 -0.036676
0.821366 0.588793 -0.036663
0.823157 0.584127 -0.036315
0.827635 0.582225 -0.036080
0.841587 0.589869 -0.036248
0.844173 0.585927 -0.035910
0.849582 0.584793 -0.035685
0.853654 0.582300 -0.035396
0.863636 0.585541 -0.035340
0.863810 0.579193 -0.034875
0.866775 0.575562 -0.034518
0.872383 0.574433 -0.034258
0.879977 0.575121 -0.034064
0.891737 0.579599 -0.034015
0.906029 0.586254 -0.034041
0.914073 0.587017 -0.033822
0.919082 0.584950 -0.033483
0.924636 0.583338 -0.033156
0.934418 0.585435 -0.032966
0.945569 0.588621 -0.032808
0.950743 0.586475 -0.032440
0.954529 0.583102 -0.032022
0.967596 0.587643 -0.031893
0.979955 0.591429 -0.031727
0.970962 0.577185 -0.030905
0.984069 0.581477 -0.030750
0.997096 0.585555 -0.030581
1.014228 0.592830 -0.030517
1.017033 0.588346 -0.030043
1.020461 0.584378 -0.029591
1.026440 0.582440 -0.029211
1.037060 0.584116 -0.028954
1.046864 0.585066 -0.028676
1.053674 0.583640 -0.028326
1.063349 0.584369 -0.028052
1.070536 0.583156 -0.027726
1.081299 0.584592 -0.027493
1.091210 0.585325 -0.027248
1.098577 0.584139 -0.026960
1.107332 0.583946 -0.026718
1.119285 0.586026 -0.026559
1.129045 0.586476 -0.026372
1.133913 0.583437 -0.026105
1.147170 0.586306 -0.026031
1.157474 0.587060 -0.025921
1.163659 0.584956 -0.025757
1.173725 0.585527 -0.025696
1.181235 0.584360 -0.025616
1.189512 0.583727 -0.025582
1.195811 0.581798 -0.025543
1.204891 0.581740 -0.025589
1.212979 0.581048 -0.025651
1.221177 0.580455 -0.025751
1.227395 0.578620 -0.025850
1.235715 0.578173 -0.026023
1.249520 0.581218 -0.026334
1.256074 0.579702 -0.026548
1.263867 0.579008 -0.026822
1.262139 0.572489 -0.026953
1.292771 0.585882 -0.027731
0.156130 0.633141 -0.020789
0.157896 0.599869 -0.019987
0.160017 0.586743 -0.019607
0.162457 0.585765 -0.019483
0.165079 0.589091 -0.019460
0.168056 0.600112 -0.019603
0.170852 0.603684 -0.019621
0.173746 0.607864 -0.019670
0.176458 0.606739 -0.019639
0.178829 0.598446 -0.019492
0.181481 0.595534 -0.019466
0.184211 0.593580 -0.019478
0.187045 0.592873 -0.019533
0.190018 0.593665 -0.019637
0.192975 0.593628 -0.019743
0.195990 0.593854 -0.019873
0.199078 0.594519 -0.020029
0.202157 0.594591 -0.020192
0.205237 0.594300 -0.020363
0.209882 0.610291 -0.020886
0.212931 0.608374 -0.021059
0.215235 0.599118 -0.021089
0.218038 0.595028 -0.021239
0.221069 0.593069 -0.021444
0.224260 0.592431 -0.021689
0.228141 0.597348 -0.022068
0.231477 0.597418 -0.022350
0.234781 0.597094 -0.022631
0.241509 0.621924 -0.023518
0.243094 0.608317 -0.023500
0.245754 0.602904 -0.023679
0.249521 0.605135 -0.024050
0.252999 0.605284 -0.024374
0.256486 0.605410 -0.024700
0.259409 0.602032 -0.024936
0.262667 0.600772 -0.025227
0.266188 0.601054 -0.025561
0.270196 0.603996 -0.025969
0.273395 0.602342 -0.026250
0.276148 0.598369 -0.026461
0.279108 0.595639 -0.026705
0.282665 0.596028 -0.027037
0.286571 0.598090 -0.027417
0.290746 0.601323 -0.027833
0.293763 0.598944 -0.028075
0.296406 0.594934 -0.028261
0.300149 0.596020 -0.028603
0.303525 0.595429 -0.028888
0.306375 0.592576 -0.029096
0.309886 0.592608 -0.029393
0.313656 0.593689 -0.029721
0.317288 0.594149 -0.030025
0.321570 0.597146 -0.030413
0.325181 0.597401 -0.030704
0.331123 0.606520 -0.031301
0.334945 0.607337 -0.031608
0.337845 0.604718 -0.031787
0.339298 0.596949 -0.031775
0.341371 0.591628 -0.031841
0.345190 0.592557 -0.032131
0.348823 0.592789 -0.032391
0.352909 0.594516 -0.032703
0.357734 0.598608 -0.033102
0.362058 0.600908 -0.033431
0.366031 0.601985 -0.033710
0.368199 0.597316 -0.033762
0.371622 0.596657 -0.033965
0.377148 0.602413 -0.034417
0.382896 0.608634 -0.034887
0.387127 0.610144 -0.035168
0.389107 0.605015 -0.035178
0.389535 0.595550 -0.035003
0.391890 0.591790 -0.035054
0.394780 0.589598 -0.035164
0.398717 0.590322 -0.035390
0.404414 0.595763 -0.035811
0.408666 0.597160 -0.036062
0.411511 0.594776 -0.036149
0.415605 0.595676 -0.036371
0.421135 0.600203 -0.036747
0.424972 0.600288 -0.036930
0.426139 0.593671 -0.036819
0.428947 0.591238 -0.036884
0.432705 0.591148 -0.037048
0.437014 0.592348 -0.037266
0.440881 0.592436 -0.037432
0.444691 0.592354 -0.037588
0.451042 0.598113 -0.038003
0.459676 0.608903 -0.038644
0.463845 0.609328 -0.038818
0.464283 0.601397 -0.038609
0.463891 0.591799 -0.038319
0.468454 0.593162 -0.038525
0.472777 0.593940 -0.038702
0.477847 0.596252 -0.038947
0.485150 0.603152 -0.039405
0.488402 0.601459 -0.039461
0.491081 0.598597 -0.039460
0.494603 0.597469 -0.039537
0.501003 0.602089 -0.039883
0.505697 0.603192 -0.040061
0.507320 0.598225 -0.039948
0.511349 0.597983 -0.040057
0.518725 0.604112 -0.040469
0.524003 0.606098 -0.040681
0.523944 0.598017 -0.040407
0.526903 0.595659 -0.040405
0.531053 0.595493 -0.040505
0.535753 0.596287 -0.040651
0.538743 0.593963 -0.040642
0.545501 0.598325 -0.040958
0.553196 0.604198 -0.041346
0.549094 0.589448 -0.040719
0.553379 0.589361 -0.040810
0.558800 0.591164 -0.040991
0.563243 0.591247 -0.041086
0.567516 0.591007 -0.041162
0.573563 0.593651 -0.041380
0.578719 0.594750 -0.041518
0.579216 0.588273 -0.041275
0.581878 0.585341 -0.041206
0.587635 0.587319 -0.041382
0.593213 0.588936 -0.041536
0.598581 0.590154 -0.041669
0.610760 0.594585 -0.042028
0.609987 0.586362 -0.041674
0.616210 0.588666 -0.041851
0.622302 0.590690 -0.042012
0.624824 0.587424 -0.041900
0.627607 0.584556 -0.041805
0.633637 0.586344 -0.041945
0.640349 0.589022 -0.042128
0.645191 0.588980 -0.042169
0.649672 0.588394 -0.042178
0.656709 0.591291 -0.042363
0.669530 0.601969 -0.042945
0.672640 0.599292 -0.042837
0.669928 0.588836 -0.042325
0.673906 0.587392 -0.042272
0.677779 0.585789 -0.042208
0.681863 0.584446 -0.042153
0.690734 0.589241 -0.042410
0.695341 0.588462 -0.042376
0.699526 0.587117 -0.042309
0.700884 0.582212 -0.042053
0.706802 0.583000 -0.042087
0.712251 0.583150 -0.042084
0.720108 0.586176 -0.042224
0.729594 0.591058 -0.042455
0.727765 0.582291 -0.041977
0.731856 0.580636 -0.041862
0.744240 0.588677 -0.042239
0.754225 0.593732 -0.042457
0.760988 0.594933 -0.042471
0.766273 0.594375 -0.042390
0.767646 0.589353 -0.042074
0.769547 0.584959 -0.041785
0.776938 0.586675 -0.041802
0.787622 0.591918 -0.041992
0.791635 0.589749 -0.041798
0.793989 0.585772 -0.041507
0.798123 0.583711 -0.041306
