ply
format ascii 1.0
comment ---
element vertex 1708
property float x
property float y
property float z
element face 0
property list uchar uint vertex_indices
end_header
1.101661 0.586612 -0.277789
1.114438 0.590716 -0.279295
1.121343 0.589198 -0.279427
1.127349 0.586832 -0.279353
1.136820 0.587655 -0.280072
1.148170 0.590139 -0.281211
1.155773 0.589175 -0.281502
1.163069 0.587938 -0.281730
1.169774 0.586190 -0.281837
1.177013 0.584939 -0.282073
1.188211 0.587155 -0.283187
1.203799 0.593122 -0.285257
1.207765 0.589090 -0.284816
1.213602 0.586737 -0.284802
1.221525 0.586211 -0.285258
0.079944 0.582905 -0.198557
0.084557 0.576763 -0.197954
0.087484 0.580518 -0.198858
0.090254 0.585723 -0.199997
0.093059 0.591301 -0.201208
0.097540 0.586829 -0.200900
0.102516 0.579128 -0.200102
0.105899 0.581970 -0.200927
0.110021 0.580090 -0.201036
0.113970 0.579560 -0.201359
0.116841 0.587253 -0.202965
0.120380 0.590534 -0.203897
0.122953 0.602013 -0.206119
0.128311 0.591288 -0.204878
0.133812 0.578559 -0.203314
0.137521 0.581120 -0.204152
0.141452 0.581902 -0.204714
0.145658 0.580095 -0.204868
0.149669 0.580198 -0.205326
0.153325 0.584285 -0.206421
0.157186 0.586462 -0.207215
0.161040 0.588984 -0.208067
0.165089 0.589260 -0.208558
0.168830 0.593863 -0.209750
0.173022 0.592274 -0.209939
0.177025 0.593450 -0.210576
0.181201 0.591675 -0.210730
0.185205 0.592787 -0.211354
0.189528 0.587174 -0.210870
0.193534 0.587678 -0.211388
0.197590 0.586780 -0.211672
0.201658 0.585021 -0.211810
0.205700 0.583377 -0.211962
0.209504 0.591174 -0.213690
0.213456 0.594542 -0.214680
0.217487 0.593831 -0.214985
0.221495 0.594277 -0.215481
0.225500 0.594768 -0.215983
0.229505 0.595988 -0.216606
0.233515 0.596962 -0.217187
0.237528 0.597891 -0.217758
0.241540 0.598537 -0.218279
0.245289 0.586035 -0.216540
0.249258 0.587332 -0.217163
0.253174 0.586536 -0.217424
0.257202 0.589329 -0.218302
0.261526 0.599105 -0.220394
0.265477 0.598322 -0.220655
0.269181 0.592628 -0.220055
0.273207 0.594028 -0.220690
0.277250 0.595528 -0.221342
0.280980 0.591806 -0.221074
0.284900 0.591440 -0.221393
0.288807 0.590944 -0.221687
0.292446 0.587007 -0.221368
0.296432 0.587772 -0.221880
0.300263 0.586642 -0.222054
0.304245 0.587279 -0.222541
0.308130 0.586812 -0.222829
0.312118 0.587390 -0.223303
0.315948 0.586387 -0.223492
0.319837 0.585986 -0.223787
0.323755 0.585831 -0.224125
0.327809 0.586793 -0.224665
0.331699 0.586326 -0.224945
0.335440 0.584704 -0.225013
0.339559 0.585990 -0.225609
0.343476 0.585681 -0.225914
0.347228 0.584202 -0.226004
0.351463 0.586044 -0.226702
0.355282 0.585005 -0.226870
0.359445 0.586169 -0.227443
0.363489 0.586491 -0.227861
0.367450 0.586248 -0.228174
0.371416 0.586006 -0.228487
0.375204 0.584721 -0.228604
0.379160 0.584383 -0.228897
0.383513 0.586156 -0.229586
0.387644 0.586625 -0.230030
0.391604 0.586152 -0.230298
0.395690 0.586285 -0.230679
0.399799 0.586477 -0.231071
0.403435 0.584361 -0.231027
0.407428 0.583958 -0.231306
0.411517 0.583959 -0.231661
0.416392 0.587399 -0.232673
0.420486 0.587252 -0.233002
0.424750 0.587792 -0.233463
0.428779 0.587282 -0.233723
0.432557 0.585722 -0.233780
0.436731 0.585757 -0.234144
0.440880 0.585652 -0.234482
0.445184 0.586095 -0.234926
0.449406 0.586168 -0.235299
0.453400 0.585348 -0.235499
0.457386 0.584486 -0.235690
0.461302 0.583355 -0.235829
0.465511 0.583247 -0.236167
0.470205 0.584768 -0.236826
0.474770 0.585752 -0.237382
0.479113 0.585919 -0.237777
0.483185 0.585155 -0.237989
0.487470 0.585052 -0.238333
0.491538 0.584224 -0.238533
0.495613 0.583401 -0.238734
0.500258 0.584302 -0.239278
0.506092 0.588709 -0.240526
0.508142 0.581726 -0.239496
0.514575 0.587698 -0.241062
0.517815 0.584275 -0.240743
0.522172 0.584074 -0.241072
0.526208 0.582940 -0.241213
0.531166 0.584328 -0.241865
0.535758 0.584642 -0.242301
0.540927 0.586445 -0.243041
0.547241 0.591164 -0.244379
0.550335 0.587364 -0.243980
0.554390 0.586086 -0.244095
0.558848 0.585815 -0.244417
0.563077 0.584941 -0.244616
0.567349 0.584155 -0.244833
0.575673 0.593148 -0.247071
0.580736 0.594079 -0.247648
0.586075 0.595596 -0.248349
0.592553 0.599678 -0.249586
0.596980 0.598910 -0.249816
0.596847 0.587792 -0.247884
0.601991 0.588714 -0.248464
0.604982 0.584819 -0.248035
0.610712 0.586950 -0.248870
0.615405 0.586757 -0.249219
0.623267 0.593268 -0.250985
0.630375 0.597993 -0.252380
0.634861 0.597122 -0.252592
0.637030 0.591479 -0.251790
0.643520 0.594686 -0.252870
0.651353 0.600462 -0.254503
0.658819 0.605338 -0.255949
0.661348 0.600399 -0.255295
0.665723 0.599101 -0.255420
0.669147 0.595973 -0.255150
0.670129 0.588257 -0.253887
0.674140 0.586335 -0.253872
0.679432 0.586777 -0.254370
0.684456 0.586677 -0.254750
0.692292 0.591617 -0.256230
0.700079 0.596317 -0.257664
0.706701 0.598812 -0.258620
0.707811 0.591572 -0.257443
0.711634 0.589135 -0.257316
0.716518 0.588519 -0.257589
0.729289 0.601219 -0.260804
0.736734 0.604684 -0.261988
0.738527 0.598667 -0.261072
0.741806 0.595162 -0.260710
0.749232 0.598412 -0.261851
0.751194 0.592772 -0.261010
0.755374 0.590725 -0.260969
0.761155 0.591186 -0.261489
0.771935 0.599368 -0.263747
0.781551 0.605540 -0.265561
0.788345 0.607231 -0.266370
0.799373 0.615225 -0.268609
0.790910 0.593885 -0.264201
0.794922 0.591370 -0.264053
0.799523 0.589711 -0.264099
0.804601 0.588722 -0.264297
0.810985 0.589571 -0.264916
0.818280 0.591641 -0.265816
0.824780 0.592494 -0.266440
0.827852 0.588498 -0.265949
0.832391 0.586542 -0.265925
0.843528 0.593576 -0.267981
0.858549 0.605663 -0.271218
0.855072 0.592682 -0.268641
0.857965 0.588335 -0.268063
0.869040 0.594753 -0.269995
0.871721 0.590066 -0.269336
0.876916 0.588640 -0.269439
0.885589 0.591609 -0.270574
0.893091 0.592975 -0.271336
0.905630 0.600542 -0.273566
0.907904 0.595179 -0.272744
0.911098 0.590976 -0.272194
0.916481 0.589440 -0.272274
0.921816 0.587802 -0.272330
0.926627 0.585495 -0.272227
0.934639 0.586936 -0.273019
0.944245 0.590135 -0.274237
0.948359 0.586838 -0.273898
0.950937 0.581766 -0.273130
0.956390 0.579976 -0.273150
0.962621 0.579016 -0.273372
0.972394 0.581938 -0.274537
0.983997 0.586742 -0.276166
1.001260 0.597553 -0.279266
1.009327 0.598129 -0.279880
1.004254 0.584538 -0.277029
1.017335 0.590383 -0.278936
1.035534 0.601409 -0.282127
1.030417 0.587888 -0.279281
1.038260 0.587898 -0.279767
1.044510 0.586205 -0.279835
1.056448 0.590214 -0.281320
1.063713 0.589394 -0.281613
1.070748 0.588290 -0.281837
1.080286 0.589592 -0.282667
1.086892 0.587953 -0.282766
1.093026 0.585828 -0.282745
1.103194 0.587528 -0.283690
1.112507 0.588333 -0.284417
1.120371 0.587719 -0.284791
1.128384 0.587209 -0.285197
1.138583 0.588674 -0.286111
1.148649 0.589960 -0.286987
1.155526 0.588324 -0.287125
1.167198 0.590975 -0.288366
1.171363 0.586933 -0.287897
1.177097 0.584336 -0.287801
1.187437 0.585785 -0.288756
1.197725 0.587176 -0.289704
1.206704 0.587447 -0.290371
1.210961 0.583750 -0.290011
1.215634 0.580500 -0.289769
0.080422 0.577284 -0.201482
0.083850 0.577837 -0.201897
0.087193 0.579229 -0.202455
0.089954 0.584498 -0.203633
0.093928 0.582874 -0.203744
0.097824 0.581942 -0.203973
0.101597 0.582037 -0.204372
0.105710 0.580108 -0.204460
0.109355 0.581544 -0.205089
0.113083 0.582709 -0.205684
0.116689 0.585081 -0.206479
0.119266 0.595734 -0.208610
0.122848 0.599346 -0.209625
0.127606 0.593608 -0.209139
0.132484 0.586493 -0.208427
0.136274 0.588704 -0.209227
0.139888 0.592891 -0.210352
0.144657 0.586084 -0.209687
0.148072 0.592771 -0.211229
0.152209 0.592268 -0.211596
0.155499 0.601559 -0.213580
0.160104 0.595795 -0.213080
0.163890 0.599988 -0.214228
0.168123 0.598467 -0.214427
0.172252 0.598236 -0.214839
0.176797 0.591144 -0.214098
0.181245 0.584462 -0.213417
0.184313 0.602927 -0.216973
0.189228 0.585935 -0.214541
0.193195 0.587286 -0.215206
0.197215 0.587393 -0.215658
0.201384 0.582757 -0.215297
0.205387 0.582220 -0.215632
0.209038 0.596382 -0.218491
0.213101 0.595108 -0.218700
0.217168 0.592104 -0.218606
0.221169 0.592657 -0.219124
0.225168 0.593448 -0.219681
0.229170 0.596407 -0.220615
0.233184 0.597533 -0.221228
0.237151 0.593578 -0.220949
0.241100 0.591236 -0.220947
0.245038 0.589693 -0.221081
0.248905 0.586022 -0.220836
0.252851 0.586376 -0.221298
0.256753 0.585438 -0.221529
0.260684 0.585572 -0.221948
0.264581 0.584946 -0.222229
0.268479 0.584492 -0.222539
0.272706 0.590402 -0.223990
0.276438 0.586753 -0.223722
0.280246 0.584896 -0.223773
0.284315 0.587195 -0.224573
0.288233 0.587099 -0.224938
0.292280 0.588690 -0.225609
0.296021 0.586313 -0.225556
0.300010 0.587076 -0.226074
0.303933 0.587002 -0.226437
0.307988 0.588305 -0.227052
0.311777 0.586805 -0.227151
0.315598 0.585717 -0.227323
0.319477 0.585215 -0.227602
0.323441 0.585471 -0.228019
0.327434 0.585918 -0.228472
0.331351 0.585678 -0.228796
0.335307 0.585732 -0.229174
0.339499 0.587507 -0.229873
0.343310 0.586358 -0.230024
0.347359 0.586913 -0.230495
0.351231 0.586187 -0.230723
0.355131 0.585656 -0.230987
0.359052 0.585239 -0.231272
0.363183 0.586106 -0.231800
0.367190 0.586134 -0.232169
0.371171 0.585959 -0.232498
0.375216 0.586114 -0.232891
0.379010 0.584831 -0.233007
0.383065 0.584967 -0.233395
0.387380 0.586420 -0.234036
0.391264 0.585546 -0.234230
0.395700 0.587417 -0.234953
0.399676 0.586918 -0.235219
0.403432 0.585347 -0.235277
0.407122 0.583492 -0.235277
0.411683 0.585633 -0.236056
0.415811 0.585707 -0.236433
0.419878 0.585466 -0.236749
0.423736 0.584297 -0.236882
0.428061 0.585077 -0.237398
0.432281 0.585347 -0.237815
0.436500 0.585555 -0.238220
0.441191 0.587561 -0.238982
0.445274 0.587106 -0.239257
0.449267 0.586280 -0.239459
0.453277 0.585501 -0.239670
0.457429 0.585223 -0.239980
0.461582 0.584911 -0.240285
0.465802 0.584796 -0.240629
0.470079 0.584840 -0.241006
0.474695 0.585981 -0.241605
0.480014 0.589374 -0.242661
0.484778 0.590797 -0.243322
0.488355 0.588311 -0.243190
0.492037 0.586198 -0.243133
0.499598 0.596162 -0.245540
0.502055 0.590155 -0.244689
0.506341 0.589795 -0.244992
0.512117 0.593821 -0.246196
0.516154 0.592603 -0.246325
0.521060 0.593879 -0.246969
0.522849 0.586254 -0.245773
0.531736 0.598591 -0.248710
0.538060 0.603484 -0.250112
0.544430 0.608316 -0.251507
0.547513 0.604205 -0.251041
0.549876 0.598274 -0.250192
0.550256 0.587329 -0.248288
0.554123 0.585555 -0.248301
0.558224 0.584380 -0.248439
0.561458 0.581041 -0.248120
0.568106 0.586121 -0.249580
0.577279 0.597128 -0.252301
0.582336 0.597981 -0.252877
0.587600 0.599257 -0.253545
0.592616 0.599883 -0.254076
0.597357 0.599818 -0.254462
0.599597 0.594051 -0.253627
0.600287 0.584924 -0.252066
0.606825 0.588896 -0.253316
0.611746 0.589202 -0.253780
0.615470 0.586882 -0.253678
0.621598 0.589690 -0.254686
0.628793 0.594632 -0.256160
0.635124 0.597621 -0.257216
0.639136 0.595740 -0.257214
0.645253 0.598127 -0.258143
0.654339 0.606362 -0.260357
0.657334 0.602308 -0.259882
0.659854 0.597377 -0.259211
0.665391 0.598352 -0.259839
0.669616 0.596752 -0.259900
0.670253 0.588366 -0.258457
0.675246 0.588266 -0.258846
0.679629 0.586999 -0.258976
0.683949 0.585600 -0.259078
0.691003 0.589128 -0.260279
0.700574 0.597032 -0.262465
0.704613 0.594944 -0.262417
0.705462 0.587281 -0.261114
0.710386 0.586784 -0.261420
0.715593 0.586738 -0.261829
0.729078 0.600651 -0.265400
0.733063 0.598321 -0.265299
0.736302 0.594756 -0.264916
0.739237 0.590722 -0.264423
0.745486 0.592098 -0.265163
0.750346 0.591167 -0.265378
0.755926 0.591352 -0.265849
0.764563 0.596287 -0.267413
0.771557 0.598515 -0.268360
0.779729 0.602460 -0.269707
0.789612 0.608882 -0.271633
0.792768 0.604970 -0.271168
0.791304 0.594185 -0.269101
0.794765 0.590844 -0.268760
0.799260 0.589027 -0.268772
0.805242 0.589347 -0.269285
0.810228 0.588176 -0.269448
0.819166 0.592583 -0.270924
0.826017 0.593912 -0.271680
0.828218 0.588682 -0.270889
0.833643 0.587939 -0.271156
0.845525 0.595964 -0.273505
0.852358 0.596947 -0.274188
0.856288 0.593961 -0.273928
0.859489 0.590004 -0.273434
0.873035 0.599638 -0.276192
0.875870 0.595097 -0.275559
0.880582 0.592993 -0.275509
0.887430 0.593584 -0.276108
0.901166 0.602790 -0.278792
0.906730 0.601531 -0.278952
0.911013 0.598640 -0.278717
0.913281 0.593262 -0.277875
0.916946 0.589610 -0.277450
0.922774 0.588555 -0.277657
0.927311 0.585908 -0.277475
0.933388 0.585052 -0.277732
0.943393 0.588726 -0.279105
0.948644 0.586751 -0.279091
0.958356 0.589845 -0.280331
0.957533 0.580849 -0.278580
0.968956 0.585706 -0.280262
0.973689 0.582945 -0.280056
0.986236 0.588768 -0.281991
0.996158 0.591531 -0.283170
1.000710 0.588356 -0.282867
1.006618 0.586611 -0.282923
1.024885 0.597920 -0.286268
1.032679 0.597933 -0.286778
1.031439 0.588472 -0.284894
1.038460 0.587619 -0.285186
1.045982 0.587213 -0.285594
1.058615 0.591899 -0.287304
1.064729 0.589901 -0.287316
1.069590 0.586625 -0.287002
1.081853 0.590602 -0.288552
1.087548 0.588053 -0.288432
1.095856 0.588004 -0.288958
1.106318 0.589946 -0.290005
1.112567 0.587820 -0.290005
1.118765 0.585636 -0.289992
1.129021 0.587204 -0.290961
1.141040 0.590318 -0.292342
1.147135 0.587960 -0.292298
1.156790 0.588822 -0.293105
1.166412 0.589619 -0.293902
1.172086 0.586902 -0.293778
1.178716 0.585067 -0.293890
1.187350 0.585006 -0.294478
1.197739 0.586464 -0.295477
1.201833 0.582555 -0.295051
1.209478 0.581738 -0.295455
1.217264 0.581088 -0.295908
0.080121 0.576012 -0.205059
0.083495 0.576893 -0.205534
0.086572 0.579857 -0.206356
0.089956 0.581451 -0.206971
0.094047 0.579093 -0.206959
0.096698 0.585974 -0.208452
0.099600 0.591901 -0.209806
0.103872 0.589274 -0.209780
0.108252 0.585979 -0.209649
0.111722 0.589189 -0.210590
0.115375 0.591479 -0.211388
0.118822 0.595707 -0.212514
0.122833 0.595937 -0.212988
0.127232 0.593118 -0.212960
0.131242 0.593558 -0.213475
0.135598 0.591024 -0.213497
0.139699 0.590761 -0.213899
0.143540 0.593103 -0.214740
0.147651 0.592928 -0.215161
0.151217 0.598739 -0.216595
0.155349 0.598683 -0.217040
0.159353 0.600175 -0.217747
0.163690 0.597509 -0.217746
0.167344 0.603920 -0.219297
0.172161 0.593875 -0.218024
0.176468 0.590394 -0.217871
0.180449 0.591898 -0.218575
0.183724 0.607011 -0.221640
0.188826 0.586743 -0.218563
0.192826 0.587455 -0.219123
0.197005 0.583456 -0.218858
0.201021 0.583013 -0.219211
0.205009 0.583160 -0.219665
0.208866 0.588607 -0.221052
0.212844 0.590040 -0.221732
0.216866 0.588807 -0.221938
0.220887 0.585700 -0.221806
0.224867 0.583845 -0.221892
0.228823 0.583173 -0.222186
0.232770 0.583095 -0.222584
0.236767 0.588628 -0.223990
0.240625 0.581452 -0.223103
0.244593 0.583718 -0.223918
0.248558 0.585133 -0.224578
0.252479 0.584696 -0.224900
0.256412 0.584831 -0.225324
0.260356 0.585327 -0.225812
0.264244 0.584449 -0.226047
0.268213 0.585487 -0.226632
0.272185 0.586419 -0.227196
0.276012 0.584701 -0.227269
0.280090 0.587318 -0.228142
0.283994 0.586934 -0.228459
0.288061 0.588903 -0.229212
0.291984 0.588736 -0.229567
0.295867 0.588067 -0.229826
0.299806 0.588113 -0.230217
0.303831 0.589103 -0.230785
0.307725 0.588577 -0.231066
0.311621 0.588098 -0.231354
0.315426 0.586763 -0.231479
0.319125 0.584549 -0.231435
0.323275 0.586445 -0.232170
0.327231 0.586512 -0.232557
0.331056 0.585488 -0.232735
0.335148 0.586577 -0.233316
0.339104 0.586532 -0.233679
0.343649 0.590724 -0.234859
0.347114 0.587015 -0.234515
0.350912 0.585763 -0.234643
0.354758 0.584861 -0.234838
0.358705 0.584615 -0.235159
0.362698 0.584628 -0.235529
0.366744 0.584910 -0.235952
0.370847 0.585470 -0.236430
0.374903 0.585683 -0.236839
0.378845 0.585203 -0.237113
0.382848 0.585039 -0.237448
0.386893 0.585051 -0.237818
0.391373 0.587243 -0.238619
0.395553 0.587781 -0.239094
0.399631 0.587751 -0.239457
0.403039 0.584486 -0.239175
0.406945 0.583635 -0.239373
0.410968 0.583309 -0.239675
0.415472 0.585093 -0.240401
0.419349 0.584022 -0.240554
0.423831 0.585523 -0.241225
0.427963 0.585456 -0.241581
0.432387 0.586535 -0.242170
0.436856 0.587707 -0.242779
0.440893 0.587088 -0.243025
0.445034 0.586851 -0.243349
0.449590 0.588139 -0.243985
0.453774 0.587954 -0.244321
0.457992 0.587855 -0.244675
0.462069 0.587208 -0.244917
0.467721 0.592057 -0.246291
0.474734 0.601376 -0.248593
0.478508 0.599369 -0.248561
0.481324 0.594197 -0.247872
0.485076 0.592216 -0.247842
0.489201 0.591452 -0.248065
0.495980 0.599058 -0.250034
0.502125 0.604402 -0.251538
0.502682 0.592432 -0.249419
0.506858 0.591693 -0.249648
0.512349 0.594831 -0.250695
0.518688 0.600301 -0.252237
0.524672 0.604541 -0.253525
0.527677 0.600179 -0.252995
0.528022 0.588492 -0.250906
0.537980 0.603500 -0.254490
0.544236 0.608013 -0.255850
0.547892 0.605417 -0.255695
0.549841 0.598367 -0.254584
0.550131 0.587174 -0.252578
0.553973 0.585324 -0.252574
0.557958 0.583847 -0.252649
0.562976 0.584938 -0.253279
0.569486 0.589613 -0.254687
0.576213 0.594646 -0.256179
0.581798 0.596780 -0.257046
0.585662 0.594763 -0.257010
0.589266 0.592153 -0.256844
0.591958 0.587476 -0.256224
0.595208 0.584142 -0.255896
0.605387 0.596346 -0.258984
0.608581 0.592779 -0.258607
0.611892 0.589514 -0.258295
0.615503 0.586937 -0.258133
0.621514 0.589486 -0.259107
0.628218 0.593386 -0.260386
0.635510 0.598371 -0.261911
0.641598 0.600727 -0.262855
0.647372 0.602350 -0.263638
0.654042 0.605685 -0.264808
0.656230 0.600032 -0.263962
0.658927 0.595464 -0.263355
0.664443 0.596407 -0.263989
0.670018 0.597400 -0.264638
0.671139 0.589912 -0.263363
0.675085 0.587829 -0.263312
0.679610 0.586818 -0.263504
0.684116 0.585750 -0.263683
0.691103 0.589145 -0.264884
0.701259 0.598082 -0.267361
0.704273 0.594162 -0.266892
0.704542 0.585487 -0.265324
0.708456 0.583253 -0.265236
0.714452 0.584583 -0.265972
0.730133 0.602220 -0.270495
0.734303 0.600174 -0.270459
0.736002 0.594032 -0.269468
0.739883 0.591545 -0.269325
0.747682 0.595417 -0.270670
0.750940 0.591873 -0.270280
0.758993 0.595966 -0.271683
0.763978 0.595104 -0.271924
0.768615 0.593669 -0.272031
0.771832 0.590027 -0.271614
0.779533 0.593237 -0.272820
0.786652 0.595454 -0.273796
0.790798 0.593135 -0.273693
0.794815 0.590617 -0.273542
0.799073 0.588448 -0.273473
0.805060 0.588772 -0.274002
0.812218 0.590713 -0.274920
0.821648 0.595783 -0.276597
0.825404 0.592721 -0.276316
0.828976 0.589402 -0.275972
0.833559 0.587484 -0.275964
0.843559 0.592934 -0.277749
0.849291 0.592450 -0.278094
0.855062 0.591964 -0.278440
0.859240 0.589315 -0.278258
0.872576 0.598665 -0.281019
0.874966 0.593549 -0.280234
0.879879 0.591712 -0.280253
0.893689 0.601175 -0.283065
0.899922 0.600829 -0.283460
0.902716 0.596121 -0.282773
0.907462 0.593847 -0.282688
0.912891 0.592382 -0.282805
0.918053 0.590548 -0.282830
0.925026 0.590853 -0.283391
0.931364 0.590319 -0.283744
0.936758 0.588608 -0.283803
0.944828 0.589976 -0.284638
0.949840 0.587705 -0.284558
0.960761 0.592165 -0.286184
0.966838 0.590966 -0.286380
0.971976 0.588655 -0.286294
0.978143 0.587452 -0.286491
0.982971 0.584716 -0.286298
0.992135 0.586681 -0.287310
0.998588 0.585597 -0.287544
1.006857 0.586395 -0.288265
1.026827 0.599492 -0.292170
1.033607 0.598415 -0.292422
1.033357 0.589972 -0.290764
1.040854 0.589583 -0.291197
1.048487 0.589260 -0.291650
1.055441 0.588180 -0.291909
1.063159 0.587808 -0.292357
1.074527 0.590981 -0.293741
1.082905 0.591090 -0.294327
1.089922 0.589808 -0.294550
1.099113 0.590575 -0.295319
1.107350 0.590357 -0.295834
1.113061 0.587705 -0.295705
1.120316 0.586492 -0.295963
1.132972 0.590252 -0.297556
1.139628 0.588403 -0.297654
1.147701 0.587840 -0.298102
1.154942 0.586511 -0.298349
1.167470 0.589895 -0.299876
1.171650 0.585838 -0.299394
1.177223 0.583067 -0.299263
1.190560 0.587075 -0.300983
1.194465 0.582923 -0.300483
1.205510 0.584938 -0.301675
1.211398 0.582595 -0.301677
1.220410 0.582936 -0.302421
0.079412 0.576992 -0.209001
0.083054 0.576424 -0.209247
0.086324 0.578304 -0.209909
0.088313 0.588203 -0.211912
0.091926 0.589011 -0.212423
0.095309 0.591600 -0.213241
0.098832 0.593709 -0.213991
0.102803 0.593209 -0.214313
0.107146 0.590361 -0.214248
0.110831 0.592231 -0.214982
0.114415 0.595178 -0.215906
0.118440 0.595161 -0.216336
0.122612 0.594142 -0.216600
0.126242 0.597664 -0.217642
0.130679 0.594668 -0.217574
0.134919 0.593291 -0.217785
0.139236 0.591148 -0.217864
0.143509 0.589309 -0.217995
0.147466 0.590590 -0.218666
0.151442 0.591831 -0.219332
0.155459 0.592753 -0.219944
0.159685 0.591249 -0.220133
0.163716 0.592038 -0.220721
0.168066 0.588486 -0.220545
0.172127 0.588650 -0.221021
0.176265 0.587522 -0.221267
0.180368 0.586726 -0.221568
0.184444 0.586177 -0.221912
0.188503 0.585745 -0.222274
0.192527 0.585853 -0.222730
0.196556 0.585679 -0.223133
0.200656 0.583142 -0.223109
0.204602 0.584853 -0.223847
0.208576 0.585800 -0.224447
0.212540 0.587360 -0.225156
0.216526 0.587951 -0.225689
0.220540 0.585555 -0.225673
0.224520 0.584147 -0.225834
0.228481 0.584645 -0.226342
0.232443 0.585793 -0.226968
0.236392 0.584945 -0.227224
0.240320 0.583518 -0.227370
0.244272 0.584328 -0.227927
0.248224 0.584995 -0.228457
0.252148 0.584575 -0.228783
0.256085 0.584791 -0.229225
0.260007 0.584619 -0.229593
0.263985 0.585860 -0.230225
0.267914 0.585871 -0.230624
0.271763 0.584372 -0.230736
0.275762 0.585800 -0.231400
0.279794 0.587550 -0.232125
0.283742 0.587784 -0.232561
0.287689 0.587978 -0.232988
0.291597 0.587613 -0.233307
0.295541 0.587747 -0.233720
0.299560 0.588724 -0.234294
0.303433 0.587944 -0.234529
0.307395 0.588178 -0.234959
0.311420 0.588984 -0.235498
0.315374 0.589016 -0.235887
0.319025 0.586219 -0.235724
0.322942 0.585976 -0.236056
0.326945 0.586438 -0.236525
0.331062 0.587761 -0.237162
0.335223 0.589288 -0.237840
0.339235 0.589542 -0.238268
0.342915 0.587312 -0.238206
0.346537 0.584789 -0.238082
0.350169 0.582457 -0.237994
0.354738 0.586406 -0.239153
0.358483 0.584805 -0.239208
0.362333 0.583899 -0.239401
0.366298 0.583701 -0.239734
0.370329 0.583853 -0.240137
0.374556 0.585063 -0.240753
0.378692 0.585657 -0.241246
0.382715 0.585569 -0.241602
0.387032 0.586976 -0.242260
0.391923 0.591212 -0.243494
0.395854 0.590392 -0.243703
0.399747 0.589377 -0.243872
0.403989 0.590029 -0.244381
0.407506 0.587225 -0.244184
0.414431 0.600010 -0.247182
0.417541 0.595203 -0.246575
0.423668 0.603695 -0.248704
0.427788 0.603219 -0.248990
0.431794 0.602241 -0.249171
0.432404 0.587371 -0.246472
0.436570 0.587294 -0.246834
0.440591 0.586605 -0.247069
0.444640 0.586005 -0.247323
0.449632 0.588943 -0.248316
0.454164 0.590016 -0.248922
0.458632 0.590771 -0.249464
0.462509 0.589344 -0.249546
0.468181 0.594214 -0.250958
0.473984 0.599315 -0.252423
0.479085 0.601819 -0.253343
0.481538 0.595381 -0.252367
0.484585 0.591056 -0.251837
0.489545 0.592983 -0.252636
0.495710 0.598613 -0.254230
0.498855 0.594619 -0.253768
0.502285 0.591580 -0.253508
0.506869 0.592069 -0.254006
0.512201 0.594717 -0.254970
0.517959 0.598481 -0.256180
0.524618 0.604677 -0.257920
0.527316 0.599429 -0.257184
0.527846 0.588250 -0.255153
0.535974 0.598227 -0.257725
0.540917 0.599250 -0.258351
0.546215 0.601148 -0.259171
0.548780 0.595764 -0.258395
0.550036 0.587095 -0.256894
0.553910 0.585317 -0.256903
0.558388 0.585069 -0.257250
0.562796 0.584612 -0.257552
0.567488 0.584824 -0.258003
0.575225 0.592354 -0.260083
0.581512 0.596180 -0.261345
0.584885 0.593002 -0.261048
0.586764 0.586394 -0.259982
0.589769 0.582497 -0.259518
0.594565 0.582716 -0.259977
0.604111 0.593511 -0.262820
0.609794 0.595463 -0.263678
0.609224 0.583694 -0.261434
0.614014 0.583714 -0.261854
0.620479 0.587255 -0.263075
0.628151 0.593204 -0.264849
0.634488 0.596199 -0.265957
0.641032 0.599504 -0.267139
0.646686 0.600888 -0.267885
0.652743 0.603001 -0.268802
0.657052 0.601564 -0.268904
0.661334 0.600066 -0.268991
0.667020 0.601274 -0.269705
0.668180 0.593765 -0.268400
0.670034 0.587694 -0.267422
0.674534 0.586658 -0.267612
0.679473 0.586414 -0.267987
0.684285 0.585901 -0.268301
0.691398 0.589512 -0.269581
0.700577 0.596687 -0.271705
0.705904 0.596858 -0.272188
0.704361 0.584979 -0.269827
0.709025 0.584038 -0.270043
0.713830 0.583313 -0.270311
0.725502 0.594171 -0.273332
0.732740 0.597334 -0.274533
0.737289 0.595931 -0.274648
0.740470 0.592268 -0.274223
0.745090 0.590968 -0.274362
0.747889 0.586725 -0.273793
0.756120 0.591144 -0.275308
0.762544 0.592583 -0.276109
0.764288 0.586668 -0.275135
0.769198 0.585694 -0.275353
0.774367 0.585082 -0.275659
0.781984 0.588123 -0.276856
0.790501 0.592392 -0.278358
0.794022 0.589141 -0.278026
0.798808 0.587750 -0.278149
0.805101 0.588515 -0.278801
0.814032 0.592990 -0.280369
0.822977 0.597338 -0.281913
0.824983 0.591793 -0.281015
0.828933 0.589003 -0.280796
0.834659 0.588655 -0.281182
0.841375 0.589603 -0.281893
0.847632 0.589850 -0.282432
0.854088 0.590298 -0.283023
0.860812 0.591028 -0.283687
0.872018 0.597556 -0.285812
0.876650 0.595356 -0.285747
0.878569 0.589642 -0.284793
0.890622 0.596876 -0.287114
0.895281 0.594576 -0.287026
0.896663 0.588159 -0.285889
0.902838 0.587721 -0.286272
0.913423 0.592622 -0.288022
0.917484 0.589442 -0.287710
0.925651 0.591183 -0.288659
0.932412 0.591140 -0.289155
0.939839 0.591808 -0.289837
0.946666 0.591685 -0.290317
0.953867 0.591918 -0.290893
0.960117 0.590980 -0.291168
0.965532 0.589033 -0.291182
0.971864 0.588073 -0.291454
0.977857 0.586672 -0.291613
0.987336 0.589056 -0.292766
0.993601 0.587806 -0.292971
0.999467 0.586068 -0.293049
1.007321 0.586406 -0.293677
1.019139 0.590853 -0.295398
1.029300 0.593395 -0.296623
1.033625 0.589744 -0.296207
1.038677 0.586832 -0.295987
1.048995 0.589257 -0.297197
1.054439 0.586642 -0.297062
1.060959 0.585075 -0.297210
1.069046 0.585014 -0.297767
1.084923 0.592512 -0.300373
1.090556 0.589859 -0.300243
1.096836 0.587813 -0.300280
1.104962 0.587500 -0.300791
1.115255 0.589177 -0.301851
1.121598 0.587083 -0.301887
1.128246 0.585264 -0.302000
1.141399 0.589392 -0.303755
1.147917 0.587390 -0.303829
1.155044 0.585944 -0.304060
1.165491 0.587458 -0.305116
1.173795 0.587040 -0.305643
1.176973 0.582148 -0.304925
1.187691 0.583870 -0.306058
1.203884 0.590266 -0.308512
1.211575 0.589338 -0.308919
1.215868 0.585590 -0.308533
1.215469 0.578020 -0.307064
0.079004 0.576289 -0.212675
0.082534 0.576389 -0.213037
0.085987 0.577249 -0.213540
0.087395 0.590585 -0.216178
0.090958 0.591809 -0.216770
0.095261 0.588758 -0.216639
0.099368 0.587052 -0.216745
0.102670 0.590855 -0.217806
0.107065 0.587634 -0.217665
0.110809 0.589040 -0.218328
0.114299 0.592607 -0.219375
0.117667 0.597549 -0.220669
0.121928 0.595973 -0.220834
0.126317 0.593369 -0.220821
0.130684 0.590860 -0.220825
0.134743 0.590980 -0.221292
0.138803 0.591198 -0.221779
0.143489 0.585378 -0.221196
0.147520 0.585747 -0.221709
0.151462 0.587147 -0.222408
0.156017 0.581703 -0.221882
0.159694 0.586240 -0.223143
0.163784 0.585999 -0.223548
0.167831 0.586285 -0.224047
0.172059 0.583887 -0.224058
0.175812 0.588566 -0.225352
0.179994 0.586560 -0.225431
0.184107 0.585358 -0.225653
0.188154 0.585156 -0.226055
0.192148 0.585967 -0.226642
0.196170 0.586073 -0.227097
0.200208 0.585539 -0.227433
0.204240 0.584771 -0.227722
0.208208 0.586018 -0.228383
0.212181 0.587287 -0.229047
0.216206 0.585461 -0.229131
0.220193 0.584869 -0.229443
0.224151 0.587781 -0.230411
0.228132 0.586653 -0.230619
0.232096 0.585410 -0.230801
0.236047 0.584649 -0.231071
0.239990 0.584205 -0.231399
0.243937 0.584436 -0.231853
0.247879 0.584545 -0.232282
0.251842 0.585510 -0.232873
0.255719 0.583662 -0.232923
0.259642 0.583603 -0.233314
0.263599 0.584421 -0.233872
0.267492 0.583741 -0.234140
0.271411 0.583745 -0.234538
0.275336 0.583849 -0.234955
0.279312 0.584807 -0.235536
0.283351 0.586579 -0.236275
0.287131 0.584454 -0.236253
0.291042 0.584314 -0.236616
0.294999 0.584763 -0.237094
0.299230 0.588384 -0.238197
0.303169 0.588328 -0.238575
0.306883 0.585871 -0.238476
0.311172 0.589438 -0.239571
0.315028 0.588471 -0.239765
0.318687 0.585741 -0.239606
0.322457 0.584184 -0.239679
0.326555 0.585498 -0.240324
0.330884 0.588565 -0.241323
0.335150 0.590865 -0.242169
0.338805 0.588338 -0.242043
0.342471 0.586028 -0.241957
0.346305 0.585012 -0.242132
0.351428 0.592820 -0.244098
0.354990 0.589776 -0.243862
0.358754 0.588167 -0.243914
0.362945 0.589258 -0.244518
0.366920 0.588943 -0.244835
0.371158 0.590137 -0.245460
0.374528 0.586270 -0.245045
0.379339 0.590563 -0.246311
0.384012 0.593833 -0.247369
0.388357 0.595165 -0.248028
0.392108 0.593332 -0.248031
0.396087 0.592678 -0.248278
0.399896 0.591179 -0.248348
0.403944 0.590843 -0.248661
0.408733 0.593933 -0.249691
0.414716 0.602269 -0.251827
0.419721 0.605833 -0.252966
0.424503 0.608225 -0.253862
0.428416 0.606755 -0.253944
0.430691 0.598453 -0.252577
0.432062 0.586742 -0.250480
0.436110 0.586187 -0.250746
0.440180 0.585698 -0.251027
0.444212 0.585032 -0.251269
0.448622 0.585774 -0.251814
0.454487 0.591838 -0.253502
0.459209 0.593470 -0.254243
0.462477 0.589797 -0.253843
0.467333 0.591783 -0.254663
0.472078 0.593273 -0.255379
0.476717 0.594300 -0.255996
0.480223 0.591480 -0.255778
0.483742 0.588749 -0.255578
0.487895 0.588104 -0.255832
0.493228 0.591168 -0.256898
0.496827 0.588694 -0.256753
0.501064 0.588205 -0.257043
0.506688 0.591870 -0.258249
0.512858 0.596991 -0.259781
0.517490 0.597422 -0.260281
0.521495 0.595990 -0.260370
0.524107 0.590617 -0.259582
0.530166 0.594971 -0.260957
0.532585 0.589152 -0.260066
0.541878 0.602073 -0.263362
0.547048 0.603574 -0.264113
0.549273 0.597246 -0.263107
0.549483 0.585830 -0.260950
0.553683 0.584889 -0.261147
0.558474 0.585424 -0.261678
0.562932 0.585075 -0.262011
0.566999 0.583735 -0.262119
0.574259 0.590113 -0.263984
0.580498 0.593841 -0.265252
0.583797 0.590509 -0.264910
0.585436 0.583362 -0.263693
0.589827 0.582673 -0.263952
0.594260 0.582054 -0.264228
0.600733 0.585973 -0.265552
0.605025 0.584937 -0.265735
0.609309 0.583871 -0.265911
0.612599 0.580647 -0.265587
0.619446 0.585028 -0.267030
0.627281 0.591336 -0.268928
0.631725 0.590412 -0.269144
0.640670 0.598699 -0.271518
0.646883 0.601210 -0.272545
0.650904 0.599232 -0.272521
0.654566 0.596550 -0.272329
0.662707 0.602645 -0.274211
0.667451 0.601991 -0.274501
0.667602 0.592537 -0.272703
0.669540 0.586628 -0.271741
0.673959 0.585443 -0.271899
0.678927 0.585255 -0.272296
0.683904 0.585045 -0.272689
0.695259 0.596311 -0.275837
0.700814 0.596930 -0.276438
0.705795 0.596477 -0.276782
0.704779 0.585515 -0.274587
0.709585 0.584803 -0.274865
0.715979 0.586775 -0.275795
0.723360 0.590328 -0.277113
0.733583 0.598514 -0.279565
0.740868 0.601616 -0.280786
0.745056 0.599535 -0.280742
0.744322 0.589474 -0.278739
0.746489 0.584225 -0.277910
0.755258 0.589511 -0.279675
0.761623 0.590866 -0.280475
0.767156 0.590847 -0.280938
0.771253 0.588571 -0.280842
0.777287 0.589238 -0.281478
0.783418 0.589985 -0.282136
0.789713 0.590911 -0.282841
0.794090 0.588930 -0.282821
0.799018 0.587741 -0.282999
0.805415 0.588646 -0.283705
0.814094 0.592747 -0.285219
0.823841 0.598225 -0.287088
0.826017 0.592901 -0.286229
0.830820 0.591279 -0.286305
0.835962 0.590095 -0.286493
0.841440 0.589332 -0.286789
0.846363 0.587772 -0.286882
0.852398 0.587667 -0.287349
0.858200 0.587194 -0.287723
0.866432 0.589848 -0.288904
0.871923 0.588830 -0.289142
0.879313 0.590205 -0.290001
0.890549 0.596380 -0.292108
0.898013 0.597614 -0.292941
0.898769 0.590379 -0.291572
0.900370 0.584257 -0.290488
0.910982 0.589212 -0.292298
0.918857 0.590683 -0.293202
0.925287 0.590314 -0.293628
0.932190 0.590439 -0.294186
0.938519 0.589811 -0.294549
0.947255 0.591924 -0.295640
0.954330 0.591999 -0.296196
0.961396 0.591985 -0.296731
0.964405 0.587294 -0.296022
0.971922 0.587669 -0.296665
0.981480 0.590225 -0.297898
0.987304 0.588540 -0.297997
0.995329 0.589203 -0.298732
1.002298 0.588631 -0.299137
1.006708 0.585255 -0.298786
1.012586 0.583413 -0.298852
1.021360 0.584559 -0.299733
1.032918 0.588491 -0.301380
1.040485 0.588164 -0.301872
1.048845 0.588570 -0.302570
1.056026 0.587701 -0.302922
1.063531 0.587095 -0.303351
1.076855 0.592176 -0.305356
1.084064 0.591102 -0.305668
1.089665 0.588418 -0.305537
1.095548 0.585991 -0.305479
1.104997 0.586937 -0.306365
1.113555 0.586968 -0.307002
1.121593 0.586460 -0.307493
1.130411 0.586634 -0.308181
1.142456 0.589715 -0.309697
1.147548 0.586400 -0.309412
1.151812 0.582375 -0.308925
1.169830 0.590632 -0.311936
1.175264 0.587636 -0.311752
1.181531 0.585414 -0.311790
1.194147 0.588725 -0.313419
1.204025 0.589637 -0.314368
1.214716 0.591240 -0.315523
1.217122 0.585865 -0.314663
1.223596 0.584011 -0.314823
0.077402 0.582126 -0.217486
0.081914 0.576903 -0.216930
0.085560 0.576706 -0.217257
0.087829 0.584940 -0.219069
0.091639 0.584559 -0.219386
0.095846 0.581954 -0.219320
0.099634 0.582155 -0.219754
0.103324 0.583271 -0.220359
0.107199 0.583427 -0.220800
0.111034 0.584086 -0.221338
0.115027 0.583837 -0.221720
0.118763 0.585699 -0.222484
0.122935 0.584433 -0.222692
0.127132 0.582999 -0.222873
0.131091 0.583597 -0.223422
0.134958 0.585162 -0.224148
0.139042 0.584940 -0.224554
0.142997 0.586007 -0.225196
0.147138 0.585330 -0.225521
0.151202 0.585437 -0.225990
0.155249 0.585760 -0.226498
0.159292 0.586151 -0.227019
0.163387 0.585898 -0.227421
0.167417 0.586449 -0.227971
0.171429 0.587296 -0.228575
0.175458 0.587909 -0.229136
0.179611 0.586423 -0.229303
0.183667 0.586348 -0.229731
0.187712 0.586347 -0.230172
0.191765 0.586016 -0.230548
0.195770 0.586642 -0.231104
0.199830 0.585625 -0.231346
0.203811 0.586726 -0.231988
0.207809 0.587270 -0.232523
0.211833 0.586408 -0.232788
0.215859 0.584439 -0.232838
0.219838 0.584516 -0.233277
0.223804 0.585864 -0.233959
0.227775 0.588868 -0.234960
0.231738 0.583723 -0.234383
0.235689 0.583511 -0.234758
0.239635 0.583441 -0.235158
0.243577 0.583482 -0.235578
0.247541 0.584627 -0.236212
0.251479 0.584567 -0.236609
0.255338 0.582212 -0.236553
0.259311 0.583602 -0.237232
0.263205 0.582861 -0.237489
0.267100 0.582316 -0.237782
0.270999 0.581997 -0.238119
0.274980 0.583211 -0.238759
0.278945 0.583988 -0.239311
0.282865 0.583971 -0.239704
0.286737 0.583272 -0.239960
0.290713 0.584046 -0.240509
0.295004 0.588669 -0.241834
0.299070 0.590090 -0.242515
0.303361 0.593867 -0.243674
0.307580 0.596472 -0.244598
0.310432 0.584924 -0.242645
0.314473 0.585924 -0.243238
0.318467 0.586373 -0.243718
0.322080 0.583368 -0.243491
0.325754 0.581082 -0.243409
0.331172 0.593209 -0.246288
0.336079 0.600367 -0.248154
0.340763 0.605266 -0.249559
0.342872 0.590936 -0.246987
0.348623 0.603291 -0.249939
0.351786 0.597086 -0.249042
0.355277 0.593404 -0.248664
0.358982 0.591279 -0.248609
0.363113 0.591884 -0.249123
0.367965 0.596773 -0.250537
0.373352 0.580941 -0.247979
0.379599 0.593340 -0.250981
0.383562 0.592682 -0.251230
0.386257 0.585329 -0.250059
0.389940 0.583369 -0.250027
0.395517 0.590956 -0.252029
0.400241 0.593955 -0.253058
0.403675 0.590599 -0.252730
0.408244 0.592649 -0.253559
0.413025 0.595527 -0.254568
0.418053 0.599331 -0.255780
0.421707 0.596922 -0.255654
0.426294 0.598549 -0.256400
0.429780 0.595462 -0.256126
0.431602 0.585631 -0.254385
0.435605 0.584905 -0.254617
0.439909 0.585341 -0.255103
0.444027 0.585001 -0.255421
0.448085 0.584396 -0.255681
0.454745 0.593424 -0.258057
0.459388 0.594723 -0.258741
0.462762 0.591388 -0.258405
0.465882 0.587238 -0.257886
0.469433 0.584674 -0.257716
0.472720 0.581256 -0.257354
0.477741 0.583690 -0.258293
0.483177 0.587352 -0.259508
0.487247 0.586447 -0.259708
0.491027 0.584612 -0.259699
0.494547 0.581982 -0.259511
0.499616 0.584135 -0.260397
0.507623 0.595032 -0.263258
0.513782 0.600062 -0.264805
0.518456 0.600552 -0.265330
0.521008 0.594879 -0.264458
0.524970 0.593328 -0.264519
0.528313 0.590055 -0.264187
0.535833 0.598313 -0.266487
0.541483 0.601224 -0.267573
0.547094 0.603903 -0.268609
0.550113 0.599642 -0.268053
0.549193 0.585246 -0.265160
0.553512 0.584606 -0.265430
0.558783 0.586341 -0.266249
0.562702 0.584625 -0.266272
0.566801 0.583357 -0.266398
0.573016 0.587199 -0.267714
0.579693 0.592001 -0.269260
0.583340 0.589499 -0.269103
0.586621 0.586170 -0.268750
0.590055 0.583235 -0.268489
0.594715 0.583114 -0.268888
0.599008 0.582133 -0.269085
0.602186 0.578673 -0.268697
0.605864 0.576352 -0.268576
0.614801 0.585368 -0.271147
0.622426 0.591333 -0.273002
0.623479 0.583305 -0.271527
0.630236 0.587268 -0.272911
0.638708 0.594610 -0.275111
0.646555 0.600469 -0.276964
0.648533 0.594401 -0.275953
0.648310 0.584079 -0.273912
0.656939 0.591260 -0.276092
0.666582 0.600193 -0.278706
0.670581 0.598098 -0.278653
0.668436 0.584406 -0.275777
0.674106 0.585572 -0.276511
0.678683 0.584651 -0.276738
0.683682 0.584478 -0.277149
0.690449 0.587455 -0.278334
0.706810 0.607449 -0.283712
0.705580 0.595904 -0.281335
0.705915 0.587300 -0.279673
0.711336 0.587622 -0.280215
0.716690 0.587776 -0.280717
0.726296 0.595068 -0.282997
0.731447 0.594708 -0.283378
0.741299 0.602088 -0.285695
0.744909 0.599044 -0.285411
0.746977 0.593520 -0.284502
0.750281 0.590043 -0.284103
0.755906 0.590270 -0.284637
0.763890 0.594148 -0.286096
0.769188 0.593721 -0.286470
0.775308 0.594517 -0.287155
0.782160 0.596357 -0.288110
0.786578 0.594442 -0.288110
0.789596 0.590424 -0.287572
0.794720 0.589542 -0.287836
0.800213 0.589164 -0.288229
0.805147 0.587928 -0.288403
0.812375 0.589947 -0.289418
0.825452 0.600163 -0.292558
0.834814 0.604902 -0.294292
0.836575 0.598922 -0.293248
0.838456 0.593165 -0.292257
0.842244 0.590059 -0.291954
0.847198 0.588527 -0.292061
0.852612 0.587576 -0.292321
0.859062 0.587950 -0.292931
0.865163 0.587796 -0.293404
0.871557 0.587959 -0.293964
0.878657 0.588960 -0.294748
0.888917 0.593893 -0.296580
0.896299 0.595036 -0.297412
0.898190 0.589237 -0.296398
0.901508 0.585241 -0.295861
0.911430 0.589332 -0.297489
0.918233 0.589489 -0.298069
0.926623 0.591476 -0.299144
0.931990 0.589755 -0.299226
0.938929 0.589841 -0.299796
0.945779 0.589745 -0.300322
0.953069 0.590080 -0.300967
0.959550 0.589403 -0.301342
0.966737 0.589460 -0.301919
0.974266 0.589817 -0.302583
0.981406 0.589654 -0.303109
0.988467 0.589326 -0.303593
0.995355 0.588732 -0.304008
1.003625 0.589557 -0.304818
1.008375 0.586525 -0.304565
1.011426 0.581671 -0.303806
1.020074 0.582691 -0.304681
1.031277 0.586257 -0.306275
1.039448 0.586561 -0.306965
1.050268 0.589471 -0.308393
1.058478 0.589616 -0.309051
1.066725 0.589718 -0.309703
1.074558 0.589333 -0.310222
1.082485 0.588974 -0.310754
1.088853 0.587041 -0.310843
1.096169 0.585988 -0.311186
1.106983 0.588215 -0.312472
1.113063 0.585887 -0.312460
1.120679 0.584979 -0.312859
1.128752 0.584461 -0.313374
1.141157 0.587870 -0.315032
1.146476 0.584762 -0.314808
1.153086 0.582841 -0.314931
1.168866 0.589078 -0.317438
1.175377 0.587025 -0.317533
1.182483 0.585522 -0.317792
1.194421 0.588221 -0.319290
1.201861 0.587027 -0.319648
1.210507 0.586894 -0.320322
1.218461 0.586205 -0.320835
1.219311 0.579638 -0.319600
0.077096 0.580831 -0.221087
0.081157 0.578159 -0.220967
0.084764 0.578265 -0.221353
0.088162 0.579906 -0.222023
0.091755 0.580743 -0.222560
0.095390 0.581648 -0.223117
0.099257 0.581379 -0.223471
0.103121 0.581368 -0.223879
0.106769 0.583053 -0.224601
0.110773 0.582560 -0.224934
0.114564 0.583772 -0.225583
0.118454 0.584506 -0.226150
0.122675 0.582867 -0.226285
0.126764 0.582301 -0.226620
0.130736 0.582805 -0.227155
0.134690 0.583609 -0.227748
0.138571 0.585242 -0.228499
0.142617 0.585488 -0.228993
0.146669 0.585737 -0.229489
0.150789 0.585315 -0.229860
0.154793 0.586153 -0.230467
0.158895 0.585920 -0.230873
0.162993 0.585668 -0.231274
0.167076 0.585543 -0.231699
0.171100 0.586187 -0.232269
0.175121 0.586900 -0.232851
0.179112 0.588132 -0.233533
0.183235 0.587054 -0.233770
0.187362 0.585532 -0.233918
0.191368 0.586246 -0.234496
0.195391 0.586494 -0.234982
0.199419 0.586514 -0.235422
0.203443 0.586374 -0.235830
0.207439 0.587053 -0.236395
0.211462 0.586339 -0.236686
0.215487 0.584648 -0.236782
0.219463 0.585409 -0.237358
0.223444 0.585419 -0.237784
0.227421 0.583886 -0.237903
0.231380 0.583049 -0.238157
0.235324 0.581999 -0.238365
0.239267 0.582099 -0.238801
0.243224 0.583148 -0.239424
0.247197 0.584658 -0.240139
0.251130 0.584326 -0.240484
0.255211 0.588810 -0.241796
0.259296 0.592347 -0.242921
0.263135 0.589181 -0.242691
0.267200 0.591617 -0.243593
0.271196 0.592275 -0.244134
0.274974 0.588934 -0.243860
0.278839 0.587568 -0.243984
0.282715 0.586569 -0.244182
0.287106 0.593078 -0.245918
0.290948 0.591389 -0.245973
0.295020 0.592795 -0.246664
0.299330 0.596863 -0.247905
0.303654 0.600632 -0.249087
0.307502 0.598903 -0.249131
0.310201 0.585602 -0.246763
0.314318 0.587285 -0.247508
0.318358 0.588070 -0.248066
0.321832 0.583712 -0.247547
0.325570 0.581937 -0.247565
0.330900 0.593310 -0.250349
0.335748 0.599988 -0.252153
0.339592 0.598501 -0.252237
0.344146 0.602295 -0.253438
0.347350 0.596208 -0.252543
0.351764 0.598776 -0.253485
0.355153 0.594335 -0.252934
0.358860 0.592167 -0.252865
0.363140 0.593658 -0.253578
0.367282 0.594178 -0.254084
0.370403 0.588615 -0.253281
0.374673 0.589884 -0.253946
0.378478 0.588450 -0.254029
0.383110 0.591527 -0.255088
0.384849 0.579125 -0.252790
0.389497 0.582265 -0.253861
0.394783 0.588412 -0.255592
0.399584 0.591831 -0.256732
0.404066 0.593522 -0.257498
0.407899 0.592047 -0.257571
0.411957 0.591622 -0.257874
0.414548 0.584610 -0.256726
0.419009 0.586027 -0.257433
0.424142 0.590209 -0.258755
0.429565 0.595384 -0.260301
0.431171 0.584643 -0.258314
0.435405 0.584845 -0.258757
0.439677 0.585143 -0.259221
0.443828 0.584916 -0.259569
0.447913 0.584397 -0.259852
0.453305 0.588709 -0.261221
0.459087 0.594234 -0.262868
0.462782 0.592038 -0.262779
0.464386 0.582528 -0.261035
0.468605 0.582336 -0.261394
0.473031 0.582807 -0.261904
0.478304 0.586040 -0.263045
0.482544 0.585731 -0.263382
0.488526 0.590996 -0.264994
0.491476 0.586440 -0.264362
0.494652 0.582691 -0.263912
0.501058 0.588918 -0.265755
0.508178 0.597056 -0.268045
0.513269 0.598870 -0.268884
0.516771 0.595939 -0.268627
0.520144 0.592687 -0.268293
0.523531 0.589523 -0.267978
0.527509 0.588064 -0.268059
0.533101 0.591041 -0.269175
0.538692 0.593886 -0.270264
0.542916 0.592953 -0.270472
0.547191 0.592141 -0.270708
0.548975 0.584848 -0.269417
0.553695 0.585227 -0.269932
0.558237 0.585101 -0.270330
0.561956 0.582892 -0.270234
0.566626 0.583037 -0.270697
0.572299 0.585560 -0.271727
0.577935 0.587885 -0.272715
0.584967 0.593400 -0.274469
0.586383 0.585668 -0.273054
0.590150 0.583494 -0.272968
0.596270 0.586662 -0.274168
0.600666 0.585855 -0.274413
0.604200 0.583124 -0.274193
0.609114 0.583428 -0.274707
0.616570 0.589155 -0.276541
0.625433 0.597693 -0.279066
0.629871 0.596686 -0.279273
0.627828 0.582216 -0.276188
0.637268 0.591591 -0.278933
0.644456 0.596138 -0.280503
0.644557 0.586354 -0.278552
0.647731 0.582835 -0.278138
0.654210 0.585817 -0.279329
0.664160 0.595393 -0.282158
0.670127 0.597102 -0.283046
0.668589 0.584558 -0.280389
0.674848 0.586809 -0.281411
0.679952 0.586837 -0.281881
0.684759 0.586277 -0.282206
0.693526 0.592832 -0.284318
0.708694 0.610622 -0.289266
0.705790 0.596080 -0.286081
0.707386 0.589667 -0.284936
0.711993 0.588546 -0.285127
0.717930 0.589675 -0.285888
0.723206 0.589618 -0.286352
0.728447 0.589457 -0.286790
0.733033 0.588168 -0.286942
0.738672 0.588585 -0.287530
0.745421 0.590740 -0.288568
0.751129 0.591135 -0.289157
0.755326 0.589077 -0.289115
0.759982 0.587732 -0.289257
0.771472 0.596978 -0.292145
0.777420 0.597466 -0.292770
0.782227 0.596154 -0.292929
0.787808 0.595982 -0.293386
0.789130 0.589413 -0.292172
0.795250 0.590001 -0.292828
0.800403 0.589112 -0.293099
0.805546 0.588169 -0.293357
0.811067 0.587730 -0.293749
0.824285 0.598154 -0.297017
0.832281 0.600984 -0.298286
0.836944 0.599068 -0.298300
0.839092 0.593671 -0.297386
0.842843 0.590500 -0.297062
0.847995 0.589222 -0.297244
0.853508 0.588385 -0.297545
0.858855 0.587285 -0.297777
0.864964 0.587137 -0.298267
0.870819 0.586599 -0.298654
0.878552 0.588415 -0.299681
0.885150 0.588685 -0.300294
0.891148 0.588125 -0.300684
0.898525 0.589227 -0.301530
0.903602 0.587395 -0.301579
0.911744 0.589276 -0.302646
0.918209 0.589015 -0.303130
0.925075 0.589166 -0.303731
0.932201 0.589548 -0.304400
0.938092 0.588392 -0.304648
0.945564 0.589025 -0.305393
0.951619 0.587931 -0.305664
0.958971 0.588261 -0.306334
0.968652 0.591140 -0.307721
0.976382 0.591695 -0.308466
0.982124 0.589952 -0.308570
0.988642 0.589013 -0.308902
0.996562 0.589534 -0.309650
1.002928 0.588289 -0.309904
1.010161 0.587908 -0.310406
1.013561 0.583401 -0.309738
1.019827 0.581897 -0.309925
1.029741 0.584122 -0.311183
1.041907 0.588532 -0.313076
1.052220 0.590893 -0.314392
1.059021 0.589593 -0.314661
1.067091 0.589505 -0.315284
1.075530 0.589706 -0.315997
1.082110 0.588013 -0.316166
1.091425 0.588928 -0.317098
1.099940 0.588992 -0.317788
1.105533 0.586215 -0.317652
1.116084 0.588094 -0.318886
1.125829 0.589131 -0.319880
1.134590 0.589191 -0.320594
1.141282 0.587316 -0.320739
1.148000 0.585464 -0.320894
1.157857 0.586426 -0.321891
1.167663 0.587303 -0.322868
1.174164 0.585239 -0.322971
1.180921 0.583429 -0.323150
1.192418 0.585742 -0.324575
1.200554 0.585146 -0.325128
1.211915 0.587308 -0.326521
1.215829 0.583200 -0.326013
1.219747 0.579197 -0.325533
0.076476 0.581238 -0.224995
0.080477 0.578959 -0.224940
0.084010 0.579550 -0.225420
0.087573 0.580289 -0.225937
0.091007 0.582137 -0.226668
0.094864 0.581745 -0.226994
0.098693 0.581770 -0.227404
0.102428 0.582659 -0.227982
0.106460 0.581823 -0.228245
0.110349 0.582135 -0.228727
0.114311 0.582144 -0.229158
0.118218 0.582729 -0.229702
0.122256 0.582505 -0.230097
0.126203 0.583127 -0.230655
0.130282 0.582799 -0.231036
0.134227 0.583728 -0.231658
0.138200 0.584549 -0.232262
0.142178 0.585466 -0.232887
0.146306 0.584995 -0.233246
0.150284 0.586094 -0.233908
0.154382 0.585964 -0.234334
0.158476 0.585866 -0.234765
0.162645 0.584769 -0.235002
0.166751 0.584333 -0.235365
0.170795 0.584657 -0.235875
0.174746 0.586379 -0.236659
0.178771 0.587065 -0.237239
0.182918 0.585504 -0.237376
0.186990 0.585035 -0.237726
0.190979 0.586125 -0.238382
0.195012 0.586203 -0.238837
0.199041 0.586229 -0.239279
0.203067 0.586110 -0.239691
0.207072 0.586509 -0.240205
0.211059 0.587543 -0.240844
0.215073 0.587181 -0.241202
0.219055 0.588632 -0.241923
0.223050 0.589297 -0.242486
0.227039 0.593580 -0.243780
0.231047 0.592518 -0.243991
0.235034 0.590703 -0.244046
0.239081 0.595529 -0.245453
0.243046 0.593189 -0.245396
0.247317 0.605946 -0.248433
0.251115 0.596685 -0.246954
0.254984 0.592581 -0.246526
0.259014 0.594046 -0.247244
0.262958 0.593146 -0.247472
0.266944 0.593417 -0.247941
0.270740 0.589881 -0.247617
0.274578 0.587750 -0.247581
0.278625 0.589435 -0.248340
0.282632 0.590285 -0.248925
0.286328 0.586526 -0.248541
0.290230 0.586008 -0.248835
0.294267 0.587257 -0.249500
0.299110 0.597999 -0.252174
0.303380 0.601067 -0.253231
0.306881 0.595552 -0.252466
0.310121 0.587864 -0.251232
0.313966 0.586763 -0.251396
0.318057 0.588013 -0.252062
0.321788 0.585913 -0.252010
0.325191 0.581144 -0.251383
0.329615 0.585105 -0.252630
0.334458 0.592042 -0.254524
0.339224 0.597849 -0.256179
0.343099 0.596653 -0.256321
0.347457 0.598918 -0.257214
0.350887 0.594618 -0.256680
0.354526 0.591938 -0.256495
0.358611 0.592251 -0.256962
0.362546 0.591567 -0.257211
0.365970 0.587768 -0.256776
0.370102 0.588320 -0.257294
0.374405 0.589769 -0.258012
0.378633 0.590675 -0.258610
0.382268 0.588264 -0.258476
0.386516 0.589168 -0.259075
0.390064 0.586376 -0.258853
0.394828 0.589782 -0.260010
0.399366 0.591867 -0.260877
0.404151 0.594989 -0.261978
0.408117 0.594084 -0.262179
0.411511 0.590554 -0.261789
0.413921 0.582732 -0.260429
0.417406 0.579909 -0.260192
0.423980 0.590377 -0.262960
0.428835 0.593154 -0.263995
0.431337 0.586108 -0.262801
0.435314 0.585233 -0.263006
0.439635 0.585697 -0.263517
0.443627 0.584828 -0.263724
0.447526 0.583590 -0.263846
0.452602 0.586729 -0.264974
0.458474 0.592605 -0.266736
0.463045 0.593562 -0.267370
0.464318 0.582839 -0.265305
0.468278 0.581731 -0.265459
0.472739 0.582317 -0.266005
0.477689 0.584463 -0.266917
0.485086 0.594512 -0.269675
0.489883 0.595801 -0.270396
0.494283 0.595744 -0.270804
0.498346 0.594589 -0.270957
0.502554 0.593873 -0.271212
0.506884 0.593505 -0.271550
0.512375 0.596547 -0.272694
0.514138 0.588555 -0.271230
0.518516 0.588290 -0.271593
0.522634 0.587254 -0.271773
0.526624 0.585847 -0.271865
0.529032 0.580088 -0.270918
0.534065 0.581570 -0.271698
0.540628 0.587047 -0.273440
0.545840 0.588772 -0.274287
0.549140 0.585446 -0.273920
0.554266 0.586839 -0.274691
0.557827 0.584207 -0.274490
0.562059 0.583271 -0.274699
0.566679 0.583274 -0.275137
0.571746 0.584314 -0.275829
0.578094 0.588347 -0.277253
0.584213 0.591688 -0.278514
0.585847 0.584477 -0.277194
0.591933 0.587624 -0.278412
