ply
format ascii 1.0
comment ---
element vertex 1752
property float x
property float y
property float z
element face 0
property list uchar uint vertex_indices
end_header
0.139799 0.613208 0.211029
0.142950 0.614027 0.211188
0.146451 0.616410 0.211622
0.149562 0.616884 0.211719
0.151956 0.614114 0.211244
0.154863 0.613677 0.211180
0.158419 0.616004 0.211604
0.161654 0.616866 0.211768
0.164283 0.615189 0.211485
0.167220 0.614787 0.211426
0.171474 0.619560 0.212279
0.174457 0.619218 0.212230
0.176494 0.615291 0.211548
0.179725 0.615914 0.211668
0.182822 0.616005 0.211695
0.188862 0.626592 0.213574
0.192654 0.628881 0.213988
0.190394 0.610183 0.210694
0.193629 0.610741 0.210801
0.196387 0.609664 0.210619
0.199048 0.608286 0.210383
0.202396 0.609140 0.210540
0.205114 0.607951 0.210337
0.206761 0.603430 0.209544
0.210474 0.605373 0.209892
0.215591 0.611474 0.210975
0.220760 0.617518 0.212048
0.227411 0.627693 0.213849
0.224226 0.609159 0.210577
0.227087 0.608337 0.210434
0.229883 0.607333 0.210258
0.232560 0.606003 0.210024
0.233851 0.600918 0.209125
0.238626 0.605294 0.209898
0.242355 0.606756 0.210155
0.246315 0.608754 0.210506
0.250075 0.610158 0.210751
0.257847 0.621667 0.212781
0.259033 0.616370 0.211840
0.256166 0.601183 0.209151
0.262481 0.608730 0.210477
0.267224 0.612275 0.211096
0.268755 0.608081 0.210346
0.270871 0.605335 0.209851
0.278885 0.616268 0.211771
0.282438 0.616712 0.211837
0.283088 0.610572 0.210740
0.285211 0.607834 0.210241
0.287844 0.606253 0.209947
0.294985 0.614471 0.211380
0.300452 0.618869 0.212137
0.302402 0.615673 0.211553
0.306030 0.616035 0.211596
0.310808 0.618735 0.212049
0.314161 0.618424 0.211969
0.310723 0.604357 0.209463
0.314229 0.604458 0.209454
0.317651 0.604355 0.209407
0.320949 0.603977 0.209310
0.323794 0.602697 0.209052
0.326178 0.600530 0.208637
0.333889 0.608428 0.209991
0.339745 0.612650 0.210696
0.342441 0.610910 0.210350
0.348023 0.614434 0.210928
0.346467 0.604959 0.209219
0.349851 0.604469 0.209087
0.352377 0.602433 0.208683
0.355190 0.600903 0.208365
0.359905 0.602648 0.208620
0.365259 0.605406 0.209050
0.372166 0.610687 0.209919
0.372741 0.605223 0.208903
0.375783 0.603911 0.208614
0.378434 0.601942 0.208207
0.381617 0.600834 0.207949
0.385715 0.601167 0.207940
0.389767 0.601377 0.207908
0.398662 0.609136 0.209190
0.400181 0.605233 0.208436
0.399270 0.597629 0.207035
0.412889 0.612234 0.209500
0.409182 0.600414 0.207363
0.414367 0.602036 0.207563
0.420501 0.604979 0.207990
0.428517 0.610560 0.208872
0.430025 0.606585 0.208094
0.431580 0.602712 0.207334
0.436948 0.604272 0.207513
0.440827 0.603670 0.207316
0.445165 0.603678 0.207224
0.450133 0.604512 0.207274
0.454943 0.605077 0.207276
0.460696 0.606863 0.207488
0.463729 0.604961 0.207065
0.466471 0.602682 0.206578
0.469811 0.601203 0.206230
0.472571 0.598981 0.205755
0.484249 0.608202 0.207245
0.484592 0.602856 0.206239
0.480194 0.591648 0.204234
0.480745 0.586803 0.203323
0.481871 0.582757 0.202553
0.489391 0.586595 0.203135
0.501318 0.595702 0.204619
0.504272 0.593903 0.204246
0.496756 0.579719 0.201769
0.494441 0.571934 0.200390
0.498167 0.571362 0.200247
0.505568 0.575085 0.200842
0.500264 0.564208 0.198960
-0.188154 0.605866 0.200703
-0.185331 0.605643 0.200701
-0.183091 0.607284 0.201007
-0.180422 0.607780 0.201135
-0.177722 0.608298 0.201274
-0.174636 0.607724 0.201243
-0.171635 0.607499 0.201275
-0.168575 0.607161 0.201293
-0.164864 0.604749 0.200982
-0.162941 0.608315 0.201643
-0.160089 0.608902 0.201826
-0.156708 0.607732 0.201728
-0.153745 0.608043 0.201874
-0.150790 0.608431 0.202035
-0.147698 0.608362 0.202125
-0.144826 0.609138 0.202355
-0.142036 0.610266 0.202644
-0.138367 0.608043 0.202387
-0.135380 0.608429 0.202557
-0.132293 0.608418 0.202663
-0.129743 0.610613 0.203130
-0.126708 0.610844 0.203277
-0.123141 0.608770 0.203044
-0.120529 0.610782 0.203482
-0.117707 0.611909 0.203774
-0.114667 0.612047 0.203903
-0.111269 0.610463 0.203747
-0.108467 0.611645 0.204046
-0.105397 0.611511 0.204126
-0.102212 0.610734 0.204098
-0.099132 0.610419 0.204146
-0.096067 0.610115 0.204193
-0.092988 0.609664 0.204214
-0.090448 0.612181 0.204726
-0.087061 0.609857 0.204432
-0.084188 0.610415 0.204615
-0.081122 0.609762 0.204595
-0.078250 0.610246 0.204762
-0.075452 0.611188 0.205004
-0.072423 0.610560 0.204982
-0.069634 0.611520 0.205224
-0.066752 0.611808 0.205351
-0.063759 0.611223 0.205330
-0.060775 0.610605 0.205302
-0.057910 0.610840 0.205415
-0.055032 0.610937 0.205503
-0.052192 0.611302 0.205634
-0.049312 0.611288 0.205700
-0.046384 0.610738 0.205674
-0.043574 0.611275 0.205828
-0.040793 0.612113 0.206032
-0.037905 0.611799 0.206041
-0.034706 0.607718 0.205413
-0.031698 0.605486 0.205094
-0.029265 0.610544 0.206003
-0.026689 0.614203 0.206675
-0.023958 0.615969 0.207027
-0.021587 0.623842 0.208410
-0.018585 0.621816 0.208119
-0.015150 0.611043 0.206347
-0.012334 0.611169 0.206416
-0.009497 0.610780 0.206396
-0.006644 0.609856 0.206284
-0.003452 0.598381 0.204384
-0.001101 0.612604 0.206836
0.001686 0.614027 0.207119
0.004492 0.615188 0.207357
0.007311 0.616149 0.207559
0.010146 0.616354 0.207632
0.012996 0.613981 0.207266
0.015822 0.614613 0.207409
0.018659 0.616156 0.207707
0.021467 0.612696 0.207152
0.024299 0.613413 0.207307
0.027162 0.615409 0.207679
0.029951 0.613249 0.207343
0.032732 0.611513 0.207077
0.035582 0.612370 0.207253
0.038498 0.614762 0.207689
0.041289 0.613550 0.207510
0.044113 0.613250 0.207486
0.047004 0.614278 0.207688
0.049916 0.615468 0.207916
0.052778 0.615590 0.207962
0.055633 0.615562 0.207982
0.058631 0.617526 0.208341
0.061429 0.616537 0.208195
0.064472 0.618704 0.208587
0.067489 0.620281 0.208879
0.069856 0.614337 0.207885
0.072341 0.610211 0.207201
0.075183 0.610080 0.207199
0.078139 0.611037 0.207382
0.080978 0.610780 0.207358
0.083628 0.608838 0.207044
0.086053 0.605098 0.206423
0.088923 0.605260 0.206468
0.092762 0.613026 0.207814
0.096216 0.617264 0.208556
0.099539 0.620211 0.209077
0.103953 0.630654 0.210880
0.104433 0.613436 0.207950
0.107050 0.611453 0.207626
0.109940 0.611311 0.207617
0.112846 0.611252 0.207621
0.114651 0.604515 0.206482
0.117811 0.606085 0.206765
0.122063 0.613777 0.208096
0.125480 0.616389 0.208557
0.128584 0.617137 0.208698
0.131214 0.615327 0.208401
0.134076 0.614769 0.208318
0.136809 0.613562 0.208123
0.139644 0.612892 0.208020
0.142701 0.613281 0.208098
0.145755 0.613615 0.208167
0.148841 0.614055 0.208253
0.151634 0.613140 0.208107
0.154824 0.613974 0.208260
0.158205 0.615562 0.208542
0.161115 0.615092 0.208471
0.164070 0.614796 0.208430
0.167372 0.615884 0.208625
0.170454 0.616039 0.208660
0.173507 0.616049 0.208670
0.176436 0.615567 0.208595
0.179206 0.614488 0.208417
0.182911 0.616836 0.208827
0.185809 0.616181 0.208721
0.192144 0.627613 0.210689
0.190974 0.612697 0.208135
0.193275 0.610055 0.207686
0.196034 0.609005 0.207511
0.199154 0.609151 0.207540
0.202205 0.609048 0.207525
0.204961 0.607987 0.207346
0.206875 0.604308 0.206717
0.210224 0.605132 0.206860
0.215048 0.610367 0.207760
0.221466 0.620162 0.209442
0.226189 0.624663 0.210215
0.224322 0.609977 0.207693
0.227121 0.608972 0.207519
0.229974 0.608128 0.207372
0.232277 0.605762 0.206962
0.235214 0.605165 0.206856
0.237524 0.602879 0.206459
0.242892 0.608722 0.207457
0.246390 0.609499 0.207584
0.252557 0.617094 0.208880
0.253214 0.610474 0.207736
0.254216 0.604869 0.206765
0.258474 0.607430 0.207194
0.261631 0.607212 0.207146
0.266408 0.610871 0.207761
0.267947 0.606719 0.207035
0.270025 0.603907 0.206539
0.276991 0.612450 0.207988
0.280577 0.613028 0.208070
0.281182 0.606833 0.206989
0.284708 0.607273 0.207045
0.291019 0.613799 0.208143
0.291423 0.607295 0.207006
0.296339 0.610607 0.207549
0.299445 0.609968 0.207415
0.304556 0.613514 0.207995
0.310799 0.619291 0.208955
0.313691 0.618034 0.208710
0.310674 0.604819 0.206417
0.314162 0.604884 0.206395
0.317425 0.604468 0.206289
0.320624 0.603902 0.206156
0.323505 0.602697 0.205912
0.326189 0.601109 0.205601
0.336239 0.613431 0.207662
0.340213 0.614092 0.207730
0.345489 0.617106 0.208197
0.351400 0.621172 0.208840
0.346335 0.605281 0.206082
0.349519 0.604437 0.205886
0.352388 0.603012 0.205589
0.354955 0.601049 0.205198
0.359414 0.602358 0.205362
0.367983 0.610627 0.206706
0.371679 0.610430 0.206608
0.373382 0.606858 0.205935
0.372032 0.598259 0.204409
0.376735 0.599717 0.204586
0.381225 0.600756 0.204689
0.385594 0.601532 0.204746
0.390047 0.602380 0.204812
0.396296 0.605987 0.205341
0.398656 0.603427 0.204826
0.399216 0.598104 0.203844
0.401770 0.595881 0.203383
0.409422 0.601338 0.204213
0.412583 0.599941 0.203887
0.418038 0.601914 0.204125
0.425608 0.606889 0.204865
0.431080 0.608685 0.205068
0.431335 0.602936 0.204005
0.434729 0.601707 0.203698
0.439936 0.603001 0.203813
0.444924 0.603926 0.203864
0.449307 0.603964 0.203766
0.453935 0.604298 0.203716
0.461560 0.608626 0.204331
0.462976 0.604558 0.203549
0.465403 0.601878 0.202998
0.469111 0.600898 0.202732
0.472729 0.599800 0.202447
0.482216 0.606227 0.203411
0.480907 0.598812 0.202085
0.478027 0.589553 0.200459
0.471573 0.576014 0.198132
0.476550 0.576831 0.198182
0.492211 0.590695 0.200386
0.502813 0.598186 0.201542
0.497148 0.586037 0.199469
0.488103 0.570106 0.196782
0.497326 0.576014 0.197695
0.499719 0.573866 0.197290
0.493153 0.561412 0.195201
0.504911 0.570252 0.196615
-0.187039 0.603439 0.197470
-0.185100 0.605774 0.197866
-0.182279 0.605644 0.197885
-0.180278 0.608122 0.198319
-0.177232 0.607548 0.198283
-0.174552 0.608209 0.198447
-0.171405 0.607496 0.198402
-0.168374 0.607224 0.198432
-0.165469 0.607440 0.198544
-0.162799 0.608524 0.198798
-0.159918 0.608989 0.198959
-0.156553 0.607853 0.198873
-0.153436 0.607598 0.198928
-0.150650 0.608563 0.199180
-0.147720 0.609068 0.199362
-0.144647 0.609083 0.199468
-0.142103 0.611132 0.199899
-0.138837 0.610467 0.199902
-0.135003 0.607528 0.199544
-0.132265 0.608894 0.199870
-0.129398 0.609778 0.200120
-0.126557 0.610792 0.200392
-0.123037 0.608900 0.200200
-0.120245 0.610111 0.200502
-0.117604 0.612024 0.200917
-0.114222 0.610577 0.200793
-0.111152 0.610492 0.200886
-0.108163 0.610757 0.201034
-0.105172 0.610980 0.201174
-0.102010 0.610296 0.201167
-0.098840 0.609484 0.201137
-0.095947 0.610064 0.201330
-0.093221 0.611544 0.201666
-0.089959 0.610015 0.201515
-0.086979 0.609987 0.201604
-0.084109 0.610560 0.201789
-0.081121 0.610383 0.201850
-0.078121 0.610055 0.201885
-0.075332 0.611040 0.202130
-0.072417 0.611171 0.202236
-0.069346 0.610157 0.202153
-0.066702 0.612120 0.202552
-0.063550 0.610333 0.202340
-0.060678 0.610540 0.202450
-0.057795 0.610621 0.202537
-0.054979 0.611211 0.202705
-0.052167 0.611825 0.202876
-0.049241 0.611391 0.202874
-0.046292 0.610626 0.202815
-0.043527 0.611596 0.203039
-0.040736 0.612327 0.203222
-0.037885 0.612408 0.203296
-0.034590 0.607211 0.202505
-0.031644 0.605696 0.202314
-0.029234 0.611060 0.203250
-0.026597 0.613863 0.203764
-0.023911 0.616271 0.204213
-0.021736 0.627331 0.206082
-0.018396 0.619584 0.204860
-0.015107 0.611357 0.203557
-0.012276 0.611166 0.203572
-0.009449 0.610964 0.203585
-0.006584 0.609663 0.203415
-0.003451 0.599887 0.201848
-0.000818 0.604386 0.202630
0.001728 0.614275 0.204300
0.004507 0.616759 0.204750
0.007364 0.615442 0.204571
0.010208 0.614189 0.204401
0.013034 0.613962 0.204400
0.015858 0.616004 0.204772
0.018695 0.616556 0.204897
0.021524 0.615672 0.204784
0.024355 0.615432 0.204776
0.027212 0.616647 0.205008
0.030029 0.615629 0.204869
0.032763 0.611852 0.204273
0.035587 0.611951 0.204317
0.038442 0.612791 0.204483
0.041301 0.613508 0.204628
0.044077 0.612230 0.204442
0.046964 0.613330 0.204649
0.049838 0.613961 0.204778
0.052703 0.614302 0.204857
0.055540 0.614121 0.204850
0.058497 0.615643 0.205124
0.061600 0.618900 0.205686
0.064703 0.621721 0.206175
0.068088 0.627547 0.207162
0.069905 0.615040 0.205105
0.072435 0.611390 0.204518
0.075255 0.611008 0.204473
0.078038 0.610265 0.204367
0.080961 0.610856 0.204482
0.083735 0.610040 0.204363
0.086213 0.606722 0.203828
0.089243 0.608168 0.204084
0.092945 0.614766 0.205196
0.096183 0.617322 0.205635
0.099692 0.621655 0.206370
0.103641 0.628782 0.207569
0.104611 0.614996 0.205290
0.107150 0.612465 0.204883
0.109958 0.611789 0.204783
0.112074 0.606814 0.203967
0.114874 0.606240 0.203884
0.117799 0.606397 0.203921
0.122293 0.615490 0.205446
0.125440 0.616572 0.205637
0.127966 0.614209 0.205254
0.130547 0.612231 0.204935
0.133258 0.610987 0.204737
0.136852 0.614212 0.205284
0.139700 0.613602 0.205191
0.142592 0.613205 0.205134
0.145515 0.612945 0.205099
0.148393 0.612464 0.205027
0.151316 0.612183 0.204988
0.155300 0.616517 0.205717
0.158059 0.615412 0.205540
0.160896 0.614651 0.205420
0.163326 0.612228 0.205022
0.166867 0.614342 0.205380
0.169371 0.612263 0.205039
0.172590 0.613003 0.205168
0.176719 0.617137 0.205861
0.179685 0.616772 0.205805
0.181785 0.613231 0.205218
0.185596 0.615928 0.205671
0.192902 0.630803 0.208153
0.190722 0.612339 0.205078
0.192703 0.608624 0.204460
0.195604 0.608085 0.204371
0.198794 0.608487 0.204439
0.201587 0.607573 0.204287
0.204502 0.607050 0.204199
0.206890 0.604878 0.203836
0.210062 0.605157 0.203881
0.216240 0.614506 0.205437
0.221823 0.621767 0.206644
0.225059 0.621895 0.206661
0.224508 0.611050 0.204849
0.227291 0.609995 0.204668
0.229655 0.607771 0.204291
0.232415 0.606680 0.204103
0.233951 0.602262 0.203359
0.237834 0.604249 0.203681
0.243634 0.611232 0.204835
0.247672 0.613391 0.205185
0.250060 0.611219 0.204811
0.255300 0.616321 0.205648
0.256583 0.611345 0.204806
0.256631 0.603422 0.203472
0.261116 0.606507 0.203970
0.264434 0.606671 0.203981
0.267414 0.606002 0.203852
0.270659 0.605945 0.203823
0.273294 0.604445 0.203553
0.275534 0.602054 0.203134
0.280035 0.604796 0.203567
0.286602 0.612050 0.204748
0.288185 0.608117 0.204068
0.292327 0.609816 0.204323
0.293352 0.604745 0.203452
0.297550 0.606501 0.203713
0.302276 0.609291 0.204144
0.308131 0.614325 0.204945
0.315191 0.621674 0.206128
0.310953 0.605938 0.203481
0.314341 0.605796 0.203418
0.317601 0.605370 0.203307
0.320816 0.604829 0.203175
0.323891 0.603997 0.202992
0.325936 0.601174 0.202479
0.337913 0.617158 0.205074
0.343000 0.619865 0.205469
0.347178 0.620793 0.205568
0.351311 0.621577 0.205641
0.344796 0.603052 0.202526
0.349362 0.604708 0.202740
0.351835 0.602585 0.202328
0.355363 0.602313 0.202219
0.360566 0.604903 0.202579
0.365865 0.607559 0.202947
0.370564 0.609099 0.203129
0.371140 0.603655 0.202160
0.370971 0.597047 0.201000
0.375032 0.597473 0.200992
0.379786 0.598969 0.201156
0.384910 0.600983 0.201403
0.389616 0.602247 0.201523
0.395090 0.604646 0.201827
0.398569 0.603844 0.201604
0.400043 0.599925 0.200871
0.403311 0.598777 0.200589
0.409176 0.601522 0.200937
0.413193 0.601406 0.200818
0.417013 0.600956 0.200642
0.424272 0.605498 0.201274
0.431693 0.610139 0.201918
0.431012 0.603038 0.200659
0.434671 0.602189 0.200411
0.439530 0.603001 0.200430
0.443376 0.602351 0.200212
0.447119 0.601532 0.199966
0.452528 0.602964 0.200082
0.459894 0.606972 0.200611
0.465048 0.607917 0.200647
0.465461 0.602550 0.199671
0.469377 0.601848 0.199445
0.472590 0.600227 0.199073
0.478991 0.602710 0.199360
0.477372 0.594941 0.198012
0.476475 0.588220 0.196837
0.479869 0.586972 0.196539
0.479328 0.580887 0.195476
0.490436 0.589174 0.196703
0.502685 0.598702 0.198130
0.493010 0.581734 0.195358
0.487446 0.569986 0.193423
0.496298 0.575482 0.194229
0.496921 0.571284 0.193506
0.492906 0.561813 0.191958
0.545878 0.618079 0.200814
-0.186676 0.603204 0.194599
-0.184556 0.604972 0.194896
-0.181410 0.603822 0.194757
-0.178804 0.604398 0.194889
-0.176650 0.606504 0.195260
-0.174147 0.607676 0.195497
-0.171347 0.608032 0.195617
-0.167962 0.606592 0.195469
-0.165178 0.607168 0.195635
-0.162378 0.607786 0.195812
-0.159415 0.607936 0.195923
-0.156262 0.607488 0.195947
-0.153385 0.608047 0.196128
-0.150543 0.608798 0.196343
-0.147579 0.609160 0.196502
-0.144334 0.608516 0.196508
-0.142232 0.612217 0.197184
-0.138457 0.609574 0.196887
-0.135387 0.609628 0.197005
-0.132282 0.609537 0.197102
-0.129303 0.609952 0.197278
-0.126315 0.610333 0.197449
-0.123427 0.611143 0.197685
-0.120053 0.609821 0.197592
-0.117083 0.610231 0.197766
-0.114135 0.610731 0.197953
-0.111071 0.610667 0.198052
-0.108150 0.611250 0.198250
-0.105288 0.612113 0.198490
-0.101975 0.610681 0.198372
-0.098835 0.610025 0.198372
-0.095769 0.609676 0.198418
-0.093021 0.611017 0.198727
-0.089962 0.610611 0.198761
-0.086927 0.610271 0.198803
-0.084036 0.610713 0.198966
-0.081070 0.610663 0.199049
-0.078564 0.613490 0.199583
-0.075287 0.611363 0.199336
-0.072375 0.611516 0.199445
-0.069437 0.611433 0.199515
-0.066673 0.612556 0.199774
-0.063704 0.612155 0.199790
-0.060607 0.610656 0.199630
-0.057717 0.610667 0.199707
-0.055055 0.612548 0.200078
-0.052159 0.612467 0.200136
-0.049133 0.611114 0.199991
-0.046208 0.610564 0.199971
-0.043395 0.611023 0.200109
-0.040665 0.612362 0.200385
-0.037637 0.610445 0.200142
-0.034456 0.606451 0.199566
-0.031562 0.605520 0.199475
-0.029164 0.611011 0.200406
-0.026671 0.615826 0.201228
-0.024060 0.619489 0.201865
-0.021565 0.625571 0.202888
-0.018239 0.617862 0.201708
-0.015055 0.611460 0.200734
-0.012274 0.612297 0.200915
-0.009351 0.609930 0.200582
-0.006540 0.609870 0.200616
-0.003530 0.603745 0.199678
-0.000833 0.606563 0.200170
0.001768 0.614508 0.201482
0.004534 0.617656 0.202025
0.007386 0.616808 0.201926
0.010247 0.614191 0.201543
0.013066 0.615033 0.201713
0.015892 0.616323 0.201954
0.018725 0.616066 0.201945
0.021568 0.617143 0.202150
0.024400 0.616708 0.202111
0.027258 0.617824 0.202320
0.030098 0.617622 0.202316
0.032901 0.616131 0.202104
0.035640 0.613019 0.201630
0.038505 0.614074 0.201825
0.041356 0.614511 0.201921
0.044138 0.613316 0.201752
0.046946 0.612819 0.201695
0.049782 0.612865 0.201725
0.052629 0.613029 0.201773
0.055460 0.612896 0.201772
0.058339 0.613425 0.201877
0.061468 0.617202 0.202505
0.064743 0.622338 0.203352
0.067912 0.625587 0.203894
0.069784 0.613832 0.202016
0.072548 0.612776 0.201863
0.075287 0.611534 0.201678
0.078131 0.611391 0.201671
0.080958 0.611071 0.201634
0.083711 0.610081 0.201489
0.086423 0.608789 0.201294
0.089268 0.608651 0.201286
0.092693 0.613078 0.202013
0.096084 0.616883 0.202640
0.100027 0.624446 0.203873
0.103240 0.626283 0.204181
0.104619 0.615398 0.202435
0.106646 0.609474 0.201489
0.109382 0.608449 0.201333
0.112316 0.608691 0.201382
0.114949 0.607066 0.201129
0.117877 0.607245 0.201167
0.121948 0.613919 0.202254
0.125218 0.615744 0.202557
0.127462 0.611892 0.201943
0.129746 0.608420 0.201389
0.132821 0.609166 0.201517
0.136832 0.614542 0.202392
0.139714 0.614109 0.202329
0.141843 0.610068 0.201681
0.144895 0.610494 0.201756
0.148270 0.612354 0.202062
0.151472 0.613337 0.202226
0.154752 0.614590 0.202433
0.158354 0.617145 0.202850
0.160396 0.613030 0.202188
0.164014 0.615527 0.202595
0.167274 0.616460 0.202749
0.170253 0.616226 0.202714
0.172210 0.612024 0.202036
0.176724 0.617652 0.202948
0.179642 0.617108 0.202861
0.182264 0.615482 0.202598
0.186138 0.618376 0.203066
0.193238 0.632505 0.205351
0.189568 0.608855 0.201525
0.192415 0.608154 0.201410
0.195490 0.608215 0.201418
0.198421 0.607776 0.201344
0.201446 0.607634 0.201318
0.204123 0.606365 0.201108
0.206262 0.603432 0.200630
0.210292 0.606385 0.201102
0.216622 0.616195 0.202682
0.221298 0.620740 0.203410
0.224634 0.621188 0.203475
0.225054 0.613161 0.202169
0.227140 0.610098 0.201664
0.229440 0.607701 0.201267
0.231972 0.605989 0.200980
0.234547 0.604422 0.200715
0.238236 0.605866 0.200936
0.244433 0.613892 0.202218
0.248299 0.615576 0.202476
0.251214 0.614738 0.202325
0.255271 0.616800 0.202641
0.256546 0.611800 0.201816
0.257452 0.605996 0.200860
0.259198 0.602366 0.200254
0.263211 0.604270 0.200540
0.267466 0.606672 0.200905
0.270277 0.605592 0.200707
0.272915 0.604113 0.200443
0.275281 0.602016 0.200079
0.280580 0.606575 0.200785
0.284485 0.607877 0.200966
0.290767 0.614361 0.201979
0.294308 0.614684 0.201997
0.294023 0.606736 0.200684
0.298022 0.608052 0.200860
0.302744 0.610825 0.201268
0.308575 0.615801 0.202028
0.314312 0.620436 0.202731
0.310721 0.606016 0.200371
0.314006 0.605673 0.200271
0.317529 0.605775 0.200241
0.320945 0.605630 0.200169
0.324000 0.604753 0.199977
0.324994 0.599917 0.199150
0.337993 0.617867 0.201968
0.337536 0.610201 0.200684
0.344644 0.616664 0.201657
0.349470 0.618770 0.201930
0.344705 0.603432 0.199416
0.348177 0.603133 0.199301
0.351743 0.602965 0.199206
0.354777 0.601829 0.198954
0.360901 0.606028 0.199548
0.365921 0.608202 0.199817
0.366843 0.603340 0.198965
0.367618 0.598291 0.198082
0.372898 0.600781 0.198393
0.376465 0.600362 0.198240
0.378570 0.597533 0.197703
0.382016 0.596873 0.197508
0.388584 0.601147 0.198089
0.394754 0.604661 0.198547
0.399174 0.605330 0.198552
0.399697 0.599934 0.197599
0.404270 0.600779 0.197627
0.408903 0.601653 0.197657
0.411186 0.598954 0.197123
0.415742 0.599624 0.197116
0.422707 0.603762 0.197650
0.430577 0.609081 0.198365
0.431007 0.603584 0.197387
0.434012 0.601810 0.196989
0.439541 0.603577 0.197143
0.443116 0.602552 0.196861
0.445931 0.600464 0.196412
0.457053 0.609703 0.197722
0.460292 0.608090 0.197345
0.464097 0.607233 0.197087
0.466715 0.604797 0.196585
0.468500 0.601293 0.195921
0.473000 0.601357 0.195809
0.477503 0.601409 0.195698
0.476478 0.594415 0.194506
0.479866 0.593104 0.194192
0.487633 0.597282 0.194724
0.488832 0.593262 0.194004
0.495926 0.596543 0.194406
0.500541 0.596767 0.194346
0.489621 0.578318 0.191441
0.492784 0.577006 0.191162
0.497103 0.577110 0.191106
0.495476 0.570277 0.190002
0.496266 0.566401 0.189357
0.496975 0.562537 0.188723
-0.186566 0.603712 0.191846
-0.184321 0.605087 0.192073
-0.181435 0.604686 0.192048
-0.178733 0.604955 0.192129
-0.176346 0.606316 0.192379
-0.173694 0.606988 0.192535
-0.170626 0.606446 0.192519
-0.167785 0.606715 0.192629
-0.164906 0.606952 0.192741
-0.162013 0.607226 0.192864
-0.158444 0.605268 0.192662
-0.155981 0.607142 0.193032
-0.153294 0.608348 0.193307
-0.150323 0.608613 0.193446
-0.147068 0.607884 0.193442
-0.144146 0.608398 0.193624
-0.141945 0.611700 0.194224
-0.138420 0.609999 0.194081
-0.135322 0.609930 0.194182
-0.132231 0.609882 0.194288
-0.129322 0.610578 0.194505
-0.126280 0.610729 0.194641
-0.123091 0.610235 0.194681
-0.120007 0.610156 0.194782
-0.116963 0.610225 0.194904
-0.113944 0.610382 0.195039
-0.111019 0.610957 0.195236
-0.108118 0.611632 0.195447
-0.104936 0.610904 0.195445
-0.101911 0.610892 0.195550
-0.098923 0.611026 0.195674
-0.095742 0.610082 0.195634
-0.092819 0.610455 0.195792
-0.090038 0.611603 0.196065
-0.086805 0.610121 0.195937
-0.083906 0.610504 0.196090
-0.081083 0.611324 0.196307
-0.078163 0.611512 0.196427
-0.075318 0.612156 0.196614
-0.072191 0.610856 0.196502
-0.069226 0.610552 0.196539
-0.066400 0.611185 0.196719
-0.063499 0.611234 0.196806
-0.060602 0.611253 0.196887
-0.057740 0.611510 0.197002
-0.054855 0.611523 0.197078
-0.052024 0.611959 0.197217
-0.048988 0.610478 0.197059
-0.046107 0.610296 0.197098
-0.043323 0.611025 0.197276
-0.040559 0.611984 0.197488
-0.037725 0.612204 0.197584
-0.034243 0.604728 0.196490
-0.031433 0.604720 0.196546
-0.028778 0.606726 0.196912
-0.026776 0.618216 0.198743
-0.024358 0.624970 0.199842
-0.021590 0.626967 0.200204
-0.018154 0.617389 0.198770
-0.015000 0.611466 0.197901
-0.012168 0.611184 0.197903
-0.009322 0.610436 0.197832
-0.006502 0.610161 0.197832
-0.003523 0.604948 0.197065
-0.000816 0.607568 0.197512
0.001810 0.614572 0.198639
0.004582 0.617340 0.199107
0.007427 0.616700 0.199044
0.010270 0.615645 0.198916
0.013103 0.614680 0.198800
0.015926 0.614006 0.198727
0.018751 0.614967 0.198909
0.021584 0.615777 0.199065
0.024445 0.618074 0.199453
0.027321 0.619951 0.199774
0.030225 0.622199 0.200152
0.032982 0.618379 0.199582
0.035734 0.615417 0.199145
0.038608 0.616474 0.199335
0.041441 0.616264 0.199325
0.044234 0.615184 0.199179
0.046967 0.613090 0.198874
0.049768 0.612539 0.198808
0.052569 0.612012 0.198745
0.055341 0.611093 0.198621
0.058279 0.612625 0.198878
0.061149 0.613013 0.198957
0.064115 0.614524 0.199210
0.068017 0.626986 0.201175
0.069775 0.613898 0.199143
0.072513 0.612592 0.198954
0.075306 0.611943 0.198866
0.078118 0.611492 0.198809
0.080942 0.611161 0.198770
0.083736 0.610564 0.198689
0.086190 0.607071 0.198154
0.089234 0.608665 0.198415
0.092393 0.611008 0.198792
0.095807 0.615091 0.199442
0.099771 0.622897 0.200675
0.103591 0.629115 0.201658
0.104411 0.614317 0.199349
0.106946 0.611820 0.198966
0.109564 0.609984 0.198686
0.112332 0.609160 0.198564
0.115102 0.608371 0.198447
0.117378 0.604695 0.197878
0.121131 0.609641 0.198659
0.124742 0.613501 0.199270
0.127568 0.612878 0.199178
0.129831 0.609283 0.198619
0.133908 0.615185 0.199549
0.137657 0.619117 0.200169
0.140069 0.616284 0.199729
0.141432 0.608539 0.198518
0.144035 0.606919 0.198266
0.148007 0.611607 0.199004
0.151398 0.613462 0.199297
0.155672 0.619076 0.200179
0.156855 0.611197 0.198944
0.159825 0.611109 0.198931
0.164596 0.618395 0.200074
0.168110 0.620308 0.200374
0.170304 0.616912 0.199841
0.173081 0.615881 0.199678
0.175782 0.614574 0.199471
0.179335 0.616464 0.199766
0.182127 0.615481 0.199609
0.186270 0.619358 0.200213
0.192207 0.629392 0.201783
0.189619 0.609536 0.198665
0.192575 0.609205 0.198609
0.195446 0.608575 0.198504
0.198516 0.608598 0.198502
0.201473 0.608233 0.198438
0.204038 0.606608 0.198176
0.205966 0.603019 0.197605
0.210517 0.607599 0.198314
0.215512 0.613358 0.199207
0.220517 0.618943 0.200071
0.223757 0.619148 0.200092
0.225404 0.614707 0.199384
0.226183 0.607898 0.198305
0.229068 0.607186 0.198180
0.232265 0.607330 0.198188
0.233655 0.602516 0.197418
0.237295 0.603866 0.197613
0.245245 0.616585 0.199586
0.249404 0.619010 0.199946
0.251076 0.614927 0.199287
0.253278 0.612274 0.198851
0.257091 0.613713 0.199054
0.257659 0.607046 0.197988
0.260348 0.605713 0.197755
0.264104 0.606964 0.197925
0.267742 0.607869 0.198039
0.270954 0.607726 0.197988
0.274551 0.608447 0.198070
0.277569 0.607796 0.197937
0.280557 0.607065 0.197790
0.283298 0.605770 0.197554
0.286561 0.605627 0.197495
0.291274 0.608620 0.197924
0.293311 0.605745 0.197436
0.297637 0.607779 0.197712
0.302875 0.611648 0.198271
0.307802 0.614748 0.198707
0.313909 0.620162 0.199501
0.310587 0.606286 0.197296
0.313360 0.604920 0.197033
0.316588 0.604451 0.196907
0.320184 0.604680 0.196888
0.323327 0.603989 0.196724
0.324335 0.599189 0.195921
0.330278 0.603806 0.196575
0.333224 0.602670 0.196335
0.339162 0.607061 0.196948
0.348629 0.617780 0.198535
0.345146 0.604768 0.196454
0.348268 0.603832 0.196236
0.351278 0.602677 0.195982
0.354367 0.601645 0.195744
0.360704 0.606224 0.196367
0.364385 0.606106 0.196265
0.364358 0.599659 0.195188
0.367099 0.597950 0.194837
0.374054 0.603232 0.195555
0.377029 0.601820 0.195244
0.376730 0.595071 0.194114
0.380277 0.594604 0.193943
0.387946 0.600664 0.194766
0.395917 0.607028 0.195630
0.397067 0.602583 0.194843
0.398908 0.599249 0.194225
0.404587 0.601797 0.194498
0.405183 0.596568 0.193589
0.411683 0.600231 0.194025
0.415613 0.599969 0.193864
0.422197 0.603556 0.194282
0.430309 0.609241 0.195013
0.430550 0.603475 0.194015
0.433845 0.602119 0.193681
0.437297 0.600973 0.193377
0.443371 0.603460 0.193618
0.446997 0.602488 0.193339
0.459573 0.613710 0.194881
0.463474 0.612959 0.194632
0.466645 0.611218 0.194236
0.466151 0.604632 0.193121
0.468874 0.602368 0.192651
0.470583 0.598813 0.191993
0.474385 0.598001 0.191745
0.477335 0.596108 0.191340
0.481865 0.596236 0.191238
0.484259 0.593692 0.190745
0.494586 0.601015 0.191712
0.501308 0.603790 0.192012
0.501251 0.598288 0.191101
0.500753 0.592372 0.190137
0.501172 0.587678 0.189362
0.503264 0.585073 0.188901
0.498824 0.574884 0.187340
0.497642 0.568691 0.186374
0.495162 0.561145 0.185220
-0.185635 0.601808 0.188752
-0.183883 0.604595 0.189170
-0.181391 0.605345 0.189308
-0.178624 0.605391 0.189353
-0.175977 0.605921 0.189476
-0.173490 0.607075 0.189695
-0.170712 0.607431 0.189808
-0.167843 0.607597 0.189901
-0.165036 0.608057 0.190043
-0.161936 0.607622 0.190063
-0.158543 0.606242 0.189953
-0.155745 0.606946 0.190146
-0.153203 0.608634 0.190484
-0.150005 0.608062 0.190503
-0.146929 0.607955 0.190592
-0.144030 0.608535 0.190782
-0.141131 0.609157 0.190981
-0.138158 0.609533 0.191146
-0.135186 0.609931 0.191317
-0.131691 0.608229 0.191185
-0.129133 0.610326 0.191603
-0.126141 0.610668 0.191767
-0.123004 0.610379 0.191840
-0.119950 0.610420 0.191961
-0.116917 0.610536 0.192092
-0.113742 0.609960 0.192121
-0.110854 0.610688 0.192340
-0.107663 0.609941 0.192341
-0.104715 0.610320 0.192506
-0.101864 0.611172 0.192739
-0.098808 0.610943 0.192812
-0.095871 0.611298 0.192968
-0.092724 0.610457 0.192947
-0.089826 0.610929 0.193117
-0.086894 0.611179 0.193253
-0.083795 0.610379 0.193231
-0.080974 0.611194 0.193446
-0.078301 0.612953 0.193798
-0.075121 0.611420 0.193661
-0.072137 0.611064 0.193696
-0.069194 0.610910 0.193759
-0.066294 0.611001 0.193856
-0.063407 0.611140 0.193957
-0.060553 0.611481 0.194087
-0.057731 0.612056 0.194249
-0.054854 0.612155 0.194339
-0.051935 0.611826 0.194362
-0.049053 0.611746 0.194421
-0.046033 0.610269 0.194268
-0.043310 0.611599 0.194533
-0.040502 0.612104 0.194673
-0.037628 0.611864 0.194699
-0.034474 0.608212 0.194213
-0.031137 0.601784 0.193308
-0.028873 0.608800 0.194415
-0.027092 0.623568 0.196684
-0.024489 0.627861 0.197382
-0.021758 0.630670 0.197857
-0.018119 0.617743 0.195965
-0.014946 0.611449 0.195067
-0.012121 0.611278 0.195088
-0.009294 0.610955 0.195083
-0.006464 0.610419 0.195045
-0.003357 0.601263 0.193708
-0.000841 0.609967 0.195058
0.001845 0.614888 0.195838
0.004627 0.617064 0.196204
0.007472 0.616180 0.196106
0.010314 0.614754 0.195925
0.013137 0.614558 0.195929
0.015958 0.613817 0.195849
0.018769 0.612359 0.195659
0.021593 0.613784 0.195903
0.024437 0.615606 0.196207
0.027362 0.620916 0.197037
0.030200 0.620225 0.196959
0.032990 0.618002 0.196647
0.035807 0.617200 0.196550
0.038612 0.616223 0.196425
0.041486 0.617092 0.196578
0.044332 0.617141 0.196607
0.047095 0.615501 0.196378
0.049881 0.614509 0.196247
0.052619 0.612836 0.196012
0.055441 0.612654 0.196001
0.058297 0.612951 0.196063
0.061187 0.613617 0.196180
0.064051 0.613842 0.196229
0.067974 0.626634 0.198183
0.069656 0.612738 0.196089
0.072439 0.611997 0.195990
0.075243 0.611513 0.195928
0.078095 0.611498 0.195937
0.080906 0.611075 0.195884
0.083714 0.610629 0.195827
0.086310 0.608373 0.195494
0.088809 0.605460 0.195061
0.092302 0.610593 0.195848
0.095842 0.615677 0.196628
0.098852 0.616474 0.196757
0.103377 0.627945 0.198506
0.104847 0.617660 0.196951
0.106768 0.610992 0.195944
0.109579 0.610443 0.195866
0.112340 0.609586 0.195741
0.114632 0.605905 0.195186
0.117318 0.604726 0.195011
0.121084 0.609769 0.195781
0.124493 0.612521 0.196202
0.127696 0.613983 0.196427
0.131254 0.617221 0.196921
0.134745 0.619919 0.197333
0.137797 0.620255 0.197385
0.140451 0.618598 0.197134
0.142051 0.611940 0.196123
0.144750 0.610709 0.195936
0.148058 0.612291 0.196176
0.151498 0.614367 0.196491
0.154819 0.615812 0.196709
0.157739 0.615448 0.196652
0.160750 0.615460 0.196652
0.164457 0.618302 0.197081
0.167638 0.618892 0.197167
0.170067 0.616462 0.196794
0.172921 0.615750 0.196682
0.175820 0.615209 0.196595
0.178650 0.614408 0.196468
0.181310 0.612991 0.196247
0.184383 0.613083 0.196255
0.191096 0.625991 0.198208
0.190308 0.612423 0.196140
0.192524 0.609536 0.195693
0.195360 0.608794 0.195572
0.198391 0.608696 0.195547
0.201337 0.608303 0.195477
0.203999 0.606998 0.195269
0.205952 0.603486 0.194724
0.209710 0.605627 0.195037
0.214946 0.612163 0.196015
0.219583 0.616684 0.196687
0.223237 0.618149 0.196894
0.226077 0.617187 0.196732
0.226237 0.608579 0.195410
0.229060 0.607690 0.195257
0.231927 0.606921 0.195122
0.233815 0.603477 0.194581
0.236706 0.602807 0.194459
0.244571 0.615337 0.196335
0.248344 0.616778 0.196530
0.250333 0.613548 0.196016
0.251850 0.609177 0.195329
0.255220 0.609552 0.195360
0.259014 0.610941 0.195542
0.261815 0.609837 0.195346
0.264383 0.608171 0.195063
0.267676 0.608250 0.195043
0.271314 0.609109 0.195139
0.275516 0.611227 0.195424
0.277364 0.607865 0.194880
0.280773 0.608093 0.194877
0.282810 0.605217 0.194403
0.285113 0.602967 0.194023
0.285899 0.597433 0.193146
0.286521 0.591648 0.192231
0.296128 0.605105 0.194211
0.300037 0.606218 0.194330
0.306396 0.612368 0.195204
0.313990 0.620879 0.196429
0.310477 0.606600 0.194229
0.313265 0.605265 0.193972
0.316205 0.604227 0.193758
0.320371 0.605580 0.193899
0.323007 0.603902 0.193585
0.325128 0.601239 0.193121
0.327825 0.599688 0.192821
0.334648 0.605869 0.193675
0.339347 0.607938 0.193910
0.349567 0.620042 0.195640
0.345299 0.605575 0.193404
0.347860 0.603629 0.193033
0.351005 0.602720 0.192815
0.354351 0.602141 0.192642
0.358688 0.603255 0.192719
0.362566 0.603513 0.192666
0.364949 0.601185 0.192226
0.367548 0.599225 0.191839
0.370888 0.598496 0.191632
0.374212 0.597711 0.191413
0.375745 0.593984 0.190759
0.381236 0.596666 0.191046
0.388206 0.601601 0.191661
0.393937 0.604434 0.191963
0.396352 0.601992 0.191486
0.401720 0.604113 0.191676
0.404407 0.602047 0.191251
0.405470 0.597524 0.190464
0.409999 0.598236 0.190440
0.417676 0.603552 0.191084
0.421210 0.602641 0.190818
0.433150 0.613902 0.192317
0.430006 0.603229 0.190629
0.433585 0.602288 0.190353
0.437200 0.601377 0.190081
0.444763 0.605945 0.190597
0.447866 0.604236 0.190207
0.456212 0.609685 0.190846
0.464058 0.614318 0.191365
0.465391 0.610113 0.190616
0.464382 0.602862 0.189434
0.467718 0.601429 0.189088
0.471461 0.600537 0.188821
0.474078 0.598197 0.188351
0.476807 0.596033 0.187910
0.478371 0.592433 0.187270
0.489013 0.600253 0.188253
0.495618 0.602929 0.188511
0.501501 0.604676 0.188641
0.502402 0.600345 0.187920
0.503256 0.596053 0.187214
0.502970 0.590498 0.186338
0.508192 0.591591 0.186407
0.505975 0.583963 0.185260
0.518799 0.589129 0.185862
-0.185742 0.602955 0.186102
-0.183834 0.605263 0.186438
-0.181163 0.605449 0.186491
-0.178401 0.605476 0.186531
-0.175412 0.604912 0.186498
-0.172912 0.605977 0.186697
-0.170563 0.607662 0.186990
-0.167831 0.608244 0.187138
-0.165003 0.608616 0.187264
-0.162229 0.609260 0.187434
-0.159151 0.608955 0.187479
-0.156139 0.608930 0.187568
-0.153079 0.608793 0.187646
-0.150096 0.608972 0.187772
-0.147196 0.609504 0.187950
-0.144057 0.609193 0.188015
-0.140871 0.608710 0.188058
-0.138083 0.609775 0.188319
-0.134979 0.609636 0.188413
-0.132043 0.610173 0.188604
-0.129068 0.610571 0.188776
-0.125821 0.609821 0.188787
-0.122893 0.610399 0.188985
-0.119905 0.610722 0.189147
-0.117178 0.612208 0.189472
-0.113904 0.611207 0.189446
-0.110639 0.610159 0.189412
-0.107577 0.610011 0.189504
-0.104474 0.609611 0.189558
-0.101635 0.610493 0.189793
-0.098881 0.611826 0.190090
-0.095627 0.610482 0.190005
-0.092802 0.611391 0.190239
-0.089609 0.610200 0.190172
-0.086640 0.610202 0.190272
-0.083749 0.610618 0.190429
-0.081035 0.612096 0.190736
-0.078030 0.611755 0.190781
-0.075023 0.611311 0.190809
-0.072128 0.611550 0.190932
-0.069280 0.612071 0.191094
-0.066447 0.612686 0.191266
-0.063288 0.610814 0.191080
-0.060446 0.611230 0.191219
-0.057653 0.612020 0.191411
-0.054854 0.612762 0.191593
-0.051836 0.611568 0.191494
-0.048934 0.611279 0.191523
-0.046121 0.611776 0.191664
-0.043215 0.611303 0.191662
-0.040429 0.612016 0.191830
-0.037517 0.611320 0.191792
-0.034625 0.610738 0.191768
-0.031103 0.602106 0.190574
-0.028990 0.611151 0.191943
-0.027181 0.625672 0.194107
-0.024452 0.628176 0.194525
-0.021654 0.629874 0.194825
-0.018004 0.616631 0.192948
-0.014910 0.611728 0.192281
-0.012089 0.611629 0.192313
-0.009257 0.611192 0.192293
-0.006327 0.607972 0.191866
-0.003349 0.602338 0.191084
-0.000910 0.613888 0.192809
0.001785 0.619110 0.193609
0.004615 0.619722 0.193735
0.007531 0.614602 0.193022
0.010358 0.613766 0.192933
0.013164 0.615538 0.193225
0.015988 0.613366 0.192938
0.018797 0.612445 0.192832
0.021602 0.611985 0.192793
0.024434 0.613714 0.193073
0.027265 0.614483 0.193212
0.030159 0.617643 0.193699
0.033014 0.618258 0.193813
0.035780 0.615927 0.193494
0.038556 0.614405 0.193292
0.041415 0.615163 0.193424
0.044434 0.619178 0.194032
0.047272 0.618875 0.194007
0.050062 0.617718 0.193854
0.052767 0.615284 0.193514
0.055607 0.615245 0.193524
0.058501 0.615943 0.193641
0.061630 0.619679 0.194204
0.064440 0.618898 0.194102
0.067947 0.626474 0.195228
0.069634 0.612665 0.193211
0.072416 0.611952 0.193117
0.075183 0.611121 0.193005
0.078046 0.611267 0.193036
0.080917 0.611430 0.193069
0.083710 0.610866 0.192994
0.085942 0.605506 0.192213
0.088715 0.604982 0.192143
0.092441 0.611995 0.193181
0.095765 0.615411 0.193689
0.099369 0.620606 0.194458
0.102474 0.621877 0.194650
0.104416 0.615050 0.193650
0.106684 0.610797 0.193028
0.109419 0.609777 0.192881
0.112193 0.609037 0.192775
0.114169 0.603478 0.191959
0.116934 0.602846 0.191868
0.121373 0.611818 0.193189
0.125027 0.615899 0.193790
0.127711 0.614478 0.193581
0.130966 0.616119 0.193822
0.134200 0.617539 0.194030
0.136056 0.611937 0.193205
0.139114 0.612473 0.193282
0.142791 0.615930 0.193788
0.145692 0.615565 0.193732
0.148694 0.615651 0.193742
0.152006 0.617100 0.193951
0.155174 0.617827 0.194054
0.158304 0.618337 0.194124
0.161253 0.618042 0.194076
0.164290 0.618094 0.194078
0.166450 0.614586 0.193556
0.169618 0.615171 0.193635
0.172308 0.613861 0.193435
0.175296 0.613707 0.193404
0.178164 0.613086 0.193305
0.181427 0.613913 0.193417
0.184784 0.615021 0.193570
0.190475 0.624308 0.194925
0.190233 0.612665 0.193203
0.192279 0.609200 0.192682
0.195077 0.608350 0.192545
0.198049 0.608078 0.192492
0.200976 0.607643 0.192415
0.203559 0.606103 0.192175
0.205470 0.602483 0.191628
0.208948 0.603787 0.191804
0.214431 0.611120 0.192863
0.218947 0.615306 0.193459
0.222796 0.617379 0.193745
0.225793 0.616893 0.193653
0.225860 0.608026 0.192332
0.228560 0.606804 0.192132
0.231476 0.606196 0.192020
0.233927 0.604305 0.191720
0.237226 0.604730 0.191757
0.242443 0.610215 0.192535
0.246570 0.612665 0.192866
0.248980 0.610585 0.192533
0.252688 0.611842 0.192687
0.254993 0.609513 0.192316
0.258975 0.611378 0.192556
0.261867 0.610499 0.192393
0.263768 0.607219 0.191879
0.266269 0.605428 0.191581
0.269820 0.606124 0.191645
0.272603 0.604992 0.191440
0.276160 0.605634 0.191492
0.279960 0.606783 0.191617
0.284295 0.609070 0.191905
0.287247 0.608214 0.191734
0.288286 0.603169 0.190952
0.291703 0.603345 0.190927
0.293038 0.599048 0.190251
0.299543 0.605710 0.191165
0.306510 0.613143 0.192187
0.313680 0.620785 0.193237
0.310468 0.607112 0.191193
0.313217 0.605696 0.190925
0.317374 0.607074 0.191060
0.320462 0.606287 0.190878
0.323294 0.604985 0.190620
0.326341 0.604089 0.190419
0.329661 0.603692 0.190287
0.334001 0.605182 0.190425
0.337103 0.604301 0.190218
0.345165 0.605856 0.190274
0.347549 0.603592 0.189861
0.350325 0.602033 0.189547
0.354066 0.602161 0.189472
0.357798 0.602228 0.189385
0.362203 0.603407 0.189454
0.366422 0.604204 0.189466
0.369036 0.602241 0.189080
0.370190 0.597847 0.188347
0.372139 0.594810 0.187804
0.378777 0.599431 0.188348
0.382809 0.599710 0.188270
0.387822 0.601503 0.188404
0.394199 0.605365 0.188827
0.400756 0.609384 0.189267
0.401421 0.604167 0.188401
0.405014 0.603491 0.188173
0.404116 0.595988 0.186983
0.413071 0.603352 0.187879
0.415384 0.600674 0.187364
0.427346 0.612166 0.188828
0.433302 0.614656 0.189028
0.429180 0.602569 0.187193
0.433080 0.602098 0.186979
0.437941 0.602952 0.186947
0.443351 0.604515 0.187011
0.446153 0.602413 0.186567
0.453986 0.607194 0.187074
0.452975 0.599884 0.185912
0.464777 0.609854 0.187131
0.464173 0.603148 0.186056
0.468176 0.602602 0.185830
0.471894 0.601676 0.185555
0.473773 0.598386 0.184960
0.477065 0.596953 0.184623
0.488333 0.605621 0.185664
0.495634 0.609159 0.186010
0.496833 0.605067 0.185324
0.499656 0.603054 0.184928
0.503189 0.601958 0.184664
0.503729 0.597287 0.183925
0.502967 0.591166 0.183000
0.512230 0.597066 0.183704
0.515094 0.595377 0.183395
0.507731 0.581832 0.181503
0.498674 0.566598 0.179397
-0.187035 0.607599 0.183912
-0.183801 0.605978 0.183712
-0.181077 0.605979 0.183736
-0.177622 0.603852 0.183487
-0.175260 0.605182 0.183705
-0.172637 0.605834 0.183842
-0.169871 0.606143 0.183942
-0.167415 0.607572 0.184198
-0.164906 0.608955 0.184456
-0.161483 0.607386 0.184327
-0.158961 0.608924 0.184618
-0.155620 0.607727 0.184550
-0.152536 0.607454 0.184610
-0.150102 0.609568 0.184994
-0.147110 0.609744 0.185122
-0.144013 0.609569 0.185207
-0.141084 0.610053 0.185384
-0.137840 0.609349 0.185402
-0.134951 0.610034 0.185610
-0.131460 0.608310 0.185493
-0.129019 0.610859 0.185955
-0.125949 0.610847 0.186072
-0.122745 0.610240 0.186108
-0.119813 0.610790 0.186300
-0.116885 0.611360 0.186496
-0.113815 0.611265 0.186600
-0.110856 0.611659 0.186769
-0.107659 0.610880 0.186777
-0.104485 0.610135 0.186789
-0.101403 0.609782 0.186852
-0.098442 0.609993 0.186990
-0.095449 0.609997 0.187099
-0.092514 0.610273 0.187242
-0.089468 0.609880 0.187292
-0.086549 0.610157 0.187432
-0.083910 0.612078 0.187796
-0.080902 0.611774 0.187852
-0.077904 0.611453 0.187902
-0.074895 0.610976 0.187929
-0.072093 0.611828 0.188137
-0.069404 0.613479 0.188455
-0.066007 0.610005 0.188057
-0.063216 0.610809 0.188252
-0.060332 0.610889 0.188344
-0.057559 0.611820 0.188553
-0.054502 0.610347 0.188423
-0.051646 0.610477 0.188515
-0.048841 0.611033 0.188665
-0.046051 0.611721 0.188830
-0.043207 0.611861 0.188917
-0.040303 0.611324 0.188907
-0.037462 0.611377 0.188977
-0.034036 0.604445 0.188065
-0.031093 0.602688 0.187877
-0.029762 0.622207 0.190675
-0.026756 0.620406 0.190478
-0.024129 0.624072 0.191047
-0.021899 0.634774 0.192606
-0.017908 0.615816 0.189986
-0.014903 0.612530 0.189570
-0.012032 0.611407 0.189458
-0.009224 0.611468 0.189510
-0.006308 0.608593 0.189146
-0.003251 0.600564 0.188052
-0.000643 0.605806 0.188831
0.001840 0.618391 0.190646
0.004672 0.618586 0.190710
0.007553 0.615458 0.190302
0.010376 0.615254 0.190306
0.013193 0.615899 0.190428
0.016016 0.613790 0.190160
0.018822 0.612185 0.189961
0.021653 0.614903 0.190373
0.024426 0.611513 0.189918
0.027275 0.613966 0.190291
0.030155 0.616679 0.190699
0.033046 0.618872 0.191032
0.035778 0.615444 0.190567
0.038558 0.614167 0.190406
0.041416 0.614995 0.190543
0.044455 0.619509 0.191202
0.047358 0.620485 0.191357
0.050109 0.618539 0.191097
0.052847 0.616646 0.190843
0.055602 0.615230 0.190656
0.058629 0.617871 0.191044
0.061571 0.619004 0.191218
0.064799 0.623581 0.191880
0.067893 0.626010 0.192236
0.069718 0.613809 0.190511
0.072396 0.611950 0.190256
0.075253 0.612066 0.190281
0.078008 0.611136 0.190156
0.080874 0.611292 0.190185
0.083546 0.609673 0.189961
0.085977 0.606090 0.189457
0.088689 0.605067 0.189316
0.092033 0.609079 0.189891
0.096556 0.621758 0.191699
0.099406 0.621215 0.191625
0.102705 0.623869 0.192005
0.104130 0.613441 0.190523
0.106610 0.610661 0.190128
0.109388 0.609947 0.190028
0.112168 0.609259 0.189930
0.114266 0.604441 0.189244
0.116977 0.603485 0.189107
0.121390 0.612314 0.190362
0.124592 0.613882 0.190583
0.127567 0.614105 0.190613
0.130282 0.612916 0.190441
0.133119 0.612388 0.190362
0.135755 0.610849 0.190139
0.138490 0.609846 0.189992
0.141916 0.612173 0.190318
0.145600 0.615578 0.190797
0.148838 0.616766 0.190960
0.152211 0.618475 0.191197
0.155179 0.618311 0.191167
0.158053 0.617730 0.191076
0.161384 0.619062 0.191258
0.163748 0.616336 0.190861
0.166040 0.613406 0.190436
0.169328 0.614505 0.190582
0.171769 0.612252 0.190251
0.174494 0.611141 0.190083
0.177943 0.612750 0.190300
0.181787 0.615724 0.190710
0.186366 0.621209 0.191477
0.188948 0.619419 0.191209
0.190051 0.612536 0.190217
0.191906 0.608429 0.189619
0.194937 0.608381 0.189596
0.197895 0.608071 0.189536
0.200797 0.607567 0.189447
0.203597 0.606729 0.189311
0.205957 0.604515 0.188978
0.208426 0.602683 0.188699
0.214523 0.611914 0.189987
0.218412 0.614225 0.190293
0.222462 0.616919 0.190652
0.226885 0.620586 0.191148
0.225508 0.607538 0.189275
0.228353 0.606742 0.189137
0.230997 0.605384 0.188918
0.233772 0.604400 0.188752
0.236574 0.603493 0.188595
0.242441 0.610737 0.189589
0.246259 0.612379 0.189790
0.249025 0.611229 0.189595
0.252414 0.611675 0.189623
0.255944 0.612434 0.189695
0.256979 0.606952 0.188884
0.259738 0.605809 0.188685
0.263929 0.608136 0.188973
0.265248 0.603516 0.188281
0.267766 0.601811 0.187998
0.271362 0.602630 0.188070
0.275346 0.604291 0.188257
0.281674 0.611198 0.189181
0.285742 0.612840 0.189361
0.289259 0.613194 0.189359
0.290319 0.608136 0.188594
0.292512 0.605615 0.188185
0.297622 0.609345 0.188650
0.301811 0.611015 0.188824
0.305924 0.612452 0.188963
0.313066 0.620057 0.189962
0.310803 0.608317 0.188253
0.312699 0.605177 0.187746
0.316533 0.605927 0.187779
0.320195 0.606284 0.187755
0.323338 0.605590 0.187583
0.326142 0.604224 0.187314
0.329191 0.603316 0.187107
0.331865 0.601688 0.186797
0.336737 0.604137 0.187051
0.348915 0.619911 0.189147
0.344682 0.605493 0.187057
0.346620 0.602437 0.186539
0.349900 0.601788 0.186352
0.352958 0.600722 0.186104
0.356633 0.600712 0.185999
0.362414 0.604280 0.186383
0.368404 0.608085 0.186796
0.372094 0.607895 0.186655
0.374801 0.606028 0.186282
0.381106 0.610083 0.186716
0.383440 0.607535 0.186244
0.386076 0.605482 0.185837
0.389667 0.604952 0.185635
0.395932 0.608610 0.186000
0.403497 0.614178 0.186618
0.404470 0.609391 0.185828
0.400093 0.596468 0.183938
0.408456 0.603063 0.184685
0.406858 0.594548 0.183391
0.413355 0.598174 0.183730
0.424822 0.608979 0.185029
0.430379 0.610933 0.185135
0.429188 0.603096 0.183928
0.432519 0.601818 0.183599
0.437427 0.602751 0.183563
0.441742 0.602800 0.183408
0.445491 0.602031 0.183144
0.448244 0.599881 0.182697
0.452022 0.599133 0.182436
0.458303 0.601729 0.182617
0.460906 0.599366 0.182145
0.467978 0.602904 0.182451
0.471807 0.602134 0.182192
0.475677 0.601419 0.181944
0.481561 0.603281 0.182036
0.489597 0.607826 0.182481
0.494967 0.608945 0.182484
0.495364 0.603872 0.181688
0.500978 0.605321 0.181745
0.503306 0.602753 0.181290
0.507352 0.602326 0.181120
0.511493 0.602046 0.180978
0.516186 0.602455 0.180934
0.518514 0.600108 0.180545
0.513269 0.589001 0.179042
0.497893 0.566395 0.176075
-0.185331 0.603412 0.180554
-0.183230 0.605089 0.180780
-0.180651 0.605483 0.180851
-0.177500 0.604247 0.180723
-0.175229 0.605830 0.180964
-0.172382 0.605748 0.181002
-0.169584 0.605922 0.181080
-0.167045 0.607042 0.181288
-0.164467 0.608157 0.181503
-0.161605 0.608433 0.181617
-0.158372 0.607520 0.181585
-0.155612 0.608294 0.181775
-0.152616 0.608312 0.181874
-0.149536 0.608081 0.181945
-0.146879 0.609439 0.182226
-0.143980 0.609978 0.182404
-0.140905 0.609887 0.182504
-0.137774 0.609596 0.182580
-0.134843 0.610097 0.182762
-0.131678 0.609679 0.182825
-0.128654 0.609823 0.182963
-0.125825 0.610791 0.183208
-0.122472 0.609523 0.183162
-0.119672 0.610623 0.183426
-0.116740 0.611157 0.183615
-0.113804 0.611664 0.183800
-0.110477 0.610309 0.183740
-0.107504 0.610572 0.183890
-0.104499 0.610654 0.184016
-0.101423 0.610328 0.184086
-0.098395 0.610199 0.184180
-0.095390 0.610133 0.184281
-0.092429 0.610255 0.184405
-0.089481 0.610411 0.184531
-0.086560 0.610683 0.184671
-0.083761 0.611651 0.184901
-0.080854 0.611948 0.185039
-0.077754 0.610966 0.185004
-0.074913 0.611586 0.185181
-0.071918 0.611129 0.185212
-0.068887 0.610328 0.185194
-0.066033 0.610703 0.185331
-0.063257 0.611644 0.185541
-0.060419 0.612107 0.185686
-0.057418 0.611208 0.185644
-0.054571 0.611485 0.185759
-0.051590 0.610546 0.185707
-0.048788 0.611113 0.185856
-0.045940 0.611237 0.185942
-0.043114 0.611527 0.186049
-0.040241 0.611287 0.186082
-0.037359 0.610864 0.186088
-0.033870 0.603124 0.185100
-0.030968 0.601794 0.184977
-0.028908 0.611509 0.186353
-0.026438 0.616616 0.187102
-0.023848 0.620544 0.187690
-0.021698 0.632294 0.189340
-0.017827 0.615226 0.187067
-0.014913 0.613611 0.186894
-0.012005 0.611756 0.186686
-0.009122 0.610055 0.186497
-0.006287 0.609134 0.186413
-0.003254 0.601849 0.185458
-0.000708 0.609449 0.186534
0.001905 0.617163 0.187625
0.004703 0.618780 0.187881
0.007562 0.617085 0.187683
0.010395 0.616375 0.187618
0.013219 0.616319 0.187641
0.016042 0.615366 0.187539
0.018856 0.614306 0.187422
0.021686 0.616119 0.187696
0.024523 0.617116 0.187858
0.027291 0.613816 0.187429
