ply
format ascii 1.0
comment ---
element vertex 1771
property float x
property float y
property float z
element face 0
property list uchar uint vertex_indices
end_header
0.259489 0.591643 0.123933
0.263907 0.591483 0.123494
0.268567 0.590752 0.122969
0.272491 0.591715 0.122686
0.277270 0.590654 0.122110
0.280106 0.594224 0.122197
0.284383 0.594342 0.121788
0.287896 0.596326 0.121645
0.292378 0.595894 0.121159
0.297258 0.594396 0.120526
0.301364 0.594817 0.120166
0.305084 0.596214 0.119946
0.307199 0.601877 0.120322
0.311295 0.602308 0.119969
0.317399 0.597199 0.118855
0.322316 0.595182 0.118177
0.326991 0.593735 0.117583
0.330688 0.594992 0.117366
0.334613 0.595572 0.117060
0.338484 0.596270 0.116775
0.343017 0.594946 0.116221
0.346323 0.597269 0.116165
0.350893 0.595686 0.115588
0.354129 0.598203 0.115566
0.357781 0.599414 0.115373
0.360920 0.602281 0.115405
0.365888 0.599121 0.114642
0.370640 0.596524 0.113961
0.373422 0.600542 0.114158
0.377573 0.599867 0.113742
0.381678 0.599274 0.113342
0.386455 0.596170 0.112620
0.390845 0.594326 0.112070
0.395073 0.592968 0.111590
0.398440 0.594804 0.111527
0.402623 0.593475 0.111061
0.407168 0.590599 0.110402
0.410831 0.591143 0.110187
0.414257 0.592641 0.110099
0.416907 0.597442 0.110434
0.420727 0.597336 0.110147
0.425275 0.593966 0.109451
0.428723 0.595369 0.109365
0.431939 0.597858 0.109418
0.435619 0.598226 0.109207
0.440038 0.594994 0.108549
0.444138 0.593141 0.108070
0.447570 0.594551 0.108001
0.451290 0.594483 0.107752
0.455668 0.590874 0.107067
0.458726 0.594251 0.107252
0.462438 0.594094 0.107002
0.465944 0.595085 0.106896
0.469092 0.598216 0.107056
0.472537 0.599679 0.107013
0.476464 0.598161 0.106608
0.480782 0.593980 0.105881
0.484542 0.593228 0.105577
0.488125 0.593622 0.105415
0.491518 0.595357 0.105418
0.494225 0.602262 0.106048
0.498723 0.595908 0.105077
0.503007 0.590755 0.104256
0.506237 0.593859 0.104433
0.509246 0.599087 0.104864
0.512931 0.598682 0.104621
0.516265 0.601485 0.104764
0.519948 0.601106 0.104528
0.523435 0.602674 0.104526
0.527592 0.597163 0.103685
0.531133 0.598014 0.103603
0.534442 0.601711 0.103857
0.538099 0.601402 0.103640
0.542022 0.597459 0.102997
0.545683 0.596729 0.102734
0.549223 0.597713 0.102675
0.552862 0.597197 0.102441
0.556425 0.597946 0.102357
0.559772 0.603014 0.102778
0.563786 0.594709 0.101642
0.567381 0.594563 0.101458
0.570929 0.595658 0.101420
0.574528 0.595437 0.101230
0.578156 0.594056 0.100909
0.581710 0.595358 0.100898
0.585226 0.599288 0.101190
0.588726 0.607087 0.101927
0.592375 0.606419 0.101691
0.596061 0.596096 0.100351
0.599653 0.592521 0.099788
0.603227 0.592379 0.099619
0.606827 0.594980 0.099763
0.610410 0.594674 0.099577
0.614127 0.601639 0.100218
0.617715 0.600284 0.099915
0.621186 0.595208 0.099193
0.624722 0.593540 0.098858
0.628386 0.595692 0.098956
0.631965 0.595320 0.098770
0.635494 0.593954 0.098474
0.639139 0.595043 0.098455
0.642609 0.592818 0.098066
0.646349 0.595367 0.098213
0.650197 0.599164 0.098499
0.653615 0.596310 0.098044
0.657076 0.594361 0.097692
0.660243 0.588920 0.096954
0.664003 0.591119 0.097066
0.667905 0.594663 0.097328
0.672403 0.604202 0.098254
0.675919 0.602810 0.097970
0.678895 0.596261 0.097120
0.682339 0.594617 0.096813
0.685646 0.591861 0.096386
0.689389 0.593040 0.096394
0.693137 0.594136 0.096393
0.696785 0.594344 0.096297
0.700351 0.593881 0.096129
0.704149 0.595137 0.096150
0.708457 0.599912 0.096556
0.712246 0.600776 0.096536
0.715350 0.596987 0.096013
0.718405 0.593086 0.095480
0.721868 0.591951 0.095250
0.725633 0.592691 0.095225
0.729798 0.595738 0.095452
0.733413 0.595411 0.095315
0.738350 0.602493 0.095980
0.741840 0.601267 0.095750
0.743888 0.592402 0.094700
0.747048 0.589718 0.094319
0.751696 0.594663 0.094761
0.755951 0.597406 0.094967
0.758002 0.589341 0.094017
0.761644 0.589114 0.093910
0.765382 0.589310 0.093851
0.770127 0.594004 0.094275
0.775417 0.600873 0.094933
0.777874 0.595165 0.094251
0.781340 0.593928 0.094050
0.786058 0.597898 0.094406
0.790731 0.601488 0.094724
0.794680 0.602011 0.094718
0.798541 0.602134 0.094672
0.802073 0.600943 0.094491
0.803892 0.593310 0.093629
0.807458 0.592370 0.093481
0.811427 0.592881 0.093490
0.814942 0.591716 0.093325
0.818597 0.591036 0.093215
0.822445 0.590994 0.093176
0.828444 0.598186 0.093906
0.832181 0.597571 0.093814
0.836193 0.597823 0.093817
0.839033 0.594253 0.093419
0.840800 0.587351 0.092673
0.845364 0.589332 0.092871
0.850678 0.593494 0.093302
0.855463 0.595881 0.093550
0.859608 0.596245 0.093588
0.863238 0.595040 0.093464
0.866615 0.593086 0.093265
0.870620 0.592923 0.093260
0.873659 0.590012 0.092968
0.875930 0.585018 0.092459
0.875328 0.572323 0.091139
0.883025 0.582128 0.092204
0.887953 0.584306 0.092465
0.892387 0.585085 0.092582
0.897500 0.587528 0.092880
0.903098 0.591076 0.093298
0.909092 0.595464 0.093809
0.911108 0.589900 0.093268
0.915634 0.590523 0.093386
0.921225 0.593629 0.093771
0.925166 0.592708 0.093731
0.928568 0.590509 0.093557
0.932215 0.588887 0.093446
0.936426 0.588545 0.093473
0.940202 0.587198 0.093394
0.951360 0.602174 0.095057
0.955525 0.601468 0.095048
0.957222 0.595426 0.094468
0.957372 0.586215 0.093547
0.961801 0.586207 0.093608
0.966480 0.586702 0.093720
0.972061 0.589024 0.094026
0.975766 0.587479 0.093912
0.981518 0.590073 0.094239
0.984439 0.587001 0.093951
0.988170 0.585595 0.093835
0.988981 0.578583 0.093109
0.993337 0.578541 0.093123
0.999611 0.582164 0.093522
1.004687 0.583502 0.093666
1.011697 0.588440 0.094185
1.021722 0.598857 0.095281
1.028742 0.603661 0.095760
1.029042 0.596347 0.094923
1.027935 0.586746 0.093826
1.030676 0.584187 0.093472
1.037308 0.588552 0.093844
1.046432 0.597228 0.094660
1.045327 0.588302 0.093578
1.048253 0.586473 0.093238
0.186202 0.580608 0.124221
0.188017 0.584209 0.124606
0.192265 0.583443 0.124322
0.196098 0.583542 0.124145
0.199594 0.584380 0.124058
0.201834 0.587740 0.124321
0.204890 0.589675 0.124354
0.210045 0.587616 0.123782
0.214023 0.587927 0.123541
0.218057 0.588203 0.123277
0.220493 0.591786 0.123479
0.225221 0.590815 0.123003
0.229577 0.590644 0.122630
0.235006 0.588263 0.121927
0.238384 0.590218 0.121837
0.242223 0.591256 0.121604
0.246638 0.591095 0.121191
0.250475 0.592217 0.120953
0.255087 0.591648 0.120468
0.257417 0.596219 0.120702
0.260103 0.600092 0.120830
0.264008 0.601233 0.120569
0.271308 0.594421 0.119197
0.275811 0.594058 0.118726
0.280829 0.592418 0.118078
0.283127 0.597353 0.118337
0.287959 0.596112 0.117746
0.291498 0.598049 0.117591
0.296030 0.597470 0.117094
0.300337 0.597411 0.116672
0.303697 0.599788 0.116581
0.306924 0.602540 0.116542
0.311739 0.601035 0.115934
0.316872 0.598560 0.115203
0.321124 0.598410 0.114788
0.326982 0.593666 0.113770
0.331301 0.593130 0.113316
0.335590 0.592612 0.112870
0.339956 0.591792 0.112391
0.342133 0.597466 0.112763
0.345750 0.598870 0.112581
0.350594 0.596457 0.111910
0.354795 0.595932 0.111489
0.355486 0.606588 0.112511
0.361670 0.599636 0.111274
0.366103 0.598194 0.110752
0.370678 0.596170 0.110163
0.374607 0.596233 0.109845
0.377062 0.601398 0.110176
0.382331 0.596681 0.109265
0.386845 0.594471 0.108677
0.391888 0.590177 0.107834
0.395311 0.591753 0.107733
0.399017 0.592259 0.107501
0.402126 0.595065 0.107559
0.406241 0.593921 0.107132
0.410617 0.591623 0.106568
0.414142 0.592709 0.106425
0.417728 0.593536 0.106255
0.420543 0.597686 0.106494
0.424454 0.597123 0.106160
0.428055 0.597891 0.105992
0.431537 0.599201 0.105894
0.435329 0.599058 0.105623
0.439797 0.595604 0.104956
0.443546 0.595495 0.104698
0.447244 0.595600 0.104469
0.451047 0.595120 0.104174
0.454728 0.595230 0.103952
0.458582 0.594355 0.103617
0.462498 0.593054 0.103234
0.465410 0.597425 0.103527
0.468231 0.602550 0.103910
0.472304 0.600300 0.103424
0.476625 0.596313 0.102738
0.480413 0.595506 0.102429
0.484414 0.593183 0.101947
0.487999 0.593547 0.101782
0.491613 0.593701 0.101595
0.494157 0.601727 0.102324
0.498340 0.597766 0.101663
0.502685 0.592200 0.100820
0.505966 0.594929 0.100940
0.509012 0.599868 0.101315
0.512250 0.603473 0.101536
0.516184 0.600879 0.101047
0.520081 0.598383 0.100572
0.524416 0.591148 0.099560
0.528503 0.585814 0.098770
0.531137 0.596299 0.099782
0.534349 0.601040 0.100139
0.538114 0.599328 0.099766
0.541875 0.597433 0.099374
0.545568 0.596226 0.099062
0.548928 0.599944 0.099307
0.552528 0.600239 0.099167
0.556161 0.599966 0.098965
0.559274 0.609765 0.099891
0.563342 0.601007 0.098743
0.567243 0.594245 0.097822
0.570806 0.594867 0.097726
0.574445 0.593298 0.097389
0.577984 0.594778 0.097391
0.581567 0.594934 0.097248
0.585088 0.598481 0.097480
0.588550 0.608547 0.098430
0.592208 0.607638 0.098171
0.595882 0.601498 0.097338
0.599499 0.591007 0.096033
0.603081 0.593955 0.096203
0.606662 0.593799 0.096034
0.610255 0.594638 0.095974
0.613870 0.596171 0.095991
0.617552 0.599990 0.096257
0.621093 0.597432 0.095831
0.624575 0.593802 0.095291
0.628141 0.593298 0.095092
0.631894 0.597359 0.095386
0.635624 0.600073 0.095535
0.639128 0.597883 0.095157
0.642451 0.592767 0.094467
0.645985 0.591930 0.094238
0.649881 0.596737 0.094614
0.653778 0.600896 0.094921
0.656860 0.593572 0.094003
0.660962 0.599985 0.094551
0.664051 0.593562 0.093734
0.668021 0.597763 0.094048
0.671948 0.601054 0.094265
0.675587 0.601058 0.094135
0.678985 0.598700 0.093757
0.682022 0.593148 0.093045
0.685498 0.591969 0.092796
0.689249 0.593217 0.092803
0.693033 0.594615 0.092828
0.696656 0.594612 0.092707
0.700242 0.594296 0.092554
0.703745 0.593366 0.092340
0.708590 0.602044 0.093129
0.712366 0.602756 0.093087
0.715333 0.597990 0.092478
0.718197 0.592822 0.091830
0.721624 0.591475 0.091581
0.725449 0.592608 0.091592
0.729150 0.592910 0.091518
0.732548 0.591423 0.091261
0.737518 0.598806 0.091921
0.740884 0.597012 0.091637
0.743740 0.592552 0.091080
0.747373 0.592328 0.090962
0.751752 0.595861 0.091232
0.754914 0.593172 0.090865
0.758816 0.594153 0.090878
0.761932 0.591345 0.090504
0.766046 0.593235 0.090614
0.770928 0.598477 0.091069
0.774583 0.598036 0.090945
0.778282 0.597769 0.090842
0.781390 0.594968 0.090483
0.785393 0.595961 0.090514
0.789579 0.597622 0.090615
0.793897 0.599702 0.090761
0.798150 0.601412 0.090873
0.801632 0.600055 0.090676
0.805075 0.598559 0.090468
0.805997 0.587749 0.089321
0.811568 0.594174 0.089922
0.815209 0.593443 0.089802
0.818335 0.590888 0.089502
0.822210 0.590955 0.089469
0.828771 0.600068 0.090354
0.832601 0.599738 0.090288
0.836135 0.598402 0.090125
0.839583 0.596784 0.089937
0.841002 0.588745 0.089104
0.844740 0.588142 0.089026
0.848542 0.587702 0.088968
0.854947 0.595084 0.089703
0.858918 0.594953 0.089683
0.862383 0.593293 0.089514
0.864520 0.587803 0.088962
0.868811 0.588542 0.089042
0.872723 0.588143 0.089012
0.878942 0.594061 0.089622
0.882072 0.591367 0.089367
0.883328 0.583681 0.088613
0.887860 0.584801 0.088751
0.892639 0.586479 0.088949
0.897896 0.589284 0.089264
0.902475 0.590243 0.089397
0.907091 0.591214 0.089534
0.909892 0.587643 0.089216
0.912551 0.583773 0.088870
0.919232 0.589587 0.089506
0.924775 0.592510 0.089854
0.928522 0.591120 0.089766
0.932258 0.589697 0.089677
0.936175 0.588678 0.089631
0.939949 0.587325 0.089552
0.950506 0.600980 0.090999
0.954422 0.599745 0.090934
0.956066 0.593603 0.090369
0.958086 0.588385 0.089896
0.961905 0.587061 0.089818
0.966052 0.586433 0.089808
0.971361 0.588191 0.090040
0.979120 0.594876 0.090771
0.982334 0.592278 0.090550
0.984166 0.587003 0.090050
0.988259 0.586291 0.090009
0.996607 0.593857 0.090809
0.998899 0.589670 0.090398
1.006234 0.595163 0.090970
1.011181 0.596093 0.091064
1.017044 0.598744 0.091323
1.023385 0.602268 0.091660
1.028000 0.602638 0.091662
1.025383 0.590054 0.090325
1.027245 0.585766 0.089823
1.028106 0.579869 0.089144
1.036141 0.586694 0.089749
1.041624 0.589055 0.089882
1.046229 0.589956 0.089849
1.049338 0.588390 0.089550
0.179621 0.592083 0.122093
0.187497 0.584633 0.120868
0.192122 0.583204 0.120486
0.197239 0.580920 0.119963
0.198157 0.586665 0.120565
0.199188 0.592402 0.121143
0.205409 0.588280 0.120301
0.209708 0.587919 0.119977
0.213983 0.587676 0.119652
0.216833 0.590351 0.119722
0.223013 0.586405 0.118846
0.225917 0.589137 0.118893
0.230478 0.588549 0.118463
0.233228 0.591785 0.118552
0.238458 0.589875 0.117916
0.244453 0.586304 0.117044
0.247988 0.588011 0.116892
0.250543 0.591933 0.117034
0.254880 0.591988 0.116640
0.257701 0.595470 0.116706
0.260935 0.598090 0.116649
0.265626 0.597394 0.116139
0.271308 0.594338 0.115312
0.276098 0.593298 0.114757
0.279305 0.596021 0.114703
0.283947 0.595279 0.114188
0.287947 0.596073 0.113878
0.292139 0.596367 0.113503
0.296736 0.595596 0.112991
0.299764 0.598815 0.113003
0.304316 0.598085 0.112502
0.309131 0.596583 0.111906
0.313641 0.595810 0.111409
0.316864 0.598488 0.111360
0.321825 0.596357 0.110699
0.326828 0.593987 0.110014
0.330959 0.593992 0.109637
0.335408 0.593010 0.109141
0.339148 0.594040 0.108904
0.341798 0.598321 0.109079
0.345073 0.600772 0.109027
0.350274 0.597273 0.108237
0.355227 0.594380 0.107530
0.360050 0.591752 0.106865
0.364484 0.590247 0.106345
0.368645 0.589537 0.105929
0.373335 0.586966 0.105292
0.374378 0.596763 0.106169
0.377970 0.597952 0.105998
0.381956 0.597727 0.105659
0.387316 0.592462 0.104717
0.391374 0.591754 0.104333
0.395148 0.592034 0.104072
0.398338 0.594509 0.104078
0.401499 0.597140 0.104106
0.405275 0.597382 0.103852
0.408922 0.598104 0.103659
0.413410 0.595319 0.103057
0.417802 0.592782 0.102489
0.421277 0.594051 0.102374
0.424776 0.595218 0.102251
0.428253 0.596494 0.102143
0.431530 0.598706 0.102147
0.434767 0.601159 0.102182
0.438500 0.601295 0.101950
0.443151 0.596857 0.101194
0.447085 0.595785 0.100832
0.450891 0.595291 0.100540
0.454725 0.594579 0.100227
0.458558 0.593795 0.099909
0.461986 0.595201 0.099844
0.463982 0.604898 0.100724
0.467288 0.607351 0.100779
0.471081 0.606937 0.100513
0.476168 0.598339 0.099326
0.480404 0.594684 0.098702
0.484145 0.594070 0.098425
0.487896 0.593308 0.098134
0.491411 0.594149 0.098025
0.493645 0.604460 0.098974
0.497391 0.603928 0.098713
0.501838 0.597783 0.097833
0.506030 0.593223 0.097133
0.508945 0.599203 0.097602
0.512533 0.599645 0.097459
0.516044 0.600823 0.097399
0.520267 0.595139 0.096588
0.524368 0.590143 0.095857
0.528540 0.583847 0.094988
0.531078 0.595290 0.096057
0.534597 0.596306 0.095989
0.538042 0.598342 0.096032
0.541833 0.595974 0.095599
0.545463 0.595573 0.095381
0.549184 0.593711 0.095008
0.552764 0.593834 0.094850
0.555602 0.607209 0.096118
0.559539 0.601607 0.095346
0.563482 0.594722 0.094441
0.567183 0.592055 0.093991
0.570597 0.596365 0.094287
0.574281 0.593668 0.093837
0.577839 0.594507 0.093764
0.581376 0.596513 0.093817
0.584953 0.597465 0.093758
0.588455 0.604246 0.094315
0.592065 0.606222 0.094364
0.595748 0.597229 0.093261
0.599346 0.593806 0.092747
0.602924 0.593221 0.092532
0.606511 0.594171 0.092480
0.610090 0.593833 0.092293
0.613698 0.595232 0.092289
0.617461 0.602792 0.092926
0.621060 0.601857 0.092680
0.624507 0.596473 0.091974
0.628161 0.597997 0.091986
0.631716 0.596818 0.091719
0.635348 0.597483 0.091643
0.639068 0.599760 0.091734
0.642383 0.594345 0.091037
0.645722 0.590148 0.090467
0.649351 0.590985 0.090414
0.653029 0.592410 0.090422
0.657089 0.598758 0.090933
0.660338 0.594073 0.090320
0.664025 0.595133 0.090294
0.667740 0.596364 0.090285
0.671525 0.598208 0.090340
0.674613 0.592720 0.089654
0.678338 0.593930 0.089647
0.682060 0.594989 0.089626
0.685224 0.590939 0.089092
0.689240 0.594508 0.089326
0.692876 0.594648 0.089216
0.696509 0.594724 0.089101
0.700057 0.594119 0.088920
0.703579 0.593338 0.088723
0.708872 0.605243 0.089791
0.712267 0.603223 0.089472
0.715337 0.599132 0.088950
0.718562 0.596266 0.088552
0.721495 0.591711 0.087990
0.725043 0.591148 0.087825
0.728612 0.590718 0.087676
0.733015 0.595097 0.088002
0.737803 0.601379 0.088517
0.740551 0.596135 0.087899
0.743337 0.591334 0.087327
0.747031 0.591459 0.087242
0.750830 0.592081 0.087208
0.755169 0.595321 0.087432
0.759114 0.596469 0.087453
0.763010 0.597298 0.087445
0.766508 0.596221 0.087253
0.770203 0.596042 0.087151
0.773741 0.595146 0.086982
0.777695 0.596051 0.086991
0.781593 0.596643 0.086972
0.785044 0.595317 0.086769
0.788058 0.592224 0.086399
0.792583 0.595249 0.086623
0.796737 0.596667 0.086695
0.801584 0.600654 0.087017
0.802958 0.591351 0.086059
0.806897 0.591847 0.086051
0.811407 0.594358 0.086240
0.815155 0.594014 0.086156
0.818296 0.591506 0.085868
0.821915 0.590692 0.085746
0.829119 0.602007 0.086794
0.833299 0.602820 0.086835
0.837118 0.602374 0.086758
0.839422 0.597016 0.086214
0.841037 0.589597 0.085475
0.844557 0.588309 0.085329
0.848549 0.588460 0.085325
0.853330 0.590942 0.085547
0.859781 0.598262 0.086238
0.861188 0.590532 0.085489
0.867730 0.597796 0.086181
0.869319 0.590717 0.085502
0.873503 0.591059 0.085539
0.878107 0.592497 0.085684
0.882632 0.593622 0.085803
0.885627 0.590562 0.085525
0.891340 0.594716 0.085942
0.895964 0.595860 0.086074
0.900061 0.595567 0.086072
0.903243 0.592912 0.085847
0.906100 0.589464 0.085548
0.908171 0.584124 0.085071
0.912708 0.584864 0.085181
0.918631 0.588859 0.085607
0.924356 0.592230 0.085976
0.928369 0.591467 0.085949
0.932857 0.591775 0.086028
0.936169 0.589353 0.085845
0.939461 0.586910 0.085661
0.948242 0.596649 0.086656
0.952824 0.596922 0.086736
0.955576 0.593201 0.086430
0.957630 0.588055 0.085985
0.961696 0.587247 0.085958
0.966872 0.588751 0.086154
0.971483 0.589039 0.086230
0.978533 0.594267 0.086781
0.981823 0.591817 0.086584
0.984146 0.587504 0.086200
0.990049 0.590319 0.086503
0.995834 0.592858 0.086773
1.002788 0.597600 0.087250
1.007772 0.598526 0.087347
1.012913 0.599762 0.087465
1.018476 0.601794 0.087650
1.020006 0.596424 0.087104
1.023890 0.595497 0.086979
1.024018 0.587890 0.086191
1.024136 0.580484 0.085411
1.026095 0.576541 0.084955
1.029924 0.576020 0.084816
1.038321 0.583493 0.085436
1.046720 0.590917 0.086033
1.048932 0.587783 0.085595
0.193313 0.566497 0.114717
0.189746 0.579957 0.116417
0.204713 0.559259 0.113380
0.205275 0.565345 0.114021
0.204288 0.574584 0.115073
0.201832 0.586918 0.116525
0.206092 0.586576 0.116219
0.209366 0.588237 0.116169
0.212299 0.590684 0.116208
0.216698 0.590320 0.115848
0.221812 0.588564 0.115287
0.227640 0.585360 0.114519
0.232247 0.584659 0.114077
0.235466 0.586889 0.114018
0.239395 0.587700 0.113757
0.244179 0.586724 0.113249
0.246794 0.590452 0.113358
0.249530 0.594022 0.113435
0.254690 0.592285 0.112807
0.262568 0.584371 0.111369
0.263571 0.591958 0.111955
0.268303 0.591097 0.111434
0.273493 0.589118 0.110769
0.275712 0.594128 0.111005
0.278967 0.596748 0.110929
0.283412 0.596501 0.110485
0.290435 0.589824 0.109227
0.293846 0.591993 0.109097
0.297405 0.593807 0.108923
0.299871 0.598450 0.109104
0.305816 0.594057 0.108155
0.309624 0.595171 0.107900
0.314164 0.594291 0.107401
0.316744 0.598702 0.107560
0.321988 0.595783 0.106818
0.327530 0.591877 0.105963
0.331257 0.592998 0.105730
0.335338 0.593067 0.105372
0.339077 0.594093 0.105136
0.343368 0.593435 0.104701
0.346039 0.597641 0.104855
0.350757 0.595580 0.104262
0.355582 0.593057 0.103620
0.359991 0.591725 0.103127
0.364183 0.590998 0.102712
0.368335 0.590322 0.102309
0.371587 0.592603 0.102259
0.376361 0.589684 0.101603
0.379670 0.591724 0.101533
0.382567 0.595248 0.101639
0.387042 0.593138 0.101094
0.391013 0.592750 0.100754
0.393777 0.596833 0.100934
0.397351 0.597919 0.100772
0.401473 0.596854 0.100367
0.404210 0.601214 0.100586
0.408586 0.599044 0.100064
0.412066 0.600446 0.099953
0.416962 0.595873 0.099170
0.422047 0.590244 0.098275
0.425299 0.592414 0.098263
0.428300 0.595762 0.098386
0.431778 0.597019 0.098277
0.434618 0.601294 0.098506
0.438302 0.601657 0.098302
0.442671 0.598615 0.097725
0.446871 0.596237 0.097226
0.450843 0.594881 0.096845
0.454646 0.594316 0.096554
0.458272 0.594649 0.096365
0.461537 0.596980 0.096397
0.464746 0.599731 0.096476
0.468128 0.601571 0.096458
0.470927 0.607034 0.096834
0.475591 0.601095 0.095977
0.480110 0.595688 0.095184
0.483962 0.594360 0.094834
0.487845 0.592698 0.094452
0.491280 0.594077 0.094399
0.493456 0.604791 0.095344
0.497047 0.605447 0.095214
0.501367 0.600365 0.094477
0.505852 0.593498 0.093555
0.509453 0.593604 0.093376
0.512482 0.598784 0.093734
0.516389 0.596240 0.093279
0.520281 0.593574 0.092814
0.523611 0.596346 0.092921
0.527111 0.597545 0.092865
0.530683 0.598050 0.092738
0.534039 0.601142 0.092881
0.538076 0.596018 0.092171
0.541696 0.595788 0.091972
0.545429 0.593900 0.091603
0.549264 0.590175 0.091047
0.552683 0.592677 0.091136
0.555943 0.598393 0.091555
0.559338 0.602509 0.091808
0.563142 0.598726 0.091253
0.567031 0.592058 0.090407
0.570570 0.593001 0.090340
0.574104 0.594371 0.090317
0.577692 0.594254 0.090144
0.581241 0.595753 0.090136
0.584791 0.597832 0.090187
0.588319 0.602837 0.090533
0.591932 0.603873 0.090479
0.595585 0.598913 0.089823
0.599192 0.593180 0.089093
0.602773 0.593884 0.089011
0.606355 0.593892 0.088859
0.609942 0.594281 0.088747
0.613707 0.604225 0.089586
0.617351 0.604810 0.089493
0.620937 0.603039 0.089168
0.624517 0.601582 0.088875
0.628068 0.599701 0.088542
0.631458 0.594320 0.087866
0.635133 0.596191 0.087906
0.638901 0.599534 0.088091
0.642414 0.597697 0.087768
0.645641 0.591358 0.087007
0.649125 0.589881 0.086724
0.653154 0.596438 0.087225
0.656675 0.595293 0.086975
0.660139 0.593526 0.086667
0.663697 0.593075 0.086489
0.667432 0.594652 0.086507
0.670965 0.593872 0.086299
0.674396 0.592102 0.085997
0.677979 0.591966 0.085854
0.682172 0.597514 0.086258
0.685136 0.591569 0.085560
0.689065 0.594372 0.085702
0.692786 0.595218 0.085658
0.696334 0.594600 0.085475
0.699899 0.594134 0.085308
0.703566 0.594438 0.085216
0.708657 0.604877 0.086087
0.711892 0.601761 0.085672
0.714953 0.597657 0.085167
0.718397 0.596269 0.084920
0.721633 0.593621 0.084557
0.725139 0.592754 0.084365
0.728797 0.592810 0.084260
0.732621 0.593795 0.084245
0.738047 0.603713 0.085069
0.740465 0.596605 0.084298
0.742629 0.588465 0.083435
0.746595 0.590088 0.083487
0.751478 0.596261 0.083965
0.755760 0.599129 0.084136
0.759043 0.596986 0.083842
0.764173 0.603658 0.084370
0.767853 0.603285 0.084245
0.769676 0.594485 0.083342
0.773544 0.595090 0.083313
0.778094 0.598587 0.083554
0.781811 0.598371 0.083454
0.785144 0.596527 0.083206
0.788857 0.596267 0.083107
0.791782 0.592827 0.082719
0.794617 0.589129 0.082310
0.799851 0.594759 0.082761
0.803179 0.592946 0.082532
0.806499 0.591128 0.082305
0.810869 0.593152 0.082433
0.814167 0.591230 0.082202
0.818636 0.593443 0.082354
0.821850 0.591206 0.082101
0.826535 0.593990 0.082311
0.833054 0.602746 0.083069
0.836556 0.601274 0.082896
0.839532 0.598104 0.082572
0.840963 0.590090 0.081810
0.844877 0.590032 0.081777
0.848889 0.590226 0.081770
0.852833 0.590160 0.081744
0.859272 0.597476 0.082393
0.862623 0.595458 0.082196
0.864527 0.589275 0.081623
0.872574 0.600695 0.082657
0.874242 0.593847 0.082031
0.879091 0.595930 0.082222
0.881468 0.591173 0.081795
0.885656 0.591354 0.081820
0.891244 0.595178 0.082180
0.898416 0.602968 0.082906
0.901968 0.601183 0.082763
0.903371 0.593946 0.082127
0.905897 0.589663 0.081763
0.908600 0.585879 0.081447
0.913287 0.586969 0.081579
0.919217 0.590961 0.081978
0.924221 0.592605 0.082167
0.926927 0.588789 0.081858
0.931994 0.590469 0.082054
0.936657 0.591142 0.082160
0.939162 0.586907 0.081819
0.945575 0.591404 0.082277
0.950230 0.591903 0.082371
0.956472 0.595784 0.082774
0.957926 0.589316 0.082228
0.961726 0.587928 0.082147
0.967563 0.590795 0.082455
0.972257 0.591222 0.082537
0.979589 0.596994 0.083108
0.982802 0.594341 0.082900
0.985053 0.589838 0.082517
0.988473 0.587740 0.082350
0.994446 0.590656 0.082639
0.999645 0.592041 0.082779
1.007147 0.597788 0.083314
1.010692 0.596012 0.083147
1.013751 0.593411 0.082894
1.015686 0.588845 0.082449
1.019189 0.587277 0.082269
1.022506 0.585462 0.082055
1.026567 0.585077 0.081960
1.023531 0.572243 0.080708
1.029184 0.574918 0.080868
1.038098 0.583267 0.081533
1.043604 0.585700 0.081640
1.049466 0.588784 0.081790
0.167554 0.613013 0.117209
0.192303 0.574730 0.111936
0.199586 0.568330 0.110898
0.202111 0.578291 0.111790
0.204813 0.580798 0.111877
0.205394 0.587552 0.112505
0.208147 0.590274 0.112582
0.212004 0.590945 0.112373
0.216636 0.590147 0.111957
0.220586 0.590771 0.111713
0.225687 0.589107 0.111159
0.234174 0.580441 0.109690
0.238160 0.581037 0.109411
0.239426 0.587445 0.109868
0.241877 0.591489 0.110008
0.245454 0.593206 0.109842
0.249309 0.594362 0.109597
0.255666 0.589977 0.108646
0.260947 0.587904 0.107987
0.266311 0.585580 0.107296
0.269093 0.589158 0.107341
0.273227 0.589637 0.106996
0.277908 0.588805 0.106489
0.278935 0.596726 0.107061
0.284799 0.593015 0.106199
0.290135 0.590471 0.105486
0.294589 0.590029 0.105034
0.297033 0.594652 0.105196
0.303838 0.588091 0.104011
0.306129 0.593126 0.104226
0.312484 0.587449 0.103161
0.314328 0.593726 0.103527
0.317722 0.595894 0.103405
0.321484 0.597045 0.103165
0.327095 0.592960 0.102314
0.332025 0.590643 0.101679
0.335648 0.592001 0.101478
0.339478 0.592731 0.101209
0.343092 0.594078 0.101015
0.347950 0.591613 0.100387
0.351753 0.592283 0.100125
0.355225 0.593961 0.099983
0.358981 0.594724 0.099740
0.364046 0.591195 0.099015
0.368068 0.590945 0.098668
0.371953 0.591093 0.098372
0.376532 0.588808 0.097807
0.379862 0.590751 0.097722
0.382730 0.594349 0.097824
0.384866 0.600672 0.098231
0.388300 0.602397 0.098129
0.392346 0.601835 0.097778
0.396737 0.599878 0.097278
0.401177 0.597605 0.096750
0.406053 0.593459 0.096023
0.408424 0.599261 0.096386
0.412011 0.600216 0.096223
0.415886 0.599945 0.095931
0.420660 0.595740 0.095219
0.425007 0.593186 0.094691
0.427813 0.597418 0.094896
0.431492 0.597778 0.094688
0.436062 0.593914 0.094033
0.438200 0.601547 0.094605
0.442367 0.599487 0.094149
0.446848 0.595703 0.093516
0.450739 0.594746 0.093186
0.454547 0.594147 0.092897
0.458004 0.595388 0.092804
0.461393 0.597036 0.092756
0.464683 0.599306 0.092775
0.468390 0.599204 0.092549
0.471681 0.601594 0.092584
0.476614 0.593809 0.091568
0.480312 0.593478 0.091327
0.483937 0.593585 0.091134
0.487753 0.592350 0.090806
0.491316 0.592804 0.090654
0.493829 0.600972 0.091290
0.497430 0.601409 0.091138
0.501691 0.596642 0.090459
0.505571 0.594604 0.090061
0.509374 0.593027 0.089713
0.512771 0.594898 0.089715
0.516203 0.596578 0.089699
0.519843 0.596368 0.089494
0.522984 0.601188 0.089794
0.526589 0.601501 0.089644
0.530270 0.600985 0.089412
0.533998 0.599821 0.089118
0.537768 0.597976 0.088759
0.541593 0.595143 0.088304
0.545333 0.593109 0.087930
0.548906 0.593312 0.087780
0.552521 0.592832 0.087563
0.555879 0.596815 0.087786
0.559297 0.600314 0.087961
0.563005 0.598345 0.087602
0.566843 0.592868 0.086903
0.570382 0.593940 0.086845
0.573929 0.595030 0.086788
0.577511 0.595224 0.086646
0.581130 0.593936 0.086362
0.584677 0.595735 0.086377
0.588146 0.604009 0.087015
0.591802 0.601308 0.086597
0.595443 0.596500 0.085980
0.599038 0.593502 0.085538
0.602614 0.592549 0.085294
0.606200 0.593837 0.085265
0.609796 0.594904 0.085215
0.613416 0.596708 0.085236
0.617203 0.605160 0.085885
0.620781 0.603035 0.085534
0.624336 0.600797 0.085174
0.627759 0.595489 0.084528
0.631329 0.594932 0.084330
0.635052 0.597812 0.084455
0.638805 0.600707 0.084582
0.642327 0.598922 0.084271
0.645814 0.596811 0.083933
0.649705 0.601246 0.084204
0.653398 0.602208 0.084153
0.656846 0.599704 0.083781
0.660210 0.596406 0.083338
0.663766 0.595764 0.083143
0.667322 0.595177 0.082953
0.671032 0.596284 0.082921
0.674560 0.595394 0.082706
0.678270 0.596347 0.082662
0.681672 0.594309 0.082345
0.685095 0.592607 0.082061
0.688865 0.594010 0.082061
0.692475 0.593953 0.081929
0.696128 0.594225 0.081829
0.699852 0.595000 0.081775
0.703447 0.594738 0.081629
0.709451 0.611727 0.083040
0.711220 0.598233 0.081703
0.714438 0.595295 0.081320
0.717724 0.592947 0.080993
0.721066 0.591071 0.080710
0.725115 0.593607 0.080824
0.728802 0.593822 0.080732
0.732542 0.594300 0.080664
0.738055 0.604714 0.081483
0.738935 0.589131 0.079990
0.742228 0.587220 0.079717
0.746542 0.590697 0.079924
0.751813 0.598844 0.080544
0.755455 0.598478 0.080413
0.759378 0.599467 0.080403
0.762621 0.597148 0.080104
0.767047 0.600385 0.080296
0.769697 0.595398 0.079767
0.773800 0.597031 0.079823
0.777771 0.597987 0.079821
0.780944 0.595476 0.079518
0.784801 0.595879 0.079472
0.789398 0.599247 0.079689
0.793374 0.599962 0.079675
0.796430 0.596998 0.079344
0.799878 0.595616 0.079153
0.803110 0.593431 0.078896
0.805865 0.589512 0.078491
0.809623 0.589349 0.078416
0.814391 0.592763 0.078654
0.818141 0.592434 0.078570
0.821930 0.592206 0.078498
0.826790 0.595580 0.078741
0.831025 0.596704 0.078792
0.836740 0.602605 0.079258
0.839760 0.599563 0.078956
0.840502 0.589337 0.078037
0.845385 0.592328 0.078262
0.849289 0.592165 0.078219
0.853477 0.592818 0.078249
0.859035 0.597482 0.078629
0.862272 0.595137 0.078408
0.864927 0.591134 0.078048
0.867430 0.586761 0.077660
0.874117 0.594203 0.078292
0.878240 0.594285 0.078295
0.880475 0.589170 0.077854
0.884306 0.588431 0.077793
0.888883 0.589635 0.077903
0.893172 0.589996 0.077943
0.897606 0.590668 0.078014
0.901977 0.591108 0.078069
0.906186 0.591076 0.078086
0.909983 0.589975 0.078014
0.914221 0.589926 0.078035
0.919464 0.592236 0.078263
0.923897 0.592519 0.078319
0.927013 0.589664 0.078107
0.931021 0.588894 0.078076
0.935632 0.589471 0.078164
0.939651 0.588659 0.078133
0.943335 0.587083 0.078037
0.950232 0.592549 0.078551
0.955209 0.593689 0.078692
0.957661 0.589371 0.078359
0.961652 0.588380 0.078314
0.965854 0.587829 0.078305
0.971477 0.590199 0.078549
0.983478 0.605479 0.079912
0.983649 0.596598 0.079171
0.983768 0.587814 0.078435
0.987652 0.586637 0.078355
0.991383 0.585196 0.078246
0.999057 0.591377 0.078794
1.004931 0.594025 0.079027
1.007536 0.590503 0.078715
1.010837 0.588386 0.078516
1.014343 0.586733 0.078347
1.018986 0.587234 0.078355
1.023142 0.586905 0.078280
1.026811 0.585777 0.078123
1.028496 0.581236 0.077657
1.032019 0.580072 0.077472
1.039142 0.585243 0.077821
1.045951 0.589861 0.078106
1.046503 0.583850 0.077459
0.175738 0.597520 0.111272
0.197555 0.578956 0.108309
0.203947 0.574387 0.107497
0.200518 0.588633 0.109061
0.204431 0.589045 0.108846
0.207826 0.590555 0.108753
0.212886 0.588878 0.108243
0.216411 0.590300 0.108108
0.220172 0.591335 0.107912
0.224666 0.590946 0.107524
0.233054 0.582530 0.106130
0.238649 0.579803 0.105437
0.236920 0.592561 0.106646
0.241965 0.591120 0.106092
0.247676 0.588213 0.105355
0.251705 0.588937 0.105057
0.256134 0.588791 0.104648
0.262292 0.584739 0.103765
0.266253 0.585586 0.103472
0.269614 0.587830 0.103344
0.273279 0.589400 0.103133
0.277307 0.590121 0.102819
0.286577 0.578199 0.101013
0.283742 0.595486 0.102654
0.288778 0.593719 0.102049
0.290896 0.599192 0.102291
0.298877 0.589837 0.100811
0.303537 0.588750 0.100299
0.309420 0.584376 0.099413
0.312548 0.587149 0.099354
0.317903 0.583942 0.098614
0.319979 0.589566 0.098884
0.322130 0.595095 0.099143
0.326602 0.594190 0.098677
0.331532 0.591884 0.098059
0.335663 0.591774 0.097694
0.339595 0.592193 0.097393
0.343496 0.592660 0.097101
0.344019 0.603390 0.097946
0.351151 0.593923 0.096568
0.354355 0.596461 0.096517
0.359388 0.593170 0.095833
0.363747 0.591906 0.095377
0.367929 0.591128 0.094979
0.371713 0.591609 0.094723
0.373543 0.598750 0.095186
0.380150 0.589424 0.093887
0.381188 0.599487 0.094667
0.383720 0.604464 0.094903
0.387719 0.604164 0.094581
0.392884 0.599428 0.093796
0.396673 0.599720 0.093548
0.401438 0.596168 0.092901
0.405249 0.596222 0.092637
0.410136 0.591864 0.091918
0.412291 0.598581 0.092355
0.415281 0.602006 0.092451
0.418791 0.603286 0.092327
0.423111 0.601007 0.091840
0.427255 0.599377 0.091425
0.431333 0.597937 0.091034
0.434711 0.599681 0.090972
0.438615 0.598925 0.090658
0.442586 0.597768 0.090307
0.446996 0.594295 0.089726
0.450777 0.593866 0.089457
0.454368 0.594387 0.089286
0.458171 0.593741 0.089001
0.461547 0.595411 0.088951
0.463275 0.606597 0.089849
0.467956 0.600944 0.089073
0.472163 0.597805 0.088551
0.475744 0.598368 0.088399
0.480582 0.590826 0.087451
0.483987 0.592302 0.087394
0.487455 0.593410 0.087304
0.491111 0.593230 0.087089
0.494073 0.598099 0.087368
0.497970 0.596183 0.086987
0.501475 0.597182 0.086892
0.504959 0.598396 0.086819
0.508720 0.597328 0.086528
0.512396 0.596892 0.086300
0.515538 0.601343 0.086542
0.519024 0.602838 0.086501
0.522655 0.602978 0.086332
0.526081 0.605281 0.086371
0.529806 0.604468 0.086113
0.533440 0.604605 0.085948
0.537419 0.600425 0.085377
0.541354 0.596281 0.084812
0.544585 0.601534 0.085134
0.548414 0.598444 0.084672
0.552134 0.596649 0.084334
0.555689 0.597443 0.084241
0.559228 0.598670 0.084188
0.562872 0.597894 0.083950
0.566656 0.593654 0.083392
0.570215 0.594277 0.083287
0.573760 0.595456 0.083234
0.577347 0.595565 0.083083
0.580940 0.595405 0.082909
0.584451 0.599423 0.083119
0.588008 0.602772 0.083267
0.591637 0.602179 0.083055
0.595282 0.597539 0.082475
0.598884 0.593533 0.081956
0.602462 0.593237 0.081776
0.606042 0.593402 0.081638
0.609639 0.594693 0.081604
0.613305 0.599196 0.081859
0.617012 0.603596 0.082104
0.620641 0.603638 0.081957
0.624092 0.598005 0.081303
0.627586 0.594976 0.080885
0.631171 0.594835 0.080727
0.634906 0.597999 0.080863
0.638560 0.598923 0.080801
0.642014 0.596059 0.080403
0.645940 0.601518 0.080743
0.649758 0.604494 0.080864
0.653385 0.604277 0.080703
0.656728 0.600206 0.080204
0.660259 0.599008 0.079960
0.664027 0.600771 0.079976
0.667878 0.603273 0.080058
0.671616 0.604282 0.080009
0.674881 0.600291 0.079527
0.678285 0.598027 0.079196
0.681646 0.595525 0.078847
0.684461 0.588305 0.078092
0.688325 0.590693 0.078170
0.692207 0.593036 0.078245
0.695797 0.592840 0.078102
0.699624 0.594456 0.078115
0.703491 0.596239 0.078144
0.707784 0.600933 0.078422
0.710959 0.597538 0.078010
0.713926 0.592930 0.077497
0.717608 0.593240 0.077406
0.720950 0.591355 0.077129
0.724829 0.592847 0.077141
0.728873 0.595214 0.077228
0.732796 0.596721 0.077243
0.738029 0.605512 0.077873
0.738683 0.588657 0.076345
0.741643 0.584977 0.075929
0.746213 0.589855 0.076235
0.750074 0.590858 0.076217
0.754635 0.595260 0.076484
0.757858 0.592927 0.076190
0.761620 0.593226 0.076118
0.765550 0.594258 0.076109
0.769138 0.593663 0.075967
0.772750 0.593164 0.075835
0.776587 0.593628 0.075785
0.780173 0.592970 0.075645
0.783649 0.591844 0.075468
0.787173 0.590919 0.075311
0.794106 0.603654 0.076283
0.798048 0.604104 0.076243
0.800426 0.598473 0.075705
0.803622 0.596100 0.075439
0.805639 0.589399 0.074820
0.809696 0.590335 0.074832
0.814120 0.592510 0.074948
0.817959 0.592507 0.074888
0.821779 0.592396 0.074823
0.826776 0.596242 0.075083
0.831267 0.598223 0.075194
0.835990 0.600851 0.075361
0.839506 0.599447 0.075202
0.840101 0.588758 0.074290
0.844182 0.589263 0.074293
0.848931 0.591757 0.074462
0.854447 0.596450 0.074813
0.858802 0.597482 0.074869
0.863063 0.598155 0.074899
0.865460 0.593365 0.074489
0.868281 0.589872 0.074188
0.873574 0.593367 0.074458
0.876962 0.591438 0.074291
0.879812 0.588047 0.074009
0.884173 0.588756 0.074063
0.888379 0.588980 0.074081
0.892789 0.589678 0.074141
0.897421 0.590872 0.074245
0.901631 0.590908 0.074258
0.905742 0.590640 0.074250
0.910136 0.591027 0.074297
0.915200 0.592980 0.074476
0.920375 0.595096 0.074670
0.923656 0.592613 0.074493
0.926603 0.589364 0.074256
0.930365 0.588033 0.074177
0.935283 0.589324 0.074313
0.939386 0.588706 0.074295
0.944001 0.589196 0.074369
0.952231 0.597563 0.075087
0.954784 0.593390 0.074782
0.958131 0.590984 0.074621
0.961260 0.588150 0.074425
0.965456 0.587584 0.074412
0.969885 0.587490 0.074436
0.981431 0.601878 0.075643
0.984733 0.599324 0.075461
0.987041 0.594847 0.075118
0.986397 0.584671 0.074302
0.990795 0.584535 0.074304
0.995628 0.585250 0.074370
1.000022 0.585136 0.074360
1.006422 0.588821 0.074654
1.009176 0.585684 0.074381
1.015081 0.588449 0.074581
1.019463 0.588432 0.074544
1.022786 0.586564 0.074344
1.024953 0.582732 0.073972
1.032786 0.589049 0.074417
1.034927 0.585362 0.074032
1.038820 0.584859 0.073894
1.044665 0.587797 0.074022
1.047992 0.586490 0.073790
0.169831 0.607757 0.108660
0.198206 0.562867 0.102946
0.204423 0.558406 0.102204
0.201523 0.571065 0.103545
0.192742 0.595217 0.106267
0.196860 0.595245 0.106014
0.204030 0.589451 0.105038
0.208241 0.589399 0.104746
0.211393 0.591512 0.104701
0.215549 0.591727 0.104412
0.220296 0.590810 0.103975
0.225200 0.589599 0.103491
0.232716 0.582997 0.102357
0.237098 0.582837 0.101984
0.231368 0.604124 0.104136
0.242251 0.590321 0.102132
0.245632 0.592479 0.102006
0.251413 0.589419 0.101264
0.255585 0.589864 0.100928
0.264765 0.579018 0.099283
0.267592 0.582391 0.099285
0.271488 0.583362 0.099006
0.274302 0.586872 0.099015
0.276170 0.592700 0.099285
0.279176 0.595910 0.099253
0.287112 0.587129 0.097870
0.285395 0.601972 0.099145
0.289379 0.602871 0.098852
0.297273 0.593793 0.097453
0.303783 0.587979 0.096428
0.306648 0.591500 0.096439
0.311769 0.589073 0.095799
0.317528 0.584802 0.094964
0.320901 0.586881 0.094827
0.322378 0.594235 0.095264
0.326343 0.594741 0.094960
0.330724 0.594011 0.094529
0.334714 0.594338 0.094216
0.339491 0.592291 0.093655
0.343559 0.592253 0.093313
0.346037 0.597001 0.093481
0.350372 0.596091 0.093056
0.354352 0.596212 0.092744
0.359982 0.590999 0.091881
0.363389 0.592790 0.091755
0.367353 0.592742 0.091441
0.371343 0.592546 0.091118
0.372826 0.600882 0.091674
0.377687 0.597679 0.091049
0.379911 0.603667 0.091367
0.382724 0.607688 0.091485
0.389894 0.595767 0.089994
0.393632 0.596217 0.089761
0.395222 0.604846 0.090354
0.398883 0.605687 0.090165
0.405006 0.596735 0.089004
0.409274 0.594887 0.088559
0.413019 0.595081 0.088321
0.414802 0.603515 0.088900
0.418278 0.604965 0.088790
0.422513 0.603090 0.088356
0.428057 0.595203 0.087340
0.431880 0.594836 0.087065
0.434456 0.600269 0.087357
0.438046 0.601034 0.087197
0.442635 0.596874 0.086564
0.446812 0.594549 0.086113
0.450578 0.594199 0.085856
0.454353 0.593740 0.085592
0.457826 0.594869 0.085482
0.462052 0.591811 0.084976
0.465433 0.593398 0.084915
0.468711 0.595650 0.084918
0.472056 0.597588 0.084893
0.475887 0.596574 0.084592
0.480464 0.590659 0.083835
0.483547 0.594262 0.083972
0.487094 0.594884 0.083832
0.490785 0.594497 0.083600
0.494384 0.594730 0.083428
0.497625 0.597671 0.083508
0.500307 0.605195 0.084011
0.504406 0.601685 0.083498
0.508313 0.599501 0.083110
0.511568 0.602883 0.083234
0.515222 0.602845 0.083046
0.519147 0.600163 0.082619
0.522559 0.602384 0.082639
0.526013 0.604360 0.082639
0.529482 0.606346 0.082639
0.532970 0.608304 0.082638
0.537508 0.597382 0.081480
0.540595 0.604289 0.081927
0.544050 0.606891 0.081986
0.548089 0.601014 0.081290
0.551756 0.600269 0.081054
0.555303 0.601508 0.080996
0.558860 0.602745 0.080938
0.562647 0.599356 0.080472
0.566499 0.593706 0.079810
0.570060 0.594263 0.079697
0.573614 0.595186 0.079616
0.577218 0.594644 0.079408
0.580787 0.595318 0.079308
0.584327 0.597774 0.079363
0.587861 0.602157 0.079586
0.591479 0.602389 0.079448
0.595114 0.599871 0.079074
0.598729 0.594086 0.078419
0.602311 0.593931 0.078252
0.605892 0.593860 0.078094
0.609479 0.594210 0.077972
0.613109 0.596833 0.078046
0.616852 0.603406 0.078456
0.620492 0.603879 0.078345
0.623965 0.598892 0.077772
0.627426 0.594811 0.077278
0.630962 0.593490 0.077020
0.634461 0.591609 0.076716
0.638023 0.591319 0.076548
0.641629 0.591851 0.076450
0.645218 0.591986 0.076319
0.648805 0.592066 0.076184
0.652425 0.592582 0.076087
0.655992 0.592301 0.075924
0.659693 0.593744 0.075905
0.663153 0.592097 0.075631
0.666745 0.592110 0.075496
0.671542 0.605173 0.076438
0.674892 0.602017 0.076041
0.678141 0.598131 0.075587
0.681323 0.593940 0.075110
0.684772 0.592486 0.074860
0.688437 0.592999 0.074772
0.692020 0.592770 0.074624
0.695693 0.593251 0.074535
0.699364 0.593665 0.074442
0.703072 0.594292 0.074368
0.707622 0.600908 0.074778
0.710344 0.594363 0.074126
0.714113 0.595256 0.074077
0.717590 0.594156 0.073868
0.720703 0.590800 0.073481
0.724836 0.593877 0.073610
0.728364 0.593143 0.073436
0.731853 0.592193 0.073247
0.737294 0.602296 0.073939
0.739528 0.594200 0.073184
0.742186 0.588760 0.072643
0.745909 0.589130 0.072566
0.750042 0.591543 0.072652
0.753811 0.591998 0.072585
0.757676 0.592866 0.072552
0.761468 0.593315 0.072488
0.764891 0.592002 0.072287
0.768642 0.592198 0.072207
0.772476 0.592726 0.072155
0.776323 0.593247 0.072105
0.780008 0.593028 0.071999
0.783544 0.592157 0.071844
0.787259 0.592014 0.071749
0.793921 0.603659 0.072572
0.798865 0.608059 0.072833
0.801130 0.601919 0.072279
0.803806 0.597521 0.071863
0.805535 0.589723 0.071188
0.809819 0.591492 0.071256
0.813646 0.591516 0.071191
0.817318 0.590952 0.071084
0.821319 0.591501 0.071066
0.827047 0.597862 0.071497
0.832112 0.601745 0.071740
0.835875 0.601170 0.071644
0.836929 0.591807 0.070876
0.839760 0.588353 0.070566
0.844526 0.591018 0.070727
0.848801 0.592036 0.070766
0.853003 0.592753 0.070785
0.860650 0.603682 0.071587
0.863930 0.601386 0.071382
0.867571 0.600152 0.071261
0.867806 0.589187 0.070401
0.871718 0.588824 0.070354
0.876094 0.589706 0.070405
0.879947 0.589080 0.070344
0.883994 0.588940 0.070324
0.887958 0.588529 0.070287
0.892500 0.589587 0.070365
0.896716 0.589718 0.070375
0.901102 0.590226 0.070418
0.905507 0.590711 0.070462
0.909742 0.590710 0.070471
0.916657 0.597190 0.070979
0.921864 0.599332 0.071158
0.926153 0.599188 0.071165
0.926172 0.588999 0.070408
0.929935 0.587679 0.070330
0.934812 0.588885 0.070446
0.939845 0.590368 0.070586
0.943981 0.589774 0.070568
0.951927 0.597517 0.071189
0.956093 0.596838 0.071167
0.959753 0.595055 0.071060
0.961073 0.588339 0.070574
0.964386 0.585922 0.070416
0.969516 0.587290 0.070548
0.979667 0.598840 0.071459
0.985819 0.602050 0.071727
0.987340 0.595962 0.071278
0.987322 0.586986 0.070602
0.990863 0.585141 0.070469
0.994889 0.584284 0.070407
0.999686 0.584929 0.070453
1.002575 0.581998 0.070217
1.010693 0.588889 0.070728
1.014936 0.588541 0.070673
1.019179 0.588245 0.070613
1.022327 0.586038 0.070396
1.024085 0.581454 0.069986
1.032685 0.589113 0.070502
1.035519 0.586607 0.070228
1.037738 0.583163 0.069869
1.045798 0.589890 0.070273
1.045834 0.582936 0.069621
0.167045 0.612300 0.105267
0.193589 0.570885 0.100183
0.199711 0.566708 0.099491
0.198751 0.575833 0.100346
0.195687 0.589215 0.101679
0.197192 0.594215 0.102007
0.202614 0.591823 0.101454
0.207660 0.590193 0.100976
0.211249 0.591476 0.100823
0.215353 0.591821 0.100548
0.220626 0.589865 0.099996
0.224399 0.590979 0.099786
0.232548 0.583109 0.098541
0.236358 0.584166 0.098308
0.235620 0.594908 0.099162
0.242639 0.589296 0.098157
0.246141 0.591191 0.097995
0.250839 0.590511 0.097538
0.254921 0.591181 0.097228
0.263213 0.582367 0.095866
0.270226 0.576229 0.094806
0.273002 0.579715 0.094806
0.276412 0.581786 0.094648
0.276804 0.591054 0.095270
0.280194 0.593319 0.095126
0.285989 0.589735 0.094353
0.287334 0.597028 0.094751
0.288453 0.605051 0.095221
0.295317 0.598626 0.094154
0.301841 0.592843 0.093164
0.306409 0.591969 0.092700
0.310357 0.592665 0.092404
0.314578 0.592589 0.092032
0.320387 0.588110 0.091208
0.322299 0.594268 0.091490
0.325971 0.595592 0.091274
0.330348 0.594883 0.090854
0.334456 0.594871 0.090510
0.338196 0.595891 0.090276
0.343332 0.592697 0.089620
0.346504 0.595326 0.089557
0.349551 0.598373 0.089539
0.355949 0.590913 0.088475
0.360044 0.590517 0.088124
0.363157 0.593246 0.088087
0.366661 0.594720 0.087928
0.370957 0.593520 0.087511
0.372332 0.602230 0.088068
0.375727 0.604154 0.087962
0.379529 0.604648 0.087721
0.383100 0.605941 0.087561
0.388683 0.599823 0.086690
0.390016 0.609357 0.087330
0.393067 0.612641 0.087370
0.397921 0.608978 0.086750
0.402664 0.605565 0.086160
0.407567 0.601316 0.085497
0.411007 0.602892 0.085390
0.415532 0.599913 0.084858
0.417403 0.608189 0.085385
0.423220 0.599419 0.084319
0.428478 0.592731 0.083457
0.431639 0.595340 0.083463
0.434007 0.601755 0.083823
0.437579 0.602632 0.083672
0.441961 0.599524 0.083157
0.446481 0.595532 0.082567
0.450282 0.595015 0.082299
0.453913 0.595335 0.082110
0.457677 0.594914 0.081856
0.461602 0.593537 0.081519
0.465129 0.594324 0.081380
0.468677 0.595001 0.081234
0.472378 0.594759 0.081007
0.475617 0.597346 0.081035
0.480130 0.591868 0.080346
0.483418 0.594140 0.080350
0.487056 0.594131 0.080153
0.490633 0.594519 0.079993
0.493726 0.598456 0.080147
0.497266 0.599244 0.080025
0.500546 0.602116 0.080087
0.504367 0.600756 0.079780
0.508145 0.599633 0.079496
0.511795 0.599522 0.079302
0.515723 0.596808 0.078884
0.519484 0.595425 0.078584
0.523197 0.594384 0.078316
0.526824 0.594117 0.078117
0.530413 0.594228 0.077951
0.534007 0.594269 0.077780
0.537533 0.595131 0.077681
0.541208 0.594122 0.077424
0.544980 0.591582 0.077039
0.548540 0.591874 0.076895
0.551482 0.602182 0.077597
0.554842 0.606827 0.077820
0.558467 0.607239 0.077687
0.562575 0.597588 0.076712
0.566353 0.593490 0.076207
0.569897 0.594473 0.076127
0.573477 0.594634 0.075979
0.577087 0.593816 0.075751
0.580675 0.593578 0.075572
0.584214 0.595638 0.075584
0.587700 0.602508 0.075992
0.591358 0.599023 0.075548
0.594983 0.595616 0.075113
0.598573 0.595094 0.074916
0.602158 0.594282 0.074696
0.605741 0.594260 0.074541
0.609336 0.595128 0.074460
0.612965 0.597442 0.074496
0.616641 0.600927 0.074626
0.620236 0.600130 0.074411
0.623750 0.596956 0.074007
0.627219 0.593340 0.073570
0.630785 0.592906 0.073388
0.634340 0.592310 0.073195
0.637893 0.591761 0.073007
0.641520 0.592650 0.072934
0.645139 0.593227 0.072837
0.648753 0.593632 0.072726
0.652359 0.593846 0.072602
0.655954 0.593869 0.072463
0.659517 0.593448 0.072291
0.663202 0.594534 0.072237
0.667004 0.596829 0.072278
0.670860 0.599449 0.072345
0.674486 0.599419 0.072206
0.677845 0.596740 0.071862
0.681111 0.593395 0.071470
0.684440 0.590882 0.071143
0.688231 0.592550 0.071141
0.691948 0.593457 0.071080
0.695619 0.593898 0.070985
0.699090 0.592746 0.070769
0.702698 0.592664 0.070636
0.707571 0.601673 0.071196
0.710591 0.597168 0.070728
0.713819 0.594330 0.070390
0.717504 0.594626 0.070290
0.720593 0.591098 0.069904
0.724734 0.594224 0.070021
0.728094 0.592479 0.069772
0.731567 0.591461 0.069580
0.737188 0.602616 0.070302
0.740806 0.602128 0.070151
0.743286 0.595531 0.069547
0.746310 0.592082 0.069180
0.749667 0.590466 0.068953
0.753582 0.591680 0.068937
0.757568 0.593155 0.068943
0.760700 0.590465 0.068642
0.764820 0.592458 0.068689
0.768381 0.591792 0.068542
0.772248 0.592477 0.068496
0.776117 0.593111 0.068449
0.779801 0.592892 0.068341
0.783472 0.592595 0.068230
0.787153 0.592310 0.068121
0.792997 0.600685 0.068647
0.797109 0.601880 0.068650
0.800653 0.600797 0.068490
0.803658 0.597670 0.068184
0.804755 0.587521 0.067372
0.809718 0.591817 0.067611
0.813345 0.591127 0.067491
0.816781 0.589745 0.067324
0.820722 0.590116 0.067286
0.827493 0.600065 0.067941
0.832298 0.603050 0.068096
0.836712 0.604605 0.068151
0.839965 0.602303 0.067931
0.838358 0.584555 0.066606
0.844225 0.590741 0.067003
0.848726 0.592470 0.067082
0.852626 0.592273 0.067027
0.859652 0.601369 0.067640
0.863252 0.600057 0.067511
0.865801 0.595687 0.067167
0.867427 0.588761 0.066643
0.871866 0.589895 0.066699
0.875820 0.589600 0.066656
0.879423 0.588300 0.066545
0.883351 0.587859 0.066498
0.888155 0.589700 0.066617
0.891799 0.588400 0.066516
0.895960 0.588417 0.066511
0.900417 0.589129 0.066560
0.904766 0.589499 0.066586
0.909155 0.589902 0.066618
0.918434 0.602170 0.067500
0.921946 0.600175 0.067367
0.924705 0.596391 0.067108
0.925713 0.588551 0.066562
0.929460 0.587203 0.066482
0.934808 0.589497 0.066664
0.939663 0.590573 0.066760
0.943310 0.588890 0.066661
0.953255 0.601043 0.067552
0.956887 0.599159 0.067441
0.958656 0.593294 0.067044
0.959204 0.584960 0.066470
0.964196 0.586087 0.066573
0.968362 0.585457 0.066548
0.978954 0.597932 0.067461
0.984224 0.599368 0.067580
0.987008 0.595813 0.067339
0.988044 0.588896 0.066852
0.991379 0.586613 0.066693
0.995093 0.585124 0.066585
0.998788 0.583648 0.066473
1.005307 0.587540 0.066738
1.010715 0.589312 0.066844
1.015323 0.589610 0.066836
1.018878 0.588028 0.066683
1.021475 0.584804 0.066404
1.024931 0.583236 0.066232
1.030376 0.585278 0.066308
1.034058 0.584266 0.066154
1.037831 0.583508 0.066005
1.043617 0.586301 0.066096
1.044615 0.580985 0.065599
0.189372 0.571101 0.096642
