ply
format ascii 1.0
comment ---
element vertex 1771
property float x
property float y
property float z
element face 0
property list uchar uint vertex_indices
end_header
0.544909 0.594893 0.281331
0.558850 0.616228 0.289785
0.554509 0.601490 0.284523
0.557247 0.600668 0.284557
0.560125 0.600101 0.284692
0.563358 0.600185 0.285079
0.566564 0.600188 0.285439
0.567967 0.596856 0.284521
0.570126 0.594941 0.284148
0.575293 0.598427 0.285861
0.580545 0.601956 0.287601
0.584021 0.602263 0.288101
0.595308 0.616062 0.293845
0.588907 0.599224 0.287697
0.591920 0.598673 0.287876
0.594893 0.598036 0.288025
0.595223 0.593000 0.286457
0.597416 0.591093 0.286114
0.600498 0.590635 0.286342
0.605286 0.592892 0.287643
0.624545 0.618029 0.297982
0.618544 0.602940 0.292463
0.619102 0.598322 0.291073
0.621735 0.596955 0.290973
0.626634 0.599027 0.292245
0.630221 0.599045 0.292708
0.633592 0.598703 0.293034
0.637821 0.599595 0.293860
0.640398 0.598021 0.293705
0.642998 0.596475 0.293564
0.646404 0.596072 0.293890
0.648999 0.594491 0.293745
0.651083 0.592188 0.293312
0.653332 0.590121 0.292978
0.656788 0.589709 0.293321
0.667677 0.599346 0.297778
0.675509 0.599378 0.298874
0.678759 0.598452 0.299046
0.682140 0.597671 0.299286
0.684942 0.596114 0.299211
0.685262 0.591377 0.297821
0.688919 0.590907 0.298205
0.697713 0.596823 0.301263
0.705560 0.601404 0.303785
0.709484 0.601039 0.304250
0.711054 0.597777 0.303505
0.712854 0.594811 0.302885
0.715158 0.592455 0.302525
0.718601 0.591442 0.302739
0.722471 0.590899 0.303159
0.726129 0.590077 0.303467
0.738257 0.598899 0.307916
0.741742 0.597727 0.308099
0.746656 0.598132 0.308967
0.751399 0.598295 0.309739
0.755534 0.597744 0.310208
0.758196 0.595560 0.309972
0.758200 0.590518 0.308487
0.765144 0.592928 0.310259
0.769326 0.592340 0.310725
0.771592 0.589726 0.310298
0.781048 0.594563 0.313166
0.795762 0.604658 0.318384
0.791190 0.594973 0.314819
0.796855 0.595727 0.315891
0.802453 0.596376 0.316917
0.804722 0.593715 0.316453
0.807498 0.591582 0.316215
0.811984 0.591129 0.316724
0.833357 0.606837 0.324565
0.827358 0.596294 0.320482
0.830981 0.594984 0.320577
0.833787 0.592941 0.320320
0.824194 0.579504 0.314809
0.822591 0.573623 0.312729
0.824699 0.571223 0.312226
0.824919 0.567188 0.310942
0.826866 0.564782 0.310386
0.823202 0.557488 0.307529
0.829571 0.559127 0.308804
0.833509 0.558659 0.309075
0.835801 0.556814 0.308677
0.836282 0.553487 0.307557
0.873052 0.581012 0.320922
0.182365 0.599557 0.254555
0.183788 0.602562 0.255769
0.185928 0.602303 0.255914
0.188551 0.599764 0.255307
0.189867 0.604109 0.256932
0.192421 0.602254 0.256527
0.194746 0.601755 0.256554
0.196909 0.602323 0.256919
0.199130 0.602779 0.257239
0.201482 0.602669 0.257364
0.203684 0.603640 0.257834
0.205778 0.605513 0.258591
0.208274 0.605095 0.258589
0.210733 0.605059 0.258704
0.213612 0.602316 0.257921
0.215885 0.603800 0.258521
0.218377 0.603922 0.258667
0.220995 0.603234 0.258540
0.223500 0.603503 0.258723
0.225906 0.604702 0.259208
0.228479 0.604682 0.259287
0.231135 0.604009 0.259146
0.233748 0.603750 0.259139
0.236393 0.603220 0.259040
0.238955 0.603539 0.259219
0.241514 0.603965 0.259432
0.243843 0.607109 0.260543
0.246825 0.602745 0.259169
0.249403 0.603031 0.259334
0.251952 0.603767 0.259647
0.254538 0.604051 0.259812
0.257136 0.604172 0.259923
0.259853 0.602220 0.259347
0.262465 0.601834 0.259293
0.264996 0.603041 0.259768
0.267550 0.603924 0.260138
0.270178 0.602962 0.259897
0.272757 0.603144 0.260037
0.275307 0.604293 0.260502
0.277903 0.603733 0.260401
0.280511 0.602015 0.259917
0.283082 0.601550 0.259851
0.285639 0.602039 0.260107
0.288193 0.604219 0.260929
0.290759 0.604162 0.261009
0.293321 0.603978 0.261048
0.295875 0.603600 0.261026
0.298428 0.603506 0.261102
0.300982 0.603586 0.261239
0.303541 0.603935 0.261468
0.306115 0.604723 0.261848
0.308696 0.605521 0.262235
0.311254 0.605637 0.262396
0.313821 0.605969 0.262632
0.316395 0.606386 0.262901
0.318966 0.606683 0.263132
0.321508 0.606493 0.263203
0.324022 0.605909 0.263143
0.326486 0.604712 0.262880
0.328983 0.604097 0.262815
0.331481 0.603575 0.262784
0.334084 0.604313 0.263182
0.336686 0.604967 0.263554
0.339341 0.606087 0.264087
0.341855 0.605695 0.264112
0.344384 0.605462 0.264192
0.346888 0.605013 0.264202
0.349532 0.605791 0.264632
0.352199 0.606688 0.265105
0.354880 0.607598 0.265585
0.357248 0.606029 0.265224
0.359669 0.604938 0.265028
0.362376 0.605938 0.265547
0.365176 0.607493 0.266259
0.368814 0.614498 0.268839
0.370795 0.610359 0.267611
0.373940 0.613715 0.268951
0.376457 0.613044 0.268914
0.378924 0.612089 0.268782
0.381449 0.611502 0.268777
0.384464 0.613635 0.269711
0.386182 0.608622 0.268187
0.390570 0.617889 0.271588
0.393336 0.618342 0.271953
0.395462 0.615547 0.271198
0.398217 0.615927 0.271542
0.400314 0.613135 0.270789
0.403654 0.616216 0.272075
0.406485 0.616818 0.272504
0.408168 0.612280 0.271147
0.409406 0.605983 0.269176
0.412369 0.607247 0.269838
0.415689 0.609910 0.270993
0.418944 0.612168 0.272009
0.421830 0.612843 0.272476
0.422921 0.606460 0.270472
0.426738 0.610723 0.272200
0.430567 0.614831 0.273880
0.435409 0.622479 0.276810
0.434689 0.609763 0.272576
0.436640 0.606936 0.271821
0.438946 0.605422 0.271528
0.441811 0.605839 0.271919
0.444569 0.605857 0.272171
0.447026 0.604857 0.272065
0.449190 0.602913 0.271624
0.449035 0.593638 0.268576
0.452974 0.597446 0.270180
0.456825 0.600829 0.271638
0.461392 0.606242 0.273826
0.464789 0.607974 0.274705
0.466658 0.605146 0.273956
0.469249 0.604463 0.273974
0.472679 0.606156 0.274848
0.476138 0.607849 0.275725
0.478851 0.607414 0.275840
0.481210 0.606003 0.275604
0.483456 0.604308 0.275266
0.484992 0.600767 0.274261
0.486186 0.596413 0.272960
0.489165 0.596722 0.273349
0.494943 0.604047 0.276289
0.498058 0.604527 0.276748
0.499773 0.601535 0.275945
0.501970 0.599764 0.275587
0.505290 0.600690 0.276216
0.509481 0.603614 0.277579
0.513042 0.604973 0.278374
0.516682 0.606448 0.279216
0.518501 0.603743 0.278525
0.521687 0.604131 0.278973
0.525041 0.604850 0.279546
0.529236 0.607353 0.280782
0.530918 0.604372 0.279993
0.531728 0.599593 0.278537
0.536878 0.603983 0.280485
0.538474 0.600896 0.279659
0.541205 0.600171 0.279712
0.544076 0.599718 0.279869
0.548697 0.602735 0.281327
0.554366 0.601522 0.281544
0.556958 0.600429 0.281474
0.560081 0.600340 0.281784
0.563247 0.600305 0.282119
0.566328 0.600085 0.282387
0.569258 0.599561 0.282543
0.570093 0.595222 0.281256
0.577019 0.601870 0.284142
0.580162 0.601634 0.284421
0.585717 0.605601 0.286307
0.595386 0.616578 0.290884
0.588727 0.599290 0.284655
0.591618 0.598543 0.284753
0.595283 0.599076 0.285347
0.595799 0.594343 0.283918
0.598002 0.592449 0.283582
0.603812 0.596413 0.285515
0.610370 0.601462 0.287881
0.621450 0.613549 0.292993
0.620348 0.606205 0.290567
0.618623 0.598011 0.287804
0.621343 0.596792 0.287759
0.625193 0.597282 0.288388
0.628277 0.596571 0.288552
0.631518 0.596073 0.288805
0.637450 0.599516 0.290619
0.640266 0.598303 0.290605
0.643143 0.597165 0.290624
0.647574 0.598232 0.291525
0.650548 0.597176 0.291590
0.650965 0.592521 0.290223
0.653243 0.590502 0.289909
0.657320 0.590950 0.290589
0.666335 0.598052 0.293953
0.671943 0.595176 0.293845
0.676629 0.596195 0.294794
0.681708 0.597663 0.295936
0.684111 0.595604 0.295654
0.685485 0.592227 0.294836
0.689269 0.591920 0.295278
0.697768 0.597477 0.298136
0.704506 0.600694 0.300052
0.710551 0.602951 0.301588
0.709850 0.596921 0.299705
0.712483 0.594974 0.299513
0.714374 0.592135 0.298954
0.719055 0.592595 0.299775
0.726300 0.595990 0.301837
0.737543 0.603890 0.305810
0.733299 0.593873 0.302255
0.740401 0.596855 0.304182
0.743344 0.595072 0.304102
0.753309 0.601070 0.307339
0.756563 0.599532 0.307380
0.760551 0.598780 0.307760
0.763431 0.596806 0.307620
0.767413 0.596004 0.307985
0.770538 0.594275 0.307952
0.771986 0.590789 0.307155
0.780209 0.594350 0.309420
0.793944 0.603460 0.314122
0.793231 0.597694 0.312331
0.797926 0.597449 0.312951
0.801335 0.595903 0.312996
0.804418 0.594044 0.312895
0.804670 0.589438 0.311565
0.811150 0.590929 0.312932
0.824010 0.598495 0.317011
0.825837 0.595440 0.316342
0.829536 0.594199 0.316471
0.831697 0.591550 0.315949
0.830018 0.585408 0.313828
0.826504 0.577708 0.310970
0.827891 0.574603 0.310167
0.818952 0.562287 0.305140
0.812184 0.552139 0.301057
0.827809 0.561975 0.306086
0.823371 0.554093 0.302981
0.828840 0.554980 0.303875
0.835791 0.557163 0.305346
0.837832 0.555147 0.304859
0.775415 0.498520 0.279056
0.182748 0.598164 0.251637
0.183946 0.602294 0.253187
0.186046 0.602282 0.253404
0.188293 0.601713 0.253434
0.190485 0.601596 0.253598
0.192315 0.603598 0.254433
0.195006 0.601190 0.253841
0.196990 0.602804 0.254533
0.199290 0.602871 0.254718
0.201806 0.601858 0.254545
0.203980 0.603029 0.255069
0.206136 0.604557 0.255699
0.208526 0.604842 0.255921
0.210906 0.605366 0.256212
0.213511 0.604541 0.256059
0.216079 0.604062 0.256011
0.218595 0.604066 0.256114
0.221139 0.603981 0.256182
0.223656 0.604208 0.256346
0.226148 0.604765 0.256614
0.228689 0.605044 0.256786
0.231310 0.604718 0.256760
0.233974 0.604028 0.256611
0.236566 0.604031 0.256686
0.239219 0.603468 0.256574
0.241734 0.604371 0.256939
0.244177 0.606237 0.257617
0.246997 0.603748 0.256874
0.249627 0.603408 0.256832
0.252036 0.606100 0.257780
0.254653 0.606075 0.257841
0.257367 0.604437 0.257377
0.259960 0.604622 0.257509
0.262665 0.602617 0.256927
0.265243 0.602837 0.257073
0.267824 0.602981 0.257196
0.270289 0.606200 0.258328
0.272938 0.604548 0.257867
0.275531 0.604264 0.257857
0.278116 0.603995 0.257853
0.280696 0.603704 0.257845
0.283284 0.602163 0.257429
0.285838 0.602895 0.257762
0.288396 0.603234 0.257968
0.290956 0.604224 0.258392
0.293511 0.603727 0.258329
0.296080 0.604880 0.258812
0.298626 0.604341 0.258741
0.301169 0.603960 0.258725
0.303759 0.605530 0.259355
0.306279 0.604542 0.259145
0.308846 0.605117 0.259453
0.311428 0.605947 0.259848
0.314004 0.606500 0.260156
0.316565 0.606700 0.260349
0.319088 0.606213 0.260319
0.321670 0.606769 0.260636
0.324182 0.606207 0.260586
0.326642 0.605005 0.260326
0.329159 0.604694 0.260364
0.331756 0.605395 0.260741
0.334325 0.605695 0.260988
0.336815 0.605079 0.260933
0.339431 0.605835 0.261338
0.342024 0.606275 0.261640
0.344426 0.604853 0.261323
0.347098 0.605984 0.261862
0.349614 0.605649 0.261913
0.352218 0.606060 0.262217
0.354805 0.606275 0.262457
0.357306 0.605801 0.262469
0.359625 0.603996 0.262037
0.362133 0.603642 0.262093
0.364853 0.604746 0.262642
0.367293 0.603896 0.262536
0.370097 0.605418 0.263232
0.372711 0.605634 0.263491
0.374990 0.603791 0.263056
0.377528 0.603547 0.263163
0.380201 0.604066 0.263530
0.382670 0.603396 0.263497
0.385713 0.605830 0.264519
0.388059 0.604451 0.264250
0.390825 0.605271 0.264730
0.393496 0.605545 0.265026
0.396068 0.605295 0.265147
0.398998 0.606730 0.265844
0.402476 0.610614 0.267382
0.406465 0.616610 0.269648
0.408564 0.613932 0.268949
0.409656 0.606985 0.266785
0.413242 0.610881 0.268342
0.416483 0.613149 0.269344
0.419560 0.614634 0.270080
0.421867 0.612964 0.269732
0.424274 0.611723 0.269533
0.426980 0.611645 0.269737
0.430891 0.616055 0.271495
0.435600 0.623205 0.274209
0.434619 0.609542 0.269711
0.436100 0.605071 0.268395
0.438683 0.604561 0.268454
0.441681 0.605460 0.269007
0.444560 0.605900 0.269401
0.446500 0.603205 0.268704
0.449156 0.602894 0.268839
0.449547 0.595363 0.266447
0.454535 0.602432 0.269171
0.458408 0.605811 0.270607
0.461794 0.607578 0.271481
0.464564 0.607430 0.271685
0.466706 0.605422 0.271235
0.469150 0.604318 0.271104
0.472531 0.605884 0.271918
0.475908 0.607362 0.272704
0.478801 0.607438 0.272997
0.481458 0.606843 0.273054
0.483603 0.604874 0.272623
0.486415 0.604689 0.272828
0.489335 0.604764 0.273128
0.491012 0.601633 0.272285
0.494592 0.603359 0.273178
0.498497 0.605821 0.274339
0.500971 0.604679 0.274212
0.503408 0.603454 0.274056
0.506884 0.604711 0.274794
0.509689 0.604329 0.274945
0.512642 0.604274 0.275217
0.516501 0.606272 0.276233
0.519545 0.606345 0.276556
0.520660 0.602087 0.275311
0.525326 0.605732 0.276936
0.529610 0.608427 0.278222
0.529025 0.600574 0.275668
0.531995 0.600426 0.275922
0.534976 0.600277 0.276178
0.537533 0.599229 0.276107
0.539742 0.597467 0.275776
0.544645 0.601155 0.277450
0.550539 0.606704 0.279816
0.554453 0.601999 0.278740
0.556891 0.600612 0.278561
0.559102 0.598798 0.278224
0.562488 0.599203 0.278713
0.566361 0.600473 0.279528
0.567976 0.597543 0.278783
0.568599 0.592847 0.277378
0.575075 0.598731 0.279930
0.582441 0.606030 0.283024
0.587562 0.609199 0.284582
0.595056 0.616380 0.287659
0.587414 0.597407 0.280888
0.590549 0.597105 0.281149
0.593696 0.596795 0.281411
0.595380 0.594033 0.280746
0.598144 0.593069 0.280766
0.607721 0.603160 0.285000
0.609964 0.601219 0.284662
0.616227 0.605673 0.286773
0.619691 0.605597 0.287160
0.618447 0.598162 0.284728
0.621991 0.598221 0.285172
0.624403 0.596517 0.284942
0.628560 0.597443 0.285733
0.632771 0.598394 0.286540
0.636495 0.598568 0.287055
0.640252 0.598750 0.287578
0.643669 0.598398 0.287901
0.647316 0.598344 0.288347
0.649997 0.596883 0.288247
0.652244 0.594805 0.287910
0.653182 0.590912 0.286862
0.657827 0.592149 0.287838
0.664881 0.596593 0.290094
0.674123 0.603851 0.293482
0.672956 0.597054 0.291303
0.677721 0.598173 0.292275
0.681707 0.598209 0.292824
0.684188 0.596256 0.292584
0.687021 0.594746 0.292527
0.688421 0.591409 0.291738
0.691739 0.590496 0.291930
0.702866 0.599246 0.296046
0.713717 0.607437 0.299962
0.709200 0.596727 0.296203
0.710710 0.593440 0.295462
0.713852 0.592117 0.295527
0.718636 0.592710 0.296385
0.733052 0.604498 0.301870
0.742941 0.610768 0.305111
0.736998 0.598737 0.300783
0.740246 0.597317 0.300849
0.744343 0.596832 0.301309
0.748117 0.595952 0.301611
0.753735 0.597073 0.302758
0.757790 0.596426 0.303170
0.762746 0.596719 0.303985
0.766532 0.595717 0.304256
0.770416 0.594798 0.304565
0.772947 0.592442 0.304263
0.777466 0.592157 0.304845
0.791784 0.601902 0.309739
0.795133 0.600276 0.309759
0.797565 0.597729 0.309377
0.801183 0.596388 0.309510
0.803864 0.594124 0.309236
0.802817 0.588239 0.307371
0.805607 0.586167 0.307156
0.819805 0.595066 0.311750
0.825687 0.595886 0.312799
0.829528 0.594766 0.312983
0.832257 0.592630 0.312703
0.834492 0.590079 0.312221
0.829998 0.581420 0.308993
0.825850 0.573242 0.305945
0.819066 0.562852 0.301868
0.818789 0.558466 0.300449
0.825277 0.560161 0.301742
0.831770 0.561859 0.303021
0.827224 0.553957 0.299936
0.842447 0.559440 0.303335
0.858892 0.569668 0.308421
0.182933 0.597740 0.249038
0.184573 0.599754 0.249894
0.186096 0.602626 0.251012
0.188305 0.602312 0.251116
0.190512 0.602185 0.251270
0.192963 0.600943 0.251062
0.194976 0.602223 0.251642
0.197056 0.603383 0.252176
0.199288 0.603915 0.252501
0.201737 0.603372 0.252477
0.204344 0.602017 0.252186
0.206444 0.603920 0.252922
0.208756 0.604734 0.253305
0.211296 0.604243 0.253265
0.213745 0.604488 0.253453
0.216185 0.604959 0.253706
0.218590 0.605840 0.254085
0.221285 0.604702 0.253814
0.223759 0.605331 0.254102
0.226347 0.605176 0.254136
0.228903 0.605360 0.254275
0.231537 0.604947 0.254219
0.234201 0.604272 0.254077
0.236647 0.605738 0.254619
0.239388 0.604344 0.254242
0.241999 0.604250 0.254281
0.244555 0.604802 0.254526
0.247132 0.605176 0.254715
0.249781 0.604670 0.254620
0.252461 0.603643 0.254358
0.255043 0.603907 0.254512
0.257552 0.605392 0.255059
0.260172 0.605119 0.255043
0.262838 0.603837 0.254703
0.265457 0.603242 0.254585
0.268034 0.603436 0.254723
0.270603 0.603811 0.254922
0.273175 0.604107 0.255097
0.275767 0.603581 0.255010
0.278289 0.605899 0.255842
0.280913 0.603253 0.255075
0.283475 0.603429 0.255222
0.286037 0.603084 0.255202
0.288592 0.603557 0.255450
0.291149 0.604143 0.255737
0.293702 0.604021 0.255798
0.296254 0.604130 0.255936
0.298815 0.604857 0.256278
0.301362 0.604745 0.256351
0.303903 0.604551 0.256399
0.306446 0.604539 0.256510
0.309009 0.605126 0.256818
0.311594 0.606144 0.257270
0.314144 0.606229 0.257421
0.316686 0.606171 0.257529
0.319260 0.606699 0.257830
0.321745 0.605718 0.257643
0.324273 0.605541 0.257719
0.326782 0.605108 0.257715
0.329346 0.605461 0.257971
0.331915 0.605830 0.258235
0.334451 0.605762 0.258358
0.336991 0.605741 0.258500
0.339471 0.605089 0.258437
0.341986 0.604835 0.258507
0.344617 0.605682 0.258942
0.347189 0.605907 0.259175
0.349792 0.606355 0.259484
0.352370 0.606554 0.259713
0.354861 0.606021 0.259704
0.357237 0.604626 0.259412
0.359646 0.603554 0.259229
0.362250 0.603928 0.259526
0.364937 0.604821 0.259997
0.367581 0.605342 0.260348
0.370274 0.606130 0.260790
0.372865 0.606203 0.260998
0.375267 0.605105 0.260818
0.377851 0.605112 0.261008
0.380435 0.605099 0.261193
0.383207 0.606096 0.261717
0.385348 0.603613 0.261081
0.387993 0.603880 0.261366
0.390720 0.604526 0.261780
0.393183 0.603798 0.261736
0.395933 0.604475 0.262165
0.398495 0.604198 0.262276
0.401099 0.604105 0.262451
0.403640 0.603699 0.262522
0.406563 0.604978 0.263163
0.409149 0.604713 0.263286
0.411610 0.603902 0.263226
0.414110 0.603262 0.263224
0.416700 0.602985 0.263348
0.419709 0.604359 0.264033
0.422474 0.604699 0.264371
0.425560 0.606223 0.265113
0.428026 0.605340 0.265038
0.433077 0.613960 0.268207
0.433857 0.606831 0.266005
0.436148 0.605286 0.265708
0.438711 0.604713 0.265745
0.441475 0.604821 0.266017
0.443960 0.603961 0.265958
0.446583 0.603560 0.266059
0.449187 0.603081 0.266133
0.450020 0.596962 0.264265
0.455354 0.605097 0.267314
0.459294 0.608649 0.268789
0.461833 0.607817 0.268751
0.464634 0.607767 0.268984
0.467621 0.608237 0.269401
0.470304 0.607788 0.269500
0.473314 0.608253 0.269919
0.476439 0.609001 0.270439
0.479190 0.608669 0.270585
0.481903 0.608217 0.270690
0.484702 0.607984 0.270874
0.487771 0.608438 0.271300
0.491047 0.609392 0.271905
0.492998 0.606902 0.271301
0.494821 0.604134 0.270599
0.498398 0.605776 0.271452
0.501632 0.606507 0.271987
0.506107 0.610191 0.273570
0.508327 0.608372 0.273208
0.510111 0.605546 0.272490
0.512375 0.603885 0.272186
0.516328 0.606110 0.273265
0.519033 0.605430 0.273314
0.521598 0.604426 0.273248
0.524375 0.603889 0.273351
0.527425 0.603932 0.273664
0.531170 0.605440 0.274506
0.532191 0.601107 0.273252
0.534825 0.600230 0.273240
0.536736 0.597854 0.272689
0.539794 0.597851 0.272996
0.545816 0.603807 0.275462
0.553511 0.612927 0.279086
0.560547 0.620502 0.282164
0.555281 0.603915 0.276464
0.556885 0.600907 0.275695
0.559435 0.599742 0.275599
0.562031 0.598662 0.275535
0.565736 0.599637 0.276227
0.568557 0.598938 0.276309
0.568629 0.593233 0.274554
0.574808 0.598592 0.276870
0.582035 0.605660 0.279828
0.588940 0.611976 0.282522
0.591523 0.610617 0.282386
0.587304 0.597581 0.277919
0.591272 0.598700 0.278701
0.593379 0.596637 0.278303
0.595678 0.594904 0.278031
0.595186 0.588594 0.276048
0.602899 0.595721 0.279097
0.611059 0.603381 0.282362
0.619279 0.610940 0.285607
0.618522 0.604176 0.283466
0.619005 0.599451 0.282091
0.620677 0.596621 0.281433
0.625077 0.597975 0.282363
0.626871 0.595333 0.281781
0.632500 0.598435 0.283390
0.635916 0.598166 0.283723
0.638522 0.596680 0.283596
0.644235 0.599684 0.285196
0.646767 0.598032 0.285017
0.649456 0.596596 0.284924
0.651356 0.594044 0.284406
0.651159 0.588591 0.282765
0.656532 0.590865 0.284122
0.664353 0.596382 0.286754
0.676651 0.607778 0.291698
0.673860 0.598782 0.288693
0.678923 0.600291 0.289799
0.681068 0.597913 0.289388
0.684853 0.597660 0.289818
0.685211 0.592978 0.288504
0.688697 0.592311 0.288781
0.692205 0.591640 0.289062
0.700749 0.597192 0.291832
0.706858 0.599593 0.293363
0.708327 0.596251 0.292606
0.711305 0.594746 0.292589
0.713424 0.592201 0.292157
0.719448 0.594271 0.293594
0.726815 0.597825 0.295646
0.735969 0.603330 0.298510
0.737228 0.599627 0.297638
0.740215 0.597911 0.297579
0.743748 0.596796 0.297770
0.747099 0.595456 0.297873
0.754511 0.598568 0.299821
0.758183 0.597497 0.300049
0.761503 0.596024 0.300113
0.765847 0.595631 0.300631
0.769982 0.594985 0.301046
0.773305 0.593460 0.301096
0.780400 0.595844 0.302792
0.790392 0.601123 0.305721
0.794324 0.600099 0.305994
0.797228 0.598029 0.305821
0.801130 0.596968 0.306072
0.802981 0.593876 0.305449
0.804451 0.590449 0.304672
0.807830 0.588921 0.304699
0.820134 0.595982 0.308428
0.825202 0.596015 0.309123
0.830328 0.596097 0.309830
0.835184 0.595924 0.310417
0.838932 0.594731 0.310545
0.827788 0.579913 0.304680
0.826078 0.573944 0.302657
0.828153 0.571505 0.302161
0.829884 0.568819 0.301533
0.829566 0.564388 0.300108
0.830996 0.561593 0.299381
0.837668 0.563436 0.300694
0.850545 0.566728 0.303091
0.855329 0.566984 0.303638
0.183071 0.597563 0.246521
0.184481 0.600752 0.247723
0.186381 0.601815 0.248258
0.188310 0.602964 0.248812
0.190458 0.603216 0.249077
0.192963 0.601761 0.248801
0.195042 0.602758 0.249280
0.197075 0.604244 0.249904
0.199299 0.604898 0.250259
0.201652 0.605002 0.250434
0.204149 0.604408 0.250382
0.206546 0.604571 0.250560
0.209292 0.602658 0.250078
0.211543 0.604068 0.250632
0.213997 0.604318 0.250816
0.216732 0.602723 0.250414
0.219157 0.603417 0.250725
0.221244 0.606849 0.251893
0.224044 0.605012 0.251400
0.226553 0.605513 0.251638
0.229175 0.605169 0.251607
0.231775 0.605058 0.251647
0.234469 0.604117 0.251422
0.237006 0.604686 0.251672
0.239520 0.605585 0.252024
0.242223 0.604544 0.251763
0.244811 0.604730 0.251889
0.247422 0.604665 0.251936
0.250089 0.603862 0.251749
0.252580 0.605391 0.252300
0.255228 0.604773 0.252173
0.257830 0.604753 0.252236
0.260407 0.605131 0.252426
0.263076 0.603737 0.252057
0.265681 0.603355 0.252010
0.268236 0.604017 0.252295
0.270811 0.604195 0.252429
0.273396 0.603983 0.252442
0.275962 0.604311 0.252628
0.278539 0.604064 0.252633
0.281104 0.604144 0.252745
0.283681 0.602916 0.252444
0.286226 0.604391 0.253005
0.288783 0.604573 0.253158
0.291330 0.602103 0.252468
0.293879 0.603208 0.252920
0.296440 0.604612 0.253470
0.298994 0.605009 0.253702
0.301551 0.605513 0.253972
0.304075 0.604757 0.253841
0.306620 0.604918 0.254007
0.309160 0.604937 0.254130
0.311695 0.604886 0.254233
0.314253 0.605366 0.254509
0.316799 0.605556 0.254695
0.319330 0.605449 0.254789
0.321890 0.605849 0.255048
0.324403 0.605488 0.255066
0.326953 0.605706 0.255272
0.329499 0.605832 0.255452
0.332043 0.605917 0.255621
0.334548 0.605542 0.255644
0.337103 0.605733 0.255852
0.339632 0.605633 0.255970
0.342168 0.605599 0.256111
0.344712 0.605628 0.256274
0.347370 0.606661 0.256766
0.349930 0.606742 0.256952
0.352321 0.605409 0.256682
0.354701 0.604068 0.256410
0.357256 0.604144 0.256601
0.359767 0.603871 0.256681
0.362413 0.604555 0.257075
0.365067 0.605224 0.257466
0.367672 0.605497 0.257731
0.370336 0.606113 0.258111
0.372905 0.606068 0.258276
0.375491 0.606107 0.258472
0.378053 0.605980 0.258615
0.380617 0.605843 0.258757
0.383162 0.605583 0.258861
0.385885 0.606269 0.259278
0.388225 0.604886 0.259016
0.390645 0.603948 0.258902
0.393287 0.604147 0.259164
0.395896 0.604140 0.259360
0.398617 0.604645 0.259728
0.401270 0.604780 0.259976
0.403898 0.604766 0.260176
0.406358 0.603985 0.260123
0.409054 0.604231 0.260413
0.411728 0.604346 0.260662
0.414312 0.604055 0.260777
0.417292 0.605360 0.261427
0.419726 0.604410 0.261326
0.422247 0.603809 0.261342
0.424999 0.604087 0.261655
0.427934 0.605014 0.262187
0.430550 0.604704 0.262306
0.433416 0.605278 0.262725
0.436166 0.605397 0.262992
0.438845 0.605235 0.263166
0.441320 0.604357 0.263101
0.444081 0.604439 0.263361
0.446688 0.603986 0.263441
0.449034 0.602676 0.263233
0.450957 0.600040 0.262575
0.455020 0.604156 0.264212
0.458205 0.605412 0.264880
0.461100 0.605720 0.265229
0.464525 0.607572 0.266106
0.467432 0.607819 0.266439
0.470581 0.608729 0.267001
0.473187 0.608041 0.267017
0.477471 0.612042 0.268645
0.479129 0.608664 0.267742
0.481585 0.607523 0.267607
0.485127 0.609292 0.268477
0.487876 0.608894 0.268602
0.490248 0.607502 0.268385
0.492950 0.606970 0.268466
0.496263 0.607966 0.269079
0.498815 0.607014 0.269018
0.502441 0.608697 0.269875
0.506572 0.611531 0.271138
0.513175 0.620158 0.274426
0.510023 0.605562 0.269611
0.513860 0.607562 0.270591
0.517065 0.608032 0.271039
0.520304 0.608543 0.271504
0.522833 0.607426 0.271400
0.526456 0.608723 0.272147
0.528909 0.607416 0.271980
0.531189 0.605739 0.271683
0.535512 0.608415 0.272928
0.537571 0.606252 0.272463
0.537345 0.599385 0.270328
0.545086 0.608948 0.274030
0.548462 0.609434 0.274514
0.550492 0.607196 0.274030
0.559780 0.619293 0.278669
0.555560 0.604758 0.273791
0.557815 0.603003 0.273482
0.560183 0.601474 0.273256
0.563916 0.602521 0.273958
0.566361 0.601117 0.273781
0.568887 0.599868 0.273662
0.567967 0.592355 0.271278
0.572991 0.595663 0.272811
0.577974 0.598793 0.274287
0.586657 0.608320 0.278099
0.589869 0.608105 0.278377
0.591543 0.605221 0.277684
0.593949 0.603612 0.277458
0.596267 0.601858 0.277181
0.597202 0.597811 0.276063
0.597766 0.593210 0.274741
0.600211 0.591733 0.274569
0.609512 0.601289 0.278476
0.615883 0.605943 0.280587
0.617394 0.602810 0.279822
0.617588 0.597656 0.278305
0.620378 0.596578 0.278305
0.623611 0.596164 0.278556
0.627241 0.596321 0.279026
0.631425 0.597268 0.279799
0.635971 0.598693 0.280759
0.638384 0.596929 0.280525
0.640853 0.595246 0.280326
0.646436 0.598022 0.281818
0.649228 0.596744 0.281783
0.650931 0.593922 0.281166
0.652018 0.590263 0.280232
0.653665 0.587407 0.279605
0.658773 0.589283 0.280792
0.680124 0.612978 0.290366
0.675998 0.602152 0.286707
0.677516 0.598957 0.285979
0.680614 0.597849 0.286060
0.683677 0.596673 0.286120
0.687198 0.596064 0.286407
0.688416 0.592500 0.285548
0.694154 0.594640 0.286920
0.700586 0.597554 0.288608
0.706508 0.599737 0.290024
0.710700 0.599720 0.290586
0.716438 0.601522 0.291876
0.719473 0.600013 0.291865
0.719495 0.594921 0.290435
0.724827 0.596101 0.291503
0.732528 0.599957 0.293653
0.736123 0.598976 0.293880
0.738369 0.596435 0.293484
0.743410 0.597040 0.294361
0.746563 0.595485 0.294372
0.752858 0.597380 0.295788
0.757580 0.597475 0.296482
0.761484 0.596640 0.296803
0.766474 0.596941 0.297595
0.769588 0.595206 0.297554
0.773576 0.594382 0.297891
0.779360 0.595404 0.298993
0.787946 0.599252 0.301276
0.793997 0.600408 0.302449
0.795826 0.597251 0.301824
0.800004 0.596473 0.302188
0.802930 0.594447 0.302024
0.805065 0.591661 0.301532
0.811385 0.592973 0.302764
0.822265 0.598630 0.305841
0.825773 0.597148 0.305884
0.830379 0.596723 0.306367
0.833842 0.595234 0.306384
0.840917 0.597121 0.307837
0.828788 0.581350 0.301668
0.830083 0.578085 0.300855
0.837699 0.580591 0.302522
0.843209 0.581189 0.303348
0.843195 0.576903 0.302030
0.843417 0.572924 0.300817
0.845697 0.570832 0.300403
0.853850 0.573880 0.302221
0.846530 0.563655 0.298184
0.821565 0.538629 0.287581
0.182896 0.598911 0.244472
0.184455 0.601452 0.245453
0.186360 0.602552 0.245987
0.188233 0.604059 0.246638
0.190394 0.604318 0.246897
0.192715 0.603920 0.246947
0.195039 0.603679 0.247035
0.197198 0.604542 0.247454
0.199400 0.605379 0.247856
0.201845 0.605002 0.247877
0.204215 0.605228 0.248075
0.207098 0.602418 0.247330
0.209462 0.602947 0.247607
0.211795 0.603859 0.247996
0.214502 0.602398 0.247645
0.216966 0.602698 0.247833
0.219608 0.601818 0.247651
0.222012 0.602812 0.248044
0.224267 0.605168 0.248855
0.226922 0.604487 0.248722
0.229634 0.603328 0.248437
0.232146 0.603948 0.248702
0.234757 0.603743 0.248708
0.237248 0.604747 0.249088
0.239725 0.606047 0.249559
0.242388 0.605453 0.249442
0.245066 0.604630 0.249252
0.247674 0.604583 0.249304
0.250276 0.604595 0.249374
0.252964 0.603360 0.249057
0.255388 0.605959 0.249933
0.258287 0.601079 0.248483
0.260676 0.604474 0.249610
0.263323 0.603351 0.249332
0.265942 0.602555 0.249157
0.268477 0.603519 0.249533
0.271059 0.603338 0.249554
0.273605 0.604143 0.249884
0.276175 0.604151 0.249968
0.278750 0.603774 0.249935
0.281314 0.603610 0.249970
0.283890 0.601785 0.249488
0.286417 0.604754 0.250508
0.288974 0.602984 0.250048
0.291514 0.602277 0.249923
0.294073 0.604849 0.250829
0.296624 0.605251 0.251057
0.299181 0.605843 0.251348
0.301712 0.605268 0.251275
0.304242 0.604886 0.251266
0.306765 0.604497 0.251256
0.309318 0.605038 0.251543
0.311860 0.605238 0.251725
0.314398 0.605357 0.251883
0.316930 0.605345 0.252004
0.319475 0.605574 0.252203
0.321979 0.605140 0.252196
0.324558 0.605877 0.252561
0.326987 0.604435 0.252239
0.329599 0.605561 0.252733
0.332218 0.606619 0.253209
0.334700 0.605977 0.253148
0.337186 0.605451 0.253126
0.339804 0.606319 0.253550
0.342330 0.606182 0.253657
0.344871 0.606195 0.253814
0.347308 0.605248 0.253667
0.349840 0.605188 0.253805
0.352376 0.605144 0.253951
0.354949 0.605372 0.254186
0.357697 0.606904 0.254841
0.359992 0.604969 0.254388
0.362494 0.604616 0.254443
0.365032 0.604509 0.254580
0.367633 0.604802 0.254847
0.370337 0.605713 0.255316
0.373003 0.606309 0.255686
0.375563 0.606205 0.255832
0.378103 0.605967 0.255938
0.380643 0.605711 0.256039
0.383192 0.605495 0.256155
0.385844 0.605815 0.256447
0.388348 0.605321 0.256477
0.390877 0.604952 0.256550
0.393373 0.604405 0.256566
0.396048 0.604732 0.256868
0.398743 0.605112 0.257189
0.401455 0.605526 0.257524
0.403950 0.604906 0.257523
0.406458 0.604347 0.257544
0.409245 0.604993 0.257960
0.411912 0.605074 0.258194
0.414499 0.604795 0.258311
0.417357 0.605596 0.258785
0.419665 0.604151 0.258523
0.422219 0.603695 0.258586
0.425146 0.604657 0.259119
0.427794 0.604506 0.259287
0.430653 0.605110 0.259706
0.433373 0.605163 0.259945
0.436207 0.605591 0.260310
0.438786 0.605087 0.260368
0.441538 0.605166 0.260620
0.444254 0.605094 0.260825
0.446779 0.604369 0.260813
0.449218 0.603363 0.260709
0.452594 0.605346 0.261604
0.455421 0.605519 0.261897
0.458102 0.605209 0.262030
0.460636 0.604436 0.262010
0.463171 0.603667 0.261992
0.465572 0.602500 0.261841
0.468550 0.603009 0.262255
0.471372 0.603034 0.262508
0.474432 0.603697 0.262979
0.477161 0.603401 0.263127
0.479901 0.603118 0.263282
0.483029 0.603855 0.263784
0.485858 0.603755 0.264005
0.488620 0.603459 0.264161
0.492284 0.605453 0.265099
0.495597 0.606480 0.265710
0.499742 0.609520 0.267013
0.502445 0.608912 0.267073
0.505028 0.608005 0.267031
0.508830 0.610007 0.267989
0.514387 0.616059 0.270344
0.515309 0.611154 0.268934
0.517182 0.608532 0.268309
0.519537 0.607044 0.268075
0.523341 0.608802 0.268965
0.527066 0.610316 0.269774
0.529459 0.608865 0.269559
0.532254 0.608286 0.269648
0.536044 0.609807 0.270470
0.538974 0.609460 0.270644
0.542473 0.610272 0.271227
0.546456 0.612029 0.272143
0.548792 0.610385 0.271872
0.550536 0.607572 0.271192
0.558501 0.617071 0.274841
0.556031 0.605973 0.271249
0.557943 0.603550 0.270708
0.559951 0.601338 0.270242
0.563109 0.601312 0.270550
0.566451 0.601600 0.270973
0.569059 0.600504 0.270908
0.568657 0.593931 0.268896
0.571091 0.592576 0.268739
0.577963 0.599108 0.271403
0.584189 0.604332 0.273611
0.587895 0.605027 0.274205
0.589874 0.602708 0.273721
0.593640 0.603448 0.274340
0.597135 0.603684 0.274782
0.600125 0.603042 0.274912
0.599297 0.596101 0.272764
0.602200 0.595348 0.272857
0.609662 0.601921 0.275616
0.615170 0.605207 0.277192
0.618166 0.604430 0.277295
0.620735 0.602969 0.277152
0.624887 0.603947 0.277906
0.627074 0.601868 0.277544
0.628555 0.598730 0.276795
0.633147 0.600273 0.277773
0.635782 0.598851 0.277663
0.638435 0.597448 0.277564
0.641703 0.596927 0.277797
0.644562 0.595792 0.277806
0.648759 0.596542 0.278523
0.650798 0.594205 0.278093
0.651303 0.589739 0.276868
0.654252 0.588692 0.276926
0.660192 0.591702 0.278518
0.683031 0.617416 0.288694
0.675432 0.601906 0.283323
0.677800 0.599848 0.283034
0.680192 0.597817 0.282759
0.683809 0.597371 0.283092
0.686712 0.595973 0.283069
0.689469 0.594373 0.282973
0.692585 0.593213 0.283051
0.698380 0.595364 0.284411
0.699515 0.591683 0.283529
0.707029 0.595813 0.285676
0.715696 0.601207 0.288332
0.721931 0.603538 0.289814
0.723134 0.599816 0.288943
0.724685 0.596528 0.288242
0.726981 0.594122 0.287889
0.729818 0.592338 0.287784
0.738620 0.597330 0.290363
0.742553 0.596691 0.290728
0.748745 0.598538 0.292089
0.749428 0.594218 0.290999
0.757049 0.597523 0.292960
0.760680 0.596400 0.293157
0.766157 0.597234 0.294146
0.769162 0.595386 0.294058
0.772175 0.593543 0.293972
0.779376 0.596053 0.295658
0.785431 0.597298 0.296838
0.793385 0.600421 0.298793
0.795588 0.597640 0.298332
0.798606 0.595699 0.298210
0.803173 0.595305 0.298722
0.806406 0.593585 0.298682
0.811564 0.593750 0.299419
0.819721 0.596782 0.301350
0.827234 0.599131 0.302996
0.828638 0.595657 0.302195
0.830866 0.593014 0.301726
0.835463 0.592616 0.302190
0.835142 0.587712 0.300731
0.836289 0.584241 0.299856
0.851093 0.593171 0.304245
0.855384 0.592557 0.304559
0.856258 0.588942 0.303569
0.863884 0.591353 0.305141
0.863738 0.586975 0.303775
0.861327 0.580744 0.301580
0.871029 0.585037 0.303904
0.874663 0.584136 0.303962
0.179855 0.614091 0.246562
0.184575 0.601451 0.242968
0.185284 0.608606 0.245311
0.188261 0.604636 0.244300
0.190735 0.603319 0.244076
0.193022 0.603130 0.244184
0.194981 0.604924 0.244881
0.197614 0.603201 0.244508
0.199854 0.603832 0.244838
0.202098 0.604652 0.245217
0.204548 0.604430 0.245274
0.207789 0.599379 0.243858
0.209903 0.601477 0.244603
0.212379 0.601431 0.244692
0.214735 0.602344 0.245066
0.217263 0.602212 0.245118
0.219807 0.602076 0.245163
0.222361 0.601954 0.245208
0.224610 0.604347 0.246016
0.227181 0.604345 0.246091
0.229874 0.603363 0.245865
0.232504 0.602920 0.245800
0.235152 0.602316 0.245684
0.237527 0.604413 0.246391
0.240188 0.603760 0.246258
0.243028 0.601061 0.245499
0.245551 0.601783 0.245784
0.248153 0.601605 0.245795
0.250675 0.602454 0.246120
0.253355 0.601153 0.245788
0.255855 0.602372 0.246228
0.258468 0.601880 0.246146
0.261006 0.602613 0.246440
0.263575 0.602799 0.246568
0.266207 0.601548 0.246258
0.268739 0.602380 0.246588
0.271349 0.601120 0.246277
0.273930 0.600301 0.246105
0.276472 0.600514 0.246251
0.278966 0.603045 0.247113
0.281513 0.603416 0.247313
0.284074 0.602558 0.247137
0.286621 0.601957 0.247043
0.289157 0.603366 0.247571
0.291693 0.602207 0.247309
0.294213 0.600972 0.247026
0.296709 0.599116 0.246554
0.299353 0.606089 0.248812
0.301899 0.606233 0.248964
0.304377 0.604077 0.248407
0.306905 0.604071 0.248517
0.309441 0.604319 0.248709
0.312030 0.605771 0.249277
0.314551 0.605559 0.249332
0.317075 0.605463 0.249425
0.319580 0.605068 0.249428
0.322142 0.605664 0.249742
0.324592 0.604514 0.249515
0.327112 0.604482 0.249638
0.329624 0.604356 0.249734
0.332086 0.603627 0.249645
0.334798 0.605842 0.250478
0.337304 0.605565 0.250535
0.339833 0.605554 0.250677
0.342478 0.606669 0.251175
0.344902 0.605586 0.250986
0.347430 0.605522 0.251119
0.349874 0.604724 0.251024
0.352412 0.604744 0.251188
0.355077 0.605748 0.251664
0.357634 0.605827 0.251851
0.360224 0.606129 0.252111
0.362711 0.605648 0.252126
0.365198 0.605185 0.252148
0.367753 0.605175 0.252316
0.370314 0.605181 0.252491
0.372733 0.604274 0.252378
0.375523 0.605637 0.252988
0.378098 0.605634 0.253166
0.380454 0.604362 0.252943
0.383023 0.604312 0.253110
0.385843 0.605588 0.253701
0.388501 0.605921 0.253995
0.390944 0.605112 0.253925
0.393559 0.605174 0.254136
0.396147 0.605073 0.254296
0.398867 0.605574 0.254652
0.401385 0.605092 0.254694
0.403997 0.605028 0.254871
0.406573 0.604781 0.254991
0.409504 0.606054 0.255603
0.412017 0.605473 0.255620
0.414652 0.605394 0.255800
0.417253 0.605152 0.255929
0.419826 0.604783 0.256018
0.422343 0.604181 0.256033
0.425219 0.604949 0.256494
0.427940 0.605078 0.256750
0.430552 0.604772 0.256866
0.433279 0.604866 0.257114
0.435848 0.604370 0.257171
0.438839 0.605333 0.257706
0.441577 0.605367 0.257939
0.444309 0.605356 0.258160
0.446843 0.604666 0.258160
0.449356 0.603902 0.258136
0.452584 0.605415 0.258862
0.455469 0.605775 0.259211
0.457986 0.604964 0.259176
0.460679 0.604687 0.259319
0.463505 0.604787 0.259588
0.465924 0.603666 0.259454
0.468755 0.603741 0.259717
0.471137 0.602514 0.259550
0.474279 0.603420 0.260093
0.477376 0.604151 0.260580
0.480212 0.604126 0.260818
0.483117 0.604259 0.261109
0.485928 0.604115 0.261311
0.488588 0.603557 0.261375
0.491244 0.602976 0.261433
0.494744 0.604519 0.262206
0.497450 0.604014 0.262294
0.499913 0.602901 0.262178
0.502695 0.602566 0.262325
0.505256 0.601686 0.262290
0.507729 0.600595 0.262185
0.510777 0.600844 0.262535
0.514206 0.601933 0.263172
0.517629 0.602956 0.263790
0.520650 0.603028 0.264088
0.523531 0.602761 0.264273
0.526296 0.602223 0.264367
0.531009 0.605862 0.265892
0.534768 0.607357 0.266688
0.538814 0.609389 0.267674
0.541536 0.608602 0.267695
0.545738 0.610835 0.268757
0.549051 0.611189 0.269177
0.551696 0.610174 0.269127
0.558284 0.616937 0.271771
0.555646 0.605516 0.268122
0.557343 0.602691 0.267448
0.559948 0.601634 0.267388
0.562760 0.600962 0.267465
0.566248 0.601536 0.267978
0.569103 0.600902 0.268074
0.569060 0.594982 0.266320
0.572775 0.595926 0.266971
0.580451 0.603866 0.270086
0.584522 0.605257 0.270909
0.587481 0.604653 0.271033
0.589667 0.602704 0.270685
0.591510 0.600180 0.270135
0.595852 0.601886 0.271087
0.600679 0.604333 0.272309
0.604957 0.605789 0.273185
0.606994 0.603530 0.272742
0.611402 0.605109 0.273673
0.615993 0.606913 0.274691
0.618579 0.605480 0.274556
0.622128 0.605547 0.274962
0.625466 0.605253 0.275244
0.627066 0.602272 0.274559
0.630706 0.602403 0.275003
0.634244 0.602342 0.275382
0.635939 0.599516 0.274762
0.637639 0.596719 0.274154
0.640681 0.595888 0.274265
0.645458 0.597527 0.275285
0.650490 0.599458 0.276421
0.651720 0.595962 0.275571
0.651722 0.590787 0.274103
0.655108 0.590340 0.274379
0.660537 0.592651 0.275682
0.677343 0.610243 0.282669
0.676809 0.604251 0.280919
0.675889 0.597825 0.279004
0.680933 0.599301 0.280039
0.684081 0.598243 0.280134
0.687021 0.596896 0.280127
0.687445 0.592330 0.278911
0.688570 0.588694 0.278045
0.689677 0.585062 0.277182
0.699580 0.592310 0.280454
0.705172 0.594103 0.281670
0.712767 0.598235 0.283791
0.723569 0.606080 0.287353
0.724550 0.602077 0.286388
0.724995 0.597477 0.285191
0.726077 0.593660 0.284295
0.728392 0.591289 0.283959
0.734410 0.593137 0.285267
0.740898 0.595432 0.286761
0.747315 0.597554 0.288200
0.752884 0.598651 0.289250
0.757764 0.598926 0.289986
0.762227 0.598698 0.290531
0.765377 0.597022 0.290508
0.768447 0.595252 0.290449
0.770913 0.592838 0.290134
0.778617 0.595890 0.292005
0.785763 0.598268 0.293616
0.793804 0.601480 0.295572
0.795645 0.598324 0.294967
0.798339 0.596052 0.294713
0.803580 0.596323 0.295487
0.806378 0.594165 0.295270
0.813713 0.596441 0.296859
0.814764 0.592601 0.295940
0.826827 0.599333 0.299358
0.828724 0.596314 0.298761
0.830657 0.593381 0.298183
0.834087 0.591889 0.298188
0.836174 0.589193 0.297676
0.843130 0.590991 0.299024
0.854663 0.596904 0.302085
0.858201 0.595569 0.302100
0.863099 0.595486 0.302623
0.867418 0.594918 0.302923
0.871487 0.594170 0.303127
0.874587 0.592627 0.302972
0.881570 0.594478 0.304235
0.889603 0.597231 0.305865
0.181190 0.608216 0.242290
0.183058 0.609524 0.242872
0.183025 0.620628 0.246346
0.187698 0.608260 0.242861
0.191237 0.601488 0.241020
0.193518 0.601337 0.241133
0.195676 0.602045 0.241493
0.197825 0.603023 0.241925
0.200108 0.603448 0.242185
0.202410 0.603960 0.242464
0.205019 0.602784 0.242232
0.208041 0.599099 0.241243
0.210696 0.597718 0.240935
0.211684 0.607558 0.243975
0.214557 0.605133 0.243344
0.217134 0.604781 0.243328
0.220056 0.601948 0.242563
0.222267 0.604484 0.243403
0.224915 0.603811 0.243278
0.227650 0.602435 0.242939
0.230322 0.601558 0.242747
0.233083 0.599846 0.242301
0.235207 0.604094 0.243644
0.238050 0.601597 0.242959
0.240570 0.602269 0.243226
0.243142 0.602452 0.243346
0.245678 0.603084 0.243600
0.248230 0.603594 0.243818
0.250965 0.601695 0.243312
0.253445 0.603168 0.243821
0.256050 0.602891 0.243804
0.258476 0.605517 0.244664
0.261131 0.604384 0.244392
0.263863 0.601392 0.243561
0.266346 0.603236 0.244190
0.268996 0.601241 0.243662
0.271564 0.600916 0.243640
0.274107 0.601159 0.243792
0.276658 0.601048 0.243839
0.279195 0.601402 0.244030
0.281739 0.601193 0.244052
0.284273 0.601448 0.244217
0.286790 0.604808 0.245326
0.289337 0.603622 0.245059
0.291872 0.603155 0.245013
0.294378 0.600324 0.244252
0.296872 0.598898 0.243919
0.299392 0.599643 0.244248
0.301936 0.601191 0.244824
0.304490 0.602608 0.245364
0.307055 0.604037 0.245910
0.309618 0.605095 0.246347
0.312133 0.604875 0.246396
0.314640 0.604532 0.246411
0.317179 0.604895 0.246644
0.319724 0.605296 0.246891
0.322171 0.604110 0.246655
0.324682 0.604036 0.246761
0.327261 0.604900 0.247158
0.329747 0.604462 0.247158
0.332247 0.604237 0.247226
0.334784 0.604442 0.247428
0.337263 0.604006 0.247435
0.339928 0.605499 0.248039
0.342344 0.604403 0.247847
0.344673 0.602581 0.247434
0.347433 0.604749 0.248253
0.349865 0.603916 0.248149
0.352434 0.604246 0.248406
0.355076 0.605110 0.248831
0.357621 0.605158 0.249006
0.360268 0.605919 0.249404
0.362392 0.602906 0.248633
0.365333 0.605658 0.249654
0.367901 0.605742 0.249849
0.370336 0.604945 0.249771
0.372754 0.604063 0.249668
0.375460 0.604945 0.250117
0.377911 0.604255 0.250078
0.380449 0.604073 0.250199
0.383107 0.604538 0.250525
0.385779 0.605031 0.250861
0.388368 0.605034 0.251046
0.390741 0.603904 0.250876
0.393592 0.605183 0.251466
0.396408 0.606209 0.251979
0.398720 0.604760 0.251714
0.401293 0.604567 0.251846
0.403865 0.604344 0.251970
0.406997 0.606587 0.252876
0.409349 0.605323 0.252674
0.412030 0.605483 0.252925
0.414698 0.605552 0.253149
0.417461 0.605979 0.253488
0.419980 0.605389 0.253506
0.422563 0.605043 0.253602
0.425236 0.605028 0.253806
0.427999 0.605320 0.254109
0.430672 0.605247 0.254298
0.433232 0.604739 0.254348
0.435968 0.604847 0.254597
0.438657 0.604762 0.254786
0.440998 0.603462 0.254586
0.443481 0.602659 0.254546
0.446670 0.604179 0.255257
0.449464 0.604344 0.255533
0.452346 0.604756 0.255890
0.455324 0.605430 0.256335
0.457976 0.605048 0.256439
0.460703 0.604880 0.256614
0.463613 0.605237 0.256961
0.466224 0.604678 0.257012
0.468304 0.602580 0.256562
0.471206 0.602854 0.256886
0.473737 0.602055 0.256861
0.477058 0.603432 0.257550
0.480543 0.605187 0.258367
0.483431 0.605268 0.258636
0.486138 0.604842 0.258741
0.488798 0.604282 0.258803
0.491541 0.603922 0.258932
0.494577 0.604286 0.259302
0.497393 0.604068 0.259482
0.500149 0.603680 0.259607
0.502843 0.603129 0.259679
0.505582 0.602674 0.259784
0.508371 0.602320 0.259926
0.511586 0.602944 0.260394
0.514334 0.602452 0.260493
0.517481 0.602851 0.260891
0.520722 0.603424 0.261350
0.522914 0.601640 0.261021
0.525686 0.601137 0.261124
0.529413 0.602677 0.261915
0.532275 0.602314 0.262069
0.534946 0.601533 0.262084
0.537613 0.600736 0.262095
0.540317 0.600008 0.262132
0.544132 0.601516 0.262928
0.547455 0.601978 0.263374
0.551159 0.603155 0.264066
0.554914 0.604377 0.264777
0.556440 0.601243 0.264006
0.559477 0.601033 0.264234
0.562082 0.599986 0.264178
0.564445 0.598484 0.263968
0.569226 0.601441 0.265292
0.570084 0.597159 0.264130
0.575283 0.600760 0.265686
0.580151 0.603661 0.267008
0.584668 0.605850 0.268091
0.588337 0.606484 0.268641
0.590327 0.604184 0.268175
0.590821 0.599357 0.266831
0.596331 0.603049 0.268456
0.601017 0.605258 0.269572
0.606796 0.609189 0.271298
0.612102 0.612232 0.272723
0.615038 0.611354 0.272778
0.614768 0.605347 0.271028
0.619388 0.607150 0.272033
0.624856 0.610208 0.273489
0.625664 0.605964 0.272366
0.627260 0.602977 0.271689
0.630851 0.603037 0.272096
0.634138 0.602604 0.272334
0.635053 0.598629 0.271310
0.635191 0.593557 0.269892
0.639857 0.595127 0.270858
0.644388 0.596433 0.271736
0.647830 0.596126 0.272041
0.648872 0.592407 0.271119
0.652615 0.592488 0.271573
0.654835 0.590427 0.271256
0.659627 0.591880 0.272221
0.667387 0.597277 0.274635
0.675561 0.603077 0.277212
0.674787 0.596862 0.275402
0.681333 0.600330 0.277146
0.684185 0.598890 0.277096
0.686669 0.596959 0.276869
0.685206 0.589999 0.274783
0.687984 0.588478 0.274711
0.690480 0.586590 0.274507
0.693343 0.585146 0.274474
0.704327 0.593618 0.278158
0.712861 0.598908 0.280674
0.720220 0.602639 0.282621
0.723562 0.601480 0.282738
0.723036 0.595751 0.281129
0.726252 0.594441 0.281195
0.726623 0.589833 0.280009
0.728941 0.587489 0.279686
0.732678 0.586746 0.279979
0.743208 0.593566 0.283185
0.747718 0.593542 0.283775
0.751856 0.593064 0.284197
0.767227 0.604741 0.289341
0.764957 0.597188 0.287035
0.767925 0.595314 0.286933
0.770364 0.592876 0.286612
0.779439 0.597367 0.289012
0.787682 0.600874 0.291040
0.795728 0.604074 0.292958
0.795479 0.598776 0.291515
0.798548 0.596877 0.291413
0.802296 0.595659 0.291579
0.805971 0.594369 0.291712
0.809671 0.593105 0.291850
0.814839 0.593262 0.292555
0.826334 0.599450 0.295695
0.827796 0.596011 0.294939
0.830336 0.593641 0.294602
0.833632 0.592015 0.294555
0.838020 0.591426 0.294918
0.844710 0.592954 0.296137
0.853737 0.596579 0.298209
0.857636 0.595559 0.298358
0.862837 0.595733 0.298982
0.867865 0.595774 0.299536
0.871430 0.594564 0.299550
0.875353 0.593716 0.299693
0.879118 0.592780 0.299778
0.883376 0.592317 0.300038
0.183607 0.597130 0.236563
0.184447 0.603320 0.238547
0.182810 0.622418 0.244286
0.188076 0.607077 0.239989
0.190986 0.603619 0.239141
0.193740 0.601025 0.238536
0.195784 0.602396 0.239080
0.197878 0.603742 0.239610
0.200203 0.603989 0.239811
0.202647 0.603714 0.239852
0.205138 0.603294 0.239843
0.208388 0.598215 0.238459
0.211238 0.595567 0.237782
0.212988 0.600277 0.239261
0.214218 0.609047 0.241930
0.216890 0.608174 0.241760
0.219386 0.608657 0.241985
0.221958 0.608690 0.242073
0.224401 0.609847 0.242489
0.226614 0.613108 0.243523
0.229155 0.613843 0.243811
0.232475 0.607576 0.242030
0.235161 0.606825 0.241874
0.237844 0.606056 0.241712
0.240379 0.606801 0.241997
0.242869 0.608144 0.242458
0.245485 0.608155 0.242526
0.248221 0.606630 0.242140
0.250895 0.605720 0.241935
0.253576 0.604549 0.241654
0.256118 0.605313 0.241947
0.258655 0.606257 0.242295
0.261252 0.606185 0.242344
0.263844 0.606127 0.242397
0.266466 0.605308 0.242228
0.268935 0.608049 0.243116
0.271624 0.605074 0.242310
0.274218 0.604151 0.242114
0.276739 0.605701 0.242656
0.279263 0.607715 0.243339
0.281856 0.606006 0.242916
0.284392 0.608117 0.243634
0.286958 0.607407 0.243513
0.289513 0.607064 0.243504
0.292058 0.606031 0.243292
0.294596 0.605539 0.243243
0.297141 0.606148 0.243526
0.299616 0.602984 0.242683
0.302137 0.603086 0.242818
0.304711 0.605024 0.243506
0.307335 0.607927 0.244487
0.310176 0.615702 0.246933
0.312327 0.606112 0.244173
0.314788 0.604798 0.243897
0.317289 0.604502 0.243928
0.319794 0.604318 0.243996
0.322349 0.604975 0.244319
0.324903 0.605511 0.244609
0.327257 0.603255 0.244059
0.329733 0.602838 0.244066
0.332174 0.602041 0.243960
0.334748 0.602849 0.244341
0.337356 0.603917 0.244804
0.339872 0.603921 0.244947
0.342255 0.602620 0.244696
0.344825 0.603158 0.245006
0.347438 0.604020 0.245416
0.349938 0.603821 0.245507
0.352444 0.603677 0.245616
0.354968 0.603660 0.245766
0.357462 0.603391 0.245840
0.359789 0.601897 0.245544
0.362509 0.603267 0.246123
0.365288 0.604919 0.246791
0.367666 0.603791 0.246612
0.370184 0.603608 0.246723
0.373011 0.605327 0.247420
0.375131 0.602657 0.246771
0.377771 0.603160 0.247098
0.380488 0.604045 0.247546
0.383139 0.604487 0.247859
0.385594 0.603828 0.247835
0.388111 0.603498 0.247913
0.390609 0.603065 0.247961
0.393348 0.603825 0.248380
0.396123 0.604692 0.248835
0.398666 0.604395 0.248930
0.401199 0.604033 0.249007
0.403829 0.604103 0.249220
0.406471 0.604192 0.249441
0.409672 0.606667 0.250407
0.412131 0.605870 0.250355
0.414597 0.605104 0.250314
0.417414 0.605769 0.250722
0.420090 0.605819 0.250939
0.422632 0.605317 0.250985
0.425298 0.605282 0.251178
0.427978 0.605269 0.251380
0.430637 0.605155 0.251552
0.433394 0.605370 0.251829
0.436147 0.605536 0.252092
0.438672 0.604877 0.252097
0.440671 0.602416 0.251531
0.443652 0.603309 0.252029
0.446897 0.605014 0.252786
0.449609 0.604908 0.252971
0.452364 0.604916 0.253194
0.455241 0.605278 0.253531
0.458055 0.605408 0.253795
0.460776 0.605224 0.253962
0.463906 0.606238 0.254513
0.466624 0.605985 0.254660
0.468535 0.603385 0.254056
0.471102 0.602703 0.254067
0.473911 0.602692 0.254296
0.476690 0.602575 0.254491
0.480290 0.604664 0.255400
0.483616 0.605931 0.256047
0.486438 0.605806 0.256247
0.488661 0.604102 0.255937
0.491751 0.604643 0.256355
0.494461 0.604181 0.256449
0.497403 0.604286 0.256730
0.500199 0.604002 0.256885
