ply
format ascii 1.0
comment ---
element vertex 1771
property float x
property float y
property float z
element face 0
property list uchar uint vertex_indices
end_header
0.029028 0.625311 0.177996
0.029782 0.631315 0.178995
0.040771 0.606516 0.175039
0.043589 0.606091 0.175003
0.045936 0.607137 0.175203
0.048953 0.606089 0.175066
0.053447 0.600220 0.174152
0.060646 0.585220 0.171765
0.058202 0.602028 0.174505
0.058543 0.609917 0.175809
0.059106 0.617303 0.177032
0.059553 0.625352 0.178363
0.063789 0.619999 0.177531
0.069469 0.609096 0.175801
0.072360 0.608193 0.175687
0.075005 0.608166 0.175714
0.077660 0.608056 0.175728
0.080367 0.607700 0.175702
0.082905 0.607974 0.175778
0.088159 0.596934 0.174022
0.092677 0.588496 0.172686
0.091912 0.602562 0.174997
0.093836 0.605296 0.175472
0.096107 0.606529 0.175704
0.099236 0.603791 0.175292
0.101587 0.604579 0.175453
0.103284 0.608540 0.176128
0.106062 0.607261 0.175954
0.107831 0.611032 0.176600
0.109713 0.614359 0.177174
0.111021 0.620916 0.178275
0.112738 0.625512 0.179057
0.118498 0.607320 0.176132
0.120793 0.608321 0.176329
0.123689 0.605715 0.175939
0.126134 0.605710 0.175973
0.128735 0.604659 0.175836
0.134344 0.583657 0.172445
0.135452 0.591906 0.173825
0.136911 0.598204 0.174887
0.137910 0.608252 0.176563
0.139984 0.610871 0.177027
0.142720 0.608459 0.176669
0.145010 0.609453 0.176868
0.147611 0.607857 0.176644
0.149953 0.608377 0.176765
0.152209 0.609697 0.177018
0.154177 0.613876 0.177740
0.155281 0.627134 0.179950
0.157681 0.627964 0.180125
0.161950 0.608031 0.176895
0.164420 0.607010 0.176765
0.166719 0.607969 0.176960
0.169210 0.606484 0.176754
0.171669 0.605227 0.176586
0.174873 0.592531 0.174537
0.177217 0.591843 0.174461
0.178828 0.603890 0.176482
0.180957 0.608170 0.177225
0.182920 0.616765 0.178680
0.185156 0.620868 0.179396
0.187037 0.635251 0.181808
0.190237 0.614309 0.178396
0.192834 0.607473 0.177308
0.195195 0.607757 0.177395
0.197567 0.607596 0.177408
0.199933 0.607795 0.177481
0.202307 0.607574 0.177485
0.204684 0.606297 0.177315
0.207050 0.605688 0.177255
0.209355 0.590749 0.174822
0.211734 0.600486 0.176475
0.214157 0.606607 0.177530
0.216571 0.608962 0.177962
0.218959 0.609127 0.178031
0.221273 0.606446 0.177628
0.223668 0.607025 0.177766
0.226160 0.610045 0.178309
0.228537 0.609555 0.178270
0.230937 0.609626 0.178324
0.233472 0.612290 0.178810
0.236300 0.619729 0.180092
0.239587 0.633558 0.182439
0.240722 0.612293 0.178940
0.242910 0.608949 0.178426
0.245229 0.607757 0.178270
0.247574 0.606997 0.178186
0.249940 0.606537 0.178153
0.251411 0.596021 0.176439
0.253364 0.591705 0.175760
0.257207 0.606975 0.178357
0.260071 0.611314 0.179126
0.262417 0.610444 0.179025
0.264733 0.609360 0.178888
0.267217 0.609758 0.178999
0.269947 0.612116 0.179439
0.272455 0.612517 0.179551
0.274855 0.612050 0.179518
0.277101 0.610463 0.179296
0.282336 0.630066 0.182636
0.284531 0.627593 0.182267
0.284401 0.609893 0.179336
0.286510 0.607605 0.178996
0.288852 0.606880 0.178919
0.291436 0.607633 0.179092
0.293524 0.605412 0.178763
0.293359 0.590472 0.176288
0.296733 0.595925 0.177253
0.302006 0.611305 0.179895
0.304265 0.610043 0.179728
0.307950 0.616121 0.180802
0.313911 0.633259 0.183748
0.313955 0.620696 0.181671
0.313992 0.608673 0.179683
0.316357 0.608011 0.179618
0.318813 0.607772 0.179624
0.321803 0.609902 0.180033
0.324325 0.609881 0.180077
0.326674 0.609109 0.179993
0.327713 0.602888 0.178984
0.328809 0.597133 0.178053
0.333197 0.604766 0.179398
0.336651 0.608419 0.180068
0.339355 0.609021 0.180219
0.342037 0.609502 0.180349
0.345071 0.611249 0.180696
0.347563 0.610944 0.180693
0.350221 0.611219 0.180790
0.353382 0.613234 0.181183
0.356845 0.616199 0.181740
0.363267 0.629062 0.183989
0.362517 0.617594 0.182080
0.363166 0.611068 0.181014
0.365469 0.610063 0.180893
0.367713 0.608885 0.180742
0.370035 0.607965 0.180636
0.372347 0.607026 0.180526
0.375249 0.607876 0.180723
0.378044 0.608363 0.180859
0.380749 0.608549 0.180943
0.383311 0.608299 0.180952
0.385842 0.607942 0.180944
0.388721 0.608552 0.181102
0.390962 0.607362 0.180950
0.393501 0.606996 0.180941
0.396237 0.607144 0.181020
0.397778 0.604109 0.180551
0.397779 0.597123 0.179399
0.400159 0.596418 0.179331
0.405104 0.602209 0.180387
0.408661 0.604349 0.180812
0.412425 0.606919 0.181313
0.415093 0.606729 0.181337
0.417594 0.606119 0.181288
0.418901 0.602666 0.180747
0.425335 0.611275 0.182299
0.430079 0.615731 0.183132
0.435031 0.620525 0.184026
0.439062 0.623094 0.184534
0.434776 0.607068 0.181806
0.437270 0.606305 0.181734
0.439702 0.605397 0.181637
0.443547 0.607509 0.182067
0.446328 0.607289 0.182091
0.448974 0.606759 0.182062
0.445339 0.593224 0.179760
0.453296 0.603663 0.181648
0.457614 0.606477 0.182205
0.460139 0.605614 0.182120
0.463778 0.606934 0.182417
0.468201 0.609718 0.182973
0.470158 0.607651 0.182678
0.472925 0.607139 0.182657
0.478635 0.612146 0.183607
0.487930 0.623679 0.185707
0.482368 0.607560 0.182941
0.484047 0.604946 0.182552
0.486967 0.604589 0.182561
0.490502 0.605294 0.182759
0.493214 0.604497 0.182692
0.495871 0.603582 0.182605
0.499519 0.604357 0.182817
0.502523 0.603976 0.182826
0.506371 0.604987 0.183083
0.509055 0.603996 0.182985
0.512631 0.604456 0.183146
0.515286 0.603366 0.183032
0.519795 0.605250 0.183448
0.517116 0.595581 0.181808
0.523073 0.599717 0.182626
0.526376 0.599579 0.182684
0.528292 0.597265 0.182354
0.531548 0.597010 0.182393
0.535650 0.598006 0.182655
0.538772 0.597481 0.182647
0.545792 0.602710 0.183670
0.553046 0.602902 0.183880
0.556432 0.602610 0.183916
0.559461 0.601790 0.183857
0.562195 0.600549 0.183722
0.564196 0.598293 0.183404
0.564923 0.594312 0.182774
0.565147 0.589710 0.182030
0.568248 0.589082 0.182003
0.583100 0.599321 0.184030
0.586301 0.598751 0.184013
0.588926 0.597453 0.183863
0.592131 0.596941 0.183854
0.600379 0.602895 0.185021
0.602782 0.601370 0.184826
0.607452 0.602745 0.185157
0.600267 0.589398 0.182802
0.014879 0.593730 0.170174
0.012924 0.604992 0.171958
0.014058 0.608525 0.172544
0.015056 0.612596 0.173213
0.017620 0.612630 0.173255
0.020642 0.611486 0.173113
0.023842 0.609877 0.172899
0.026985 0.608437 0.172710
0.029426 0.609004 0.172834
0.030438 0.613769 0.173611
0.030901 0.620331 0.174669
0.032690 0.623167 0.175147
0.040782 0.606994 0.172659
0.043426 0.607109 0.172712
0.046553 0.605724 0.172529
0.049575 0.604629 0.172392
0.055811 0.593072 0.170620
0.060310 0.586834 0.169678
0.059242 0.599060 0.171622
0.059447 0.607362 0.172954
0.059336 0.617049 0.174504
0.059338 0.626671 0.176046
0.065171 0.615557 0.174339
0.069994 0.607704 0.173143
0.072631 0.607725 0.173179
0.075282 0.607651 0.173202
0.077840 0.607904 0.173275
0.080563 0.607472 0.173241
0.083195 0.607352 0.173256
0.089241 0.592980 0.171031
0.093681 0.584773 0.169774
0.092429 0.600879 0.172340
0.093826 0.605903 0.173164
0.096224 0.606569 0.173302
0.099025 0.605347 0.173144
0.102199 0.602239 0.172689
0.103082 0.610111 0.173963
0.105998 0.608168 0.173692
0.107993 0.610798 0.174141
0.109734 0.614854 0.174816
0.110961 0.621852 0.175957
0.112962 0.624897 0.176473
0.118533 0.607735 0.173798
0.120943 0.608064 0.173885
0.123298 0.608694 0.174020
0.126541 0.603809 0.173283
0.129136 0.602727 0.173146
0.134450 0.583574 0.170149
0.135215 0.594158 0.171860
0.136376 0.602624 0.173237
0.138051 0.607897 0.174108
0.140375 0.608601 0.174256
0.142621 0.609933 0.174504
0.145135 0.609141 0.174415
0.147751 0.607383 0.174172
0.150152 0.607351 0.174204
0.152317 0.609447 0.174574
0.154285 0.613607 0.175273
0.155040 0.630367 0.177978
0.157765 0.627897 0.177623
0.162078 0.607420 0.174400
0.164566 0.606128 0.174232
0.166933 0.606164 0.174275
0.169320 0.605921 0.174274
0.171722 0.605405 0.174229
0.174940 0.592459 0.172199
0.177163 0.593705 0.172436
0.178929 0.603169 0.173985
0.180907 0.610263 0.175158
0.183060 0.615049 0.175962
0.184995 0.625949 0.177746
0.187280 0.630357 0.178492
0.190368 0.611951 0.175584
0.192831 0.609299 0.175198
0.195245 0.607693 0.174980
0.197631 0.606729 0.174864
0.199967 0.608570 0.175199
0.202338 0.608766 0.175270
0.204720 0.607317 0.175077
0.207089 0.606155 0.174930
0.209387 0.589600 0.172307
0.211778 0.601427 0.174248
0.214197 0.607062 0.175195
0.216623 0.609985 0.175706
0.218967 0.608077 0.175439
0.221347 0.608087 0.175481
0.223721 0.607819 0.175478
0.226093 0.607517 0.175470
0.228519 0.608550 0.175678
0.230874 0.607775 0.175594
0.233727 0.616895 0.177109
0.236355 0.620369 0.177713
0.239549 0.632622 0.179737
0.240655 0.611023 0.176284
0.242958 0.609445 0.176070
0.245294 0.608464 0.175953
0.247649 0.607807 0.175888
0.250021 0.607396 0.175863
0.251451 0.596397 0.174120
0.253886 0.597220 0.174295
0.257436 0.609270 0.176294
0.260253 0.613065 0.176953
0.262666 0.612751 0.176945
0.264902 0.610871 0.176681
0.267373 0.611120 0.176765
0.270052 0.613016 0.177116
0.272611 0.613801 0.177288
0.275009 0.613288 0.177247
0.277709 0.614992 0.177569
0.282218 0.629325 0.179952
0.284491 0.627419 0.179685
0.284220 0.608803 0.176689
0.286479 0.607518 0.176522
0.288885 0.607205 0.176515
0.291211 0.606400 0.176426
0.293271 0.604066 0.176088
0.293161 0.589483 0.173742
0.297280 0.599100 0.175361
0.300694 0.604383 0.176271
0.304856 0.613310 0.177779
0.306809 0.610447 0.177354
0.314432 0.636038 0.181602
0.314289 0.622503 0.179425
0.314200 0.609841 0.177389
0.316439 0.608579 0.177226
0.318907 0.608390 0.177240
0.321365 0.608148 0.177245
0.324120 0.609188 0.177462
0.326463 0.608411 0.177379
0.327843 0.603633 0.176637
0.328095 0.594416 0.175161
0.332759 0.603224 0.176660
0.336653 0.608640 0.177600
0.339562 0.610038 0.177878
0.342099 0.609960 0.177911
0.344972 0.611110 0.178148
0.347937 0.612533 0.178431
0.349730 0.609701 0.178009
0.352268 0.609560 0.178032
0.355169 0.610663 0.178263
0.363097 0.628738 0.181310
0.365164 0.626657 0.181014
0.362842 0.610254 0.178338
0.365159 0.609313 0.178230
0.367503 0.608469 0.178138
0.369798 0.607481 0.178022
0.372207 0.606853 0.177966
0.375467 0.608792 0.178337
0.378100 0.608788 0.178386
0.380482 0.608031 0.178309
0.383169 0.608152 0.178379
0.386265 0.609413 0.178639
0.388405 0.607937 0.178443
0.391241 0.608403 0.178571
0.393775 0.608014 0.178557
0.395885 0.606475 0.178350
0.398167 0.605411 0.178223
0.397995 0.597958 0.177025
0.400015 0.596323 0.176802
0.406078 0.604959 0.178302
0.409626 0.607047 0.178705
0.411917 0.605954 0.178574
0.415446 0.607879 0.178951
0.417137 0.605309 0.178572
0.420497 0.606743 0.178868
0.423828 0.608043 0.179141
0.429164 0.613920 0.180186
0.433482 0.617295 0.180812
0.440017 0.625557 0.182263
0.434470 0.606690 0.179135
0.436993 0.606002 0.179075
0.439509 0.605285 0.179010
0.442164 0.604854 0.178995
0.446379 0.607710 0.179536
0.448798 0.606706 0.179424
0.445262 0.593372 0.177222
0.451832 0.600985 0.178572
0.457346 0.606255 0.179526
0.459947 0.605551 0.179467
0.461767 0.603288 0.179144
0.465812 0.605385 0.179562
0.469080 0.605899 0.179712
0.471707 0.605146 0.179647
0.476973 0.609347 0.180427
0.486205 0.620809 0.182448
0.486386 0.615299 0.181573
0.484420 0.605962 0.180044
0.487887 0.606584 0.180217
0.490475 0.605586 0.180113
0.493476 0.605301 0.180132
0.496899 0.605718 0.180272
0.499609 0.604856 0.180193
0.502377 0.604075 0.180129
0.505730 0.604256 0.180230
0.508710 0.603771 0.180218
0.511403 0.602785 0.180120
0.515491 0.604055 0.180412
0.517970 0.602661 0.180245
0.516729 0.595315 0.179051
0.523282 0.600405 0.180004
0.525480 0.598539 0.179756
0.529494 0.599484 0.179995
0.534901 0.602504 0.180595
0.537987 0.601911 0.180570
0.540417 0.600311 0.180370
0.547407 0.605475 0.181345
0.553135 0.603406 0.181145
0.556467 0.603034 0.181161
0.559499 0.602219 0.181099
0.561769 0.600325 0.180850
0.563735 0.598027 0.180529
0.565053 0.594864 0.180056
0.567431 0.593202 0.179845
0.571833 0.594303 0.180117
0.577735 0.597387 0.180737
0.591315 0.610599 0.183135
0.587616 0.600859 0.181505
0.590395 0.599744 0.181388
0.602408 0.610571 0.183371
0.602419 0.605884 0.182624
0.599033 0.597008 0.181136
0.602269 0.596626 0.181143
0.607974 0.599353 0.181697
0.009124 0.608913 0.170053
0.014196 0.602164 0.169076
0.016685 0.602104 0.169103
0.019029 0.602510 0.169201
0.021073 0.603807 0.169433
0.024662 0.600983 0.169044
0.026492 0.603019 0.169387
0.028964 0.603361 0.169475
0.031667 0.603101 0.169473
0.034286 0.603120 0.169512
0.036230 0.605160 0.169856
0.038321 0.606852 0.170148
0.040863 0.607252 0.170245
0.043730 0.606677 0.170195
0.047148 0.604360 0.169881
0.049399 0.605698 0.170119
0.056417 0.591602 0.168021
0.059709 0.589312 0.167709
0.058413 0.602356 0.169721
0.060009 0.605958 0.170303
0.059834 0.615845 0.171839
0.059643 0.626132 0.173438
0.064882 0.617138 0.172109
0.070200 0.607476 0.170678
0.072753 0.607797 0.170762
0.075637 0.606825 0.170651
0.078157 0.607201 0.170744
0.080846 0.606880 0.170731
0.083331 0.607336 0.170836
0.089565 0.592162 0.168560
0.093083 0.587838 0.167936
0.091734 0.604443 0.170502
0.093667 0.607163 0.170953
0.096428 0.606195 0.170841
0.099114 0.605487 0.170769
0.101384 0.606682 0.170987
0.104291 0.604780 0.170732
0.105603 0.610715 0.171676
0.108017 0.611256 0.171794
0.110054 0.613761 0.172214
0.110720 0.623761 0.173782
0.113345 0.623386 0.173762
0.118507 0.608479 0.171514
0.120970 0.608505 0.171554
0.123562 0.607713 0.171469
0.126359 0.605551 0.171173
0.129409 0.601593 0.170601
0.134398 0.600357 0.170483
0.135844 0.607026 0.171544
0.138480 0.605416 0.171333
0.140406 0.609034 0.171926
0.142770 0.609438 0.172025
0.145254 0.608858 0.171973
0.147813 0.607555 0.171809
0.150148 0.608095 0.171929
0.152486 0.608624 0.172047
0.154455 0.612713 0.172715
0.155092 0.630644 0.175522
0.158081 0.625358 0.174744
0.162264 0.606145 0.171812
0.164621 0.606301 0.171873
0.167025 0.605865 0.171843
0.169418 0.605495 0.171823
0.171954 0.603034 0.171479
0.175182 0.589724 0.169454
0.177237 0.593466 0.170070
0.178796 0.606550 0.172136
0.181103 0.607604 0.172337
0.183082 0.615778 0.173644
0.185304 0.620035 0.174343
0.187124 0.635897 0.176847
0.190442 0.611279 0.173060
0.192890 0.608976 0.172740
0.195261 0.608985 0.172780
0.197639 0.608641 0.172764
0.200010 0.608657 0.172805
0.202376 0.609222 0.172932
0.204748 0.609603 0.173030
0.207128 0.606033 0.172512
0.209421 0.589075 0.169904
0.211830 0.603385 0.172176
0.214241 0.607758 0.172897
0.216661 0.610339 0.173340
0.219050 0.610376 0.173385
0.221431 0.610092 0.173380
0.223758 0.608126 0.173111
0.226078 0.606434 0.172886
0.228398 0.605061 0.172710
0.231031 0.610692 0.173632
0.233671 0.615393 0.174409
0.236595 0.624324 0.175851
0.239595 0.633092 0.177269
0.240676 0.611112 0.173858
0.242962 0.609309 0.173614
0.245322 0.608676 0.173555
0.247720 0.608579 0.173580
0.250110 0.608351 0.173584
0.251487 0.596728 0.171794
0.253935 0.597695 0.171986
0.258003 0.614991 0.174752
0.260429 0.614757 0.174756
0.262672 0.612811 0.174491
0.265284 0.614276 0.174763
0.267552 0.612672 0.174551
0.270006 0.612682 0.174594
0.272545 0.613336 0.174739
0.275354 0.615968 0.175197
0.277604 0.614302 0.174975
0.281497 0.624324 0.176604
0.284663 0.628695 0.177339
0.284147 0.608423 0.174168
0.286219 0.605967 0.173820
0.288825 0.606951 0.174018
0.291244 0.606729 0.174025
0.293221 0.603909 0.173618
0.292884 0.588040 0.171138
0.297167 0.598614 0.172860
0.302457 0.614049 0.175357
0.304487 0.611527 0.174998
0.307851 0.615950 0.175745
0.313386 0.630988 0.178185
0.314285 0.622665 0.176902
0.314180 0.609929 0.174915
0.316630 0.609652 0.174913
0.319005 0.609025 0.174856
0.321412 0.608547 0.174823
0.323821 0.608082 0.174792
0.326382 0.608265 0.174864
0.327895 0.604051 0.174233
0.327889 0.593774 0.172631
0.332045 0.600569 0.173762
0.336169 0.606953 0.174829
0.339647 0.610583 0.175454
0.342575 0.611980 0.175723
0.345496 0.613279 0.175976
0.348260 0.613940 0.176127
0.350768 0.613640 0.176124
0.352216 0.609613 0.175521
0.355012 0.610357 0.175686
0.362164 0.625822 0.178221
0.364960 0.626229 0.178333
0.362511 0.609413 0.175669
0.364717 0.608136 0.175509
0.366929 0.606900 0.175355
0.369595 0.607098 0.175433
0.372331 0.607484 0.175541
0.374946 0.607475 0.175586
0.377375 0.606890 0.175537
0.380459 0.608222 0.175799
0.382600 0.606772 0.175611
0.385537 0.607608 0.175794
0.388367 0.608099 0.175920
0.390940 0.607841 0.175926
0.392825 0.605700 0.175626
0.395893 0.606767 0.175847
0.398163 0.605673 0.175717
0.398586 0.599773 0.174806
0.399818 0.596088 0.174255
0.406299 0.605798 0.175883
0.409942 0.608120 0.176310
0.412201 0.606937 0.176167
0.414413 0.605647 0.176006
0.417672 0.606884 0.176258
0.420100 0.606088 0.176178
0.423019 0.606440 0.176286
0.426938 0.609069 0.176767
0.436077 0.623524 0.179182
0.440587 0.627150 0.179829
0.434696 0.607493 0.176664
0.437117 0.606574 0.176566
0.439764 0.606140 0.176547
0.443372 0.607749 0.176865
0.445626 0.606418 0.176700
0.448086 0.605522 0.176606
0.445042 0.593220 0.174638
0.452282 0.602215 0.176171
0.457801 0.607487 0.177094
0.459652 0.605275 0.176785
0.461099 0.602283 0.176348
0.464944 0.604007 0.176689
0.469290 0.606625 0.177178
0.472504 0.606988 0.177295
0.475619 0.607120 0.177375
0.484616 0.618183 0.179264
0.485674 0.614320 0.178685
0.484633 0.606680 0.177480
0.487195 0.605668 0.177373
0.490436 0.605851 0.177464
0.492785 0.604417 0.177288
0.495765 0.604077 0.177293
0.499858 0.605624 0.177613
0.502375 0.604410 0.177474
0.505357 0.603968 0.177464
0.508743 0.604169 0.177562
0.511743 0.603689 0.177547
0.514862 0.603374 0.177560
0.517414 0.602111 0.177415
0.517882 0.597504 0.176712
0.522870 0.600102 0.177213
0.527290 0.601721 0.177552
0.530469 0.601345 0.177557
0.536638 0.605520 0.178326
0.539975 0.605281 0.178356
0.542491 0.603780 0.178174
0.547454 0.605909 0.178603
0.553293 0.604001 0.178426
0.556483 0.603425 0.178401
0.559511 0.602604 0.178335
0.561881 0.600850 0.178111
0.563546 0.598130 0.177724
0.565363 0.595659 0.177379
0.571507 0.599141 0.178040
0.572875 0.596081 0.177594
0.577792 0.597835 0.177963
0.583024 0.599974 0.178398
0.583432 0.595733 0.177750
0.591965 0.602164 0.178914
0.602200 0.610685 0.180435
0.601976 0.605698 0.179657
0.601349 0.600315 0.178810
0.602399 0.597163 0.178341
0.606560 0.597970 0.178546
0.009808 0.607625 0.167393
0.014477 0.601896 0.166596
0.016165 0.603935 0.166930
0.019782 0.600970 0.166535
0.022266 0.601056 0.166585
0.023868 0.603625 0.166997
0.027461 0.600803 0.166623
0.029463 0.602430 0.166898
0.031889 0.602943 0.167011
0.034300 0.603558 0.167139
0.036486 0.604887 0.167372
0.038689 0.606237 0.167607
0.041195 0.606731 0.167718
0.044363 0.605210 0.167534
0.046886 0.605676 0.167641
0.049793 0.604934 0.167571
0.056893 0.590536 0.165499
0.058880 0.592537 0.165830
0.058845 0.601401 0.167168
0.058867 0.610371 0.168524
0.060922 0.612562 0.168884
0.058836 0.629526 0.171417
0.064773 0.618054 0.169769
0.070292 0.607647 0.168277
0.072984 0.607440 0.168285
0.075399 0.608253 0.168443
0.078234 0.607418 0.168358
0.080578 0.608475 0.168552
0.083433 0.607447 0.168439
0.089936 0.591126 0.166068
0.092340 0.591514 0.166161
0.091310 0.606821 0.168460
0.094049 0.606002 0.168376
0.097155 0.603424 0.168032
0.099263 0.605334 0.168352
0.101628 0.606067 0.168498
0.103878 0.607348 0.168725
0.106046 0.609058 0.169016
0.107957 0.612131 0.169509
0.110502 0.611971 0.169522
0.110846 0.623666 0.171295
0.113814 0.621373 0.170993
0.118937 0.606608 0.168838
0.121064 0.608541 0.169162
0.123740 0.607228 0.169004
0.126683 0.604132 0.168580
0.129788 0.599761 0.167966
0.135015 0.581011 0.165210
0.133674 0.605923 0.168957
0.135802 0.607950 0.169296
0.138196 0.608131 0.169360
0.141086 0.604524 0.168858
0.143036 0.608005 0.169415
0.145379 0.608509 0.169527
0.147623 0.609855 0.169765
0.150132 0.608938 0.169665
0.152502 0.609184 0.169738
0.154749 0.610606 0.169988
0.154938 0.632980 0.173375
0.158333 0.623464 0.171988
0.162162 0.608067 0.169719
0.164715 0.605998 0.169445
0.167106 0.605684 0.169435
0.169493 0.605363 0.169424
0.172075 0.602201 0.168985
0.175264 0.589381 0.167096
0.177142 0.595972 0.168122
0.178778 0.607908 0.169953
0.180999 0.610709 0.170412
0.183345 0.611386 0.170551
0.185345 0.620346 0.171938
0.187100 0.637962 0.174630
0.190479 0.611667 0.170706
0.192948 0.608616 0.170283
0.195313 0.608769 0.170343
0.197682 0.608776 0.170382
0.200052 0.608757 0.170416
0.202433 0.607622 0.170282
0.204805 0.606451 0.170143
0.207166 0.605949 0.170104
0.209450 0.587537 0.167355
0.211846 0.601319 0.169478
0.214278 0.608061 0.170537
0.216678 0.609503 0.170793
0.219092 0.610903 0.171043
0.221452 0.609793 0.170913
0.223772 0.607728 0.170637
0.226086 0.605966 0.170408
0.228462 0.606055 0.170459
0.230994 0.609434 0.171011
0.233525 0.612131 0.171459
0.236081 0.614779 0.171901
0.240634 0.610236 0.171287
0.242934 0.608711 0.171093
0.245368 0.609145 0.171198
0.247752 0.608851 0.171191
0.250064 0.607709 0.171056
0.252304 0.605849 0.170810
0.254636 0.605130 0.170739
0.257136 0.606149 0.170934
0.259882 0.609439 0.171476
0.262214 0.608574 0.171382
0.264628 0.608482 0.171407
0.267065 0.608558 0.171458
0.269663 0.609930 0.171708
0.272225 0.610882 0.171893
0.274594 0.610278 0.171840
0.276951 0.609607 0.171777
0.279328 0.609090 0.171737
0.283570 0.604718 0.171144
0.285920 0.604163 0.171099
0.288259 0.603553 0.171044
0.291230 0.606776 0.171580
0.293410 0.605150 0.171369
0.292743 0.587375 0.168670
0.297516 0.600694 0.170762
0.302741 0.615736 0.173122
0.304974 0.614249 0.172934
0.307427 0.613943 0.172927
0.313623 0.632353 0.175812
0.314141 0.622140 0.174276
0.313976 0.609132 0.172306
0.316248 0.608054 0.172180
0.318899 0.608730 0.172326
0.321520 0.609221 0.172443
0.323905 0.608646 0.172395
0.326109 0.607300 0.172228
0.328069 0.604980 0.171909
0.327667 0.593069 0.170101
0.331814 0.599849 0.171194
0.336016 0.606565 0.172279
0.339274 0.609363 0.172755
0.342686 0.612620 0.173304
0.346578 0.617518 0.174108
0.349065 0.617097 0.174086
0.350539 0.613053 0.173498
0.352348 0.610308 0.173113
0.357047 0.617615 0.174295
0.361161 0.622663 0.175126
0.363834 0.622720 0.175179
0.361677 0.606920 0.172755
0.364091 0.606360 0.172710
0.366717 0.606470 0.172770
0.369339 0.606546 0.172825
0.372217 0.607384 0.173000
0.374780 0.607225 0.173018
0.376897 0.605721 0.172826
0.379356 0.605245 0.172795
0.382062 0.605480 0.172875
0.384422 0.604697 0.172796
0.387652 0.606357 0.173101
0.390503 0.606901 0.173231
0.392904 0.606181 0.173162
0.395551 0.606120 0.173197
0.397648 0.604581 0.173000
0.397542 0.597317 0.171900
0.398858 0.593886 0.171404
0.405584 0.604259 0.173084
0.409660 0.607692 0.173671
0.412188 0.607185 0.173637
0.415188 0.607818 0.173783
0.418155 0.608330 0.173911
0.419878 0.605847 0.173565
0.422311 0.605066 0.173488
0.427396 0.610417 0.174382
0.434455 0.620119 0.175967
0.442122 0.630919 0.177728
0.435029 0.608529 0.174227
0.437403 0.607500 0.174112
0.440005 0.606961 0.174075
0.443087 0.607437 0.174199
0.445640 0.606749 0.174139
0.447875 0.605382 0.173971
0.444754 0.592919 0.172036
0.451734 0.601395 0.173435
0.458133 0.608466 0.174612
0.460443 0.607165 0.174456
0.461678 0.603737 0.173960
0.466055 0.606489 0.174450
0.471685 0.611565 0.175313
0.473699 0.609586 0.175050
0.477622 0.611219 0.175364
0.484267 0.617857 0.176481
0.485529 0.614378 0.175978
0.483505 0.604945 0.174520
0.487450 0.606452 0.174816
0.489839 0.605110 0.174656
0.492676 0.604551 0.174621
0.495756 0.604389 0.174651
0.498131 0.602975 0.174479
0.502739 0.605364 0.174920
0.505930 0.605268 0.174962
0.508904 0.604773 0.174940
0.512010 0.604467 0.174948
0.515207 0.604277 0.174976
0.518409 0.604058 0.175000
0.517583 0.597362 0.173977
0.524312 0.602726 0.174904
0.529083 0.604871 0.175311
0.534673 0.608203 0.175913
0.538544 0.608792 0.176070
0.541324 0.607677 0.175952
0.543419 0.605524 0.175665
0.547651 0.606556 0.175896
0.553026 0.603970 0.175602
0.555958 0.603027 0.175513
0.559338 0.602717 0.175527
0.562481 0.602055 0.175483
0.564970 0.600477 0.175290
0.562374 0.591887 0.173951
0.571498 0.599491 0.175258
0.574979 0.599293 0.175290
0.580920 0.602395 0.175863
0.578167 0.593887 0.174533
0.578710 0.589883 0.173940
0.580902 0.588115 0.173712
0.601126 0.600404 0.175921
0.603120 0.598438 0.175660
0.607688 0.599745 0.175937
0.010100 0.607337 0.164889
0.014850 0.601384 0.164089
0.017661 0.600460 0.163996
0.020347 0.599922 0.163958
0.022397 0.601161 0.164170
0.024230 0.603095 0.164481
0.027261 0.601818 0.164340
0.028818 0.604713 0.164787
0.031728 0.603872 0.164708
0.033817 0.605430 0.164968
0.036716 0.604683 0.164903
0.039313 0.604845 0.164966
0.041901 0.605060 0.165037
0.044696 0.604659 0.165021
0.046449 0.607528 0.165468
0.050086 0.604476 0.165077
0.057039 0.590531 0.163141
0.058609 0.593903 0.163659
0.059316 0.600293 0.164606
0.058627 0.611688 0.166265
0.058570 0.621271 0.167668
0.058393 0.631619 0.169182
0.067258 0.609550 0.166085
0.070660 0.606785 0.165732
0.073118 0.607436 0.165865
0.075633 0.607859 0.165966
0.077832 0.609498 0.166240
0.080925 0.607591 0.166008
0.083244 0.608727 0.166210
0.090235 0.590374 0.163629
0.092046 0.593265 0.164081
0.092605 0.601697 0.165325
0.094800 0.603175 0.165575
0.097051 0.604420 0.165792
0.099087 0.606683 0.166155
0.101589 0.606784 0.166209
0.104130 0.606653 0.166229
0.106173 0.608964 0.166599
0.108383 0.610489 0.166856
0.110182 0.614214 0.167430
0.110157 0.627967 0.169445
0.114393 0.618730 0.168157
0.118975 0.606955 0.166502
0.121548 0.606270 0.166441
0.124144 0.605359 0.166348
0.126803 0.603961 0.166184
0.129936 0.599388 0.165562
0.135014 0.581586 0.163032
0.133715 0.606243 0.166625
0.135921 0.607723 0.166876
0.138377 0.607427 0.166870
0.140663 0.608365 0.167043
0.143119 0.607994 0.167026
0.145391 0.609066 0.167219
0.148013 0.607206 0.166986
0.150185 0.609145 0.167304
0.152460 0.610270 0.167504
0.154927 0.609604 0.167444
0.155550 0.627534 0.170081
0.158434 0.623162 0.169485
0.162242 0.607940 0.167313
0.164701 0.606955 0.167207
0.167155 0.605880 0.167087
0.169566 0.605228 0.167028
0.172081 0.602995 0.166740
0.175363 0.588762 0.164705
0.177552 0.590209 0.164950
0.178730 0.609764 0.167834
0.181119 0.609455 0.167825
0.183501 0.609226 0.167829
0.185468 0.618703 0.169248
0.187529 0.628048 0.170649
0.190493 0.612753 0.168453
0.192960 0.609863 0.168068
0.195382 0.607787 0.167801
0.197739 0.608087 0.167881
0.200099 0.608414 0.167965
0.202471 0.607932 0.167931
0.204840 0.607228 0.167864
0.207204 0.606503 0.167794
0.209483 0.587212 0.165003
0.211892 0.602677 0.167306
0.214302 0.607419 0.168038
0.216702 0.609127 0.168325
0.219016 0.606313 0.167948
0.221398 0.606847 0.168063
0.223777 0.607071 0.168133
0.226094 0.605516 0.167941
0.228521 0.606910 0.168182
0.230949 0.608002 0.168380
0.233475 0.610764 0.168823
0.236029 0.613520 0.169267
0.240668 0.610530 0.168900
0.243010 0.609615 0.168802
0.245356 0.608834 0.168724
0.247755 0.608766 0.168751
0.250101 0.608061 0.168684
0.252413 0.607000 0.168564
0.254838 0.607237 0.168636
0.257217 0.606949 0.168631
0.259605 0.606739 0.168637
0.262103 0.607544 0.168793
0.264570 0.607980 0.168895
0.267000 0.608039 0.168942
0.269477 0.608453 0.169041
0.272011 0.609257 0.169198
0.274114 0.606710 0.168857
0.276927 0.609507 0.169310
0.278846 0.605776 0.168793
0.279193 0.591529 0.166711
0.283213 0.602462 0.168375
0.286635 0.608857 0.169365
0.289042 0.608545 0.169357
0.291237 0.606942 0.169156
0.293885 0.608066 0.169362
0.296372 0.608194 0.169419
0.298471 0.606138 0.169150
0.301826 0.610952 0.169908
0.304809 0.613540 0.170333
0.307202 0.612953 0.170284
0.313429 0.631558 0.173107
0.313960 0.621433 0.171631
0.314035 0.609595 0.169898
0.316386 0.608876 0.169829
0.318923 0.609025 0.169891
0.321769 0.610520 0.170154
0.323839 0.608551 0.169897
0.326244 0.608075 0.169865
0.327667 0.603499 0.169217
0.327283 0.591694 0.167481
0.332610 0.603249 0.169257
0.336554 0.608890 0.170145
0.339759 0.611450 0.170570
0.342740 0.613044 0.170850
0.347005 0.609818 0.170443
0.349446 0.609369 0.170415
0.352082 0.609604 0.170491
0.354108 0.607701 0.170244
0.356403 0.606762 0.170142
0.356157 0.597357 0.168760
0.361166 0.605483 0.170029
0.364170 0.606856 0.170277
0.367258 0.608431 0.170555
0.370088 0.609129 0.170702
0.372678 0.609048 0.170730
0.376416 0.612423 0.171283
0.378536 0.610855 0.171086
0.380087 0.607643 0.170640
0.382393 0.606691 0.170536
0.385702 0.608596 0.170867
0.388735 0.609652 0.171069
0.390714 0.607745 0.170820
0.393716 0.608655 0.171000
0.396000 0.607589 0.170880
0.397603 0.604728 0.170486
0.399151 0.601782 0.170078
0.399495 0.595791 0.169206
0.405092 0.603280 0.170390
0.408872 0.605993 0.170846
0.412226 0.607555 0.171128
0.417288 0.613218 0.172036
0.418952 0.610529 0.171668
0.421038 0.608883 0.171459
0.422454 0.605684 0.171013
0.426493 0.608614 0.171505
0.435852 0.623607 0.173847
0.441821 0.630540 0.174956
0.435258 0.609330 0.171746
0.437626 0.608282 0.171630
0.440091 0.607440 0.171545
0.442807 0.607131 0.171542
0.445595 0.606949 0.171558
0.448224 0.606410 0.171520
0.444997 0.593713 0.169610
0.449380 0.596871 0.170141
0.458644 0.609803 0.172180
0.458730 0.604043 0.171337
0.463661 0.607960 0.171988
0.467833 0.604434 0.171536
0.473545 0.609603 0.172382
0.476282 0.609002 0.172337
0.480120 0.610435 0.172606
0.484699 0.613166 0.173078
0.480994 0.600677 0.171190
0.485849 0.603878 0.171735
0.489929 0.605590 0.172049
0.492667 0.604854 0.171984
0.496139 0.605379 0.172115
0.498661 0.604211 0.171983
0.501051 0.602805 0.171814
0.504708 0.603531 0.171977
0.509086 0.605406 0.172320
0.511810 0.604466 0.172224
0.515052 0.604353 0.172258
0.518768 0.604970 0.172406
0.517678 0.597845 0.171345
0.524616 0.603541 0.172288
0.529561 0.605957 0.172719
0.535242 0.609426 0.173315
0.536257 0.605628 0.172775
0.540319 0.606497 0.172965
0.543375 0.605803 0.172911
0.544996 0.602958 0.172520
0.552639 0.603756 0.172756
0.555278 0.602397 0.172598
0.557102 0.599880 0.172258
0.562654 0.602652 0.172750
0.565291 0.601278 0.172590
0.561646 0.591227 0.171061
0.569296 0.596832 0.172002
0.572976 0.596934 0.172074
0.574106 0.593607 0.171605
0.579125 0.595516 0.171964
0.578241 0.589620 0.171087
0.582804 0.590949 0.171353
0.593965 0.600794 0.172970
0.603835 0.608823 0.174301
0.600710 0.600243 0.172996
0.603212 0.598920 0.172842
0.605752 0.597702 0.172704
0.012711 0.601092 0.161584
0.015675 0.599690 0.161430
0.017974 0.600085 0.161520
0.020282 0.600546 0.161621
0.022235 0.602052 0.161864
0.024661 0.602370 0.161947
0.026519 0.604335 0.162254
0.029377 0.603594 0.162194
0.031695 0.604424 0.162348
0.034172 0.604857 0.162449
0.037356 0.603253 0.162272
0.039766 0.603947 0.162409
0.042383 0.604053 0.162466
0.044619 0.605360 0.162688
0.047584 0.604422 0.162603
0.050692 0.603001 0.162451
0.059129 0.584179 0.159917
0.058835 0.593615 0.161251
0.058956 0.601974 0.162440
0.057912 0.614618 0.164218
0.058848 0.620789 0.165110
0.056889 0.637474 0.167447
0.067217 0.610178 0.163740
0.070650 0.607302 0.163388
0.073377 0.606944 0.163381
0.075818 0.607634 0.163519
0.078319 0.608077 0.163622
0.081439 0.606023 0.163382
0.083927 0.606428 0.163479
0.090925 0.587973 0.160973
0.091581 0.595733 0.162085
0.093241 0.599420 0.162635
0.094639 0.604393 0.163364
0.096506 0.607412 0.163823
0.098557 0.609668 0.164176
0.101255 0.608897 0.164110
0.104496 0.605377 0.163662
0.106910 0.605793 0.163760
0.108607 0.609868 0.164365
0.111079 0.610019 0.164426
0.109964 0.629572 0.167183
0.114913 0.616390 0.165391
0.119169 0.606390 0.164039
0.121581 0.606628 0.164111
0.124092 0.606231 0.164094
0.126693 0.605213 0.163991
0.129944 0.599905 0.163289
0.135091 0.581631 0.160777
0.134216 0.603397 0.163851
0.136203 0.606319 0.164297
0.138473 0.607333 0.164476
0.140663 0.608984 0.164744
0.142965 0.609838 0.164901
0.145653 0.607561 0.164620
0.148086 0.607234 0.164611
0.150350 0.608348 0.164804
0.152721 0.608530 0.164866
0.154888 0.610675 0.165204
0.155617 0.627597 0.167615
0.158564 0.622530 0.166941
0.162220 0.608930 0.165069
0.164770 0.606909 0.164821
0.167175 0.606432 0.164790
0.169584 0.605819 0.164740
0.172064 0.604078 0.164531
0.175539 0.586943 0.162154
0.177627 0.589885 0.162602
0.178933 0.607161 0.165072
0.181177 0.609400 0.165423
0.183138 0.618086 0.166685
0.185241 0.625311 0.167741
0.187119 0.640274 0.169891
0.190559 0.612194 0.165961
0.193092 0.606868 0.165244
0.195438 0.607338 0.165346
0.197785 0.607957 0.165469
0.200150 0.607765 0.165477
0.202511 0.607920 0.165534
0.204878 0.607370 0.165492
0.207241 0.604174 0.165074
0.209522 0.588396 0.162871
0.211889 0.598514 0.164340
0.214325 0.606730 0.165542
0.216715 0.608134 0.165777
0.219056 0.606771 0.165618
0.221401 0.605980 0.165541
0.223781 0.606402 0.165636
0.226173 0.607005 0.165757
0.228512 0.606154 0.165671
0.231027 0.609229 0.166145
0.233535 0.611550 0.166511
0.236192 0.616124 0.167199
0.240733 0.611309 0.166583
0.243018 0.609551 0.166368
0.245291 0.607808 0.166154
0.247773 0.608878 0.166343
0.250127 0.608277 0.166293
0.252513 0.608060 0.166297
0.254913 0.607987 0.166322
0.257305 0.607815 0.166333
0.259672 0.607381 0.166306
0.262039 0.606957 0.166281
0.264460 0.607028 0.166327
0.266943 0.607589 0.166443
0.269445 0.608238 0.166572
0.272019 0.609376 0.166772
0.274475 0.609514 0.166828
0.276484 0.606346 0.166408
0.278776 0.605372 0.166304
0.279328 0.592545 0.164493
0.282983 0.601045 0.165752
0.286962 0.611070 0.167233
0.289451 0.611207 0.167289
0.291541 0.608906 0.166993
0.294215 0.610138 0.167207
0.296771 0.610608 0.167312
0.299327 0.611029 0.167409
0.301456 0.609108 0.167168
0.304049 0.609703 0.167291
0.307815 0.616265 0.168277
0.313257 0.630872 0.170428
0.313807 0.620864 0.169017
0.314546 0.612206 0.167800
0.316548 0.609814 0.167491
0.319175 0.610360 0.167607
0.321333 0.608767 0.167412
0.323713 0.608197 0.167367
0.325988 0.607180 0.167256
0.327600 0.603416 0.166746
0.327219 0.591632 0.165069
0.332401 0.602613 0.166703
0.336295 0.608081 0.167535
0.340071 0.612867 0.168270
0.343009 0.614280 0.168513
0.347597 0.612200 0.168285
0.349076 0.608272 0.167750
0.351482 0.607722 0.167707
0.353845 0.607023 0.167643
0.356504 0.607337 0.167726
0.355304 0.594740 0.165922
0.359220 0.599336 0.166631
0.363705 0.605594 0.167584
0.367337 0.608921 0.168109
0.370483 0.610607 0.168394
0.373443 0.611647 0.168585
0.376394 0.612607 0.168764
0.378967 0.612388 0.168770
0.380978 0.610510 0.168533
0.383841 0.611128 0.168662
0.385411 0.608024 0.168245
0.387237 0.605708 0.167943
0.390741 0.608078 0.168330
0.394142 0.610078 0.168663
0.398003 0.613234 0.169166
0.398309 0.606860 0.168266
0.399878 0.603942 0.167875
0.402169 0.602941 0.167766
0.404956 0.603203 0.167843
0.409130 0.606909 0.168429
0.414858 0.614338 0.169565
0.417627 0.614324 0.169603
0.419255 0.611534 0.169230
0.420896 0.608824 0.168869
0.423281 0.607903 0.168772
0.426628 0.609207 0.169005
0.436399 0.625149 0.171407
0.442629 0.632663 0.172563
0.435038 0.609126 0.169113
0.437550 0.608402 0.169045
0.440176 0.607914 0.169013
0.442901 0.607621 0.169010
0.445898 0.607884 0.169089
0.448335 0.606934 0.168988
0.445753 0.595567 0.167337
0.448784 0.595939 0.167432
0.456585 0.605932 0.168961
0.460036 0.606953 0.169154
0.465486 0.611870 0.169929
0.468052 0.605157 0.169010
0.470803 0.604667 0.168978
0.474490 0.605923 0.169208
0.477441 0.605739 0.169222
0.476894 0.599060 0.168265
0.481180 0.601321 0.168645
0.485629 0.603790 0.169057
0.489394 0.604945 0.169273
0.496266 0.611524 0.170302
0.498388 0.609621 0.170060
0.500117 0.607042 0.169716
0.501534 0.603945 0.169295
0.504860 0.604105 0.169362
0.508522 0.604782 0.169508
0.511223 0.603815 0.169407
0.514477 0.603734 0.169439
0.518570 0.604975 0.169670
0.519204 0.600609 0.169057
0.524175 0.603170 0.169488
0.526651 0.601725 0.169316
0.531326 0.603685 0.169657
0.530923 0.597774 0.168810
0.534630 0.598193 0.168919
0.541410 0.603186 0.169721
0.544723 0.602887 0.169722
0.554114 0.606243 0.170325
0.554363 0.601418 0.169641
0.559653 0.603860 0.170060
0.562311 0.602513 0.169904
0.565558 0.601996 0.169874
0.562987 0.593424 0.168619
0.566671 0.593579 0.168690
0.569321 0.592322 0.168547
0.574190 0.594067 0.168862
0.580319 0.597454 0.169427
0.584880 0.598716 0.169669
0.589820 0.600458 0.169985
0.600474 0.609569 0.171427
0.613527 0.621605 0.173318
0.601369 0.601441 0.170286
0.603110 0.599155 0.169986
0.606956 0.599566 0.170099
0.012526 0.602011 0.159280
0.016078 0.599085 0.158933
0.018682 0.598665 0.158915
0.020436 0.600579 0.159204
0.023060 0.600264 0.159202
0.024889 0.602191 0.159494
0.027359 0.602445 0.159569
0.030909 0.599715 0.159252
0.032532 0.602474 0.159657
0.034989 0.602929 0.159760
0.037681 0.602740 0.159779
0.040269 0.602887 0.159843
0.042724 0.603463 0.159964
0.045201 0.604006 0.160080
0.047739 0.604384 0.160175
0.051480 0.600928 0.159764
0.059207 0.584360 0.157620
0.058842 0.594034 0.158943
0.059387 0.600973 0.159906
0.058650 0.612550 0.161485
0.059733 0.618166 0.162276
0.058443 0.632424 0.164214
0.067967 0.607923 0.161010
0.070874 0.606938 0.160924
0.073486 0.606999 0.160978
0.076147 0.606834 0.161001
0.078929 0.606157 0.160955
0.081302 0.607048 0.161118
0.084510 0.604518 0.160825
0.091131 0.587574 0.158610
0.091487 0.596608 0.159857
0.092574 0.602809 0.160727
0.094073 0.607406 0.161384
0.096230 0.609167 0.161662
0.098653 0.609718 0.161778
0.101621 0.607647 0.161543
0.105063 0.603101 0.160976
0.107166 0.605012 0.161274
0.108937 0.608684 0.161807
0.110781 0.612117 0.162308
0.115447 0.613952 0.162637
0.119160 0.606975 0.161739
0.121637 0.606833 0.161760
0.124252 0.605810 0.161662
0.127185 0.602691 0.161281
0.130048 0.599785 0.160928
0.134900 0.599275 0.160935
0.136282 0.606340 0.161926
0.138332 0.608962 0.162318
0.141230 0.605274 0.161858
0.143550 0.605839 0.161972
0.145835 0.606692 0.162124
0.148104 0.607713 0.162299
0.150660 0.606240 0.162137
0.152967 0.606911 0.162265
0.154992 0.610353 0.162768
0.155700 0.627476 0.165126
0.158858 0.620122 0.164166
0.162543 0.606036 0.162291
0.164916 0.605924 0.162312
0.167226 0.606567 0.162435
0.169623 0.606104 0.162407
0.172085 0.604620 0.162241
0.175607 0.586743 0.159843
0.177504 0.592784 0.160699
0.179240 0.602678 0.162081
0.181322 0.607615 0.162789
0.183535 0.610744 0.163251
0.185175 0.628102 0.165654
0.187211 0.639190 0.167204
0.190586 0.612812 0.163638
0.193162 0.605998 0.162742
0.195499 0.606577 0.162856
0.197848 0.606892 0.162933
0.200197 0.607374 0.163033
0.202556 0.607319 0.163060
0.204918 0.606774 0.163020
0.207277 0.605467 0.162875
0.209563 0.590104 0.160802
0.211933 0.599826 0.162169
0.214352 0.606427 0.163109
0.216768 0.609421 0.163554
0.219116 0.608148 0.163413
0.221483 0.607944 0.163419
0.223837 0.607358 0.163372
0.226224 0.607740 0.163459
0.228611 0.608008 0.163530
0.231058 0.609462 0.163764
0.233700 0.614403 0.164479
0.236287 0.617500 0.164940
0.239536 0.631006 0.166838
0.240758 0.611479 0.164178
0.242892 0.607572 0.163673
0.245231 0.606867 0.163610
0.247730 0.608225 0.163831
0.250188 0.608910 0.163960
0.252492 0.607754 0.163834
0.254927 0.608096 0.163915
0.257348 0.608226 0.163967
0.259716 0.607795 0.163942
0.262138 0.607882 0.163988
0.264442 0.606891 0.163885
0.266922 0.607442 0.163995
0.269547 0.609114 0.164261
0.271899 0.608491 0.164209
0.274249 0.607865 0.164156
0.276816 0.608854 0.164328
0.278882 0.606208 0.163994
0.279588 0.594415 0.162387
0.282322 0.596770 0.162748
0.286590 0.608799 0.164457
0.289682 0.612763 0.165044
0.292046 0.612078 0.164983
0.293987 0.608935 0.164580
0.296834 0.611106 0.164917
0.299413 0.611655 0.165028
0.301386 0.608879 0.164675
0.303949 0.609332 0.164773
0.307232 0.613438 0.165382
0.311919 0.624348 0.166943
0.314097 0.622455 0.166714
0.314055 0.610043 0.165012
0.316264 0.608672 0.164855
0.318869 0.609150 0.164956
0.321276 0.608702 0.164929
0.323740 0.608505 0.164936
0.326057 0.607669 0.164853
0.327905 0.604889 0.164498
0.328259 0.596086 0.163296
0.331732 0.600133 0.163899
0.335449 0.604962 0.164612
0.339758 0.611873 0.165620
0.344211 0.619048 0.166665
0.348228 0.614720 0.166127
0.349046 0.608387 0.165270
0.351401 0.607662 0.165203
0.353977 0.607708 0.165244
0.356531 0.607658 0.165273
0.355195 0.594602 0.163463
0.358923 0.598592 0.164062
0.363507 0.605191 0.165029
0.367454 0.609534 0.165679
0.370334 0.610385 0.165835
0.372600 0.609299 0.165717
0.374603 0.607432 0.165488
0.377159 0.607250 0.165497
0.381715 0.612922 0.166337
0.383694 0.610954 0.166094
0.386883 0.612468 0.166344
0.386958 0.605180 0.165345
0.390123 0.606626 0.165586
0.392796 0.606667 0.165627
0.395366 0.606407 0.165626
0.398139 0.606671 0.165699
0.400817 0.606656 0.165732
0.403408 0.606396 0.165731
0.406674 0.607832 0.165971
0.409507 0.608122 0.166048
0.411969 0.607461 0.165990
0.416022 0.610678 0.166484
0.417683 0.608020 0.166141
0.419681 0.606207 0.165917
0.423499 0.608690 0.166308
0.426980 0.610300 0.166574
0.431983 0.615326 0.167330
0.434654 0.608549 0.166431
0.437450 0.608463 0.166455
0.440111 0.608056 0.166433
0.443224 0.608600 0.166547
0.445843 0.608052 0.166504
0.448088 0.606701 0.166346
0.446874 0.598174 0.165157
0.449544 0.597779 0.165136
0.456268 0.605580 0.166293
0.460799 0.608773 0.166789
0.464360 0.609938 0.166993
0.468726 0.606754 0.166607
0.471001 0.605342 0.166439
0.473873 0.605054 0.166434
0.477292 0.605758 0.166572
0.473369 0.592841 0.164743
0.481234 0.601718 0.166061
0.485173 0.603267 0.166321
0.489070 0.604670 0.166561
0.501625 0.621304 0.169004
0.499464 0.611811 0.167668
0.498098 0.603860 0.166553
0.500408 0.602329 0.166368
0.505144 0.604895 0.166777
0.508103 0.604393 0.166742
0.510927 0.603637 0.166669
0.514056 0.603359 0.166666
0.518483 0.605150 0.166964
0.521052 0.603885 0.166817
0.523998 0.603207 0.166757
0.527094 0.602739 0.166726
0.530066 0.602051 0.166664
0.531773 0.599398 0.166316
0.532706 0.595590 0.165799
0.537312 0.597349 0.166094
0.550032 0.611115 0.168140
0.555604 0.608747 0.167874
0.556039 0.604167 0.167245
0.558085 0.601956 0.166962
0.562948 0.603748 0.167264
0.563604 0.599600 0.166698
0.564097 0.595294 0.166108
0.566025 0.593029 0.165816
0.567291 0.589902 0.165399
0.574936 0.595409 0.166247
0.581062 0.598788 0.166785
0.587171 0.602084 0.167311
0.594633 0.607095 0.168090
0.603828 0.614269 0.169189
0.617498 0.627067 0.171116
0.601194 0.601576 0.167410
0.603860 0.600457 0.167290
0.605911 0.598622 0.167064
0.015773 0.594105 0.155858
0.016834 0.597555 0.156328
0.018036 0.600805 0.156775
0.021317 0.598663 0.156544
0.023427 0.599707 0.156715
0.025748 0.600267 0.156827
0.028444 0.599861 0.156817
0.031222 0.599266 0.156785
0.034105 0.598399 0.156719
0.036003 0.600413 0.157019
0.038090 0.601968 0.157262
0.040964 0.601235 0.157215
0.043064 0.602863 0.157468
0.045403 0.603816 0.157636
0.047828 0.604544 0.157776
0.051555 0.601123 0.157389
0.059120 0.585066 0.155391
0.057639 0.598458 0.157145
0.059031 0.602610 0.157722
0.059655 0.609540 0.158655
0.060218 0.616922 0.159646
0.058981 0.630974 0.161492
0.068304 0.607145 0.158493
0.071074 0.606649 0.158477
0.073601 0.607016 0.158572
0.076116 0.607408 0.158669
0.078854 0.606907 0.158652
0.081949 0.604910 0.158442
0.084807 0.603759 0.158340
0.092430 0.582586 0.155663
0.090819 0.599922 0.157937
0.092059 0.605523 0.158703
0.094142 0.607570 0.159011
0.096535 0.608252 0.159144
0.099227 0.607518 0.159093
0.102485 0.603991 0.158681
0.105336 0.602248 0.158499
0.107388 0.604389 0.158818
0.108944 0.609145 0.159476
0.110831 0.612357 0.159934
0.116260 0.609934 0.159704
0.119497 0.605559 0.159178
0.121832 0.606207 0.159302
0.124278 0.606180 0.159339
0.126847 0.605335 0.159269
0.130609 0.596700 0.158186
0.135195 0.581999 0.156312
0.134501 0.602569 0.159026
0.136392 0.606125 0.159528
0.138338 0.609493 0.160005
0.141005 0.607569 0.159792
0.143714 0.605131 0.159512
0.145894 0.606815 0.159769
0.148423 0.605610 0.159649
0.150712 0.606412 0.159791
0.152951 0.607711 0.159997
0.155180 0.609190 0.160227
0.155917 0.625972 0.162461
0.159028 0.619019 0.161588
0.162718 0.604789 0.159759
0.165015 0.605494 0.159887
0.167366 0.605576 0.159933
0.169795 0.604600 0.159840
0.172363 0.601488 0.159466
0.175414 0.590529 0.158061
0.177636 0.591487 0.158220
0.179623 0.596789 0.158951
0.181331 0.608445 0.160519
0.183595 0.610548 0.160830
0.185169 0.629450 0.163355
0.187314 0.637812 0.164493
0.190619 0.613235 0.161287
0.193208 0.605926 0.160357
0.195546 0.606404 0.160454
0.197890 0.606820 0.160542
0.200244 0.606835 0.160577
0.202599 0.606851 0.160613
0.204958 0.606292 0.160572
0.207312 0.606032 0.160570
0.209593 0.589534 0.158419
0.211968 0.600147 0.159857
0.214416 0.608806 0.161037
0.216810 0.610081 0.161239
0.219161 0.608896 0.161115
0.221517 0.608240 0.161060
0.223885 0.608064 0.161070
0.226307 0.609366 0.161275
0.228704 0.609725 0.161356
0.231134 0.610651 0.161512
0.233126 0.602847 0.160506
0.236488 0.620789 0.162927
0.239451 0.629337 0.164098
0.240701 0.610398 0.161609
0.242905 0.607578 0.161265
0.245239 0.606836 0.161199
0.247646 0.607053 0.161260
0.250170 0.608614 0.161501
0.252438 0.607092 0.161330
0.254819 0.606896 0.161336
0.257249 0.607193 0.161408
0.259693 0.607566 0.161490
0.262081 0.607370 0.161496
0.264481 0.607261 0.161514
0.266901 0.607300 0.161552
0.269415 0.608085 0.161689
0.271830 0.608006 0.161711
0.274200 0.607566 0.161685
0.276665 0.607830 0.161753
0.278633 0.604536 0.161343
0.279823 0.596119 0.160244
0.282445 0.597689 0.160487
0.286193 0.606366 0.161686
0.289498 0.611741 0.162441
0.291203 0.607118 0.161852
0.293838 0.608191 0.162029
0.296569 0.609735 0.162269
0.299150 0.610340 0.162384
0.301522 0.609767 0.162339
0.304132 0.610454 0.162465
0.307355 0.614232 0.163007
0.312563 0.627746 0.164865
0.314575 0.624968 0.164524
0.313973 0.609824 0.162511
0.316251 0.608789 0.162404
0.318538 0.607823 0.162306
0.321416 0.609511 0.162567
0.323800 0.608959 0.162525
0.326109 0.608085 0.162440
0.327971 0.605363 0.162103
0.327965 0.595078 0.160741
0.331460 0.599241 0.161338
0.335779 0.606466 0.162351
0.339791 0.612212 0.163164
0.343227 0.615538 0.163649
0.348272 0.615102 0.163657
0.349053 0.608632 0.162810
0.351490 0.608197 0.162783
0.353833 0.607435 0.162712
0.356297 0.607090 0.162698
0.354911 0.593880 0.160930
0.358650 0.597923 0.161513
0.364169 0.607562 0.162861
0.367582 0.610177 0.163251
0.370279 0.610452 0.163321
0.373124 0.611152 0.163450
0.374921 0.608636 0.163139
0.377208 0.607638 0.163035
0.380334 0.609117 0.163270
0.384474 0.613460 0.163897
0.385421 0.608554 0.163258
0.388006 0.608371 0.163266
0.389775 0.605914 0.162962
0.391858 0.604362 0.162781
0.394807 0.605160 0.162923
0.397995 0.606548 0.163146
0.400922 0.607191 0.163267
0.404806 0.610260 0.163721
0.408120 0.611773 0.163961
0.409805 0.609135 0.163631
0.412164 0.608208 0.163536
0.414583 0.607430 0.163461
0.416842 0.606259 0.163332
0.420280 0.607901 0.163590
0.423230 0.608329 0.163681
0.428184 0.613365 0.164408
0.432551 0.616904 0.164929
0.434967 0.609525 0.163974
0.437385 0.608596 0.163878
0.439844 0.607752 0.163793
0.442530 0.607386 0.163774
0.445221 0.607009 0.163754
0.446241 0.603102 0.163244
0.447825 0.600426 0.162905
0.449620 0.598214 0.162629
0.455618 0.604545 0.163538
0.458736 0.604925 0.163621
0.462902 0.607337 0.163987
0.468873 0.607329 0.164048
0.470999 0.605627 0.163843
0.473081 0.603845 0.163626
0.476411 0.604402 0.163734
0.474075 0.594433 0.162378
0.480096 0.599929 0.163173
0.483476 0.600494 0.163282
0.490734 0.607942 0.164350
0.502937 0.623933 0.166609
0.504854 0.621542 0.166307
0.498193 0.604323 0.163937
0.500700 0.603128 0.163800
0.505210 0.605309 0.164135
0.508119 0.604723 0.164084
0.510938 0.603961 0.164007
0.513735 0.603139 0.163923
0.518002 0.604677 0.164168
0.520717 0.603656 0.164056
0.523112 0.602111 0.163870
0.526813 0.602608 0.163970
0.530051 0.602339 0.163963
0.532684 0.601110 0.163821
0.531631 0.594266 0.162892
0.536926 0.597083 0.163317
0.542329 0.599970 0.163753
0.562088 0.623918 0.167146
0.555887 0.609486 0.165152
0.555509 0.603728 0.164374
0.558483 0.602850 0.164283
0.561375 0.601852 0.164175
0.563883 0.600318 0.163991
0.562005 0.592723 0.162955
0.566693 0.594275 0.163206
0.570328 0.594357 0.163251
0.573469 0.593771 0.163202
0.579651 0.597247 0.163726
0.586125 0.601047 0.164297
0.591833 0.603784 0.164719
0.600906 0.610841 0.165753
0.602032 0.602995 0.164719
0.603408 0.600241 0.164368
0.604973 0.597807 0.164063
0.010834 0.607243 0.155066
0.015752 0.600804 0.154321
0.018294 0.600556 0.154328
0.019396 0.604229 0.154813
0.020369 0.608425 0.155364
0.024170 0.605034 0.154994
0.026858 0.604707 0.154998
0.031001 0.600314 0.154508
0.031830 0.605349 0.155167
0.033000 0.609587 0.155730
0.035589 0.609790 0.155803
0.037878 0.610931 0.155991
0.040981 0.609646 0.155884
0.044196 0.607988 0.155731
0.046805 0.608194 0.155806
0.050722 0.604215 0.155369
0.054282 0.601265 0.155058
0.057080 0.600735 0.155043
