ply
format ascii 1.0
comment ---
element vertex 1708
property float x
property float y
property float z
element face 0
property list uchar uint vertex_indices
end_header
0.679966 0.589491 -0.332187
0.687866 0.592304 -0.335209
0.693498 0.592299 -0.336727
0.698834 0.591888 -0.338039
0.702803 0.589832 -0.338463
0.706175 0.587067 -0.338504
0.712705 0.587922 -0.340549
0.718028 0.587333 -0.341813
0.724807 0.588334 -0.343978
0.730210 0.587726 -0.345263
0.736857 0.588443 -0.347309
0.744106 0.589744 -0.349706
0.749345 0.588789 -0.350847
0.756389 0.589722 -0.353078
0.763413 0.590556 -0.355277
0.769053 0.589862 -0.356619
0.775245 0.589693 -0.358281
0.782751 0.590815 -0.360712
0.790578 0.592179 -0.363311
0.796748 0.591784 -0.364908
0.803519 0.591933 -0.366843
0.810952 0.592667 -0.369148
0.817028 0.591995 -0.370643
0.824047 0.592183 -0.372671
0.831619 0.592832 -0.375000
0.838918 0.593141 -0.377152
0.844063 0.591353 -0.378058
0.850417 0.590655 -0.379643
0.858481 0.591478 -0.382181
0.864795 0.590618 -0.383714
0.872035 0.590540 -0.385752
0.879815 0.590874 -0.388074
0.888468 0.591902 -0.390859
0.894719 0.590731 -0.392299
0.901980 0.590385 -0.394281
0.909741 0.590400 -0.396521
0.916255 0.589279 -0.398066
0.924614 0.589655 -0.400596
0.932088 0.589208 -0.402631
0.939748 0.588843 -0.404749
0.948757 0.589507 -0.407570
0.953988 0.587022 -0.408366
0.969536 0.592760 -0.414603
0.975256 0.590513 -0.415624
0.983050 0.589852 -0.417724
0.991090 0.589308 -0.419937
0.999339 0.588848 -0.422243
1.008108 0.588702 -0.424800
1.016220 0.587974 -0.427001
1.024884 0.587581 -0.429470
1.035361 0.588436 -0.432844
1.047702 0.590539 -0.437139
1.057654 0.590776 -0.440194
1.065866 0.589667 -0.442352
1.074167 0.588542 -0.444540
1.083332 0.587943 -0.447145
1.090650 0.585975 -0.448814
1.101291 0.586217 -0.452118
1.112391 0.586657 -0.455624
1.125449 0.588289 -0.460066
1.134325 0.587004 -0.462432
1.143910 0.586098 -0.465128
1.151827 0.584014 -0.466997
1.169468 0.588093 -0.473551
1.176610 0.585306 -0.475006
1.186950 0.584462 -0.477986
1.196466 0.583004 -0.480552
1.215582 0.587338 -0.487665
1.222581 0.584101 -0.488988
1.228747 0.580307 -0.489912
1.248848 0.584725 -0.497379
1.263685 0.585824 -0.502327
1.273295 0.583735 -0.504803
1.280464 0.580158 -0.506129
1.301900 0.584594 -0.514049
1.320077 0.586961 -0.520408
1.329807 0.584464 -0.522842
1.338474 0.581300 -0.524771
1.359901 0.584943 -0.532505
1.369235 0.581910 -0.534689
1.388901 0.584235 -0.541532
1.399703 0.581748 -0.544327
1.412678 0.580285 -0.548076
1.428952 0.580379 -0.553272
1.440157 0.577783 -0.556167
1.467086 0.582871 -0.566024
1.480960 0.581312 -0.570026
1.501548 0.582876 -0.576955
1.517393 0.581996 -0.581743
1.537188 0.582847 -0.588219
1.558658 0.584308 -0.595371
1.583137 0.586966 -0.603771
1.601020 0.586438 -0.609242
1.615241 0.584157 -0.613082
1.630217 0.582136 -0.617206
1.654772 0.584200 -0.625392
1.670342 0.582241 -0.629667
1.680302 0.577845 -0.631509
1.685900 0.571636 -0.631472
1.708120 0.572333 -0.638439
1.721208 0.569204 -0.641494
1.758030 0.575591 -0.654458
1.776116 0.574313 -0.659481
1.778762 0.566956 -0.658021
1.770784 0.555621 -0.652147
1.733768 0.533452 -0.634304
1.738559 0.527519 -0.633777
1.771385 0.495623 -0.631934
1.729737 0.474427 -0.612698
0.236255 0.591018 -0.229029
0.238668 0.590849 -0.229818
0.241540 0.593195 -0.231574
0.243949 0.592310 -0.232081
0.246202 0.590218 -0.232113
0.248951 0.590771 -0.233166
0.252236 0.594018 -0.235268
0.255072 0.594344 -0.236228
0.257858 0.594094 -0.236957
0.260703 0.593881 -0.237694
0.263218 0.591709 -0.237650
0.266608 0.593778 -0.239278
0.269212 0.591638 -0.239230
0.271699 0.588793 -0.238890
0.274860 0.589013 -0.239765
0.280237 0.599203 -0.244641
0.283208 0.597923 -0.244914
0.284534 0.589265 -0.242198
0.288732 0.593171 -0.244549
0.294137 0.601832 -0.248836
0.299252 0.608780 -0.252442
0.303479 0.611704 -0.254415
0.306633 0.610120 -0.254546
0.309328 0.606694 -0.253913
0.309302 0.592938 -0.249015
0.313901 0.596864 -0.251390
0.317497 0.596871 -0.252148
0.321361 0.597750 -0.253270
0.324114 0.594608 -0.252718
0.327390 0.593312 -0.252930
0.333738 0.602402 -0.257491
0.338195 0.604808 -0.259267
0.341649 0.603792 -0.259610
0.344261 0.600060 -0.258807
0.347220 0.597502 -0.258495
0.350328 0.595448 -0.258395
0.352537 0.590684 -0.257141
0.356969 0.592690 -0.258768
0.364680 0.604234 -0.264487
0.369113 0.605882 -0.265991
0.370381 0.598431 -0.263590
0.372565 0.593748 -0.262370
0.377760 0.597480 -0.264786
0.382809 0.600668 -0.266981
0.388988 0.606748 -0.270448
0.390615 0.600634 -0.268617
0.394531 0.600603 -0.269439
0.399675 0.603680 -0.271632
0.402890 0.601782 -0.271650
0.406394 0.600626 -0.271998
0.408667 0.596465 -0.271022
0.416165 0.604976 -0.275666
0.422435 0.610301 -0.278922
0.425304 0.607481 -0.278564
0.426844 0.601639 -0.276854
0.428995 0.597314 -0.275818
0.432331 0.595738 -0.276017
0.436668 0.596390 -0.277226
0.440145 0.595108 -0.277570
0.443289 0.593109 -0.277593
0.447080 0.592507 -0.278256
0.450621 0.591359 -0.278676
0.455365 0.592705 -0.280247
0.462103 0.598070 -0.283680
0.463802 0.593060 -0.282347
0.467856 0.592848 -0.283232
0.472791 0.594342 -0.284918
0.477075 0.594494 -0.285993
0.481654 0.595173 -0.287323
0.485894 0.595150 -0.288337
0.489488 0.593874 -0.288770
0.493850 0.594014 -0.289878
0.496946 0.591786 -0.289874
0.500839 0.591018 -0.290566
0.505454 0.591520 -0.291873
0.511307 0.594167 -0.294218
0.514884 0.592720 -0.294616
0.518613 0.591525 -0.295140
0.528551 0.600956 -0.300811
0.534105 0.602701 -0.302793
0.532382 0.592174 -0.298816
0.534409 0.588050 -0.297942
0.540760 0.591053 -0.300561
0.548867 0.596791 -0.304547
0.550806 0.592476 -0.303598
0.555039 0.591844 -0.304472
0.559357 0.591313 -0.305404
0.565823 0.594077 -0.307991
0.570622 0.594178 -0.309266
0.576393 0.595702 -0.311268
0.579462 0.593094 -0.311202
0.579555 0.586074 -0.308902
0.584753 0.586652 -0.310452
0.593541 0.592386 -0.314648
0.596492 0.589559 -0.314492
0.599421 0.586712 -0.314327
0.604094 0.586327 -0.315434
0.611033 0.589058 -0.318168
0.621969 0.597191 -0.323736
0.621635 0.589733 -0.321206
0.622833 0.584446 -0.319797
0.626882 0.583024 -0.320415
0.635302 0.587360 -0.324083
0.640123 0.586845 -0.325209
0.656694 0.601507 -0.334433
0.660405 0.599332 -0.334727
0.663494 0.596357 -0.334597
0.667535 0.594586 -0.335117
0.669020 0.589617 -0.333913
0.673476 0.588352 -0.334715
0.680815 0.590568 -0.337427
0.685142 0.589053 -0.338120
0.690768 0.589064 -0.339660
0.695724 0.588228 -0.340749
0.700133 0.586712 -0.341473
0.704707 0.585362 -0.342298
0.711259 0.586249 -0.344385
0.717322 0.586507 -0.346141
0.724837 0.588334 -0.348801
0.730749 0.588284 -0.350423
0.738776 0.590504 -0.353356
0.743717 0.589257 -0.354334
0.751258 0.590782 -0.356918
0.758101 0.591470 -0.359045
0.764235 0.591334 -0.360717
0.770900 0.591695 -0.362698
0.777227 0.591637 -0.364456
0.784982 0.592986 -0.367061
0.790177 0.591640 -0.368102
0.796921 0.591817 -0.370062
0.803509 0.591772 -0.371911
0.810395 0.591956 -0.373921
0.817241 0.592032 -0.375889
0.824839 0.592768 -0.378280
0.830105 0.591189 -0.379291
0.837619 0.591706 -0.381599
0.844969 0.591990 -0.383792
0.852675 0.592531 -0.386170
0.859102 0.591814 -0.387797
0.864809 0.590384 -0.389002
0.874801 0.592778 -0.392623
0.880202 0.590952 -0.393627
0.886937 0.590267 -0.395372
0.893698 0.589546 -0.397119
0.902089 0.590176 -0.399755
0.909740 0.590085 -0.401962
0.916488 0.589150 -0.403655
0.922745 0.587744 -0.405068
0.934001 0.590449 -0.409192
0.941294 0.589754 -0.411134
0.948658 0.589049 -0.413100
0.957490 0.589462 -0.415840
0.969353 0.592207 -0.420179
0.973623 0.588802 -0.420442
0.980778 0.587639 -0.422234
0.989907 0.587945 -0.425056
0.999401 0.588435 -0.428048
1.006893 0.587305 -0.429971
1.016071 0.587375 -0.432759
1.027403 0.588951 -0.436642
1.038729 0.590398 -0.440493
1.048196 0.590363 -0.443360
1.058054 0.590513 -0.446406
1.065588 0.588901 -0.448247
1.076520 0.589621 -0.451799
1.085399 0.588788 -0.454289
1.091659 0.586059 -0.455444
1.096703 0.582449 -0.455985
1.115164 0.587885 -0.463220
1.125882 0.587912 -0.466551
1.132788 0.585303 -0.467974
1.144876 0.586030 -0.471942
1.155124 0.585433 -0.474980
1.166188 0.585253 -0.478395
1.178270 0.585603 -0.482284
1.188298 0.584535 -0.485149
1.196527 0.582253 -0.487125
1.205701 0.580474 -0.489544
1.223768 0.583992 -0.496212
1.230628 0.580592 -0.497478
1.254669 0.587304 -0.506914
1.266086 0.586343 -0.510295
1.283992 0.589018 -0.516718
1.293275 0.586565 -0.519037
1.304451 0.585096 -0.522228
1.320223 0.586083 -0.527542
1.328756 0.582911 -0.529451
1.339813 0.581044 -0.532516
1.358654 0.583265 -0.539153
1.374669 0.583781 -0.544441
1.389176 0.583343 -0.548997
1.401959 0.581872 -0.552732
1.419265 0.582604 -0.558495
1.431034 0.580365 -0.561704
1.454460 0.583856 -0.570152
1.466730 0.581606 -0.573513
1.485302 0.582333 -0.579670
1.502469 0.582217 -0.585150
1.523451 0.583769 -0.592282
1.541716 0.583863 -0.598149
1.561026 0.584296 -0.604426
1.582960 0.585777 -0.611805
1.600075 0.584911 -0.617004
1.616374 0.583572 -0.621796
1.637616 0.584311 -0.628694
1.655651 0.583518 -0.634136
1.674371 0.582921 -0.639819
1.684153 0.578454 -0.641593
1.703395 0.577940 -0.647398
1.709183 0.571808 -0.647388
1.730674 0.572116 -0.654051
1.762982 0.576666 -0.665239
1.787179 0.577813 -0.672892
1.806272 0.576865 -0.678315
1.740542 0.543184 -0.648066
1.719126 0.512074 -0.631521
1.739938 0.512379 -0.637606
0.235686 0.588072 -0.231068
0.238476 0.590456 -0.232863
0.241035 0.590978 -0.233933
0.243622 0.591316 -0.234929
0.246182 0.591161 -0.235727
0.249048 0.592471 -0.237099
0.251832 0.592953 -0.238141
0.254434 0.592106 -0.238652
0.257454 0.593267 -0.239955
0.260371 0.593544 -0.240901
0.262754 0.590791 -0.240629
0.269878 0.611781 -0.249889
0.272240 0.608129 -0.249259
0.274140 0.602166 -0.247679
0.274605 0.589465 -0.243345
0.279848 0.599124 -0.248073
0.284299 0.604585 -0.251105
0.285318 0.594471 -0.247771
0.288869 0.595539 -0.248998
0.294040 0.603237 -0.252952
0.298593 0.607901 -0.255667
0.300702 0.602307 -0.254144
0.305575 0.607781 -0.257198
0.309960 0.611001 -0.259324
0.309611 0.595924 -0.253820
0.313147 0.595851 -0.254557
0.316808 0.596140 -0.255446
0.320392 0.596049 -0.256175
0.324170 0.596560 -0.257157
0.326686 0.592606 -0.256252
0.332669 0.600500 -0.260365
0.337422 0.603938 -0.262602
0.340715 0.602415 -0.262733
0.343052 0.597816 -0.261547
0.346125 0.595650 -0.261398
0.350218 0.596674 -0.262618
0.353160 0.594107 -0.262296
0.356034 0.591382 -0.261903
0.364081 0.603959 -0.268142
0.367660 0.603125 -0.268586
0.369617 0.597658 -0.267014
0.372754 0.595644 -0.266944
0.376632 0.595705 -0.267784
0.382829 0.602036 -0.271385
0.387796 0.604847 -0.273458
0.391745 0.604855 -0.274305
0.392507 0.596561 -0.271479
0.400445 0.606833 -0.276891
0.403145 0.603574 -0.276306
0.405988 0.600734 -0.275907
0.411734 0.605048 -0.278716
0.417737 0.609829 -0.281753
0.419542 0.604459 -0.280234
0.423615 0.604525 -0.281167
0.426044 0.600757 -0.280370
0.428531 0.597190 -0.279663
0.431001 0.593648 -0.278965
0.435868 0.595491 -0.280731
0.439771 0.595139 -0.281504
0.443872 0.595193 -0.282471
0.448475 0.596280 -0.283924
0.451832 0.594680 -0.284144
0.455505 0.593745 -0.284678
0.460432 0.595371 -0.286412
0.466266 0.598759 -0.288985
0.469541 0.596902 -0.289117
0.473747 0.596895 -0.290123
0.476937 0.594864 -0.290183
0.480769 0.594085 -0.290840
0.484696 0.593466 -0.291580
0.488969 0.593473 -0.292627
0.492917 0.592838 -0.293376
0.498363 0.594930 -0.295443
0.502320 0.594228 -0.296181
0.505065 0.591325 -0.295863
0.511160 0.594392 -0.298441
0.514801 0.593042 -0.298890
0.523935 0.601207 -0.303990
0.526970 0.598685 -0.303893
0.531632 0.598936 -0.305162
0.532770 0.593228 -0.303504
0.532819 0.585800 -0.300985
0.539515 0.589386 -0.303923
0.548688 0.596862 -0.308823
0.550671 0.592604 -0.307891
0.554871 0.591908 -0.308743
0.559765 0.592269 -0.310137
0.563266 0.590414 -0.310423
0.567390 0.589511 -0.311197
0.572627 0.590266 -0.312825
0.577919 0.591041 -0.314477
0.586074 0.596002 -0.318292
0.589440 0.593774 -0.318436
0.593381 0.592381 -0.319015
0.596195 0.589346 -0.318749
0.599453 0.586958 -0.318821
0.609463 0.594077 -0.323868
0.617442 0.598167 -0.327366
0.622305 0.597824 -0.328558
0.622360 0.590879 -0.326269
0.623519 0.585517 -0.324805
0.628675 0.585554 -0.326212
0.636955 0.589670 -0.329816
0.647172 0.596184 -0.334741
0.652907 0.596708 -0.336475
0.654519 0.591881 -0.335326
0.655269 0.586005 -0.333601
0.663590 0.589704 -0.337094
0.668785 0.589388 -0.338417
0.675233 0.590566 -0.340576
0.680712 0.590486 -0.342061
0.684489 0.588300 -0.342391
0.689021 0.587003 -0.343223
0.696091 0.588675 -0.345728
0.701116 0.587866 -0.346861
0.706686 0.587648 -0.348341
0.711882 0.586948 -0.349564
0.717451 0.586628 -0.351017
0.725023 0.588508 -0.353745
0.733466 0.591260 -0.357001
0.738372 0.590004 -0.357976
0.745139 0.590742 -0.360120
0.752136 0.591656 -0.362388
0.758944 0.592287 -0.364515
0.765420 0.592494 -0.366416
0.771225 0.591933 -0.367885
0.779242 0.593614 -0.370702
0.785125 0.593008 -0.372185
0.790903 0.592244 -0.373593
0.797030 0.591783 -0.375200
0.803238 0.591347 -0.376842
0.811432 0.592814 -0.379660
0.818003 0.592601 -0.381484
0.824713 0.592460 -0.383375
0.830281 0.591161 -0.384577
0.836828 0.590749 -0.386345
0.844265 0.591111 -0.388617
0.852271 0.591926 -0.391201
0.859241 0.591702 -0.393164
0.867010 0.592139 -0.395570
0.872676 0.590598 -0.396752
0.879657 0.590191 -0.398674
0.888851 0.591674 -0.401837
0.894227 0.589711 -0.402818
0.902673 0.590373 -0.405517
0.911244 0.591052 -0.408265
0.916535 0.588856 -0.409165
0.924333 0.588733 -0.411448
0.934278 0.590319 -0.414898
0.941503 0.589553 -0.416826
0.954402 0.593348 -0.421841
0.962123 0.592803 -0.423997
0.967471 0.590289 -0.424853
0.976173 0.590393 -0.427513
0.982758 0.588751 -0.429017
0.993536 0.590303 -0.432750
1.000987 0.589183 -0.434686
1.007326 0.587151 -0.436020
1.018362 0.588598 -0.439822
1.027697 0.588656 -0.442702
1.038358 0.589593 -0.446254
1.047322 0.589180 -0.448897
1.056137 0.588569 -0.451445
1.063197 0.586619 -0.453069
1.070930 0.585083 -0.455029
1.087346 0.589537 -0.461420
1.091197 0.585114 -0.461359
1.097367 0.582263 -0.462480
1.116642 0.588222 -0.470218
1.124220 0.586122 -0.472011
1.133562 0.585120 -0.474676
1.139706 0.581935 -0.475728
1.155626 0.585027 -0.481636
1.164386 0.583351 -0.483954
1.175398 0.583017 -0.487369
1.188284 0.583741 -0.491682
1.197649 0.582146 -0.494240
1.210796 0.582772 -0.498626
1.225402 0.584139 -0.503690
1.237006 0.583549 -0.507265
1.249973 0.583645 -0.511473
1.261081 0.582518 -0.514759
1.277209 0.584179 -0.520424
1.292052 0.584929 -0.525434
1.303989 0.583882 -0.529030
1.314616 0.581987 -0.531981
1.329327 0.582241 -0.536834
1.342301 0.581399 -0.540837
1.362262 0.584186 -0.548078
1.372157 0.581415 -0.550575
1.387983 0.581671 -0.555805
1.406741 0.583292 -0.562352
1.420894 0.582367 -0.566727
1.432898 0.580230 -0.570080
1.450404 0.580742 -0.575922
1.468764 0.581513 -0.582106
1.478787 0.578062 -0.584452
1.507115 0.583342 -0.595060
1.522204 0.582068 -0.599613
1.544101 0.583869 -0.607184
1.561540 0.583425 -0.612695
1.579319 0.583011 -0.618307
1.596784 0.582334 -0.623728
1.615740 0.582207 -0.629756
1.639784 0.584190 -0.637971
1.658883 0.583862 -0.643938
1.670432 0.580204 -0.646538
1.692004 0.580757 -0.653476
1.702574 0.576616 -0.655562
1.721051 0.575735 -0.661039
1.741777 0.575699 -0.667426
1.758905 0.574142 -0.672198
1.796917 0.580798 -0.685860
1.795477 0.571832 -0.682563
1.793463 0.562811 -0.679024
1.728398 0.529998 -0.648790
1.728983 0.522600 -0.646460
1.674739 0.487955 -0.618594
1.665254 0.477602 -0.612147
1.696232 0.481930 -0.622539
0.236051 0.591120 -0.235433
0.238015 0.588295 -0.235206
0.240376 0.587732 -0.235864
0.243091 0.589026 -0.237252
0.246201 0.592280 -0.239420
0.248908 0.592748 -0.240480
0.250865 0.588642 -0.239703
0.255711 0.600401 -0.245287
0.259658 0.606477 -0.248605
0.262496 0.606139 -0.249338
0.264605 0.601773 -0.248430
0.268529 0.606499 -0.251206
0.271201 0.604573 -0.251271
0.272919 0.597879 -0.249374
0.274289 0.589596 -0.246801
0.278982 0.596806 -0.250585
0.282832 0.599688 -0.252593
0.286133 0.599817 -0.253461
0.290031 0.602337 -0.255319
0.293301 0.601910 -0.255949
0.296050 0.599174 -0.255609
0.297799 0.592331 -0.253537
0.302625 0.597879 -0.256654
0.310622 0.615442 -0.264845
0.309156 0.595999 -0.257433
0.312719 0.596053 -0.258237
0.316123 0.595421 -0.258749
0.320098 0.596770 -0.260103
0.323462 0.595824 -0.260478
0.326820 0.594808 -0.260822
0.333615 0.605456 -0.266174
0.336835 0.603698 -0.266209
0.339888 0.601392 -0.266005
0.342867 0.598869 -0.265703
0.346029 0.596961 -0.265665
0.349574 0.596257 -0.266150
0.352516 0.593691 -0.265824
0.355531 0.591384 -0.265610
0.360113 0.593743 -0.267443
0.365568 0.598521 -0.270350
0.370140 0.600582 -0.272075
0.374669 0.602419 -0.273712
0.377438 0.599292 -0.273155
0.382657 0.602903 -0.275596
0.386570 0.602864 -0.276423
0.389596 0.600455 -0.276195
0.395000 0.604269 -0.278762
0.398843 0.603939 -0.279480
0.402780 0.603825 -0.280302
0.406061 0.602051 -0.280379
0.409991 0.601887 -0.281191
0.414032 0.601965 -0.282121
0.417940 0.601691 -0.282898
0.421443 0.600442 -0.283235
0.425956 0.601536 -0.284654
0.428561 0.598209 -0.284048
0.431605 0.595927 -0.283924
0.435209 0.594920 -0.284393
0.439550 0.595521 -0.285616
0.443773 0.595819 -0.286708
0.447677 0.595391 -0.287471
0.452124 0.596087 -0.288769
0.454141 0.591668 -0.287671
0.458538 0.592219 -0.288915
0.464911 0.596730 -0.292047
0.470721 0.599965 -0.294595
0.472988 0.596067 -0.293762
0.476584 0.594826 -0.294199
0.480000 0.593230 -0.294471
0.483867 0.592494 -0.295162
0.488321 0.592842 -0.296383
0.493152 0.593844 -0.297934
0.498444 0.595631 -0.299879
0.504262 0.598293 -0.302267
0.509168 0.599211 -0.303820
0.517561 0.606260 -0.308398
0.521910 0.606001 -0.309410
0.525646 0.604643 -0.309888
0.527509 0.600057 -0.308772
0.532203 0.600335 -0.310072
0.535442 0.598121 -0.310139
0.536758 0.592724 -0.308615
0.544579 0.598069 -0.312486
0.550522 0.600203 -0.314767
0.550183 0.592172 -0.311917
0.555026 0.592490 -0.313295
0.559195 0.591697 -0.314118
0.563285 0.590752 -0.314873
0.568087 0.590874 -0.316185
0.571737 0.589196 -0.316580
0.577102 0.590082 -0.318309
0.579103 0.585905 -0.317422
0.581558 0.582435 -0.316901
0.594389 0.594077 -0.324290
0.596115 0.589448 -0.323187
0.602227 0.591111 -0.325398
0.609957 0.594967 -0.328789
0.620625 0.602787 -0.334317
0.625883 0.602931 -0.335795
0.624874 0.594470 -0.332675
0.626833 0.590140 -0.331757
0.632113 0.590285 -0.333250
0.639603 0.593299 -0.336314
0.643758 0.591833 -0.336966
0.649634 0.592574 -0.338833
0.652606 0.589523 -0.338637
0.655922 0.586918 -0.338687
0.662877 0.588883 -0.341270
0.668195 0.588718 -0.342693
0.674709 0.589975 -0.344924
0.680381 0.590126 -0.346558
0.684897 0.588824 -0.347390
0.691509 0.589995 -0.349630
0.696739 0.589454 -0.350921
0.701781 0.588647 -0.352074
0.707670 0.588780 -0.353778
0.713328 0.588589 -0.355314
0.720936 0.590557 -0.358113
0.726564 0.590203 -0.359593
0.733151 0.590864 -0.361682
0.739669 0.591376 -0.363705
0.744583 0.590071 -0.364683
0.751861 0.591282 -0.367157
0.759723 0.593033 -0.369978
0.765377 0.592352 -0.371380
0.771137 0.591733 -0.372837
0.779096 0.593345 -0.375652
0.784781 0.592527 -0.377030
0.790283 0.591477 -0.378285
0.796525 0.591127 -0.379983
0.805107 0.593051 -0.383093
0.812875 0.594068 -0.385681
0.819138 0.593530 -0.387336
0.824650 0.592209 -0.388527
0.830783 0.591441 -0.390081
0.837939 0.591589 -0.392229
0.844045 0.590682 -0.393739
0.851366 0.590850 -0.395952
0.859751 0.591925 -0.398770
0.865453 0.590463 -0.399999
0.871561 0.589325 -0.401456
0.880299 0.590483 -0.404419
0.887740 0.590399 -0.406613
0.895555 0.590569 -0.409002
0.904860 0.591951 -0.412221
0.911458 0.590907 -0.413879
0.918021 0.589776 -0.415506
0.926794 0.590447 -0.418361
0.934605 0.590224 -0.420656
0.939998 0.587934 -0.421590
0.952696 0.591561 -0.426560
0.961726 0.592073 -0.429469
0.969758 0.591694 -0.431808
0.977686 0.591153 -0.434074
0.984892 0.589971 -0.435930
0.991916 0.588584 -0.437676
1.002576 0.589922 -0.441368
1.010473 0.589045 -0.443551
1.017318 0.587305 -0.445157
1.029649 0.589582 -0.449669
1.040474 0.590608 -0.453348
1.046761 0.588214 -0.454610
1.055144 0.587281 -0.456965
1.062619 0.585619 -0.458829
1.078803 0.590029 -0.465214
1.086732 0.588485 -0.467272
1.095265 0.587284 -0.469628
1.104316 0.586354 -0.472236
1.112539 0.584777 -0.474403
1.125382 0.586207 -0.478910
1.134817 0.585242 -0.481656
1.142722 0.583183 -0.483609
1.150517 0.580981 -0.485495
1.164604 0.582730 -0.490527
1.174768 0.581840 -0.493562
1.192983 0.585878 -0.500583
1.206551 0.586830 -0.505249
1.218714 0.586775 -0.509188
1.227957 0.584827 -0.511664
1.235516 0.581786 -0.513299
1.251110 0.583424 -0.518846
1.262352 0.582351 -0.522237
1.280786 0.585312 -0.529088
1.291296 0.583549 -0.532065
1.306308 0.584223 -0.537186
1.316519 0.582066 -0.539971
1.336838 0.585374 -0.547558
1.346298 0.582559 -0.549927
1.361827 0.582922 -0.555153
1.375059 0.581912 -0.559256
1.386835 0.580016 -0.562642
1.407948 0.582847 -0.570376
1.420746 0.581213 -0.574169
1.432339 0.578863 -0.577371
1.448094 0.578497 -0.582473
1.466240 0.579170 -0.588637
1.495674 0.585160 -0.599942
1.508822 0.583048 -0.603695
1.519420 0.579640 -0.606247
1.541081 0.581347 -0.613805
1.567518 0.585076 -0.623463
1.581528 0.582918 -0.627427
1.599850 0.582622 -0.633290
1.620532 0.583255 -0.640155
1.642504 0.584316 -0.647532
1.656371 0.581730 -0.651231
1.671584 0.579674 -0.655483
1.685069 0.576840 -0.658922
1.709061 0.578345 -0.666944
1.724954 0.576398 -0.671333
1.732055 0.570858 -0.671829
1.765213 0.575791 -0.683643
1.781619 0.573919 -0.688082
1.783469 0.566360 -0.686177
1.775180 0.555035 -0.679901
1.716126 0.524669 -0.651886
0.234743 0.583222 -0.235473
0.237221 0.583941 -0.236652
0.241803 0.597376 -0.242920
0.243183 0.590446 -0.241042
0.247585 0.601439 -0.246362
0.250520 0.603118 -0.247943
0.252402 0.598448 -0.246947
0.255423 0.599998 -0.248466
0.259626 0.607579 -0.252444
0.262628 0.608182 -0.253580
0.265625 0.608455 -0.254575
0.266360 0.596990 -0.250729
0.270341 0.601842 -0.253591
0.273737 0.603399 -0.255093
0.275864 0.598642 -0.253968
0.277841 0.593168 -0.252526
0.282108 0.598099 -0.255417
0.287030 0.605521 -0.259360
0.290395 0.605678 -0.260259
0.292639 0.600881 -0.259063
0.294508 0.594552 -0.257202
0.297260 0.591926 -0.256893
0.302464 0.599051 -0.260724
0.309027 0.611069 -0.266657
0.308589 0.595636 -0.260867
0.312057 0.595374 -0.261550
0.315932 0.596512 -0.262832
0.319674 0.597029 -0.263848
0.322846 0.595414 -0.263942
0.325983 0.593651 -0.263967
0.333723 0.607584 -0.270818
0.337005 0.605998 -0.270932
0.340040 0.603592 -0.270686
0.343555 0.602760 -0.271126
0.345478 0.596849 -0.269333
0.348734 0.595245 -0.269428
0.351938 0.593486 -0.269454
0.355083 0.591566 -0.269408
0.359221 0.592605 -0.270678
0.363697 0.594555 -0.272361
0.370045 0.601764 -0.276404
0.374717 0.603977 -0.278231
0.377436 0.600670 -0.277588
0.380249 0.597686 -0.277088
0.385116 0.600281 -0.279108
0.389773 0.602207 -0.280839
0.395251 0.606183 -0.283513
0.399138 0.605924 -0.284274
0.400779 0.599960 -0.282433
0.405020 0.600614 -0.283619
0.408260 0.598764 -0.283663
0.410935 0.595563 -0.283087
0.414024 0.593413 -0.282996
0.419879 0.597795 -0.285937
0.424876 0.600034 -0.287902
0.428656 0.599396 -0.288539
0.431299 0.596176 -0.287975
0.434537 0.594334 -0.288057
0.439164 0.595557 -0.289586
0.443209 0.595454 -0.290501
0.446605 0.593930 -0.290753
0.451968 0.596563 -0.292984
0.459153 0.602892 -0.296994
0.458848 0.593611 -0.293569
0.465752 0.599173 -0.297245
0.469441 0.598111 -0.297760
0.471858 0.594516 -0.297060
0.475067 0.592523 -0.297133
0.479228 0.592379 -0.298110
0.490974 0.606686 -0.306138
0.492623 0.601558 -0.304719
0.497639 0.602789 -0.306414
0.500315 0.599641 -0.305968
0.502810 0.596196 -0.305376
0.514618 0.609541 -0.313103
0.518224 0.607953 -0.313460
0.521239 0.605320 -0.313303
0.524722 0.603517 -0.313563
0.528820 0.602767 -0.314356
0.530990 0.598717 -0.313495
0.532401 0.593441 -0.312012
0.539940 0.598408 -0.315719
0.545002 0.599154 -0.317307
0.548785 0.597764 -0.317816
0.549835 0.591973 -0.316075
0.554550 0.592079 -0.317361
0.558861 0.591502 -0.318305
0.563371 0.591200 -0.319402
0.569011 0.592592 -0.321392
0.573923 0.592802 -0.322782
0.574944 0.587113 -0.321093
0.577228 0.583378 -0.320421
0.584340 0.586770 -0.323513
0.584196 0.579489 -0.320971
0.596387 0.590062 -0.327916
0.604035 0.593896 -0.331316
0.611380 0.597172 -0.334446
0.618471 0.599975 -0.337348
0.624490 0.601188 -0.339416
0.626913 0.597417 -0.338800
0.628170 0.592097 -0.337337
0.633103 0.591749 -0.338585
0.637278 0.590354 -0.339272
0.639852 0.586838 -0.338797
0.647649 0.590110 -0.342078
0.652836 0.589915 -0.343462
0.658348 0.590082 -0.345062
0.661731 0.587519 -0.345150
0.668902 0.589663 -0.347888
0.675158 0.590583 -0.349961
0.679998 0.589704 -0.351034
0.685579 0.589681 -0.352607
0.690294 0.588569 -0.353573
0.696231 0.588867 -0.355361
0.703060 0.590146 -0.357733
0.708492 0.589726 -0.359145
0.714154 0.589519 -0.360696
0.719774 0.589212 -0.362206
0.726695 0.590312 -0.364559
0.732698 0.590312 -0.366287
0.740585 0.592327 -0.369227
0.746329 0.591907 -0.370749
0.752311 0.591690 -0.372411
0.758550 0.591691 -0.374222
0.765024 0.591879 -0.376167
0.770854 0.591329 -0.377686
0.778397 0.592501 -0.380272
0.784242 0.591844 -0.381768
0.788980 0.590012 -0.382561
0.795419 0.589863 -0.384405
0.804313 0.592098 -0.387749
0.810598 0.591650 -0.389459
0.818548 0.592770 -0.392173
0.825323 0.592665 -0.394147
0.831629 0.592045 -0.395820
0.839206 0.592574 -0.398246
0.845190 0.591528 -0.399696
0.851453 0.590692 -0.401302
0.860222 0.592107 -0.404381
0.866231 0.590909 -0.405804
0.870643 0.588223 -0.406280
0.880660 0.590519 -0.410030
0.890247 0.592314 -0.413497
0.898195 0.592567 -0.415986
0.904647 0.591442 -0.417593
0.912098 0.591119 -0.419762
0.920333 0.591389 -0.422361
0.927179 0.590408 -0.424151
0.934054 0.589390 -0.425944
0.939982 0.587533 -0.427192
0.950662 0.589501 -0.431094
0.959482 0.589846 -0.433927
0.968438 0.590208 -0.436814
0.975938 0.589326 -0.438875
0.984654 0.589325 -0.441590
0.991505 0.587792 -0.443263
1.003388 0.590054 -0.447670
1.010660 0.588683 -0.449539
1.018988 0.588039 -0.451967
1.027688 0.587590 -0.454578
1.038713 0.588762 -0.458416
1.048958 0.589244 -0.461810
1.057714 0.588546 -0.464388
1.063724 0.585808 -0.465496
1.072289 0.584823 -0.467944
1.081587 0.584265 -0.470761
1.094582 0.586162 -0.475491
1.105873 0.586748 -0.479299
1.115263 0.585929 -0.482095
1.127243 0.586744 -0.486209
1.133639 0.583743 -0.487424
1.148839 0.586437 -0.493139
1.151990 0.581178 -0.492670
1.171005 0.586041 -0.500264
1.181191 0.585102 -0.503337
1.189652 0.582984 -0.505520
1.205375 0.585269 -0.511333
1.213350 0.582647 -0.513231
1.227310 0.583566 -0.518098
1.242188 0.584879 -0.523386
1.254676 0.584619 -0.527456
1.275038 0.588817 -0.535373
1.285101 0.586851 -0.538181
1.292659 0.583364 -0.539745
1.308725 0.584602 -0.545441
1.319684 0.582831 -0.548618
1.339480 0.585810 -0.556042
1.347240 0.582045 -0.557617
1.366637 0.584459 -0.564761
1.377084 0.581931 -0.567574
1.386168 0.578605 -0.569716
1.410231 0.582947 -0.578945
1.421784 0.580656 -0.582190
1.432607 0.577908 -0.585065
1.447104 0.576908 -0.589637
1.471815 0.580803 -0.598944
1.495262 0.583844 -0.607589
1.507865 0.581476 -0.611130
1.520425 0.579007 -0.614618
1.563671 0.590775 -0.632206
1.575428 0.587609 -0.635201
1.585837 0.583781 -0.637547
1.599989 0.581601 -0.641568
1.623267 0.583395 -0.649688
1.641755 0.582932 -0.655566
1.656588 0.580791 -0.659738
1.667558 0.576953 -0.662127
1.692756 0.579092 -0.670844
1.714694 0.579729 -0.678024
1.723401 0.574843 -0.679257
1.731129 0.569603 -0.680026
1.757045 0.571679 -0.688782
1.771968 0.569304 -0.692625
1.787507 0.567165 -0.696686
1.763308 0.549763 -0.683381
0.237382 0.600939 -0.245741
0.238788 0.594532 -0.244088
0.241590 0.596772 -0.245917
0.245073 0.602729 -0.249259
0.247928 0.604371 -0.250853
0.250871 0.606140 -0.252499
0.250913 0.591054 -0.247227
0.254356 0.595208 -0.249833
0.259113 0.606023 -0.255196
0.261950 0.605883 -0.256042
0.263740 0.600043 -0.254512
0.264636 0.589652 -0.251061
0.269153 0.597422 -0.255177
0.273543 0.603993 -0.258803
0.276280 0.602191 -0.258916
0.278531 0.597980 -0.258000
0.281891 0.598774 -0.259187
0.286262 0.603821 -0.262177
0.290973 0.609942 -0.265632
0.293209 0.605072 -0.264400
0.295188 0.599156 -0.262704
0.297449 0.594473 -0.261518
0.301302 0.596206 -0.263081
0.304820 0.596411 -0.263985
0.308745 0.598043 -0.265505
0.311995 0.596943 -0.265838
0.315207 0.595638 -0.266078
0.318867 0.595899 -0.266997
0.322146 0.594701 -0.267276
0.325510 0.593759 -0.267665
0.330717 0.599075 -0.270808
0.335695 0.603351 -0.273506
0.339686 0.604145 -0.274672
0.343327 0.603713 -0.275298
0.344876 0.596582 -0.272942
0.348178 0.595125 -0.273105
0.351636 0.594144 -0.273480
0.356193 0.596467 -0.275340
0.360419 0.597682 -0.276711
0.365036 0.599956 -0.278568
0.369958 0.602989 -0.280779
0.375459 0.607521 -0.283683
0.376858 0.600471 -0.281332
0.380331 0.599278 -0.281642
0.384327 0.599498 -0.282603
0.389833 0.603676 -0.285387
0.393759 0.603571 -0.286218
0.397839 0.603832 -0.287224
0.400128 0.599516 -0.286119
0.405980 0.604186 -0.289183
0.409570 0.603124 -0.289597
0.410300 0.595129 -0.286781
0.413479 0.593181 -0.286781
0.417496 0.593227 -0.287722
0.423951 0.598905 -0.291324
0.427839 0.598515 -0.292083
0.430844 0.596104 -0.291892
0.433911 0.593862 -0.291784
0.438523 0.595048 -0.293313
0.442290 0.594331 -0.293944
0.445439 0.592276 -0.293941
0.455851 0.605596 -0.301338
0.460456 0.606417 -0.302752
0.464897 0.606842 -0.303987
0.465359 0.599128 -0.301280
0.468161 0.596267 -0.300924
0.470539 0.592602 -0.300177
0.474050 0.591206 -0.300540
0.485152 0.604497 -0.308133
0.487267 0.600246 -0.307123
0.490667 0.598486 -0.307343
0.496828 0.601878 -0.310126
0.501057 0.601586 -0.311096
0.499805 0.591278 -0.307067
0.510361 0.602426 -0.313778
0.514223 0.601362 -0.314391
0.517448 0.599159 -0.314437
0.520760 0.597117 -0.314567
0.522332 0.592089 -0.313184
0.526006 0.590701 -0.313651
0.530674 0.590970 -0.314974
0.537889 0.595418 -0.318456
0.544938 0.599450 -0.321752
0.546631 0.594651 -0.320504
0.549573 0.591916 -0.320322
0.552584 0.589307 -0.320208
0.558813 0.591762 -0.322745
0.563225 0.591295 -0.323769
0.568812 0.592594 -0.325735
0.576156 0.596488 -0.329091
0.578021 0.592016 -0.328033
0.581919 0.590613 -0.328607
0.584572 0.587362 -0.328199
0.589329 0.587193 -0.329445
0.596654 0.590674 -0.332671
0.605439 0.596112 -0.336983
0.609538 0.594781 -0.337655
0.612399 0.591701 -0.337383
0.617475 0.591691 -0.338791
0.622743 0.591893 -0.340329
0.625605 0.588787 -0.340059
0.630002 0.587748 -0.340934
0.635709 0.588410 -0.342764
0.641374 0.588952 -0.344545
0.645745 0.587753 -0.345368
0.653372 0.590702 -0.348534
0.657413 0.588983 -0.349093
0.664049 0.590507 -0.351499
0.669586 0.590580 -0.353101
0.674571 0.589916 -0.354298
0.679848 0.589565 -0.355688
0.685386 0.589482 -0.357248
0.690138 0.588407 -0.358249
0.694036 0.586287 -0.358655
0.703011 0.590092 -0.362529
0.708677 0.589933 -0.364114
0.714201 0.589555 -0.365587
0.720185 0.589649 -0.367356
0.727885 0.591611 -0.370255
0.734013 0.591726 -0.372080
0.742485 0.594360 -0.375436
0.746469 0.591989 -0.375811
0.751934 0.591203 -0.377153
0.757537 0.590518 -0.378572
0.763000 0.589638 -0.379890
0.770892 0.591257 -0.382757
0.778398 0.592380 -0.385349
0.783878 0.591338 -0.386630
0.790181 0.591088 -0.388421
0.796853 0.591151 -0.390428
0.803346 0.590969 -0.392306
0.809685 0.590573 -0.394072
0.819339 0.593354 -0.397875
0.825241 0.592386 -0.399332
0.830785 0.591027 -0.400559
0.838270 0.591465 -0.402960
0.844551 0.590696 -0.404609
0.852413 0.591339 -0.407200
0.859847 0.591505 -0.409513
0.867484 0.591781 -0.411927
0.874631 0.591537 -0.414030
0.883815 0.593040 -0.417321
0.890201 0.591968 -0.418936
0.896524 0.590787 -0.420504
0.904246 0.590764 -0.422876
0.911055 0.589882 -0.424699
0.919340 0.590190 -0.427361
0.926950 0.589845 -0.429615
0.933776 0.588776 -0.431403
0.941237 0.588169 -0.433540
0.946011 0.585304 -0.434138
0.958316 0.588481 -0.438985
0.967421 0.588957 -0.441995
0.974783 0.587960 -0.444006
0.984640 0.588845 -0.447393
0.991059 0.586964 -0.448848
0.997965 0.585404 -0.450564
1.013923 0.590639 -0.457243
1.019281 0.587729 -0.458068
1.022927 0.583513 -0.457958
1.039103 0.588485 -0.464650
1.051276 0.590348 -0.469127
1.057349 0.587688 -0.470289
1.068051 0.588274 -0.473925
1.081153 0.590431 -0.478815
1.087944 0.588046 -0.480317
1.093266 0.584593 -0.481033
1.106521 0.586507 -0.485926
1.114247 0.584546 -0.487884
1.127304 0.586067 -0.492614
1.138485 0.586204 -0.496335
1.145559 0.583545 -0.497901
1.161937 0.586824 -0.504261
1.172234 0.586033 -0.507448
1.183122 0.585510 -0.510916
1.193025 0.584261 -0.513858
1.207138 0.585508 -0.518920
1.214004 0.582183 -0.520277
1.231838 0.585410 -0.527157
1.243503 0.584758 -0.530889
1.257986 0.585646 -0.536005
1.273305 0.586863 -0.541500
1.282397 0.584334 -0.543864
1.296978 0.584844 -0.548928
1.307670 0.583017 -0.552037
1.324756 0.584638 -0.558263
1.338380 0.584180 -0.562749
1.357686 0.586665 -0.569972
1.366710 0.583444 -0.572147
1.379874 0.582342 -0.576308
1.393786 0.581511 -0.580796
1.410078 0.581781 -0.586391
1.423939 0.580660 -0.590778
1.439855 0.580455 -0.596109
1.456584 0.580514 -0.601781
1.477477 0.582468 -0.609376
1.491866 0.581083 -0.613841
1.505215 0.579097 -0.617777
1.527702 0.581333 -0.625952
1.551333 0.583910 -0.634590
1.569391 0.583727 -0.640564
1.584144 0.581921 -0.644951
1.601411 0.581162 -0.650452
1.616116 0.579172 -0.654720
1.641101 0.581603 -0.663648
1.654789 0.578997 -0.667338
1.670283 0.577122 -0.671804
1.703756 0.582742 -0.684358
1.713153 0.578153 -0.685938
1.726089 0.575042 -0.689076
1.748721 0.575846 -0.696509
1.756829 0.570769 -0.697386
1.778183 0.570965 -0.704119
1.813270 0.576433 -0.716857
1.799236 0.562865 -0.707815
1.675865 0.454373 -0.629824
0.244777 0.649579 -0.268763
0.238996 0.596423 -0.248069
0.242110 0.600662 -0.250748
0.245696 0.607264 -0.254406
0.249112 0.612246 -0.257411
0.248914 0.595684 -0.251504
0.250729 0.590991 -0.250479
0.254086 0.594780 -0.252970
0.259487 0.609212 -0.259916
0.262889 0.612107 -0.262057
0.261029 0.587252 -0.252521
0.263275 0.584080 -0.252067
0.267110 0.588689 -0.254893
0.271809 0.597054 -0.259321
0.275019 0.597737 -0.260491
0.277661 0.595515 -0.260416
0.280708 0.595014 -0.261066
0.284742 0.598729 -0.263521
0.289779 0.606463 -0.267714
0.293237 0.606940 -0.268782
0.295295 0.601362 -0.267219
0.297332 0.595758 -0.265627
0.300837 0.596123 -0.266619
0.304837 0.598274 -0.268391
0.308240 0.597901 -0.269056
0.311471 0.596767 -0.269384
0.314727 0.595658 -0.269717
0.318029 0.594647 -0.270088
0.321740 0.595034 -0.271077
0.325233 0.594551 -0.271678
0.329203 0.595639 -0.272978
0.334155 0.599917 -0.275709
0.339357 0.604791 -0.278718
0.343023 0.604434 -0.279388
0.345376 0.599843 -0.278150
0.348013 0.596242 -0.277351
0.351249 0.594556 -0.277414
0.355364 0.595535 -0.278688
0.361301 0.601856 -0.282403
0.366402 0.605475 -0.284903
0.370790 0.606880 -0.286403
0.372909 0.601779 -0.284921
0.376534 0.600996 -0.285421
0.379082 0.597246 -0.284554
0.384592 0.601570 -0.287426
0.386478 0.596099 -0.285763
0.390412 0.596118 -0.286651
0.393518 0.593968 -0.286533
0.397774 0.594767 -0.287798
0.405234 0.603521 -0.292812
0.410032 0.605430 -0.294630
0.413047 0.602921 -0.294374
0.414919 0.597716 -0.292840
0.419212 0.598334 -0.294069
0.423948 0.599936 -0.295778
0.427644 0.599074 -0.296321
0.430331 0.595916 -0.295769
0.433499 0.593886 -0.295761
0.437801 0.594374 -0.296970
0.441599 0.593719 -0.297637
0.444906 0.591993 -0.297791
0.451768 0.597803 -0.301620
0.460610 0.607564 -0.307407
0.463110 0.603956 -0.306681
0.463790 0.596698 -0.304160
0.466915 0.594502 -0.304123
0.470136 0.592513 -0.304191
0.473412 0.590643 -0.304322
0.483165 0.601327 -0.310709
0.486687 0.599791 -0.311036
0.487388 0.592919 -0.308695
0.493610 0.596480 -0.311588
0.501054 0.602174 -0.315579
0.506264 0.603616 -0.317449
0.507435 0.597707 -0.315601
0.509972 0.594325 -0.315031
0.512559 0.591069 -0.314526
0.518350 0.593418 -0.316896
0.521652 0.591390 -0.317032
0.525681 0.590602 -0.317814
0.529606 0.589612 -0.318499
0.540843 0.600748 -0.325501
0.542841 0.596413 -0.324479
0.545649 0.593445 -0.324168
0.548972 0.591324 -0.324305
0.554055 0.592000 -0.325921
0.558791 0.592069 -0.327231
0.562910 0.591132 -0.328019
0.571479 0.597006 -0.332449
0.577674 0.599096 -0.334890
0.583079 0.599906 -0.336663
0.583939 0.593890 -0.334771
0.585204 0.588548 -0.333233
0.590109 0.588570 -0.334602
0.598113 0.593006 -0.338391
0.603690 0.593840 -0.340241
0.605771 0.589679 -0.339362
0.610178 0.588797 -0.340289
0.614156 0.587293 -0.340881
0.619814 0.588063 -0.342746
0.625018 0.588152 -0.344249
0.629393 0.587078 -0.345115
0.634391 0.586801 -0.346439
0.640851 0.588390 -0.348831
0.645221 0.587184 -0.349661
0.651348 0.588206 -0.351769
0.657746 0.589496 -0.354051
0.662666 0.588848 -0.355242
0.668675 0.589514 -0.357204
0.674234 0.589558 -0.358825
0.681547 0.591681 -0.361673
0.686807 0.591232 -0.363045
0.691132 0.589617 -0.363750
0.696876 0.589656 -0.365437
0.702357 0.589330 -0.366927
0.709820 0.591248 -0.369766
0.714920 0.590360 -0.370960
0.722742 0.592522 -0.373995
0.727930 0.591622 -0.375218
0.733881 0.591529 -0.376944
0.741024 0.592690 -0.379451
0.746450 0.591897 -0.380792
0.751180 0.590308 -0.381662
0.757356 0.590233 -0.383476
0.762726 0.589245 -0.384746
0.771034 0.591291 -0.387918
0.778261 0.592112 -0.390359
0.785194 0.592552 -0.392588
0.791349 0.592128 -0.394300
0.796814 0.590954 -0.395558
0.802002 0.589462 -0.396631
0.811711 0.592389 -0.400544
0.818777 0.592613 -0.402764
0.824571 0.591535 -0.404172
0.830270 0.590320 -0.405510
0.836638 0.589693 -0.407251
0.843473 0.589447 -0.409266
0.852170 0.590863 -0.412401
0.859713 0.591120 -0.414807
0.869177 0.593046 -0.418355
0.875163 0.591728 -0.419779
0.882316 0.591403 -0.421892
0.889039 0.590630 -0.423732
0.897207 0.591059 -0.426416
0.904175 0.590364 -0.428369
0.910036 0.588659 -0.429657
0.919680 0.590113 -0.433150
0.927360 0.589811 -0.435470
0.934128 0.588677 -0.437245
0.940984 0.587556 -0.439058
0.949691 0.587880 -0.441921
0.956625 0.586686 -0.443750
0.968525 0.589388 -0.448390
0.978080 0.590098 -0.451666
0.985314 0.588893 -0.453608
0.989776 0.585480 -0.453981
1.005671 0.590790 -0.460744
1.014694 0.590696 -0.463628
1.019877 0.587634 -0.464365
1.033673 0.590923 -0.469850
1.040862 0.589201 -0.471664
1.048052 0.587416 -0.473468
1.057261 0.587018 -0.476360
1.066178 0.586318 -0.479074
1.079567 0.588672 -0.484184
1.086160 0.586146 -0.485601
1.093280 0.583928 -0.487294
1.105484 0.585108 -0.491688
1.120489 0.588036 -0.497538
1.127899 0.585733 -0.499328
1.133322 0.582056 -0.500060
1.155231 0.589077 -0.509440
1.159034 0.584167 -0.509288
1.170378 0.584046 -0.513066
1.187003 0.587130 -0.519555
1.197088 0.585949 -0.522620
1.209127 0.585870 -0.526670
1.218737 0.584186 -0.529446
1.225045 0.580424 -0.530519
1.249160 0.587205 -0.540640
1.253160 0.581873 -0.540498
1.269133 0.583483 -0.546400
1.282242 0.583274 -0.550820
1.296838 0.583776 -0.555953
1.314972 0.586108 -0.562813
1.327652 0.585221 -0.566911
1.339609 0.583817 -0.570620
1.354785 0.584042 -0.575890
1.366100 0.582055 -0.579221
1.384878 0.583908 -0.586180
1.394796 0.580954 -0.588763
1.406500 0.578847 -0.592192
1.430810 0.583053 -0.601696
1.446649 0.582759 -0.607038
1.461003 0.581593 -0.611621
1.477584 0.581405 -0.617231
1.493327 0.580675 -0.622391
1.505047 0.577908 -0.625591
1.538955 0.585522 -0.639270
1.549107 0.581768 -0.641623
1.565095 0.580659 -0.646692
1.582752 0.580208 -0.652492
1.597728 0.578450 -0.656983
1.612043 0.576329 -0.661117
1.633581 0.577298 -0.668551
1.652766 0.577125 -0.674826
1.675468 0.578350 -0.682652
1.694887 0.578072 -0.688896
1.710030 0.575945 -0.693121
1.727743 0.574840 -0.698460
1.748691 0.574991 -0.705203
1.770758 0.575513 -0.712377
1.797307 0.577721 -0.721488
1.806927 0.573246 -0.722923
1.807639 0.565416 -0.720349
0.227574 0.537906 -0.226226
0.240028 0.603491 -0.254206
0.243589 0.610464 -0.258065
0.246763 0.614445 -0.260696
0.247617 0.604124 -0.257364
0.248993 0.596988 -0.255332
0.251109 0.594073 -0.255050
0.255982 0.606333 -0.261154
0.260251 0.614481 -0.265547
0.263807 0.618184 -0.268070
0.261725 0.592088 -0.257909
0.262142 0.579591 -0.253479
0.266988 0.589431 -0.258581
0.272416 0.601441 -0.264638
0.274610 0.597277 -0.263745
0.276975 0.593848 -0.263153
0.279781 0.592364 -0.263389
0.283254 0.593712 -0.264847
0.287389 0.597699 -0.267456
0.292145 0.603991 -0.271077
0.296308 0.607351 -0.273423
0.300428 0.610229 -0.275559
0.305127 0.615157 -0.278603
0.306915 0.608253 -0.276416
0.308416 0.600375 -0.273775
0.310829 0.596133 -0.272730
0.314682 0.597283 -0.274080
0.317946 0.596131 -0.274399
0.321355 0.595438 -0.274921
0.324811 0.594840 -0.275481
0.328336 0.594413 -0.276118
0.334127 0.601570 -0.280187
0.339574 0.607253 -0.283605
0.342632 0.604882 -0.283372
0.343834 0.596597 -0.280435
0.347320 0.595714 -0.280868
0.350334 0.593349 -0.280622
0.354836 0.595527 -0.282463
0.359823 0.599025 -0.284922
0.363505 0.598537 -0.285550
0.366894 0.597173 -0.285775
0.369656 0.594033 -0.285175
0.372982 0.592530 -0.285336
0.376807 0.592404 -0.286143
0.381618 0.594914 -0.288193
0.386085 0.596391 -0.289769
0.389540 0.595136 -0.290067
0.392947 0.593763 -0.290313
0.395855 0.591126 -0.289963
0.402851 0.598775 -0.294507
0.409225 0.604630 -0.298223
0.414246 0.606993 -0.300293
0.417097 0.604050 -0.299831
0.420351 0.602112 -0.299853
0.424299 0.601811 -0.300668
0.427706 0.600242 -0.300878
0.429821 0.595752 -0.299673
0.433366 0.594550 -0.300065
0.437544 0.594739 -0.301144
0.441209 0.593775 -0.301667
0.444278 0.591520 -0.301562
0.452617 0.600459 -0.306979
0.458953 0.604940 -0.310229
0.462236 0.602964 -0.310298
0.463633 0.597158 -0.308465
0.466040 0.593494 -0.307694
0.469269 0.591516 -0.307766
0.473264 0.591055 -0.308605
0.477851 0.591714 -0.310017
0.483150 0.593682 -0.312103
0.490881 0.600165 -0.316498
0.492704 0.595407 -0.315203
0.493729 0.589250 -0.313188
0.499111 0.591149 -0.315292
0.504456 0.592895 -0.317334
0.508426 0.592109 -0.318088
0.512153 0.590871 -0.318616
0.517526 0.592484 -0.320632
0.521408 0.591450 -0.321286
0.524941 0.589805 -0.321628
0.530870 0.592181 -0.324086
0.539475 0.598909 -0.328857
0.538601 0.589858 -0.325327
0.545106 0.592959 -0.328218
0.549438 0.592453 -0.329215
0.553809 0.591974 -0.330236
0.558205 0.591497 -0.331270
0.563539 0.592444 -0.333080
0.569218 0.593852 -0.335155
0.575644 0.596318 -0.337823
0.580976 0.597037 -0.339563
0.582709 0.592337 -0.338361
0.586111 0.590145 -0.338527
0.589655 0.588159 -0.338812
0.597368 0.592170 -0.342413
0.601025 0.590266 -0.342767
0.606260 0.590578 -0.344359
0.611003 0.590147 -0.345552
0.615414 0.589213 -0.346475
0.620970 0.589814 -0.348273
0.625319 0.588719 -0.349130
0.630417 0.588596 -0.350549
0.635005 0.587749 -0.351569
0.640079 0.587504 -0.352945
0.646469 0.588916 -0.355288
0.652366 0.589614 -0.357241
0.656780 0.588360 -0.358083
0.661683 0.587692 -0.359276
0.667816 0.588514 -0.361352
0.675120 0.590706 -0.364253
0.681637 0.591837 -0.366556
0.686734 0.591178 -0.367824
0.691884 0.590540 -0.369119
0.697006 0.589824 -0.370383
0.703829 0.591055 -0.372826
0.710489 0.592015 -0.375131
0.716002 0.591583 -0.376620
0.721723 0.591336 -0.378238
0.727317 0.590892 -0.379755
0.735108 0.592842 -0.382753
0.741447 0.593093 -0.384739
0.746014 0.591348 -0.385514
0.750373 0.589353 -0.386145
0.756494 0.589217 -0.387945
0.765193 0.591747 -0.391435
0.771030 0.591169 -0.393007
0.777843 0.591551 -0.395205
0.784625 0.591828 -0.397363
0.790089 0.590698 -0.398648
0.796402 0.590378 -0.400470
0.804924 0.592198 -0.403692
0.813424 0.593893 -0.406871
0.818559 0.592203 -0.407885
0.824599 0.591354 -0.409465
0.830485 0.590306 -0.410935
0.836536 0.589365 -0.412498
0.843738 0.589452 -0.414763
0.850734 0.589275 -0.416882
0.860774 0.591825 -0.420858
0.866139 0.590002 -0.421935
0.875297 0.591555 -0.425317
0.881475 0.590348 -0.426863
0.889554 0.590766 -0.429546
0.897165 0.590690 -0.431925
0.903925 0.589803 -0.433777
0.912452 0.590368 -0.436667
0.920679 0.590587 -0.439356
0.927588 0.589617 -0.441247
0.934373 0.588481 -0.443053
0.941924 0.587915 -0.445293
0.949533 0.587325 -0.447550
0.959166 0.588289 -0.450962
0.971279 0.591123 -0.455775
0.978109 0.589647 -0.457522
0.983885 0.587290 -0.458655
0.994491 0.588619 -0.462527
1.005410 0.590069 -0.466546
1.015599 0.590844 -0.470124
1.025037 0.590944 -0.473253
1.033406 0.590155 -0.475763
1.040276 0.588185 -0.477423
1.047156 0.586165 -0.479079
1.057561 0.586615 -0.482668
1.066190 0.585692 -0.485257
1.074444 0.584420 -0.487623
1.083676 0.583750 -0.490507
1.091187 0.581804 -0.492438
1.109460 0.587104 -0.500167
1.117253 0.585133 -0.502203
1.124867 0.582973 -0.504131
1.140842 0.586243 -0.510506
1.154879 0.588063 -0.515805
1.164071 0.586608 -0.518502
1.172454 0.584549 -0.520756
1.187599 0.586665 -0.526544
1.196416 0.584674 -0.528982
1.207802 0.584179 -0.532743
1.222979 0.585871 -0.538444
1.239468 0.588182 -0.544781
1.246781 0.584858 -0.546350
1.258178 0.583873 -0.550002
1.266980 0.581269 -0.552304
1.292923 0.588415 -0.563311
1.304426 0.587074 -0.566917
1.321343 0.588654 -0.573230
1.330199 0.585596 -0.575441
1.342891 0.584564 -0.579558
1.353662 0.582376 -0.582683
1.369572 0.582837 -0.588340
1.383078 0.581876 -0.592762
1.398922 0.582011 -0.598303
1.415656 0.582456 -0.604236
1.430909 0.581994 -0.609395
1.448662 0.582654 -0.615732
1.462695 0.581316 -0.620205
1.478389 0.580682 -0.625443
1.493793 0.579786 -0.630494
1.506622 0.577553 -0.634258
1.536502 0.583257 -0.646161
1.558315 0.584943 -0.654109
1.571091 0.582321 -0.657684
1.584975 0.580143 -0.661744
1.598057 0.577546 -0.665379
1.610554 0.574644 -0.668696
1.623812 0.572041 -0.672326
1.660294 0.579374 -0.686763
1.676632 0.577885 -0.691695
1.690913 0.575482 -0.695615
1.710890 0.575409 -0.702116
1.729674 0.574772 -0.707996
1.741392 0.571233 -0.710569
1.755069 0.568496 -0.713994
1.787494 0.573127 -0.725899
1.796738 0.568602 -0.727182
0.240062 0.604133 -0.257720
0.243493 0.610384 -0.261329
0.244484 0.601172 -0.258444
0.246299 0.596968 -0.257644
0.247186 0.587230 -0.254482
0.250932 0.593918 -0.258273
0.254897 0.601242 -0.262349
0.259319 0.610450 -0.267248
0.261277 0.605829 -0.266228
0.262459 0.597086 -0.263413
0.264397 0.592308 -0.262282
0.269503 0.603286 -0.267963
0.272432 0.602909 -0.268729
0.275273 0.601881 -0.269204
0.278144 0.600803 -0.269647
0.279901 0.594451 -0.267766
0.283455 0.596198 -0.269427
0.286485 0.595369 -0.269950
0.291870 0.604497 -0.274876
0.298472 0.618178 -0.281842
0.302815 0.621823 -0.284367
0.305207 0.617277 -0.283235
0.307798 0.613542 -0.282451
0.308554 0.602698 -0.278458
0.310623 0.597132 -0.276812
0.313854 0.595989 -0.277148
0.317400 0.595923 -0.277967
0.320927 0.595685 -0.278705
0.324619 0.595934 -0.279664
0.328885 0.598066 -0.281483
0.334266 0.603802 -0.284958
0.338417 0.605166 -0.286439
0.341616 0.603298 -0.286436
0.342820 0.595036 -0.283474
0.346095 0.593520 -0.283619
0.351009 0.597068 -0.286116
0.355200 0.598239 -0.287516
0.358303 0.596070 -0.287364
0.361654 0.594652 -0.287562
0.365343 0.594210 -0.288218
0.368748 0.592935 -0.288486
0.372129 0.591590 -0.288723
0.376820 0.593855 -0.290671
0.380677 0.593751 -0.291506
0.384791 0.594298 -0.292657
0.388876 0.594717 -0.293755
0.392540 0.593996 -0.294316
0.396043 0.592854 -0.294679
0.401047 0.595480 -0.296861
0.407245 0.600945 -0.300430
0.412757 0.604547 -0.303120
0.415928 0.602388 -0.303028
0.418830 0.599622 -0.302643
0.424176 0.602603 -0.305068
0.427757 0.601405 -0.305462
0.428464 0.593682 -0.302654
0.432602 0.593817 -0.303706
0.437010 0.594511 -0.305046
0.440900 0.594023 -0.305810
0.444007 0.591829 -0.305733
0.448184 0.591927 -0.306803
0.458810 0.605495 -0.314628
0.462925 0.605217 -0.315551
0.463778 0.598249 -0.313113
0.464960 0.592081 -0.311067
0.468913 0.591548 -0.311869
0.472506 0.590280 -0.312306
0.475067 0.587004 -0.311725
0.483588 0.595195 -0.317014
0.490529 0.600155 -0.320682
0.491186 0.593198 -0.318237
0.494082 0.590508 -0.317985
0.499030 0.591588 -0.319691
0.503609 0.591934 -0.321030
0.506932 0.589991 -0.321186
0.511589 0.590403 -0.322581
0.516894 0.591891 -0.324554
0.522076 0.593091 -0.326393
0.526786 0.593416 -0.327784
0.532805 0.595892 -0.330332
0.536844 0.594974 -0.331092
0.537931 0.589177 -0.329251
0.544526 0.592421 -0.332253
0.549335 0.592676 -0.333670
0.553160 0.591314 -0.334227
0.557706 0.591070 -0.335398
