ply
format ascii 1.0
comment ---
element vertex 1708
property float x
property float y
property float z
element face 0
property list uchar uint vertex_indices
end_header
0.828833 0.610867 -0.208784
0.832369 0.611691 -0.209124
0.833900 0.608081 -0.208505
0.835114 0.603838 -0.207749
0.836666 0.600378 -0.207162
0.838722 0.598021 -0.206814
0.842688 0.599642 -0.207333
0.848661 0.605292 -0.208733
0.848240 0.597825 -0.207274
0.848911 0.592681 -0.206320
0.853423 0.595204 -0.207043
0.858965 0.599637 -0.208189
0.862093 0.599269 -0.208285
0.865098 0.598636 -0.208323
0.872309 0.605899 -0.210103
0.873876 0.602450 -0.209525
0.881226 0.609682 -0.211307
0.885701 0.611483 -0.211893
0.889746 0.612436 -0.212294
0.893466 0.612756 -0.212555
0.897124 0.612931 -0.212786
0.902896 0.616744 -0.213828
0.908549 0.620243 -0.214803
0.900660 0.600641 -0.210619
0.900433 0.594322 -0.209395
0.903997 0.594426 -0.209605
0.904507 0.589497 -0.208685
0.906758 0.587498 -0.208420
0.909960 0.587069 -0.208506
0.916133 0.591380 -0.209660
0.919568 0.591296 -0.209823
0.924906 0.594195 -0.210658
0.930331 0.597187 -0.211514
0.934306 0.597927 -0.211858
0.936994 0.596733 -0.211760
0.940174 0.596335 -0.211840
0.979318 0.643882 -0.223015
0.313048 0.608673 -0.191086
0.322292 0.595581 -0.188772
0.324910 0.595995 -0.188948
0.327292 0.596978 -0.189227
0.328899 0.599687 -0.189825
0.331588 0.600202 -0.190015
0.334197 0.600953 -0.190248
0.337701 0.599805 -0.190126
0.339900 0.601568 -0.190544
0.342059 0.603497 -0.190993
0.345721 0.602079 -0.190817
0.349263 0.600925 -0.190689
0.350363 0.605463 -0.191622
0.354468 0.603013 -0.191250
0.358673 0.600262 -0.190820
0.361187 0.601550 -0.191145
0.364130 0.601809 -0.191276
0.367455 0.601108 -0.191227
0.370109 0.602076 -0.191491
0.370572 0.608691 -0.192814
0.372641 0.611283 -0.193383
0.376291 0.609737 -0.193175
0.380462 0.606712 -0.192688
0.384258 0.604589 -0.192371
0.387466 0.603997 -0.192341
0.390532 0.603752 -0.192376
0.393430 0.603941 -0.192493
0.396058 0.604883 -0.192752
0.398586 0.606109 -0.193066
0.402256 0.603911 -0.192733
0.405034 0.604317 -0.192892
0.408101 0.603799 -0.192876
0.410841 0.604249 -0.193044
0.413292 0.605599 -0.193384
0.415740 0.606961 -0.193726
0.419900 0.602654 -0.192992
0.422666 0.602853 -0.193113
0.425323 0.603387 -0.193300
0.427255 0.606435 -0.193965
0.429241 0.609360 -0.194608
0.432783 0.606706 -0.194189
0.435548 0.606783 -0.194290
0.438492 0.606148 -0.194255
0.441657 0.604599 -0.194047
0.444398 0.604605 -0.194135
0.447001 0.605127 -0.194323
0.449460 0.606214 -0.194620
0.452873 0.603341 -0.194158
0.455520 0.603562 -0.194289
0.457855 0.605112 -0.194676
0.460221 0.606553 -0.195044
0.462181 0.609862 -0.195772
0.464119 0.613395 -0.196545
0.467135 0.611936 -0.196357
0.470531 0.608535 -0.195793
0.473481 0.607148 -0.195618
0.476337 0.606144 -0.195516
0.479602 0.602918 -0.194985
0.482269 0.602706 -0.195037
0.484594 0.604330 -0.195445
0.487291 0.603911 -0.195458
0.490022 0.603246 -0.195424
0.492365 0.604840 -0.195829
0.493806 0.612061 -0.197330
0.496037 0.614677 -0.197937
0.498719 0.614480 -0.197996
0.501284 0.615038 -0.198203
0.504081 0.613983 -0.198096
0.507295 0.609824 -0.197382
0.510157 0.607985 -0.197120
0.512865 0.607181 -0.197061
0.515345 0.608136 -0.197347
0.517764 0.609666 -0.197747
0.520773 0.606142 -0.197154
0.523132 0.608224 -0.197663
0.525621 0.609247 -0.197965
0.528093 0.610520 -0.198316
0.530760 0.609857 -0.198287
0.533375 0.609686 -0.198355
0.535357 0.616854 -0.199873
0.537670 0.620768 -0.200750
0.540437 0.619228 -0.200550
0.541983 0.634464 -0.203673
0.546061 0.614136 -0.199749
0.548840 0.611528 -0.199335
0.551594 0.608935 -0.198924
0.554192 0.608818 -0.199004
0.556860 0.607244 -0.198795
0.559482 0.606357 -0.198722
0.562107 0.605207 -0.198596
0.564638 0.606539 -0.198966
0.567177 0.608000 -0.199363
0.569764 0.608117 -0.199491
0.572357 0.608042 -0.199581
0.574948 0.608036 -0.199685
0.577552 0.606963 -0.199575
0.580136 0.607664 -0.199822
0.582729 0.606601 -0.199714
0.585361 0.617538 -0.202020
0.587971 0.613931 -0.201402
0.590542 0.609834 -0.200684
0.593092 0.606691 -0.200157
0.595639 0.604644 -0.199850
0.598147 0.601819 -0.199386
0.600817 0.604809 -0.200097
0.603459 0.606214 -0.200489
0.606083 0.606840 -0.200723
0.608677 0.606669 -0.200796
0.611261 0.606291 -0.200827
0.614648 0.620203 -0.203765
0.617195 0.618178 -0.203464
0.619548 0.613472 -0.202615
0.622252 0.614334 -0.202901
0.624550 0.609693 -0.202064
0.626615 0.602677 -0.200740
0.629203 0.602571 -0.200827
0.632180 0.606792 -0.201800
0.634814 0.606930 -0.201938
0.637487 0.607434 -0.202152
0.640215 0.608393 -0.202459
0.642878 0.608649 -0.202622
0.645423 0.607831 -0.202565
0.648031 0.607590 -0.202627
0.650666 0.607563 -0.202733
0.653214 0.606850 -0.202697
0.655891 0.607134 -0.202867
0.658625 0.607789 -0.203115
0.661214 0.607374 -0.203141
0.663839 0.607207 -0.203219
0.666541 0.607535 -0.203400
0.669535 0.609679 -0.203959
0.673446 0.617325 -0.205662
0.675492 0.613358 -0.204952
0.677818 0.611227 -0.204624
0.680323 0.610202 -0.204526
0.682295 0.606285 -0.203824
0.684665 0.604687 -0.203605
0.687365 0.604870 -0.203758
0.690480 0.607139 -0.204349
0.693195 0.607298 -0.204498
0.695799 0.606887 -0.204529
0.698535 0.607104 -0.204692
0.701522 0.608450 -0.205092
0.705149 0.612609 -0.206086
0.708384 0.614837 -0.206675
0.710283 0.611170 -0.206023
0.711951 0.606658 -0.205191
0.714411 0.605595 -0.205087
0.717496 0.607098 -0.205525
0.719984 0.606140 -0.205444
0.723136 0.607791 -0.205916
0.725175 0.605095 -0.205467
0.728149 0.605991 -0.205780
0.730303 0.603811 -0.205440
0.731779 0.599234 -0.204590
0.735399 0.602419 -0.205392
0.738434 0.603422 -0.205731
0.741229 0.603548 -0.205884
0.743986 0.603514 -0.206004
0.747205 0.604989 -0.206447
0.755339 0.622404 -0.210307
0.755244 0.612849 -0.208392
0.755939 0.606070 -0.207069
0.758791 0.606169 -0.207222
0.761237 0.605002 -0.207105
0.764274 0.605616 -0.207371
0.767403 0.606459 -0.207687
0.770193 0.606255 -0.207779
0.771983 0.603162 -0.207248
0.773166 0.598414 -0.206358
0.774302 0.593648 -0.205463
0.779386 0.599820 -0.206940
0.783422 0.602952 -0.207760
0.786259 0.602766 -0.207862
0.789936 0.604756 -0.208440
0.799379 0.621598 -0.212257
0.796083 0.605393 -0.208871
0.797673 0.601908 -0.208258
0.799764 0.599730 -0.207931
0.801398 0.596454 -0.207363
0.804973 0.597924 -0.207836
0.809218 0.600916 -0.208646
0.812745 0.602105 -0.209062
0.815891 0.602335 -0.209270
0.818627 0.601582 -0.209263
0.821307 0.600682 -0.209224
0.828512 0.609883 -0.211420
0.831671 0.609879 -0.211586
0.833860 0.607720 -0.211275
0.834969 0.603250 -0.210451
0.836096 0.598889 -0.209651
0.840543 0.601560 -0.210416
0.844161 0.602408 -0.210778
0.844807 0.597107 -0.209769
0.850615 0.602335 -0.211113
0.852583 0.599722 -0.210706
0.867048 0.621798 -0.215838
0.868866 0.618641 -0.215317
0.872128 0.618299 -0.215430
0.873642 0.614595 -0.214786
0.888327 0.629008 -0.218428
0.885418 0.617060 -0.215923
0.890188 0.619304 -0.216629
0.896812 0.624793 -0.218075
0.892668 0.611001 -0.215140
0.895842 0.610339 -0.215187
0.899092 0.609795 -0.215262
0.898697 0.602983 -0.213904
0.896170 0.592683 -0.211744
0.899254 0.592009 -0.211783
0.902148 0.591021 -0.211749
0.906154 0.591869 -0.212136
0.909064 0.590912 -0.212107
0.912212 0.590356 -0.212170
0.916543 0.591699 -0.212669
0.920460 0.592368 -0.213011
0.926629 0.596545 -0.214165
0.930492 0.597101 -0.214478
0.934139 0.597340 -0.214715
0.937036 0.596468 -0.214691
0.941688 0.598276 -0.215287
0.952613 0.609392 -0.218052
0.934688 0.577954 -0.210873
0.316860 0.600294 -0.192293
0.324514 0.590380 -0.190513
0.323906 0.597403 -0.191944
0.327468 0.595933 -0.191761
0.329250 0.598258 -0.192298
0.331217 0.600297 -0.192779
0.334346 0.599923 -0.192799
0.336997 0.600634 -0.193024
0.339873 0.600903 -0.193163
0.342806 0.601085 -0.193285
0.345695 0.601401 -0.193430
0.348231 0.602559 -0.193736
0.350463 0.604472 -0.194185
0.350292 0.612131 -0.195736
0.358795 0.599210 -0.193339
0.361265 0.600593 -0.193684
0.363788 0.601877 -0.194010
0.367359 0.600570 -0.193837
0.369898 0.601827 -0.194157
0.370636 0.607730 -0.195372
0.374673 0.605178 -0.194959
0.377610 0.605439 -0.195087
0.381054 0.604317 -0.194948
0.384057 0.604330 -0.195029
0.386993 0.604496 -0.195139
0.389811 0.604966 -0.195307
0.393052 0.604206 -0.195238
0.395765 0.604911 -0.195453
0.398446 0.605696 -0.195684
0.402084 0.603600 -0.195356
0.404885 0.603939 -0.195501
0.407778 0.603964 -0.195585
0.410507 0.604464 -0.195762
0.412728 0.606560 -0.196250
0.414990 0.608552 -0.196719
0.417782 0.608816 -0.196852
0.419028 0.614254 -0.197995
0.421928 0.614170 -0.198063
0.425504 0.611681 -0.197660
0.429672 0.606953 -0.196819
0.432684 0.606193 -0.196755
0.435959 0.604389 -0.196485
0.438687 0.604532 -0.196598
0.441472 0.604421 -0.196661
0.444224 0.604393 -0.196741
0.446899 0.604633 -0.196874
0.449556 0.604918 -0.197017
0.451753 0.607082 -0.197530
0.454408 0.607363 -0.197673
0.457189 0.607071 -0.197704
0.460329 0.605137 -0.197412
0.461525 0.611882 -0.198833
0.464122 0.612414 -0.199029
0.467100 0.611135 -0.198867
0.469830 0.610959 -0.198924
0.472906 0.609023 -0.198633
0.477145 0.601040 -0.197142
0.479697 0.601425 -0.197310
0.481891 0.603723 -0.197859
0.484409 0.604327 -0.198072
0.486972 0.604683 -0.198236
0.489370 0.605989 -0.198590
0.491345 0.609868 -0.199458
0.492083 0.621558 -0.201886
0.495964 0.614020 -0.200479
0.498433 0.615211 -0.200814
0.501052 0.615442 -0.200959
0.504028 0.613177 -0.200604
0.507334 0.608356 -0.199736
0.509921 0.608534 -0.199870
0.512528 0.608557 -0.199973
0.514918 0.610306 -0.200423
0.517683 0.609040 -0.200268
0.520440 0.607716 -0.200101
0.523284 0.605480 -0.199751
0.525521 0.608788 -0.200518
0.528063 0.609352 -0.200733
0.530674 0.609253 -0.200814
0.533060 0.611595 -0.201389
0.535545 0.613030 -0.201782
0.537935 0.615800 -0.202446
0.540462 0.617108 -0.202815
0.543120 0.616770 -0.202851
0.545997 0.613132 -0.202217
0.548740 0.611075 -0.201902
0.551482 0.608689 -0.201521
0.554079 0.608614 -0.201610
0.556599 0.610122 -0.202022
0.559338 0.606931 -0.201475
0.561990 0.605208 -0.201228
0.564598 0.604323 -0.201151
0.567084 0.607315 -0.201868
0.569669 0.607462 -0.202004
0.572260 0.607427 -0.202102
0.574851 0.607377 -0.202198
0.577440 0.607586 -0.202347
0.580028 0.608596 -0.202661
0.582627 0.607907 -0.202626
0.585265 0.618610 -0.204939
0.587904 0.617538 -0.204827
0.590403 0.606559 -0.202670
0.593003 0.606886 -0.202844
0.595546 0.604504 -0.202460
0.598090 0.602934 -0.202242
0.600722 0.604520 -0.202678
0.603369 0.606068 -0.203107
0.605992 0.606634 -0.203333
0.608594 0.606602 -0.203435
0.611177 0.606180 -0.203456
0.614238 0.614305 -0.205257
0.616861 0.613944 -0.205292
0.619367 0.611825 -0.204962
0.621891 0.610237 -0.204741
0.624344 0.607871 -0.204357
0.626509 0.602168 -0.203274
0.629394 0.605569 -0.204096
0.632066 0.606208 -0.204340
0.634738 0.606761 -0.204567
0.637385 0.606985 -0.204725
0.640160 0.608405 -0.205135
0.642808 0.608506 -0.205269
0.645352 0.607664 -0.205204
0.647917 0.607048 -0.205186
0.650527 0.606828 -0.205252
0.653166 0.606834 -0.205366
0.655823 0.606950 -0.205503
0.658524 0.607362 -0.205704
0.661034 0.606387 -0.205611
0.663659 0.606241 -0.205694
0.666631 0.608355 -0.206257
0.669634 0.610521 -0.206832
0.673634 0.618674 -0.208682
0.675619 0.614293 -0.207867
0.677591 0.610061 -0.207082
0.679762 0.607170 -0.206581
0.682022 0.604902 -0.206213
0.684298 0.602828 -0.205886
0.687233 0.604274 -0.206312
0.690269 0.606147 -0.206830
0.693147 0.607123 -0.207157
0.695818 0.607031 -0.207256
0.698552 0.607222 -0.207416
0.701301 0.607455 -0.207586
0.705058 0.612218 -0.208731
0.708346 0.614672 -0.209382
0.710774 0.613289 -0.209206
0.712250 0.607909 -0.208167
0.714138 0.604440 -0.207540
0.716795 0.604215 -0.207613
0.719740 0.605125 -0.207933
0.722731 0.606157 -0.208281
0.725613 0.606714 -0.208526
0.728482 0.607175 -0.208752
0.730591 0.604796 -0.208361
0.730823 0.595692 -0.206504
0.734984 0.600851 -0.207754
0.738333 0.602973 -0.208345
0.741074 0.602912 -0.208460
0.743781 0.602710 -0.208545
0.748175 0.608083 -0.209852
0.755000 0.621169 -0.212853
0.753960 0.608601 -0.210232
0.756423 0.607453 -0.210114
0.759020 0.606733 -0.210091
0.761211 0.604769 -0.209794
0.764332 0.605630 -0.210121
0.767607 0.606896 -0.210538
0.769925 0.605304 -0.210326
0.771833 0.602556 -0.209859
0.774084 0.600827 -0.209616
0.779538 0.608038 -0.211357
0.785467 0.616307 -0.213338
0.787959 0.615015 -0.213199
0.790176 0.612995 -0.212899
0.797346 0.624008 -0.215504
0.798420 0.618892 -0.214517
0.796701 0.606750 -0.211960
0.797186 0.600456 -0.210705
0.799126 0.597916 -0.210289
0.802091 0.597917 -0.210443
0.805109 0.598013 -0.210620
0.809128 0.600455 -0.211326
0.812635 0.601592 -0.211742
0.815693 0.601619 -0.211909
0.818667 0.601413 -0.212026
0.821468 0.600782 -0.212049
0.828805 0.610262 -0.214361
0.831997 0.610319 -0.214546
0.834033 0.607814 -0.214151
0.835514 0.604138 -0.213490
0.837121 0.600777 -0.212900
0.839909 0.599939 -0.212885
0.844113 0.602010 -0.213536
0.847374 0.602062 -0.213729
0.849311 0.599392 -0.213300
0.854181 0.602604 -0.214220
0.858528 0.604665 -0.214880
0.866329 0.613368 -0.217071
0.868972 0.611890 -0.216925
0.872061 0.611253 -0.216973
0.876626 0.613369 -0.217659
0.879431 0.612125 -0.217571
0.881384 0.609306 -0.217118
0.884182 0.608050 -0.217028
0.888005 0.608628 -0.217365
0.891130 0.607923 -0.217404
0.893291 0.605514 -0.217046
0.895228 0.602742 -0.216603
0.894881 0.596091 -0.215250
0.897166 0.594029 -0.214968
0.898961 0.591174 -0.214499
0.902951 0.592009 -0.214894
0.906544 0.592165 -0.215131
0.910264 0.592518 -0.215412
0.914771 0.594125 -0.215989
0.918515 0.594491 -0.216272
0.921086 0.593012 -0.216116
0.926997 0.596776 -0.217201
0.930046 0.596073 -0.217224
0.933512 0.596045 -0.217404
0.938053 0.597671 -0.217974
0.941408 0.597524 -0.218118
0.949683 0.604712 -0.220012
0.921088 0.557669 -0.208923
0.323455 0.586309 -0.192328
0.324616 0.589516 -0.193051
0.325667 0.593093 -0.193845
0.326555 0.597158 -0.194733
0.328891 0.598322 -0.195054
0.331432 0.599132 -0.195303
0.334023 0.599908 -0.195544
0.337006 0.599891 -0.195628
0.339913 0.600083 -0.195751
0.343029 0.599847 -0.195788
0.345517 0.601057 -0.196107
0.348888 0.600291 -0.196037
0.351924 0.600303 -0.196119
0.356669 0.596287 -0.195407
0.349454 0.620798 -0.200311
0.354276 0.616772 -0.199596
0.357806 0.615808 -0.199484
0.360350 0.617267 -0.199849
0.364708 0.614164 -0.199313
0.372804 0.601357 -0.196857
0.375797 0.601441 -0.196948
0.378584 0.602051 -0.197142
0.381480 0.602356 -0.197276
0.384180 0.603175 -0.197512
0.386769 0.604294 -0.197808
0.389588 0.604764 -0.197975
0.392503 0.604939 -0.198085
0.395380 0.605192 -0.198210
0.398492 0.604721 -0.198191
0.401327 0.605022 -0.198326
0.404673 0.603742 -0.198147
0.407370 0.604379 -0.198350
0.409949 0.605363 -0.198623
0.411784 0.608718 -0.199370
0.413116 0.613775 -0.200459
0.416336 0.612726 -0.200329
0.419285 0.612507 -0.200365
0.422112 0.612657 -0.200475
0.426110 0.608684 -0.199761
0.429965 0.605030 -0.199109
0.433169 0.603553 -0.198894
0.435716 0.604397 -0.199145
0.438815 0.603160 -0.198979
0.441407 0.603771 -0.199184
0.444087 0.604027 -0.199319
0.446737 0.604368 -0.199472
0.449493 0.604255 -0.199534
0.451866 0.605689 -0.199908
0.454415 0.606401 -0.200138
0.457203 0.606070 -0.200158
0.459967 0.605794 -0.200190
0.461951 0.608994 -0.200925
0.464383 0.610234 -0.201265
0.466904 0.611078 -0.201526
0.469738 0.610417 -0.201483
0.472654 0.609276 -0.201342
0.475682 0.607484 -0.201069
0.479320 0.602387 -0.200125
0.481647 0.604007 -0.200546
0.484150 0.604714 -0.200782
0.486654 0.605429 -0.201020
0.489010 0.607007 -0.201436
0.491141 0.610000 -0.202141
0.493214 0.613491 -0.202950
0.495818 0.613813 -0.203112
0.498625 0.612809 -0.203003
0.501359 0.612209 -0.202978
0.504400 0.609406 -0.202500
0.507478 0.606120 -0.201923
0.509926 0.607277 -0.202259
0.511955 0.611739 -0.203274
0.514956 0.608718 -0.202752
0.517710 0.607503 -0.202601
0.520338 0.607265 -0.202651
0.523085 0.605914 -0.202472
0.525771 0.604996 -0.202383
0.528299 0.605556 -0.202599
0.530783 0.606604 -0.202916
0.533222 0.608250 -0.203359
0.535704 0.609568 -0.203734
0.538281 0.609863 -0.203897
0.540838 0.610444 -0.204121
0.543507 0.609547 -0.204038
0.546109 0.609511 -0.204134
0.548757 0.608736 -0.204077
0.551328 0.609157 -0.204269
0.553975 0.608227 -0.204180
0.556484 0.609959 -0.204646
0.559091 0.609824 -0.204723
0.561751 0.608315 -0.204513
0.564505 0.603674 -0.203647
0.567002 0.606227 -0.204287
0.569584 0.606367 -0.204422
0.572171 0.606369 -0.204529
0.574750 0.606985 -0.204765
0.577340 0.607106 -0.204897
0.579924 0.608506 -0.205299
0.582524 0.609705 -0.205659
0.585164 0.618791 -0.207684
0.587772 0.613521 -0.206681
0.590362 0.610676 -0.206189
0.592883 0.605367 -0.205176
0.595470 0.605168 -0.205242
0.598012 0.603329 -0.204961
0.600641 0.604709 -0.205362
0.603265 0.605540 -0.205647
0.605866 0.605605 -0.205770
0.608501 0.606350 -0.206038
0.611074 0.605704 -0.206010
0.614346 0.617619 -0.208659
0.616692 0.612411 -0.207661
0.619170 0.609938 -0.207245
0.621825 0.610295 -0.207432
0.624305 0.608261 -0.207109
0.626449 0.602246 -0.205933
0.629212 0.604184 -0.206459
0.631991 0.606062 -0.206973
0.634665 0.606628 -0.207206
0.637366 0.607385 -0.207481
0.639917 0.606605 -0.207426
0.642747 0.608438 -0.207934
0.645324 0.607871 -0.207925
0.647845 0.606862 -0.207821
0.650504 0.607025 -0.207970
0.653183 0.607316 -0.208147
0.655770 0.606880 -0.208167
0.658453 0.607143 -0.208338
0.660877 0.605564 -0.208111
0.663411 0.604806 -0.208062
0.666523 0.607875 -0.208843
0.669573 0.610342 -0.209496
0.674004 0.621147 -0.211965
0.675997 0.616721 -0.211120
0.677277 0.608385 -0.209421
0.679247 0.604395 -0.208668
0.681598 0.602694 -0.208413
0.684043 0.601561 -0.208283
0.686822 0.602218 -0.208544
0.690260 0.606174 -0.209530
0.693018 0.606545 -0.209731
0.696021 0.608061 -0.210184
0.698621 0.607587 -0.210200
0.701106 0.606580 -0.210100
0.704550 0.609934 -0.210961
0.708456 0.615162 -0.212236
0.711006 0.614284 -0.212168
0.713665 0.613880 -0.212203
0.713471 0.601650 -0.209624
0.716885 0.604546 -0.210389
0.720560 0.608345 -0.211356
0.723413 0.608766 -0.211576
0.726265 0.609144 -0.211787
0.728749 0.608104 -0.211684
0.730789 0.605445 -0.211221
0.735050 0.610896 -0.212565
0.740712 0.621103 -0.214973
0.745331 0.627286 -0.216488
0.747856 0.626049 -0.216348
0.748995 0.620161 -0.215168
0.752920 0.623671 -0.216092
0.753847 0.617279 -0.214797
0.752980 0.605320 -0.212251
0.755967 0.605870 -0.212511
0.758641 0.605406 -0.212544
0.761158 0.604448 -0.212467
0.765692 0.609548 -0.213757
0.767516 0.606454 -0.213201
0.769515 0.603932 -0.212773
0.772322 0.603774 -0.212881
0.776178 0.606554 -0.213655
0.781584 0.613532 -0.215385
0.788789 0.625210 -0.218188
0.792966 0.628334 -0.219053
0.793119 0.620617 -0.217452
0.794907 0.617378 -0.216871
0.796207 0.612934 -0.216013
0.797253 0.607928 -0.215027
0.798865 0.604451 -0.214389
0.800758 0.601730 -0.213924
0.802522 0.598732 -0.213395
0.804976 0.597443 -0.213259
0.809666 0.601486 -0.214351
0.812705 0.601499 -0.214518
0.815923 0.601889 -0.214774
0.818897 0.601671 -0.214893
0.822125 0.601995 -0.215138
0.829960 0.612559 -0.217756
0.832302 0.610701 -0.217503
0.833583 0.606542 -0.216716
0.835250 0.603275 -0.216137
0.837749 0.601813 -0.215977
0.838207 0.596068 -0.214819
0.843705 0.600859 -0.216121
0.847333 0.601665 -0.216496
0.850123 0.600719 -0.216463
0.852806 0.599540 -0.216376
0.857558 0.602428 -0.217247
0.861700 0.604016 -0.217815
0.866475 0.606746 -0.218656
0.869251 0.605567 -0.218579
0.871065 0.602570 -0.218072
0.874844 0.603256 -0.218437
0.878218 0.603143 -0.218614
0.882134 0.603981 -0.219019
0.885235 0.603307 -0.219066
0.889435 0.604562 -0.219574
0.892261 0.603352 -0.219495
0.894345 0.600855 -0.219109
0.896340 0.598238 -0.218692
0.898994 0.596775 -0.218550
0.902782 0.597228 -0.218868
0.908764 0.601295 -0.220055
0.907152 0.592809 -0.218219
0.910778 0.592998 -0.218470
0.914960 0.594076 -0.218934
0.918956 0.594840 -0.219321
0.923027 0.595715 -0.219734
0.927464 0.597155 -0.220282
0.930697 0.596730 -0.220375
0.933553 0.595763 -0.220331
0.938116 0.597424 -0.220924
0.943332 0.600064 -0.221752
0.951404 0.606924 -0.223611
0.948025 0.596897 -0.221331
0.306370 0.620154 -0.201781
0.323195 0.591759 -0.196206
0.324830 0.594147 -0.196780
0.326138 0.597340 -0.197513
0.328612 0.598211 -0.197780
0.331080 0.599175 -0.198062
0.333988 0.599264 -0.198167
0.336619 0.600007 -0.198401
0.339606 0.600023 -0.198488
0.342443 0.600412 -0.198647
0.345075 0.601304 -0.198905
0.350244 0.596414 -0.197997
0.354026 0.594641 -0.197715
0.351623 0.607416 -0.200368
0.354342 0.608302 -0.200622
0.355843 0.612163 -0.201476
0.359975 0.609662 -0.201043
0.361416 0.613787 -0.201951
0.363840 0.615529 -0.202376
0.372439 0.601481 -0.199600
0.375200 0.602180 -0.199812
0.377717 0.603518 -0.200154
0.380811 0.603322 -0.200184
0.383565 0.604015 -0.200395
0.386503 0.604189 -0.200501
0.389867 0.603140 -0.200358
0.392291 0.604699 -0.200746
0.395322 0.604512 -0.200779
0.398368 0.604234 -0.200794
0.401256 0.604381 -0.200896
0.404063 0.604735 -0.201041
0.407165 0.604149 -0.200994
0.409934 0.604545 -0.201148
0.411783 0.607846 -0.201898
0.413544 0.611499 -0.202721
0.415797 0.613616 -0.203231
0.420084 0.608935 -0.202348
0.423373 0.607451 -0.202121
0.426028 0.608075 -0.202327
0.429945 0.604211 -0.201612
0.432720 0.604277 -0.201704
0.435756 0.603348 -0.201592
0.438035 0.605180 -0.202049
0.441091 0.604070 -0.201902
0.443989 0.603492 -0.201864
0.446384 0.604851 -0.202226
0.448960 0.605491 -0.202441
0.451600 0.605853 -0.202600
0.454344 0.605758 -0.202665
0.457089 0.605614 -0.202720
0.459584 0.606530 -0.202995
0.462023 0.607699 -0.203324
0.464243 0.609904 -0.203869
0.466972 0.609770 -0.203930
0.469625 0.609964 -0.204059
0.472500 0.609036 -0.203956
0.475527 0.607256 -0.203676
0.478523 0.605517 -0.203405
0.481403 0.604278 -0.203238
0.483878 0.605160 -0.203513
0.486420 0.605686 -0.203715
0.488844 0.606896 -0.204060
0.491086 0.609228 -0.204641
0.493248 0.612164 -0.205350
0.495971 0.611716 -0.205352
0.498818 0.610404 -0.205173
0.501804 0.608049 -0.204776
0.504526 0.607342 -0.204724
0.507333 0.605959 -0.204530
0.509866 0.606499 -0.204741
0.511617 0.613077 -0.206223
0.515058 0.606615 -0.204961
0.517670 0.606524 -0.205041
0.520222 0.606929 -0.205226
0.522916 0.606063 -0.205143
0.525759 0.603697 -0.204743
0.528245 0.604631 -0.205040
0.530717 0.605781 -0.205384
0.533063 0.608417 -0.206044
0.535688 0.608120 -0.206084
0.538258 0.608438 -0.206254
0.540966 0.607008 -0.206053
0.543552 0.607066 -0.206168
0.546282 0.605011 -0.205835
0.548732 0.607062 -0.206375
0.551211 0.608962 -0.206885
0.553729 0.610475 -0.207313
0.556492 0.607251 -0.206729
0.558958 0.610084 -0.207441
0.561564 0.610056 -0.207541
0.564339 0.605129 -0.206592
0.566918 0.605235 -0.206721
0.569499 0.605285 -0.206838
0.572070 0.605939 -0.207085
0.574661 0.605727 -0.207146
0.577231 0.607350 -0.207603
0.579825 0.607812 -0.207810
0.582423 0.608994 -0.208173
0.585048 0.614638 -0.209500
0.587669 0.613022 -0.209261
0.590206 0.606025 -0.207858
0.592798 0.605805 -0.207920
0.595422 0.607055 -0.208300
0.597939 0.603891 -0.207724
0.600521 0.603647 -0.207780
0.603133 0.604260 -0.208023
0.605770 0.605278 -0.208354
0.608381 0.605492 -0.208511
0.610981 0.605430 -0.208608
0.614323 0.618614 -0.211593
0.616432 0.609372 -0.209690
0.618947 0.607656 -0.209427
0.621682 0.609277 -0.209894
0.624392 0.610341 -0.210239
0.626457 0.603165 -0.208781
0.629087 0.603464 -0.208958
0.631908 0.605831 -0.209590
0.634700 0.607629 -0.210098
0.637465 0.608961 -0.210504
0.640098 0.608887 -0.210602
0.642773 0.609175 -0.210780
0.645412 0.609104 -0.210879
0.648111 0.609527 -0.211088
0.650815 0.609932 -0.211293
0.654218 0.615742 -0.212693
0.656963 0.616167 -0.212905
0.659700 0.616484 -0.213093
0.662574 0.617721 -0.213486
0.665912 0.621996 -0.214554
0.669027 0.624521 -0.215235
0.671786 0.624611 -0.215376
0.673829 0.620258 -0.214528
0.676028 0.617078 -0.213941
0.677400 0.609253 -0.212316
0.680094 0.609312 -0.212449
0.681478 0.602148 -0.210968
0.683692 0.599782 -0.210558
0.687576 0.606236 -0.212121
0.690236 0.606125 -0.212217
0.693027 0.606646 -0.212455
0.695951 0.607771 -0.212830
0.698458 0.606849 -0.212745
0.701164 0.606872 -0.212873
0.704503 0.609734 -0.213642
0.708386 0.614853 -0.214921
0.710700 0.612949 -0.214618
0.712445 0.608697 -0.213784
0.716015 0.612163 -0.214694
0.717468 0.606870 -0.213624
0.720408 0.607689 -0.213937
0.723898 0.610598 -0.214726
0.726327 0.609311 -0.214564
0.728867 0.608472 -0.214504
0.731553 0.608176 -0.214567
0.734462 0.608678 -0.214814
0.739690 0.617371 -0.216930
0.743484 0.620730 -0.217833
0.746011 0.619606 -0.217714
0.747197 0.613977 -0.216564
0.749995 0.613850 -0.216674
0.751127 0.608281 -0.215536
0.753371 0.606428 -0.215249
0.755818 0.605250 -0.215118
0.758151 0.603729 -0.214909
0.760712 0.602923 -0.214865
0.765443 0.608629 -0.216323
0.768286 0.608549 -0.216450
0.770282 0.605980 -0.216003
0.772723 0.604734 -0.215862
0.775554 0.604594 -0.215978
0.779595 0.607796 -0.216870
0.784891 0.614310 -0.218535
0.788159 0.615128 -0.218880
0.790516 0.613462 -0.218650
0.792185 0.610003 -0.218002
0.794076 0.607184 -0.217503
0.797418 0.608110 -0.217879
0.800130 0.607390 -0.217873
0.801694 0.603806 -0.217197
0.802859 0.599306 -0.216305
0.805925 0.599481 -0.216511
0.810803 0.603932 -0.217725
0.813616 0.603372 -0.217763
0.816205 0.602269 -0.217675
0.818797 0.601165 -0.217587
0.821780 0.600931 -0.217707
0.830263 0.612940 -0.220728
0.831501 0.608640 -0.219891
0.831845 0.602459 -0.218608
0.834651 0.601685 -0.218608
0.837763 0.601536 -0.218758
0.840411 0.600377 -0.218670
0.842797 0.598663 -0.218450
0.848016 0.602742 -0.219617
0.851388 0.602948 -0.219862
0.853254 0.600106 -0.219377
0.855730 0.598491 -0.219188
0.859683 0.599750 -0.219691
0.863750 0.601158 -0.220233
0.866190 0.599402 -0.220014
0.868432 0.597274 -0.219706
0.871711 0.597086 -0.219867
0.876066 0.598838 -0.220501
0.879558 0.598952 -0.220740
0.883390 0.599637 -0.221119
0.886410 0.598837 -0.221138
0.890770 0.600374 -0.221728
0.895766 0.602952 -0.222575
0.897165 0.599287 -0.221895
0.900425 0.598835 -0.222001
0.904861 0.600345 -0.222588
0.908778 0.600950 -0.222954
0.909839 0.596852 -0.222159
0.909778 0.591016 -0.220931
0.915826 0.595105 -0.222152
0.917413 0.592031 -0.221599
0.924025 0.596925 -0.223019
0.928793 0.598864 -0.223705
0.931484 0.597588 -0.223589
0.934330 0.596599 -0.223540
0.938456 0.597591 -0.223980
0.940191 0.595026 -0.223527
0.941810 0.592379 -0.223046
0.942167 0.587973 -0.222117
0.316210 0.599628 -0.200443
0.320623 0.596336 -0.199868
0.324016 0.595147 -0.199720
0.325896 0.597152 -0.200225
0.328301 0.598161 -0.200522
0.331218 0.598163 -0.200610
0.333653 0.599258 -0.200921
0.336264 0.600045 -0.201166
0.339121 0.600348 -0.201309
0.341552 0.601647 -0.201655
0.344401 0.602064 -0.201818
0.351304 0.593214 -0.200063
0.351414 0.599938 -0.201525
0.352731 0.604010 -0.202440
0.356047 0.603426 -0.202389
0.361574 0.597478 -0.201226
0.363770 0.599533 -0.201720
0.364105 0.606265 -0.203184
0.366018 0.609195 -0.203860
0.372208 0.601247 -0.202277
0.374628 0.602834 -0.202673
0.377470 0.603331 -0.202842
0.380300 0.603848 -0.203016
0.383394 0.603635 -0.203038
0.386230 0.604091 -0.203200
0.389133 0.604344 -0.203319
0.392829 0.602312 -0.202963
0.395036 0.604476 -0.203482
0.398216 0.603816 -0.203412
0.401054 0.604114 -0.203543
0.403754 0.604799 -0.203755
0.406905 0.604074 -0.203673
0.409548 0.604875 -0.203911
0.412538 0.604555 -0.203915
0.414387 0.607877 -0.204683
0.416081 0.611777 -0.205575
0.420527 0.606549 -0.204551
0.423036 0.607701 -0.204867
0.426579 0.605255 -0.204429
0.429061 0.606434 -0.204752
0.432264 0.605013 -0.204530
0.434991 0.605248 -0.204656
0.437528 0.606155 -0.204925
0.439757 0.608234 -0.205443
0.443367 0.604986 -0.204837
0.446106 0.605020 -0.204925
0.448746 0.605419 -0.205090
0.451397 0.605746 -0.205241
0.454075 0.605939 -0.205365
0.456902 0.605457 -0.205346
0.459594 0.605515 -0.205443
0.461502 0.609068 -0.206281
0.464192 0.609146 -0.206384
0.466846 0.609362 -0.206517
0.469497 0.609571 -0.206649
0.472295 0.609032 -0.206623
0.475580 0.605967 -0.206060
0.478594 0.604119 -0.205756
0.481172 0.604468 -0.205920
0.483717 0.604986 -0.206121
0.486281 0.605402 -0.206301
0.488874 0.605639 -0.206444
0.491150 0.607745 -0.206987
0.493108 0.611898 -0.207970
0.495515 0.613442 -0.208396
0.498788 0.609437 -0.207633
0.501442 0.609305 -0.207700
0.504310 0.607651 -0.207441
0.507055 0.606744 -0.207343
0.509198 0.610214 -0.208187
0.512101 0.608084 -0.207826
0.514900 0.606594 -0.207604
0.517483 0.606755 -0.207737
0.519942 0.607994 -0.208104
0.522722 0.606430 -0.207866
0.525283 0.606765 -0.208038
0.528036 0.605221 -0.207805
0.530519 0.606313 -0.208143
0.532898 0.608640 -0.208749
0.535462 0.609070 -0.208944
0.538148 0.608072 -0.208831
0.540758 0.607916 -0.208900
0.543464 0.606425 -0.208679
0.546085 0.605961 -0.208682
0.548491 0.608810 -0.209407
0.551084 0.608930 -0.209538
0.553798 0.606837 -0.209187
0.556347 0.607693 -0.209479
0.558976 0.606916 -0.209416
0.561467 0.609453 -0.210077
0.564177 0.606425 -0.209521
0.566809 0.605031 -0.209322
0.569320 0.607917 -0.210062
0.571897 0.609003 -0.210408
0.574538 0.606695 -0.210009
0.577140 0.605969 -0.209958
0.579710 0.609411 -0.210824
0.582319 0.609375 -0.210925
0.584944 0.613753 -0.212001
0.587555 0.611163 -0.211540
0.590119 0.606724 -0.210669
0.592710 0.606106 -0.210642
0.595324 0.606770 -0.210900
0.598023 0.610273 -0.211787
0.600833 0.616173 -0.213207
0.603625 0.619991 -0.214168
0.606509 0.625119 -0.215422
0.609072 0.622194 -0.214886
0.611818 0.623381 -0.215266
0.614408 0.621542 -0.214971
0.616462 0.611099 -0.212757
0.618757 0.605872 -0.211704
0.621441 0.606859 -0.212037
0.624386 0.611175 -0.213116
0.627282 0.614340 -0.213939
0.630626 0.622402 -0.215861
0.633620 0.625674 -0.216712
0.636560 0.628006 -0.217354
0.639138 0.626438 -0.217121
0.641340 0.621380 -0.216102
0.644141 0.622250 -0.216417
0.646982 0.623387 -0.216792
0.649067 0.618015 -0.215699
0.651890 0.619041 -0.216050
0.654049 0.614784 -0.215207
0.656711 0.614600 -0.215283
0.659454 0.615003 -0.215494
0.662438 0.617043 -0.216075
0.665319 0.618232 -0.216465
0.668292 0.619930 -0.216972
0.670816 0.618655 -0.216804
0.672499 0.612249 -0.215468
0.674926 0.610649 -0.215224
0.678000 0.612891 -0.215856
0.680559 0.612074 -0.215791
0.682663 0.608776 -0.215160
0.683355 0.598077 -0.212836
0.687550 0.606188 -0.214812
0.690252 0.606276 -0.214955
0.692976 0.606450 -0.215118
0.695549 0.605863 -0.215107
0.698305 0.606158 -0.215298
0.701190 0.607008 -0.215618
0.703986 0.607404 -0.215835
0.708046 0.613346 -0.217331
0.710107 0.610370 -0.216772
0.712536 0.609053 -0.216597
0.715264 0.609015 -0.216717
0.718285 0.610142 -0.217107
0.720642 0.608564 -0.216872
0.723688 0.609713 -0.217269
0.726624 0.610378 -0.217556
0.729111 0.609307 -0.217440
0.731569 0.608146 -0.217304
0.735040 0.610667 -0.218025
0.737173 0.608324 -0.217615
0.740603 0.610566 -0.218275
0.743190 0.609815 -0.218237
0.746104 0.610167 -0.218459
0.748198 0.607764 -0.218036
0.750976 0.607643 -0.218149
0.753785 0.607603 -0.218281
0.756659 0.607739 -0.218456
0.758735 0.605372 -0.218043
0.761580 0.605399 -0.218195
0.764966 0.607017 -0.218722
0.770078 0.613658 -0.220437
0.771060 0.608051 -0.219264
0.772691 0.604444 -0.218562
0.774844 0.602387 -0.218227
0.778735 0.605193 -0.219044
0.783379 0.609948 -0.220328
0.786417 0.610197 -0.220545
0.788837 0.608763 -0.220364
0.789373 0.602392 -0.219007
0.794790 0.608792 -0.220694
0.797613 0.608362 -0.220756
0.800065 0.606975 -0.220591
0.801808 0.603832 -0.220006
0.802634 0.598496 -0.218895
0.806169 0.599804 -0.219379
0.810067 0.601908 -0.220056
0.813483 0.602783 -0.220441
0.816170 0.601905 -0.220406
0.819368 0.602183 -0.220651
0.822201 0.601591 -0.220688
0.830034 0.612127 -0.223421
0.830442 0.605999 -0.222124
0.830779 0.599833 -0.220816
0.833508 0.598917 -0.220783
0.838437 0.602648 -0.221881
0.839860 0.598901 -0.221162
0.842005 0.596702 -0.220821
0.849669 0.605785 -0.223238
0.851130 0.602091 -0.222536
0.852802 0.598866 -0.221949
0.854657 0.596036 -0.221458
0.857924 0.595982 -0.221650
0.860930 0.595387 -0.221711
0.863427 0.593799 -0.221528
0.866724 0.593712 -0.221718
0.870687 0.594828 -0.222207
0.872853 0.592584 -0.221865
0.875037 0.590391 -0.221536
0.877374 0.588491 -0.221279
0.880260 0.587575 -0.221267
0.884170 0.588446 -0.221702
0.888050 0.589219 -0.222113
0.891985 0.590045 -0.222540
0.895626 0.590336 -0.222832
0.898533 0.589375 -0.222810
0.906663 0.597072 -0.224966
0.909415 0.595783 -0.224862
0.913624 0.596880 -0.225358
0.915476 0.594175 -0.224892
0.921408 0.598003 -0.226077
0.925576 0.598993 -0.226541
0.928806 0.598520 -0.226632
0.931981 0.597994 -0.226705
0.934687 0.596788 -0.226599
0.937342 0.595560 -0.226483
0.939915 0.594269 -0.226345
0.942306 0.592775 -0.226148
0.946997 0.594723 -0.226827
0.320341 0.590646 -0.201324
0.318443 0.600100 -0.203410
0.324155 0.594178 -0.202260
0.326324 0.595566 -0.202644
0.327837 0.598429 -0.203337
0.330534 0.598899 -0.203522
0.333353 0.599171 -0.203663
0.336138 0.599574 -0.203828
0.338872 0.600142 -0.204026
0.341436 0.601140 -0.204313
0.342019 0.606672 -0.205558
0.348073 0.599842 -0.204183
0.351046 0.600001 -0.204286
0.353601 0.601159 -0.204600
0.357599 0.598918 -0.204192
0.361792 0.596145 -0.203668
0.363962 0.598245 -0.204178
0.363140 0.607829 -0.206279
0.365321 0.610107 -0.206828
0.370778 0.604063 -0.205605
0.374512 0.602290 -0.205291
0.377140 0.603350 -0.205579
0.380200 0.603261 -0.205622
0.383209 0.603278 -0.205689
0.386232 0.603223 -0.205740
0.388951 0.603984 -0.205965
0.391994 0.603813 -0.205992
0.395108 0.603393 -0.205966
0.397732 0.604355 -0.206237
0.400739 0.604169 -0.206262
0.403608 0.604356 -0.206368
0.406274 0.605127 -0.206599
0.409400 0.604447 -0.206521
0.412197 0.604745 -0.206653
0.413747 0.609040 -0.207643
0.416950 0.608005 -0.207491
0.419587 0.608788 -0.207730
0.422742 0.607788 -0.207587
0.425905 0.606679 -0.207421
0.429517 0.603905 -0.206897
0.431892 0.605430 -0.207299
0.434637 0.605618 -0.207415
0.436921 0.607490 -0.207894
0.439724 0.607421 -0.207956
0.443417 0.603852 -0.207263
0.446025 0.604394 -0.207458
0.448613 0.605001 -0.207669
0.451208 0.605565 -0.207871
0.453813 0.606077 -0.208063
0.456849 0.604715 -0.207849
0.459533 0.604806 -0.207952
0.461811 0.606689 -0.208444
0.464080 0.608660 -0.208956
0.466689 0.609093 -0.209136
0.469402 0.609012 -0.209205
0.472093 0.609002 -0.209290
0.475121 0.607254 -0.208998
0.478625 0.602919 -0.208141
0.481176 0.603397 -0.208334
0.483595 0.604591 -0.208684
0.486216 0.604685 -0.208795
0.488812 0.604905 -0.208935
0.490936 0.607906 -0.209683
0.492943 0.611772 -0.210622
0.496083 0.608719 -0.210048
0.498718 0.608732 -0.210145
0.501506 0.607694 -0.210013
0.503886 0.609380 -0.210479
0.506817 0.607224 -0.210102
0.509312 0.608121 -0.210396
0.512060 0.607122 -0.210274
0.514790 0.606173 -0.210163
0.517244 0.607408 -0.210534
0.519780 0.608025 -0.210769
0.522413 0.607813 -0.210822
0.525012 0.607871 -0.210935
0.527551 0.608521 -0.211180
0.530288 0.607173 -0.210983
0.532869 0.607364 -0.211128
0.535424 0.607871 -0.211342
0.537990 0.608278 -0.211536
0.540637 0.607690 -0.211509
0.543322 0.606500 -0.211348
0.545833 0.607696 -0.211718
0.548257 0.610419 -0.212430
0.551045 0.607390 -0.211860
0.553719 0.605947 -0.211644
0.556300 0.606105 -0.211785
0.558748 0.609284 -0.212602
0.561372 0.608818 -0.212605
0.564104 0.605145 -0.211890
0.566619 0.607495 -0.212524
0.569214 0.607637 -0.212663
0.571811 0.607747 -0.212796
0.574407 0.608055 -0.212974
0.577012 0.607888 -0.213046
0.579615 0.607879 -0.213153
0.582215 0.610174 -0.213780
0.584834 0.611217 -0.214126
0.587463 0.611992 -0.214412
0.590059 0.609554 -0.213973
0.592644 0.607752 -0.213677
0.595266 0.608303 -0.213913
0.597940 0.610545 -0.214532
0.600697 0.614700 -0.215587
0.603483 0.618505 -0.216564
0.606288 0.621866 -0.217442
0.608964 0.621681 -0.217516
0.611553 0.619783 -0.217200
0.613921 0.614218 -0.216048
0.616162 0.607396 -0.214608
0.618751 0.606887 -0.214606
0.621450 0.607994 -0.214973
0.624235 0.610086 -0.215565
0.626976 0.611345 -0.215969
0.629732 0.612615 -0.216375
0.632420 0.612956 -0.216570
0.634840 0.610405 -0.216102
0.637873 0.614268 -0.217105
0.640256 0.611488 -0.216584
0.643159 0.613720 -0.217215
0.645524 0.611002 -0.216707
0.649009 0.617956 -0.218429
0.651015 0.612327 -0.217250
0.653652 0.612040 -0.217302
0.655535 0.606084 -0.216045
0.658432 0.607884 -0.216580
0.661144 0.608244 -0.216782
0.664222 0.611049 -0.217552
0.667287 0.613563 -0.218257
0.669499 0.610483 -0.217663
0.671811 0.608188 -0.217251
0.674804 0.610083 -0.217813
0.677625 0.610852 -0.218114
0.680103 0.609623 -0.217951
0.683071 0.611133 -0.218427
0.683852 0.600834 -0.216145
0.687380 0.605380 -0.217330
0.690267 0.606419 -0.217697
0.692830 0.605776 -0.217671
0.695511 0.605722 -0.217784
0.698357 0.606430 -0.218076
0.701310 0.607580 -0.218472
0.704478 0.609631 -0.219082
0.708663 0.616068 -0.220727
0.710317 0.611260 -0.219724
0.712610 0.609339 -0.219402
0.715435 0.609683 -0.219614
0.718065 0.609204 -0.219632
0.721055 0.610151 -0.219989
0.723978 0.610778 -0.220271
0.726862 0.611210 -0.220508
0.729833 0.611929 -0.220815
0.732826 0.612681 -0.221130
0.735034 0.610545 -0.220760
0.737424 0.609105 -0.220556
0.739304 0.605915 -0.219934
0.742194 0.606276 -0.220160
0.744609 0.604996 -0.219995
0.748484 0.608569 -0.220991
0.750832 0.607028 -0.220766
0.753490 0.606503 -0.220784
0.756867 0.608231 -0.221345
0.759733 0.608293 -0.221507
0.762763 0.608828 -0.221784
0.766683 0.611986 -0.222695
0.768192 0.607896 -0.221862
0.770559 0.606397 -0.221653
0.772049 0.602404 -0.220843
0.774682 0.601723 -0.220832
0.781822 0.613558 -0.223855
0.781438 0.604408 -0.221797
0.786390 0.609893 -0.223289
0.787305 0.604450 -0.222130
0.789971 0.603721 -0.222116
0.795095 0.609330 -0.223648
0.796350 0.604888 -0.222733
0.798338 0.602375 -0.222289
0.800780 0.601020 -0.222128
0.803221 0.599665 -0.221969
0.805681 0.598353 -0.221821
0.810125 0.601766 -0.222835
0.813246 0.601941 -0.223057
0.816872 0.603243 -0.223559
0.819777 0.602824 -0.223639
0.822660 0.602326 -0.223702
0.829337 0.610258 -0.225852
0.827370 0.598924 -0.223238
0.829454 0.596639 -0.222863
0.831955 0.595266 -0.222715
0.834332 0.593623 -0.222502
0.837182 0.592969 -0.222536
0.840239 0.592717 -0.222672
0.843103 0.592039 -0.222704
0.847897 0.595227 -0.223705
0.850737 0.594404 -0.223706
0.853994 0.594382 -0.223910
0.857570 0.594939 -0.224261
0.860696 0.594579 -0.224384
0.863635 0.593835 -0.224412
0.867356 0.594534 -0.224806
0.870325 0.593787 -0.224837
0.875108 0.596347 -0.225707
0.878887 0.596993 -0.226095
0.883352 0.598822 -0.226786
0.886350 0.597981 -0.226800
0.889426 0.597266 -0.226845
0.892628 0.596761 -0.226945
0.894859 0.594584 -0.226617
0.899031 0.595716 -0.227136
0.905005 0.599824 -0.228419
0.907930 0.598784 -0.228381
0.910494 0.597169 -0.228194
0.914760 0.598338 -0.228722
0.917745 0.597432 -0.228712
0.921503 0.597777 -0.229023
0.925200 0.598028 -0.229307
0.929234 0.598815 -0.229727
0.932314 0.598140 -0.229764
0.934943 0.596817 -0.229626
0.937799 0.595894 -0.229587
0.941539 0.596345 -0.229901
0.945310 0.596874 -0.230229
0.945851 0.592707 -0.229322
0.323803 0.583028 -0.202410
0.320061 0.596131 -0.205330
0.319815 0.602410 -0.206779
0.324613 0.598419 -0.206011
0.326882 0.599718 -0.206379
0.329914 0.599488 -0.206415
0.332773 0.599678 -0.206537
0.335377 0.600478 -0.206789
0.338913 0.599288 -0.206607
0.341555 0.600100 -0.206856
0.341897 0.606157 -0.208240
0.345470 0.605004 -0.208059
0.350877 0.599592 -0.206952
0.354228 0.598878 -0.206861
0.357695 0.597875 -0.206707
0.360423 0.598629 -0.206932
0.361007 0.604644 -0.208302
0.363019 0.607280 -0.208936
0.365367 0.609134 -0.209400
0.370614 0.603627 -0.208260
0.373835 0.603186 -0.208223
0.376927 0.603046 -0.208251
0.379855 0.603313 -0.208368
0.383385 0.601930 -0.208125
0.385822 0.603476 -0.208522
0.388938 0.603141 -0.208508
0.391919 0.603142 -0.208568
0.395183 0.602290 -0.208442
0.397817 0.603217 -0.208706
0.400492 0.604009 -0.208941
0.403395 0.604100 -0.209023
0.406389 0.603871 -0.209036
0.409023 0.604718 -0.209286
0.411636 0.605617 -0.209548
0.413423 0.609166 -0.210393
0.416578 0.608308 -0.210272
0.419832 0.607044 -0.210062
0.423078 0.605715 -0.209838
0.426332 0.604272 -0.209590
0.429135 0.604321 -0.209671
0.431880 0.604537 -0.209790
0.434556 0.604975 -0.209959
0.436915 0.606567 -0.210384
0.439534 0.607191 -0.210596
0.443283 0.603419 -0.209838
0.445882 0.604003 -0.210044
0.448430 0.604778 -0.210292
0.450937 0.605713 -0.210577
0.453661 0.605736 -0.210661
0.456653 0.604573 -0.210484
0.459381 0.604482 -0.210545
0.461542 0.606892 -0.211161
0.463880 0.608567 -0.211616
0.466843 0.607349 -0.211430
0.469905 0.605564 -0.211118
0.472454 0.606187 -0.211342
0.474372 0.609985 -0.212274
0.475149 0.619845 -0.214560
0.477478 0.621955 -0.215120
0.479993 0.623132 -0.215475
0.482844 0.622461 -0.215417
0.486629 0.616358 -0.214147
0.490013 0.612245 -0.213320
0.493180 0.609184 -0.212728
0.496278 0.606347 -0.212186
0.498756 0.607310 -0.212496
0.501347 0.607565 -0.212647
0.504448 0.604293 -0.212008
0.506957 0.604999 -0.212262
0.509393 0.606269 -0.212644
0.512050 0.605921 -0.212663
0.515040 0.602879 -0.212075
0.517404 0.604748 -0.212594
0.519896 0.605660 -0.212899
0.522394 0.606574 -0.213205
0.524923 0.607263 -0.213461
0.527411 0.608399 -0.213818
0.530015 0.608445 -0.213931
0.532718 0.607416 -0.213800
0.535538 0.604916 -0.213336
0.537936 0.607214 -0.213960
0.540640 0.605873 -0.213759
0.543226 0.605948 -0.213880
0.545722 0.607346 -0.214302
0.548232 0.608729 -0.214722
0.550874 0.608096 -0.214684
0.553524 0.607193 -0.214584
0.556108 0.607462 -0.214752
0.558545 0.611068 -0.215683
0.561215 0.609703 -0.215479
0.563954 0.606040 -0.214749
0.566593 0.604550 -0.214515
0.569077 0.608528 -0.215535
0.571710 0.607221 -0.215344
0.574315 0.606910 -0.215382
0.576923 0.606194 -0.215327
0.579507 0.608276 -0.215916
0.582112 0.609601 -0.216332
0.584731 0.610744 -0.216706
0.587362 0.611883 -0.217081
0.589976 0.610728 -0.216927
0.592568 0.608837 -0.216602
0.595183 0.608725 -0.216689
0.597863 0.611069 -0.217344
0.600549 0.612843 -0.217868
0.603081 0.609843 -0.217287
0.605759 0.611082 -0.217688
0.608369 0.610533 -0.217675
0.611085 0.612156 -0.218167
0.613508 0.608184 -0.217358
0.616059 0.606930 -0.217181
0.618720 0.607534 -0.217437
0.621476 0.609383 -0.217983
0.624014 0.608054 -0.217789
0.626645 0.608029 -0.217899
0.629218 0.607286 -0.217841
0.631764 0.606311 -0.217729
0.634540 0.607853 -0.218208
0.637262 0.608682 -0.218519
0.639963 0.609206 -0.218760
0.642688 0.609881 -0.219037
0.645730 0.613275 -0.219954
0.647783 0.608008 -0.218834
0.651354 0.615476 -0.220713
0.652853 0.606153 -0.218634
0.655466 0.605882 -0.218690
0.658135 0.606022 -0.218843
0.660941 0.607089 -0.219215
0.664048 0.610112 -0.220052
0.666965 0.611678 -0.220545
0.669421 0.610188 -0.220314
0.671765 0.608082 -0.219937
0.674951 0.611128 -0.220784
0.677494 0.610238 -0.220696
0.679718 0.607569 -0.220185
0.682248 0.606715 -0.220106
0.683908 0.601227 -0.218922
0.687778 0.607533 -0.220552
0.690173 0.606003 -0.220312
0.692856 0.605957 -0.220427
0.695861 0.607454 -0.220913
0.698576 0.607488 -0.221049
0.701495 0.608447 -0.221408
0.704925 0.611649 -0.222307
0.708007 0.613154 -0.222800
0.710442 0.611780 -0.222601
0.712518 0.608918 -0.222044
0.714924 0.607523 -0.221841
0.717642 0.607431 -0.221952
0.720288 0.607034 -0.221990
0.723266 0.607929 -0.222342
0.726406 0.609385 -0.222831
0.730707 0.615119 -0.224358
0.732831 0.612601 -0.223887
0.735057 0.610520 -0.223522
0.737059 0.607696 -0.222977
0.739166 0.605313 -0.222538
0.743152 0.609423 -0.223682
0.745033 0.606284 -0.223060
0.747555 0.605349 -0.222976
0.749473 0.602452 -0.222414
0.751594 0.600273 -0.222027
0.754262 0.599863 -0.222073
0.757984 0.602702 -0.222918
0.760673 0.602274 -0.222963
0.761740 0.596969 -0.221810
0.764829 0.597770 -0.222159
0.768147 0.599183 -0.222661
0.770585 0.598002 -0.222525
0.773992 0.599561 -0.223067
0.775000 0.594379 -0.221945
0.777891 0.594471 -0.222127
0.780752 0.594447 -0.222282
0.783781 0.594840 -0.222542
0.787663 0.597423 -0.223349
0.790559 0.597353 -0.223499
0.792017 0.593587 -0.222730
0.794264 0.591872 -0.222473
0.797843 0.593470 -0.223044
0.801334 0.594775 -0.223544
0.806790 0.600747 -0.225217
0.810068 0.601341 -0.225548
0.813187 0.601508 -0.225773
0.816770 0.602706 -0.226260
0.819797 0.602563 -0.226413
0.822776 0.602278 -0.226533
0.825539 0.601476 -0.226523
0.826885 0.597537 -0.225723
0.829307 0.595996 -0.225529
0.832638 0.596402 -0.225831
0.835354 0.595455 -0.225792
0.837802 0.593929 -0.225607
0.841160 0.594279 -0.225902
0.846355 0.598327 -0.227143
0.848674 0.596440 -0.226872
0.852163 0.596886 -0.227201
0.855327 0.596642 -0.227355
0.858738 0.596844 -0.227625
0.863301 0.599212 -0.228455
0.865705 0.597389 -0.228210
0.870103 0.599309 -0.228931
0.873023 0.598409 -0.228927
0.876257 0.598068 -0.229069
0.880618 0.599742 -0.229735
0.883676 0.599013 -0.229779
0.886512 0.597878 -0.229719
0.890902 0.599456 -0.230366
0.893490 0.597859 -0.230185
0.897875 0.599346 -0.230811
0.900901 0.598485 -0.230822
0.904845 0.599161 -0.231236
0.907600 0.597846 -0.231127
0.910495 0.596779 -0.231080
0.913993 0.596708 -0.231293
0.918029 0.597501 -0.231733
0.921096 0.596749 -0.231762
0.925733 0.598484 -0.232446
0.929169 0.598337 -0.232628
0.932374 0.597858 -0.232718
0.935416 0.597170 -0.232747
0.938934 0.597243 -0.232972
0.942293 0.597115 -0.233138
0.944791 0.595759 -0.232970
0.946276 0.592992 -0.232416
0.330020 0.569893 -0.202207
0.319200 0.597202 -0.208326
0.319771 0.601802 -0.209437
0.322751 0.601575 -0.209478
0.326656 0.599471 -0.209101
0.329373 0.599901 -0.209280
0.332517 0.599482 -0.209267
0.335218 0.600064 -0.209473
0.338350 0.599757 -0.209478
0.342273 0.597720 -0.209097
0.342915 0.603060 -0.210350
0.346313 0.602271 -0.210241
0.350093 0.600597 -0.209933
0.354571 0.597256 -0.209252
0.356392 0.600147 -0.209955
0.358123 0.603335 -0.210723
0.360854 0.604169 -0.210966
0.364356 0.603111 -0.210788
0.366595 0.605182 -0.211305
0.365935 0.614680 -0.213478
0.368294 0.616634 -0.213971
0.371511 0.616373 -0.213969
0.374651 0.616281 -0.214005
0.376034 0.620906 -0.215094
0.378050 0.623901 -0.215821
0.382665 0.619717 -0.214943
0.386977 0.616222 -0.214219
0.390491 0.614870 -0.213975
0.392280 0.618474 -0.214840
0.395575 0.617683 -0.214723
0.397110 0.622130 -0.215780
0.399984 0.622580 -0.215942
0.404634 0.617470 -0.214859
0.407356 0.618251 -0.215097
0.412898 0.609926 -0.213292
0.416707 0.606949 -0.212688
0.420223 0.604805 -0.212271
0.423657 0.602816 -0.211889
0.426813 0.601671 -0.211698
0.429069 0.603611 -0.212202
0.431534 0.604832 -0.212546
0.434974 0.602496 -0.212090
0.436021 0.608933 -0.213612
0.439301 0.607111 -0.213273
0.443052 0.603350 -0.212497
0.445378 0.605023 -0.212950
0.448044 0.605357 -0.213100
0.450858 0.605055 -0.213108
0.453649 0.604801 -0.213128
0.456420 0.604582 -0.213157
0.459100 0.604714 -0.213266
0.460818 0.609126 -0.214347
0.462819 0.612402 -0.215173
0.467186 0.604717 -0.213511
0.470401 0.602154 -0.213011
0.472405 0.605383 -0.213830
0.473566 0.612983 -0.215644
0.475438 0.617264 -0.216707
0.477686 0.619749 -0.217362
0.480467 0.619432 -0.217380
0.484101 0.614311 -0.216302
0.486914 0.613586 -0.216228
0.489286 0.615396 -0.216734
0.492921 0.609606 -0.215502
0.495672 0.608977 -0.215451
0.498288 0.609154 -0.215585
0.501268 0.606895 -0.215162
0.504288 0.604181 -0.214634
0.507024 0.603286 -0.214524
0.509453 0.604562 -0.214913
0.512140 0.603948 -0.214868
0.514864 0.602972 -0.214741
0.517549 0.602217 -0.214664
0.519949 0.603831 -0.215134
0.522585 0.603453 -0.215146
0.525006 0.605027 -0.215609
0.527452 0.606504 -0.216051
0.529920 0.607873 -0.216469
0.532529 0.607859 -0.216568
0.535227 0.606808 -0.216428
0.538076 0.603815 -0.215837
0.540497 0.605902 -0.216425
0.543034 0.606691 -0.216712
0.545613 0.606952 -0.216877
0.548129 0.608239 -0.217282
0.550703 0.608757 -0.217508
0.553258 0.609709 -0.217837
0.555722 0.612676 -0.218636
0.558505 0.609187 -0.217930
0.561160 0.608033 -0.217769
0.563915 0.603787 -0.216885
0.566454 0.605271 -0.217340
0.568935 0.609568 -0.218455
0.571581 0.608020 -0.218203
0.574212 0.606479 -0.217951
0.576810 0.606658 -0.218104
0.579407 0.607383 -0.218385
0.582011 0.608341 -0.218721
0.584630 0.611158 -0.219495
0.587265 0.612266 -0.219869
0.589881 0.610948 -0.219672
0.592487 0.609649 -0.219478
0.595107 0.609526 -0.219563
0.597784 0.611513 -0.220146
