ply
format ascii 1.0
comment ---
element vertex 1676
property float x
property float y
property float z
element face 0
property list uchar uint vertex_indices
end_header
-0.334261 0.605305 -0.034983
-0.332605 0.607548 -0.035647
-0.329852 0.607903 -0.035810
-0.326872 0.607926 -0.035870
-0.323670 0.607609 -0.035825
-0.320883 0.608141 -0.035982
-0.317546 0.607709 -0.035873
-0.314794 0.608459 -0.036052
-0.310874 0.607026 -0.035653
-0.308510 0.608669 -0.036029
-0.306645 0.611395 -0.036667
-0.302559 0.609790 -0.036178
-0.299347 0.609964 -0.036133
-0.296536 0.611009 -0.036298
-0.293191 0.611010 -0.036182
-0.290062 0.611499 -0.036181
-0.286304 0.610696 -0.035839
-0.282749 0.610333 -0.035599
-0.279865 0.611439 -0.035727
-0.276832 0.612258 -0.035773
-0.272768 0.610809 -0.035235
-0.268993 0.609982 -0.034850
-0.265920 0.610736 -0.034863
-0.262763 0.611311 -0.034826
-0.259715 0.612150 -0.034852
-0.255929 0.611245 -0.034434
-0.252721 0.611691 -0.034357
-0.249886 0.613042 -0.034506
-0.246673 0.613472 -0.034423
-0.242928 0.612548 -0.033998
-0.239774 0.613081 -0.033941
-0.235998 0.611988 -0.033477
-0.232774 0.612279 -0.033363
-0.228972 0.611006 -0.032858
-0.226001 0.611907 -0.032901
-0.222762 0.612060 -0.032759
-0.219216 0.611326 -0.032399
-0.216263 0.612206 -0.032444
-0.213117 0.612518 -0.032351
-0.209674 0.611933 -0.032039
-0.206360 0.611669 -0.031810
-0.203098 0.611514 -0.031612
-0.199815 0.611243 -0.031390
-0.197056 0.612557 -0.031565
-0.193551 0.611506 -0.031158
-0.190430 0.611615 -0.031042
-0.187431 0.612084 -0.031019
-0.184116 0.611471 -0.030733
-0.181126 0.611900 -0.030709
-0.178189 0.612483 -0.030727
-0.174881 0.611741 -0.030422
-0.171855 0.611939 -0.030353
-0.169098 0.613084 -0.030521
-0.166150 0.613526 -0.030520
-0.163000 0.613175 -0.030328
-0.159856 0.612791 -0.030133
-0.156877 0.613006 -0.030088
-0.154019 0.613675 -0.030158
-0.151058 0.613910 -0.030126
-0.148227 0.614664 -0.030224
-0.145246 0.614771 -0.030168
-0.142106 0.614144 -0.029936
-0.139005 0.613631 -0.029735
-0.135915 0.613105 -0.029535
-0.132899 0.612867 -0.029409
-0.129923 0.612778 -0.029323
-0.127118 0.613486 -0.029434
-0.124304 0.614151 -0.029538
-0.121376 0.614227 -0.029501
-0.118339 0.613696 -0.029320
-0.115435 0.613829 -0.029304
-0.112521 0.613881 -0.029270
-0.109650 0.614150 -0.029293
-0.106791 0.614476 -0.029332
-0.103755 0.613710 -0.029108
-0.100874 0.613843 -0.029106
-0.097928 0.613535 -0.028999
-0.095092 0.613913 -0.029062
-0.092318 0.614709 -0.029228
-0.089557 0.615624 -0.029426
-0.086381 0.613518 -0.028892
-0.083560 0.613944 -0.028976
-0.080781 0.614708 -0.029144
-0.077910 0.614747 -0.029139
-0.074843 0.613085 -0.028722
-0.072159 0.614678 -0.029098
-0.069171 0.613542 -0.028814
-0.066283 0.613266 -0.028740
-0.063446 0.613451 -0.028781
-0.060593 0.613466 -0.028782
-0.057758 0.613652 -0.028826
-0.054930 0.613933 -0.028896
-0.052097 0.614145 -0.028951
-0.049146 0.612762 -0.028620
-0.046455 0.614954 -0.029159
-0.043552 0.614132 -0.028968
-0.040690 0.613861 -0.028912
-0.037796 0.612910 -0.028694
-0.034876 0.611233 -0.028300
-0.032090 0.612176 -0.028544
-0.029346 0.614353 -0.029090
-0.026621 0.617635 -0.029905
-0.023871 0.621059 -0.030757
-0.021045 0.622846 -0.031213
-0.017990 0.614625 -0.029240
-0.015121 0.612873 -0.028839
-0.012294 0.613280 -0.028965
-0.009456 0.612603 -0.028828
-0.006621 0.610690 -0.028392
-0.003798 0.611252 -0.028560
-0.000964 0.612716 -0.028948
0.001887 0.614325 -0.029374
0.004770 0.616989 -0.030058
0.007667 0.619084 -0.030605
0.010493 0.617697 -0.030306
0.013199 0.612789 -0.029151
0.015933 0.609989 -0.028511
0.018767 0.610285 -0.028626
0.021802 0.614970 -0.029813
0.024742 0.616848 -0.030317
0.027418 0.613513 -0.029552
0.030225 0.612915 -0.029456
0.033262 0.615985 -0.030257
0.036352 0.619373 -0.031137
0.039219 0.619273 -0.031168
0.041919 0.617026 -0.030676
0.044763 0.616748 -0.030667
0.047544 0.615766 -0.030487
0.050349 0.615114 -0.030389
0.053122 0.614183 -0.030225
0.055993 0.614277 -0.030314
0.058881 0.614501 -0.030436
0.061644 0.613558 -0.030275
0.065029 0.618012 -0.031439
0.067357 0.613376 -0.030375
0.070061 0.612053 -0.030126
0.072865 0.611562 -0.030083
0.075733 0.611556 -0.030162
0.078608 0.611575 -0.030248
0.081514 0.611782 -0.030384
0.084128 0.610006 -0.030033
0.087227 0.611449 -0.030478
0.090239 0.612227 -0.030761
0.093626 0.615215 -0.031592
0.097350 0.619996 -0.032870
0.100357 0.620363 -0.033061
0.101539 0.610506 -0.030729
0.104487 0.610731 -0.030889
0.107578 0.611677 -0.031231
0.110468 0.611507 -0.031300
0.112759 0.608302 -0.030619
0.115935 0.609567 -0.031049
0.120380 0.616827 -0.032971
0.124130 0.620462 -0.033999
0.126797 0.618948 -0.033751
0.128407 0.612736 -0.032336
0.130754 0.609993 -0.031786
0.133431 0.608742 -0.031611
0.136754 0.610223 -0.032120
0.139917 0.610951 -0.032446
0.143169 0.611973 -0.032849
0.146181 0.611974 -0.033002
0.149525 0.613222 -0.033470
0.153270 0.615908 -0.034304
0.154362 0.608581 -0.032629
0.157869 0.610312 -0.033231
0.160174 0.607632 -0.032728
0.164622 0.612553 -0.034143
0.167798 0.612862 -0.034402
0.170375 0.611091 -0.034140
0.173251 0.610338 -0.034139
0.175709 0.608198 -0.033790
0.179155 0.609279 -0.034262
0.183644 0.613589 -0.035558
0.187165 0.614700 -0.036049
0.188915 0.610300 -0.035142
0.191620 0.608886 -0.034997
0.195276 0.610296 -0.035577
0.198242 0.609605 -0.035626
0.201326 0.609233 -0.035760
0.203982 0.607620 -0.035580
0.208106 0.610114 -0.036458
0.211519 0.610535 -0.036808
0.214857 0.610704 -0.037099
0.218221 0.610895 -0.037399
0.221674 0.611277 -0.037752
0.223925 0.608494 -0.037290
0.226596 0.606828 -0.037118
0.229661 0.606165 -0.037209
0.232881 0.605870 -0.037397
0.238652 0.611797 -0.039210
0.241608 0.610734 -0.039205
0.243871 0.608019 -0.038767
0.249222 0.612607 -0.040242
0.253317 0.614134 -0.040918
0.255447 0.611105 -0.040397
0.258324 0.609824 -0.040333
0.262766 0.612048 -0.041191
0.265058 0.609471 -0.040779
0.269432 0.611476 -0.041575
0.272316 0.610227 -0.041506
0.276135 0.610991 -0.041966
0.281393 0.614752 -0.043218
0.283723 0.612376 -0.042830
0.286670 0.611329 -0.042787
0.289714 0.610522 -0.042799
0.293656 0.611546 -0.043290
0.293295 0.604083 -0.041496
0.299955 0.610522 -0.043416
0.303936 0.611686 -0.043910
0.305965 0.609136 -0.043392
0.307716 0.606162 -0.042744
0.310138 0.604554 -0.042447
0.313470 0.604715 -0.042610
0.317392 0.606014 -0.043064
0.321237 0.607207 -0.043473
0.322540 0.603871 -0.042641
0.322391 0.598082 -0.041127
0.324811 0.596997 -0.040865
0.326727 0.595121 -0.040372
0.330940 0.597330 -0.040964
0.331621 0.593505 -0.039908
-0.337883 0.601800 -0.036828
-0.335820 0.603062 -0.037289
-0.334575 0.605892 -0.038144
-0.332189 0.606786 -0.038476
-0.329885 0.607923 -0.038854
-0.326300 0.606795 -0.038621
-0.323508 0.607199 -0.038772
-0.320540 0.607353 -0.038840
-0.317819 0.608050 -0.039032
-0.315237 0.609096 -0.039300
-0.312854 0.610615 -0.039674
-0.309643 0.610608 -0.039632
-0.306379 0.610555 -0.039562
-0.303198 0.610722 -0.039535
-0.299722 0.610346 -0.039351
-0.295975 0.609453 -0.039019
-0.292936 0.610046 -0.039062
-0.289037 0.608889 -0.038637
-0.285497 0.608496 -0.038400
-0.282896 0.610131 -0.038683
-0.280494 0.612262 -0.039084
-0.276258 0.610432 -0.038447
-0.273784 0.612487 -0.038812
-0.269433 0.610371 -0.038088
-0.266099 0.610526 -0.037948
-0.262974 0.611163 -0.037929
-0.259768 0.611622 -0.037860
-0.256760 0.612554 -0.037910
-0.252791 0.611182 -0.037363
-0.249741 0.611999 -0.037380
-0.246544 0.612455 -0.037303
-0.242333 0.610352 -0.036567
-0.239303 0.611169 -0.036584
-0.236198 0.611790 -0.036550
-0.233012 0.612183 -0.036459
-0.229792 0.612466 -0.036342
-0.226345 0.612108 -0.036063
-0.223338 0.612912 -0.036083
-0.219972 0.612700 -0.035847
-0.216351 0.611723 -0.035420
-0.213224 0.612095 -0.035339
-0.209836 0.611677 -0.035061
-0.206528 0.611439 -0.034833
-0.203375 0.611620 -0.034715
-0.200322 0.612070 -0.034669
-0.196870 0.611253 -0.034306
-0.193613 0.610979 -0.034086
-0.190755 0.611943 -0.034181
-0.187429 0.611359 -0.033891
-0.184360 0.611571 -0.033805
-0.181380 0.612051 -0.033791
-0.177993 0.611100 -0.033422
-0.174782 0.610691 -0.033193
-0.172032 0.611872 -0.033367
-0.169184 0.612701 -0.033457
-0.166308 0.613419 -0.033524
-0.163003 0.612494 -0.033182
-0.159795 0.611869 -0.032920
-0.156954 0.612625 -0.033008
-0.154057 0.613147 -0.033041
-0.151120 0.613489 -0.033033
-0.148217 0.613945 -0.033057
-0.145303 0.614341 -0.033069
-0.142262 0.614157 -0.032941
-0.139202 0.613846 -0.032785
-0.136153 0.613533 -0.032632
-0.133118 0.613232 -0.032485
-0.130011 0.612540 -0.032245
-0.127168 0.613074 -0.032314
-0.124357 0.613761 -0.032423
-0.121315 0.613255 -0.032239
-0.118354 0.613123 -0.032152
-0.115391 0.612936 -0.032054
-0.112480 0.613002 -0.032021
-0.109693 0.613741 -0.032159
-0.106882 0.614360 -0.032270
-0.103912 0.614013 -0.032144
-0.100966 0.613765 -0.032046
-0.098115 0.614084 -0.032090
-0.095161 0.613711 -0.031966
-0.092298 0.613906 -0.031986
-0.089461 0.614274 -0.032050
-0.086468 0.613492 -0.031832
-0.083562 0.613288 -0.031760
-0.080766 0.613915 -0.031897
-0.077981 0.614656 -0.032063
-0.075079 0.614419 -0.031990
-0.072163 0.614020 -0.031879
-0.069251 0.613584 -0.031761
-0.066241 0.612140 -0.031395
-0.063467 0.612935 -0.031586
-0.060653 0.613363 -0.031688
-0.057785 0.613203 -0.031647
-0.054951 0.613407 -0.031698
-0.052091 0.613276 -0.031667
-0.049272 0.613664 -0.031767
-0.046393 0.613215 -0.031662
-0.043657 0.614898 -0.032086
-0.040738 0.613742 -0.031810
-0.037858 0.613093 -0.031660
-0.035036 0.613453 -0.031762
-0.032216 0.613909 -0.031890
-0.029433 0.615345 -0.032262
-0.026682 0.618076 -0.032957
-0.023965 0.622711 -0.034125
-0.021062 0.621903 -0.033947
-0.018066 0.616301 -0.032582
-0.015168 0.613465 -0.031903
-0.012325 0.612906 -0.031791
-0.009484 0.611900 -0.031569
-0.006651 0.609858 -0.031092
-0.003830 0.610713 -0.031335
-0.001005 0.610863 -0.031405
0.001836 0.612352 -0.031809
0.004767 0.618327 -0.033328
0.007659 0.619806 -0.033733
0.010459 0.617200 -0.033125
0.013168 0.612422 -0.031979
0.015867 0.608631 -0.031079
0.018700 0.609021 -0.031219
0.021709 0.613223 -0.032309
0.024599 0.614230 -0.032607
0.027391 0.613216 -0.032403
0.030225 0.613076 -0.032419
0.033388 0.618065 -0.033713
0.036310 0.618845 -0.033962
0.039076 0.617366 -0.033650
0.041861 0.616297 -0.033441
0.044658 0.615477 -0.033297
0.047568 0.616008 -0.033491
0.050268 0.614193 -0.033101
0.052986 0.612723 -0.032799
0.055961 0.613879 -0.033155
0.058723 0.612919 -0.032984
0.061753 0.614420 -0.033430
0.064809 0.615989 -0.033896
0.067315 0.612883 -0.033194
0.070175 0.612796 -0.033250
0.072966 0.612162 -0.033171
0.075790 0.611794 -0.033160
0.078823 0.612914 -0.033526
0.081443 0.611092 -0.033155
0.084269 0.610734 -0.033154
0.087127 0.610577 -0.033206
0.090462 0.613389 -0.034007
0.094053 0.617562 -0.035153
0.097556 0.620951 -0.036107
0.100375 0.620204 -0.036022
0.101575 0.610433 -0.033666
0.104479 0.610409 -0.033767
0.107504 0.610997 -0.034026
0.110234 0.609999 -0.033888
0.112913 0.608770 -0.033693
0.115823 0.608704 -0.033796
0.119929 0.614339 -0.035346
0.123474 0.617057 -0.036162
0.126375 0.616672 -0.036195
0.129107 0.615517 -0.036037
0.131140 0.611323 -0.035109
0.133425 0.608351 -0.034493
0.136977 0.610782 -0.035256
0.140736 0.613929 -0.036206
0.143255 0.611929 -0.035848
0.146180 0.611568 -0.035911
0.149293 0.611916 -0.036160
0.151029 0.606993 -0.035064
0.156979 0.617890 -0.038023
0.158709 0.612947 -0.036929
0.160877 0.609714 -0.036276
0.163985 0.609868 -0.036496
0.167863 0.612635 -0.037393
0.171529 0.614546 -0.038075
0.174079 0.612634 -0.037777
0.176314 0.609711 -0.037221
0.180315 0.612539 -0.038155
0.184040 0.614357 -0.038835
0.187116 0.614053 -0.038969
0.188574 0.608758 -0.037811
0.192051 0.609680 -0.038272
0.195326 0.609934 -0.038564
0.198277 0.609192 -0.038600
0.201076 0.607997 -0.038523
0.204512 0.608600 -0.038919
0.207915 0.609052 -0.039280
0.211573 0.610152 -0.039816
0.215445 0.611756 -0.040490
0.218787 0.611865 -0.040775
0.221626 0.610608 -0.040704
0.224338 0.609023 -0.040548
0.226742 0.606662 -0.040189
0.229549 0.605345 -0.040107
0.232800 0.605135 -0.040320
0.238323 0.610455 -0.042007
0.239925 0.606140 -0.041132
0.245034 0.610258 -0.042507
0.249031 0.611633 -0.043152
0.254021 0.615246 -0.044398
0.257430 0.615130 -0.044646
0.261472 0.616427 -0.045272
0.261740 0.609273 -0.043621
0.264360 0.607461 -0.043403
0.268239 0.608422 -0.043928
0.271443 0.607910 -0.044051
0.274365 0.606812 -0.044009
0.277580 0.606362 -0.044136
0.280873 0.606093 -0.044304
0.283748 0.604990 -0.044236
0.286790 0.604272 -0.044263
0.287363 0.598668 -0.042945
0.297501 0.612090 -0.046813
0.301657 0.613574 -0.047411
0.304144 0.611846 -0.047115
0.306284 0.609535 -0.046644
0.308902 0.608222 -0.046430
0.311206 0.606402 -0.046061
0.313904 0.605402 -0.045900
0.318711 0.608344 -0.046806
0.321269 0.607211 -0.046573
0.323208 0.605050 -0.046040
0.323086 0.599327 -0.044506
0.324554 0.596583 -0.043774
0.326957 0.595594 -0.043506
0.327990 0.592318 -0.042590
0.333724 0.597247 -0.043917
-0.339154 0.604143 -0.040418
-0.336319 0.604020 -0.040527
-0.333790 0.604524 -0.040786
-0.332577 0.607496 -0.041686
-0.329019 0.606314 -0.041459
-0.325790 0.605797 -0.041392
-0.322987 0.606137 -0.041537
-0.320581 0.607303 -0.041884
-0.317836 0.607920 -0.042067
-0.315424 0.609257 -0.042425
-0.312639 0.609966 -0.042598
-0.309618 0.610292 -0.042651
-0.306619 0.610729 -0.042719
-0.303504 0.610999 -0.042726
-0.300208 0.610961 -0.042636
-0.295953 0.609011 -0.042021
-0.292629 0.608983 -0.041907
-0.289135 0.608636 -0.041695
-0.286417 0.609959 -0.041917
-0.283198 0.610267 -0.041857
-0.280173 0.611028 -0.041908
-0.276893 0.611265 -0.041811
-0.273426 0.611107 -0.041601
-0.270414 0.611979 -0.041658
-0.266921 0.611780 -0.041425
-0.263394 0.611494 -0.041164
-0.259874 0.611216 -0.040902
-0.256641 0.611602 -0.040811
-0.253484 0.612168 -0.040766
-0.249746 0.611318 -0.040346
-0.246247 0.611015 -0.040069
-0.242746 0.610677 -0.039783
-0.239377 0.610639 -0.039576
-0.236443 0.611695 -0.039656
-0.233453 0.612607 -0.039699
-0.229896 0.612007 -0.039349
-0.226683 0.612281 -0.039228
-0.223466 0.612520 -0.039101
-0.220024 0.612101 -0.038806
-0.216507 0.611422 -0.038446
-0.213003 0.610717 -0.038084
-0.209922 0.611181 -0.038028
-0.206913 0.611836 -0.038025
-0.203724 0.611929 -0.037880
-0.200509 0.611901 -0.037708
-0.197241 0.611668 -0.037488
-0.194130 0.611879 -0.037385
-0.191164 0.612523 -0.037399
-0.188065 0.612710 -0.037299
-0.184670 0.611875 -0.036940
-0.181696 0.612395 -0.036934
-0.178768 0.613048 -0.036967
-0.175425 0.612229 -0.036626
-0.172159 0.611613 -0.036341
-0.169244 0.612205 -0.036371
-0.166308 0.612708 -0.036381
-0.163531 0.613786 -0.036542
-0.159886 0.611517 -0.035853
-0.156998 0.612101 -0.035897
-0.153980 0.612140 -0.035805
-0.151046 0.612489 -0.035797
-0.148087 0.612712 -0.035760
-0.145219 0.613290 -0.035817
-0.142216 0.613271 -0.035727
-0.139206 0.613178 -0.035621
-0.136249 0.613289 -0.035571
-0.133182 0.612855 -0.035385
-0.130182 0.612685 -0.035271
-0.127320 0.613146 -0.035320
-0.124466 0.613635 -0.035380
-0.121452 0.613290 -0.035231
-0.118316 0.612251 -0.034910
-0.115445 0.612561 -0.034934
-0.112674 0.613410 -0.035098
-0.109817 0.613788 -0.035145
-0.107019 0.614496 -0.035279
-0.104005 0.613909 -0.035088
-0.101013 0.613388 -0.034917
-0.098102 0.613331 -0.034866
-0.095129 0.612823 -0.034703
-0.092261 0.612977 -0.034711
-0.089417 0.613283 -0.034760
-0.086545 0.613381 -0.034758
-0.083581 0.612751 -0.034576
-0.080807 0.613548 -0.034756
-0.078000 0.614106 -0.034879
-0.075107 0.613952 -0.034823
-0.072179 0.613447 -0.034682
-0.069326 0.613565 -0.034700
-0.066355 0.612523 -0.034427
-0.063516 0.612700 -0.034465
-0.060768 0.613855 -0.034751
-0.057979 0.614634 -0.034945
-0.055118 0.614623 -0.034941
-0.052131 0.612979 -0.034527
-0.049264 0.612727 -0.034466
-0.046468 0.613435 -0.034650
-0.043666 0.614140 -0.034834
-0.040818 0.614170 -0.034851
-0.037898 0.612855 -0.034529
-0.035059 0.612878 -0.034547
-0.032326 0.615255 -0.035162
-0.029512 0.616144 -0.035402
-0.026698 0.617235 -0.035695
-0.023960 0.621126 -0.036698
-0.021165 0.624203 -0.037497
-0.018053 0.613837 -0.034900
-0.015197 0.612884 -0.034684
-0.012372 0.613809 -0.034944
-0.009526 0.612951 -0.034755
-0.006685 0.610885 -0.034261
-0.003860 0.610826 -0.034277
-0.001026 0.612026 -0.034613
0.001834 0.614468 -0.035266
0.004701 0.615901 -0.035665
0.007573 0.616878 -0.035950
0.010387 0.615272 -0.035583
0.013201 0.614138 -0.035337
0.015949 0.611433 -0.034694
0.018692 0.609227 -0.034179
0.021582 0.610728 -0.034606
0.024635 0.615187 -0.035784
0.027210 0.610099 -0.034543
0.030256 0.613735 -0.035517
0.033249 0.616001 -0.036146
0.036022 0.614712 -0.035874
0.038947 0.615651 -0.036169
0.041787 0.615364 -0.036155
0.044721 0.616215 -0.036432
0.047557 0.615838 -0.036399
0.050266 0.614113 -0.036025
0.053077 0.613579 -0.035955
0.055941 0.613581 -0.036024
0.058895 0.614411 -0.036306
0.061775 0.614482 -0.036397
0.065437 0.621242 -0.038197
0.067185 0.611650 -0.035827
0.070029 0.611464 -0.035859
0.072940 0.611785 -0.036022
0.075882 0.612277 -0.036232
0.078491 0.610348 -0.035825
0.081280 0.609757 -0.035762
0.084162 0.609793 -0.035862
0.087100 0.610167 -0.036051
0.090744 0.614903 -0.037362
0.094269 0.618613 -0.038413
0.097660 0.621295 -0.039205
0.100273 0.619337 -0.038808
0.101916 0.612051 -0.037044
0.104628 0.610925 -0.036865
0.107454 0.610427 -0.036851
0.110112 0.609059 -0.036615
0.112852 0.608146 -0.036499
0.116054 0.609507 -0.036972
0.119542 0.612142 -0.037779
0.122598 0.612609 -0.038030
0.125872 0.614014 -0.038527
0.128734 0.613485 -0.038527
0.131703 0.613410 -0.038649
0.133931 0.610138 -0.037945
0.137693 0.613395 -0.038939
0.141956 0.618536 -0.040427
0.144804 0.617747 -0.040380
0.147912 0.617978 -0.040602
0.152140 0.622490 -0.041944
0.154218 0.618646 -0.041112
0.157705 0.620147 -0.041678
0.160692 0.619733 -0.041749
0.163607 0.619034 -0.041750
0.166739 0.619086 -0.041951
0.169305 0.617142 -0.041633
0.171419 0.613696 -0.040924
0.175340 0.616351 -0.041823
0.178221 0.615468 -0.041795
0.180431 0.612414 -0.041199
0.183880 0.613344 -0.041658
0.187243 0.613937 -0.042033
0.188258 0.607277 -0.040492
0.191701 0.608106 -0.040937
0.195093 0.608720 -0.041330
0.198163 0.608330 -0.041462
0.201170 0.607733 -0.041542
0.204265 0.607364 -0.041687
0.208190 0.609276 -0.042446
0.211437 0.609232 -0.042686
0.215436 0.611184 -0.043466
0.219959 0.614435 -0.044601
0.221806 0.610529 -0.043816
0.224338 0.608473 -0.043530
0.227020 0.606822 -0.043354
0.229838 0.605526 -0.043276
0.232664 0.604254 -0.043205
0.240363 0.614893 -0.046367
0.241910 0.610385 -0.045423
0.244499 0.608450 -0.045176
0.249917 0.613179 -0.046746
0.250482 0.606528 -0.045210
0.253788 0.606294 -0.045424
0.257649 0.607303 -0.045976
0.260743 0.606564 -0.046047
0.264235 0.606712 -0.046358
0.267565 0.606498 -0.046565
0.271148 0.606833 -0.046918
0.274355 0.606366 -0.047044
0.277549 0.605890 -0.047160
0.280610 0.605166 -0.047199
0.284266 0.605687 -0.047574
0.287284 0.604932 -0.047585
0.290079 0.603776 -0.047472
0.297285 0.611375 -0.049787
0.299703 0.609503 -0.049451
0.300919 0.605394 -0.048474
0.307221 0.611123 -0.050232
0.309087 0.608403 -0.049612
0.311392 0.606612 -0.049235
0.314194 0.605834 -0.049124
0.317720 0.606457 -0.049388
0.321312 0.607248 -0.049681
0.323171 0.604976 -0.049096
0.323085 0.599350 -0.047551
0.323532 0.594836 -0.046299
0.322397 0.587705 -0.044294
0.326862 0.590477 -0.045050
0.329718 0.590508 -0.045018
-0.338784 0.603608 -0.043246
-0.336399 0.604251 -0.043571
-0.334665 0.606150 -0.044222
-0.332263 0.606952 -0.044556
-0.329419 0.607036 -0.044678
-0.325003 0.604303 -0.044015
-0.323228 0.606509 -0.044677
-0.320400 0.606850 -0.044815
-0.318044 0.608167 -0.045200
-0.314930 0.608128 -0.045198
-0.312213 0.608923 -0.045406
-0.309285 0.609388 -0.045507
-0.306732 0.610664 -0.045812
-0.303857 0.611382 -0.045948
-0.299349 0.608871 -0.045191
-0.296201 0.609129 -0.045173
-0.292871 0.609064 -0.045053
-0.289912 0.609812 -0.045141
-0.286386 0.609414 -0.044906
-0.283456 0.610314 -0.045011
-0.280113 0.610364 -0.044876
-0.276870 0.610656 -0.044798
-0.273754 0.611254 -0.044793
-0.270624 0.611847 -0.044780
-0.267279 0.611971 -0.044633
-0.263847 0.611900 -0.044429
-0.260214 0.611354 -0.044092
-0.256729 0.611137 -0.043840
-0.253402 0.611285 -0.043684
-0.250044 0.611347 -0.043502
-0.246655 0.611315 -0.043294
-0.242872 0.610275 -0.042815
-0.239792 0.610968 -0.042801
-0.236796 0.611873 -0.042843
-0.233289 0.611436 -0.042527
-0.229857 0.611158 -0.042256
-0.226682 0.611529 -0.042159
-0.223502 0.611863 -0.042055
-0.220275 0.612043 -0.041912
-0.216761 0.611381 -0.041549
-0.213626 0.611744 -0.041461
-0.210595 0.612385 -0.041449
-0.206707 0.610469 -0.040766
-0.203780 0.611339 -0.040822
-0.200976 0.612573 -0.040978
-0.197458 0.611586 -0.040552
-0.194471 0.612203 -0.040553
-0.191425 0.612609 -0.040503
-0.188271 0.612634 -0.040356
-0.184940 0.612026 -0.040048
-0.181749 0.611832 -0.039853
-0.178678 0.612001 -0.039758
-0.175705 0.612473 -0.039746
-0.172433 0.611859 -0.039454
-0.169387 0.611998 -0.039364
-0.166440 0.612471 -0.039365
-0.163418 0.612636 -0.039289
-0.160532 0.613288 -0.039345
-0.156942 0.611164 -0.038682
-0.153974 0.611405 -0.038640
-0.151087 0.611948 -0.038680
-0.148137 0.612212 -0.038650
-0.145168 0.612372 -0.038599
-0.142041 0.611807 -0.038362
-0.139226 0.612568 -0.038474
-0.136210 0.612417 -0.038353
-0.133212 0.612300 -0.038244
-0.130410 0.613080 -0.038372
-0.127470 0.613189 -0.038329
-0.124526 0.613246 -0.038276
-0.121528 0.612996 -0.038147
-0.118422 0.612128 -0.037862
-0.115593 0.612682 -0.037948
-0.112904 0.614007 -0.038236
-0.110195 0.615265 -0.038509
-0.107072 0.614122 -0.038166
-0.104197 0.614387 -0.038189
-0.101180 0.613747 -0.037982
-0.098056 0.612345 -0.037582
-0.095133 0.612164 -0.037499
-0.092289 0.612482 -0.037547
-0.089460 0.612900 -0.037624
-0.086534 0.612599 -0.037518
-0.083780 0.613561 -0.037741
-0.080949 0.613961 -0.037821
-0.078030 0.613639 -0.037717
-0.075106 0.613227 -0.037593
-0.072246 0.613316 -0.037601
-0.069345 0.613006 -0.037508
-0.066496 0.613152 -0.037534
-0.063719 0.614023 -0.037750
-0.060871 0.614187 -0.037785
-0.058047 0.614620 -0.037892
-0.055114 0.613774 -0.037672
-0.052203 0.613067 -0.037490
-0.049337 0.612868 -0.037441
-0.046504 0.613089 -0.037501
-0.043680 0.613447 -0.037599
-0.040834 0.613491 -0.037618
-0.037933 0.612500 -0.037373
-0.035067 0.612001 -0.037256
-0.032357 0.614825 -0.037997
-0.029628 0.617804 -0.038779
-0.026778 0.618200 -0.038898
-0.023937 0.618933 -0.039106
-0.021158 0.622304 -0.039995
-0.018064 0.612481 -0.037487
-0.015242 0.613342 -0.037733
-0.012404 0.613462 -0.037790
-0.009558 0.612572 -0.037588
-0.006721 0.612174 -0.037515
-0.003887 0.612220 -0.037558
-0.001038 0.614474 -0.038172
0.001808 0.614515 -0.038217
0.004632 0.613188 -0.037911
0.007470 0.613121 -0.037932
0.010344 0.614461 -0.038318
0.013254 0.616507 -0.038888
0.016068 0.615289 -0.038617
0.018820 0.612783 -0.038014
0.021738 0.614492 -0.038503
0.024423 0.611174 -0.037693
0.027311 0.612117 -0.037987
0.030366 0.615731 -0.038975
0.033174 0.614906 -0.038815
0.035993 0.614349 -0.038727
0.038931 0.615461 -0.039073
0.041963 0.617608 -0.039690
0.044869 0.617965 -0.039844
0.047765 0.618162 -0.039960
0.050456 0.616092 -0.039489
0.053151 0.614240 -0.039077
0.056085 0.614882 -0.039314
0.059121 0.616401 -0.039781
0.062392 0.619865 -0.040756
0.065079 0.618009 -0.040351
0.067671 0.615488 -0.039774
0.069914 0.610372 -0.038524
0.072897 0.611261 -0.038839
0.075809 0.611532 -0.038996
0.078492 0.610137 -0.038720
0.081246 0.609292 -0.038590
0.084238 0.610060 -0.038884
0.087295 0.611173 -0.039271
0.090683 0.614258 -0.040176
0.094054 0.617036 -0.041004
0.096943 0.616785 -0.041044
0.100546 0.620607 -0.042154
0.102060 0.612554 -0.040155
0.104836 0.611740 -0.040056
0.107619 0.610981 -0.039973
0.110125 0.608802 -0.039520
0.112880 0.607951 -0.039419
0.116226 0.610007 -0.040086
0.119471 0.611450 -0.040595
0.122485 0.611716 -0.040799
0.125546 0.612153 -0.041051
0.128677 0.612850 -0.041376
0.131962 0.614153 -0.041865
0.135555 0.616686 -0.042684
0.137063 0.610350 -0.041160
0.141130 0.614734 -0.042477
0.146351 0.623538 -0.044973
0.148741 0.620810 -0.044416
0.151398 0.619181 -0.044154
0.155204 0.621927 -0.045060
0.157539 0.619071 -0.044479
0.160317 0.617899 -0.044350
0.163802 0.619259 -0.044900
0.167466 0.621157 -0.045601
0.168957 0.615458 -0.044273
0.171239 0.612597 -0.043707
0.174353 0.612564 -0.043903
0.177854 0.613762 -0.044434
0.180053 0.610688 -0.043821
0.183537 0.611741 -0.044322
0.187228 0.613364 -0.044983
0.188513 0.607533 -0.043636
0.191928 0.608258 -0.044062
0.195072 0.608119 -0.044260
0.198278 0.608125 -0.044502
0.201133 0.607082 -0.044463
0.204139 0.606459 -0.044542
0.208173 0.608676 -0.045399
0.210944 0.607324 -0.045287
0.214103 0.607022 -0.045465
0.219343 0.612230 -0.047156
0.221682 0.609640 -0.046715
0.224281 0.607763 -0.046472
0.227124 0.606527 -0.046406
0.229844 0.604983 -0.046256
0.232697 0.603783 -0.046202
0.240796 0.615392 -0.049693
0.242729 0.611807 -0.048985
0.244735 0.608468 -0.048342
0.248144 0.608486 -0.048630
0.250568 0.606202 -0.048276
0.253866 0.605958 -0.048487
0.257380 0.606193 -0.048830
0.260794 0.606187 -0.049103
0.264142 0.606032 -0.049331
0.267639 0.606199 -0.049643
0.271955 0.608118 -0.050444
0.275356 0.608059 -0.050682
0.277702 0.605808 -0.050294
0.281413 0.606443 -0.050711
0.284330 0.605462 -0.050662
0.287027 0.604084 -0.050489
0.291359 0.606024 -0.051244
0.294769 0.606137 -0.051469
0.295441 0.600945 -0.050172
0.298699 0.600894 -0.050322
0.307843 0.612121 -0.053668
0.308530 0.607196 -0.052399
0.310931 0.605628 -0.052069
0.314111 0.605590 -0.052157
0.317322 0.605668 -0.052261
0.320412 0.605591 -0.052301
0.323000 0.604677 -0.052084
0.323692 0.600469 -0.050907
0.322970 0.593915 -0.049039
0.324091 0.590769 -0.048127
0.326405 0.589816 -0.047823
0.338569 0.605886 -0.052364
-0.337942 0.602258 -0.045836
-0.336305 0.604188 -0.046531
-0.334895 0.606638 -0.047353
-0.332133 0.606759 -0.047513
-0.329408 0.607027 -0.047696
-0.325690 0.605545 -0.047375
-0.322963 0.605955 -0.047561
-0.321005 0.607893 -0.048152
-0.317322 0.606668 -0.047847
-0.314479 0.607098 -0.047984
-0.311720 0.607767 -0.048169
-0.309188 0.608960 -0.048483
-0.305805 0.608558 -0.048336
-0.304238 0.611832 -0.049193
-0.299946 0.609734 -0.048543
-0.296242 0.608838 -0.048213
-0.293260 0.609459 -0.048288
-0.290251 0.610080 -0.048350
-0.287070 0.610390 -0.048312
-0.283458 0.609818 -0.048019
-0.280285 0.610209 -0.047982
-0.277020 0.610432 -0.047888
-0.273875 0.610946 -0.047866
-0.270466 0.610891 -0.047679
-0.267119 0.610985 -0.047525
-0.263858 0.611282 -0.047422
-0.260738 0.611919 -0.047407
-0.257511 0.612314 -0.047321
-0.254120 0.612317 -0.047124
-0.250892 0.612705 -0.047030
-0.247096 0.611686 -0.046550
-0.243578 0.611318 -0.046246
-0.239865 0.610418 -0.045798
-0.236643 0.610733 -0.045681
-0.233866 0.612194 -0.045876
-0.229859 0.610407 -0.045190
-0.226650 0.610684 -0.045066
-0.223597 0.611361 -0.045053
-0.220488 0.611867 -0.044995
-0.217013 0.611322 -0.044656
-0.213848 0.611611 -0.044545
-0.210805 0.612223 -0.044525
-0.206970 0.610476 -0.043872
-0.204204 0.611840 -0.044061
-0.200279 0.609676 -0.043306
-0.198063 0.612696 -0.043946
-0.195018 0.613161 -0.043905
-0.191482 0.612028 -0.043439
-0.188188 0.611598 -0.043166
-0.184827 0.610891 -0.042824
-0.182117 0.612318 -0.043056
-0.178793 0.611641 -0.042731
-0.175428 0.610753 -0.042355
-0.172543 0.611503 -0.042419
-0.169635 0.612153 -0.042461
-0.166598 0.612311 -0.042376
-0.163261 0.611301 -0.041985
-0.160684 0.613139 -0.042355
-0.157042 0.610823 -0.041626
-0.154047 0.610970 -0.041556
-0.151114 0.611335 -0.041547
-0.148179 0.611667 -0.041534
-0.145267 0.612072 -0.041544
-0.142191 0.611743 -0.041363
-0.139450 0.612855 -0.041568
-0.136574 0.613361 -0.041616
-0.133528 0.613065 -0.041456
-0.130528 0.612935 -0.041343
-0.127666 0.613440 -0.041402
-0.124508 0.612451 -0.041070
-0.121579 0.612557 -0.041031
-0.118653 0.612642 -0.040989
-0.116002 0.614194 -0.041338
-0.113138 0.614605 -0.041388
-0.110198 0.614580 -0.041328
-0.107346 0.615032 -0.041396
-0.104322 0.614438 -0.041192
-0.101479 0.614906 -0.041270
-0.098285 0.613119 -0.040759
-0.095336 0.612806 -0.040638
-0.092505 0.613255 -0.040720
-0.089486 0.612370 -0.040454
-0.086668 0.612867 -0.040555
-0.083890 0.613680 -0.040741
-0.081095 0.614391 -0.040902
-0.078073 0.613263 -0.040584
-0.075265 0.613845 -0.040717
-0.072394 0.613896 -0.040713
-0.069413 0.612890 -0.040434
-0.066576 0.613171 -0.040495
-0.063737 0.613426 -0.040551
-0.060913 0.613845 -0.040653
-0.058031 0.613636 -0.040593
-0.055124 0.613062 -0.040439
-0.052258 0.612929 -0.040402
-0.049427 0.613215 -0.040478
-0.046603 0.613620 -0.040587
-0.043742 0.613492 -0.040558
-0.040873 0.613186 -0.040485
-0.037998 0.612679 -0.040361
-0.035112 0.611837 -0.040151
-0.032323 0.612951 -0.040456
-0.029646 0.617039 -0.041543
-0.026852 0.618923 -0.042054
-0.024051 0.621154 -0.042658
-0.021148 0.620293 -0.042453
-0.018127 0.613503 -0.040693
-0.015270 0.612700 -0.040506
-0.012432 0.612720 -0.040537
-0.009595 0.612870 -0.040604
-0.006752 0.611282 -0.040216
-0.003916 0.613055 -0.040713
-0.001067 0.614408 -0.041101
0.001779 0.614382 -0.041129
0.004596 0.612542 -0.040682
0.007439 0.612767 -0.040779
0.010360 0.615872 -0.041636
0.013241 0.616698 -0.041896
0.016115 0.617107 -0.042048
0.018997 0.617580 -0.042218
0.021831 0.616862 -0.042077
0.024654 0.616032 -0.041908
0.027592 0.617450 -0.042333
0.030439 0.617081 -0.042289
0.033191 0.615260 -0.041864
0.036041 0.615088 -0.041876
0.038991 0.616276 -0.042249
0.041960 0.617546 -0.042645
0.044859 0.617808 -0.042778
0.047685 0.617182 -0.042678
0.050340 0.614749 -0.042103
0.052902 0.611582 -0.041335
0.056154 0.615437 -0.042426
0.059194 0.616942 -0.042899
0.062252 0.618454 -0.043376
0.065147 0.618422 -0.043446
0.067357 0.612714 -0.042015
0.070138 0.611948 -0.041895
0.073005 0.611877 -0.041961
0.075835 0.611504 -0.041950
0.078725 0.611558 -0.042055
0.081557 0.611182 -0.042049
0.084487 0.611462 -0.042219
0.087197 0.610274 -0.042001
0.090655 0.613810 -0.043044
0.093586 0.613912 -0.043176
0.097044 0.617080 -0.044129
0.099721 0.615576 -0.043839
0.102032 0.612081 -0.043019
0.104771 0.611065 -0.042864
0.107640 0.610761 -0.042903
0.110411 0.609935 -0.042804
0.113025 0.608328 -0.042500
0.116408 0.610537 -0.043222
0.119850 0.612895 -0.043987
0.122927 0.613405 -0.044261
0.126014 0.613903 -0.044536
0.128830 0.613134 -0.044474
0.132617 0.616609 -0.045559
0.134767 0.612904 -0.044714
0.137794 0.612990 -0.044893
0.140663 0.612387 -0.044891
0.143391 0.611211 -0.044737
0.146244 0.610537 -0.044723
0.149608 0.611822 -0.045243
0.152602 0.611621 -0.045366
0.155309 0.610325 -0.045196
0.158331 0.610188 -0.045344
0.161282 0.609763 -0.045418
0.164155 0.609042 -0.045416
0.166763 0.607397 -0.045166
0.169602 0.606549 -0.045137
0.173139 0.608013 -0.045745
0.176653 0.609316 -0.046314
0.179996 0.609981 -0.046714
0.182778 0.608813 -0.046616
0.186770 0.611404 -0.047556
0.189566 0.610213 -0.047460
0.192220 0.608592 -0.047250
0.195265 0.608139 -0.047366
0.198365 0.607823 -0.047524
0.201345 0.607131 -0.047581
0.204211 0.606100 -0.047549
0.208438 0.608845 -0.048569
0.211467 0.608188 -0.048649
0.214257 0.606869 -0.048547
0.220854 0.615669 -0.051273
0.221094 0.607527 -0.049273
0.224092 0.606705 -0.049318
0.227561 0.607070 -0.049699
0.230674 0.606502 -0.049820
0.232885 0.603686 -0.049309
0.240317 0.613657 -0.052403
0.243083 0.612101 -0.052252
0.245115 0.608823 -0.051612
0.248410 0.608567 -0.051825
0.250838 0.606299 -0.051465
0.253805 0.605301 -0.051463
0.257602 0.606188 -0.051994
0.260957 0.606059 -0.052232
0.264565 0.606484 -0.052625
0.268474 0.607548 -0.053196
0.272458 0.608752 -0.053802
0.275345 0.607615 -0.053729
0.278109 0.606260 -0.053584
0.281089 0.605401 -0.053572
0.283881 0.604197 -0.053450
0.286005 0.601702 -0.052942
0.289237 0.601501 -0.053084
0.294848 0.606024 -0.054580
0.296538 0.602849 -0.053834
0.300897 0.604928 -0.054595
0.307849 0.611958 -0.056777
0.307927 0.605915 -0.055150
0.310995 0.605638 -0.055179
0.314409 0.606066 -0.055394
0.317523 0.605995 -0.055446
0.320379 0.605521 -0.055363
0.322168 0.603204 -0.054723
0.324288 0.601588 -0.054269
0.325736 0.598883 -0.053478
0.323545 0.589931 -0.050850
0.327327 0.591562 -0.051283
0.339645 0.607917 -0.055979
-0.340247 0.606483 -0.049976
-0.336664 0.604952 -0.049717
-0.333704 0.604592 -0.049770
-0.331299 0.605308 -0.050108
-0.328565 0.605512 -0.050284
-0.325791 0.605723 -0.050443
-0.323192 0.606339 -0.050699
-0.320424 0.606723 -0.050871
-0.317192 0.606307 -0.050798
-0.313997 0.606025 -0.050744
-0.310993 0.606174 -0.050795
-0.308488 0.607369 -0.051123
-0.307119 0.610895 -0.052093
-0.303862 0.610786 -0.052018
-0.300787 0.611100 -0.052047
-0.296977 0.609973 -0.051652
-0.293638 0.609840 -0.051524
-0.290559 0.610292 -0.051546
-0.287369 0.610558 -0.051503
-0.283790 0.610036 -0.051225
-0.280448 0.610041 -0.051085
-0.277286 0.610467 -0.051053
-0.273704 0.609992 -0.050758
-0.270394 0.610132 -0.050627
-0.266953 0.609987 -0.050409
-0.263924 0.610794 -0.050451
-0.260853 0.611527 -0.050466
-0.257653 0.611972 -0.050396
-0.254575 0.612715 -0.050405
-0.251021 0.612312 -0.050091
-0.247702 0.612461 -0.049929
-0.243841 0.611243 -0.049385
-0.240405 0.611049 -0.049126
-0.237108 0.611180 -0.048957
-0.234075 0.611981 -0.048973
-0.230797 0.612128 -0.048810
-0.226756 0.610200 -0.048073
-0.223812 0.611171 -0.048141
-0.220429 0.610925 -0.047875
-0.217209 0.611093 -0.047725
-0.214036 0.611363 -0.047606
-0.210603 0.610851 -0.047276
-0.207703 0.611854 -0.047365
-0.204557 0.612114 -0.047253
-0.201383 0.612256 -0.047113
-0.197991 0.611688 -0.046783
-0.194818 0.611747 -0.046628
-0.191595 0.611609 -0.046424
-0.188322 0.611256 -0.046165
-0.185223 0.611432 -0.046055
-0.182068 0.611378 -0.045887
-0.179078 0.611848 -0.045866
-0.175835 0.611409 -0.045602
-0.172736 0.611425 -0.045466
-0.169717 0.611688 -0.045402
-0.166751 0.612120 -0.045388
-0.163713 0.612252 -0.045296
-0.160445 0.611466 -0.044961
-0.157715 0.612715 -0.045181
-0.154857 0.613464 -0.045269
-0.151253 0.611158 -0.044536
-0.148311 0.611476 -0.044517
-0.145473 0.612211 -0.044614
-0.142695 0.613205 -0.044784
-0.139812 0.613733 -0.044833
-0.136815 0.613727 -0.044742
-0.133370 0.611601 -0.044085
-0.130726 0.613155 -0.044421
-0.127585 0.612322 -0.044119
-0.124606 0.612222 -0.044018
-0.121787 0.612902 -0.044130
-0.118990 0.613700 -0.044277
-0.116101 0.614009 -0.044296
-0.112995 0.613092 -0.043990
-0.110048 0.613001 -0.043909
-0.107258 0.613798 -0.044069
-0.104355 0.613917 -0.044050
-0.101281 0.612952 -0.043745
-0.098602 0.614430 -0.044096
-0.095548 0.613489 -0.043803
-0.092618 0.613302 -0.043715
-0.089679 0.613010 -0.043601
-0.086728 0.612581 -0.043454
-0.083892 0.612959 -0.043525
-0.080979 0.612735 -0.043439
-0.078179 0.613386 -0.043589
-0.075387 0.614134 -0.043767
-0.072504 0.614112 -0.043741
-0.069501 0.612937 -0.043411
-0.066565 0.612275 -0.043220
-0.063692 0.612173 -0.043180
-0.060824 0.612088 -0.043148
-0.057973 0.612153 -0.043158
-0.055165 0.612711 -0.043303
-0.052321 0.612865 -0.043341
-0.049504 0.613371 -0.043476
-0.046652 0.613427 -0.043493
-0.043801 0.613471 -0.043508
-0.040952 0.613528 -0.043529
-0.038059 0.612775 -0.043336
-0.035124 0.611008 -0.042874
-0.032289 0.611049 -0.042897
-0.029591 0.614460 -0.043823
-0.026896 0.618831 -0.045007
-0.024120 0.621881 -0.045841
-0.021233 0.621839 -0.045850
-0.018191 0.614580 -0.043930
-0.015304 0.612389 -0.043368
-0.012455 0.611527 -0.043163
-0.009632 0.613112 -0.043614
-0.006787 0.612190 -0.043397
-0.003949 0.612141 -0.043415
-0.001101 0.613669 -0.043857
0.001739 0.613221 -0.043772
0.004579 0.613015 -0.043754
0.007470 0.615309 -0.044407
0.010335 0.615722 -0.044558
0.013210 0.616313 -0.044760
0.016061 0.616059 -0.044736
0.018879 0.615010 -0.044501
0.021788 0.616193 -0.044867
0.024701 0.617213 -0.045191
0.027514 0.616172 -0.044964
0.030322 0.615208 -0.044759
0.033173 0.615036 -0.044769
0.035933 0.613545 -0.044427
0.038988 0.616236 -0.045210
0.041906 0.616837 -0.045434
0.044625 0.614939 -0.044988
0.047444 0.614362 -0.044900
0.049897 0.609864 -0.043758
0.052717 0.609560 -0.043746
0.055877 0.612584 -0.044634
0.059197 0.616816 -0.045851
0.062306 0.618761 -0.046454
0.065190 0.618603 -0.046492
0.067317 0.612190 -0.044844
0.070117 0.611575 -0.044763
0.072978 0.611443 -0.044814
0.075906 0.611787 -0.044998
0.078723 0.611296 -0.044958
0.081568 0.611003 -0.044974
0.084241 0.609558 -0.044680
0.086973 0.608552 -0.044508
0.090475 0.612392 -0.045654
0.093370 0.612296 -0.045735
0.096046 0.610890 -0.045463
0.099792 0.615656 -0.046872
0.101843 0.610701 -0.045641
0.104489 0.609197 -0.045351
0.107479 0.609560 -0.045572
0.110386 0.609446 -0.045667
0.113001 0.607842 -0.045358
0.116539 0.610807 -0.046301
0.120053 0.613480 -0.047168
0.123266 0.614590 -0.047613
0.126117 0.613970 -0.047588
0.129077 0.613829 -0.047698
0.131019 0.609215 -0.046585
0.133987 0.609145 -0.046721
0.137389 0.610860 -0.047352
0.140382 0.610796 -0.047498
0.143080 0.609512 -0.047313
0.145951 0.608927 -0.047324
0.149287 0.610115 -0.047828
0.152246 0.609801 -0.047922
0.155113 0.609118 -0.047919
0.157652 0.607228 -0.047585
0.160879 0.607830 -0.047946
0.163988 0.607955 -0.048179
0.166867 0.607244 -0.048185
0.169360 0.605216 -0.047828
0.172476 0.605286 -0.048059
0.177313 0.610936 -0.049852
0.179949 0.609290 -0.049616
0.182997 0.608961 -0.049751
0.187697 0.613729 -0.051319
0.189963 0.610868 -0.050755
0.192742 0.609601 -0.050642
0.195554 0.608430 -0.050558
0.198595 0.607922 -0.050666
0.201322 0.606494 -0.050517
0.204419 0.606114 -0.050668
0.208575 0.608646 -0.051648
0.212011 0.609095 -0.052042
0.216693 0.612854 -0.053381
0.221739 0.617429 -0.054959
0.220855 0.606320 -0.052076
0.224132 0.606227 -0.052329
0.227618 0.606637 -0.052728
0.230926 0.606557 -0.052989
0.234423 0.606918 -0.053379
0.240202 0.612804 -0.055357
0.243249 0.611935 -0.055398
0.245802 0.609898 -0.055101
0.249112 0.609665 -0.055322
0.251218 0.606644 -0.054734
0.254174 0.605624 -0.054722
0.257847 0.606232 -0.055178
0.261076 0.605832 -0.055338
0.264911 0.606768 -0.055881
0.268456 0.607053 -0.056230
0.272346 0.608075 -0.056787
0.275141 0.606769 -0.056657
0.277381 0.604351 -0.056191
0.280118 0.603032 -0.056035
0.283006 0.602075 -0.055975
0.285672 0.600720 -0.055784
0.291169 0.605066 -0.057258
0.295241 0.606544 -0.057876
0.297549 0.604594 -0.057468
0.301708 0.606299 -0.058124
0.307859 0.611813 -0.059888
0.309132 0.608062 -0.058899
0.311597 0.606669 -0.058588
0.315190 0.607449 -0.058902
0.317677 0.606249 -0.058611
0.319940 0.604731 -0.058206
0.322667 0.604142 -0.058057
0.324605 0.602226 -0.057495
0.323561 0.595148 -0.055385
0.326236 0.594774 -0.055242
0.327128 0.591382 -0.054186
0.314719 0.565234 -0.046379
-0.340886 0.607786 -0.053313
-0.336162 0.604201 -0.052469
-0.332980 0.603404 -0.052405
-0.330533 0.604000 -0.052723
-0.328171 0.604839 -0.053092
-0.326743 0.607490 -0.053965
-0.323858 0.607555 -0.054075
-0.320205 0.606252 -0.053774
-0.317507 0.606810 -0.053989
-0.314224 0.606327 -0.053885
-0.311159 0.606327 -0.053903
-0.309701 0.609533 -0.054825
-0.306986 0.610388 -0.055053
-0.303910 0.610601 -0.055079
-0.300940 0.611092 -0.055167
-0.297481 0.610650 -0.054971
-0.294373 0.610972 -0.054979
-0.290642 0.610045 -0.054614
-0.287461 0.610303 -0.054575
-0.284006 0.610014 -0.054367
-0.280605 0.609870 -0.054188
-0.277178 0.609691 -0.053988
-0.273878 0.609812 -0.053865
-0.270851 0.610565 -0.053912
-0.267856 0.611423 -0.053982
-0.264565 0.611633 -0.053859
-0.260815 0.610779 -0.053426
-0.258036 0.612198 -0.053636
-0.254630 0.612150 -0.053424
-0.251482 0.612720 -0.053383
-0.247261 0.610650 -0.052591
-0.243515 0.609694 -0.052113
-0.240557 0.610684 -0.052187
-0.237683 0.611900 -0.052322
-0.234457 0.612210 -0.052202
-0.231173 0.612349 -0.052033
-0.227786 0.612185 -0.051780
-0.223761 0.610250 -0.051031
-0.220898 0.611434 -0.051162
-0.217234 0.610372 -0.050664
-0.214191 0.611011 -0.050646
-0.211331 0.612166 -0.050775
-0.207889 0.611605 -0.050427
-0.204863 0.612231 -0.050415
-0.201507 0.611835 -0.050121
-0.198368 0.612056 -0.050003
-0.194689 0.610544 -0.049406
-0.191774 0.611385 -0.049469
-0.188682 0.611636 -0.049372
-0.185422 0.611298 -0.049115
-0.182228 0.611129 -0.048910
-0.179119 0.611203 -0.048777
-0.176239 0.612036 -0.048859
-0.173213 0.612339 -0.048797
-0.169785 0.611159 -0.048331
-0.166736 0.611286 -0.048230
-0.163768 0.611684 -0.048209
-0.160526 0.611008 -0.047896
-0.157880 0.612595 -0.048210
-0.154961 0.613114 -0.048235
-0.151981 0.613371 -0.048192
-0.148539 0.611671 -0.047614
-0.145669 0.612290 -0.047679
-0.142940 0.613515 -0.047914
-0.140035 0.613972 -0.047942
-0.136839 0.613089 -0.047607
-0.133282 0.610449 -0.046794
-0.130764 0.612594 -0.047296
-0.127822 0.612740 -0.047255
-0.124802 0.612463 -0.047102
-0.121926 0.612877 -0.047141
-0.119074 0.613403 -0.047215
-0.116156 0.613567 -0.047192
-0.112989 0.612328 -0.046791
-0.110036 0.612202 -0.046697
-0.107163 0.612504 -0.046723
-0.104164 0.612029 -0.046540
-0.101409 0.613011 -0.046758
-0.098559 0.613416 -0.046822
-0.095650 0.613428 -0.046781
-0.092678 0.612974 -0.046617
-0.089728 0.612612 -0.046480
-0.086785 0.612249 -0.046347
-0.083875 0.612081 -0.046269
-0.080993 0.612083 -0.046241
-0.078202 0.612809 -0.046412
-0.075411 0.613565 -0.046595
-0.072543 0.613675 -0.046603
-0.069569 0.612779 -0.046341
-0.066627 0.612086 -0.046136
-0.063698 0.611423 -0.045942
-0.060802 0.611027 -0.045824
-0.058020 0.611847 -0.046038
-0.055227 0.612598 -0.046237
-0.052389 0.612846 -0.046300
-0.049527 0.612781 -0.046281
-0.046675 0.612824 -0.046293
-0.043852 0.613299 -0.046425
-0.041023 0.613722 -0.046545
-0.038190 0.614117 -0.046660
-0.035146 0.610350 -0.045644
-0.032307 0.610294 -0.045640
-0.029551 0.612242 -0.046183
-0.026821 0.615367 -0.047050
-0.024082 0.619185 -0.048107
-0.021204 0.619073 -0.048096
-0.018198 0.612936 -0.046446
-0.015340 0.612127 -0.046249
-0.012508 0.612799 -0.046457
-0.009662 0.612343 -0.046360
-0.006818 0.611346 -0.046118
-0.003982 0.611741 -0.046257
-0.001132 0.613489 -0.046766
0.001702 0.612385 -0.046500
0.004547 0.612610 -0.046599
0.007452 0.615546 -0.047439
0.010278 0.614336 -0.047150
0.013050 0.611699 -0.046473
0.015896 0.611846 -0.046558
0.018735 0.611780 -0.046586
0.021571 0.611639 -0.046597
0.024450 0.612359 -0.046844
0.027236 0.611214 -0.046584
0.030114 0.611793 -0.046797
0.032956 0.611705 -0.046830
0.035784 0.611396 -0.046805
0.038780 0.613402 -0.047415
0.041501 0.611607 -0.046987
0.044526 0.613675 -0.047619
0.047096 0.610303 -0.046762
0.049848 0.609224 -0.046536
0.052684 0.609092 -0.046572
0.056012 0.613757 -0.047927
0.059348 0.618057 -0.049185
0.062369 0.619145 -0.049565
0.065262 0.619018 -0.049613
0.067417 0.612801 -0.047988
0.070154 0.611641 -0.047756
0.072996 0.611341 -0.047763
0.075911 0.611579 -0.047921
0.078657 0.610567 -0.047737
0.081364 0.609329 -0.047494
0.084055 0.608036 -0.047237
0.086772 0.606964 -0.047044
0.090347 0.611288 -0.048345
0.092693 0.607880 -0.047512
0.095427 0.606923 -0.047360
0.100270 0.618055 -0.050557
0.101660 0.609339 -0.048263
0.104480 0.608799 -0.048235
0.107723 0.610484 -0.048828
0.110145 0.607839 -0.048223
0.113377 0.609350 -0.048775
0.116674 0.611077 -0.049392
0.120413 0.614800 -0.050569
0.123287 0.614280 -0.050569
0.126070 0.613336 -0.050455
0.128975 0.612946 -0.050498
0.131173 0.609453 -0.049678
0.134073 0.609075 -0.049732
0.137163 0.609467 -0.050005
0.140211 0.609639 -0.050221
0.143001 0.608729 -0.050138
0.145888 0.608205 -0.050168
0.149234 0.609429 -0.050692
0.152101 0.608763 -0.050690
0.154803 0.607471 -0.050516
0.158150 0.608535 -0.051010
0.161061 0.607967 -0.051048
0.164026 0.607568 -0.051139
0.166844 0.606639 -0.051084
0.169691 0.605802 -0.051059
0.172151 0.603671 -0.050671
0.177700 0.611652 -0.053161
0.180788 0.611428 -0.053326
0.183841 0.611064 -0.053456
0.187520 0.612611 -0.054135
0.190201 0.611023 -0.053925
0.193011 0.609832 -0.053831
0.195961 0.609052 -0.053860
0.198573 0.607276 -0.053606
0.201595 0.606690 -0.053696
0.204255 0.605064 -0.053492
0.208936 0.609056 -0.054910
0.213053 0.611350 -0.055845
0.216487 0.611701 -0.056224
0.220116 0.612520 -0.056742
0.220815 0.605623 -0.055024
0.224336 0.606164 -0.055464
0.227841 0.606616 -0.055882
0.231242 0.606765 -0.056213
0.235325 0.608566 -0.057029
0.240641 0.613294 -0.058704
0.242833 0.610366 -0.058139
0.245477 0.608569 -0.057903
0.248753 0.608277 -0.058107
0.251616 0.607026 -0.058026
0.255073 0.607147 -0.058346
0.257876 0.605791 -0.058225
0.261275 0.605782 -0.058499
0.264888 0.606245 -0.058906
0.269288 0.608400 -0.059810
0.272132 0.607184 -0.059706
0.274696 0.605420 -0.059430
0.286584 0.623154 -0.064958
0.292246 0.627663 -0.066539
0.294028 0.624191 -0.065726
0.289058 0.607235 -0.060860
0.292112 0.606669 -0.060882
0.296474 0.608728 -0.061676
0.297640 0.604561 -0.060587
0.299369 0.601614 -0.059846
0.307314 0.610629 -0.062683
0.308358 0.606489 -0.061549
0.311863 0.607088 -0.061822
0.315173 0.607374 -0.061981
0.318024 0.606876 -0.061886
0.320205 0.605237 -0.061427
0.322841 0.604512 -0.061224
0.324570 0.602254 -0.060539
0.324850 0.597547 -0.059096
0.326888 0.596068 -0.058608
0.327444 0.592114 -0.057355
0.325360 0.583752 -0.054757
-0.336986 0.601086 -0.054325
-0.334717 0.601790 -0.054722
-0.332657 0.602953 -0.055237
-0.330170 0.603441 -0.055536
-0.328572 0.605636 -0.056317
-0.327194 0.608353 -0.057234
-0.323501 0.606886 -0.056907
-0.320759 0.607252 -0.057097
-0.318012 0.607689 -0.057290
-0.315428 0.608520 -0.057580
-0.311482 0.606802 -0.057103
-0.308592 0.607180 -0.057223
-0.306706 0.609609 -0.057926
-0.304025 0.610568 -0.058179
-0.300270 0.609441 -0.057805
-0.297501 0.610354 -0.058011
-0.293523 0.608848 -0.057493
-0.291070 0.610533 -0.057894
-0.287377 0.609686 -0.057540
-0.284178 0.609910 -0.057485
-0.280767 0.609716 -0.057296
-0.277269 0.609359 -0.057048
-0.274403 0.610414 -0.057201
-0.270904 0.610097 -0.056944
-0.268261 0.611731 -0.057246
-0.265151 0.612344 -0.057243
-0.261512 0.611746 -0.056881
-0.257521 0.610306 -0.056270
-0.254877 0.612046 -0.056576
-0.251096 0.611070 -0.056091
-0.247510 0.610535 -0.055731
-0.244099 0.610410 -0.055487
-0.241158 0.611453 -0.055579
-0.238210 0.612489 -0.055667
-0.235076 0.613047 -0.055616
-0.231714 0.612994 -0.055390
-0.227985 0.611930 -0.054875
-0.224872 0.612479 -0.054824
-0.220698 0.610082 -0.053932
-0.217677 0.610812 -0.053937
-0.214536 0.611188 -0.053843
-0.211418 0.611607 -0.053765
-0.208749 0.613322 -0.054058
-0.204700 0.610932 -0.053185
-0.201592 0.611280 -0.053097
-0.198468 0.611551 -0.052990
-0.195402 0.611973 -0.052929
-0.192049 0.611452 -0.052605
-0.188872 0.611443 -0.052431
-0.185656 0.611264 -0.052213
-0.182539 0.611369 -0.052080
-0.179504 0.611719 -0.052020
-0.176349 0.611618 -0.051838
-0.173185 0.611442 -0.051639
-0.169951 0.610962 -0.051359
-0.166851 0.610919 -0.051207
-0.163752 0.610835 -0.051047
-0.160987 0.611988 -0.051240
-0.157879 0.611805 -0.051061
-0.154965 0.612349 -0.051092
-0.151946 0.612447 -0.051001
-0.148766 0.611840 -0.050717
-0.145868 0.612363 -0.050754
-0.143072 0.613315 -0.050915
-0.140105 0.613515 -0.050870
-0.136816 0.612219 -0.050410
-0.133629 0.611303 -0.050062
-0.130754 0.611788 -0.050108
-0.128093 0.613298 -0.050445
-0.124961 0.612502 -0.050141
-0.121916 0.612073 -0.049945
-0.119229 0.613464 -0.050259
-0.116178 0.612933 -0.050041
-0.113153 0.612482 -0.049849
-0.110084 0.611722 -0.049575
-0.107314 0.612636 -0.049769
-0.104534 0.613511 -0.049957
-0.101546 0.613110 -0.049793
-0.098591 0.612864 -0.049675
-0.095691 0.612941 -0.049650
-0.092791 0.612983 -0.049619
-0.089815 0.612467 -0.049435
-0.086936 0.612591 -0.049433
-0.084124 0.613200 -0.049567
-0.081150 0.612551 -0.049356
-0.078235 0.612304 -0.049259
-0.075423 0.612885 -0.049395
-0.072493 0.612435 -0.049247
-0.069572 0.612007 -0.049108
-0.066702 0.612001 -0.049089
-0.063843 0.612080 -0.049096
-0.060987 0.612175 -0.049110
-0.058124 0.612169 -0.049098
-0.055281 0.612368 -0.049145
-0.052421 0.612359 -0.049138
-0.049526 0.611857 -0.048996
-0.046708 0.612354 -0.049133
-0.043904 0.613116 -0.049346
-0.041101 0.614004 -0.049596
-0.038247 0.614077 -0.049623
-0.035305 0.612399 -0.049166
-0.032404 0.611240 -0.048855
-0.029592 0.611968 -0.049070
-0.026831 0.614282 -0.049726
-0.024084 0.617726 -0.050698
-0.021255 0.619266 -0.051144
-0.018246 0.613210 -0.049486
-0.015389 0.612683 -0.049363
-0.012540 0.612345 -0.049294
-0.009697 0.612309 -0.049311
