ply
format ascii 1.0
comment ---
element vertex 1737
property float x
property float y
property float z
element face 0
property list uchar uint vertex_indices
end_header
0.179392 0.604167 0.104556
0.182328 0.603648 0.104615
0.183998 0.599113 0.103774
0.186866 0.598466 0.103794
0.189562 0.597309 0.103694
0.192340 0.596438 0.103651
0.195762 0.597516 0.104037
0.197866 0.594694 0.103543
0.201020 0.595004 0.103741
0.207829 0.605751 0.106273
0.210458 0.604444 0.106092
0.211938 0.600000 0.105194
0.214639 0.599038 0.105067
0.216990 0.597181 0.104725
0.218547 0.593283 0.103912
0.225363 0.603336 0.106227
0.227851 0.601929 0.105947
0.227040 0.592139 0.103763
0.229808 0.591681 0.103667
0.240400 0.610822 0.107974
0.237685 0.596687 0.104763
0.240663 0.596815 0.104752
0.241184 0.591058 0.103398
0.242874 0.588264 0.102696
0.246429 0.589971 0.102989
0.249034 0.589473 0.102770
0.251575 0.588885 0.102513
0.252431 0.584516 0.101391
0.259747 0.594868 0.103551
0.263270 0.596584 0.103757
0.261479 0.586563 0.101321
0.261572 0.580917 0.099851
0.265290 0.583294 0.100155
0.268099 0.583726 0.100008
-0.287424 0.601375 0.109105
-0.285227 0.602471 0.109532
-0.281806 0.600943 0.109334
-0.278716 0.600176 0.109293
-0.276393 0.601176 0.109643
-0.273690 0.601384 0.109791
-0.270884 0.601415 0.109880
-0.268370 0.602174 0.110119
-0.266107 0.603593 0.110492
-0.263114 0.603359 0.110464
-0.260091 0.603098 0.110410
-0.258143 0.605489 0.110954
-0.255169 0.605460 0.110918
-0.251130 0.602821 0.110259
-0.249039 0.605068 0.110716
-0.245192 0.602931 0.110140
-0.242250 0.603114 0.110085
-0.239628 0.604176 0.110218
-0.235813 0.602134 0.109618
-0.232936 0.602589 0.109581
-0.230232 0.603554 0.109648
-0.227364 0.604118 0.109608
-0.224194 0.603874 0.109370
-0.221542 0.605115 0.109462
-0.217883 0.603502 0.108887
-0.214748 0.603389 0.108647
-0.212188 0.604993 0.108790
-0.209080 0.604999 0.108559
-0.205707 0.604200 0.108137
-0.202452 0.603742 0.107786
-0.199295 0.603582 0.107498
-0.197117 0.606561 0.107916
-0.193669 0.605482 0.107408
-0.190433 0.605064 0.107046
-0.187355 0.605155 0.106797
-0.183933 0.604052 0.106276
-0.180934 0.604380 0.106076
-0.177479 0.603075 0.105508
-0.174475 0.603343 0.105293
-0.171737 0.604583 0.105294
-0.169553 0.607935 0.105765
-0.165672 0.604878 0.104809
-0.162590 0.604805 0.104518
-0.159616 0.605131 0.104318
-0.156670 0.605564 0.104143
-0.153609 0.605500 0.103861
-0.150456 0.605021 0.103489
-0.147513 0.605394 0.103308
-0.144855 0.607020 0.103405
-0.141752 0.606673 0.103072
-0.138754 0.606758 0.102837
-0.135703 0.606570 0.102547
-0.132757 0.606840 0.102360
-0.129706 0.606570 0.102060
-0.126690 0.606431 0.101792
-0.123582 0.605771 0.101417
-0.120751 0.606525 0.101351
-0.117744 0.606313 0.101082
-0.114789 0.606342 0.100869
-0.112013 0.607385 0.100879
-0.109231 0.608412 0.100889
-0.105925 0.606234 0.100216
-0.102874 0.605510 0.099861
-0.100041 0.606129 0.099798
-0.097242 0.606974 0.099788
-0.094245 0.606459 0.099492
-0.091021 0.604238 0.098839
-0.088246 0.605175 0.098862
-0.085366 0.605326 0.098724
-0.082463 0.605268 0.098545
-0.079639 0.605837 0.098504
-0.076991 0.607936 0.098792
-0.074115 0.608112 0.098677
-0.071072 0.606688 0.098228
-0.068113 0.605915 0.097923
-0.065254 0.606077 0.097819
-0.062382 0.606077 0.097687
-0.059478 0.605666 0.097472
-0.056584 0.605294 0.097270
-0.053719 0.605217 0.097135
-0.050950 0.606421 0.097273
-0.048096 0.606488 0.097178
-0.045279 0.607118 0.097204
-0.042475 0.608022 0.097292
-0.039586 0.607480 0.097083
-0.036724 0.607350 0.096963
-0.033959 0.609327 0.097288
-0.031190 0.611603 0.097680
-0.028433 0.614803 0.098267
-0.025588 0.616023 0.098446
-0.022639 0.613676 0.097887
-0.019691 0.610295 0.097118
-0.016857 0.611823 0.097374
-0.014002 0.612680 0.097495
-0.011143 0.614109 0.097740
-0.008260 0.611196 0.097086
-0.005400 0.609847 0.096763
-0.002540 0.610653 0.096891
0.000346 0.613000 0.097342
0.003220 0.613256 0.097365
0.006039 0.610595 0.096787
0.008923 0.611533 0.096959
0.011721 0.609255 0.096469
0.014427 0.604903 0.095554
0.017339 0.606826 0.095944
0.020186 0.606831 0.095941
0.023052 0.607189 0.096015
0.025950 0.608063 0.096201
0.028735 0.606793 0.095946
0.031480 0.605059 0.095600
0.034827 0.612528 0.097166
0.037741 0.612947 0.097276
0.040233 0.607730 0.096221
0.042719 0.603017 0.095274
0.046116 0.609435 0.096641
0.049051 0.610043 0.096808
0.051545 0.605905 0.095993
0.054287 0.604619 0.095776
0.057141 0.604484 0.095801
0.060352 0.607606 0.096509
0.064128 0.615413 0.098196
0.065953 0.606076 0.096321
0.068888 0.606442 0.096470
0.071754 0.606211 0.096498
0.074606 0.605853 0.096505
0.077511 0.605872 0.096596
0.080453 0.606122 0.096739
0.083318 0.605796 0.096766
0.086337 0.606469 0.097007
0.088578 0.602093 0.096197
0.092062 0.605658 0.097053
0.096698 0.615923 0.099319
0.100002 0.617778 0.099829
0.102667 0.615856 0.099551
0.105343 0.614065 0.099305
0.108076 0.612638 0.099139
0.110343 0.608795 0.098468
0.112578 0.604950 0.097799
0.114786 0.601125 0.097137
0.117739 0.601086 0.097277
0.119943 0.597444 0.096659
0.122721 0.596612 0.096639
0.127081 0.603003 0.098154
0.130677 0.605671 0.098885
0.133813 0.606191 0.099165
0.137540 0.609179 0.099974
0.139897 0.606284 0.099533
0.143406 0.608198 0.100120
0.147870 0.613847 0.101510
0.149657 0.608702 0.100593
0.150916 0.601693 0.099276
0.152693 0.596887 0.098429
0.155840 0.597328 0.098709
0.158915 0.597469 0.098926
0.163253 0.602109 0.100114
0.166639 0.603217 0.100541
0.166892 0.593433 0.098613
0.168978 0.590200 0.098096
0.174140 0.597336 0.099826
0.179077 0.603482 0.101342
0.181221 0.600393 0.100851
0.183752 0.598626 0.100642
0.186730 0.598307 0.100744
0.189469 0.597258 0.100682
0.192215 0.596263 0.100625
0.195887 0.598062 0.101174
0.198923 0.597942 0.101295
0.200458 0.593483 0.100457
0.204286 0.595709 0.101077
0.206517 0.593386 0.100689
0.209923 0.594405 0.101025
0.213808 0.596724 0.101637
0.216708 0.596339 0.101642
0.220785 0.599122 0.102334
0.224690 0.601405 0.102903
0.225453 0.595504 0.101653
0.224551 0.585521 0.099488
0.229411 0.590392 0.100586
0.231862 0.589160 0.100321
0.242817 0.608976 0.104688
0.241677 0.598873 0.102433
0.241955 0.592464 0.100978
0.242412 0.586671 0.099644
0.243969 0.583644 0.098903
0.247647 0.585670 0.099259
0.248584 0.581384 0.098207
0.256814 0.593855 0.100825
0.261550 0.598237 0.101642
0.262698 0.594571 0.100675
0.262831 0.588789 0.099228
0.264644 0.586848 0.098607
0.267384 0.587006 0.098429
0.268403 0.583520 0.097440
0.268854 0.578947 0.096200
-0.291295 0.602865 0.106669
-0.288391 0.602421 0.106745
-0.285204 0.601408 0.106673
-0.282090 0.600591 0.106627
-0.278974 0.599808 0.106570
-0.276744 0.601056 0.106955
-0.274395 0.602113 0.107279
-0.271691 0.602431 0.107416
-0.269846 0.604801 0.108001
-0.266777 0.604403 0.107937
-0.263567 0.603713 0.107789
-0.261005 0.604609 0.107983
-0.258078 0.604684 0.107972
-0.255015 0.604474 0.107877
-0.252212 0.604949 0.107922
-0.248680 0.603639 0.107543
-0.245559 0.603384 0.107388
-0.242601 0.603578 0.107319
-0.240327 0.605604 0.107650
-0.236301 0.603066 0.106931
-0.233372 0.603437 0.106857
-0.230497 0.603990 0.106812
-0.227323 0.603754 0.106575
-0.224574 0.604724 0.106598
-0.221238 0.604068 0.106244
-0.219117 0.606912 0.106667
-0.215615 0.605810 0.106192
-0.212414 0.605580 0.105906
-0.209159 0.605183 0.105574
-0.205806 0.604474 0.105166
-0.203091 0.605730 0.105190
-0.200082 0.606096 0.105010
-0.197039 0.606359 0.104802
-0.193721 0.605720 0.104390
-0.190627 0.605798 0.104134
-0.187106 0.604420 0.103554
-0.184134 0.604871 0.103376
-0.180762 0.603921 0.102889
-0.177611 0.603701 0.102562
-0.174455 0.603441 0.102226
-0.171901 0.605372 0.102369
-0.169060 0.606272 0.102286
-0.165564 0.604669 0.101660
-0.162534 0.604798 0.101412
-0.159804 0.606104 0.101421
-0.156897 0.606715 0.101281
-0.153710 0.606153 0.100890
-0.150370 0.604888 0.100352
-0.147598 0.606005 0.100329
-0.144646 0.606338 0.100141
-0.141952 0.607823 0.100202
-0.138722 0.606859 0.099744
-0.135630 0.606467 0.099411
-0.132591 0.606276 0.099127
-0.129652 0.606547 0.098944
-0.126590 0.606161 0.098627
-0.123710 0.606677 0.098505
-0.120786 0.606944 0.098335
-0.117812 0.606914 0.098106
-0.114819 0.606736 0.097851
-0.111962 0.607309 0.097759
-0.109077 0.607701 0.097633
-0.106019 0.607017 0.097287
-0.102982 0.606393 0.096958
-0.099775 0.604570 0.096384
-0.097195 0.606837 0.096669
-0.094371 0.607515 0.096627
-0.091370 0.606918 0.096323
-0.088393 0.606422 0.096047
-0.085467 0.606249 0.095842
-0.082603 0.606519 0.095733
-0.079786 0.607170 0.095708
-0.076926 0.607467 0.095615
-0.074078 0.607860 0.095546
-0.071040 0.606440 0.095108
-0.068089 0.605724 0.094820
-0.065383 0.607440 0.095037
-0.062462 0.606951 0.094805
-0.059526 0.606199 0.094524
-0.056630 0.605799 0.094320
-0.053764 0.605720 0.094187
-0.050919 0.605869 0.094104
-0.048117 0.606638 0.094153
-0.045204 0.605722 0.093862
-0.042440 0.607176 0.094059
-0.039581 0.607070 0.093943
-0.036672 0.605904 0.093614
-0.033970 0.609087 0.094176
-0.031173 0.610599 0.094402
-0.028425 0.613848 0.094984
-0.025606 0.615751 0.095297
-0.022670 0.613748 0.094820
-0.019762 0.612148 0.094430
-0.016882 0.611337 0.094204
-0.014045 0.613368 0.094560
-0.011202 0.616934 0.095230
-0.008307 0.614163 0.094620
-0.005440 0.610321 0.093798
-0.002573 0.612094 0.094118
0.000304 0.613273 0.094321
0.003139 0.611030 0.093836
0.005964 0.609331 0.093466
0.008719 0.605383 0.092645
0.011614 0.607411 0.093037
0.014360 0.604493 0.092434
0.017133 0.602951 0.092112
0.020225 0.609041 0.093339
0.023119 0.609823 0.093497
0.025799 0.606378 0.092803
0.028810 0.609224 0.093387
0.031811 0.611449 0.093849
0.034890 0.614505 0.094484
0.037756 0.614141 0.094432
0.040104 0.606988 0.093010
0.042914 0.606347 0.092910
0.046281 0.612276 0.094144
0.049172 0.612264 0.094181
0.051732 0.608734 0.093509
0.054344 0.606016 0.093006
0.057034 0.604273 0.092704
0.060107 0.606159 0.093144
0.063093 0.607094 0.093395
0.066041 0.607597 0.093563
0.068833 0.606765 0.093464
0.071790 0.607244 0.093637
0.074416 0.605164 0.093293
0.077763 0.608449 0.094046
0.080346 0.606097 0.093656
0.083435 0.607314 0.093998
0.086406 0.607637 0.094162
0.088932 0.605060 0.093739
0.092007 0.606011 0.094041
0.096836 0.617457 0.096495
0.099275 0.614213 0.095950
0.101651 0.610750 0.095363
0.104516 0.610151 0.095367
0.107413 0.609729 0.095412
0.110020 0.607761 0.095143
0.112975 0.607645 0.095259
0.115418 0.604934 0.094845
0.116786 0.597061 0.093369
0.119325 0.595114 0.093117
0.122773 0.597474 0.093759
0.126011 0.598733 0.094178
0.129799 0.602363 0.095094
0.133523 0.605525 0.095917
0.136504 0.605342 0.096051
0.139165 0.603800 0.095905
0.143529 0.609276 0.097224
0.145464 0.604740 0.096459
0.149333 0.607974 0.097319
0.151028 0.602657 0.096392
0.152585 0.596991 0.095391
0.155225 0.595540 0.095274
0.158076 0.594888 0.095324
0.162474 0.599787 0.096545
0.167204 0.605658 0.097974
0.170597 0.606680 0.098382
0.170665 0.596341 0.096386
0.173612 0.595958 0.096493
0.176558 0.595573 0.096597
0.180381 0.598021 0.097301
0.183070 0.596774 0.097218
0.186840 0.598943 0.097858
0.189932 0.598948 0.098033
0.192938 0.598689 0.098147
0.196374 0.599721 0.098532
0.198813 0.597791 0.098276
0.201560 0.596812 0.098217
0.201731 0.588516 0.096578
0.203956 0.586245 0.096222
0.207856 0.588700 0.096872
0.213319 0.595379 0.098423
0.216961 0.596978 0.098870
0.221755 0.601622 0.099963
0.226253 0.605385 0.100855
0.226816 0.598876 0.099517
0.225846 0.588635 0.097358
0.227718 0.585868 0.096798
0.233864 0.593871 0.098550
0.234331 0.587711 0.097227
0.240146 0.594767 0.098743
0.240756 0.589163 0.097508
0.240472 0.581603 0.095835
0.241616 0.577618 0.094917
0.244361 0.577493 0.094817
0.247575 0.578493 0.094942
0.253983 0.586791 0.096621
0.256196 0.585514 0.096219
0.257532 0.582357 0.095396
0.263179 0.588828 0.096624
0.268123 0.593685 0.097485
0.267613 0.586703 0.095791
0.269833 0.585756 0.095374
0.269724 0.579940 0.093902
0.271618 0.578495 0.093349
-0.294773 0.603492 0.104020
-0.291870 0.603046 0.104100
-0.288443 0.601519 0.103921
-0.285873 0.601886 0.104145
-0.283157 0.601994 0.104292
-0.279876 0.600905 0.104154
-0.277334 0.601507 0.104374
-0.275265 0.603248 0.104829
-0.272958 0.604535 0.105164
-0.269836 0.604013 0.105076
-0.266881 0.603923 0.105066
-0.263718 0.603386 0.104937
-0.260733 0.603309 0.104893
-0.257977 0.603835 0.104965
-0.255216 0.604403 0.105029
-0.252512 0.605169 0.105120
-0.249157 0.604356 0.104841
-0.246192 0.604554 0.104772
-0.243343 0.605092 0.104762
-0.239991 0.604357 0.104455
-0.237170 0.605042 0.104449
-0.233527 0.603564 0.103949
-0.230469 0.603658 0.103786
-0.227361 0.603642 0.103585
-0.224171 0.603411 0.103327
-0.221135 0.603628 0.103156
-0.218510 0.605046 0.103240
-0.215852 0.606419 0.103305
-0.212648 0.606216 0.103015
-0.209135 0.605081 0.102514
-0.206034 0.605170 0.102275
-0.203227 0.606177 0.102230
-0.199886 0.605522 0.101819
-0.196731 0.605436 0.101527
-0.193700 0.605740 0.101317
-0.190303 0.604830 0.100842
-0.187487 0.605835 0.100778
-0.184204 0.605254 0.100371
-0.181001 0.604913 0.100015
-0.177864 0.604775 0.099703
-0.174907 0.605263 0.099525
-0.171956 0.605769 0.099352
-0.168929 0.605982 0.099116
-0.165647 0.605197 0.098670
-0.162513 0.604931 0.098337
-0.159807 0.606342 0.098361
-0.157013 0.607416 0.098315
-0.153491 0.605474 0.097637
-0.150579 0.606016 0.097485
-0.147462 0.605651 0.097146
-0.144909 0.607747 0.097326
-0.141789 0.607324 0.096982
-0.138618 0.606615 0.096583
-0.135517 0.606171 0.096244
-0.132514 0.606144 0.095996
-0.129476 0.605906 0.095708
-0.126458 0.605722 0.095437
-0.123564 0.606139 0.095294
-0.120736 0.606899 0.095226
-0.117874 0.607473 0.095124
-0.114866 0.607218 0.094857
-0.111920 0.607267 0.094656
-0.108965 0.607231 0.094443
-0.106107 0.607756 0.094350
-0.103149 0.607637 0.094129
-0.100226 0.607700 0.093951
-0.097215 0.607137 0.093650
-0.094258 0.606881 0.093417
-0.091440 0.607568 0.093380
-0.088473 0.607154 0.093124
-0.085492 0.606559 0.092836
-0.082647 0.606982 0.092760
-0.079798 0.607370 0.092681
-0.076955 0.607800 0.092615
-0.074007 0.607270 0.092360
-0.071007 0.606171 0.091996
-0.068183 0.606675 0.091958
-0.065443 0.608072 0.092105
-0.062552 0.607925 0.091945
-0.059583 0.606808 0.091597
-0.056745 0.607134 0.091542
-0.053930 0.607760 0.091551
-0.051030 0.607263 0.091340
-0.048068 0.605746 0.090930
-0.045211 0.605620 0.090803
-0.042368 0.605678 0.090716
-0.039533 0.605853 0.090657
-0.036761 0.607310 0.090858
-0.034139 0.612389 0.091781
-0.031295 0.613068 0.091834
-0.028251 0.608194 0.090790
-0.025564 0.613465 0.091762
-0.022578 0.609085 0.090825
-0.019685 0.607091 0.090366
-0.016848 0.607313 0.090350
-0.014003 0.607011 0.090235
-0.011159 0.606404 0.090063
-0.008320 0.605317 0.089801
-0.005481 0.610197 0.090722
-0.002611 0.612751 0.091187
0.000249 0.612307 0.091064
0.003096 0.611232 0.090821
0.005844 0.605739 0.089710
0.008743 0.608333 0.090199
0.011493 0.605053 0.089534
0.014377 0.606572 0.089819
0.017348 0.609923 0.090471
0.020268 0.611353 0.090747
0.022793 0.604270 0.089348
0.025963 0.610644 0.090608
0.028623 0.607056 0.089907
0.031676 0.610326 0.090564
0.034692 0.612541 0.091016
0.037548 0.612201 0.090969
0.040221 0.609456 0.090451
0.042793 0.605750 0.089748
0.046034 0.610268 0.090673
0.049021 0.611455 0.090945
0.051661 0.608818 0.090465
0.054467 0.608077 0.090364
0.057146 0.606145 0.090033
0.059897 0.605017 0.089864
0.063048 0.607474 0.090410
0.065972 0.607781 0.090535
0.068992 0.608807 0.090806
0.071796 0.608035 0.090726
0.074484 0.606408 0.090481
0.077462 0.606973 0.090676
0.080310 0.606558 0.090680
0.083438 0.608037 0.091065
0.086497 0.608940 0.091341
0.089506 0.609428 0.091540
0.092902 0.612265 0.092211
0.095556 0.610419 0.091954
0.098007 0.607452 0.091477
0.100662 0.605777 0.091261
0.103505 0.605203 0.091271
0.106422 0.605024 0.091363
0.109126 0.603696 0.091229
0.112628 0.606505 0.091931
0.115875 0.607865 0.092346
0.117811 0.602704 0.091454
0.119206 0.595162 0.090084
0.122878 0.598575 0.090925
0.126177 0.600096 0.091390
0.129165 0.600129 0.091558
0.132600 0.602082 0.092119
0.135362 0.601044 0.092078
0.137636 0.597969 0.091627
0.140617 0.597896 0.091787
0.146400 0.609067 0.094242
0.148723 0.606121 0.093825
0.151180 0.603779 0.093533
0.152534 0.597314 0.092398
0.155596 0.597425 0.092609
0.158488 0.596885 0.092688
0.161504 0.596782 0.092858
0.167625 0.607609 0.095279
0.170708 0.607514 0.095455
0.172075 0.601560 0.094421
0.176213 0.605061 0.095339
0.178379 0.601944 0.094886
0.180046 0.597298 0.094113
0.183210 0.597555 0.094353
0.187164 0.600269 0.095102
0.190180 0.599999 0.095227
0.193054 0.599300 0.095258
0.196134 0.599235 0.095416
0.199262 0.599312 0.095599
0.201996 0.598245 0.095535
0.203226 0.592919 0.094570
0.203624 0.585409 0.093136
0.209137 0.592319 0.094722
0.214667 0.599096 0.096273
0.219949 0.605033 0.097639
0.224700 0.609412 0.098668
0.225324 0.602855 0.097379
0.228592 0.603351 0.097565
0.229314 0.597344 0.096363
0.232720 0.598300 0.096618
0.233148 0.591835 0.095290
0.234684 0.588291 0.094564
0.234562 0.580834 0.092995
0.235858 0.577002 0.092176
0.236222 0.571086 0.090901
0.240512 0.574575 0.091598
0.244384 0.577058 0.092064
0.245801 0.573885 0.091320
0.246464 0.569114 0.090222
0.246620 0.563351 0.088900
0.254593 0.575163 0.091262
0.263373 0.588560 0.093935
0.268236 0.593193 0.094743
0.265860 0.582152 0.092244
0.269443 0.584124 0.092458
0.268791 0.577138 0.090783
0.267042 0.568035 0.088654
-0.296068 0.599541 0.100362
-0.293652 0.600076 0.100659
-0.291428 0.601088 0.101042
-0.289417 0.602636 0.101524
-0.286741 0.602825 0.101691
-0.283827 0.602552 0.101739
-0.281259 0.603099 0.101947
-0.278721 0.603778 0.102164
-0.276047 0.604217 0.102311
-0.273291 0.604531 0.102410
-0.270075 0.603838 0.102271
-0.267306 0.604230 0.102350
-0.264211 0.603905 0.102253
-0.260883 0.603063 0.102026
-0.257908 0.603099 0.101972
-0.255668 0.604986 0.102304
-0.252714 0.605184 0.102251
-0.249925 0.605841 0.102281
-0.246517 0.604976 0.101964
-0.243549 0.605254 0.101880
-0.240572 0.605548 0.101785
-0.236985 0.604259 0.101333
-0.233907 0.604329 0.101163
-0.230793 0.604323 0.100964
-0.227637 0.604219 0.100732
-0.224411 0.603933 0.100450
-0.221424 0.604328 0.100306
-0.218471 0.604846 0.100179
-0.216654 0.608708 0.100760
-0.212411 0.605482 0.099814
-0.208852 0.604222 0.099284
-0.206325 0.606085 0.099416
-0.203166 0.606033 0.099133
-0.199746 0.605146 0.098669
-0.196629 0.605193 0.098401
-0.193771 0.606078 0.098307
-0.190621 0.606009 0.098009
-0.187457 0.605872 0.097695
-0.184323 0.605817 0.097398
-0.181030 0.605181 0.096979
-0.178004 0.605453 0.096750
-0.175642 0.608121 0.097022
-0.172507 0.608005 0.096714
-0.168649 0.605134 0.095835
-0.165625 0.605325 0.095595
-0.162861 0.606518 0.095564
-0.159524 0.605433 0.095066
-0.156528 0.605669 0.094843
-0.153826 0.607104 0.094869
-0.150808 0.607223 0.094628
-0.147878 0.607694 0.094462
-0.144660 0.606877 0.094038
-0.141733 0.607307 0.093871
-0.138657 0.607031 0.093565
-0.135560 0.606607 0.093234
-0.132701 0.607280 0.093130
-0.129613 0.606812 0.092799
-0.126408 0.605686 0.092340
-0.123506 0.606057 0.092188
-0.120611 0.606439 0.092043
-0.117774 0.607132 0.091965
-0.114932 0.607792 0.091884
-0.111957 0.607681 0.091654
-0.109027 0.607792 0.091473
-0.106011 0.607345 0.091185
-0.103225 0.608291 0.091180
-0.100214 0.607788 0.090891
-0.097212 0.607269 0.090604
-0.094309 0.607373 0.090446
-0.091374 0.607219 0.090241
-0.088349 0.606346 0.089900
-0.085483 0.606595 0.089784
-0.082599 0.606692 0.089644
-0.079745 0.607002 0.089550
-0.076914 0.607504 0.089498
-0.073994 0.607200 0.089293
-0.071098 0.607061 0.089124
-0.068263 0.607479 0.089069
-0.065489 0.608541 0.089145
-0.062620 0.608633 0.089035
-0.059614 0.607106 0.088614
-0.056832 0.608109 0.088691
-0.054054 0.609248 0.088798
-0.051056 0.607460 0.088340
-0.048127 0.606413 0.088030
-0.045256 0.606090 0.087867
-0.042426 0.606378 0.087826
-0.039621 0.607145 0.087882
-0.036812 0.607926 0.087945
-0.034261 0.614617 0.089157
-0.031326 0.613229 0.088807
-0.028457 0.613277 0.088740
-0.025486 0.610015 0.088037
-0.022676 0.611681 0.088291
-0.019681 0.605467 0.087026
-0.016852 0.605619 0.086997
-0.014031 0.606470 0.087106
-0.011200 0.606930 0.087143
-0.008367 0.608329 0.087366
-0.005521 0.610314 0.087705
-0.002657 0.612157 0.088021
0.000198 0.611651 0.087888
0.003037 0.610412 0.087618
0.006048 0.618192 0.089089
0.008971 0.619530 0.089323
0.011623 0.611211 0.087703
0.014366 0.607786 0.087029
0.017301 0.610115 0.087467
0.020167 0.610343 0.087504
0.023104 0.611953 0.087811
0.025882 0.610243 0.087484
0.028589 0.607537 0.086969
0.031420 0.607214 0.086917
0.034397 0.609109 0.087296
0.037236 0.608777 0.087250
0.040154 0.609498 0.087412
0.043049 0.609814 0.087500
0.045848 0.608945 0.087364
0.048632 0.607960 0.087209
0.051231 0.605085 0.086695
0.053988 0.604047 0.086539
0.056904 0.604599 0.086694
0.060110 0.607747 0.087354
0.063005 0.607853 0.087432
0.065872 0.607676 0.087459
0.068688 0.607066 0.087408
0.071472 0.606220 0.087315
0.074465 0.606982 0.087538
0.077396 0.607204 0.087661
0.080258 0.606887 0.087684
0.083249 0.607440 0.087880
0.086681 0.610847 0.088635
0.089902 0.612651 0.089084
0.092760 0.612062 0.089074
0.095215 0.609026 0.088592
0.097638 0.605948 0.088105
0.100161 0.603570 0.087758
0.103145 0.603850 0.087934
0.106081 0.603821 0.088054
0.108955 0.603429 0.088107
0.111991 0.603859 0.088326
0.115970 0.608972 0.089468
0.118811 0.608226 0.089466
0.121330 0.605937 0.089166
0.123765 0.603329 0.088806
0.126803 0.603560 0.089008
0.129596 0.602649 0.088989
0.132782 0.603469 0.089316
0.135624 0.602745 0.089341
0.137816 0.599295 0.088830
0.141694 0.602880 0.089716
0.145202 0.604802 0.090278
0.148130 0.604328 0.090366
0.149106 0.596287 0.088950
0.151674 0.594569 0.088793
0.154386 0.593422 0.088751
0.157099 0.592299 0.088716
0.161278 0.596453 0.089739
0.166249 0.603232 0.091294
0.170749 0.608114 0.092473
0.174859 0.611477 0.093348
0.177005 0.608135 0.092873
0.179527 0.606122 0.092664
0.180559 0.599335 0.091486
0.183633 0.599260 0.091663
0.187179 0.600650 0.092135
0.189998 0.599746 0.092139
0.192915 0.599158 0.092202
0.196353 0.600141 0.092582
0.199532 0.600330 0.092795
0.202689 0.600448 0.092987
0.206509 0.602459 0.093561
0.206353 0.593220 0.091821
0.208404 0.590379 0.091383
0.214593 0.598954 0.093280
0.219544 0.603963 0.094438
0.224782 0.609619 0.095721
0.225840 0.604158 0.094703
0.225755 0.595904 0.093094
0.231309 0.602315 0.094498
0.233930 0.601184 0.094331
0.232988 0.591223 0.092326
0.233856 0.585999 0.091284
0.237015 0.586514 0.091413
0.235758 0.576432 0.089335
0.236371 0.571073 0.088218
0.241085 0.575512 0.089110
0.243778 0.575197 0.089002
0.243367 0.567806 0.087417
0.245753 0.566973 0.087169
0.252215 0.575370 0.088808
0.259979 0.586535 0.090997
0.266224 0.594176 0.092438
0.267174 0.590177 0.091465
0.268367 0.586833 0.090611
0.271054 0.586802 0.090420
0.269117 0.577041 0.088221
0.269437 0.572247 0.087026
0.271894 0.572034 0.086752
0.275071 0.573362 0.086774
-0.300260 0.601678 0.098025
-0.296537 0.599481 0.097742
-0.294059 0.599925 0.098002
-0.292383 0.602142 0.098622
-0.289893 0.602710 0.098873
-0.287089 0.602665 0.098974
-0.284595 0.603358 0.099213
-0.282077 0.604068 0.099437
-0.279870 0.605541 0.099805
-0.276900 0.605377 0.099804
-0.273316 0.603857 0.099493
-0.270589 0.604337 0.099591
-0.267774 0.604673 0.099640
-0.265417 0.606149 0.099914
-0.261527 0.604034 0.099401
-0.258355 0.603655 0.099242
-0.255655 0.604463 0.099320
-0.252888 0.605166 0.099358
-0.249747 0.604983 0.099190
-0.246709 0.605094 0.099070
-0.243617 0.605097 0.098912
-0.240446 0.604922 0.098702
-0.237554 0.605510 0.098641
-0.234488 0.605666 0.098475
-0.231444 0.605908 0.098316
-0.228320 0.605951 0.098104
-0.225070 0.605658 0.097811
-0.221730 0.605110 0.097455
-0.218926 0.606095 0.097413
-0.215103 0.604137 0.096747
-0.213320 0.608176 0.097329
-0.209901 0.607408 0.096899
-0.206247 0.605887 0.096309
-0.202984 0.605528 0.095957
-0.200186 0.606621 0.095902
-0.197042 0.606626 0.095619
-0.193942 0.606761 0.095361
-0.190852 0.606916 0.095105
-0.187592 0.606482 0.094727
-0.184463 0.606464 0.094435
-0.180546 0.603659 0.093573
-0.177187 0.602725 0.093097
-0.175314 0.607126 0.093708
-0.171790 0.605556 0.093104
-0.168507 0.604807 0.092670
-0.165598 0.605438 0.092518
-0.162722 0.606192 0.092393
-0.160019 0.607637 0.092410
-0.156765 0.606862 0.091983
-0.153841 0.607397 0.091822
-0.150942 0.608022 0.091682
-0.147717 0.607227 0.091263
-0.144695 0.607264 0.091014
-0.141617 0.607010 0.090712
-0.138596 0.606976 0.090457
-0.135757 0.607764 0.090370
-0.132785 0.607914 0.090161
-0.129744 0.607686 0.089882
-0.126647 0.607119 0.089541
-0.123360 0.605497 0.088998
-0.120445 0.605750 0.088828
-0.117702 0.606929 0.088844
-0.114931 0.607975 0.088839
-0.112099 0.608686 0.088772
-0.109018 0.607910 0.088420
-0.106055 0.607778 0.088198
-0.102953 0.606720 0.087802
-0.100030 0.606727 0.087618
-0.097306 0.608045 0.087692
-0.094384 0.608025 0.087511
-0.091347 0.607140 0.087169
-0.088332 0.606320 0.086844
-0.085484 0.606694 0.086754
-0.082699 0.607568 0.086765
-0.079653 0.606288 0.086367
-0.076822 0.606742 0.086306
-0.074016 0.607428 0.086293
-0.071166 0.607717 0.086210
-0.068353 0.608366 0.086199
-0.065531 0.608948 0.086180
-0.062663 0.609045 0.086072
-0.059694 0.607953 0.085743
-0.056833 0.608015 0.085637
-0.053984 0.608207 0.085561
-0.051184 0.609060 0.085615
-0.048176 0.606924 0.085105
-0.045257 0.605855 0.084803
-0.042515 0.607590 0.085036
-0.039688 0.608010 0.085024
-0.036876 0.608796 0.085085
-0.034134 0.611250 0.085465
-0.031324 0.612527 0.085626
-0.028312 0.608423 0.084777
-0.025607 0.612997 0.085568
-0.022650 0.609527 0.084847
-0.019726 0.606095 0.084138
-0.016875 0.605000 0.083873
-0.014058 0.605752 0.083959
-0.011240 0.607400 0.084218
-0.008408 0.608933 0.084459
-0.005559 0.612192 0.085028
-0.002693 0.613162 0.085171
0.000154 0.611601 0.084843
0.003010 0.611579 0.084807
0.006044 0.620399 0.086434
0.008920 0.619458 0.086234
0.011473 0.607816 0.084031
0.014291 0.607087 0.083879
0.017115 0.606691 0.083794
0.020006 0.607890 0.084011
0.022812 0.607052 0.083851
0.025664 0.607211 0.083881
0.028714 0.610784 0.084556
0.031463 0.608932 0.084218
0.034195 0.607028 0.083874
0.037176 0.608865 0.084235
0.040405 0.613711 0.085166
0.043259 0.613306 0.085115
0.045946 0.610947 0.084702
0.048598 0.608410 0.084260
0.051253 0.606119 0.083868
0.054011 0.605057 0.083711
0.057264 0.608837 0.084467
0.060684 0.613790 0.085450
0.063438 0.612416 0.085247
0.065774 0.607571 0.084396
0.068587 0.606961 0.084345
0.071380 0.606198 0.084270
0.074154 0.605318 0.084177
0.077218 0.606592 0.084494
0.080274 0.607685 0.084783
0.082943 0.606022 0.084555
0.086633 0.611198 0.085625
0.089712 0.612104 0.085893
0.092447 0.610771 0.085742
0.095171 0.609416 0.085591
0.097612 0.606441 0.085136
0.099803 0.602161 0.084438
0.102860 0.602895 0.084696
0.106049 0.604276 0.085081
0.108877 0.603644 0.085089
0.111683 0.602894 0.085078
0.116019 0.609839 0.086541
0.119093 0.610221 0.086757
0.121711 0.608373 0.086550
0.124569 0.607691 0.086571
0.127025 0.605171 0.086243
0.129339 0.602087 0.085809
0.132540 0.602991 0.086146
0.136114 0.605423 0.086782
0.140266 0.610147 0.087865
0.141103 0.601011 0.086275
0.144221 0.601403 0.086529
0.145940 0.596223 0.085705
0.148058 0.592758 0.085215
0.150538 0.590772 0.085013
0.153866 0.591993 0.085438
0.156876 0.591977 0.085624
0.160908 0.595609 0.086525
0.165040 0.599441 0.087469
0.170450 0.607546 0.089255
0.173825 0.608411 0.089625
0.175953 0.605046 0.089164
0.178415 0.602874 0.088935
0.182275 0.605284 0.089609
0.184168 0.601333 0.089026
0.186810 0.599841 0.088925
0.189962 0.599961 0.089141
0.193004 0.599729 0.089284
0.196632 0.601252 0.089772
0.199614 0.600820 0.089867
0.202861 0.601166 0.090113
0.210229 0.613282 0.092704
0.208020 0.598072 0.089827
0.211250 0.598403 0.090049
0.215342 0.601094 0.090735
0.218008 0.599873 0.090629
0.219919 0.596688 0.090116
0.222143 0.594427 0.089778
0.225034 0.593978 0.089793
0.229528 0.597661 0.090628
0.232503 0.597441 0.090664
0.231334 0.586921 0.088607
0.233899 0.585889 0.088450
0.244203 0.603742 0.092092
0.243128 0.593854 0.090116
0.240692 0.581004 0.087526
0.245678 0.585921 0.088508
0.248717 0.586246 0.088546
0.247965 0.577908 0.086817
0.253726 0.584585 0.088103
0.262054 0.596932 0.090513
0.269745 0.607652 0.092573
0.268888 0.599402 0.090793
0.271161 0.598188 0.090412
0.272813 0.595715 0.089761
0.273077 0.590383 0.088519
0.274441 0.587533 0.087760
0.276629 0.586519 0.087352
0.274548 0.576722 0.085176
0.279714 0.582053 0.086002
-0.301446 0.603082 0.095695
-0.297605 0.600696 0.095368
-0.295732 0.602465 0.095888
-0.293739 0.604073 0.096356
-0.290457 0.603003 0.096247
-0.287657 0.603015 0.096344
-0.285110 0.603638 0.096549
-0.282800 0.604855 0.096860
-0.280166 0.605429 0.097017
-0.276739 0.604278 0.096793
-0.273987 0.604697 0.096879
-0.270658 0.603843 0.096679
-0.268092 0.604802 0.096840
-0.264961 0.604493 0.096718
-0.261673 0.603849 0.096507
-0.258749 0.604114 0.096469
-0.255883 0.604568 0.096453
-0.252800 0.604534 0.096319
-0.250039 0.605342 0.096344
-0.247096 0.605740 0.096269
-0.243881 0.605479 0.096042
-0.240268 0.604197 0.095590
-0.237489 0.605110 0.095581
-0.234522 0.605567 0.095465
-0.231518 0.605952 0.095322
-0.228523 0.606386 0.095180
-0.225322 0.606269 0.094914
-0.222188 0.606344 0.094679
-0.218492 0.604809 0.094107
-0.214673 0.602867 0.093446
-0.211773 0.603595 0.093326
-0.209088 0.604991 0.093336
-0.206798 0.607637 0.093594
-0.202773 0.604952 0.092766
-0.200515 0.607761 0.093049
-0.197301 0.607577 0.092723
-0.193940 0.606887 0.092294
-0.190805 0.606905 0.092007
-0.187766 0.607229 0.091780
-0.184365 0.606298 0.091304
-0.180399 0.603325 0.090421
-0.177891 0.605427 0.090552
-0.174967 0.606065 0.090392
-0.171735 0.605557 0.090007
-0.168729 0.605858 0.089784
-0.165589 0.605617 0.089457
-0.162501 0.605546 0.089167
-0.159948 0.607576 0.089292
-0.156683 0.606753 0.088861
-0.153698 0.607025 0.088647
-0.150661 0.607053 0.088390
-0.147801 0.607816 0.088280
-0.144725 0.607617 0.087987
-0.141663 0.607441 0.087703
-0.138559 0.607023 0.087377
-0.135490 0.606710 0.087076
-0.132661 0.607517 0.086995
-0.129815 0.608245 0.086904
-0.126794 0.608071 0.086643
-0.123275 0.605245 0.085881
-0.120452 0.605977 0.085804
-0.117696 0.607081 0.085803
-0.114933 0.608161 0.085801
-0.112112 0.608930 0.085744
-0.109080 0.608445 0.085454
-0.105860 0.606728 0.084936
-0.103035 0.607377 0.084871
-0.100261 0.608372 0.084875
-0.097322 0.608271 0.084678
-0.094378 0.608097 0.084471
-0.091301 0.606908 0.084079
-0.088404 0.606941 0.083921
-0.085618 0.607807 0.083924
-0.082769 0.608189 0.083840
-0.079799 0.607561 0.083572
-0.076840 0.606928 0.083308
-0.074075 0.607974 0.083362
-0.071175 0.607798 0.083192
-0.068289 0.607699 0.083041
-0.065591 0.609521 0.083252
-0.062575 0.608011 0.082847
-0.059727 0.608232 0.082769
-0.056876 0.608413 0.082687
-0.054025 0.608584 0.082608
-0.051082 0.607460 0.082293
-0.048159 0.606450 0.082004
-0.045321 0.606595 0.081932
-0.042769 0.611586 0.082758
-0.039725 0.608310 0.082064
-0.036851 0.607821 0.081888
-0.034132 0.610654 0.082327
-0.031144 0.607399 0.081650
-0.028347 0.608653 0.081806
-0.025433 0.606420 0.081326
-0.022730 0.611413 0.082176
-0.019790 0.607560 0.081407
-0.016935 0.606567 0.081166
-0.014099 0.606276 0.081059
-0.011276 0.607262 0.081188
-0.008447 0.609167 0.081490
-0.005600 0.611779 0.081925
-0.002726 0.614606 0.082403
0.000139 0.614276 0.082307
0.003000 0.613835 0.082194
0.005860 0.613561 0.082117
0.008878 0.619758 0.083225
0.011349 0.605247 0.080554
0.014124 0.603677 0.080252
0.017046 0.606272 0.080714
0.019873 0.606074 0.080670
0.022654 0.604923 0.080455
0.025545 0.606055 0.080662
0.028742 0.612325 0.081810
0.031500 0.610511 0.081487
0.034158 0.607413 0.080933
0.037108 0.608814 0.081205
0.040409 0.614648 0.082290
0.043150 0.612800 0.081977
0.045808 0.610144 0.081519
0.048683 0.610162 0.081555
0.051504 0.609567 0.081482
0.054456 0.610322 0.081661
0.057871 0.615442 0.082643
0.061049 0.617904 0.083143
0.063690 0.615376 0.082734
0.065785 0.608378 0.081510
0.068522 0.607131 0.081344
0.071357 0.606712 0.081333
0.074113 0.605689 0.081216
0.076868 0.604698 0.081109
0.079893 0.605652 0.081364
0.082825 0.605872 0.081488
0.086556 0.611345 0.082584
0.089551 0.611718 0.082747
0.092573 0.612202 0.082935
0.095405 0.611472 0.082903
0.098020 0.609475 0.082642
0.099760 0.602535 0.081471
0.102994 0.604260 0.081905
0.105985 0.604547 0.082079
0.108773 0.603703 0.082048
0.111634 0.603247 0.082093
0.115067 0.605655 0.082675
0.117726 0.604113 0.082527
0.121747 0.609145 0.083608
0.124692 0.608862 0.083704
0.127023 0.605751 0.083276
0.129071 0.601468 0.082632
0.131866 0.600611 0.082631
0.135426 0.603043 0.083252
0.136772 0.596033 0.082103
0.141558 0.603442 0.083669
0.143020 0.597108 0.082651
0.145424 0.594719 0.082378
0.147752 0.592096 0.082063
0.150993 0.593016 0.082421
0.155641 0.599125 0.083767
0.161030 0.607692 0.085586
0.161286 0.597456 0.083834
0.163662 0.595052 0.083570
0.167173 0.596643 0.084070
0.170939 0.599026 0.084724
0.175194 0.602941 0.085673
0.179664 0.607412 0.086733
0.183168 0.608586 0.087161
0.185844 0.607061 0.087070
0.187073 0.601030 0.086106
0.190121 0.600793 0.086256
0.193281 0.600892 0.086470
0.196134 0.600058 0.086499
0.199856 0.601803 0.087025
0.202716 0.600987 0.087049
0.208151 0.607558 0.088507
0.212418 0.610646 0.089283
0.215085 0.609206 0.089169
0.215331 0.601182 0.087758
0.217490 0.598558 0.087392
0.220234 0.597573 0.087337
0.222884 0.596385 0.087232
0.226421 0.597546 0.087577
0.229760 0.598191 0.087809
0.231661 0.595210 0.087315
0.232551 0.589814 0.086331
0.235946 0.590746 0.086580
0.239894 0.593036 0.087082
0.247699 0.604570 0.089394
0.248054 0.598181 0.088153
0.247578 0.590033 0.086549
0.252241 0.594034 0.087325
0.256852 0.597870 0.088052
0.259097 0.596301 0.087694
0.264771 0.602508 0.088851
0.268324 0.603926 0.089046
0.268075 0.597015 0.087582
0.271402 0.598071 0.087669
0.272066 0.593431 0.086619
0.272378 0.588185 0.085434
0.280188 0.598923 0.087363
0.282361 0.597728 0.086935
0.284629 0.596808 0.086544
0.285784 0.593678 0.085705
0.291003 0.598928 0.086480
-0.303996 0.601790 0.092610
-0.301630 0.602442 0.092916
-0.299019 0.602656 0.093115
-0.296704 0.603553 0.093434
-0.294085 0.603883 0.093619
-0.291501 0.604354 0.093814
-0.288522 0.604038 0.093828
-0.285775 0.604278 0.093937
-0.283118 0.604779 0.094080
-0.279059 0.602218 0.093575
-0.276710 0.603514 0.093842
-0.274039 0.604155 0.093955
-0.271096 0.604233 0.093934
-0.268211 0.604498 0.093933
-0.265038 0.604137 0.093785
-0.261959 0.604035 0.093673
-0.259004 0.604274 0.093613
-0.255973 0.604369 0.093507
-0.253103 0.604904 0.093474
-0.250197 0.605398 0.093418
-0.247506 0.606480 0.093466
-0.244415 0.606587 0.093302
-0.240904 0.605628 0.092909
-0.237503 0.604952 0.092561
-0.234440 0.605185 0.092386
-0.231454 0.605648 0.092247
-0.228321 0.605730 0.092022
-0.225233 0.605949 0.091815
-0.222535 0.607291 0.091825
-0.219632 0.608082 0.091717
-0.215220 0.604478 0.090726
-0.211936 0.604115 0.090378
-0.209365 0.605884 0.090449
-0.206271 0.606097 0.090206
-0.203526 0.607394 0.090175
-0.200103 0.606571 0.089722
-0.197407 0.608046 0.089720
-0.193863 0.606777 0.089178
-0.190746 0.606864 0.088902
-0.187821 0.607584 0.088750
-0.184414 0.606644 0.088274
-0.181209 0.606352 0.087927
-0.178288 0.607037 0.087770
-0.175120 0.606822 0.087442
-0.171999 0.606743 0.087142
-0.168781 0.606261 0.086767
-0.165866 0.606897 0.086610
-0.162983 0.607652 0.086479
-0.159798 0.607195 0.086119
-0.156784 0.607382 0.085886
-0.153271 0.605462 0.085256
-0.150615 0.607074 0.085303
-0.147827 0.608148 0.085250
-0.144729 0.607850 0.084942
-0.141164 0.605382 0.084229
-0.138811 0.608399 0.084554
-0.135948 0.609095 0.084446
-0.132767 0.608237 0.084052
-0.129767 0.608198 0.083815
-0.126531 0.606917 0.083352
-0.123585 0.607051 0.083158
-0.120680 0.607377 0.083005
-0.117814 0.607899 0.082893
-0.115036 0.608907 0.082875
-0.112158 0.609350 0.082757
-0.109145 0.608977 0.082492
-0.105877 0.606964 0.081931
-0.102986 0.607195 0.081788
-0.100180 0.607954 0.081748
-0.097284 0.608118 0.081602
-0.094237 0.607199 0.081263
-0.091401 0.607706 0.081189
-0.088507 0.607781 0.081041
-0.085644 0.608065 0.080936
-0.082799 0.608475 0.080858
-0.079866 0.608147 0.080650
-0.076826 0.606821 0.080266
-0.073922 0.606575 0.080082
-0.071096 0.607016 0.080028
-0.068374 0.608499 0.080166
-0.065441 0.607896 0.079931
-0.062548 0.607622 0.079760
-0.059761 0.608512 0.079803
-0.056979 0.609524 0.079872
-0.054040 0.608596 0.079595
-0.051102 0.607520 0.079296
-0.048201 0.606808 0.079067
-0.045385 0.607301 0.079059
-0.042608 0.608501 0.079181
-0.039829 0.609836 0.079332
-0.036871 0.607755 0.078874
-0.034185 0.611289 0.079425
-0.031118 0.606086 0.078417
-0.028222 0.604326 0.078029
-0.025538 0.608874 0.078773
-0.022749 0.610939 0.079076
-0.019842 0.608461 0.078571
-0.016989 0.607709 0.078379
-0.014150 0.607479 0.078284
-0.011321 0.608297 0.078379
-0.008486 0.609397 0.078529
-0.005641 0.611027 0.078776
-0.002761 0.615881 0.079600
0.000134 0.617922 0.079928
0.002983 0.615672 0.079496
0.005851 0.615396 0.079419
0.008649 0.612396 0.078861
0.011490 0.611769 0.078729
0.014177 0.606726 0.077816
0.017056 0.607864 0.078006
0.020094 0.612441 0.078810
0.022769 0.608485 0.078102
0.025741 0.610878 0.078526
0.028616 0.611147 0.078577
0.031513 0.611699 0.078682
0.034172 0.608563 0.078135
0.036882 0.606514 0.077785
0.039725 0.606458 0.077793
0.042699 0.608003 0.078090
0.045678 0.609415 0.078368
0.048603 0.610050 0.078511
0.051453 0.609782 0.078498
0.054113 0.607599 0.078148
0.057776 0.615262 0.079556
0.060601 0.614492 0.079466
0.063291 0.612552 0.079172
0.065145 0.603621 0.077635
0.068239 0.605493 0.078028
0.071397 0.607699 0.078486
0.074207 0.607062 0.078441
0.077064 0.606789 0.078465
0.079983 0.606938 0.078568
0.082754 0.606025 0.078486
0.085898 0.607618 0.078858
0.089333 0.610955 0.079546
0.092473 0.612209 0.079867
0.095249 0.611151 0.079778
0.097507 0.607069 0.079149
0.100134 0.605288 0.078937
0.103142 0.605692 0.079123
0.105966 0.605043 0.079124
0.108851 0.604715 0.079187
0.112066 0.606071 0.079559
0.115672 0.609295 0.080275
0.118223 0.607148 0.080023
0.121044 0.606358 0.080021
0.124715 0.609555 0.080747
0.126711 0.604895 0.080050
0.128769 0.600681 0.079437
0.131229 0.598379 0.079175
0.133870 0.596921 0.079070
0.137831 0.601039 0.079988
0.140699 0.600452 0.080051
0.144288 0.602770 0.080650
0.146826 0.600799 0.080466
0.149103 0.597861 0.080107
0.152445 0.599059 0.080511
0.157331 0.605949 0.081972
0.160260 0.605377 0.082058
0.161769 0.599689 0.081199
0.163961 0.596584 0.080818
0.165844 0.592495 0.080254
0.170104 0.596631 0.081221
0.174725 0.601813 0.082388
0.179902 0.608631 0.083865
0.183006 0.608478 0.084041
0.184258 0.602402 0.083105
0.187029 0.601269 0.083094
0.190029 0.600866 0.083218
0.192993 0.600351 0.083319
0.196561 0.601646 0.083759
0.198966 0.599464 0.083539
0.202745 0.601334 0.084081
0.206555 0.603229 0.084625
0.212989 0.612462 0.086561
0.211549 0.599558 0.084278
0.213014 0.594982 0.083570
0.218026 0.600116 0.084707
0.220626 0.598694 0.084583
0.223713 0.598605 0.084705
0.226838 0.598632 0.084838
0.230096 0.599017 0.085029
0.233283 0.599233 0.085176
0.233713 0.592601 0.083993
0.233896 0.585551 0.082716
0.239999 0.593100 0.084232
0.242675 0.592267 0.084121
0.247659 0.596968 0.085060
0.249637 0.594547 0.084612
0.255764 0.601843 0.086019
0.260380 0.605555 0.086718
0.263334 0.605462 0.086666
0.262761 0.597512 0.085085
0.264733 0.595429 0.084616
0.266425 0.592825 0.084028
0.270431 0.595355 0.084410
0.270289 0.588968 0.083061
0.273181 0.589222 0.082969
0.280219 0.598266 0.084541
0.282521 0.597304 0.084178
0.284395 0.595533 0.083643
0.286871 0.595085 0.083343
0.288818 0.593629 0.082835
0.285859 0.582381 0.080454
-0.306209 0.599852 0.089400
-0.303797 0.600365 0.089678
-0.302117 0.602457 0.090254
-0.300659 0.605106 0.090923
-0.297092 0.603443 0.090712
-0.294576 0.604033 0.090932
-0.292001 0.604568 0.091122
-0.289107 0.604483 0.091168
-0.286426 0.604919 0.091299
-0.283436 0.604738 0.091287
-0.279871 0.603327 0.091009
-0.276634 0.602677 0.090864
-0.274834 0.605341 0.091364
-0.271511 0.604604 0.091163
-0.268631 0.604934 0.091158
-0.266297 0.606603 0.091403
-0.262918 0.605861 0.091147
-0.259374 0.604742 0.090800
-0.256452 0.605157 0.090743
-0.253318 0.605091 0.090574
-0.250338 0.605440 0.090473
-0.247526 0.606257 0.090451
-0.244770 0.607266 0.090453
-0.241634 0.607331 0.090255
-0.237995 0.606087 0.089787
-0.234666 0.605656 0.089469
-0.231840 0.606594 0.089411
-0.228703 0.606710 0.089182
-0.225290 0.606063 0.088796
-0.222646 0.607585 0.088827
-0.219783 0.608520 0.088736
-0.216589 0.608514 0.088456
-0.212773 0.606651 0.087811
-0.209513 0.606401 0.087476
-0.206500 0.606890 0.087281
-0.203407 0.607128 0.087035
-0.200279 0.607253 0.086765
-0.197080 0.607130 0.086447
-0.194081 0.607641 0.086250
-0.191002 0.607878 0.086000
-0.187097 0.605304 0.085216
-0.184604 0.607477 0.085336
-0.181295 0.606841 0.084924
-0.178326 0.607368 0.084735
-0.175404 0.608056 0.084577
-0.171945 0.606745 0.084046
-0.168795 0.606524 0.083724
-0.165831 0.606976 0.083531
-0.162877 0.607449 0.083345
-0.160078 0.608530 0.083276
-0.156248 0.605405 0.082428
-0.153367 0.606073 0.082291
-0.150693 0.607615 0.082318
-0.147743 0.607991 0.082133
-0.144495 0.607014 0.081704
-0.141586 0.607503 0.081549
-0.138398 0.606678 0.081158
-0.135825 0.608702 0.081293
-0.132839 0.608771 0.081075
-0.129786 0.608476 0.080795
-0.126746 0.608191 0.080522
-0.123694 0.607793 0.080234
-0.120867 0.608546 0.080159
-0.118025 0.609214 0.080073
-0.115156 0.609734 0.079965
-0.112304 0.610341 0.079877
-0.108881 0.607518 0.079177
-0.105975 0.607689 0.079021
-0.103068 0.607824 0.078863
-0.100143 0.607808 0.078682
-0.097147 0.607280 0.078415
-0.094270 0.607507 0.078288
-0.091483 0.608367 0.078277
-0.088572 0.608318 0.078109
-0.085644 0.608096 0.077916
-0.082778 0.608330 0.077807
-0.079918 0.608585 0.077707
-0.076910 0.607540 0.077381
-0.073950 0.606804 0.077114
-0.071196 0.607925 0.077179
-0.068374 0.608431 0.077140
-0.065466 0.608065 0.076952
-0.062549 0.607520 0.076736
-0.059780 0.608597 0.076810
-0.056982 0.609393 0.076838
-0.054143 0.609739 0.076791
-0.051204 0.608694 0.076504
-0.048316 0.608239 0.076325
-0.045453 0.608066 0.076199
-0.042630 0.608511 0.076185
-0.039774 0.608386 0.076076
-0.036961 0.609072 0.076111
-0.034142 0.609739 0.076147
-0.031192 0.607249 0.075638
-0.028286 0.605324 0.075231
-0.025534 0.607772 0.075588
-0.022728 0.608972 0.075731
-0.019876 0.608508 0.075589
-0.017024 0.607765 0.075403
-0.014184 0.607329 0.075273
-0.011363 0.608880 0.075492
-0.008526 0.609802 0.075605
-0.005681 0.611208 0.075806
-0.002790 0.617902 0.076926
0.000115 0.620181 0.077284
0.002953 0.616634 0.076638
0.005756 0.612928 0.075969
0.008545 0.610043 0.075445
0.011420 0.611037 0.075596
0.014342 0.613098 0.075935
0.017277 0.614975 0.076246
0.020132 0.614564 0.076165
0.022913 0.612644 0.075828
0.025589 0.609033 0.075202
0.028547 0.610934 0.075532
0.031406 0.610924 0.075536
0.034183 0.609638 0.075323
0.036824 0.606566 0.074805
0.039711 0.607103 0.074914
0.042569 0.607192 0.074951
0.045738 0.610913 0.075619
0.048892 0.614049 0.076190
0.051033 0.606064 0.074842
0.053849 0.605649 0.074806
0.057365 0.612011 0.075949
0.060055 0.610145 0.075671
0.062627 0.607352 0.075236
0.065151 0.604340 0.074767
0.068423 0.607664 0.075400
0.071421 0.608541 0.075614
0.074277 0.608239 0.075628
0.077163 0.608151 0.075683
0.079994 0.607646 0.075669
0.082619 0.605724 0.075414
0.085943 0.608540 0.075987
0.089412 0.612077 0.076692
0.091765 0.608396 0.076143
0.094567 0.607624 0.076105
0.097435 0.607240 0.076140
0.100123 0.605822 0.075997
0.103108 0.606096 0.076156
0.106168 0.606728 0.076381
0.108865 0.605371 0.076263
0.111983 0.606224 0.076537
0.115957 0.611317 0.077562
0.118799 0.610556 0.077563
0.120953 0.606492 0.076985
0.123860 0.606112 0.077061
0.127029 0.606921 0.077351
0.128872 0.601703 0.076579
0.131255 0.599045 0.076262
0.135326 0.603726 0.077253
0.138330 0.603687 0.077410
0.141380 0.603802 0.077599
0.144583 0.604497 0.077896
0.147807 0.605216 0.078201
0.149399 0.599532 0.077364
0.152869 0.601191 0.077844
0.156203 0.602245 0.078220
0.158597 0.599780 0.077967
0.161109 0.597801 0.077802
0.164452 0.598802 0.078177
0.168971 0.603830 0.079284
0.171376 0.601431 0.079050
0.174810 0.602547 0.079454
0.178130 0.603222 0.079780
0.181220 0.603106 0.079963
0.183889 0.601625 0.079897
0.186726 0.600702 0.079931
0.189874 0.600754 0.080144
0.192698 0.599797 0.080169
0.195699 0.599389 0.080293
0.198651 0.598840 0.080388
0.201962 0.599339 0.080673
0.205669 0.600948 0.081160
0.207355 0.596807 0.080578
0.210841 0.597790 0.080938
0.217200 0.606614 0.082749
0.217340 0.598398 0.081388
0.220816 0.599303 0.081713
0.224016 0.599468 0.081892
0.226970 0.599005 0.081944
0.229782 0.598208 0.081923
0.234057 0.601148 0.082590
0.233943 0.593094 0.081185
0.234781 0.587612 0.080248
0.237284 0.586341 0.080085
0.242894 0.592593 0.081321
0.246868 0.594850 0.081793
0.251806 0.599350 0.082670
0.256419 0.603033 0.083378
0.260868 0.606300 0.083991
0.263159 0.604652 0.083663
0.261922 0.595183 0.081848
0.263542 0.592300 0.081253
0.269113 0.598191 0.082287
0.270680 0.595325 0.081660
0.273061 0.594319 0.081363
0.276456 0.595544 0.081465
0.279442 0.595939 0.081393
0.280696 0.592773 0.080639
0.283274 0.592458 0.080399
0.283916 0.588243 0.079416
0.286208 0.587510 0.079065
0.283327 0.576448 0.076784
0.284873 0.574461 0.076172
-0.310508 0.602136 0.087019
-0.306987 0.600405 0.086863
-0.304445 0.600697 0.087082
-0.302623 0.602536 0.087585
-0.300626 0.604108 0.088017
-0.297646 0.603710 0.088046
-0.295445 0.605011 0.088387
-0.292719 0.605279 0.088507
-0.289704 0.604983 0.088496
-0.286906 0.605216 0.088570
-0.284146 0.605592 0.088652
-0.281116 0.605430 0.088609
-0.278583 0.606437 0.088776
-0.275111 0.605380 0.088519
-0.271803 0.604725 0.088323
-0.268943 0.605147 0.088319
-0.266397 0.606364 0.088453
-0.263432 0.606654 0.088387
-0.260814 0.607827 0.088478
-0.256443 0.604780 0.087731
-0.253415 0.605014 0.087607
-0.250408 0.605337 0.087487
-0.247737 0.606550 0.087525
-0.244937 0.607485 0.087496
-0.241910 0.607875 0.087349
-0.238196 0.606476 0.086847
-0.235222 0.607037 0.086712
-0.231814 0.606442 0.086346
-0.228832 0.607013 0.086196
-0.225793 0.607445 0.086011
-0.222564 0.607353 0.085720
-0.219637 0.608124 0.085587
-0.216580 0.608531 0.085380
-0.213405 0.608595 0.085103
-0.209549 0.606592 0.084434
-0.206513 0.607029 0.084223
-0.203112 0.606326 0.083796
-0.200100 0.606817 0.083592
-0.196665 0.605938 0.083132
-0.194003 0.607539 0.083134
-0.191070 0.608272 0.082974
-0.187853 0.608038 0.082635
-0.184584 0.607591 0.082259
-0.181459 0.607607 0.081971
-0.178230 0.607217 0.081611
-0.175116 0.607204 0.081322
-0.171784 0.606351 0.080883
-0.168837 0.606883 0.080701
-0.165545 0.606077 0.080279
-0.162686 0.606906 0.080157
-0.159553 0.606632 0.079840
-0.156325 0.605923 0.079448
-0.153716 0.607732 0.079514
-0.150738 0.608008 0.079308
-0.147693 0.607967 0.079050
-0.144613 0.607732 0.078761
-0.141429 0.606980 0.078385
-0.138518 0.607419 0.078226
-0.135475 0.607215 0.077958
-0.132801 0.608760 0.078005
-0.129894 0.609183 0.077857
-0.126726 0.608249 0.077473
-0.123849 0.608759 0.077351
-0.120971 0.609252 0.077229
-0.118083 0.609675 0.077100
-0.115177 0.609981 0.076955
-0.112205 0.609886 0.076744
-0.109318 0.610252 0.076618
-0.106072 0.608388 0.076108
-0.103273 0.609217 0.076073
-0.100187 0.608180 0.075718
-0.097261 0.608119 0.075538
-0.094390 0.608404 0.075422
-0.091543 0.608842 0.075337
-0.088569 0.608328 0.075091
-0.085658 0.608226 0.074922
-0.082802 0.608527 0.074826
-0.079966 0.608974 0.074760
-0.077092 0.609097 0.074642
-0.074133 0.608426 0.074392
-0.071209 0.607981 0.074186
-0.068397 0.608579 0.074162
-0.065497 0.608285 0.073990
-0.062576 0.607691 0.073771
-0.059760 0.608206 0.073745
-0.056996 0.609385 0.073836
-0.054020 0.607922 0.073481
-0.051292 0.609657 0.073674
-0.048434 0.609687 0.073581
-0.045522 0.608816 0.073339
-0.042652 0.608497 0.073195
-0.039792 0.608289 0.073073
-0.036940 0.608138 0.072965
-0.034320 0.613113 0.073728
-0.031401 0.611747 0.073421
-0.028379 0.607116 0.072566
-0.025571 0.607960 0.072641
-0.022762 0.609012 0.072754
-0.019925 0.609227 0.072730
-0.017054 0.607485 0.072379
-0.014222 0.607508 0.072330
-0.011387 0.607163 0.072222
-0.008561 0.608575 0.072414
