ply
format ascii 1.0
comment ---
element vertex 1708
property float x
property float y
property float z
element face 0
property list uchar uint vertex_indices
end_header
0.654673 0.584162 -0.345874
0.659684 0.584331 -0.346893
0.664775 0.584614 -0.347961
0.669649 0.584391 -0.348844
0.674522 0.584116 -0.349714
0.680950 0.586920 -0.351766
0.686197 0.587260 -0.352887
0.691059 0.586783 -0.353702
0.695540 0.585525 -0.354221
0.700577 0.585308 -0.355147
0.706770 0.587229 -0.356909
0.711543 0.586396 -0.357611
0.716281 0.585463 -0.358279
0.721522 0.585416 -0.359298
0.728356 0.588192 -0.361434
0.733153 0.587214 -0.362105
0.738795 0.587695 -0.363357
0.744690 0.588550 -0.364766
0.750017 0.588352 -0.365766
0.755819 0.588912 -0.367076
0.762106 0.590224 -0.368696
0.767442 0.589864 -0.369656
0.772572 0.589118 -0.370466
0.777419 0.587869 -0.371079
0.783725 0.588946 -0.372641
0.789875 0.589695 -0.374080
0.795576 0.589661 -0.375210
0.801191 0.589438 -0.376271
0.806886 0.589288 -0.377369
0.812251 0.588579 -0.378245
0.817173 0.587160 -0.378832
0.823762 0.588207 -0.380450
0.830099 0.588801 -0.381891
0.836004 0.588695 -0.383049
0.841860 0.588461 -0.384163
0.847974 0.588545 -0.385419
0.854770 0.589538 -0.387069
0.861058 0.589738 -0.388395
0.867267 0.589765 -0.389658
0.873090 0.589204 -0.390679
0.878424 0.587929 -0.391403
0.884281 0.587326 -0.392422
0.892130 0.589334 -0.394577
0.898363 0.589107 -0.395780
0.905129 0.589522 -0.397273
0.910985 0.588692 -0.398234
0.916540 0.587431 -0.399015
0.923758 0.588245 -0.400716
0.930543 0.588437 -0.402156
0.937174 0.588374 -0.403496
0.943480 0.587849 -0.404642
0.952617 0.590722 -0.407316
0.956988 0.587726 -0.407382
0.963798 0.587639 -0.408759
0.970021 0.586796 -0.409807
0.979838 0.590114 -0.412752
0.986089 0.589167 -0.413782
0.992345 0.588180 -0.414803
0.999359 0.588007 -0.416209
1.006977 0.588451 -0.417913
1.013602 0.587713 -0.419087
1.024308 0.591426 -0.422340
1.030968 0.590576 -0.423496
1.037847 0.589910 -0.424750
1.044231 0.588657 -0.425742
1.051380 0.588168 -0.427107
1.060069 0.589237 -0.429226
1.066798 0.588172 -0.430351
1.072571 0.586068 -0.430994
1.078330 0.583917 -0.431624
1.091446 0.589173 -0.435832
1.100257 0.589939 -0.437909
1.105470 0.587045 -0.438232
1.114706 0.588081 -0.440480
1.120982 0.586137 -0.441294
1.130725 0.587491 -0.443744
1.136605 0.585052 -0.444347
1.149101 0.588829 -0.448049
1.157922 0.589009 -0.449997
1.165237 0.587706 -0.451227
1.173292 0.587020 -0.452786
1.180356 0.585359 -0.453874
1.191290 0.587124 -0.456721
1.200773 0.587470 -0.458879
1.210887 0.588274 -0.461301
1.218271 0.586584 -0.462471
1.224163 0.583540 -0.462960
1.235320 0.584969 -0.465791
1.245028 0.585043 -0.467952
1.258215 0.587937 -0.471626
1.266525 0.586617 -0.473122
1.272753 0.583504 -0.473695
1.282717 0.583393 -0.475885
1.292974 0.583413 -0.478181
1.308154 0.587257 -0.482573
1.317808 0.586543 -0.484555
1.326236 0.584769 -0.485995
1.339118 0.586369 -0.489310
1.351014 0.587062 -0.492176
1.360877 0.586078 -0.494160
1.371299 0.585414 -0.496357
1.382476 0.585201 -0.498847
1.397277 0.587536 -0.502814
1.409948 0.588143 -0.505864
1.418770 0.585836 -0.507304
1.429805 0.585023 -0.509632
1.443783 0.586174 -0.513135
1.453181 0.583968 -0.514749
1.464422 0.582946 -0.517088
1.478317 0.583625 -0.520468
1.491404 0.583606 -0.523493
1.502757 0.582289 -0.525798
1.516097 0.582177 -0.528866
1.537471 0.587188 -0.535070
1.553016 0.588175 -0.538927
1.566762 0.587850 -0.542044
1.578064 0.585845 -0.544180
1.588773 0.583375 -0.546063
1.604619 0.584005 -0.549906
1.626084 0.587929 -0.555868
1.640378 0.587291 -0.559033
1.654813 0.586624 -0.562221
1.673176 0.588173 -0.566864
1.691934 0.589798 -0.571612
1.707124 0.589206 -0.574975
1.720742 0.587617 -0.577718
1.739202 0.588701 -0.582235
1.756712 0.589133 -0.586358
1.766966 0.585452 -0.587764
1.775600 0.580887 -0.588561
1.783967 0.576208 -0.589250
1.766633 0.557821 -0.580569
1.737973 0.533796 -0.567852
1.741823 0.527267 -0.566982
1.745791 0.520910 -0.566162
1.742269 0.510832 -0.562665
1.737775 0.500465 -0.558850
1.732603 0.489973 -0.554827
0.288598 0.569845 -0.282085
0.292161 0.578839 -0.285501
0.295584 0.579708 -0.286445
0.299283 0.585917 -0.289025
0.303010 0.590063 -0.290979
0.306398 0.584976 -0.290090
0.309860 0.581067 -0.289554
0.313496 0.579884 -0.289854
0.317179 0.578789 -0.290178
0.320943 0.578338 -0.290697
0.324687 0.576985 -0.290932
0.329923 0.595227 -0.297299
0.334247 0.599280 -0.299238
0.338217 0.598213 -0.299571
0.341663 0.590990 -0.297959
0.345554 0.588925 -0.297965
0.348834 0.580593 -0.295980
0.352789 0.579309 -0.296222
0.357676 0.586503 -0.299163
0.367330 0.597571 -0.304017
0.372005 0.601003 -0.305784
0.375590 0.595600 -0.304713
0.380162 0.597883 -0.306115
0.384512 0.598327 -0.306926
0.388788 0.598166 -0.307545
0.392967 0.597305 -0.307937
0.395709 0.587163 -0.305306
0.399109 0.581756 -0.304209
0.403939 0.585334 -0.306046
0.408587 0.587593 -0.307460
0.412970 0.588191 -0.308334
0.417134 0.587517 -0.308792
0.422446 0.593054 -0.311307
0.426938 0.593971 -0.312302
0.429762 0.586303 -0.310450
0.433767 0.584892 -0.310673
0.437484 0.582136 -0.310449
0.442016 0.583365 -0.311558
0.445414 0.579275 -0.310888
0.449618 0.579005 -0.311501
0.456560 0.590802 -0.316189
0.462192 0.596410 -0.318809
0.463209 0.582281 -0.314749
0.467246 0.581208 -0.315108
0.471718 0.581916 -0.316078
0.476270 0.582889 -0.317143
0.481328 0.585765 -0.318868
0.486482 0.588864 -0.320679
0.489479 0.583778 -0.319682
0.492387 0.578536 -0.318626
0.497916 0.582865 -0.320880
0.501391 0.579774 -0.320570
0.505242 0.578062 -0.320741
0.511136 0.583317 -0.323346
0.514532 0.580024 -0.322973
0.518650 0.579178 -0.323459
0.524350 0.583420 -0.325739
0.529888 0.586969 -0.327788
0.534936 0.588839 -0.329255
0.541792 0.596145 -0.332661
0.547527 0.599797 -0.334787
0.548076 0.587925 -0.331385
0.551574 0.584989 -0.331164
0.555431 0.583133 -0.331329
0.559588 0.582140 -0.331808
0.563390 0.580148 -0.331930
0.567597 0.579282 -0.332461
0.573356 0.582590 -0.334511
0.579349 0.586380 -0.336749
0.584175 0.586953 -0.337827
0.587767 0.584273 -0.337721
0.592050 0.583385 -0.338274
0.596413 0.582676 -0.338896
0.600653 0.581633 -0.339400
0.605953 0.583161 -0.340860
0.610491 0.582763 -0.341614
0.614927 0.582085 -0.342270
0.619551 0.581815 -0.343082
0.624006 0.581113 -0.343739
0.629319 0.582339 -0.345124
0.635029 0.584377 -0.346825
0.640216 0.585147 -0.348058
0.644502 0.583869 -0.348522
0.648880 0.582772 -0.349059
0.654224 0.583716 -0.350379
0.659651 0.584763 -0.351746
0.664989 0.585542 -0.353021
0.669775 0.585114 -0.353838
0.676188 0.587955 -0.355925
0.681632 0.588725 -0.357223
0.686208 0.587699 -0.357831
0.690985 0.587040 -0.358587
0.696038 0.586877 -0.359542
0.701189 0.586851 -0.360558
0.706005 0.586138 -0.361311
0.711015 0.585751 -0.362197
0.715904 0.585094 -0.362983
0.722711 0.587903 -0.365152
0.728357 0.588495 -0.366452
0.733286 0.587739 -0.367221
0.738629 0.587676 -0.368274
0.744620 0.588691 -0.369769
0.750185 0.588891 -0.370945
0.755724 0.588987 -0.372086
0.761599 0.589593 -0.373444
0.767414 0.590031 -0.374742
0.772855 0.589785 -0.375769
0.777901 0.588844 -0.376519
0.783801 0.589245 -0.377827
0.790195 0.590370 -0.379444
0.795761 0.590108 -0.380497
0.801278 0.589718 -0.381505
0.807593 0.590512 -0.383014
0.813574 0.590721 -0.384290
0.818512 0.589293 -0.384886
0.823470 0.587867 -0.385488
0.829453 0.587932 -0.386727
0.835777 0.588437 -0.388162
0.841432 0.587906 -0.389165
0.848741 0.589699 -0.391171
0.855097 0.590046 -0.392571
0.861022 0.589721 -0.393692
0.867752 0.590463 -0.395284
0.872991 0.589079 -0.395966
0.878169 0.587583 -0.396605
0.884422 0.587507 -0.397870
0.891972 0.589104 -0.399879
0.898250 0.588929 -0.401124
0.904534 0.588704 -0.402358
0.910622 0.588171 -0.403465
0.915979 0.586653 -0.404144
0.923917 0.588375 -0.406276
0.930622 0.588454 -0.407690
0.939011 0.590564 -0.410029
0.944802 0.589372 -0.410897
0.950525 0.588059 -0.411718
0.957007 0.587625 -0.412948
0.963806 0.587514 -0.414336
0.972632 0.589738 -0.416809
0.977848 0.587627 -0.417308
0.987771 0.590949 -0.420323
0.995145 0.591215 -0.421947
1.001322 0.590049 -0.422920
1.007643 0.589001 -0.423959
1.013355 0.587227 -0.424668
1.023290 0.590080 -0.427567
1.030565 0.589902 -0.429058
1.037383 0.589163 -0.430300
1.044313 0.588487 -0.431585
1.053167 0.589797 -0.433835
1.061444 0.590402 -0.435769
1.067824 0.588948 -0.436730
1.073308 0.586526 -0.437234
1.084432 0.589833 -0.440536
1.090426 0.587813 -0.441268
1.098989 0.588329 -0.443256
1.104289 0.585523 -0.443628
1.114699 0.587709 -0.446482
1.120645 0.585434 -0.447148
1.131216 0.587574 -0.450032
1.138088 0.586065 -0.451117
1.148718 0.588050 -0.453979
1.158774 0.589376 -0.456541
1.167227 0.589107 -0.458323
1.174435 0.587613 -0.459503
1.180775 0.585271 -0.460266
1.194553 0.589574 -0.464473
1.200308 0.586558 -0.464934
1.213014 0.589637 -0.468583
1.217537 0.585417 -0.468458
1.224182 0.583017 -0.469299
1.236914 0.585779 -0.472884
1.245662 0.585011 -0.474641
1.259472 0.588405 -0.478648
1.266301 0.585829 -0.479504
1.275741 0.585347 -0.481510
1.288590 0.587547 -0.485000
1.294051 0.583636 -0.485212
1.307426 0.586011 -0.488880
1.317225 0.585401 -0.490957
1.326203 0.584048 -0.492658
1.337129 0.584115 -0.495181
1.352264 0.587288 -0.499484
1.362299 0.586410 -0.501569
1.373314 0.586163 -0.504049
1.384929 0.586244 -0.506759
1.401082 0.589534 -0.511351
1.410537 0.587755 -0.513095
1.419930 0.585839 -0.514795
1.433085 0.586512 -0.518037
1.442804 0.584616 -0.519830
1.452721 0.582765 -0.521685
1.462487 0.580714 -0.523459
1.479456 0.583489 -0.528149
1.493250 0.583923 -0.531505
1.505837 0.583403 -0.534343
1.519160 0.583242 -0.537447
1.535071 0.584637 -0.541555
1.548838 0.584477 -0.544770
1.564230 0.585221 -0.548597
1.578804 0.585292 -0.552064
1.593075 0.585036 -0.555377
1.610364 0.586517 -0.559838
1.625786 0.586690 -0.563529
1.645135 0.589103 -0.568706
1.660084 0.588704 -0.572135
1.677994 0.589942 -0.576668
1.693343 0.589534 -0.580178
1.709864 0.589700 -0.584100
1.723432 0.588066 -0.586863
1.733022 0.584118 -0.588096
1.754053 0.586559 -0.593618
1.769519 0.585784 -0.597005
1.778036 0.581151 -0.597768
1.783691 0.575006 -0.597459
1.738069 0.541541 -0.578192
1.731417 0.529354 -0.573432
1.736446 0.523501 -0.572994
1.737526 0.515703 -0.571116
1.723083 0.500116 -0.563610
1.731099 0.496212 -0.564296
1.742055 0.493859 -0.566035
1.671676 0.451277 -0.538563
0.288363 0.577759 -0.288395
0.291588 0.574903 -0.288201
0.294965 0.575274 -0.289002
0.298676 0.582684 -0.291993
0.302470 0.589095 -0.294682
0.305942 0.586075 -0.294426
0.309343 0.581043 -0.293529
0.312984 0.580131 -0.293919
0.316718 0.580020 -0.294556
0.320442 0.578988 -0.294900
0.324233 0.578387 -0.295376
0.328827 0.588108 -0.299132
0.333481 0.596909 -0.302607
0.337134 0.592247 -0.301792
0.340830 0.588184 -0.301160
0.344161 0.580281 -0.299286
0.348138 0.579451 -0.299676
0.352153 0.578827 -0.300131
0.356370 0.579910 -0.301136
0.361456 0.588388 -0.304543
0.366547 0.596034 -0.307692
0.370882 0.596789 -0.308608
0.374194 0.589389 -0.306861
0.377522 0.582577 -0.305296
0.382274 0.586474 -0.307238
0.387188 0.591152 -0.309445
0.391351 0.590404 -0.309871
0.394969 0.586120 -0.309128
0.398600 0.582150 -0.308485
0.402493 0.579994 -0.308441
0.407139 0.582386 -0.309912
0.412501 0.588726 -0.312709
0.417609 0.593264 -0.314916
0.421925 0.593240 -0.315603
0.426066 0.592279 -0.315978
0.429413 0.587276 -0.314991
0.433023 0.583837 -0.314528
0.436970 0.582195 -0.314673
0.440502 0.578641 -0.314170
0.444423 0.577055 -0.314335
0.450874 0.586978 -0.318434
0.456874 0.594429 -0.321708
0.462951 0.601866 -0.324995
0.462612 0.581825 -0.318839
0.466707 0.580972 -0.319276
0.470837 0.580276 -0.319770
0.475199 0.580505 -0.320589
0.480243 0.583356 -0.322325
0.485630 0.587373 -0.324479
0.489585 0.585864 -0.324712
0.493668 0.584850 -0.325121
0.497855 0.584223 -0.325670
0.504182 0.591133 -0.328879
0.510376 0.597304 -0.331846
0.514660 0.596724 -0.332437
0.519586 0.598279 -0.333792
0.524222 0.598790 -0.334783
0.526101 0.590362 -0.332587
0.532349 0.596031 -0.335431
0.536882 0.596129 -0.336290
0.540296 0.592754 -0.335904
0.544461 0.591714 -0.336361
0.547540 0.587447 -0.335652
0.550442 0.582754 -0.334787
0.554768 0.582263 -0.335447
0.559001 0.581482 -0.336008
0.563151 0.580450 -0.336480
0.568139 0.581706 -0.337796
0.573280 0.583297 -0.339245
0.577082 0.581226 -0.339350
0.581252 0.580139 -0.339822
0.586258 0.581200 -0.341095
0.590568 0.580408 -0.341687
0.595364 0.580815 -0.342731
0.600872 0.582927 -0.344421
0.605275 0.582233 -0.345067
0.609705 0.581573 -0.345731
0.614708 0.582245 -0.346904
0.619023 0.581236 -0.347447
0.625006 0.584068 -0.349455
0.630147 0.584850 -0.350694
0.634915 0.584718 -0.351591
0.639872 0.584962 -0.352640
0.644420 0.584249 -0.353327
0.648837 0.583218 -0.353896
0.653610 0.582924 -0.354756
0.659671 0.585308 -0.356661
0.664882 0.585806 -0.357844
0.669876 0.585792 -0.358835
0.674943 0.585875 -0.359872
0.680704 0.587298 -0.361442
0.686057 0.587822 -0.362668
0.690780 0.587042 -0.363387
0.695979 0.587152 -0.364464
0.700907 0.586685 -0.365318
0.706077 0.586634 -0.366346
0.710836 0.585760 -0.367050
0.717738 0.588816 -0.369340
0.723086 0.588906 -0.370449
0.728296 0.588689 -0.371441
0.733007 0.587532 -0.372059
0.737862 0.586600 -0.372773
0.744599 0.588917 -0.374820
0.750837 0.590268 -0.376485
0.755708 0.589200 -0.377167
0.761618 0.589852 -0.378564
0.767176 0.589847 -0.379698
0.772445 0.589310 -0.380620
0.778400 0.589848 -0.381996
0.783900 0.589582 -0.383046
0.790051 0.590307 -0.384520
0.795567 0.589956 -0.385551
0.801392 0.590037 -0.386773
0.806919 0.589601 -0.387784
0.813166 0.590218 -0.389251
0.818111 0.588796 -0.389858
0.823067 0.587362 -0.390466
0.829694 0.588375 -0.392129
0.836679 0.589835 -0.393998
0.842440 0.589431 -0.395075
0.847928 0.588588 -0.395969
0.855496 0.590654 -0.398138
0.861077 0.589830 -0.399060
0.866972 0.589400 -0.400162
0.872708 0.588701 -0.401155
0.878884 0.588558 -0.402401
0.884648 0.587801 -0.403386
0.891856 0.588928 -0.405217
0.898046 0.588628 -0.406426
0.903928 0.587871 -0.407440
0.910408 0.587842 -0.408791
0.917326 0.588315 -0.410380
0.924005 0.588414 -0.411813
0.929810 0.587351 -0.412730
0.938806 0.590214 -0.415448
0.945081 0.589610 -0.416600
0.950913 0.588416 -0.417490
0.958654 0.589484 -0.419435
0.964870 0.588646 -0.420513
0.971791 0.588594 -0.421967
0.978799 0.588581 -0.423454
0.988237 0.591318 -0.426244
0.995186 0.591080 -0.427659
1.002348 0.591022 -0.429172
1.008232 0.589460 -0.429988
1.017544 0.591679 -0.432614
1.023278 0.589840 -0.433324
1.029114 0.588078 -0.434080
1.037856 0.589424 -0.436345
1.047117 0.591231 -0.438855
1.054343 0.590771 -0.440288
1.061516 0.590192 -0.441680
1.068207 0.589049 -0.442811
1.077335 0.590366 -0.445167
1.084472 0.589551 -0.446494
1.091526 0.588592 -0.447767
1.098959 0.587953 -0.449216
1.104943 0.585814 -0.449932
1.117887 0.590466 -0.454075
1.123282 0.587613 -0.454470
1.129182 0.585220 -0.455108
1.137492 0.585087 -0.456911
1.152024 0.590746 -0.461701
1.160151 0.590225 -0.463365
1.167152 0.588585 -0.464474
1.174850 0.587528 -0.465904
1.181382 0.585345 -0.466768
1.193679 0.588294 -0.470337
1.200098 0.585864 -0.471118
1.208750 0.585356 -0.472932
1.215223 0.582862 -0.473719
1.226406 0.584390 -0.476670
1.236113 0.584529 -0.478915
1.247551 0.586030 -0.481927
1.258429 0.586932 -0.484656
1.265960 0.584934 -0.485846
1.281693 0.589613 -0.490713
1.288357 0.586711 -0.491473
1.297154 0.585477 -0.493175
1.308978 0.586572 -0.496203
1.319504 0.586508 -0.498629
1.327275 0.584177 -0.499821
1.341077 0.586444 -0.503637
1.351089 0.585643 -0.505768
1.364264 0.587137 -0.509247
1.373379 0.585433 -0.510943
1.387856 0.587620 -0.514921
1.400674 0.588419 -0.518153
1.409260 0.585995 -0.519556
1.421646 0.586226 -0.522551
1.431423 0.584464 -0.524418
1.441777 0.583013 -0.526508
1.452498 0.581714 -0.528731
1.464530 0.581212 -0.531475
1.481257 0.583788 -0.536132
1.496258 0.585006 -0.540035
1.508249 0.584050 -0.542666
1.520338 0.583042 -0.545312
1.536978 0.584888 -0.549777
1.547591 0.582663 -0.551765
1.563515 0.583741 -0.555868
1.578977 0.584365 -0.559745
1.594850 0.585097 -0.563749
1.613735 0.587539 -0.568910
1.632898 0.589964 -0.574131
1.645487 0.588234 -0.576716
1.660104 0.587627 -0.580068
1.676223 0.587799 -0.583973
1.691391 0.587294 -0.587470
1.718827 0.593772 -0.595677
1.724924 0.587816 -0.595592
1.734796 0.584025 -0.596952
1.756367 0.586756 -0.602761
1.769296 0.584573 -0.605233
1.783770 0.583205 -0.608264
1.784447 0.574357 -0.606067
1.741438 0.542335 -0.587496
1.727505 0.526315 -0.579942
1.731355 0.519890 -0.579065
1.724160 0.507875 -0.574103
1.706067 0.490534 -0.565160
1.722704 0.491101 -0.569049
1.735097 0.489533 -0.571352
1.737525 0.483075 -0.570006
0.287843 0.574571 -0.291303
0.291275 0.579659 -0.293603
0.294592 0.578053 -0.293798
0.297957 0.576347 -0.293955
0.301810 0.585180 -0.297448
0.305547 0.588534 -0.299211
0.308857 0.581644 -0.297710
0.312470 0.580359 -0.297987
0.316170 0.579821 -0.298497
0.319884 0.578781 -0.298842
0.323694 0.578587 -0.299455
0.328220 0.587570 -0.303029
0.332244 0.588496 -0.304006
0.336925 0.596776 -0.307369
0.341168 0.598728 -0.308686
0.343622 0.580780 -0.303513
0.347718 0.581190 -0.304312
0.351602 0.579217 -0.304330
0.355834 0.580444 -0.305396
0.360597 0.586100 -0.307922
0.365577 0.592949 -0.310852
0.370297 0.596969 -0.312856
0.374196 0.594115 -0.312587
0.376796 0.581589 -0.309097
0.381032 0.581782 -0.309830
0.386034 0.587250 -0.312327
0.390506 0.588704 -0.313490
0.394054 0.583969 -0.312579
0.398433 0.584756 -0.313522
0.402997 0.586589 -0.314822
0.407785 0.589613 -0.316530
0.412265 0.590650 -0.317573
0.416750 0.591641 -0.318605
0.421262 0.592697 -0.319665
0.425583 0.592668 -0.320359
0.428123 0.583462 -0.317914
0.432618 0.584515 -0.318979
0.436460 0.582304 -0.318927
0.440368 0.580505 -0.319018
0.443819 0.576651 -0.318399
0.451179 0.590710 -0.323990
0.457774 0.600710 -0.328199
0.463056 0.604549 -0.330283
0.461733 0.580196 -0.322526
0.465887 0.579598 -0.323054
0.470364 0.580311 -0.324046
0.474301 0.578827 -0.324270
0.479568 0.582561 -0.326340
0.485304 0.587911 -0.328993
0.494983 0.607778 -0.336813
0.499761 0.608867 -0.337994
0.501202 0.597875 -0.334872
0.505302 0.596656 -0.335231
0.509134 0.594520 -0.335265
0.513845 0.595425 -0.336394
0.518237 0.595197 -0.337121
0.522634 0.594959 -0.337850
0.527201 0.595241 -0.338773
0.531593 0.594923 -0.339485
0.535666 0.593586 -0.339829
0.537749 0.586143 -0.337946
0.541524 0.584012 -0.338000
0.546364 0.585078 -0.339231
0.550024 0.582617 -0.339170
0.553984 0.581058 -0.339444
0.558675 0.581573 -0.340489
0.563502 0.582414 -0.341663
0.567719 0.581505 -0.342192
0.572240 0.581406 -0.343028
0.577592 0.583481 -0.344685
0.582429 0.584096 -0.345803
0.585612 0.580364 -0.345291
0.590336 0.580626 -0.346287
0.596354 0.584093 -0.348505
0.600537 0.582859 -0.348950
0.605089 0.582514 -0.349737
0.610129 0.583310 -0.350966
0.615537 0.584910 -0.352513
0.620053 0.584324 -0.353228
0.625320 0.585444 -0.354607
0.630064 0.585287 -0.355501
0.634549 0.584500 -0.356157
0.639053 0.583723 -0.356821
0.643790 0.583430 -0.357680
0.648705 0.583478 -0.358678
0.653876 0.584021 -0.359878
0.659867 0.586233 -0.361744
0.664860 0.586254 -0.362756
0.669818 0.586149 -0.363725
0.674683 0.585803 -0.364605
0.679065 0.584442 -0.365087
0.685592 0.587324 -0.367270
0.690591 0.587082 -0.368214
0.695770 0.587141 -0.369286
0.700806 0.586870 -0.370232
0.706162 0.587160 -0.371411
0.711616 0.587569 -0.372648
0.717444 0.588608 -0.374151
0.722855 0.588805 -0.375319
0.728065 0.588580 -0.376322
0.732860 0.587562 -0.377005
0.738039 0.587191 -0.377962
0.745658 0.591033 -0.380671
0.750609 0.590129 -0.381425
0.755918 0.589799 -0.382424
0.761633 0.590105 -0.383697
0.766455 0.588859 -0.384328
0.771747 0.588361 -0.385278
0.777949 0.589301 -0.386843
0.784139 0.590147 -0.388379
0.789070 0.588907 -0.389039
0.795326 0.589729 -0.390585
0.800641 0.589008 -0.391481
0.806202 0.588624 -0.392528
0.811233 0.587383 -0.393214
0.817048 0.587296 -0.394404
0.823728 0.588449 -0.396142
0.830398 0.589503 -0.397851
0.836494 0.589639 -0.399170
0.841833 0.588615 -0.399991
0.848891 0.590021 -0.401888
0.854076 0.588681 -0.402587
0.860524 0.589083 -0.404064
0.866277 0.588453 -0.405093
0.872309 0.588161 -0.406282
0.879259 0.589067 -0.408017
0.885325 0.588701 -0.409194
0.891489 0.588416 -0.410418
0.897662 0.588087 -0.411632
0.905729 0.590180 -0.413958
0.911974 0.589814 -0.415180
0.917723 0.588757 -0.416096
0.923520 0.587722 -0.417031
0.931641 0.589562 -0.419302
0.938745 0.590040 -0.420961
0.944628 0.588944 -0.421902
0.951847 0.589433 -0.423593
0.957846 0.588379 -0.424576
0.964157 0.587653 -0.425723
0.971153 0.587688 -0.427241
0.978187 0.587701 -0.428763
0.988101 0.590986 -0.431856
0.994464 0.590065 -0.432967
1.001908 0.590324 -0.434657
1.007981 0.588968 -0.435585
1.016470 0.590262 -0.437805
1.023742 0.590120 -0.439349
1.029973 0.588773 -0.440323
1.036096 0.587265 -0.441231
1.047990 0.591898 -0.445165
1.053455 0.589550 -0.445694
1.061814 0.590213 -0.447723
1.069459 0.590049 -0.449362
1.077899 0.590631 -0.451393
1.084548 0.589300 -0.452487
1.092375 0.589109 -0.454169
1.100013 0.588655 -0.455739
1.106627 0.587117 -0.456778
1.118189 0.590383 -0.460283
1.124718 0.588616 -0.461246
1.131310 0.586863 -0.462232
1.137219 0.584410 -0.462872
1.148656 0.587136 -0.466215
1.157978 0.587748 -0.468492
1.167503 0.588450 -0.470846
1.175197 0.587372 -0.472293
1.182067 0.585479 -0.473330
1.193207 0.587367 -0.476396
1.200363 0.585584 -0.477539
1.210938 0.586752 -0.480287
1.221574 0.587856 -0.483037
1.229733 0.586703 -0.484601
1.239166 0.586563 -0.486743
1.246569 0.584607 -0.487924
1.259555 0.587267 -0.491666
1.268583 0.586486 -0.493557
1.283537 0.590484 -0.498133
1.290139 0.587503 -0.498873
1.297726 0.585265 -0.500050
1.305712 0.583279 -0.501395
1.320732 0.586769 -0.505875
1.328622 0.584507 -0.507137
1.341768 0.586236 -0.510715
1.352375 0.585870 -0.513139
1.365807 0.587529 -0.516780
1.374767 0.585681 -0.518431
1.387868 0.586817 -0.521867
1.399098 0.586431 -0.524460
1.410378 0.585961 -0.527049
1.420906 0.584830 -0.529290
1.431476 0.583622 -0.531527
1.443720 0.583484 -0.534453
1.457187 0.584067 -0.537868
1.469005 0.583367 -0.540555
1.483152 0.584131 -0.544192
1.494885 0.583115 -0.546787
1.507830 0.582791 -0.549859
1.524331 0.584681 -0.554371
1.540580 0.586226 -0.558736
1.551910 0.584426 -0.561042
1.572267 0.588286 -0.567009
1.586630 0.588143 -0.570485
1.598545 0.586338 -0.572935
1.609066 0.583581 -0.574799
1.635482 0.590449 -0.583015
1.646438 0.587711 -0.584984
1.657309 0.584858 -0.586898
1.676540 0.586879 -0.592099
1.688952 0.584762 -0.594564
1.707318 0.586016 -0.599339
1.723622 0.585962 -0.603263
1.736066 0.583637 -0.605647
1.752348 0.583412 -0.609493
1.769458 0.583568 -0.613621
1.785777 0.583215 -0.617407
1.785842 0.574047 -0.614943
1.738408 0.539712 -0.594415
1.730314 0.526822 -0.588970
1.725579 0.515929 -0.584836
1.700611 0.494813 -0.573130
1.708488 0.490889 -0.573813
1.716687 0.487204 -0.574610
1.781890 0.504188 -0.594218
0.288126 0.603765 -0.304498
0.290929 0.583320 -0.298707
0.294197 0.580128 -0.298401
0.297264 0.570436 -0.295999
0.301079 0.579409 -0.299586
0.305052 0.588838 -0.303332
0.308321 0.581230 -0.301576
0.312002 0.581435 -0.302339
0.315628 0.579734 -0.302479
0.319307 0.578296 -0.302699
0.323057 0.577381 -0.303084
0.327626 0.587246 -0.306999
0.331868 0.591119 -0.308958
0.336177 0.594855 -0.310876
0.340950 0.603102 -0.314288
0.343167 0.582260 -0.308080
0.347228 0.582271 -0.308757
0.351138 0.580523 -0.308849
0.355255 0.580640 -0.309559
0.360215 0.588095 -0.312722
0.365166 0.594662 -0.315599
0.369895 0.598720 -0.317645
0.373749 0.595419 -0.317219
0.376370 0.582916 -0.313682
0.380694 0.583694 -0.314621
0.385362 0.586757 -0.316338
0.389213 0.583994 -0.316080
0.393339 0.583171 -0.316481
0.398463 0.588692 -0.319051
0.403340 0.592306 -0.320980
0.407492 0.591349 -0.321348
0.411158 0.587606 -0.320758
0.415514 0.587935 -0.321571
0.420166 0.589834 -0.322931
0.424525 0.590056 -0.323716
0.427726 0.584268 -0.322416
0.431686 0.582584 -0.322541
0.436120 0.583288 -0.323501
0.440189 0.582200 -0.323839
0.444001 0.579951 -0.323772
0.451182 0.593127 -0.329134
0.456934 0.599323 -0.332061
0.462248 0.603315 -0.334225
0.467547 0.607042 -0.336307
0.469411 0.596307 -0.333259
0.475929 0.604949 -0.337104
0.476278 0.588624 -0.332047
0.480606 0.588475 -0.332761
0.487836 0.599410 -0.337462
0.493608 0.604416 -0.340053
0.497665 0.602897 -0.340303
0.500894 0.598422 -0.339486
0.503537 0.592009 -0.337963
0.506769 0.587850 -0.337253
0.510775 0.586447 -0.337547
0.515220 0.586534 -0.338388
0.520129 0.588112 -0.339783
0.525204 0.590138 -0.341351
0.528217 0.585502 -0.340473
0.531600 0.582143 -0.340063
0.535151 0.579372 -0.339870
0.539025 0.577631 -0.340061
0.545232 0.582849 -0.342849
0.549645 0.582608 -0.343613
0.553616 0.581060 -0.343893
0.559030 0.583611 -0.345717
0.563297 0.582838 -0.346298
0.567376 0.581530 -0.346683
0.573257 0.585098 -0.348919
0.577381 0.583827 -0.349330
0.581665 0.582966 -0.349901
0.586080 0.582427 -0.350599
0.591605 0.584691 -0.352378
0.595913 0.583780 -0.352947
0.600397 0.583283 -0.353680
0.604982 0.582999 -0.354501
0.610412 0.584717 -0.356105
0.615150 0.584690 -0.357041
0.619986 0.584843 -0.358053
0.625234 0.585900 -0.359426
0.629923 0.585599 -0.360276
0.634187 0.584295 -0.360737
0.639212 0.584671 -0.361865
0.643930 0.584311 -0.362709
0.649910 0.586647 -0.364631
0.654485 0.585861 -0.365321
0.659779 0.586565 -0.366612
0.664851 0.586733 -0.367698
0.669870 0.586736 -0.368724
0.674342 0.585571 -0.369286
0.679853 0.586473 -0.370690
0.684753 0.586086 -0.371579
0.690618 0.587549 -0.373228
0.695507 0.587028 -0.374079
0.700395 0.586465 -0.374918
0.706116 0.587439 -0.376395
0.711506 0.587716 -0.377595
0.716618 0.587418 -0.378565
0.722472 0.588427 -0.380085
0.728085 0.588926 -0.381403
0.733044 0.588187 -0.382214
0.738714 0.588665 -0.383540
0.744754 0.589725 -0.385121
0.749916 0.589188 -0.386039
0.756185 0.590498 -0.387745
0.761579 0.590243 -0.388799
0.766196 0.588644 -0.389288
0.771794 0.588642 -0.390464
0.777654 0.589011 -0.391807
0.783377 0.589095 -0.393038
0.788540 0.588227 -0.393866
0.793859 0.587567 -0.394792
0.800359 0.588710 -0.396508
0.805282 0.587334 -0.397138
0.811860 0.588461 -0.398868
0.817736 0.588445 -0.400109
0.823734 0.588555 -0.401415
0.830762 0.590130 -0.403379
0.836488 0.589704 -0.404471
0.841626 0.588379 -0.405170
0.847384 0.587912 -0.406258
0.853552 0.587978 -0.407595
0.859447 0.587601 -0.408743
0.865775 0.587775 -0.410149
0.872671 0.588669 -0.411892
0.879890 0.589923 -0.413813
0.885483 0.588901 -0.414711
0.891485 0.588386 -0.415848
0.899138 0.590000 -0.417975
0.906602 0.591275 -0.419962
0.911909 0.589672 -0.420632
0.918080 0.589147 -0.421811
0.924975 0.589488 -0.423404
0.932292 0.590289 -0.425227
0.938489 0.589622 -0.426374
0.944254 0.588372 -0.427258
0.951624 0.589039 -0.429059
0.957381 0.587685 -0.429915
0.963130 0.586282 -0.430758
0.970303 0.586528 -0.432399
0.977913 0.587213 -0.434266
0.987325 0.589907 -0.437122
0.994942 0.590423 -0.438947
1.001260 0.589386 -0.440034
1.007156 0.587827 -0.440878
1.016356 0.589910 -0.443519
1.023244 0.589333 -0.444875
1.030783 0.589409 -0.446568
1.041127 0.592446 -0.449749
1.045439 0.588893 -0.449677
1.053705 0.589530 -0.451705
1.061236 0.589310 -0.453324
1.070211 0.590521 -0.455684
1.076316 0.588679 -0.456522
1.084135 0.588544 -0.458241
1.092106 0.588490 -0.460021
1.101409 0.589691 -0.462468
1.108391 0.588491 -0.463704
1.114120 0.586006 -0.464292
1.124549 0.588052 -0.467248
1.133864 0.588906 -0.469614
1.141304 0.587875 -0.471021
1.151068 0.588969 -0.473567
1.157372 0.586727 -0.474379
1.167464 0.587944 -0.477045
1.177278 0.588794 -0.479550
1.185811 0.588376 -0.481405
1.192205 0.585955 -0.482208
1.201442 0.586017 -0.484372
1.212204 0.587325 -0.487246
1.221231 0.586999 -0.489264
1.230578 0.586858 -0.491415
1.237176 0.584274 -0.492247
1.247966 0.585185 -0.495041
1.262678 0.589261 -0.499640
1.269180 0.586345 -0.500376
1.285610 0.591530 -0.505700
1.291824 0.588201 -0.506267
1.297328 0.584259 -0.506504
1.313037 0.588410 -0.511392
1.323523 0.588248 -0.513863
1.333058 0.587231 -0.515881
1.342146 0.585773 -0.517677
1.359712 0.590705 -0.523250
1.368565 0.588824 -0.524890
1.376250 0.585983 -0.525995
1.388174 0.586217 -0.528960
1.400619 0.586702 -0.532124
1.410073 0.584878 -0.533951
1.422293 0.584948 -0.536963
1.434263 0.584707 -0.539837
1.446041 0.584204 -0.542601
1.461236 0.585953 -0.546804
1.471828 0.584363 -0.549001
1.482694 0.582855 -0.551292
1.494068 0.581586 -0.553775
1.506776 0.581094 -0.556794
1.528526 0.586431 -0.563579
1.538477 0.583826 -0.565371
1.553763 0.584578 -0.569362
1.563822 0.581846 -0.571151
1.587098 0.587365 -0.578368
1.599828 0.586057 -0.581190
1.620192 0.589348 -0.587102
1.637277 0.590438 -0.591625
1.647792 0.587417 -0.593443
1.663202 0.587257 -0.597215
1.679385 0.587436 -0.601260
1.687441 0.582764 -0.602017
1.704384 0.583206 -0.606299
1.716875 0.581002 -0.608776
1.735258 0.582069 -0.613552
1.751251 0.581695 -0.617343
1.764819 0.579915 -0.620149
1.779981 0.578971 -0.623547
1.781572 0.570683 -0.621650
1.758749 0.549530 -0.610338
1.738271 0.530033 -0.600019
1.722361 0.513307 -0.591535
1.714504 0.501066 -0.586189
1.717615 0.494661 -0.585050
1.743082 0.499655 -0.592371
1.759757 0.500161 -0.596319
1.782796 0.503807 -0.602619
0.286838 0.568798 -0.297238
0.290246 0.575016 -0.299972
0.293449 0.571220 -0.299460
0.297047 0.577404 -0.302189
0.300443 0.575777 -0.302373
0.304643 0.591016 -0.308076
0.307946 0.584095 -0.306522
0.311423 0.580472 -0.306038
0.315114 0.580140 -0.306632
0.318792 0.578810 -0.306890
0.322556 0.578202 -0.307383
0.327021 0.586784 -0.310929
0.331078 0.588413 -0.312167
0.335235 0.590568 -0.313581
0.339784 0.596597 -0.316295
0.342571 0.582257 -0.312172
0.346587 0.581844 -0.312715
0.350495 0.580117 -0.312812
0.354431 0.578581 -0.312970
0.359924 0.590999 -0.317861
0.363717 0.587503 -0.317357
0.367525 0.584273 -0.316939
0.370717 0.576283 -0.314889
0.375178 0.578478 -0.316317
0.380438 0.586276 -0.319673
0.384908 0.587849 -0.320901
0.389161 0.587758 -0.321559
0.393221 0.586347 -0.321762
0.398209 0.590901 -0.324034
0.402413 0.590276 -0.324515
0.406290 0.587706 -0.324321
0.409810 0.583187 -0.323445
0.414576 0.585925 -0.325105
0.419322 0.588373 -0.326672
0.423850 0.589508 -0.327785
0.427463 0.585817 -0.327202
0.431382 0.583851 -0.327226
0.435560 0.583238 -0.327730
0.439552 0.581749 -0.327927
0.443625 0.580691 -0.328279
0.449382 0.587358 -0.331393
0.455480 0.595220 -0.334950
0.459349 0.592988 -0.334904
0.463220 0.590843 -0.334891
0.469925 0.600586 -0.339167
0.473808 0.598382 -0.339146
0.476468 0.591360 -0.337379
0.480000 0.588012 -0.336940
0.485491 0.592285 -0.339277
0.490031 0.592792 -0.340253
0.494544 0.593152 -0.341180
0.497737 0.588698 -0.340346
0.500843 0.584074 -0.339447
0.503800 0.579073 -0.338405
0.508256 0.579345 -0.339312
0.513239 0.581341 -0.340865
0.517080 0.579471 -0.340988
0.521202 0.578540 -0.341465
0.526506 0.581371 -0.343353
0.531054 0.581704 -0.344315
0.534588 0.578863 -0.344091
0.539097 0.579032 -0.345002
0.544867 0.582914 -0.347324
0.549371 0.582922 -0.348191
0.553881 0.582903 -0.349054
0.558578 0.583375 -0.350111
0.562955 0.582898 -0.350812
0.567860 0.583844 -0.352064
0.572775 0.584743 -0.353307
0.577104 0.584009 -0.353928
0.580683 0.581273 -0.353780
0.585929 0.582897 -0.355324
0.591067 0.584151 -0.356734
0.595846 0.584421 -0.357770
0.600170 0.583501 -0.358347
0.604958 0.583700 -0.359368
0.609908 0.584234 -0.360528
0.614754 0.584456 -0.361573
0.619921 0.585380 -0.362904
0.624831 0.585632 -0.363976
0.629581 0.585459 -0.364887
0.634661 0.585988 -0.366085
0.639872 0.586744 -0.367383
0.644847 0.586908 -0.368451
0.649409 0.586120 -0.369144
0.654382 0.586182 -0.370184
0.659339 0.586157 -0.371198
0.664448 0.586396 -0.372326
0.669161 0.585759 -0.373104
0.674498 0.586359 -0.374395
0.679417 0.586047 -0.375320
0.685029 0.587069 -0.376801
0.690330 0.587402 -0.378008
0.695124 0.586688 -0.378789
0.700325 0.586717 -0.379885
0.705903 0.587406 -0.381265
0.711140 0.587386 -0.382357
0.716590 0.587707 -0.383600
0.722003 0.587897 -0.384797
0.726990 0.587256 -0.385651
0.733193 0.588751 -0.387417
0.738947 0.589361 -0.388819
0.744142 0.588926 -0.389785
0.749477 0.588686 -0.390842
0.755729 0.589963 -0.392558
0.760891 0.589314 -0.393456
0.766238 0.588932 -0.394477
0.771378 0.588160 -0.395337
0.776797 0.587805 -0.396384
0.782521 0.587894 -0.397632
0.788751 0.588733 -0.399219
0.795080 0.589653 -0.400853
0.800573 0.589189 -0.401888
0.806469 0.589301 -0.403187
0.811942 0.588706 -0.404181
0.817061 0.587532 -0.404925
0.824323 0.589533 -0.407094
0.830709 0.590136 -0.408653
0.836831 0.590282 -0.410018
0.842048 0.589053 -0.410772
0.846958 0.587353 -0.411319
0.854454 0.589300 -0.413531
0.859363 0.587512 -0.414054
0.866106 0.588254 -0.415741
0.871771 0.587437 -0.416726
0.878978 0.588676 -0.418667
0.886089 0.589702 -0.420525
0.892112 0.589196 -0.421686
0.897324 0.587569 -0.422334
0.903985 0.587806 -0.423861
0.912575 0.590474 -0.426544
0.918524 0.589645 -0.427599
0.925876 0.590548 -0.429484
0.932647 0.590643 -0.431001
0.938106 0.589042 -0.431723
0.945150 0.589360 -0.433372
0.951881 0.589226 -0.434818
0.957865 0.588131 -0.435814
0.964081 0.587269 -0.436934
0.970943 0.587124 -0.438413
0.979981 0.589461 -0.441118
0.985489 0.587598 -0.441789
0.993614 0.588705 -0.443930
1.001024 0.588912 -0.445647
1.006614 0.587000 -0.446331
1.012418 0.585295 -0.447127
1.024810 0.590818 -0.451544
1.032409 0.590930 -0.453287
1.038199 0.589014 -0.454027
1.044749 0.587876 -0.455172
1.054099 0.589656 -0.457812
1.060906 0.588660 -0.459064
1.069087 0.589036 -0.461034
1.077321 0.589385 -0.463011
1.084669 0.588748 -0.464503
1.091688 0.587714 -0.465807
1.105253 0.593164 -0.470506
1.110873 0.590567 -0.471042
1.116080 0.587535 -0.471362
1.125452 0.588521 -0.473812
1.133660 0.588288 -0.475644
1.143441 0.589472 -0.478255
1.150932 0.588392 -0.479686
1.158390 0.587214 -0.481087
1.166313 0.586403 -0.482706
1.173882 0.585193 -0.484134
1.184668 0.586833 -0.487136
1.192939 0.586093 -0.488874
1.202941 0.586811 -0.491440
1.210885 0.585612 -0.492981
1.221189 0.586394 -0.495648
1.230963 0.586606 -0.498035
1.238450 0.584763 -0.499304
1.246019 0.582925 -0.500599
1.258018 0.584727 -0.503982
1.270240 0.586574 -0.507438
1.283100 0.588801 -0.511159
1.291890 0.587570 -0.512943
1.299226 0.585086 -0.514035
1.315012 0.589263 -0.519025
1.322977 0.587082 -0.520367
1.333595 0.586897 -0.522911
1.343496 0.586045 -0.525104
1.354539 0.585963 -0.527794
1.369172 0.588475 -0.532079
1.375655 0.584715 -0.532660
1.392553 0.588617 -0.537895
1.401060 0.586164 -0.539343
1.410206 0.584098 -0.541060
1.422857 0.584458 -0.544306
1.434315 0.583833 -0.546998
1.447024 0.583965 -0.550209
1.461059 0.584882 -0.553967
1.472249 0.583687 -0.556456
1.484261 0.582942 -0.559276
1.495914 0.581833 -0.561913
1.508964 0.581540 -0.565121
1.526846 0.584294 -0.570353
1.544287 0.586564 -0.575350
1.553284 0.583212 -0.576737
1.572999 0.586618 -0.582609
1.586627 0.585982 -0.585881
1.606708 0.589242 -0.591806
1.618937 0.587466 -0.594422
1.638480 0.590050 -0.600028
1.647635 0.586200 -0.601314
1.663442 0.586271 -0.605304
1.678836 0.585981 -0.609087
1.691308 0.583885 -0.611648
1.702183 0.580813 -0.613538
1.721460 0.582486 -0.618783
1.740031 0.583633 -0.623695
1.756204 0.583336 -0.627606
1.774856 0.584331 -0.632461
1.783926 0.580027 -0.633486
1.771587 0.564252 -0.626077
1.771382 0.555223 -0.623478
1.770257 0.545868 -0.620540
1.737004 0.519979 -0.605147
1.729663 0.507955 -0.599900
1.741854 0.506116 -0.602215
1.747847 0.501191 -0.602132
1.764236 0.501552 -0.606018
1.818506 0.520594 -0.624274
0.287128 0.599111 -0.311062
0.289571 0.566545 -0.301109
0.293092 0.574287 -0.304388
0.296725 0.581613 -0.307539
0.300570 0.591107 -0.311418
0.304375 0.596429 -0.313923
0.307609 0.587773 -0.311773
0.310899 0.580490 -0.310063
0.314558 0.579817 -0.310551
0.318401 0.581338 -0.311771
0.322093 0.579617 -0.311898
0.325950 0.579789 -0.312657
0.330293 0.585747 -0.315372
0.334619 0.590272 -0.317608
0.338656 0.590458 -0.318373
0.342184 0.584596 -0.317073
0.345869 0.580642 -0.316414
0.350042 0.581650 -0.317447
0.353707 0.577488 -0.316704
0.358361 0.582450 -0.319095
0.362781 0.584757 -0.320578
0.366110 0.577642 -0.318805
0.369983 0.575309 -0.318678
0.375314 0.584218 -0.322457
0.379707 0.585435 -0.323570
0.384544 0.589640 -0.325732
0.388822 0.589644 -0.326430
0.392911 0.588334 -0.326670
0.397231 0.588537 -0.327442
0.401505 0.588398 -0.328096
0.405037 0.583773 -0.327167
0.409088 0.582420 -0.327393
0.414044 0.586242 -0.329459
0.419014 0.589893 -0.331473
0.423270 0.589505 -0.332056
0.427003 0.586395 -0.331668
0.430999 0.584768 -0.331811
0.435053 0.583488 -0.332080
0.438964 0.581566 -0.332120
0.443282 0.581630 -0.332879
0.448173 0.584302 -0.334587
0.452930 0.586228 -0.336034
0.456674 0.583620 -0.335839
0.461147 0.584224 -0.336817
0.465797 0.585518 -0.338053
0.470354 0.586357 -0.339130
0.473880 0.583011 -0.338675
0.478176 0.582798 -0.339375
0.481751 0.579801 -0.339050
0.485280 0.576723 -0.338695
0.489579 0.576583 -0.339432
0.494538 0.578809 -0.341056
0.499406 0.580598 -0.342526
0.503276 0.578810 -0.342667
0.508512 0.581736 -0.344579
0.512972 0.581915 -0.345470
0.517185 0.581236 -0.346042
0.521078 0.579510 -0.346224
0.526010 0.581120 -0.347674
0.531014 0.582868 -0.349186
0.535292 0.582278 -0.349816
0.539559 0.581640 -0.350432
0.544660 0.583468 -0.352000
0.548785 0.582335 -0.352438
0.553378 0.582549 -0.353401
0.557973 0.582718 -0.354353
0.562785 0.583449 -0.355530
0.567706 0.584415 -0.356806
0.572316 0.584462 -0.357733
0.576515 0.583367 -0.358219
0.580919 0.582797 -0.358916
0.585835 0.583527 -0.360130
0.590597 0.583798 -0.361171
0.595222 0.583665 -0.362060
0.599748 0.583247 -0.362842
0.604730 0.583908 -0.364059
0.609669 0.584397 -0.365217
0.614133 0.583694 -0.365905
0.619077 0.584088 -0.367039
0.624496 0.585528 -0.368602
0.629470 0.585855 -0.369727
0.634412 0.586054 -0.370807
0.639123 0.585681 -0.371663
0.644202 0.586076 -0.372838
0.649361 0.586584 -0.374068
0.653943 0.585788 -0.374771
0.659020 0.586010 -0.375899
0.663803 0.585556 -0.376756
0.669123 0.586172 -0.378062
0.674156 0.586135 -0.379106
0.679255 0.586177 -0.380190
0.684642 0.586740 -0.381500
0.689874 0.586928 -0.382662
0.694894 0.586646 -0.383635
0.700708 0.587844 -0.385238
0.705735 0.587463 -0.386186
0.711016 0.587514 -0.387323
0.716414 0.587726 -0.388537
0.721536 0.587371 -0.389518
0.726291 0.586306 -0.390202
0.733175 0.589019 -0.392514
0.738617 0.589064 -0.393693
0.743880 0.588741 -0.394720
0.749463 0.588922 -0.395974
0.754762 0.588557 -0.397000
0.760286 0.588525 -0.398178
0.765450 0.587835 -0.399077
0.770980 0.587709 -0.400232
0.776483 0.587486 -0.401351
0.781527 0.586469 -0.402128
0.789114 0.589482 -0.404700
0.795362 0.590255 -0.406293
0.801316 0.590496 -0.407660
0.806371 0.589283 -0.408384
0.810757 0.587015 -0.408641
0.818184 0.589341 -0.410974
0.824467 0.589846 -0.412500
0.829812 0.588893 -0.413374
0.836409 0.589738 -0.415076
0.841910 0.588916 -0.416027
0.848699 0.589902 -0.417818
0.854006 0.588703 -0.418615
0.860490 0.589124 -0.420168
0.865332 0.587194 -0.420642
0.871484 0.587047 -0.421952
0.879423 0.589277 -0.424385
0.886379 0.590077 -0.426166
0.891645 0.588545 -0.426862
0.896923 0.587000 -0.427559
0.904365 0.588253 -0.429591
0.911597 0.589148 -0.431469
0.918885 0.590034 -0.433359
0.925408 0.589870 -0.434762
0.932453 0.590303 -0.436465
0.938761 0.589749 -0.437705
0.946186 0.590516 -0.439598
0.953026 0.590491 -0.441123
0.959119 0.589502 -0.442190
0.964571 0.587702 -0.442870
0.971653 0.587799 -0.444494
0.979417 0.588626 -0.446494
0.986204 0.588238 -0.447910
0.993818 0.588740 -0.449784
1.000463 0.588064 -0.451087
1.007243 0.587485 -0.452453
1.017955 0.591224 -0.456012
1.024794 0.590552 -0.457369
1.032109 0.590342 -0.458977
1.038251 0.588799 -0.459921
1.045320 0.588203 -0.461364
1.054710 0.590007 -0.464060
1.060390 0.587810 -0.464714
1.071019 0.590721 -0.468031
1.078259 0.590014 -0.469496
1.084102 0.587822 -0.470201
1.092446 0.588117 -0.472227
1.103595 0.591131 -0.475712
1.110615 0.589922 -0.476994
1.117216 0.588245 -0.478045
1.124192 0.586883 -0.479281
1.132290 0.586543 -0.481085
1.142432 0.588068 -0.483920
1.150192 0.587236 -0.485510
1.157534 0.585944 -0.486873
1.165133 0.584826 -0.488352
1.176219 0.586830 -0.491572
1.185265 0.586856 -0.493738
1.194480 0.586942 -0.495968
1.202097 0.585514 -0.497384
1.211891 0.585932 -0.499860
1.218733 0.583678 -0.500865
1.230768 0.585843 -0.504393
1.238476 0.584175 -0.505787
1.246264 0.582506 -0.507207
1.261679 0.587145 -0.512278
1.267838 0.583924 -0.512874
1.284123 0.588958 -0.518283
1.290957 0.586117 -0.519164
1.299162 0.584323 -0.520684
1.311435 0.585686 -0.524097
1.321164 0.584906 -0.526289
1.334887 0.587136 -0.530316
1.345842 0.587069 -0.533025
1.355985 0.586264 -0.535335
1.368566 0.587194 -0.538738
1.382172 0.588747 -0.542576
1.390287 0.586082 -0.543887
1.400578 0.584937 -0.546168
1.412843 0.585116 -0.549313
1.424388 0.584645 -0.552107
1.434408 0.582971 -0.554194
1.450947 0.585771 -0.559150
1.460031 0.583204 -0.560770
1.470651 0.581611 -0.563048
1.487587 0.584204 -0.568065
1.498714 0.582702 -0.570506
1.511688 0.582323 -0.573723
1.530768 0.585826 -0.579543
1.543679 0.585106 -0.582658
1.558668 0.585600 -0.586631
1.576159 0.587537 -0.591631
1.587240 0.585267 -0.593866
1.603745 0.586286 -0.598366
1.619861 0.586912 -0.602659
1.632685 0.585395 -0.605534
1.646168 0.584183 -0.608653
1.670176 0.589132 -0.616105
1.684152 0.587962 -0.619346
1.693515 0.584028 -0.620657
1.711293 0.584910 -0.625397
1.733795 0.588357 -0.632015
1.745734 0.585705 -0.634285
1.761538 0.585176 -0.638093
1.773457 0.582451 -0.640300
1.783370 0.578631 -0.641679
1.766873 0.560662 -0.632509
1.768129 0.552465 -0.630463
1.770470 0.544979 -0.628859
1.738448 0.519779 -0.613733
1.747422 0.516165 -0.614806
1.739903 0.504234 -0.609427
1.755385 0.504121 -0.613035
1.775941 0.506540 -0.618574
0.285511 0.547834 -0.298026
0.289589 0.583230 -0.310564
0.293081 0.588521 -0.313088
0.296553 0.590101 -0.314372
0.300475 0.601173 -0.318847
0.303905 0.597301 -0.318298
0.306850 0.582711 -0.314111
0.310674 0.586232 -0.316036
0.314032 0.579993 -0.314645
0.317727 0.579305 -0.315130
0.321470 0.578661 -0.315625
0.325290 0.578502 -0.316281
0.329582 0.584046 -0.318892
0.333732 0.586616 -0.320485
0.337743 0.586793 -0.321253
0.341769 0.586717 -0.321932
0.345509 0.583260 -0.321436
0.349490 0.582263 -0.321787
0.352985 0.576437 -0.320452
0.358420 0.588648 -0.325408
0.362605 0.588670 -0.326114
0.367247 0.592338 -0.328101
0.371057 0.588888 -0.327589
0.374576 0.583341 -0.326332
0.379049 0.585186 -0.327680
0.383457 0.586338 -0.328788
0.387886 0.587483 -0.329896
0.391803 0.585074 -0.329742
0.396407 0.587198 -0.331205
0.401130 0.589877 -0.332872
0.404889 0.586529 -0.332385
0.408561 0.582837 -0.331772
0.414215 0.590601 -0.335285
0.418428 0.589935 -0.335769
0.422877 0.590547 -0.336719
0.426793 0.588329 -0.336646
0.430465 0.584964 -0.336157
0.434547 0.583781 -0.336462
0.438716 0.583066 -0.336940
0.442880 0.582339 -0.337417
0.447563 0.584010 -0.338779
0.451672 0.583016 -0.339168
0.455658 0.581502 -0.339367
0.459982 0.581488 -0.340125
0.463473 0.577964 -0.339584
0.467735 0.577729 -0.340267
0.472839 0.580864 -0.342211
0.476571 0.578450 -0.342092
0.480409 0.576522 -0.342156
0.486268 0.582268 -0.345107
0.490426 0.581471 -0.345609
0.494657 0.580942 -0.346216
0.499003 0.580813 -0.346980
0.503686 0.581837 -0.348188
0.508182 0.582148 -0.349132
0.512581 0.582091 -0.349942
0.516754 0.581257 -0.350461
0.521000 0.580652 -0.351073
0.525928 0.582211 -0.352522
0.530615 0.582925 -0.353655
0.534665 0.581611 -0.354011
0.540495 0.585710 -0.356471
0.544592 0.584457 -0.356864
0.548101 0.581473 -0.356586
0.552820 0.582046 -0.357699
0.557529 0.582532 -0.358786
0.562671 0.584174 -0.360335
0.567338 0.584411 -0.361341
0.571807 0.584060 -0.362121
0.576199 0.583468 -0.362811
0.581787 0.586005 -0.364752
0.585865 0.584494 -0.365091
0.590313 0.583929 -0.365811
0.594470 0.582597 -0.366229
0.598984 0.582145 -0.367006
0.604923 0.585162 -0.369188
0.609180 0.583968 -0.369681
0.613588 0.583121 -0.370318
0.619123 0.584902 -0.372031
0.624141 0.585385 -0.373225
0.629073 0.585606 -0.374320
0.633624 0.584909 -0.375046
0.638287 0.584431 -0.375867
0.643182 0.584423 -0.376890
0.648733 0.585793 -0.378491
0.654114 0.586711 -0.379914
0.659063 0.586635 -0.380934
0.663725 0.585909 -0.381689
0.669226 0.586884 -0.383163
0.674168 0.586639 -0.384134
0.679502 0.587138 -0.385427
0.684406 0.586713 -0.386337
0.688934 0.585507 -0.386922
0.695688 0.588602 -0.389345
0.700611 0.588053 -0.390226
0.705402 0.587210 -0.390988
0.710674 0.587236 -0.392130
0.716450 0.588140 -0.393659
0.721755 0.588105 -0.394792
0.726907 0.587739 -0.395789
0.732907 0.588844 -0.397435
0.737998 0.588260 -0.398355
0.743286 0.587978 -0.399414
0.749189 0.588709 -0.400926
0.754667 0.588642 -0.402097
0.759863 0.588044 -0.403042
0.765376 0.587932 -0.404210
0.771295 0.588438 -0.405662
0.776204 0.587225 -0.406355
0.781478 0.586572 -0.407306
0.789191 0.589774 -0.410000
0.794720 0.589398 -0.411097
0.800324 0.589090 -0.412233
0.805636 0.588278 -0.413149
0.811111 0.587677 -0.414168
0.817780 0.588838 -0.416003
0.824138 0.589450 -0.417599
0.830015 0.589279 -0.418846
0.835893 0.589055 -0.420078
0.842237 0.589451 -0.421609
0.848058 0.589031 -0.422772
0.854176 0.588982 -0.424117
0.860209 0.588756 -0.425390
0.866155 0.588355 -0.426592
0.873148 0.589341 -0.428459
0.878609 0.588162 -0.429314
0.885717 0.589166 -0.431217
0.892131 0.589163 -0.432654
0.898057 0.588456 -0.433765
0.903888 0.587577 -0.434804
0.910948 0.588244 -0.436600
0.917915 0.588716 -0.438316
0.925591 0.590016 -0.440450
0.931967 0.589596 -0.441762
0.938297 0.589062 -0.443031
0.945026 0.588967 -0.444529
0.953696 0.591172 -0.447176
0.959388 0.589680 -0.448013
0.965881 0.589109 -0.449318
0.975386 0.592040 -0.452387
0.980748 0.590003 -0.452990
0.987647 0.589717 -0.454483
0.994090 0.588848 -0.455697
1.001940 0.589526 -0.457709
1.007928 0.588027 -0.458632
1.017068 0.589997 -0.461341
1.022665 0.587954 -0.462014
1.032512 0.590517 -0.465074
1.039397 0.589759 -0.466444
1.046404 0.589073 -0.467867
1.053827 0.588769 -0.469506
1.060337 0.587438 -0.470626
1.069781 0.589106 -0.473340
1.077383 0.588771 -0.475024
1.083486 0.586840 -0.475880
1.089283 0.584560 -0.476564
1.101310 0.588466 -0.480575
1.109145 0.588072 -0.482313
1.116302 0.586941 -0.483676
1.124326 0.586590 -0.485482
1.132186 0.586005 -0.487184
1.140613 0.585886 -0.489165
1.147601 0.584330 -0.490382
1.157847 0.585754 -0.493266
1.165799 0.584946 -0.494945
1.176707 0.586764 -0.498115
1.185693 0.586717 -0.500279
1.193327 0.585366 -0.501740
1.204289 0.586901 -0.504858
1.210872 0.584464 -0.505758
1.219340 0.583617 -0.507587
1.228689 0.583447 -0.509834
1.237856 0.583025 -0.511970
1.252131 0.586820 -0.516587
1.260952 0.585879 -0.518502
1.273979 0.588331 -0.522437
1.283986 0.588153 -0.524879
1.290875 0.585342 -0.525799
1.303130 0.586781 -0.529275
1.311763 0.585203 -0.530996
1.320751 0.583820 -0.532868
1.337385 0.588298 -0.538323
1.346586 0.586842 -0.540243
1.358162 0.587105 -0.543252
1.370501 0.587817 -0.546587
1.381024 0.587033 -0.549051
1.391641 0.586209 -0.551534
1.405931 0.587959 -0.555675
1.415197 0.585909 -0.557488
1.427583 0.586004 -0.560698
1.440803 0.586555 -0.564254
1.451111 0.584922 -0.566467
1.461773 0.583433 -0.568817
1.480630 0.587457 -0.574793
1.490804 0.585371 -0.576864
1.502256 0.584049 -0.579478
1.515985 0.584130 -0.583066
1.530220 0.584402 -0.586841
1.542562 0.583304 -0.589755
1.557619 0.583835 -0.593817
1.577000 0.586964 -0.599706
1.589482 0.585559 -0.602575
1.608257 0.587959 -0.608106
1.623362 0.587924 -0.612022
1.637368 0.587096 -0.615434
1.660551 0.591669 -0.622685
1.672579 0.589402 -0.625179
1.686482 0.588173 -0.628432
1.701882 0.587731 -0.632275
1.725823 0.592093 -0.639624
1.719183 0.578923 -0.634269
1.749339 0.586588 -0.644092
1.762571 0.584620 -0.646894
1.776107 0.582790 -0.649789
1.776230 0.573665 -0.647208
1.771057 0.561849 -0.642502
1.750810 0.542255 -0.631761
1.732281 0.523954 -0.621796
1.750892 0.525288 -0.626739
1.738362 0.510596 -0.619255
1.742049 0.504441 -0.618252
1.719415 0.485193 -0.606877
1.754466 0.495028 -0.618240
1.813389 0.516421 -0.638838
0.286524 0.610720 -0.323045
0.289131 0.582482 -0.314282
0.292442 0.582473 -0.315045
0.295862 0.583748 -0.316240
0.299617 0.591736 -0.319724
