ply
format ascii 1.0
comment ---
element vertex 1743
property float x
property float y
property float z
element face 0
property list uchar uint vertex_indices
end_header
0.037725 0.599173 0.278159
0.041166 0.598098 0.277721
0.044701 0.605040 0.280189
0.048254 0.609258 0.281675
0.051540 0.599914 0.278258
0.054989 0.599716 0.278155
0.058562 0.603397 0.279459
0.062212 0.608142 0.281152
0.065820 0.610768 0.282083
0.068930 0.602242 0.278986
0.072318 0.600649 0.278400
0.075700 0.599183 0.277864
0.079118 0.598500 0.277616
0.082681 0.600079 0.278190
0.086279 0.601887 0.278852
0.089787 0.602268 0.279002
0.093538 0.605557 0.280208
0.097700 0.613229 0.283004
0.100746 0.607753 0.281050
0.103820 0.603090 0.279393
0.106937 0.599271 0.278047
0.110141 0.596601 0.277120
0.113900 0.599165 0.278092
0.117451 0.599670 0.278324
0.120461 0.595594 0.276902
0.123661 0.593323 0.276138
0.128329 0.602478 0.279517
0.131619 0.600720 0.278949
0.134910 0.599052 0.278418
0.138679 0.600761 0.279116
0.141943 0.598951 0.278543
0.145504 0.599137 0.278700
0.149158 0.599856 0.279055
0.152812 0.600489 0.279384
0.156480 0.601131 0.279722
0.159504 0.598013 0.278700
0.163151 0.598493 0.278990
0.166515 0.597378 0.278705
0.169955 0.596680 0.278578
0.172857 0.593213 0.277448
0.176296 0.592567 0.277349
0.180562 0.595955 0.278727
0.185291 0.601339 0.280839
0.188410 0.598942 0.280121
0.191806 0.597867 0.279890
0.195315 0.597305 0.279852
0.199026 0.597598 0.280133
0.202287 0.595926 0.279701
0.205985 0.596100 0.279949
0.211171 0.602272 0.282401
0.213699 0.597561 0.280873
0.217829 0.599250 0.281696
0.223162 0.605426 0.284175
0.228649 0.611894 0.286770
0.231805 0.609498 0.286115
0.234142 0.604194 0.284393
0.236170 0.597947 0.282326
0.239240 0.595509 0.281666
0.242936 0.595253 0.281815
0.246669 0.595088 0.282004
0.250453 0.595052 0.282245
0.253772 0.593473 0.281919
0.256404 0.589725 0.280794
0.259478 0.587443 0.280214
0.266696 0.597930 0.284379
0.266839 0.586657 0.280466
0.271635 0.589541 0.281816
0.276509 0.592528 0.283211
0.280982 0.594232 0.284131
0.284778 0.593929 0.284306
0.289379 0.595851 0.285314
0.295562 0.602030 0.287918
0.297509 0.596532 0.286153
0.300879 0.594967 0.285857
0.305750 0.597368 0.287048
0.308936 0.595317 0.286566
0.313271 0.596238 0.287198
0.317036 0.595685 0.287271
0.320403 0.594149 0.286969
0.323399 0.591739 0.286330
0.325987 0.588405 0.285333
0.331283 0.591607 0.286798
0.335236 0.591573 0.287031
0.339804 0.592970 0.287797
0.343338 0.591974 0.287644
0.345257 0.587370 0.286110
0.351446 0.592428 0.288229
0.355299 0.592234 0.288339
0.357866 0.589274 0.287382
0.360287 0.586098 0.286325
0.378727 0.608650 0.295160
0.379350 0.601742 0.292626
0.383487 0.602251 0.292895
0.387722 0.603001 0.293234
0.389805 0.599460 0.291915
0.393370 0.599000 0.291747
0.395506 0.595793 0.290509
0.400447 0.598179 0.291378
0.399850 0.589900 0.288159
0.397557 0.578612 0.283771
0.395743 0.568512 0.279814
0.405021 0.579448 0.283842
0.428491 0.603522 0.292432
0.425287 0.591484 0.287625
0.426190 0.587082 0.285697
0.431403 0.590483 0.286704
0.435653 0.592202 0.287049
-0.327640 0.596353 0.291843
-0.325035 0.597488 0.292523
-0.322596 0.599055 0.293346
-0.319542 0.599498 0.293714
-0.315933 0.598907 0.293661
-0.313706 0.601214 0.294697
-0.309585 0.599735 0.294254
-0.306196 0.599836 0.294391
-0.303158 0.600758 0.294820
-0.300296 0.602154 0.295406
-0.296475 0.601591 0.295213
-0.292643 0.601067 0.295010
-0.289054 0.601142 0.295012
-0.285918 0.602297 0.295405
-0.282420 0.602732 0.295497
-0.278877 0.603139 0.295555
-0.274944 0.602719 0.295271
-0.270840 0.601949 0.294832
-0.267011 0.601865 0.294634
-0.263475 0.602530 0.294704
-0.260606 0.604879 0.295399
-0.255605 0.602089 0.294106
-0.252795 0.604723 0.294873
-0.247570 0.601364 0.293331
-0.244036 0.602268 0.293404
-0.240328 0.602772 0.293311
-0.236364 0.602637 0.292960
-0.232836 0.603675 0.293045
-0.229086 0.604156 0.292907
-0.225110 0.604035 0.292531
-0.220993 0.603515 0.291996
-0.217049 0.603470 0.291635
-0.213097 0.603394 0.291256
-0.208947 0.602725 0.290649
-0.205980 0.605547 0.291355
-0.201852 0.604928 0.290760
-0.197958 0.604986 0.290418
-0.194068 0.605037 0.290073
-0.189646 0.603370 0.289082
-0.185833 0.603590 0.288801
-0.182199 0.604375 0.288733
-0.177759 0.602446 0.287651
-0.174357 0.603965 0.287860
-0.170712 0.604656 0.287762
-0.166666 0.603908 0.287131
-0.161859 0.600340 0.285457
-0.158578 0.602217 0.285811
-0.155102 0.603395 0.285909
-0.151497 0.604078 0.285827
-0.147433 0.602949 0.285079
-0.143586 0.602593 0.284624
-0.140055 0.603465 0.284627
-0.136561 0.604484 0.284689
-0.132944 0.604971 0.284560
-0.129005 0.604031 0.283912
-0.125136 0.603310 0.283351
-0.121380 0.603022 0.282956
-0.117695 0.603006 0.282667
-0.114036 0.603058 0.282409
-0.110298 0.602680 0.281999
-0.106703 0.602953 0.281834
-0.103341 0.604401 0.282104
-0.099637 0.604056 0.281725
-0.095554 0.601572 0.280574
-0.091986 0.601790 0.280413
-0.088580 0.602909 0.280586
-0.085164 0.603987 0.280749
-0.081637 0.604402 0.280678
-0.077878 0.603322 0.280069
-0.074343 0.603594 0.279957
-0.070897 0.604430 0.280055
-0.067119 0.602962 0.279325
-0.063726 0.604125 0.279553
-0.060172 0.604118 0.279363
-0.056716 0.604830 0.279438
-0.052887 0.602518 0.278427
-0.049284 0.601885 0.278028
-0.045765 0.601887 0.277864
-0.042457 0.603788 0.278388
-0.038942 0.603825 0.278246
-0.035326 0.602793 0.277726
-0.031968 0.604364 0.278146
-0.029389 0.614817 0.281760
-0.025739 0.613691 0.281220
-0.021709 0.607589 0.278899
-0.017993 0.604851 0.277791
-0.014190 0.600448 0.276092
-0.010698 0.600129 0.275864
-0.007258 0.600606 0.275925
-0.003685 0.598680 0.275130
-0.000722 0.608556 0.278563
0.002403 0.616898 0.281450
0.005976 0.616079 0.281064
0.009825 0.607197 0.277799
0.013276 0.608464 0.278168
0.016704 0.611056 0.279015
0.020245 0.609345 0.278329
0.023780 0.606917 0.277391
0.027265 0.606841 0.277297
0.030749 0.606700 0.277185
0.034230 0.606640 0.277107
0.037704 0.604498 0.276289
0.041152 0.601770 0.275267
0.044613 0.602007 0.275307
0.048046 0.600578 0.274758
0.051575 0.603934 0.275918
0.055023 0.603193 0.275622
0.058521 0.604164 0.275940
0.062142 0.608163 0.277342
0.065700 0.609731 0.277881
0.068859 0.602443 0.275269
0.072261 0.601165 0.274803
0.075663 0.600087 0.274412
0.079145 0.600464 0.274544
0.082711 0.602010 0.275097
0.085911 0.598173 0.273736
0.089617 0.601441 0.274911
0.092938 0.599535 0.274247
0.097468 0.611908 0.278676
0.101090 0.612897 0.279053
0.103411 0.600131 0.274531
0.107068 0.601885 0.275189
0.110068 0.597200 0.273555
0.113519 0.596985 0.273520
0.117318 0.599783 0.274564
0.120533 0.597447 0.273782
0.123977 0.597098 0.273713
0.128299 0.603500 0.276058
0.131284 0.599475 0.274687
0.134647 0.598403 0.274374
0.138149 0.598326 0.274422
0.141808 0.599270 0.274839
0.145459 0.600069 0.275210
0.149132 0.600911 0.275602
0.152533 0.600012 0.275376
0.155718 0.597852 0.274704
0.159273 0.597901 0.274827
0.162685 0.597104 0.274653
0.165966 0.595606 0.274233
0.169092 0.593327 0.273538
0.172940 0.594841 0.274208
0.176031 0.592443 0.273480
0.180126 0.595028 0.274546
0.184979 0.601064 0.276859
0.188946 0.602649 0.277580
0.191861 0.599328 0.276543
0.195489 0.599291 0.276692
0.198905 0.598285 0.276499
0.202330 0.597323 0.276326
0.205633 0.595846 0.275974
0.210311 0.599995 0.277657
0.213168 0.596660 0.276646
0.216608 0.595698 0.276496
0.221220 0.599218 0.277973
0.226130 0.603676 0.279799
0.230232 0.604943 0.280476
0.233788 0.604146 0.280411
0.236485 0.600286 0.279240
0.239075 0.596150 0.277973
0.242750 0.595831 0.278096
0.246306 0.595079 0.278067
0.249862 0.594314 0.278038
0.256392 0.603163 0.281520
0.260987 0.605509 0.282640
0.259865 0.589838 0.277182
0.263013 0.587792 0.276701
0.267268 0.589127 0.277460
0.271982 0.591745 0.278695
0.277131 0.595516 0.280359
0.281222 0.596081 0.280851
0.284921 0.595482 0.280917
0.288873 0.595576 0.281241
0.294124 0.599207 0.282870
0.297859 0.598593 0.282936
0.302825 0.601257 0.284213
0.305819 0.598628 0.283534
0.308982 0.596491 0.283034
0.313050 0.596708 0.283402
0.317101 0.596859 0.283744
0.320707 0.595886 0.283664
0.323329 0.592521 0.282688
0.328644 0.595745 0.284157
0.328113 0.584942 0.280395
0.328145 0.575751 0.277218
0.338219 0.590115 0.282819
0.347895 0.603204 0.287944
0.352511 0.604525 0.288664
0.356899 0.605319 0.289175
0.354585 0.591329 0.284134
0.357567 0.589244 0.283534
0.361306 0.588867 0.283557
0.365383 0.589251 0.283848
0.370865 0.592616 0.285241
0.373889 0.590835 0.284682
0.376891 0.589091 0.284117
0.380791 0.589259 0.284249
0.387269 0.594657 0.286325
0.388427 0.589412 0.284378
0.394641 0.594285 0.286212
0.396771 0.591163 0.285016
0.399525 0.589368 0.284296
0.393173 0.570285 0.277056
0.397302 0.571459 0.277405
0.396701 0.563816 0.274419
0.411221 0.584441 0.282020
0.431329 0.608502 0.290677
0.424320 0.589508 0.283343
0.427706 0.589528 0.283110
0.433232 0.593419 0.284299
0.434003 0.588947 0.282341
0.436347 0.587368 0.281442
-0.328369 0.597194 0.288716
-0.326047 0.598937 0.289602
-0.323263 0.599874 0.290161
-0.319862 0.599675 0.290265
-0.316546 0.599728 0.290441
-0.312973 0.599337 0.290423
-0.309653 0.599544 0.290607
-0.306922 0.601065 0.291265
-0.303252 0.600719 0.291188
-0.299745 0.600792 0.291246
-0.296128 0.600706 0.291217
-0.292853 0.601437 0.291474
-0.289650 0.602418 0.291801
-0.286447 0.603491 0.292138
-0.282841 0.603746 0.292141
-0.279021 0.603586 0.291964
-0.274938 0.602874 0.291555
-0.271160 0.602914 0.291409
-0.267262 0.602725 0.291156
-0.262904 0.601477 0.290483
-0.259116 0.601625 0.290319
-0.256249 0.604082 0.291009
-0.251380 0.601650 0.289837
-0.248170 0.603375 0.290218
-0.244484 0.603954 0.290152
-0.240105 0.602769 0.289409
-0.236135 0.602646 0.289054
-0.232629 0.603771 0.289157
-0.229139 0.604982 0.289282
-0.224709 0.603641 0.288443
-0.220898 0.603994 0.288231
-0.217126 0.604458 0.288054
-0.212966 0.603810 0.287458
-0.208931 0.603497 0.286983
-0.204611 0.602303 0.286178
-0.200970 0.603112 0.286115
-0.197620 0.604821 0.286385
-0.193582 0.604404 0.285865
-0.189588 0.604088 0.285383
-0.185814 0.604440 0.285150
-0.182052 0.604813 0.284925
-0.178413 0.605577 0.284847
-0.173824 0.603080 0.283572
-0.170091 0.603435 0.283349
-0.166287 0.603509 0.283027
-0.162863 0.604921 0.283199
-0.158391 0.602477 0.281964
-0.155165 0.604583 0.282397
-0.151664 0.605674 0.282463
-0.147501 0.604164 0.281587
-0.143544 0.603370 0.280977
-0.140010 0.604227 0.280974
-0.136741 0.606176 0.281372
-0.132032 0.602016 0.279559
-0.128423 0.602418 0.279409
-0.124873 0.603058 0.279349
-0.121263 0.603406 0.279190
-0.117641 0.603663 0.279004
-0.113965 0.603624 0.278717
-0.110224 0.603212 0.278302
-0.106720 0.603927 0.278299
-0.103334 0.605240 0.278517
-0.099704 0.605280 0.278282
-0.095722 0.603346 0.277346
-0.091993 0.602674 0.276869
-0.088689 0.604376 0.277249
-0.085303 0.605644 0.277479
-0.081672 0.605428 0.277183
-0.077916 0.604368 0.276592
-0.074306 0.604137 0.276303
-0.070590 0.603133 0.275744
-0.067123 0.603753 0.275770
-0.063795 0.605373 0.276158
-0.060527 0.607520 0.276738
-0.056412 0.603176 0.275014
-0.052967 0.603874 0.275089
-0.049449 0.603960 0.274953
-0.045921 0.603930 0.274780
-0.042419 0.604085 0.274678
-0.038918 0.604221 0.274574
-0.035268 0.602809 0.273927
-0.031830 0.603471 0.274020
-0.028816 0.608935 0.275816
-0.025513 0.611545 0.276607
-0.021935 0.610941 0.276264
-0.019013 0.619072 0.279014
-0.015423 0.618649 0.278744
-0.012027 0.621132 0.279506
-0.008605 0.623533 0.280242
-0.003920 0.603242 0.272977
-0.000225 0.598808 0.271315
0.002859 0.606906 0.274075
0.006001 0.615496 0.277010
0.009726 0.609894 0.274949
0.013317 0.606866 0.273800
0.016841 0.605236 0.273148
0.020282 0.606768 0.273614
0.023735 0.608389 0.274115
0.027259 0.605048 0.272874
0.030723 0.605884 0.273107
0.034189 0.610776 0.274770
0.037672 0.606740 0.273298
0.041134 0.604856 0.272587
0.044518 0.598407 0.270277
0.047989 0.600291 0.270899
0.051627 0.608776 0.273843
0.055119 0.608914 0.273859
0.058557 0.607339 0.273277
0.062074 0.608251 0.273573
0.065648 0.610285 0.274267
0.068709 0.600920 0.270964
0.072178 0.601172 0.271040
0.075667 0.601723 0.271226
0.079153 0.602098 0.271354
0.082570 0.601342 0.271089
0.085950 0.600136 0.270671
0.089357 0.599415 0.270427
0.093192 0.604048 0.272066
0.096235 0.598872 0.270267
0.100104 0.603350 0.271861
0.104697 0.614930 0.275953
0.107338 0.605869 0.272802
0.110323 0.600898 0.271091
0.115704 0.618117 0.277180
0.117452 0.602203 0.271633
0.120403 0.597599 0.270063
0.124087 0.599207 0.270681
0.128202 0.603983 0.272418
0.132406 0.609032 0.274256
0.136647 0.613964 0.276059
0.140451 0.615487 0.276668
0.143643 0.612771 0.275790
0.146045 0.605071 0.273162
0.151398 0.616350 0.277222
0.155278 0.617932 0.277874
0.159059 0.618801 0.278279
0.162371 0.616884 0.277708
0.166029 0.616970 0.277848
0.169586 0.616458 0.277783
0.172717 0.613680 0.276923
0.173706 0.599971 0.272206
0.176165 0.594294 0.270329
0.180017 0.595679 0.270952
0.184926 0.602007 0.273331
0.188624 0.602345 0.273597
0.192174 0.601952 0.273611
0.195465 0.600377 0.273210
0.198957 0.599706 0.273136
0.202146 0.597732 0.272605
0.205551 0.596700 0.272414
0.209354 0.597291 0.272805
0.213243 0.598160 0.273301
0.216252 0.595501 0.272548
0.220241 0.596668 0.273162
0.224346 0.598179 0.273905
0.229164 0.602217 0.275558
0.232752 0.601609 0.275559
0.235961 0.599633 0.275077
0.238143 0.594103 0.273328
0.242433 0.595947 0.274222
0.245848 0.594738 0.274028
0.249697 0.594964 0.274354
0.256213 0.603793 0.277776
0.261936 0.609746 0.280175
0.261586 0.596413 0.275642
0.261017 0.582809 0.271007
0.266708 0.588596 0.273359
0.274511 0.600454 0.277912
0.278584 0.600946 0.278370
0.281399 0.597751 0.277497
0.285035 0.596953 0.277494
0.288563 0.595845 0.277379
0.292348 0.595444 0.277523
0.299036 0.602904 0.280525
0.303204 0.603374 0.280990
0.305813 0.599697 0.279945
0.308400 0.596041 0.278904
0.312159 0.595471 0.278986
0.317108 0.597898 0.280160
0.320242 0.595727 0.279650
0.324452 0.596241 0.280118
0.328513 0.596370 0.280441
0.328128 0.585879 0.276858
0.330360 0.581826 0.275627
0.333009 0.578851 0.274781
0.342917 0.592608 0.280083
0.350937 0.601748 0.283682
0.354757 0.601280 0.283732
0.355175 0.593325 0.281006
0.357419 0.589572 0.279813
0.361656 0.590230 0.280233
0.366446 0.592077 0.281076
0.370921 0.593255 0.281655
0.374816 0.593236 0.281774
0.379173 0.594208 0.282239
0.382798 0.593717 0.282142
0.386705 0.593852 0.282256
0.391082 0.594974 0.282714
0.394677 0.594587 0.282589
0.398524 0.594758 0.282648
0.400990 0.592324 0.281717
0.401743 0.586730 0.279592
0.395743 0.568543 0.272779
0.405632 0.580528 0.277119
0.404316 0.571570 0.273680
0.409908 0.575543 0.275003
0.419191 0.586238 0.278785
0.424834 0.590243 0.280066
0.428410 0.590551 0.279956
0.432006 0.590964 0.279861
0.436464 0.592962 0.280326
0.437790 0.589533 0.278770
-0.331000 0.595575 0.284414
-0.328988 0.597852 0.285496
-0.326998 0.600296 0.286617
-0.324336 0.601536 0.287267
-0.320666 0.600858 0.287175
-0.316651 0.599555 0.286825
-0.313494 0.600062 0.287127
-0.310326 0.600640 0.287429
-0.306733 0.600424 0.287410
-0.303872 0.601829 0.287972
-0.299858 0.600884 0.287629
-0.296548 0.601511 0.287850
-0.293498 0.602793 0.288291
-0.290134 0.603486 0.288486
-0.286694 0.604094 0.288626
-0.283024 0.604263 0.288578
-0.279007 0.603707 0.288236
-0.275122 0.603504 0.288004
-0.271529 0.604031 0.288024
-0.267540 0.603684 0.287698
-0.263231 0.602610 0.287081
-0.259654 0.603327 0.287114
-0.255958 0.603807 0.287042
-0.252309 0.604450 0.287014
-0.248501 0.604735 0.286839
-0.244683 0.605029 0.286652
-0.241109 0.605981 0.286698
-0.235947 0.602785 0.285197
-0.232450 0.603962 0.285305
-0.228750 0.604628 0.285215
-0.224828 0.604701 0.284899
-0.220641 0.604029 0.284302
-0.216707 0.604049 0.283955
-0.212540 0.603383 0.283352
-0.208864 0.604125 0.283263
-0.204812 0.603747 0.282761
-0.201195 0.604656 0.282729
-0.197394 0.604999 0.282488
-0.193727 0.605751 0.282397
-0.189257 0.603931 0.281369
-0.184932 0.602487 0.280482
-0.182083 0.605834 0.281338
-0.178274 0.606037 0.281053
-0.173496 0.602883 0.279556
-0.169719 0.603070 0.279273
-0.166294 0.604472 0.279434
-0.162694 0.605250 0.279372
-0.158533 0.603939 0.278562
-0.154828 0.604251 0.278342
-0.151306 0.605236 0.278368
-0.147443 0.604874 0.277916
-0.143539 0.604282 0.277387
-0.139662 0.603728 0.276878
-0.135795 0.603143 0.276364
-0.132028 0.602912 0.275984
-0.128462 0.603500 0.275901
-0.124826 0.603756 0.275706
-0.121048 0.603320 0.275271
-0.117396 0.603406 0.275027
-0.113774 0.603588 0.274824
-0.109965 0.602809 0.274286
-0.106718 0.604781 0.274730
-0.102763 0.603136 0.273897
-0.099384 0.604423 0.274109
-0.095609 0.603564 0.273568
-0.092120 0.604215 0.273567
-0.088638 0.604897 0.273582
-0.085161 0.605597 0.273609
-0.081727 0.606560 0.273734
-0.077913 0.605124 0.273019
-0.074200 0.604207 0.272495
-0.070556 0.603655 0.272104
-0.066908 0.602980 0.271677
-0.063748 0.605757 0.272465
-0.059890 0.603439 0.271473
-0.056425 0.603961 0.271481
-0.053064 0.605335 0.271793
-0.049448 0.604613 0.271376
-0.045914 0.604503 0.271178
-0.042239 0.603041 0.270514
-0.038570 0.601453 0.269810
-0.035133 0.602016 0.269864
-0.031885 0.604603 0.270628
-0.028225 0.602804 0.269866
-0.024872 0.604399 0.270293
-0.022229 0.615129 0.273905
-0.018787 0.616453 0.274244
-0.015171 0.615412 0.273764
-0.011700 0.616406 0.273997
-0.007946 0.612765 0.272623
-0.003576 0.597190 0.267107
-0.000121 0.596889 0.266906
0.003202 0.599395 0.267684
0.006258 0.609101 0.270964
0.009855 0.606115 0.269842
0.013325 0.606285 0.269820
0.016894 0.602615 0.268471
0.020302 0.604896 0.269189
0.023685 0.610097 0.270923
0.027182 0.609441 0.270631
0.030668 0.609562 0.270611
0.034148 0.613796 0.272021
0.037649 0.612022 0.271354
0.041058 0.600956 0.267474
0.044452 0.596983 0.266055
0.047997 0.603716 0.268345
0.051619 0.610962 0.270816
0.055091 0.610140 0.270498
0.058519 0.608200 0.269798
0.062042 0.609296 0.270153
0.065412 0.606443 0.269145
0.068703 0.602467 0.267753
0.072170 0.602629 0.267797
0.075579 0.601690 0.267463
0.079020 0.601408 0.267361
0.082435 0.600747 0.267132
0.085875 0.600482 0.267044
0.089555 0.603400 0.268060
0.092937 0.602240 0.267670
0.096170 0.599432 0.266715
0.099817 0.601484 0.267444
0.103522 0.603900 0.268304
0.106858 0.602356 0.267798
0.110096 0.599988 0.267011
0.113703 0.601162 0.267454
0.117053 0.599960 0.267080
0.120644 0.600834 0.267428
0.123999 0.599713 0.267090
0.128255 0.605606 0.269185
0.131965 0.606963 0.269715
0.135380 0.606073 0.269471
0.140063 0.614002 0.272288
0.143137 0.610581 0.271177
0.144902 0.598831 0.267181
0.148732 0.600773 0.267938
0.153403 0.607695 0.270428
0.157135 0.608608 0.270839
0.161478 0.612949 0.272445
0.165688 0.616257 0.273700
0.168484 0.611657 0.272212
0.171525 0.608558 0.271250
0.173268 0.598878 0.268003
0.176089 0.595073 0.266803
0.180195 0.597718 0.267853
0.184629 0.601763 0.269398
0.188504 0.602964 0.269958
0.191986 0.602270 0.269864
0.195516 0.601784 0.269847
0.198954 0.600872 0.269688
0.202357 0.599808 0.269480
0.205135 0.596137 0.268367
0.209908 0.600734 0.270151
0.213208 0.599198 0.269796
0.215435 0.593473 0.267977
0.219030 0.593194 0.268072
0.223983 0.597996 0.269956
0.228158 0.599695 0.270759
0.230718 0.595428 0.269471
0.234228 0.594656 0.269416
0.242525 0.610586 0.275251
0.247519 0.614569 0.276889
0.252514 0.618369 0.278471
0.249932 0.596921 0.271142
0.254536 0.599536 0.272312
0.258890 0.601216 0.273159
0.257999 0.586327 0.268142
0.262441 0.588361 0.269121
0.267872 0.593290 0.271134
0.274678 0.602124 0.274544
0.279898 0.605977 0.276192
0.281378 0.598846 0.273934
0.284353 0.596156 0.273258
0.287105 0.592891 0.272377
0.291789 0.595024 0.273425
0.297294 0.599292 0.275241
0.301533 0.600010 0.275790
0.305454 0.599839 0.276021
0.308037 0.596166 0.274995
0.311821 0.595653 0.275100
0.315317 0.594404 0.274940
0.320315 0.596916 0.276130
0.324004 0.596125 0.276128
0.327535 0.594960 0.275986
0.329466 0.589995 0.274464
0.330612 0.583304 0.272307
0.333865 0.581691 0.271977
0.336963 0.579768 0.271526
0.343026 0.584621 0.273522
0.349563 0.590423 0.275856
0.353817 0.591046 0.276298
0.358349 0.592282 0.276951
0.360905 0.589248 0.276035
0.366581 0.592962 0.277560
0.370975 0.593921 0.278066
0.375157 0.594453 0.278399
0.378757 0.593813 0.278286
0.383113 0.594769 0.278735
0.387277 0.595369 0.279033
0.390904 0.594933 0.278932
0.394509 0.594522 0.278817
0.398979 0.595861 0.279319
0.397550 0.585853 0.275651
0.398655 0.580948 0.273825
0.402552 0.581487 0.273963
0.398269 0.566760 0.268504
0.402408 0.568004 0.268854
0.406142 0.568551 0.268925
0.415887 0.580104 0.272984
0.425377 0.591063 0.276797
0.429171 0.591710 0.276826
0.432082 0.590854 0.276285
0.437012 0.593639 0.277043
0.439748 0.592627 0.276398
0.441520 0.590035 0.275158
-0.334234 0.595172 0.280572
-0.331626 0.596232 0.281200
-0.329276 0.597896 0.282027
-0.327528 0.600861 0.283311
-0.324535 0.601491 0.283712
-0.320748 0.600629 0.283537
-0.317397 0.600714 0.283687
-0.313589 0.599952 0.283500
-0.311021 0.601818 0.284257
-0.307398 0.601603 0.284220
-0.304210 0.602381 0.284525
-0.300850 0.602885 0.284704
-0.297125 0.602693 0.284601
-0.294853 0.605732 0.285665
-0.290352 0.604004 0.284946
-0.285955 0.602538 0.284300
-0.282124 0.602374 0.284112
-0.278509 0.602764 0.284106
-0.274965 0.603380 0.284161
-0.271559 0.604388 0.284340
-0.267792 0.604617 0.284213
-0.263948 0.604711 0.284017
-0.260140 0.604934 0.283852
-0.256524 0.605671 0.283858
-0.252855 0.606324 0.283819
-0.248000 0.604019 0.282683
-0.244414 0.604926 0.282710
-0.240757 0.605689 0.282673
-0.237221 0.606805 0.282754
-0.232411 0.604545 0.281596
-0.228640 0.605046 0.281436
-0.224450 0.604403 0.280854
-0.220586 0.604646 0.280588
-0.216337 0.603786 0.279919
-0.212582 0.604319 0.279751
-0.208677 0.604407 0.279419
-0.205109 0.605481 0.279442
-0.201476 0.606372 0.279396
-0.197840 0.607257 0.279348
-0.192516 0.602836 0.277394
-0.189291 0.604936 0.277785
-0.184899 0.603284 0.276832
-0.181634 0.605265 0.277183
-0.177651 0.604858 0.276682
-0.173689 0.604467 0.276191
-0.169621 0.603651 0.275553
-0.166274 0.605326 0.275806
-0.162394 0.605088 0.275382
-0.158295 0.603986 0.274657
-0.154614 0.604368 0.274464
-0.150867 0.604468 0.274177
-0.146848 0.603451 0.273500
-0.143189 0.603793 0.273309
-0.139487 0.603920 0.273048
-0.135793 0.604038 0.272790
-0.132181 0.604467 0.272647
-0.128672 0.605311 0.272656
-0.125097 0.605856 0.272565
-0.120751 0.602835 0.271230
-0.117048 0.602639 0.270892
-0.113400 0.602648 0.270633
-0.110040 0.604029 0.270859
-0.106440 0.604221 0.270675
-0.102933 0.604854 0.270651
-0.099071 0.603573 0.269966
-0.095569 0.604154 0.269935
-0.092134 0.605092 0.270035
-0.088452 0.604605 0.269644
-0.084672 0.603458 0.269031
-0.081186 0.603998 0.269009
-0.077648 0.604198 0.268875
-0.074153 0.604637 0.268829
-0.070429 0.603517 0.268249
-0.066820 0.603070 0.267907
-0.063304 0.603226 0.267780
-0.059875 0.604003 0.267872
-0.056513 0.605317 0.268155
-0.052902 0.604659 0.267762
-0.049384 0.604695 0.267614
-0.045741 0.603589 0.267077
-0.042260 0.603820 0.267006
-0.038582 0.602137 0.266281
-0.035140 0.602628 0.266310
-0.032008 0.606443 0.267484
-0.028247 0.603547 0.266358
-0.025043 0.606907 0.267385
-0.022179 0.614941 0.270017
-0.018719 0.615942 0.270241
-0.014954 0.612642 0.268995
-0.011495 0.613544 0.269194
-0.007969 0.613424 0.269047
-0.004083 0.606665 0.266632
-0.000366 0.601937 0.264918
0.002674 0.611160 0.267981
0.006565 0.601404 0.264557
0.009676 0.610969 0.267742
0.013211 0.609649 0.267211
0.016786 0.606237 0.265970
0.020278 0.605129 0.265519
0.023626 0.612258 0.267885
0.027089 0.615207 0.268827
0.030590 0.616682 0.269270
0.034105 0.617700 0.269560
0.037616 0.614447 0.268398
0.041064 0.607192 0.265875
0.044491 0.603765 0.264663
0.047939 0.603424 0.264506
0.051530 0.609542 0.266554
0.054992 0.608771 0.266258
0.058453 0.608178 0.266027
0.061950 0.608692 0.266177
0.065468 0.609539 0.266444
0.068702 0.604110 0.264577
0.072135 0.603524 0.264364
0.075513 0.602040 0.263849
0.078904 0.600976 0.263480
0.082304 0.600186 0.263209
0.085789 0.600665 0.263374
0.089404 0.602773 0.264098
0.093254 0.607518 0.265724
0.096688 0.606812 0.265497
0.099735 0.601850 0.263825
0.103193 0.601704 0.263797
0.106642 0.601438 0.263733
0.109822 0.598603 0.262797
0.113386 0.599491 0.263134
0.117335 0.603627 0.264582
0.120638 0.601985 0.264066
0.124447 0.604510 0.264974
0.128063 0.605306 0.265297
0.130745 0.599048 0.263219
0.133746 0.595493 0.262067
0.138889 0.607033 0.266070
0.141895 0.603410 0.264904
0.144971 0.600436 0.263963
0.148741 0.601989 0.264573
0.152320 0.602242 0.264744
0.156420 0.605532 0.265958
0.160224 0.606891 0.266517
0.163736 0.606496 0.266482
0.167773 0.608950 0.267427
0.170859 0.606188 0.266592
0.173687 0.602193 0.265339
0.176655 0.599063 0.264387
0.180977 0.602706 0.265761
0.185317 0.606216 0.267097
0.188656 0.604830 0.266759
0.191950 0.603260 0.266363
0.195187 0.601470 0.265896
0.198787 0.601298 0.265990
0.202265 0.600571 0.265900
0.205405 0.598420 0.265324
0.210052 0.602485 0.266895
0.213650 0.602133 0.266952
0.216334 0.598160 0.265764
0.219738 0.597075 0.265578
0.225136 0.603515 0.267998
0.228908 0.603639 0.268243
0.231402 0.599077 0.266871
0.233946 0.594818 0.265608
0.238430 0.597456 0.266740
0.245423 0.608570 0.270822
0.247671 0.603238 0.269203
0.249746 0.597476 0.267436
0.252166 0.592992 0.266116
0.255064 0.590150 0.265371
0.259003 0.590634 0.265789
0.263149 0.591700 0.266416
0.267292 0.592679 0.267018
0.272109 0.595603 0.268306
0.278389 0.602698 0.271062
0.283910 0.607329 0.272964
0.284839 0.598680 0.270210
0.291311 0.605824 0.273004
0.293675 0.601356 0.271720
0.295892 0.596585 0.270328
0.299619 0.595976 0.270402
0.303171 0.594893 0.270309
0.308047 0.597261 0.271436
0.311228 0.595182 0.270991
0.315393 0.595628 0.271438
0.319428 0.595717 0.271757
0.323523 0.595933 0.272119
0.327768 0.596491 0.272598
0.331303 0.595324 0.272460
0.333138 0.590167 0.270893
0.333526 0.581768 0.268160
0.335369 0.576935 0.266685
0.342147 0.583433 0.269249
0.351011 0.594447 0.273423
0.353087 0.590174 0.272118
0.356831 0.589669 0.272149
0.361794 0.591830 0.273122
0.366491 0.593395 0.273868
0.370905 0.594356 0.274382
0.374839 0.594326 0.274523
0.378854 0.594503 0.274720
0.383012 0.595010 0.275016
0.386699 0.594600 0.274963
0.390283 0.594045 0.274836
0.394667 0.595133 0.275279
0.392369 0.583224 0.271020
0.392179 0.575687 0.268311
0.398512 0.580825 0.270143
0.401087 0.578818 0.269379
0.397870 0.566067 0.264725
0.398195 0.560196 0.262525
0.413286 0.581644 0.270128
0.420587 0.588581 0.272483
0.425927 0.591926 0.273520
0.430120 0.593235 0.273801
0.433137 0.592513 0.273329
0.435420 0.590585 0.272401
0.438747 0.590587 0.272141
0.441364 0.589437 0.271447
-0.335762 0.597540 0.277979
-0.332617 0.597622 0.278230
-0.330298 0.599404 0.279075
-0.327837 0.601024 0.279838
-0.324183 0.600389 0.279758
-0.320325 0.599421 0.279531
-0.316848 0.599289 0.279583
-0.314905 0.602374 0.280782
-0.311466 0.602514 0.280883
-0.307797 0.602261 0.280816
-0.303703 0.601186 0.280424
-0.300737 0.602569 0.280902
-0.297298 0.603041 0.281024
-0.293745 0.603345 0.281060
-0.288960 0.601016 0.280115
-0.285112 0.600785 0.279909
-0.281338 0.600778 0.279763
-0.278327 0.602572 0.280250
-0.274852 0.603393 0.280362
-0.270973 0.603340 0.280136
-0.268188 0.605922 0.280847
-0.264101 0.605488 0.280447
-0.260260 0.605679 0.280256
-0.256574 0.606289 0.280202
-0.252992 0.607203 0.280243
-0.247436 0.603163 0.278484
-0.243279 0.602620 0.277976
-0.240023 0.604421 0.278302
-0.236876 0.606570 0.278742
-0.233022 0.606889 0.278515
-0.228252 0.604721 0.277391
-0.224306 0.604760 0.277052
-0.220288 0.604587 0.276633
-0.216516 0.605097 0.276455
-0.212605 0.605204 0.276129
-0.208691 0.605284 0.275793
-0.204734 0.605213 0.275402
-0.201309 0.606730 0.275574
-0.196662 0.604490 0.274415
-0.191898 0.601773 0.273091
-0.188110 0.602051 0.272829
-0.184795 0.603844 0.273104
-0.181007 0.604091 0.272835
-0.177134 0.604020 0.272458
-0.173778 0.605687 0.272695
-0.169887 0.605493 0.272283
-0.165812 0.604594 0.271628
-0.162255 0.605497 0.271609
-0.158388 0.605240 0.271190
-0.154428 0.604574 0.270633
-0.150432 0.603694 0.270008
-0.146618 0.603449 0.269610
-0.142953 0.603741 0.269405
-0.139487 0.604811 0.269476
-0.135757 0.604773 0.269167
-0.132009 0.604606 0.268820
-0.128722 0.606406 0.269160
-0.124973 0.606162 0.268799
-0.120845 0.604117 0.267822
-0.116817 0.602395 0.266964
-0.113310 0.603051 0.266932
-0.109734 0.603344 0.266781
-0.106337 0.604517 0.266938
-0.102781 0.604871 0.266820
-0.099183 0.604970 0.266620
-0.095639 0.605324 0.266513
-0.092020 0.605225 0.266256
-0.088002 0.602757 0.265195
-0.084545 0.603445 0.265220
-0.081087 0.604126 0.265248
-0.077601 0.604619 0.265217
-0.074034 0.604569 0.265006
-0.070463 0.604446 0.264775
-0.066949 0.604659 0.264665
-0.063385 0.604485 0.264428
-0.059816 0.604211 0.264162
-0.056318 0.604425 0.264068
-0.052882 0.605115 0.264140
-0.049258 0.604229 0.263682
-0.045787 0.604573 0.263646
-0.042246 0.604255 0.263391
-0.038645 0.603282 0.262918
-0.035120 0.602942 0.262666
-0.032158 0.608538 0.264426
-0.028388 0.605593 0.263300
-0.025124 0.608311 0.264094
-0.021948 0.612428 0.265364
-0.018406 0.612100 0.265137
-0.014839 0.611318 0.264761
-0.011352 0.611607 0.264750
-0.007974 0.613749 0.265369
-0.004889 0.621561 0.267902
0.002554 0.613852 0.265116
0.006087 0.613200 0.264809
0.009660 0.611215 0.264058
0.013271 0.607293 0.262659
0.016636 0.611423 0.263973
0.020063 0.614425 0.264912
0.023619 0.611207 0.263762
0.027040 0.617005 0.265647
0.030565 0.615465 0.265069
0.034069 0.616891 0.265492
0.037581 0.616451 0.265292
0.041067 0.613278 0.264177
0.044546 0.611904 0.263671
0.048029 0.611547 0.263511
0.051404 0.606484 0.261774
0.054884 0.607044 0.261929
0.058209 0.602574 0.260400
0.061663 0.602768 0.260439
0.065289 0.607013 0.261841
0.068564 0.602789 0.260406
0.071916 0.600827 0.259733
0.075398 0.601498 0.259948
0.078839 0.601372 0.259898
0.082184 0.599757 0.259353
0.085525 0.598296 0.258864
0.089248 0.602039 0.260124
0.092794 0.603101 0.260488
0.096222 0.602630 0.260342
0.099817 0.604033 0.260829
0.103158 0.602582 0.260362
0.106503 0.601277 0.259948
0.109909 0.600648 0.259765
0.113262 0.599559 0.259431
0.117289 0.604426 0.261101
0.120846 0.604911 0.261304
0.124372 0.605084 0.261407
0.128224 0.607727 0.262343
0.131195 0.603566 0.260999
0.134737 0.603781 0.261130
0.138046 0.602320 0.260701
0.141718 0.603366 0.261119
0.145069 0.602215 0.260803
0.148852 0.603825 0.261421
0.152744 0.605971 0.262224
0.155942 0.603828 0.261588
0.160044 0.606989 0.262743
0.163656 0.607185 0.262905
0.168374 0.613371 0.265090
0.170764 0.606816 0.262988
0.174580 0.607943 0.263479
0.177764 0.605786 0.262868
0.182051 0.609123 0.264116
0.185731 0.609341 0.264318
0.188920 0.607207 0.263730
0.191458 0.602147 0.262157
0.194825 0.600983 0.261906
0.198333 0.600449 0.261874
0.201773 0.599606 0.261743
0.205216 0.598765 0.261618
0.209210 0.600179 0.262262
0.212890 0.600230 0.262451
0.216035 0.598129 0.261915
0.220543 0.601324 0.263184
0.225137 0.604673 0.264513
0.229434 0.606749 0.265417
0.231936 0.602172 0.264060
0.235108 0.600111 0.263565
0.239416 0.602061 0.264444
0.243590 0.603436 0.265133
0.246563 0.600659 0.264410
0.249117 0.596544 0.263232
0.251003 0.590346 0.261344
0.254349 0.588999 0.261121
0.259606 0.593674 0.262970
0.264882 0.598212 0.264780
0.267652 0.594918 0.263904
0.271561 0.595103 0.264229
0.276709 0.598895 0.265803
0.281541 0.601607 0.267010
0.286895 0.605686 0.268697
0.290328 0.604198 0.268464
0.294480 0.604707 0.268925
0.296586 0.599586 0.267437
0.299913 0.597861 0.267125
0.305189 0.601315 0.268615
0.307103 0.595869 0.267011
0.311209 0.596185 0.267410
0.315386 0.596648 0.267861
0.319272 0.596347 0.268044
0.323087 0.595859 0.268160
0.327974 0.597971 0.269182
0.332378 0.598852 0.269771
0.335929 0.597686 0.269637
0.334224 0.584278 0.265198
0.336662 0.580761 0.264219
0.344189 0.588898 0.267331
0.351699 0.596792 0.270354
0.357183 0.600012 0.271723
0.364189 0.606495 0.274234
0.368421 0.606842 0.274569
0.371796 0.605372 0.274248
0.374170 0.601853 0.273186
0.376823 0.599029 0.272352
0.379498 0.596351 0.271550
0.384912 0.599357 0.272743
0.386275 0.594175 0.271015
0.396410 0.606639 0.275522
0.398954 0.603918 0.274624
0.399491 0.597396 0.272355
0.397397 0.585990 0.268330
0.399088 0.582109 0.266951
0.399923 0.576751 0.265025
0.400980 0.571978 0.263284
0.402503 0.568229 0.261882
0.415709 0.586093 0.268119
0.427516 0.601149 0.273331
0.426701 0.593228 0.270376
0.431414 0.595412 0.270977
0.434611 0.594945 0.270615
0.436469 0.592208 0.269427
0.438346 0.589626 0.268272
0.440758 0.588088 0.267464
0.442201 0.584989 0.266084
-0.339891 0.598841 0.274739
-0.336453 0.598332 0.274785
-0.333580 0.598991 0.275225
-0.331225 0.600756 0.276038
-0.328180 0.601285 0.276385
-0.323197 0.598064 0.275363
-0.320367 0.599181 0.275871
-0.317375 0.600075 0.276274
-0.314568 0.601450 0.276825
-0.311565 0.602533 0.277246
-0.307433 0.601364 0.276834
-0.303634 0.600952 0.276668
-0.300243 0.601478 0.276814
-0.296959 0.602320 0.277050
-0.292927 0.601625 0.276709
-0.289310 0.601895 0.276692
-0.285231 0.601209 0.276309
-0.281423 0.601177 0.276138
-0.278028 0.602145 0.276305
-0.274748 0.603454 0.276574
-0.271087 0.603954 0.276533
-0.267105 0.603750 0.276222
-0.263854 0.605334 0.276533
-0.259518 0.604355 0.275914
-0.255646 0.604522 0.275689
-0.251197 0.603274 0.274947
-0.247533 0.604001 0.274897
-0.243769 0.604504 0.274755
-0.239882 0.604710 0.274499
-0.236278 0.605676 0.274502
-0.232481 0.606154 0.274326
-0.227894 0.604485 0.273385
-0.223962 0.604572 0.273061
-0.220236 0.605227 0.272932
-0.216568 0.606050 0.272858
-0.212580 0.605954 0.272460
-0.208403 0.605272 0.271855
-0.204364 0.604955 0.271379
-0.200327 0.604604 0.270892
-0.195998 0.603305 0.270075
-0.191749 0.602180 0.269323
-0.188062 0.602781 0.269174
-0.184365 0.603331 0.269009
-0.180659 0.603833 0.268831
-0.176905 0.604147 0.268591
-0.172977 0.603830 0.268137
-0.169124 0.603720 0.267759
-0.165505 0.604396 0.267658
-0.161595 0.603993 0.267189
-0.157857 0.604167 0.266924
-0.155085 0.607958 0.267907
-0.150357 0.604292 0.266334
-0.146544 0.604040 0.265940
-0.142904 0.604418 0.265768
-0.139141 0.604261 0.265418
-0.135506 0.604585 0.265239
-0.131872 0.604876 0.265054
-0.128050 0.604306 0.264582
-0.124924 0.606789 0.265155
-0.120256 0.602245 0.263345
-0.116627 0.602322 0.263113
-0.113068 0.602695 0.262987
-0.109527 0.603124 0.262885
-0.106013 0.603665 0.262828
-0.102585 0.604633 0.262920
-0.099183 0.605745 0.263066
-0.095758 0.606738 0.263178
-0.091362 0.602261 0.261450
-0.087902 0.602911 0.261458
-0.084502 0.603911 0.261588
-0.081083 0.604812 0.261691
-0.077563 0.605077 0.261585
-0.073960 0.604768 0.261291
-0.070463 0.605113 0.261222
-0.066968 0.605452 0.261156
-0.063396 0.605205 0.260900
-0.059838 0.604997 0.260661
-0.056336 0.605175 0.260557
-0.052709 0.604297 0.260104
-0.049229 0.604554 0.260036
-0.045777 0.605037 0.260048
-0.042263 0.604945 0.259873
-0.038663 0.603961 0.259405
-0.035056 0.602775 0.258875
-0.031534 0.602331 0.258597
-0.027667 0.597898 0.256995
-0.023926 0.594408 0.255713
-0.020421 0.593441 0.255276
-0.017198 0.596113 0.256052
-0.013863 0.597504 0.256407
-0.010475 0.598247 0.256550
-0.007116 0.599542 0.256879
-0.003508 0.596466 0.255763
-0.000139 0.597550 0.256030
0.003325 0.596719 0.255667
0.006776 0.595951 0.255329
0.010195 0.595861 0.255219
0.013564 0.597296 0.255617
0.016969 0.597863 0.255733
0.020377 0.598433 0.255852
0.023758 0.601050 0.256653
0.027206 0.599790 0.256174
0.030638 0.599289 0.255950
0.034062 0.599458 0.255951
0.037487 0.599046 0.255764
0.040905 0.598354 0.255488
0.044345 0.599957 0.255974
0.047810 0.602039 0.256621
0.051262 0.602646 0.256785
0.054682 0.601821 0.256479
0.058115 0.601629 0.256386
0.061536 0.601138 0.256197
0.064959 0.600807 0.256065
0.068405 0.600979 0.256103
0.071853 0.601159 0.256147
0.075305 0.601335 0.256193
0.078773 0.601726 0.256315
0.082149 0.600615 0.255943
0.085499 0.599274 0.255499
0.088905 0.598806 0.255348
0.092645 0.602544 0.256588
0.095981 0.601062 0.256109
0.099486 0.601603 0.256302
0.102926 0.601363 0.256241
0.106438 0.601836 0.256419
0.109813 0.600921 0.256142
0.113152 0.599730 0.255778
0.116561 0.599220 0.255643
0.119888 0.598022 0.255285
0.123440 0.598710 0.255554
0.127269 0.601465 0.256511
0.130612 0.600339 0.256189
0.134096 0.600284 0.256225
0.137476 0.599469 0.256014
0.140955 0.599345 0.256036
0.144528 0.599799 0.256253
0.147969 0.599360 0.256181
0.151587 0.599993 0.256467
0.155088 0.599860 0.256504
0.158379 0.598482 0.256133
0.161537 0.596393 0.255531
0.165187 0.597071 0.255852
0.168831 0.597646 0.256143
0.172267 0.597071 0.256057
0.175694 0.596437 0.255957
0.179162 0.596002 0.255928
0.183205 0.598314 0.256818
0.187325 0.600838 0.257784
0.190838 0.600417 0.257776
0.194559 0.600906 0.258076
0.198307 0.601452 0.258402
0.201783 0.600765 0.258322
0.205171 0.599695 0.258119
0.208392 0.597939 0.257693
0.211803 0.596979 0.257538
0.215634 0.597668 0.257940
0.219552 0.598626 0.258437
0.223182 0.598409 0.258548
0.227180 0.599521 0.259110
0.230641 0.598590 0.258993
0.233888 0.596887 0.258623
0.238989 0.601705 0.260448
0.242384 0.600427 0.260232
0.246213 0.600617 0.260516
0.249557 0.599143 0.260245
0.252932 0.597775 0.260014
0.255781 0.594724 0.259220
0.261434 0.600578 0.261439
0.264468 0.598066 0.260837
0.268494 0.598619 0.261276
0.273041 0.600676 0.262231
0.275419 0.596217 0.260981
0.279564 0.596994 0.261511
0.284405 0.599698 0.262702
0.289446 0.602839 0.264046
0.292830 0.601252 0.263786
0.296669 0.600916 0.263954
0.302625 0.606253 0.266063
0.307310 0.608027 0.266960
0.307605 0.598247 0.263902
0.311737 0.598600 0.264312
0.315654 0.598368 0.264522
0.319264 0.597348 0.264460
0.323056 0.596785 0.264554
0.329514 0.602702 0.266876
0.334492 0.604891 0.267915
0.337896 0.603280 0.267640
0.340277 0.599316 0.266544
0.340694 0.590919 0.263906
0.345974 0.593804 0.265162
0.352289 0.598941 0.267192
0.355513 0.597102 0.266796
0.355077 0.587301 0.263621
0.367221 0.604972 0.269981
0.371640 0.605724 0.270449
0.370372 0.594473 0.266724
0.373963 0.593656 0.266614
0.378972 0.595816 0.267524
0.379273 0.588364 0.265064
0.386919 0.595932 0.267826
0.389459 0.593196 0.266972
0.404461 0.615150 0.274722
0.405276 0.609003 0.272635
0.399388 0.590099 0.266065
0.396827 0.578004 0.261851
0.400131 0.577311 0.261600
0.402235 0.574449 0.260567
0.408318 0.579094 0.262133
0.418506 0.591261 0.266302
0.425139 0.596802 0.268130
0.428310 0.596069 0.267743
0.432547 0.597330 0.268026
0.435115 0.595687 0.267273
0.437274 0.593430 0.266282
0.439322 0.591095 0.265242
0.441074 0.588364 0.264043
0.444908 0.589325 0.264104
0.451425 0.594910 0.265746
-0.344119 0.600336 0.271550
-0.340414 0.599294 0.271417
-0.336496 0.597914 0.271141
-0.334049 0.599434 0.271865
-0.331395 0.600667 0.272464
-0.328738 0.602001 0.273076
-0.325648 0.602588 0.273399
-0.321794 0.601746 0.273192
-0.318147 0.601390 0.273131
-0.314916 0.601962 0.273374
-0.311266 0.601762 0.273318
-0.307280 0.600941 0.273018
-0.303951 0.601566 0.273204
-0.300643 0.602324 0.273413
-0.297138 0.602750 0.273480
-0.293267 0.602457 0.273269
-0.289216 0.601830 0.272917
-0.285738 0.602529 0.273012
-0.282302 0.603399 0.273146
-0.277938 0.602223 0.272537
-0.274934 0.604216 0.273026
-0.271037 0.604215 0.272794
-0.267123 0.604213 0.272544
-0.263085 0.603949 0.272186
-0.259430 0.604642 0.272149
-0.255522 0.604756 0.271896
-0.251769 0.605280 0.271773
-0.248525 0.607128 0.272102
-0.243831 0.605306 0.271138
-0.239901 0.605434 0.270848
-0.235841 0.605221 0.270430
-0.231533 0.604331 0.269772
-0.227586 0.604393 0.269440
-0.223845 0.605019 0.269299
-0.220061 0.605525 0.269113
-0.216269 0.606004 0.268915
-0.212381 0.606199 0.268617
-0.207740 0.604151 0.267546
-0.204114 0.605055 0.267493
-0.200229 0.605163 0.267166
-0.195952 0.604029 0.266416
-0.191868 0.603428 0.265851
-0.188043 0.603596 0.265553
-0.184320 0.604066 0.265360
-0.180381 0.603793 0.264918
-0.176447 0.603482 0.264468
-0.172778 0.604030 0.264314
-0.169045 0.604330 0.264080
-0.164936 0.603246 0.263382
-0.161201 0.603440 0.263123
-0.157752 0.604655 0.263214
-0.153866 0.604215 0.262751
-0.150167 0.604430 0.262515
-0.146449 0.604529 0.262246
-0.142384 0.603182 0.261496
-0.138857 0.603946 0.261462
-0.135360 0.604818 0.261470
-0.131496 0.604098 0.260950
-0.127876 0.604370 0.260769
-0.123982 0.603371 0.260168
-0.120212 0.602850 0.259734
-0.116516 0.602597 0.259396
-0.112976 0.603041 0.259297
-0.109373 0.603141 0.259088
-0.105936 0.604043 0.259153
-0.102496 0.604930 0.259218
-0.099131 0.606214 0.259420
-0.095146 0.604113 0.258503
-0.091393 0.603157 0.257973
-0.087940 0.603842 0.257993
-0.084502 0.604613 0.258046
-0.080974 0.604826 0.257920
-0.077371 0.604526 0.257630
-0.073857 0.604748 0.257518
-0.070308 0.604705 0.257323
-0.066759 0.604611 0.257117
-0.063219 0.604530 0.256920
-0.059846 0.605662 0.257128
-0.056351 0.605874 0.257037
-0.052624 0.604168 0.256320
-0.049055 0.603619 0.255989
-0.045712 0.604984 0.256292
-0.042239 0.605230 0.256231
-0.038672 0.604540 0.255868
-0.035085 0.603525 0.255403
-0.031547 0.602900 0.255070
-0.028100 0.603185 0.255040
-0.024632 0.603211 0.254929
-0.020978 0.600852 0.254042
-0.017636 0.602337 0.254418
-0.014316 0.604316 0.254959
-0.010654 0.601250 0.253853
-0.007264 0.602197 0.254064
-0.003834 0.602538 0.254081
-0.000329 0.601405 0.253620
0.003132 0.600953 0.253386
0.006564 0.601061 0.253338
0.010020 0.600502 0.253076
0.013454 0.600443 0.252981
0.016894 0.600076 0.252789
0.020295 0.601333 0.253130
0.023722 0.601689 0.253182
0.027150 0.602198 0.253286
0.030593 0.600975 0.252829
0.034021 0.601979 0.253102
0.037455 0.602063 0.253078
0.040885 0.601521 0.252855
0.044317 0.601542 0.252817
0.047764 0.602426 0.253064
0.051209 0.602772 0.253140
0.054650 0.602871 0.253139
0.058090 0.602853 0.253102
0.061500 0.602013 0.252802
0.064893 0.600913 0.252422
0.068368 0.601813 0.252695
0.071834 0.602324 0.252844
0.075274 0.602256 0.252809
0.078719 0.602254 0.252799
0.082160 0.602163 0.252764
0.085549 0.601325 0.252489
0.089020 0.601647 0.252595
0.092522 0.602289 0.252809
0.095909 0.601472 0.252552
0.099251 0.600212 0.252154
0.102916 0.602466 0.252903
0.106462 0.603271 0.253185
0.109860 0.602548 0.252973
0.113206 0.601384 0.252622
0.116540 0.600177 0.252261
0.120095 0.600902 0.252531
0.123826 0.602960 0.253240
0.127233 0.602308 0.253071
0.130577 0.601194 0.252756
0.133951 0.600346 0.252531
0.137392 0.599982 0.252468
0.140892 0.600012 0.252538
0.144414 0.600147 0.252646
0.148020 0.600772 0.252918
0.151647 0.601450 0.253212
0.155428 0.602970 0.253786
0.158507 0.600304 0.252999
0.161769 0.598779 0.252588
0.165118 0.597773 0.252351
0.168797 0.598544 0.252699
0.172626 0.600015 0.253281
0.176832 0.603280 0.254454
0.180136 0.601892 0.254113
0.183827 0.602395 0.254394
0.187320 0.601903 0.254356
0.190335 0.599194 0.253596
0.194455 0.601532 0.254495
0.198172 0.601955 0.254772
0.201810 0.601977 0.254923
0.204976 0.599973 0.254415
0.208302 0.598667 0.254141
0.211978 0.598784 0.254339
0.215605 0.598658 0.254464
0.219406 0.599167 0.254803
0.223351 0.600157 0.255307
0.226749 0.599030 0.255120
0.230126 0.597825 0.254911
0.233849 0.597861 0.255119
0.237762 0.598516 0.255536
0.241368 0.598043 0.255587
0.244885 0.597241 0.255535
0.248727 0.597503 0.255840
0.252228 0.596597 0.255764
0.256052 0.596713 0.256032
0.260038 0.597292 0.256460
0.263702 0.596809 0.256541
0.268052 0.598392 0.257315
0.271633 0.597568 0.257292
0.274889 0.595764 0.256947
0.278615 0.595346 0.257068
0.282391 0.595041 0.257232
0.287385 0.598140 0.258539
0.291789 0.599468 0.259259
0.295769 0.599554 0.259566
0.300227 0.600891 0.260297
0.305568 0.604495 0.261795
0.308560 0.601812 0.261179
0.312086 0.600555 0.261043
0.315621 0.599326 0.260917
0.319219 0.598261 0.260845
0.323622 0.599192 0.261447
0.329568 0.603833 0.263306
0.333075 0.602466 0.263128
0.336590 0.601141 0.262959
0.339506 0.598437 0.262316
0.343760 0.598885 0.262738
0.347952 0.599174 0.263100
0.352813 0.600961 0.263966
0.354824 0.596378 0.262649
0.358604 0.595796 0.262686
0.364750 0.600366 0.264476
0.370109 0.603155 0.265645
0.373414 0.601561 0.265300
0.376108 0.598753 0.264523
0.379852 0.598208 0.264505
0.384035 0.598609 0.264795
0.382392 0.587284 0.261036
0.398345 0.611365 0.269430
0.403387 0.613435 0.270238
0.407357 0.613422 0.270309
0.405244 0.601710 0.266330
0.399950 0.584220 0.260339
0.400888 0.578943 0.258528
0.406656 0.582886 0.259867
0.411408 0.584932 0.260530
0.418741 0.591753 0.262812
0.427042 0.600283 0.265655
0.431829 0.602387 0.266263
0.431346 0.595106 0.263620
0.433496 0.592698 0.262629
0.437548 0.593751 0.262803
0.439559 0.591307 0.261754
0.442066 0.589839 0.261017
0.453529 0.603822 0.265543
0.453729 0.598511 0.263444
-0.343276 0.598208 0.267324
-0.339810 0.597644 0.267345
-0.338265 0.600828 0.268647
-0.333684 0.598301 0.267939
-0.330669 0.598865 0.268282
-0.329020 0.602207 0.269569
-0.326489 0.603951 0.270276
-0.322314 0.602527 0.269853
-0.318537 0.601965 0.269705
-0.315098 0.602167 0.269799
-0.311942 0.603038 0.270101
-0.307812 0.601980 0.269705
-0.304415 0.602521 0.269842
-0.301288 0.603724 0.270186
-0.298044 0.604776 0.270453
-0.293382 0.602834 0.269654
-0.289533 0.602702 0.269463
-0.285905 0.603122 0.269443
-0.282516 0.604149 0.269613
-0.279601 0.606338 0.270165
-0.274862 0.604410 0.269270
-0.271161 0.604908 0.269199
-0.267263 0.604991 0.268968
-0.263286 0.604916 0.268667
-0.259219 0.604651 0.268286
-0.255458 0.605157 0.268159
-0.251918 0.606249 0.268222
-0.247362 0.604801 0.267399
-0.243467 0.605025 0.267144
-0.239628 0.605405 0.266935
-0.235631 0.605376 0.266578
-0.231362 0.604605 0.265962
-0.227555 0.605065 0.265763
-0.224235 0.606876 0.266021
-0.219617 0.605067 0.265042
-0.215343 0.604165 0.264371
-0.211511 0.604494 0.264119
-0.207614 0.604614 0.263797
-0.203919 0.605312 0.263670
-0.200289 0.606200 0.263609
-0.196021 0.605100 0.262878
-0.191857 0.604255 0.262236
-0.188233 0.605075 0.262159
-0.184518 0.605586 0.261981
-0.180408 0.604755 0.261357
-0.176552 0.604711 0.261001
-0.172814 0.605027 0.260770
-0.169053 0.605227 0.260506
-0.164755 0.603468 0.259592
-0.160936 0.603336 0.259228
-0.156954 0.602545 0.258650
-0.153114 0.602215 0.258232
-0.149800 0.603859 0.258475
-0.146017 0.603665 0.258114
-0.142209 0.603312 0.257705
-0.138634 0.603856 0.257600
-0.134994 0.604100 0.257402
-0.131330 0.604199 0.257161
-0.127681 0.604316 0.256933
-0.123978 0.604148 0.256616
-0.120276 0.603927 0.256288
-0.116612 0.603828 0.256007
-0.112814 0.603022 0.255499
-0.109308 0.603578 0.255445
-0.105901 0.604611 0.255553
-0.102490 0.605635 0.255663
-0.098609 0.604145 0.254955
-0.094996 0.603996 0.254692
-0.091515 0.604543 0.254663
-0.088010 0.604935 0.254587
-0.084341 0.604319 0.254189
-0.080394 0.601904 0.253210
-0.077305 0.604756 0.253953
-0.073798 0.604992 0.253848
-0.070182 0.604465 0.253500
-0.066726 0.604983 0.253497
-0.063013 0.603617 0.252887
-0.059702 0.605141 0.253220
-0.056224 0.605432 0.253157
-0.052626 0.604718 0.252774
-0.048985 0.603544 0.252246
-0.045591 0.604414 0.252385
-0.042232 0.605636 0.252642
-0.038700 0.605259 0.252386
-0.035121 0.604326 0.251955
-0.031569 0.603545 0.251578
-0.028152 0.604158 0.251655
-0.024713 0.604535 0.251659
-0.021199 0.603970 0.251364
-0.017685 0.603285 0.251035
-0.014173 0.602493 0.250676
-0.010711 0.602326 0.250521
-0.007357 0.603887 0.250926
-0.003912 0.604030 0.250879
-0.000437 0.603558 0.250638
0.003025 0.603244 0.250451
0.006456 0.603562 0.250471
0.009919 0.603035 0.250224
0.013380 0.602346 0.249928
0.016824 0.602025 0.249753
0.020266 0.601612 0.249553
0.023705 0.601061 0.249312
0.027129 0.601344 0.249342
0.030552 0.602118 0.249533
0.033981 0.602934 0.249740
0.037417 0.603156 0.249761
0.040853 0.603150 0.249711
0.044285 0.602851 0.249572
0.047715 0.602590 0.249448
0.051169 0.603514 0.249706
0.054588 0.602743 0.249425
0.058035 0.603101 0.249509
0.061462 0.602778 0.249379
0.064894 0.602646 0.249312
0.068332 0.602627 0.249286
0.071802 0.603221 0.249459
0.075224 0.602814 0.249314
0.078659 0.602668 0.249257
0.082134 0.603127 0.249397
0.085600 0.603364 0.249469
0.089046 0.603281 0.249442
0.092495 0.603210 0.249423
0.095722 0.600490 0.248560
0.099285 0.601793 0.248987
0.102748 0.601873 0.249027
0.106310 0.602917 0.249378
0.109835 0.603468 0.249576
0.113063 0.601209 0.248878
0.116479 0.600776 0.248769
0.120037 0.601535 0.249044
0.123724 0.603249 0.249629
0.127200 0.603150 0.249638
