ply
format ascii 1.0
comment ---
element vertex 1759
property float x
property float y
property float z
element face 0
property list uchar uint vertex_indices
end_header
0.357352 0.606823 0.115088
0.360628 0.607983 0.115073
0.363337 0.607782 0.114981
0.363758 0.602396 0.114606
0.365661 0.600407 0.114415
0.370498 0.604877 0.114570
0.372967 0.604062 0.114439
0.375858 0.604137 0.114353
0.379726 0.606243 0.114375
0.382944 0.606903 0.114317
0.384498 0.604079 0.114072
0.387332 0.603900 0.113967
0.391864 0.607117 0.114040
0.394482 0.606412 0.113904
0.397460 0.606405 0.113804
0.400694 0.606867 0.113728
0.403996 0.607424 0.113656
0.405457 0.604447 0.113401
0.407772 0.603120 0.113231
0.410639 0.602829 0.113116
0.414173 0.603754 0.113063
0.416361 0.602201 0.112884
0.420597 0.604349 0.112895
0.427125 0.610511 0.113108
0.437416 0.617634 0.113274
0.433771 0.605986 0.112601
0.436710 0.605788 0.112504
0.439109 0.604699 0.112367
0.442011 0.604491 0.112277
0.444422 0.603502 0.112154
0.438878 0.589577 0.111401
0.441171 0.588624 0.111292
0.446297 0.592261 0.111413
0.449399 0.592661 0.111381
0.454862 0.596809 0.111537
-0.102544 0.600093 0.111067
-0.102123 0.604227 0.111277
-0.098191 0.601445 0.111167
-0.096152 0.602517 0.111245
-0.095534 0.606595 0.111473
-0.092618 0.606040 0.111487
-0.090131 0.606424 0.111551
-0.087785 0.607165 0.111637
-0.085650 0.608415 0.111753
-0.082418 0.607344 0.111762
-0.079782 0.607590 0.111838
-0.077089 0.607738 0.111913
-0.074502 0.608151 0.112004
-0.072642 0.610254 0.112180
-0.069126 0.608580 0.112176
-0.066607 0.609210 0.112285
-0.064201 0.610125 0.112410
-0.060796 0.608649 0.112419
-0.058148 0.608976 0.112517
-0.055598 0.609545 0.112628
-0.052931 0.609819 0.112724
-0.049988 0.609376 0.112786
-0.046671 0.607934 0.112796
-0.044354 0.609049 0.112934
-0.041609 0.609029 0.113015
-0.038863 0.608977 0.113093
-0.031973 0.597530 0.112593
-0.028129 0.601567 0.112951
-0.030533 0.616038 0.113766
-0.027470 0.614996 0.113788
-0.023105 0.610028 0.113606
-0.021580 0.613407 0.113852
-0.018817 0.613072 0.113905
-0.015846 0.612044 0.113920
-0.013798 0.613854 0.114081
-0.010887 0.612918 0.114097
-0.007914 0.611709 0.114097
-0.004255 0.608141 0.113972
-0.000687 0.604718 0.113851
-0.000201 0.611733 0.114277
0.003485 0.607759 0.114124
0.005974 0.607874 0.114184
0.007696 0.610734 0.114387
0.009166 0.614594 0.114642
0.012093 0.613081 0.114611
0.015613 0.609198 0.114452
0.018013 0.609506 0.114514
0.020199 0.610648 0.114619
0.022425 0.611637 0.114714
0.025302 0.609932 0.114664
0.028040 0.608708 0.114637
0.030229 0.609781 0.114732
0.032383 0.611019 0.114835
0.034613 0.611934 0.114919
0.037347 0.610538 0.114877
0.040117 0.608873 0.114819
0.042277 0.610052 0.114913
0.044556 0.610668 0.114975
0.046931 0.610798 0.115010
0.049015 0.612421 0.115125
0.051046 0.614383 0.115257
0.053403 0.614638 0.115295
0.056376 0.611422 0.115143
0.058674 0.611896 0.115191
0.061150 0.611319 0.115180
0.058993 0.638962 0.116706
0.061550 0.638593 0.116705
0.067481 0.616331 0.115509
0.070622 0.611284 0.115250
0.073007 0.611098 0.115256
0.075608 0.609339 0.115174
0.077834 0.610206 0.115235
0.080088 0.610904 0.115286
0.082421 0.611011 0.115304
0.086105 0.599983 0.114712
0.090070 0.585651 0.113937
0.091253 0.594913 0.114453
0.092556 0.603853 0.114952
0.094785 0.604577 0.114999
0.096498 0.610615 0.115338
0.098988 0.608941 0.115252
0.101306 0.608995 0.115261
0.103488 0.610672 0.115359
0.105662 0.612634 0.115471
0.108144 0.610710 0.115369
0.110571 0.609304 0.115296
0.112704 0.612178 0.115457
0.115048 0.612021 0.115450
0.117473 0.610374 0.115362
0.119625 0.613738 0.115548
0.122041 0.612117 0.115460
0.124477 0.609688 0.115327
0.126820 0.609109 0.115295
0.129101 0.610258 0.115357
0.131369 0.612248 0.115466
0.133725 0.611294 0.115412
0.136095 0.609133 0.115292
0.138407 0.609696 0.115320
0.140735 0.609096 0.115285
0.143063 0.607673 0.115204
0.145377 0.605951 0.115106
0.147668 0.602323 0.114903
0.150034 0.610651 0.115356
0.152363 0.610580 0.115348
0.154687 0.610270 0.115326
0.156989 0.609062 0.115255
0.159305 0.608754 0.115233
0.161610 0.608146 0.115194
0.163918 0.607778 0.115167
0.166250 0.608015 0.115174
0.168675 0.610212 0.115288
0.170883 0.607716 0.115144
0.173103 0.605840 0.115034
0.175493 0.607065 0.115094
0.177790 0.606652 0.115063
0.180266 0.608855 0.115176
0.182667 0.609748 0.115216
0.185689 0.618366 0.115678
0.190390 0.617649 0.115620
0.191976 0.609107 0.115144
0.194090 0.606775 0.115006
0.196437 0.606907 0.115003
0.199065 0.609633 0.115141
0.201366 0.609196 0.115106
0.203618 0.608356 0.115048
0.205351 0.603294 0.114760
0.205704 0.587661 0.113897
0.208011 0.588061 0.113906
0.213142 0.609253 0.115046
0.215502 0.609257 0.115033
0.217795 0.608781 0.114993
0.219933 0.607285 0.114897
0.222318 0.607466 0.114892
0.225051 0.609802 0.115003
0.227367 0.609447 0.114968
0.229658 0.608948 0.114924
0.231825 0.607748 0.114842
0.234280 0.608209 0.114849
0.236630 0.608061 0.114822
0.239114 0.608614 0.114833
0.241578 0.609023 0.114836
0.243591 0.607109 0.114712
0.245393 0.604227 0.114536
0.248921 0.609793 0.114814
0.251370 0.609996 0.114802
0.253373 0.608122 0.114678
0.254831 0.603846 0.114424
0.257446 0.604848 0.114454
0.260354 0.607055 0.114547
0.262857 0.607437 0.114541
0.265168 0.606988 0.114489
0.268034 0.608793 0.114557
0.270777 0.610018 0.114594
0.273266 0.610183 0.114572
0.275174 0.608089 0.114429
0.277779 0.608679 0.114428
0.280335 0.609042 0.114414
0.283012 0.609813 0.114420
0.285710 0.610607 0.114427
0.288599 0.612019 0.114464
0.290937 0.611459 0.114396
0.293766 0.612562 0.114415
0.296036 0.611740 0.114331
0.298196 0.610558 0.114227
0.300885 0.611094 0.114211
0.303010 0.609799 0.114099
0.305766 0.610490 0.114088
0.317662 0.639188 0.115540
0.320166 0.638585 0.115457
0.312605 0.608016 0.113812
0.314827 0.607016 0.113708
0.317104 0.606174 0.113611
0.320189 0.607631 0.113631
0.322363 0.606457 0.113514
0.324799 0.606012 0.113432
0.326241 0.602843 0.113209
0.322847 0.586749 0.112323
0.329700 0.598197 0.112847
0.335714 0.607105 0.113236
0.339259 0.609382 0.113285
0.341905 0.609281 0.113210
0.344171 0.608194 0.113083
0.347375 0.609422 0.113071
0.349808 0.608703 0.112959
0.352946 0.609661 0.112930
0.355304 0.608709 0.112803
0.358168 0.608932 0.112732
0.360809 0.608597 0.112632
0.363474 0.608290 0.112531
0.366030 0.607708 0.112415
0.370179 0.610650 0.112470
0.370452 0.604966 0.112101
0.372710 0.603694 0.111946
0.375285 0.603098 0.111823
0.379002 0.604899 0.111814
0.383465 0.608182 0.111875
0.385390 0.606109 0.111675
0.387300 0.604023 0.111475
0.392370 0.608325 0.111577
0.395640 0.608910 0.111501
0.395866 0.603460 0.111139
0.400635 0.606947 0.111198
0.403215 0.606119 0.111053
0.406095 0.605856 0.110935
0.408111 0.603958 0.110740
0.411823 0.605231 0.110693
0.415354 0.606129 0.110629
0.417907 0.605220 0.110483
0.422294 0.607613 0.110488
0.425461 0.607783 0.110394
0.437265 0.617615 0.110636
0.433486 0.605742 0.110010
0.436358 0.605444 0.109906
0.439419 0.605484 0.109821
0.441879 0.604544 0.109697
0.444131 0.603304 0.109565
0.439061 0.590159 0.108917
0.440714 0.588179 0.108766
0.448509 0.596111 0.109053
0.452828 0.598420 0.109100
0.456436 0.599615 0.109105
-0.103869 0.603054 0.108769
-0.100226 0.600779 0.108686
-0.100586 0.606587 0.108953
-0.095757 0.602019 0.108787
-0.095115 0.606028 0.108991
-0.092490 0.606055 0.109033
-0.089697 0.605780 0.109067
-0.087437 0.606680 0.109157
-0.084915 0.607077 0.109232
-0.081962 0.606583 0.109272
-0.079623 0.607462 0.109376
-0.077510 0.608891 0.109508
-0.074390 0.608103 0.109547
-0.071389 0.607580 0.109601
-0.068954 0.608368 0.109714
-0.066702 0.609613 0.109850
-0.063616 0.608904 0.109902
-0.060821 0.608878 0.109985
-0.058301 0.609513 0.110099
-0.055916 0.610492 0.110228
-0.053356 0.611041 0.110339
-0.051021 0.612163 0.110477
-0.046466 0.607551 0.110355
-0.044128 0.608600 0.110488
-0.041726 0.609484 0.110613
-0.038651 0.608548 0.110655
-0.031582 0.596595 0.110190
-0.022957 0.579918 0.109503
-0.032453 0.613927 0.111149
-0.030647 0.616508 0.111349
-0.028631 0.618524 0.111521
-0.025345 0.616805 0.111519
-0.022518 0.616373 0.111574
-0.019087 0.614043 0.111539
-0.016207 0.613311 0.111576
-0.014135 0.615067 0.111729
-0.012341 0.617736 0.111924
-0.008767 0.614646 0.111844
-0.004824 0.610184 0.111696
-0.000352 0.603740 0.111451
0.001294 0.606747 0.111654
0.002280 0.612134 0.111971
0.005377 0.610160 0.111933
0.007821 0.610443 0.112001
0.010108 0.611278 0.112094
0.013114 0.609405 0.112055
0.015419 0.610113 0.112139
0.018019 0.609656 0.112164
0.020459 0.609785 0.112216
0.022526 0.611403 0.112340
0.024798 0.612203 0.112421
0.027803 0.609896 0.112350
0.030242 0.609907 0.112390
0.031889 0.613391 0.112598
0.034310 0.613495 0.112640
0.037306 0.610920 0.112548
0.039832 0.610418 0.112557
0.042368 0.609809 0.112559
0.044701 0.610150 0.112606
0.047127 0.610008 0.112628
0.049100 0.612187 0.112764
0.051021 0.614727 0.112917
0.053431 0.614698 0.112941
0.056225 0.612483 0.112855
0.059390 0.607985 0.112654
0.060692 0.614259 0.112988
0.059371 0.636888 0.114136
0.061605 0.638487 0.114236
0.067779 0.614633 0.113065
0.070686 0.611082 0.112906
0.073046 0.611062 0.112921
0.075598 0.609649 0.112866
0.077749 0.611074 0.112951
0.080110 0.610975 0.112960
0.082514 0.610513 0.112949
0.085814 0.602614 0.112565
0.090084 0.585766 0.111731
0.091140 0.596159 0.112262
0.092140 0.607977 0.112863
0.094405 0.608524 0.112899
0.096853 0.607258 0.112843
0.098878 0.610369 0.113006
0.101280 0.609547 0.112971
0.103462 0.611250 0.113062
0.105676 0.612718 0.113141
0.108022 0.612613 0.113140
0.110514 0.610381 0.113031
0.112924 0.609091 0.112969
0.115106 0.611330 0.113084
0.117452 0.611035 0.113071
0.119853 0.609591 0.113000
0.122119 0.610740 0.113059
0.124479 0.609913 0.113017
0.126857 0.608419 0.112942
0.129064 0.611668 0.113105
0.131392 0.611705 0.113106
0.133805 0.608217 0.112929
0.136099 0.609236 0.112978
0.138406 0.610110 0.113019
0.140748 0.608170 0.112919
0.143068 0.607015 0.112858
0.145377 0.608465 0.112927
0.147711 0.612257 0.113113
0.149992 0.606205 0.112805
0.152285 0.605137 0.112747
0.154605 0.606042 0.112787
0.156953 0.607723 0.112866
0.159259 0.607317 0.112840
0.161563 0.606952 0.112816
0.163942 0.608671 0.112895
0.166337 0.610373 0.112974
0.168445 0.605510 0.112723
0.170726 0.604919 0.112686
0.173192 0.607722 0.112819
0.175486 0.607213 0.112785
0.177854 0.607909 0.112812
0.180105 0.606817 0.112748
0.182579 0.608838 0.112840
0.186014 0.622760 0.113527
0.190312 0.617047 0.113221
0.191950 0.609108 0.112813
0.194356 0.609765 0.112835
0.196512 0.607914 0.112732
0.198688 0.606391 0.112644
0.201141 0.607458 0.112685
0.203577 0.608284 0.112714
0.205352 0.603579 0.112467
0.205760 0.588371 0.111697
0.208421 0.591465 0.111837
0.212707 0.606320 0.112562
0.215472 0.609316 0.112696
0.217688 0.608319 0.112632
0.220155 0.609040 0.112652
0.222451 0.608602 0.112614
0.224931 0.609327 0.112633
0.227561 0.610906 0.112694
0.229848 0.610348 0.112649
0.232052 0.609332 0.112580
0.234349 0.608873 0.112538
0.236757 0.609024 0.112526
0.239190 0.609293 0.112519
0.241585 0.609329 0.112500
0.243746 0.608163 0.112421
0.245710 0.606060 0.112295
0.248389 0.607491 0.112342
0.251535 0.611045 0.112493
0.252789 0.605690 0.112205
0.254879 0.604325 0.112113
0.257328 0.604587 0.112099
0.260006 0.605806 0.112132
0.262733 0.607168 0.112170
0.265089 0.606913 0.112129
0.267742 0.607859 0.112145
0.270750 0.610164 0.112226
0.273021 0.609477 0.112160
0.275023 0.607760 0.112044
0.277434 0.607626 0.112003
0.280176 0.608701 0.112020
0.282478 0.608119 0.111955
0.285238 0.609166 0.111968
0.288177 0.610781 0.112006
0.290802 0.611238 0.111988
0.293016 0.610261 0.111899
0.295385 0.609808 0.111834
0.297968 0.610048 0.111801
0.299577 0.607113 0.111615
0.301488 0.605205 0.111477
0.305002 0.608333 0.111578
0.316931 0.637183 0.112896
0.319086 0.635559 0.112764
0.312963 0.609303 0.111468
0.314771 0.607072 0.111308
0.317810 0.608432 0.111315
0.319987 0.607269 0.111202
0.323078 0.608676 0.111208
0.325762 0.608886 0.111155
0.326976 0.605051 0.110913
0.322694 0.586538 0.109989
0.330161 0.599620 0.110530
0.335327 0.606299 0.110769
0.339593 0.610443 0.110888
0.342722 0.611555 0.110866
0.345437 0.611563 0.110790
0.347804 0.610678 0.110672
0.350870 0.611486 0.110628
0.353364 0.610861 0.110518
0.355862 0.610224 0.110405
0.358044 0.608831 0.110257
0.360255 0.607503 0.110109
0.363838 0.609306 0.110100
0.367638 0.611517 0.110105
0.369412 0.609127 0.109905
0.371438 0.607313 0.109730
0.372770 0.604004 0.109487
0.375768 0.604313 0.109402
0.379302 0.605713 0.109362
0.381916 0.605122 0.109233
0.384256 0.603946 0.109079
0.386433 0.602432 0.108908
0.391904 0.607568 0.109020
0.393530 0.604889 0.108798
0.398335 0.608503 0.108840
0.400067 0.606027 0.108626
0.404252 0.608300 0.108610
0.405972 0.605812 0.108395
0.410264 0.608195 0.108382
0.412542 0.606763 0.108212
0.415075 0.605818 0.108063
0.418940 0.607301 0.108013
0.421711 0.606779 0.107884
0.430896 0.617657 0.108213
0.433421 0.605872 0.107439
0.434924 0.603253 0.107241
0.439326 0.605586 0.107243
0.440692 0.602833 0.107050
0.443947 0.603278 0.106988
0.441192 0.593923 0.106552
0.440113 0.587497 0.106238
0.444357 0.589764 0.106265
0.454906 0.602041 0.106680
0.459776 0.605204 0.106752
-0.101091 0.597914 0.106142
-0.101786 0.604224 0.106390
-0.098356 0.602414 0.106342
-0.097339 0.605545 0.106487
-0.094483 0.605020 0.106501
-0.092574 0.606508 0.106597
-0.089815 0.606292 0.106636
-0.087271 0.606579 0.106700
-0.084319 0.606033 0.106737
-0.081706 0.606253 0.106808
-0.079620 0.607672 0.106930
-0.077367 0.608779 0.107045
-0.075005 0.609690 0.107155
-0.071354 0.607686 0.107157
-0.068773 0.608126 0.107255
-0.066104 0.608378 0.107349
-0.063412 0.608582 0.107442
-0.060873 0.609161 0.107552
-0.058488 0.610124 0.107679
-0.055920 0.610650 0.107789
-0.053586 0.611763 0.107923
-0.050575 0.611166 0.107990
-0.046399 0.607515 0.107932
-0.043942 0.608246 0.108051
-0.041457 0.608901 0.108166
-0.038801 0.609085 0.108261
-0.031069 0.595315 0.107783
-0.023963 0.582842 0.107353
-0.030780 0.609326 0.108527
-0.028696 0.611038 0.108681
-0.027763 0.616126 0.108974
-0.026540 0.620475 0.109237
-0.023999 0.620962 0.109337
-0.021841 0.622599 0.109484
-0.017445 0.617293 0.109336
-0.015347 0.619032 0.109483
-0.012356 0.617926 0.109508
-0.007661 0.611172 0.109290
-0.003740 0.606722 0.109166
-0.000912 0.605774 0.109190
-0.000196 0.612017 0.109521
0.002089 0.612953 0.109623
0.004842 0.612217 0.109651
0.007520 0.611686 0.109685
0.010143 0.611305 0.109724
0.012875 0.610461 0.109741
0.015470 0.610074 0.109776
0.018035 0.609756 0.109811
0.020643 0.609216 0.109836
0.022336 0.612346 0.110020
0.024379 0.614116 0.110143
0.029225 0.604037 0.109740
0.029919 0.611483 0.110111
0.032148 0.612423 0.110193
0.034662 0.612089 0.110216
0.037444 0.610464 0.110180
0.039721 0.611125 0.110244
0.042066 0.611459 0.110293
0.044630 0.610697 0.110291
0.047551 0.608053 0.110203
0.049316 0.611261 0.110376
0.051369 0.613076 0.110485
0.053699 0.613438 0.110528
0.056708 0.609975 0.110397
0.058865 0.611221 0.110478
0.061260 0.611095 0.110495
0.059601 0.635708 0.111627
0.061692 0.638166 0.111760
0.067663 0.615603 0.110760
0.070560 0.612150 0.110622
0.073107 0.610868 0.110581
0.075439 0.611008 0.110603
0.077748 0.611306 0.110631
0.080090 0.611359 0.110648
0.082744 0.608921 0.110550
0.085770 0.603211 0.110303
0.090259 0.584486 0.109463
0.091331 0.594693 0.109937
0.092194 0.607715 0.110539
0.094498 0.607866 0.110554
0.096560 0.610486 0.110681
0.098545 0.614190 0.110857
0.100882 0.614295 0.110869
0.103379 0.612487 0.110792
0.105572 0.614292 0.110879
0.107947 0.613867 0.110864
0.110411 0.612116 0.110788
0.112858 0.610364 0.110712
0.115196 0.610126 0.110703
0.117561 0.609362 0.110670
0.119871 0.609514 0.110679
0.122185 0.609612 0.110684
0.124493 0.609857 0.110695
0.126848 0.608930 0.110653
0.129173 0.608635 0.110638
0.131500 0.608186 0.110617
0.133816 0.608002 0.110607
0.136113 0.608812 0.110641
0.138412 0.609936 0.110690
0.140780 0.605118 0.110467
0.143075 0.605921 0.110500
0.145378 0.607182 0.110554
0.147695 0.608791 0.110623
0.149974 0.604437 0.110420
0.152278 0.604810 0.110432
0.154610 0.606524 0.110505
0.156949 0.607819 0.110558
0.159248 0.607178 0.110522
0.161565 0.607294 0.110521
0.163927 0.608530 0.110570
0.166251 0.608567 0.110565
0.168482 0.606571 0.110466
0.170859 0.607800 0.110514
0.173250 0.609038 0.110562
0.175533 0.608276 0.110519
0.177750 0.606578 0.110433
0.180018 0.605837 0.110390
0.182319 0.605619 0.110370
0.185658 0.618538 0.110946
0.190284 0.617011 0.110855
0.191688 0.606570 0.110371
0.194090 0.607325 0.110393
0.196695 0.609978 0.110501
0.198920 0.608838 0.110437
0.201253 0.608736 0.110420
0.203301 0.606188 0.110291
0.205351 0.603846 0.110172
0.206116 0.591457 0.109599
0.208539 0.592636 0.109638
0.212730 0.606764 0.110260
0.215282 0.608239 0.110310
0.218091 0.611375 0.110435
0.220233 0.609837 0.110349
0.222678 0.610345 0.110355
0.225130 0.610849 0.110360
0.227646 0.611699 0.110379
0.230292 0.613254 0.110430
0.233152 0.615944 0.110530
0.234952 0.612526 0.110357
0.237708 0.614492 0.110424
0.239678 0.612154 0.110298
0.241702 0.610203 0.110188
0.243806 0.608730 0.110099
0.246046 0.607985 0.110042
0.248802 0.609747 0.110096
0.251231 0.609872 0.110076
0.254000 0.611537 0.110124
0.255509 0.607424 0.109914
0.257636 0.606200 0.109832
0.260250 0.607120 0.109844
0.263045 0.608745 0.109886
0.265399 0.608453 0.109842
0.268240 0.610137 0.109884
0.270498 0.609409 0.109819
0.272648 0.608262 0.109735
0.275040 0.608072 0.109691
0.277574 0.608401 0.109669
0.279789 0.607513 0.109593
0.281906 0.606281 0.109501
0.284490 0.606736 0.109481
0.287469 0.608536 0.109518
0.290189 0.609361 0.109511
0.292295 0.608052 0.109410
0.294006 0.605443 0.109252
0.296520 0.605530 0.109210
0.298580 0.604126 0.109101
0.301236 0.604629 0.109074
0.305208 0.609200 0.109218
0.316389 0.635749 0.110296
0.319479 0.636976 0.110290
0.314516 0.614145 0.109263
0.315772 0.610219 0.109038
0.317824 0.608682 0.108914
0.320269 0.608281 0.108835
0.322813 0.608139 0.108766
0.325038 0.607087 0.108656
0.326917 0.605091 0.108506
0.322494 0.586189 0.107653
0.330587 0.600941 0.108195
0.334827 0.605186 0.108298
0.338901 0.608855 0.108374
0.343842 0.614591 0.108531
0.346500 0.614417 0.108444
0.348497 0.612579 0.108287
0.350509 0.610790 0.108130
0.353166 0.610566 0.108035
0.355315 0.609107 0.107888
0.357346 0.607374 0.107729
0.357961 0.602372 0.107438
0.360410 0.601650 0.107316
0.364356 0.604291 0.107325
0.369372 0.609211 0.107419
0.370769 0.606014 0.107194
0.372846 0.604338 0.107027
0.376170 0.605344 0.106962
0.378527 0.604241 0.106814
0.381565 0.604558 0.106718
0.383412 0.602372 0.106526
0.388104 0.606014 0.106553
0.390848 0.605608 0.106426
0.393705 0.605410 0.106305
0.395635 0.603361 0.106115
0.400650 0.607337 0.106146
0.403390 0.606822 0.106011
0.405422 0.604949 0.105827
0.405013 0.598511 0.105479
0.412084 0.606102 0.105637
0.414593 0.605128 0.105487
0.417118 0.604192 0.105341
0.420996 0.605701 0.105281
0.425176 0.607709 0.105241
0.444961 0.637105 0.106151
0.441766 0.625913 0.105654
0.431579 0.602937 0.104762
0.436403 0.606014 0.104770
0.437620 0.602966 0.104574
0.441801 0.604947 0.104552
0.443641 0.603048 0.104406
0.443694 0.598295 0.104171
0.439044 0.586055 0.103695
0.445355 0.591667 0.103820
0.450004 0.594574 0.103860
0.463000 0.610617 0.104339
-0.101758 0.599578 0.103790
-0.101327 0.603641 0.103933
-0.099181 0.604397 0.103976
-0.096041 0.603206 0.103964
-0.093807 0.603915 0.104020
-0.092249 0.606108 0.104133
-0.090060 0.607071 0.104211
-0.087343 0.606980 0.104261
-0.085306 0.608396 0.104367
-0.081901 0.606902 0.104382
-0.079551 0.607730 0.104479
-0.077295 0.608820 0.104589
-0.074771 0.609351 0.104684
-0.071635 0.608512 0.104737
-0.068684 0.608092 0.104806
-0.065970 0.608227 0.104897
-0.063086 0.607963 0.104977
-0.061276 0.610284 0.105147
-0.058465 0.610211 0.105236
-0.055851 0.610618 0.105342
-0.052956 0.610313 0.105425
-0.049936 0.609665 0.105495
-0.046100 0.606867 0.105489
-0.043830 0.608078 0.105624
-0.041616 0.609446 0.105765
-0.038536 0.608488 0.105821
-0.030711 0.594448 0.105404
-0.024645 0.584855 0.105142
-0.032089 0.613148 0.106257
-0.029111 0.612349 0.106315
-0.027383 0.615136 0.106503
-0.032035 0.636878 0.107391
-0.025046 0.624239 0.107007
-0.017773 0.610279 0.106568
-0.014775 0.609118 0.106602
-0.011914 0.608311 0.106647
-0.009420 0.608618 0.106732
-0.002189 0.593422 0.106227
-0.001793 0.600381 0.106559
-0.001872 0.609149 0.106961
-0.000172 0.612068 0.107138
0.002358 0.612148 0.107205
0.005119 0.611365 0.107237
0.007740 0.611029 0.107284
0.009809 0.612683 0.107406
0.012693 0.611293 0.107408
0.015699 0.609342 0.107386
0.018200 0.609259 0.107435
0.020144 0.611360 0.107568
0.022243 0.612880 0.107676
0.024421 0.614103 0.107771
0.027559 0.611265 0.107704
0.030347 0.609795 0.107689
0.032527 0.610915 0.107775
0.035142 0.610087 0.107782
0.037807 0.608958 0.107775
0.040176 0.609150 0.107819
0.042245 0.610771 0.107919
0.044896 0.609558 0.107904
0.047295 0.609535 0.107935
0.049624 0.609847 0.107978
0.051667 0.611674 0.108080
0.053987 0.612052 0.108123
0.056017 0.614054 0.108230
0.058581 0.613060 0.108216
0.060826 0.613875 0.108272
0.059215 0.638280 0.109283
0.061638 0.638725 0.109323
0.067562 0.616470 0.108442
0.070575 0.612258 0.108290
0.073127 0.610938 0.108254
0.075545 0.610466 0.108252
0.078052 0.609281 0.108219
0.080149 0.611131 0.108309
0.082719 0.609340 0.108250
0.085979 0.601708 0.107951
0.090173 0.585445 0.107299
0.090439 0.602882 0.108022
0.092395 0.606066 0.108162
0.094414 0.608921 0.108287
0.096458 0.611767 0.108412
0.097933 0.620986 0.108797
0.099738 0.627442 0.109068
0.103168 0.615250 0.108575
0.105651 0.613546 0.108510
0.107932 0.614318 0.108547
0.110406 0.612440 0.108474
0.112736 0.612481 0.108478
0.115285 0.608902 0.108334
0.117642 0.608164 0.108306
0.120029 0.606704 0.108248
0.122148 0.610652 0.108410
0.124507 0.609789 0.108375
0.126873 0.608517 0.108323
0.129224 0.607335 0.108273
0.131534 0.607262 0.108269
0.133848 0.606935 0.108254
0.136123 0.608567 0.108318
0.138420 0.609716 0.108362
0.140762 0.607313 0.108261
0.143083 0.604736 0.108151
0.145379 0.606318 0.108212
0.147682 0.605894 0.108190
0.149977 0.605010 0.108149
0.152302 0.606849 0.108219
0.154651 0.609025 0.108302
0.156972 0.609090 0.108298
0.159258 0.607805 0.108239
0.161574 0.607829 0.108233
0.163887 0.607710 0.108221
0.166183 0.607203 0.108193
0.168483 0.606864 0.108171
0.171005 0.610936 0.108328
0.173292 0.610058 0.108283
0.175532 0.608524 0.108212
0.177764 0.607075 0.108143
0.180036 0.606370 0.108104
0.182341 0.606178 0.108086
0.185692 0.619255 0.108607
0.190333 0.617846 0.108527
0.191703 0.607008 0.108074
0.194034 0.607029 0.108063
0.196527 0.608609 0.108114
0.198938 0.609280 0.108128
0.201041 0.607119 0.108027
0.203136 0.605044 0.107929
0.205456 0.604976 0.107911
0.206009 0.590875 0.107327
0.208347 0.591431 0.107334
0.212019 0.601788 0.107736
0.215887 0.612830 0.108165
0.218212 0.612478 0.108133
0.221368 0.617695 0.108325
0.225953 0.631837 0.108875
0.225752 0.615030 0.108180
0.227702 0.612306 0.108051
0.229784 0.610507 0.107959
0.232285 0.611210 0.107966
0.234803 0.611952 0.107974
0.235206 0.601077 0.107517
0.236710 0.596606 0.107316
0.241374 0.608759 0.107778
0.243610 0.607994 0.107723
0.246009 0.608057 0.107700
0.248515 0.608619 0.107696
0.251007 0.609070 0.107687
0.253631 0.610088 0.107700
0.256333 0.611402 0.107723
0.258126 0.608617 0.107583
0.260340 0.607756 0.107519
0.262982 0.608724 0.107525
0.265685 0.609890 0.107538
0.268212 0.610270 0.107519
0.270347 0.609050 0.107437
0.272302 0.607150 0.107326
0.274903 0.607785 0.107314
0.277900 0.609865 0.107357
0.279331 0.606054 0.107169
0.281757 0.605969 0.107125
0.284292 0.606260 0.107094
0.287051 0.607301 0.107091
0.289684 0.607845 0.107067
0.292377 0.608554 0.107048
0.295020 0.609048 0.107019
0.296435 0.605472 0.106833
0.298433 0.603868 0.106721
0.301175 0.604653 0.106699
0.304124 0.606030 0.106698
0.315569 0.633456 0.107678
0.320771 0.641108 0.107906
0.313802 0.612226 0.106759
0.315049 0.608304 0.106550
0.317805 0.608831 0.106507
0.320173 0.608209 0.106419
0.322585 0.607696 0.106333
0.324902 0.606906 0.106235
0.326925 0.605307 0.106106
0.322378 0.586062 0.105329
0.330429 0.600709 0.105792
0.334489 0.604489 0.105854
0.338425 0.607814 0.105895
0.344064 0.615341 0.106085
0.348548 0.612886 0.105826
0.348394 0.605807 0.105487
0.351544 0.606837 0.105434
0.353859 0.605821 0.105306
0.355145 0.602381 0.105092
0.349769 0.583573 0.104343
0.357445 0.595041 0.104645
0.361342 0.597656 0.104636
0.367201 0.604540 0.104770
0.368200 0.600528 0.104530
0.372572 0.603905 0.104537
0.375612 0.604308 0.104442
0.380113 0.607762 0.104447
0.381130 0.603808 0.104203
0.386051 0.607987 0.104226
0.389355 0.608730 0.104134
0.391376 0.606838 0.103955
0.392986 0.604140 0.103750
0.395481 0.603221 0.103601
0.398076 0.602494 0.103459
0.400991 0.602377 0.103335
0.401788 0.598210 0.103086
0.403699 0.596215 0.102905
0.410757 0.603818 0.103020
0.414359 0.604884 0.102933
0.417132 0.604410 0.102801
0.419806 0.603760 0.102665
0.425641 0.608742 0.102699
0.441529 0.631297 0.103251
0.444553 0.630993 0.103128
0.431807 0.603559 0.102222
0.434886 0.603671 0.102125
0.438573 0.604823 0.102062
0.440879 0.603670 0.101938
0.444063 0.604016 0.101863
0.444442 0.599801 0.101666
0.440358 0.588470 0.101278
0.444448 0.590513 0.101272
0.447912 0.591565 0.101245
0.443366 0.580023 0.100878
-0.103605 0.603580 0.101489
-0.101291 0.603905 0.101508
-0.098802 0.603951 0.101527
-0.096122 0.603674 0.101545
-0.094441 0.605511 0.101628
-0.092327 0.606545 0.101697
-0.089670 0.606509 0.101744
-0.087185 0.606890 0.101808
-0.084982 0.607931 0.101897
-0.082861 0.609214 0.101998
-0.079547 0.607929 0.102032
-0.076885 0.608098 0.102112
-0.074360 0.608605 0.102206
-0.071686 0.608803 0.102295
-0.068750 0.608411 0.102369
-0.066320 0.609207 0.102481
-0.064239 0.610860 0.102621
-0.061315 0.610520 0.102704
-0.058066 0.609371 0.102764
-0.054898 0.608382 0.102830
-0.052609 0.609566 0.102962
-0.049815 0.609477 0.103055
-0.046384 0.607719 0.103098
-0.043998 0.608632 0.103221
-0.041581 0.609465 0.103342
-0.038517 0.608545 0.103408
-0.031040 0.595458 0.103092
-0.026203 0.589297 0.102988
-0.032796 0.615256 0.103897
-0.030493 0.616426 0.104024
-0.027153 0.614572 0.104054
-0.033598 0.641624 0.105012
-0.025456 0.625581 0.104583
-0.017648 0.610005 0.104162
-0.014739 0.609115 0.104213
-0.012429 0.610051 0.104323
-0.009153 0.607872 0.104327
-0.001702 0.591941 0.103874
0.001835 0.588437 0.103827
-0.001646 0.608502 0.104565
0.000593 0.609558 0.104669
0.003446 0.608459 0.104699
0.005865 0.608833 0.104776
0.008185 0.609544 0.104862
0.010115 0.611683 0.104995
0.012663 0.611541 0.105049
0.015696 0.609491 0.105035
0.018577 0.607924 0.105035
0.020405 0.610462 0.105175
0.022382 0.612460 0.105295
0.025054 0.611620 0.105315
0.027908 0.609937 0.105303
0.030604 0.608833 0.105309
0.033129 0.608409 0.105338
0.035654 0.607932 0.105362
0.038504 0.605900 0.105331
0.040217 0.609122 0.105482
0.042430 0.610044 0.105551
0.044919 0.609618 0.105571
0.047460 0.608874 0.105578
0.049455 0.610905 0.105682
0.051803 0.611130 0.105720
0.053688 0.613873 0.105847
0.055889 0.614965 0.105913
0.058041 0.616371 0.105990
0.060293 0.617236 0.106046
0.058999 0.639807 0.106879
0.061498 0.639813 0.106902
0.067691 0.615836 0.106064
0.070681 0.611755 0.105937
0.073232 0.610421 0.105908
0.075686 0.609671 0.105898
0.078118 0.609006 0.105891
0.080533 0.608402 0.105884
0.082910 0.608044 0.105885
0.086042 0.601409 0.105659
0.090817 0.580131 0.104901
0.091230 0.596034 0.105488
0.092103 0.609014 0.105968
0.094428 0.609011 0.105977
0.096680 0.609735 0.106012
0.097212 0.628958 0.106717
0.099225 0.633468 0.106888
0.103554 0.610881 0.106075
0.105938 0.610162 0.106054
0.108298 0.609657 0.106041
0.110640 0.609341 0.106033
0.113189 0.605792 0.105908
0.116274 0.592866 0.105441
0.119129 0.581877 0.105043
0.120270 0.602250 0.105785
0.122274 0.608219 0.106003
0.124514 0.609879 0.106063
0.126874 0.608748 0.106022
0.129180 0.608948 0.106028
0.131552 0.606863 0.105951
0.133821 0.608348 0.106003
0.136129 0.608475 0.106005
0.138425 0.609629 0.106044
0.140747 0.609068 0.106020
0.143077 0.606215 0.105912
0.145379 0.605509 0.105882
0.147672 0.603902 0.105819
0.149988 0.606434 0.105905
0.152346 0.610318 0.106041
0.154661 0.609874 0.106018
0.156979 0.609644 0.106003
0.159258 0.608102 0.105940
0.161578 0.608214 0.105937
0.163836 0.606614 0.105871
0.166124 0.606064 0.105843
0.168572 0.609056 0.105943
0.170927 0.609664 0.105956
0.173277 0.610065 0.105961
0.175509 0.608407 0.105891
0.177757 0.607240 0.105839
0.180070 0.607130 0.105824
0.182579 0.609657 0.105904
0.185528 0.617450 0.106173
0.190350 0.618308 0.106179
0.191810 0.608427 0.105811
0.194123 0.608207 0.105790
0.196545 0.609064 0.105807
0.198768 0.607964 0.105754
0.201108 0.607986 0.105740
0.203360 0.607244 0.105698
0.205472 0.605385 0.105616
0.205827 0.589686 0.105040
0.207853 0.587911 0.104960
0.212030 0.602130 0.105451
0.216040 0.614192 0.105863
0.218874 0.617324 0.105956
0.223190 0.630153 0.106393
0.226665 0.636731 0.106607
0.225494 0.613675 0.105768
0.227131 0.609087 0.105584
0.229457 0.608832 0.105554
0.231708 0.608143 0.105507
0.233492 0.604854 0.105368
0.233684 0.593008 0.104928
0.235548 0.590664 0.104822
0.239997 0.601859 0.105191
0.243449 0.607432 0.105361
0.245634 0.606457 0.105300
0.247684 0.604850 0.105217
0.250416 0.606526 0.105247
0.253363 0.609101 0.105307
0.255888 0.609642 0.105296
0.258125 0.608862 0.105237
0.260237 0.607556 0.105160
0.262971 0.608923 0.105174
0.265151 0.607910 0.105104
0.268045 0.609829 0.105135
0.270177 0.608609 0.105056
0.271729 0.605140 0.104899
0.274779 0.607541 0.104942
0.277659 0.609190 0.104958
0.279820 0.608092 0.104879
0.282243 0.607964 0.104832
0.285203 0.609740 0.104848
0.287751 0.609979 0.104810
0.290083 0.609445 0.104744
0.292993 0.610862 0.104743
0.294978 0.609126 0.104634
0.296508 0.605927 0.104475
0.298362 0.603849 0.104353
0.301091 0.604593 0.104323
0.304362 0.606979 0.104345
0.315101 0.632230 0.105119
0.320946 0.641855 0.105372
0.312888 0.609705 0.104254
0.314701 0.607480 0.104117
0.317500 0.608147 0.104073
0.319902 0.607630 0.103988
0.322022 0.606307 0.103875
0.324870 0.607007 0.103826
0.326978 0.605635 0.103708
0.324456 0.591824 0.103194
0.329570 0.598613 0.103333
0.333790 0.602841 0.103387
0.337833 0.606463 0.103418
0.342829 0.612379 0.103517
0.350093 0.616880 0.103477
0.348972 0.607385 0.103094
0.351437 0.606744 0.102980
0.353084 0.604140 0.102805
0.355201 0.602673 0.102663
0.349657 0.583466 0.101992
0.358932 0.598595 0.102341
0.360587 0.596106 0.102164
0.363667 0.596821 0.102079
0.369705 0.603990 0.102179
0.372836 0.604632 0.102086
0.375867 0.605008 0.101983
0.378399 0.604283 0.101847
0.383175 0.608239 0.101841
0.385521 0.607043 0.101688
0.388545 0.607230 0.101572
0.391249 0.606735 0.101436
0.393418 0.605156 0.101269
0.395633 0.603677 0.101106
0.397503 0.601536 0.100924
0.398919 0.598550 0.100722
0.401407 0.597649 0.100574
0.407468 0.603472 0.100601
0.411339 0.605075 0.100517
0.413474 0.603436 0.100352
0.416342 0.603158 0.100223
0.420462 0.605131 0.100152
0.425698 0.609044 0.100130
0.442056 0.632444 0.100581
0.445653 0.633137 0.100480
0.432319 0.604668 0.099688
0.435101 0.604274 0.099575
0.438136 0.604333 0.099478
0.440863 0.603901 0.099375
0.442833 0.602254 0.099250
0.444804 0.600673 0.099134
0.440335 0.588718 0.098789
0.444131 0.590304 0.098761
0.447046 0.590502 0.098709
0.453375 0.596125 0.098786
-0.101720 0.600202 0.098986
-0.101387 0.604433 0.099090
-0.099113 0.604901 0.099117
-0.095631 0.602977 0.099097
-0.096044 0.609109 0.099269
-0.092434 0.607041 0.099262
-0.089651 0.606728 0.099302
-0.086979 0.606695 0.099355
-0.084782 0.607730 0.099439
-0.082549 0.608751 0.099529
-0.079042 0.607015 0.099560
-0.076741 0.607966 0.099658
-0.074406 0.608888 0.099761
-0.071066 0.607548 0.099814
-0.068675 0.608394 0.099922
-0.066468 0.609704 0.100045
-0.063545 0.609345 0.100130
-0.060464 0.608597 0.100207
-0.057760 0.608747 0.100307
-0.055327 0.609567 0.100426
-0.053130 0.610993 0.100561
-0.050062 0.610219 0.100641
-0.046097 0.607081 0.100660
-0.043877 0.608417 0.100793
-0.041501 0.609352 0.100916
-0.037517 0.605937 0.100924
-0.030101 0.592972 0.100678
-0.026316 0.589705 0.100683
-0.032729 0.615162 0.101456
-0.030228 0.615760 0.101567
-0.028423 0.618374 0.101730
-0.034668 0.644896 0.102547
-0.026525 0.628901 0.102200
-0.017759 0.610445 0.101778
-0.015260 0.610835 0.101873
-0.012595 0.610676 0.101950
-0.009997 0.610688 0.102031
-0.001494 0.591363 0.101560
0.002327 0.586902 0.101506
-0.002081 0.610083 0.102240
0.001316 0.607179 0.102228
0.004368 0.605342 0.102244
0.006206 0.607731 0.102380
0.008552 0.608328 0.102462
0.010892 0.608929 0.102542
0.013157 0.609803 0.102628
0.016264 0.607435 0.102617
0.018926 0.606686 0.102651
0.020982 0.608288 0.102753
0.022952 0.610274 0.102865
0.025231 0.611021 0.102938
0.028194 0.608863 0.102922
0.031345 0.605765 0.102876
0.034097 0.604267 0.102875
0.036536 0.604089 0.102912
0.038588 0.605660 0.103001
0.040143 0.609630 0.103162
0.041953 0.612514 0.103288
0.044621 0.611255 0.103286
0.047229 0.610211 0.103289
0.049475 0.610971 0.103346
0.051696 0.611873 0.103406
0.054262 0.610904 0.103406
0.055963 0.614728 0.103553
0.058519 0.613788 0.103552
0.059730 0.620766 0.103795
0.059039 0.639753 0.104412
0.062206 0.635552 0.104305
0.067680 0.616098 0.103720
0.070997 0.609828 0.103545
0.073300 0.610142 0.103574
0.075696 0.609794 0.103582
0.078144 0.609014 0.103574
0.080619 0.607950 0.103557
0.082965 0.607805 0.103567
0.086017 0.601818 0.103393
0.090482 0.583199 0.102818
0.091601 0.592921 0.103136
0.092361 0.606818 0.103586
0.094377 0.609717 0.103687
0.096134 0.615531 0.103880
0.096711 0.634559 0.104490
0.099203 0.633951 0.104478
0.103583 0.610761 0.103751
0.105993 0.609693 0.103723
0.108362 0.609031 0.103707
0.110734 0.608217 0.103686
0.113057 0.608034 0.103683
0.116166 0.594872 0.103269
0.118939 0.585492 0.102974
0.120202 0.603813 0.103556
0.122383 0.606125 0.103630
0.124570 0.608793 0.103715
0.126862 0.609314 0.103731
0.129189 0.608894 0.103717
0.131479 0.609675 0.103740
0.133828 0.608300 0.103694
0.136136 0.608339 0.103693
0.138435 0.609126 0.103714
0.140752 0.608782 0.103700
0.143064 0.608986 0.103702
0.145380 0.604258 0.103548
0.147685 0.607158 0.103634
0.150026 0.611023 0.103751
0.152342 0.610297 0.103722
0.154671 0.610701 0.103728
0.156916 0.607199 0.103610
0.159253 0.608163 0.103633
0.161561 0.607955 0.103619
0.163788 0.605575 0.103535
0.166070 0.605018 0.103509
0.168504 0.607867 0.103590
0.170858 0.608589 0.103603
0.173264 0.610102 0.103641
0.175526 0.608963 0.103594
0.177673 0.606206 0.103497
0.180004 0.606457 0.103494
0.182572 0.609841 0.103588
0.185548 0.617976 0.103831
0.190122 0.615999 0.103743
0.191849 0.609113 0.103514
0.194202 0.609283 0.103505
0.196523 0.609118 0.103486
0.198748 0.608041 0.103437
0.201031 0.607565 0.103407
0.203591 0.609494 0.103451
0.205369 0.604793 0.103288
0.205428 0.586772 0.102712
0.207749 0.587370 0.102714
0.212261 0.604106 0.103215
0.215168 0.608227 0.103324
0.217758 0.609879 0.103356
0.223228 0.630681 0.103978
0.227315 0.641219 0.104281
0.225604 0.614626 0.103440
0.227063 0.608930 0.103243
0.229292 0.608115 0.103195
0.231263 0.605833 0.103102
0.233607 0.605752 0.103076
0.233422 0.591818 0.102625
0.234993 0.587944 0.102482
0.240519 0.604823 0.102971
0.243035 0.605583 0.102967
0.245473 0.605908 0.102949
0.247615 0.604764 0.102885
0.250346 0.606443 0.102906
0.253318 0.609138 0.102957
0.255579 0.608487 0.102905
0.257647 0.606987 0.102827
0.260254 0.607867 0.102820
0.262956 0.609096 0.102821
0.264680 0.606190 0.102698
0.266771 0.604871 0.102622
0.270984 0.612066 0.102797
0.272075 0.606727 0.102598
0.274628 0.607189 0.102571
0.277667 0.609444 0.102595
0.280027 0.609083 0.102540
0.282681 0.609782 0.102516
0.285373 0.610566 0.102492
0.287914 0.610771 0.102449
0.290794 0.612113 0.102438
0.292918 0.610822 0.102349
0.294250 0.606906 0.102183
0.296102 0.604799 0.102069
0.299308 0.607107 0.102079
0.301700 0.606731 0.102010
0.305249 0.609954 0.102042
0.313770 0.628344 0.102498
0.320936 0.642034 0.102816
0.314751 0.615456 0.102005
0.314842 0.608086 0.101732
0.317044 0.607014 0.101633
0.319636 0.607056 0.101563
0.323034 0.609332 0.101552
0.324839 0.607100 0.101416
0.326844 0.605448 0.101294
0.323468 0.589336 0.100782
0.327451 0.593162 0.100805
0.332958 0.600834 0.100927
0.335695 0.601119 0.100849
0.342681 0.612170 0.101050
0.350160 0.617210 0.100994
0.348650 0.606757 0.100628
0.350762 0.605274 0.100493
0.353351 0.604929 0.100384
0.355076 0.602531 0.100221
0.349667 0.583633 0.099648
0.359854 0.600849 0.099969
0.362100 0.599666 0.099831
0.364913 0.599741 0.099722
0.369557 0.603810 0.099707
0.373271 0.605721 0.099636
0.375946 0.605321 0.099508
0.378156 0.603911 0.099355
0.380534 0.602854 0.099208
0.384219 0.604493 0.099122
0.387834 0.605921 0.099029
0.390229 0.604821 0.098877
0.393657 0.605780 0.098770
0.396749 0.606026 0.098646
0.397924 0.602507 0.098441
0.399244 0.599328 0.098245
0.401647 0.598262 0.098094
0.405198 0.599362 0.097988
0.411091 0.604780 0.097971
0.411184 0.599397 0.097735
0.413314 0.597829 0.097579
0.419631 0.603823 0.097574
0.426911 0.611399 0.097598
0.438605 0.626583 0.097768
0.448626 0.638538 0.097873
0.432883 0.605862 0.097146
0.435368 0.604960 0.097023
0.437851 0.604095 0.096906
0.440385 0.603358 0.096798
0.442427 0.601849 0.096682
0.444340 0.600193 0.096571
0.439449 0.587568 0.096276
0.444164 0.590658 0.096265
0.448206 0.592663 0.096243
0.442417 0.579168 0.095963
-0.102267 0.601638 0.096605
-0.100997 0.603993 0.096653
-0.098631 0.604249 0.096672
-0.097911 0.607937 0.096761
-0.094464 0.606136 0.096760
-0.092262 0.606955 0.096814
-0.090019 0.607763 0.096875
-0.087220 0.607449 0.096923
-0.084722 0.607827 0.096991
-0.081864 0.607465 0.097051
-0.079076 0.607289 0.097120
-0.076744 0.608159 0.097213
-0.074336 0.608904 0.097309
-0.070976 0.607503 0.097369
-0.068644 0.608473 0.097478
-0.066353 0.609574 0.097592
-0.063905 0.610337 0.097703
-0.060515 0.608845 0.097772
-0.057666 0.608634 0.097867
-0.055177 0.609305 0.097982
-0.052753 0.610149 0.098101
-0.050074 0.610351 0.098207
-0.045999 0.606922 0.098239
-0.043644 0.607898 0.098361
-0.041296 0.608894 0.098484
-0.038034 0.607426 0.098553
-0.030342 0.593717 0.098357
-0.023987 0.583295 0.098226
-0.031288 0.611168 0.098931
-0.029862 0.614794 0.099108
-0.027936 0.617038 0.099254
-0.034550 0.644637 0.099971
-0.025616 0.626251 0.099650
-0.017796 0.610644 0.099384
-0.015242 0.610865 0.099477
-0.012376 0.610071 0.099543
-0.009816 0.610196 0.099629
-0.001459 0.591337 0.099265
0.002491 0.586446 0.099225
-0.002414 0.611304 0.099892
0.000531 0.609981 0.099934
0.003933 0.606967 0.099933
0.006137 0.608080 0.100030
0.008298 0.609355 0.100128
0.010555 0.610286 0.100216
0.013725 0.607772 0.100218
0.015845 0.609160 0.100313
0.018593 0.608106 0.100346
0.021149 0.607740 0.100393
0.022837 0.610867 0.100527
0.025189 0.611324 0.100591
0.028605 0.607245 0.100539
0.031747 0.604153 0.100508
0.034527 0.602498 0.100512
0.036653 0.603694 0.100588
0.038573 0.605872 0.100687
0.040551 0.607839 0.100779
0.041769 0.613556 0.100966
0.044341 0.612796 0.100985
0.047450 0.609240 0.100929
0.049544 0.610764 0.101003
0.052112 0.609812 0.101012
0.054600 0.609214 0.101027
0.056797 0.610199 0.101083
0.058072 0.616540 0.101279
0.060260 0.617787 0.101340
0.058849 0.641101 0.101984
0.062516 0.633785 0.101815
0.068103 0.613536 0.101301
0.071074 0.609501 0.101215
0.073406 0.609599 0.101238
0.075536 0.611126 0.101298
0.078035 0.610008 0.101286
0.080415 0.609703 0.101294
0.083026 0.607516 0.101251
0.086127 0.601105 0.101094
0.090422 0.583906 0.100645
0.091265 0.596119 0.100985
0.092386 0.606791 0.101284
0.093977 0.613832 0.101484
0.095990 0.617209 0.101584
0.096751 0.634353 0.102056
0.099202 0.634184 0.102059
0.103450 0.612566 0.101483
0.106030 0.609444 0.101404
0.108385 0.608938 0.101396
0.110774 0.607867 0.101371
0.113108 0.607487 0.101365
0.116758 0.585314 0.100768
0.118960 0.585326 0.100770
0.120227 0.603537 0.101264
0.122450 0.604903 0.101302
0.124637 0.607405 0.101370
0.126915 0.608113 0.101389
0.129171 0.609689 0.101430
0.131505 0.609003 0.101410
0.133871 0.606655 0.101344
0.136177 0.606420 0.101335
0.138451 0.608211 0.101380
0.140752 0.609031 0.101398
0.143065 0.608902 0.101391
0.145377 0.610019 0.101416
0.147699 0.610841 0.101433
0.149994 0.607753 0.101343
0.152306 0.607993 0.101343
0.154623 0.608325 0.101345
0.156924 0.607793 0.101324
0.159213 0.607011 0.101295
0.161554 0.608011 0.101313
0.163795 0.606029 0.101251
0.166078 0.605494 0.101228
0.168378 0.605404 0.101216
0.170961 0.610880 0.101353
0.173314 0.611266 0.101352
0.175501 0.608820 0.101276
0.177750 0.607665 0.101233
0.180012 0.606833 0.101199
0.182438 0.608301 0.101226
0.186049 0.624602 0.101649
0.190365 0.619036 0.101472
0.191888 0.609810 0.101212
0.194187 0.609398 0.101187
0.196392 0.608104 0.101137
0.198667 0.607551 0.101106
0.200995 0.607510 0.101089
0.203148 0.605949 0.101031
0.205410 0.605393 0.100999
0.205459 0.587269 0.100503
0.207688 0.587150 0.100482
0.212690 0.607538 0.101000
0.215137 0.608269 0.101000
0.218002 0.611827 0.101073
0.222498 0.626066 0.101425
0.226611 0.636926 0.101686
0.225413 0.613688 0.101056
0.226633 0.606560 0.100847
0.229182 0.607715 0.100853
0.231438 0.607097 0.100813
0.233504 0.605428 0.100744
0.233467 0.592310 0.100379
0.234671 0.586467 0.100202
0.240357 0.604223 0.100633
0.242785 0.604560 0.100613
0.245608 0.606818 0.100642
0.247572 0.604797 0.100559
0.250329 0.606602 0.100574
0.253209 0.608877 0.100599
0.255351 0.607694 0.100536
0.257566 0.606865 0.100480
0.260050 0.607217 0.100453
0.262882 0.609015 0.100462
0.264101 0.604011 0.100298
0.266068 0.602232 0.100214
0.268978 0.604272 0.100225
0.271971 0.606540 0.100240
0.275157 0.609446 0.100269
0.277513 0.609084 0.100215
0.279886 0.608780 0.100161
0.282629 0.609809 0.100139
0.285592 0.611562 0.100133
0.288186 0.611937 0.100091
0.290624 0.611738 0.100034
0.293135 0.611767 0.099980
0.294138 0.606735 0.099804
0.297873 0.610815 0.099844
0.299501 0.607928 0.099716
0.302453 0.609318 0.099689
0.306455 0.613916 0.099734
0.313392 0.627378 0.099983
0.320672 0.641436 0.100240
0.313166 0.610914 0.099463
0.314587 0.607518 0.099315
0.317010 0.607096 0.099233
0.319617 0.607180 0.099160
0.322823 0.608916 0.099123
0.325743 0.609777 0.099063
0.326739 0.605332 0.098883
0.323571 0.589774 0.098458
0.328920 0.597219 0.098538
0.332781 0.600531 0.098523
0.336748 0.603992 0.098508
0.341984 0.610555 0.098556
0.349903 0.616727 0.098491
0.348481 0.606495 0.098177
0.351205 0.606490 0.098075
0.353150 0.604597 0.097932
0.355072 0.602663 0.097786
0.349885 0.584273 0.097312
0.359602 0.600411 0.097522
0.362824 0.601436 0.097428
0.366528 0.603477 0.097351
0.370041 0.605009 0.097262
0.372645 0.604494 0.097131
0.374844 0.603089 0.096982
0.377376 0.602390 0.096845
0.380243 0.602378 0.096718
0.385416 0.607105 0.096673
0.387983 0.606362 0.096530
0.388710 0.601890 0.096321
0.392547 0.603703 0.096219
0.395164 0.603042 0.096075
0.398025 0.602847 0.095938
0.399476 0.599919 0.095757
0.401525 0.598176 0.095596
0.404164 0.597568 0.095454
0.408956 0.600968 0.095375
0.410922 0.599078 0.095215
0.412454 0.596435 0.095048
0.417457 0.600091 0.094974
0.425444 0.608979 0.094976
0.439231 0.627891 0.095116
0.449215 0.639786 0.095154
0.432876 0.606067 0.094580
0.435169 0.604850 0.094454
0.437841 0.604319 0.094344
0.439799 0.602631 0.094226
0.441812 0.601098 0.094116
0.443769 0.599536 0.094014
0.439896 0.588578 0.093805
0.444094 0.590846 0.093767
0.447610 0.592030 0.093724
0.455089 0.599497 0.093765
-0.103086 0.603619 0.094221
-0.100855 0.604050 0.094230
-0.098900 0.605115 0.094257
-0.097282 0.606960 0.094302
-0.094427 0.606350 0.094324
-0.091824 0.606315 0.094362
-0.089698 0.607341 0.094421
-0.088174 0.609727 0.094506
-0.084575 0.607733 0.094541
-0.081246 0.606326 0.094589
-0.078889 0.607071 0.094672
-0.076679 0.608194 0.094765
-0.073981 0.608267 0.094850
-0.071278 0.608354 0.094939
-0.068729 0.608816 0.095037
-0.066512 0.610084 0.095151
-0.063411 0.609285 0.095237
-0.060490 0.608902 0.095332
-0.057566 0.608498 0.095428
-0.055001 0.608971 0.095539
-0.052565 0.609771 0.095656
-0.049951 0.610126 0.095767
-0.045055 0.604564 0.095784
-0.043431 0.607421 0.095934
-0.041831 0.610401 0.096088
-0.038184 0.607907 0.096151
-0.031055 0.595749 0.096051
-0.024069 0.583592 0.095944
-0.031602 0.612129 0.096529
-0.029364 0.613435 0.096652
-0.028091 0.617566 0.096823
-0.025295 0.625360 0.097157
-0.017804 0.610742 0.096987
-0.014988 0.610150 0.097067
-0.012043 0.609095 0.097135
-0.008942 0.607464 0.097191
-0.001231 0.590666 0.096958
0.002065 0.587940 0.096985
-0.001216 0.607334 0.097432
-0.000169 0.612475 0.097608
0.003006 0.610303 0.097640
0.006096 0.608319 0.097674
0.008329 0.609337 0.097764
0.010380 0.611032 0.097866
0.012670 0.611849 0.097948
0.015070 0.612243 0.098020
0.017718 0.611640 0.098069
0.020136 0.611898 0.098134
0.022491 0.612390 0.098201
0.025137 0.611655 0.098242
0.028725 0.606856 0.098196
0.031206 0.606621 0.098241
0.032647 0.610947 0.098380
0.036164 0.606034 0.098324
0.038377 0.606908 0.098388
0.039940 0.610866 0.098514
0.043456 0.605517 0.098442
0.045410 0.607633 0.098527
0.048390 0.604602 0.098499
0.050274 0.607111 0.098589
0.052603 0.607335 0.098628
0.054838 0.608062 0.098677
0.056816 0.610246 0.098755
0.058459 0.614466 0.098877
0.060346 0.617440 0.098970
0.058474 0.643568 0.099568
0.062668 0.633004 0.099364
0.068309 0.612364 0.098936
0.071030 0.609968 0.098906
0.073350 0.610161 0.098932
0.075699 0.610137 0.098951
0.077801 0.611916 0.099009
0.080236 0.611255 0.099012
0.083011 0.607820 0.098952
0.086233 0.600410 0.098803
0.090623 0.582354 0.098415
0.090953 0.599098 0.098800
0.092702 0.604034 0.098922
0.094288 0.610991 0.099088
0.096144 0.615839 0.099207
0.096866 0.633325 0.099606
0.099263 0.633708 0.099624
0.103454 0.612716 0.099161
0.106103 0.608726 0.099078
0.108426 0.608591 0.099081
0.110756 0.608336 0.099080
0.113157 0.606938 0.099052
0.116503 0.589730 0.098669
0.119064 0.583675 0.098536
0.120280 0.602724 0.098965
0.122478 0.604505 0.099006
0.124722 0.605604 0.099030
0.126834 0.610474 0.099139
0.129151 0.610489 0.099138
0.131557 0.607354 0.099066
0.133890 0.606063 0.099035
0.136195 0.605628 0.099022
0.138491 0.605575 0.099018
0.140742 0.610148 0.099116
0.143062 0.609501 0.099097
0.145377 0.607231 0.099041
0.147693 0.609779 0.099092
0.150050 0.614338 0.099188
0.152236 0.603155 0.098931
0.154614 0.608160 0.099036
0.156911 0.607540 0.099014
0.159201 0.606838 0.098990
0.161517 0.607145 0.098989
0.163920 0.609702 0.099036
0.166128 0.606965 0.098966
0.168523 0.608812 0.098997
0.170948 0.610891 0.099032
0.173049 0.606769 0.098930
0.175541 0.609766 0.098984
0.177890 0.610101 0.098980
0.180134 0.608854 0.098940
0.182492 0.609300 0.098936
0.185342 0.615915 0.099069
0.190420 0.619922 0.099128
0.191869 0.609866 0.098892
0.194103 0.608804 0.098853
0.196298 0.607449 0.098807
0.198590 0.607092 0.098783
0.200899 0.606914 0.098762
0.203182 0.606499 0.098735
0.205441 0.605915 0.098704
0.205519 0.588000 0.098296
0.207760 0.587950 0.098276
0.212752 0.608253 0.098697
0.215129 0.608468 0.098681
0.218147 0.613085 0.098759
0.222396 0.625647 0.099007
0.226662 0.637530 0.099238
0.225256 0.612951 0.098687
0.226938 0.608675 0.098571
0.228723 0.605236 0.098473
0.231400 0.607125 0.098487
0.233682 0.606672 0.098451
0.233394 0.592146 0.098116
0.234207 0.584225 0.097921
0.240123 0.603248 0.098294
0.242907 0.605420 0.098310
0.245868 0.608346 0.098340
0.248376 0.608926 0.098320
0.250641 0.608313 0.098274
0.252963 0.607971 0.098233
0.255491 0.608560 0.098209
0.257291 0.605877 0.098118
0.259875 0.606689 0.098097
0.262378 0.607101 0.098067
0.264744 0.606909 0.098023
0.266299 0.603393 0.097910
0.268682 0.603309 0.097866
0.272363 0.608295 0.097923
0.274967 0.608929 0.097890
0.277539 0.609397 0.097853
0.279979 0.609334 0.097803
0.282475 0.609455 0.097756
0.285602 0.611809 0.097750
0.288396 0.612882 0.097718
0.290604 0.611873 0.097643
0.292252 0.608968 0.097531
0.294580 0.608407 0.097462
0.296639 0.606955 0.097374
0.300384 0.610972 0.097389
0.302927 0.611014 0.097326
0.305562 0.611314 0.097266
0.312275 0.624132 0.097435
0.320138 0.640008 0.097655
0.313844 0.613118 0.097089
0.315074 0.609126 0.096942
