ply
format ascii 1.0
comment ---
element vertex 1685
property float x
property float y
property float z
element face 0
property list uchar uint vertex_indices
end_header
-0.115505 0.602775 -0.297817
-0.112833 0.603155 -0.297657
-0.109562 0.602236 -0.296804
-0.106990 0.602811 -0.296742
-0.103973 0.602395 -0.296153
-0.101167 0.602426 -0.295800
-0.098681 0.603171 -0.295824
-0.096041 0.603560 -0.295659
-0.093525 0.604229 -0.295642
-0.089633 0.601610 -0.293896
-0.087915 0.604155 -0.294867
-0.084989 0.603783 -0.294307
-0.082141 0.603570 -0.293833
-0.079341 0.603442 -0.293407
-0.076579 0.603383 -0.293020
-0.073706 0.603005 -0.292470
-0.072065 0.605853 -0.293602
-0.069030 0.605006 -0.292816
-0.066174 0.604595 -0.292260
-0.063036 0.603358 -0.291281
-0.060918 0.604930 -0.291762
-0.058428 0.605457 -0.291705
-0.055893 0.605838 -0.291576
-0.052911 0.604878 -0.290761
-0.050682 0.606123 -0.291086
-0.048203 0.606617 -0.291029
-0.045354 0.605939 -0.290375
-0.042403 0.604883 -0.289533
-0.039580 0.604170 -0.288872
-0.037201 0.604868 -0.288939
-0.035216 0.606882 -0.289682
-0.032790 0.607433 -0.289681
-0.030142 0.607200 -0.289286
-0.027520 0.607019 -0.288922
-0.024668 0.605970 -0.288122
-0.022211 0.606307 -0.288032
-0.025025 0.626542 -0.298036
-0.023469 0.630740 -0.299900
-0.018841 0.622983 -0.295716
-0.016324 0.623351 -0.295651
-0.013111 0.620847 -0.294141
-0.007743 0.609126 -0.287989
-0.003648 0.602317 -0.284328
-0.001369 0.603158 -0.284530
0.000777 0.604615 -0.285046
0.003078 0.605394 -0.285225
0.005813 0.604130 -0.284381
0.008412 0.603430 -0.283825
0.010185 0.606787 -0.285309
0.013551 0.602139 -0.282784
0.015516 0.604576 -0.283814
0.017757 0.605632 -0.284155
0.021018 0.601039 -0.281678
0.024237 0.596380 -0.279174
0.027129 0.593342 -0.277487
0.027885 0.603131 -0.282201
0.029658 0.607122 -0.284023
0.032618 0.603614 -0.282114
0.034430 0.607576 -0.283927
0.036547 0.609671 -0.284813
0.038876 0.610350 -0.284999
0.041979 0.605230 -0.282308
0.044593 0.603506 -0.281310
0.046890 0.604192 -0.281512
0.049085 0.605783 -0.282165
0.051312 0.607218 -0.282745
0.053749 0.606787 -0.282403
0.056148 0.606668 -0.282220
0.058583 0.606144 -0.281840
0.061178 0.603778 -0.280554
0.063457 0.604762 -0.280928
0.065763 0.605518 -0.281193
0.067969 0.607639 -0.282135
0.070345 0.607677 -0.282051
0.072719 0.607706 -0.281967
0.075067 0.608158 -0.282095
0.077429 0.608406 -0.282126
0.079883 0.606882 -0.281288
0.082272 0.606405 -0.280970
0.084559 0.608284 -0.281815
0.086830 0.611109 -0.283129
0.089318 0.607816 -0.281437
0.091772 0.604498 -0.279736
0.094112 0.605035 -0.279936
0.096459 0.605501 -0.280104
0.098808 0.606275 -0.280428
0.101162 0.607427 -0.280940
0.103528 0.607351 -0.280853
0.105878 0.603665 -0.278997
0.108267 0.607874 -0.281021
0.110611 0.606102 -0.280113
0.112969 0.605888 -0.279974
0.115405 0.608859 -0.281402
0.117758 0.608041 -0.280973
0.119883 0.600902 -0.277448
0.122144 0.598937 -0.276465
0.124441 0.598163 -0.276071
0.126887 0.600476 -0.277195
0.129293 0.601602 -0.277740
0.131507 0.599341 -0.276628
0.133598 0.595520 -0.274755
0.136067 0.597560 -0.275760
0.138781 0.602523 -0.278203
0.140957 0.600180 -0.277066
0.143487 0.602196 -0.278072
0.145685 0.600311 -0.277168
0.147858 0.598340 -0.276225
0.150087 0.597096 -0.275642
0.152720 0.599717 -0.276961
0.155692 0.605100 -0.279639
0.158348 0.607275 -0.280746
0.160691 0.606675 -0.280495
0.162793 0.604199 -0.279327
0.164975 0.602493 -0.278540
0.167183 0.601069 -0.277895
0.169509 0.600547 -0.277696
0.171861 0.600214 -0.277593
0.174270 0.600241 -0.277670
0.176341 0.598110 -0.276689
0.179169 0.600713 -0.278040
0.181463 0.599964 -0.277744
0.184494 0.603468 -0.279545
0.187240 0.605152 -0.280453
0.189880 0.606143 -0.281022
0.192324 0.606028 -0.281049
0.194520 0.604629 -0.280443
0.196878 0.604094 -0.280265
0.199194 0.603363 -0.279991
0.201552 0.602848 -0.279824
0.204305 0.604169 -0.280564
0.208601 0.612361 -0.284699
0.209719 0.606182 -0.281734
0.210489 0.598788 -0.278165
0.213463 0.600968 -0.279327
0.215527 0.599313 -0.278590
0.217636 0.597906 -0.277973
0.221239 0.602432 -0.280290
0.224030 0.603651 -0.280967
0.226703 0.604376 -0.281396
0.229131 0.604172 -0.281359
0.231963 0.605455 -0.282054
0.234905 0.607090 -0.282917
0.234419 0.596710 -0.277816
0.234526 0.588759 -0.273910
0.237118 0.589484 -0.274298
0.241318 0.595525 -0.277315
0.244326 0.597508 -0.278311
0.244758 0.591220 -0.275192
0.246441 0.589106 -0.274134
0.248525 0.588331 -0.273730
0.250330 0.586770 -0.272923
0.253199 0.588488 -0.273732
0.254196 0.584664 -0.271779
0.256838 0.585786 -0.272266
0.256188 0.577480 -0.268069
0.258123 0.576766 -0.267621
0.266050 0.592825 -0.275461
0.270825 0.599829 -0.278800
0.268067 0.586257 -0.271947
0.264854 0.571876 -0.264689
0.268381 0.575738 -0.266433
0.270297 0.575349 -0.266063
0.270855 0.571522 -0.263984
0.277101 0.582346 -0.269108
0.278403 0.580512 -0.267982
0.276148 0.569915 -0.262538
0.280894 0.576863 -0.265702
0.285334 0.582969 -0.268431
0.288076 0.584908 -0.269100
-0.191412 0.588432 -0.298038
-0.190358 0.590495 -0.299263
-0.189594 0.593078 -0.300756
-0.187559 0.593765 -0.301188
-0.184044 0.592176 -0.300348
-0.182615 0.593903 -0.301315
-0.180751 0.595002 -0.301917
-0.178096 0.594881 -0.301827
-0.175658 0.595147 -0.301932
-0.173893 0.596559 -0.302649
-0.172342 0.598387 -0.303576
-0.169222 0.597652 -0.303073
-0.166407 0.597451 -0.302845
-0.163942 0.597873 -0.302942
-0.160820 0.597198 -0.302419
-0.158796 0.598451 -0.302936
-0.155890 0.598199 -0.302611
-0.152753 0.597553 -0.302054
-0.149918 0.597456 -0.301782
-0.147766 0.598623 -0.302187
-0.145254 0.599167 -0.302236
-0.142533 0.599349 -0.302073
-0.139574 0.599097 -0.301661
-0.137615 0.600759 -0.302280
-0.134863 0.600934 -0.302077
-0.131599 0.600120 -0.301326
-0.128789 0.600187 -0.301044
-0.125760 0.599819 -0.300519
-0.122886 0.599754 -0.300150
-0.120170 0.600007 -0.299947
-0.117301 0.599943 -0.299566
-0.114694 0.600422 -0.299473
-0.111441 0.599526 -0.298635
-0.109820 0.602125 -0.299673
-0.106437 0.600918 -0.298661
-0.103305 0.600219 -0.297922
-0.100828 0.600962 -0.297953
-0.098238 0.601451 -0.297847
-0.095495 0.601579 -0.297547
-0.091982 0.599881 -0.296274
-0.090800 0.603668 -0.297923
-0.087532 0.602498 -0.296934
-0.085225 0.603630 -0.297169
-0.082774 0.604410 -0.297218
-0.079262 0.602508 -0.295850
-0.076405 0.602202 -0.295331
-0.073385 0.601435 -0.294572
-0.071083 0.602514 -0.294789
-0.069153 0.604600 -0.295537
-0.065625 0.602362 -0.294017
-0.063145 0.602931 -0.293975
-0.060767 0.603776 -0.294082
-0.058544 0.605062 -0.294421
-0.056078 0.605655 -0.294402
-0.053406 0.605627 -0.294063
-0.050710 0.605494 -0.293674
-0.048097 0.605582 -0.293404
-0.045377 0.605309 -0.292952
-0.042584 0.604764 -0.292364
-0.039712 0.603911 -0.291623
-0.037496 0.605158 -0.291974
-0.035124 0.605897 -0.292065
-0.032823 0.606878 -0.292286
-0.029789 0.605310 -0.291196
-0.027290 0.605553 -0.291046
-0.023818 0.602247 -0.289076
-0.021307 0.602330 -0.288855
-0.020924 0.610417 -0.292746
-0.020455 0.618482 -0.296623
-0.018081 0.619363 -0.296816
-0.015001 0.617416 -0.295567
-0.011805 0.614875 -0.294021
-0.007306 0.606713 -0.289613
-0.003411 0.600742 -0.286336
-0.000805 0.600128 -0.285798
0.001267 0.601870 -0.286466
0.003623 0.602351 -0.286494
0.006808 0.598905 -0.284532
0.009124 0.599475 -0.284616
0.010469 0.604887 -0.287160
0.012912 0.604940 -0.286988
0.015217 0.605691 -0.287173
0.017437 0.606920 -0.287605
0.021658 0.597051 -0.282428
0.024720 0.593207 -0.280307
0.026345 0.597599 -0.282351
0.028840 0.596932 -0.281844
0.030193 0.603391 -0.284934
0.032437 0.604456 -0.285306
0.035581 0.599502 -0.282651
0.037415 0.603318 -0.284415
0.039638 0.604563 -0.284889
0.042423 0.601658 -0.283281
0.044494 0.604078 -0.284352
0.046026 0.611073 -0.287721
0.048125 0.613829 -0.288965
0.050986 0.610014 -0.286916
0.054262 0.601938 -0.282740
0.056689 0.601344 -0.282318
0.059135 0.600462 -0.281756
0.061388 0.601569 -0.282192
0.063615 0.603082 -0.282836
0.065845 0.604714 -0.283542
0.067926 0.608494 -0.285323
0.070399 0.607291 -0.284619
0.072808 0.606851 -0.284300
0.075154 0.607334 -0.284446
0.077538 0.607204 -0.284289
0.079959 0.606286 -0.283744
0.082314 0.606587 -0.283810
0.084548 0.609908 -0.285384
0.086857 0.612060 -0.286378
0.089369 0.608257 -0.284411
0.091885 0.602778 -0.281616
0.094220 0.603400 -0.281861
0.096537 0.605609 -0.282899
0.098886 0.606889 -0.283479
0.101255 0.606780 -0.283371
0.103623 0.607167 -0.283513
0.105993 0.607146 -0.283457
0.108360 0.606700 -0.283194
0.110735 0.607099 -0.283354
0.113064 0.604936 -0.282246
0.115518 0.608575 -0.284023
0.117810 0.605637 -0.282538
0.119962 0.599542 -0.279490
0.122261 0.598559 -0.278984
0.124591 0.598450 -0.278916
0.126942 0.598740 -0.279050
0.129501 0.602677 -0.280998
0.131874 0.602851 -0.281082
0.133888 0.597541 -0.278448
0.136179 0.596858 -0.278114
0.138670 0.598842 -0.279109
0.141383 0.603282 -0.281327
0.143803 0.603777 -0.281590
0.146245 0.604425 -0.281934
0.148177 0.599698 -0.279612
0.150401 0.598289 -0.278941
0.152762 0.598259 -0.278959
0.155648 0.602873 -0.281288
0.158366 0.605624 -0.282695
0.160769 0.605540 -0.282698
0.162881 0.603159 -0.281563
0.165121 0.601897 -0.280987
0.167304 0.600294 -0.280245
0.169639 0.599829 -0.280072
0.171923 0.599032 -0.279736
0.174539 0.600417 -0.280490
0.176707 0.598874 -0.279789
0.178540 0.595360 -0.278109
0.181463 0.598468 -0.279729
0.184572 0.602427 -0.281777
0.187243 0.603701 -0.282490
0.189805 0.604292 -0.282864
0.192241 0.604175 -0.282887
0.194790 0.604614 -0.283189
0.197194 0.604297 -0.283115
0.199716 0.604550 -0.283326
0.202062 0.603944 -0.283108
0.205012 0.606134 -0.284287
0.208192 0.609240 -0.285926
0.209759 0.605121 -0.283950
0.210790 0.598885 -0.280912
0.212662 0.596450 -0.279772
0.215901 0.599711 -0.281482
0.218433 0.600002 -0.281701
0.221273 0.601491 -0.282518
0.224230 0.603373 -0.283527
0.226808 0.603756 -0.283781
0.229274 0.603724 -0.283822
0.231596 0.603181 -0.283600
0.233664 0.601773 -0.282938
0.235277 0.598850 -0.281507
0.235886 0.592616 -0.278408
0.238093 0.592003 -0.278119
0.241077 0.593999 -0.279130
0.244718 0.598091 -0.281183
0.246344 0.595645 -0.279945
0.248570 0.595196 -0.279699
0.251802 0.597908 -0.281026
0.255887 0.603168 -0.283618
0.253494 0.588903 -0.276407
0.256122 0.589926 -0.276850
0.255634 0.581908 -0.272749
0.255553 0.575332 -0.269359
0.256916 0.573066 -0.268118
0.267282 0.596000 -0.279471
0.268144 0.592238 -0.277449
0.270049 0.591463 -0.276906
0.266659 0.576581 -0.269306
0.267069 0.572178 -0.266931
0.275032 0.587661 -0.274457
0.279154 0.592919 -0.276863
0.277307 0.582888 -0.271644
0.281678 0.588820 -0.274354
0.285333 0.592892 -0.276119
0.287487 0.593231 -0.276014
0.286797 0.586686 -0.272487
-0.191617 0.592572 -0.302894
-0.189460 0.592996 -0.303216
-0.186367 0.592007 -0.302734
-0.184562 0.593062 -0.303370
-0.182009 0.592989 -0.303360
-0.179848 0.593578 -0.303699
-0.177865 0.594500 -0.304205
-0.173177 0.591069 -0.302271
-0.170901 0.591575 -0.302507
-0.169682 0.593877 -0.303724
-0.168424 0.596189 -0.304927
-0.165762 0.596204 -0.304834
-0.162803 0.595741 -0.304458
-0.160611 0.596623 -0.304810
-0.158165 0.597106 -0.304923
-0.155548 0.597322 -0.304870
-0.149945 0.592246 -0.301869
-0.148696 0.594925 -0.303149
-0.147129 0.597103 -0.304135
-0.145231 0.598738 -0.304804
-0.143209 0.600194 -0.305358
-0.140704 0.600788 -0.305422
-0.137605 0.600274 -0.304862
-0.134793 0.600311 -0.304595
-0.131645 0.599698 -0.303959
-0.128634 0.599347 -0.303459
-0.125880 0.599505 -0.303228
-0.123057 0.599525 -0.302913
-0.120014 0.599095 -0.302345
-0.117494 0.599735 -0.302355
-0.114644 0.599691 -0.301986
-0.112203 0.600513 -0.302083
-0.110154 0.602190 -0.302639
-0.105926 0.599131 -0.300618
-0.103163 0.599229 -0.300310
-0.100720 0.600033 -0.300383
-0.097936 0.600065 -0.300035
-0.095388 0.600625 -0.299972
-0.093084 0.601755 -0.300214
-0.091175 0.603838 -0.300968
-0.088894 0.605062 -0.301257
-0.085218 0.602881 -0.299719
-0.082180 0.602198 -0.298988
-0.079173 0.601547 -0.298278
-0.076371 0.601378 -0.297829
-0.073412 0.600769 -0.297147
-0.071149 0.601952 -0.297425
-0.069517 0.604838 -0.298610
-0.066518 0.604061 -0.297849
-0.063399 0.602900 -0.296888
-0.060978 0.603638 -0.296939
-0.058515 0.604250 -0.296927
-0.056031 0.604790 -0.296880
-0.053445 0.605017 -0.296672
-0.050747 0.604887 -0.296281
-0.048134 0.604981 -0.296011
-0.045424 0.604747 -0.295574
-0.042726 0.604513 -0.295142
-0.040249 0.604953 -0.295068
-0.037616 0.604864 -0.294723
-0.035183 0.605414 -0.294716
-0.032758 0.605977 -0.294720
-0.031933 0.612105 -0.297632
-0.026051 0.600497 -0.291299
-0.022889 0.598239 -0.289852
-0.020523 0.598799 -0.289878
-0.019074 0.602807 -0.291698
-0.019927 0.615808 -0.298185
-0.016276 0.611639 -0.295764
-0.013121 0.609251 -0.294274
-0.009954 0.606675 -0.292694
-0.006751 0.603798 -0.290967
-0.003778 0.601749 -0.289675
-0.001805 0.603971 -0.290592
0.000142 0.606388 -0.291612
0.002478 0.607102 -0.291757
0.005145 0.606254 -0.291104
0.007932 0.604755 -0.290121
0.010241 0.605525 -0.290309
0.012618 0.605959 -0.290329
0.014755 0.607655 -0.290999
0.017281 0.607313 -0.290630
0.021354 0.598316 -0.285835
0.022376 0.606235 -0.289702
0.025954 0.599515 -0.286088
0.027807 0.602860 -0.287621
0.030078 0.603760 -0.287909
0.033605 0.596517 -0.284049
0.035957 0.596655 -0.283959
0.038220 0.597399 -0.284180
0.040587 0.597422 -0.284040
0.042907 0.597772 -0.284068
0.045264 0.597833 -0.283954
0.047792 0.596477 -0.283125
0.050001 0.597702 -0.283610
0.051853 0.602183 -0.285749
0.053999 0.604322 -0.286703
0.056760 0.600626 -0.284703
0.059289 0.598905 -0.283710
0.061394 0.601584 -0.284948
0.063242 0.607528 -0.287840
0.065709 0.606599 -0.287258
0.068004 0.607774 -0.287744
0.070458 0.606849 -0.287172
0.072881 0.606220 -0.286754
0.075285 0.605791 -0.286441
0.077651 0.605921 -0.286414
0.079981 0.606779 -0.286759
0.082312 0.607773 -0.287175
0.084619 0.609584 -0.288007
0.086960 0.610909 -0.288597
0.089410 0.609101 -0.287612
0.091919 0.604235 -0.285093
0.094334 0.601518 -0.283660
0.096594 0.607196 -0.286457
0.099021 0.602066 -0.283819
0.101352 0.605531 -0.285508
0.103719 0.606072 -0.285731
0.106089 0.606079 -0.285689
0.108456 0.605757 -0.285486
0.110820 0.605379 -0.285258
0.113250 0.608404 -0.286745
0.115616 0.607635 -0.286329
0.117840 0.602480 -0.283713
0.120093 0.599565 -0.282227
0.122386 0.598322 -0.281585
0.124771 0.599315 -0.282070
0.127215 0.601259 -0.283038
0.129602 0.601773 -0.283291
0.132326 0.607675 -0.286254
0.134371 0.602418 -0.283616
0.136596 0.600388 -0.282602
0.138925 0.599955 -0.282396
0.141511 0.602684 -0.283781
0.144157 0.605746 -0.285338
0.146447 0.604570 -0.284769
0.148628 0.602368 -0.283689
0.150613 0.598441 -0.281746
0.152720 0.596000 -0.280552
0.155234 0.597361 -0.281274
0.158052 0.601148 -0.283219
0.160496 0.601551 -0.283467
0.162749 0.600402 -0.282937
0.164929 0.598768 -0.282167
0.167252 0.598257 -0.281965
0.169624 0.598094 -0.281941
0.172104 0.598649 -0.282281
0.174829 0.600718 -0.283388
0.176908 0.598586 -0.282380
0.178898 0.596026 -0.281160
0.181525 0.597342 -0.281894
0.184650 0.601392 -0.284011
0.187285 0.602476 -0.284634
0.189853 0.603114 -0.285034
0.192525 0.604249 -0.285687
0.195111 0.604863 -0.286078
0.197608 0.604989 -0.286223
0.199908 0.604145 -0.285879
0.202792 0.606073 -0.286935
0.205390 0.606588 -0.287277
0.208304 0.608480 -0.288316
0.210254 0.606065 -0.287173
0.211597 0.601158 -0.284767
0.212442 0.594391 -0.281415
0.214453 0.592684 -0.280620
0.225237 0.626125 -0.297631
0.229196 0.631454 -0.300398
0.232585 0.597083 -0.283213
0.233433 0.591613 -0.280463
0.235998 0.592227 -0.280792
0.238072 0.591199 -0.280278
0.239908 0.589450 -0.279389
0.241799 0.587971 -0.278627
0.247274 0.598001 -0.283693
0.250003 0.599124 -0.284228
0.253893 0.603836 -0.286571
0.257135 0.606472 -0.287847
0.259234 0.605651 -0.287358
0.254379 0.584400 -0.276503
0.256845 0.585086 -0.276754
0.258562 0.583653 -0.275918
0.259721 0.580736 -0.274318
0.263429 0.585047 -0.276361
0.269330 0.595321 -0.281400
0.269029 0.588560 -0.277815
0.268627 0.581756 -0.274199
0.269153 0.577631 -0.271925
0.276616 0.591778 -0.278842
0.279033 0.592623 -0.279038
0.279527 0.588600 -0.276773
0.281653 0.588843 -0.276640
0.287157 0.597559 -0.280740
0.288895 0.596857 -0.280099
0.290309 0.595435 -0.279085
-0.188629 0.591860 -0.305068
-0.185562 0.590877 -0.304598
-0.183134 0.590917 -0.304684
-0.180186 0.590171 -0.304311
-0.177954 0.590594 -0.304575
-0.175289 0.590360 -0.304452
-0.173256 0.591187 -0.304907
-0.170483 0.590849 -0.304687
-0.168836 0.592405 -0.305514
-0.167223 0.594081 -0.306388
-0.165200 0.595127 -0.306891
-0.162963 0.595859 -0.307198
-0.161027 0.597155 -0.307803
-0.158079 0.596739 -0.307430
-0.154955 0.596033 -0.306877
-0.152383 0.596317 -0.306862
-0.148620 0.594487 -0.305647
-0.146388 0.595422 -0.305965
-0.144709 0.597417 -0.306859
-0.142302 0.598117 -0.307014
-0.140214 0.599450 -0.307507
-0.137590 0.599805 -0.307441
-0.134672 0.599611 -0.307056
-0.131711 0.599339 -0.306617
-0.128736 0.599038 -0.306152
-0.126067 0.599344 -0.306015
-0.123200 0.599262 -0.305652
-0.119572 0.597617 -0.304417
-0.117683 0.599535 -0.305146
-0.114997 0.599825 -0.304967
-0.112610 0.600751 -0.305132
-0.109584 0.600317 -0.304543
-0.106624 0.600004 -0.304017
-0.103283 0.598829 -0.303014
-0.100799 0.599532 -0.303040
-0.098091 0.599729 -0.302785
-0.095411 0.599981 -0.302559
-0.093294 0.601539 -0.303045
-0.091364 0.603569 -0.303784
-0.088663 0.603779 -0.303530
-0.085594 0.603073 -0.302780
-0.082129 0.601342 -0.301476
-0.079171 0.600812 -0.300827
-0.076462 0.600877 -0.300503
-0.073970 0.601484 -0.300473
-0.071641 0.602513 -0.300672
-0.068950 0.602576 -0.300353
-0.067015 0.604675 -0.301132
-0.064614 0.605524 -0.301240
-0.061133 0.603336 -0.299722
-0.058474 0.603398 -0.299416
-0.056105 0.604274 -0.299550
-0.053501 0.604455 -0.299315
-0.050370 0.603032 -0.298229
-0.048169 0.604371 -0.298621
-0.045333 0.603750 -0.297973
-0.043383 0.605883 -0.298794
-0.040629 0.605473 -0.298267
-0.037743 0.604585 -0.297492
-0.035099 0.604441 -0.297118
-0.033510 0.607859 -0.298631
-0.029567 0.603196 -0.295879
-0.027769 0.605922 -0.297033
-0.023672 0.600418 -0.293854
-0.020173 0.596865 -0.291714
-0.018760 0.600985 -0.293615
-0.017482 0.605768 -0.295865
-0.015684 0.608684 -0.297135
-0.011714 0.602987 -0.293894
-0.008875 0.601645 -0.292944
-0.006483 0.602084 -0.292931
-0.004072 0.602437 -0.292877
-0.002196 0.605122 -0.294045
0.000107 0.605985 -0.294265
0.002860 0.604793 -0.293419
0.005045 0.606194 -0.293928
0.007474 0.606454 -0.293847
0.009712 0.607649 -0.294256
0.012334 0.606921 -0.293671
0.014646 0.607750 -0.293899
0.017275 0.606884 -0.293252
0.019522 0.608065 -0.293670
0.022545 0.604841 -0.291812
0.025154 0.603837 -0.291109
0.027489 0.604409 -0.291226
0.029474 0.607190 -0.292486
0.033009 0.600055 -0.288635
0.035686 0.598163 -0.287494
0.037526 0.601951 -0.289286
0.039589 0.604384 -0.290382
0.041635 0.607099 -0.291625
0.043889 0.608386 -0.292136
0.046533 0.606573 -0.291058
0.049122 0.605040 -0.290129
0.051670 0.603703 -0.289306
0.053949 0.604723 -0.289696
0.056460 0.603549 -0.288965
0.059167 0.600197 -0.287123
0.061353 0.602119 -0.287987
0.063425 0.605561 -0.289633
0.065639 0.607675 -0.290601
0.068066 0.607259 -0.290279
0.070473 0.607020 -0.290051
0.072929 0.605998 -0.289427
0.075329 0.605682 -0.289169
0.077719 0.605473 -0.288968
0.080037 0.606609 -0.289459
0.082359 0.607894 -0.290029
0.084689 0.609267 -0.290647
0.087081 0.609276 -0.290574
0.089564 0.606268 -0.288967
0.092017 0.603236 -0.287353
0.094388 0.602655 -0.286992
0.096735 0.603335 -0.287277
0.098969 0.616023 -0.293680
0.103822 0.625586 -0.298441
0.106310 0.628002 -0.299623
0.108810 0.629261 -0.300220
0.113401 0.609952 -0.290326
0.115511 0.598770 -0.284611
0.117871 0.599337 -0.284874
0.120272 0.600859 -0.285627
0.122363 0.594427 -0.282341
0.124614 0.592853 -0.281528
0.127288 0.599788 -0.285044
0.129850 0.603445 -0.286898
0.134873 0.607484 -0.288954
0.137596 0.611958 -0.291235
0.139510 0.605292 -0.287859
0.141852 0.604643 -0.287544
0.143966 0.601430 -0.285929
0.146433 0.602356 -0.286423
0.148846 0.602613 -0.286581
0.151073 0.600987 -0.285785
0.153050 0.597181 -0.283884
0.155347 0.596525 -0.283587
0.157677 0.596169 -0.283448
0.159962 0.595451 -0.283127
0.162685 0.598168 -0.284558
0.164924 0.597032 -0.284032
0.167295 0.596905 -0.284022
0.170228 0.600644 -0.285984
0.172216 0.597790 -0.284591
0.174591 0.597602 -0.284559
0.177004 0.597633 -0.284641
0.179364 0.597329 -0.284555
0.181944 0.598305 -0.285123
0.184664 0.599992 -0.286057
0.187609 0.602809 -0.287569
0.190305 0.604108 -0.288309
0.192828 0.604421 -0.288547
0.195250 0.604187 -0.288505
0.197888 0.605018 -0.289009
0.200582 0.606061 -0.289621
0.202925 0.605398 -0.289360
0.205459 0.605631 -0.289557
0.207602 0.604100 -0.288850
0.209880 0.603228 -0.288477
0.211520 0.599670 -0.286727
0.212242 0.592446 -0.283094
0.215574 0.596177 -0.285070
0.222984 0.616019 -0.295299
0.225094 0.614337 -0.294495
0.223474 0.598464 -0.286409
0.222016 0.583848 -0.278958
0.230201 0.605264 -0.289980
0.232445 0.604456 -0.289597
0.233111 0.598116 -0.286368
0.236245 0.600600 -0.287657
0.239098 0.602065 -0.288415
0.241409 0.601689 -0.288218
0.243868 0.601843 -0.288283
0.246811 0.603594 -0.289156
0.248440 0.601138 -0.287860
0.248737 0.594625 -0.284472
0.251356 0.595519 -0.284870
0.254950 0.599386 -0.286779
0.255206 0.593202 -0.283523
0.253606 0.581778 -0.277574
0.252271 0.571504 -0.272204
0.262221 0.593865 -0.283523
0.260179 0.581811 -0.277219
0.270934 0.605762 -0.289304
0.268890 0.593969 -0.283108
0.269358 0.589351 -0.280567
0.270151 0.585775 -0.278546
0.272633 0.586808 -0.278860
0.272617 0.581349 -0.275857
0.276237 0.585456 -0.277707
0.279822 0.589437 -0.279474
0.280455 0.585942 -0.277432
0.283787 0.589309 -0.278855
0.287701 0.594097 -0.280979
-0.184141 0.588809 -0.305902
-0.181350 0.588236 -0.305655
-0.179921 0.589848 -0.306631
-0.178062 0.590837 -0.307234
-0.175845 0.591302 -0.307522
-0.173637 0.591825 -0.307824
-0.172462 0.594091 -0.309096
-0.169192 0.592956 -0.308420
-0.166281 0.592434 -0.308073
-0.164112 0.593189 -0.308432
-0.163440 0.596546 -0.310248
-0.160734 0.596492 -0.310111
-0.158186 0.596740 -0.310127
-0.154847 0.595626 -0.309354
-0.152115 0.595595 -0.309178
-0.149245 0.595337 -0.308857
-0.146337 0.595028 -0.308491
-0.143518 0.594894 -0.308209
-0.141090 0.595503 -0.308331
-0.138907 0.596602 -0.308715
-0.137217 0.598679 -0.309635
-0.134075 0.598022 -0.309002
-0.131312 0.598096 -0.308768
-0.128425 0.597935 -0.308392
-0.125496 0.597694 -0.307959
-0.122989 0.598302 -0.307993
-0.120728 0.599430 -0.308309
-0.117671 0.598938 -0.307709
-0.114693 0.598594 -0.307186
-0.112093 0.599042 -0.307099
-0.109612 0.599752 -0.307151
-0.106853 0.599864 -0.306865
-0.104203 0.600214 -0.306706
-0.100820 0.598914 -0.305629
-0.098024 0.598900 -0.305263
-0.095465 0.599419 -0.305190
-0.093032 0.600228 -0.305274
-0.091046 0.602105 -0.305945
-0.088506 0.602683 -0.305897
-0.085283 0.601593 -0.304933
-0.082160 0.600695 -0.304076
-0.079316 0.600447 -0.303579
-0.076700 0.600754 -0.303387
-0.074188 0.601314 -0.303334
-0.071211 0.600642 -0.302611
-0.068672 0.601095 -0.302504
-0.066802 0.603354 -0.303383
-0.064642 0.604859 -0.303851
-0.061388 0.603313 -0.302666
-0.058589 0.602989 -0.302148
-0.056227 0.603892 -0.302299
-0.053663 0.604200 -0.302131
-0.050847 0.603735 -0.301550
-0.048178 0.603673 -0.301191
-0.045488 0.603512 -0.300784
-0.043492 0.605512 -0.301542
-0.041156 0.606462 -0.301740
-0.037713 0.603784 -0.299995
-0.035103 0.603758 -0.299679
-0.032656 0.604255 -0.299648
-0.029903 0.603682 -0.299049
-0.026332 0.600161 -0.296883
-0.023126 0.597787 -0.295338
-0.020649 0.597972 -0.295162
-0.018145 0.598029 -0.294924
-0.016308 0.600621 -0.296037
-0.014048 0.601634 -0.296314
-0.011291 0.600676 -0.295550
-0.008824 0.600831 -0.295381
-0.007097 0.604059 -0.296843
-0.004953 0.605623 -0.297427
-0.002526 0.605988 -0.297381
-0.000030 0.606036 -0.297172
0.002564 0.605603 -0.296715
0.004980 0.605957 -0.296677
0.007095 0.607759 -0.297405
0.009104 0.610152 -0.298447
0.011947 0.608391 -0.297310
0.014648 0.607251 -0.296505
0.017121 0.607244 -0.296300
0.019464 0.607931 -0.296463
0.022517 0.604568 -0.294511
0.024964 0.604545 -0.294312
0.027345 0.604887 -0.294308
0.029396 0.607307 -0.295394
0.031628 0.608682 -0.295937
0.034843 0.603515 -0.293072
0.037358 0.602822 -0.292546
0.039570 0.604239 -0.293125
0.041717 0.606234 -0.294007
0.044079 0.606678 -0.294086
0.046428 0.607242 -0.294231
0.048713 0.608369 -0.294672
0.051002 0.609538 -0.295139
0.053570 0.608193 -0.294304
0.056423 0.603888 -0.291940
0.058974 0.602220 -0.290948
0.061354 0.602196 -0.290814
0.063550 0.604273 -0.291772
0.065791 0.606034 -0.292569
0.068157 0.606368 -0.292631
0.070527 0.606667 -0.292679
0.072914 0.606733 -0.292611
0.075328 0.606327 -0.292302
0.077698 0.606624 -0.292361
0.080098 0.606359 -0.292134
0.082442 0.607240 -0.292503
0.084798 0.608031 -0.292829
0.087232 0.606827 -0.292129
0.089735 0.602881 -0.290020
0.092149 0.600886 -0.288922
0.094461 0.602975 -0.289934
0.096764 0.607001 -0.291947
0.099098 0.612187 -0.294561
0.101514 0.610996 -0.293893
0.103919 0.610355 -0.293513
0.106366 0.618383 -0.297600
0.108827 0.620015 -0.298398
0.111178 0.613583 -0.295049
0.113478 0.607799 -0.292039
0.115843 0.606768 -0.291480
0.118109 0.602839 -0.289434
0.120583 0.605715 -0.290892
0.122970 0.605762 -0.290900
0.125332 0.605226 -0.290612
0.127699 0.604836 -0.290403
0.130111 0.605287 -0.290631
0.132291 0.601893 -0.288885
0.134754 0.603200 -0.289561
0.137597 0.609548 -0.292834
0.139905 0.608100 -0.292101
0.142052 0.604856 -0.290448
0.143895 0.598493 -0.287195
0.146212 0.597916 -0.286921
0.148780 0.599927 -0.287983
0.151486 0.603041 -0.289617
0.153686 0.601155 -0.288681
0.155755 0.598269 -0.287234
0.158706 0.603027 -0.289725
0.161055 0.602501 -0.289500
0.163591 0.603439 -0.290032
0.166033 0.603579 -0.290156
0.168485 0.603751 -0.290300
0.170849 0.603283 -0.290117
0.172946 0.601044 -0.289024
0.175017 0.598767 -0.287913
0.177395 0.598520 -0.287851
0.180122 0.600375 -0.288876
0.182456 0.599801 -0.288649
0.185298 0.602114 -0.289914
0.188430 0.605872 -0.291928
0.190700 0.604793 -0.291445
0.193250 0.605213 -0.291737
0.195444 0.603800 -0.291082
0.198056 0.604502 -0.291520
0.200788 0.605736 -0.292233
0.203124 0.605050 -0.291952
0.204878 0.601731 -0.290307
0.205903 0.595320 -0.287058
0.207852 0.593224 -0.286039
0.208849 0.587177 -0.282971
0.212064 0.590620 -0.284815
0.215326 0.594106 -0.286677
0.220000 0.603072 -0.291378
0.223531 0.607222 -0.293577
0.221502 0.589982 -0.284680
0.222750 0.585708 -0.282497
0.227852 0.595758 -0.287738
0.231986 0.601959 -0.290976
0.233903 0.600117 -0.290033
0.236935 0.602238 -0.291137
0.239349 0.602203 -0.291112
0.241491 0.601292 -0.290623
0.243911 0.601355 -0.290629
0.246541 0.602133 -0.290994
0.249299 0.603331 -0.291564
0.247553 0.590431 -0.284815
0.248432 0.586067 -0.282480
0.250631 0.585880 -0.282297
0.252412 0.584500 -0.281484
0.255868 0.588132 -0.283252
0.258892 0.590457 -0.284328
0.266176 0.592372 -0.284849
0.268165 0.591875 -0.284407
0.270159 0.591461 -0.283994
0.272189 0.591205 -0.283648
0.275225 0.593674 -0.284690
0.277409 0.593914 -0.284569
0.280071 0.595438 -0.285092
0.280945 0.592423 -0.283272
0.283058 0.592659 -0.283107
0.285431 0.593593 -0.283285
-0.181376 0.588425 -0.308225
-0.180594 0.591039 -0.309799
-0.179144 0.592667 -0.310789
-0.176270 0.592060 -0.310481
-0.174160 0.592722 -0.310881
-0.172623 0.594372 -0.311829
-0.169874 0.594076 -0.311643
-0.165576 0.591215 -0.309968
-0.163779 0.592557 -0.310684
-0.162037 0.594052 -0.311469
-0.160555 0.596056 -0.312527
-0.156772 0.594118 -0.311309
-0.154304 0.594484 -0.311393
-0.151627 0.594510 -0.311265
-0.148789 0.594273 -0.310970
-0.145964 0.594075 -0.310681
-0.143221 0.594046 -0.310473
-0.140674 0.594400 -0.310468
-0.138520 0.595516 -0.310883
-0.136205 0.596368 -0.311132
-0.133442 0.596391 -0.310895
-0.130323 0.595733 -0.310259
-0.127782 0.596206 -0.310254
-0.124853 0.595926 -0.309811
-0.122245 0.596290 -0.309722
-0.119934 0.597275 -0.309974
-0.117701 0.598447 -0.310323
-0.114538 0.597699 -0.309578
-0.111477 0.597145 -0.308937
-0.109177 0.598208 -0.309200
-0.106920 0.599387 -0.309522
-0.104271 0.599724 -0.309364
-0.101067 0.598816 -0.308504
-0.099770 0.602201 -0.310045
-0.095274 0.598302 -0.307507
-0.093013 0.599498 -0.307816
-0.090605 0.600362 -0.307937
-0.087951 0.600642 -0.307731
-0.084730 0.599529 -0.306750
-0.081736 0.598928 -0.306055
-0.079380 0.599887 -0.306226
-0.077090 0.601020 -0.306494
-0.074057 0.600244 -0.305706
-0.071310 0.600171 -0.305309
-0.068841 0.600812 -0.305308
-0.066604 0.602076 -0.305652
-0.064128 0.602700 -0.305645
-0.061533 0.602980 -0.305451
-0.058568 0.602192 -0.304675
-0.056123 0.602854 -0.304698
-0.054004 0.604470 -0.305245
-0.050948 0.603307 -0.304277
-0.047970 0.602310 -0.303405
-0.045597 0.603127 -0.303526
-0.043396 0.604487 -0.303947
-0.040728 0.604365 -0.303565
-0.037630 0.602804 -0.302407
-0.035090 0.603012 -0.302214
-0.033100 0.605067 -0.303026
-0.029746 0.602450 -0.301314
-0.025205 0.595504 -0.297273
-0.022975 0.596576 -0.297571
-0.021182 0.599274 -0.298747
-0.018615 0.599145 -0.298404
-0.015893 0.598386 -0.297727
-0.012999 0.596894 -0.296663
-0.010616 0.597348 -0.296649
-0.008748 0.599901 -0.297764
-0.007245 0.604067 -0.299745
-0.005221 0.606168 -0.300622
-0.002933 0.607183 -0.300921
-0.000121 0.605865 -0.299979
0.002608 0.604835 -0.299197
0.004911 0.605729 -0.299446
0.007024 0.607561 -0.300198
0.009317 0.608570 -0.300515
0.012864 0.603206 -0.297450
0.015513 0.602224 -0.296721
0.017898 0.602580 -0.296707
0.020287 0.602905 -0.296681
0.021613 0.609292 -0.299870
0.025902 0.598591 -0.294015
0.027800 0.601719 -0.295487
0.029623 0.605495 -0.297302
0.031864 0.606787 -0.297808
0.034151 0.607833 -0.298188
0.037300 0.602916 -0.295427
0.039560 0.604031 -0.295852
0.041889 0.604683 -0.296037
0.044242 0.605178 -0.296143
0.046602 0.605633 -0.296232
0.048907 0.606565 -0.296576
0.051117 0.608407 -0.297402
0.053453 0.609218 -0.297690
0.056156 0.606479 -0.296119
0.059250 0.599389 -0.292271
0.061430 0.601447 -0.293227
0.063616 0.603663 -0.294269
0.065987 0.603845 -0.294249
0.068251 0.605444 -0.294974
0.070624 0.605707 -0.295004
0.072937 0.606894 -0.295521
0.075368 0.606311 -0.295117
0.077754 0.606417 -0.295077
0.080151 0.606297 -0.294923
0.082544 0.606197 -0.294784
0.084889 0.607272 -0.295262
0.087351 0.605303 -0.294156
0.089849 0.601431 -0.292061
0.092243 0.600086 -0.291290
0.094559 0.602024 -0.292235
0.096887 0.604497 -0.293462
0.099239 0.607104 -0.294764
0.101621 0.608781 -0.295583
0.104020 0.608709 -0.295496
0.106419 0.608684 -0.295438
0.108820 0.608865 -0.295490
0.111193 0.607130 -0.294550
0.113575 0.606589 -0.294235
0.115940 0.605580 -0.293681
0.118318 0.605291 -0.293506
0.120716 0.605594 -0.293643
0.123080 0.604947 -0.293290
0.125426 0.604044 -0.292808
0.127910 0.605941 -0.293787
0.130226 0.604521 -0.293044
0.132578 0.603881 -0.292711
0.135041 0.604951 -0.293272
0.137461 0.605232 -0.293427
0.139967 0.606569 -0.294135
0.142266 0.605201 -0.293440
0.144859 0.607297 -0.294550
0.146447 0.598370 -0.289928
0.148911 0.599234 -0.290405
0.151799 0.604086 -0.292963
0.154398 0.605779 -0.293879
0.156423 0.602263 -0.292087
0.159150 0.604914 -0.293510
0.161542 0.604619 -0.293402
0.163810 0.603369 -0.292799
0.166239 0.603382 -0.292858
0.168766 0.604067 -0.293270
0.171331 0.604936 -0.293780
0.173968 0.606207 -0.294503
0.175472 0.600105 -0.291382
0.178208 0.602016 -0.292444
0.180866 0.603315 -0.293188
0.182975 0.601328 -0.292219
0.185446 0.601483 -0.292368
0.188388 0.604190 -0.293853
0.191236 0.606228 -0.294989
0.193360 0.604397 -0.294103
0.195635 0.603407 -0.293658
0.197797 0.601907 -0.292944
0.200647 0.603765 -0.293985
0.202890 0.602695 -0.293494
0.205114 0.601586 -0.292980
0.205237 0.591195 -0.287603
0.207126 0.588945 -0.286485
0.209053 0.586959 -0.285501
0.211392 0.586776 -0.285457
0.214759 0.590777 -0.287602
0.216697 0.588946 -0.286685
0.219283 0.589717 -0.287127
0.220957 0.586998 -0.285733
0.222385 0.583486 -0.283915
0.227508 0.593658 -0.289267
0.231362 0.598910 -0.292031
0.233923 0.599427 -0.292303
0.236884 0.601339 -0.293297
0.239949 0.603567 -0.294447
0.241708 0.601384 -0.293273
0.242987 0.597731 -0.291317
0.245225 0.597338 -0.291058
0.249701 0.604107 -0.294542
0.250259 0.598450 -0.291500
0.248165 0.584849 -0.284288
0.248768 0.579882 -0.281588
0.251757 0.582234 -0.282707
0.255114 0.585646 -0.284365
0.255944 0.581684 -0.282153
0.255494 0.574219 -0.278101
0.257074 0.572733 -0.277160
0.262103 0.580936 -0.281260
0.266842 0.588179 -0.284838
0.270773 0.593101 -0.287187
0.273645 0.595117 -0.288005
0.276076 0.595974 -0.288205
0.278616 0.597153 -0.288556
0.280281 0.596101 -0.287736
0.282904 0.597577 -0.288211
0.283985 0.595183 -0.286669
-0.183500 0.591938 -0.312704
-0.182985 0.594982 -0.314556
-0.179399 0.593198 -0.313597
-0.174926 0.589989 -0.311794
-0.173783 0.592179 -0.313099
-0.171597 0.592731 -0.313436
-0.169484 0.593447 -0.313850
-0.165578 0.591207 -0.312534
-0.162329 0.590066 -0.311837
-0.161175 0.592512 -0.313197
-0.158708 0.592773 -0.313275
-0.155981 0.592614 -0.313092
-0.153160 0.592314 -0.312809
-0.151017 0.593241 -0.313218
-0.148314 0.593205 -0.313054
-0.145558 0.593095 -0.312830
-0.142886 0.593159 -0.312691
-0.140843 0.594413 -0.313222
-0.137984 0.594180 -0.312881
-0.134918 0.593565 -0.312306
-0.133721 0.596543 -0.313783
-0.131633 0.597870 -0.314296
-0.127800 0.595808 -0.312850
-0.125184 0.596126 -0.312760
-0.121450 0.594206 -0.311376
-0.119105 0.595076 -0.311581
-0.117003 0.596475 -0.312078
-0.114706 0.597503 -0.312353
-0.111507 0.596640 -0.311541
-0.108823 0.596861 -0.311340
-0.106648 0.598191 -0.311763
-0.104120 0.598769 -0.311752
-0.101324 0.598755 -0.311399
-0.098236 0.598070 -0.310663
-0.096337 0.600087 -0.311452
-0.093135 0.599108 -0.310543
-0.090151 0.598602 -0.309902
-0.087372 0.598558 -0.309519
-0.084731 0.598831 -0.309314
-0.081931 0.598701 -0.308881
-0.079170 0.598644 -0.308491
-0.076705 0.599318 -0.308510
-0.074174 0.599819 -0.308433
-0.071012 0.598659 -0.307429
-0.069319 0.601352 -0.308577
-0.066500 0.601058 -0.308060
-0.063926 0.601405 -0.307903
-0.061518 0.602200 -0.307996
-0.058638 0.601653 -0.307347
-0.055706 0.600911 -0.306595
-0.053503 0.602260 -0.307004
-0.050724 0.601903 -0.306472
-0.048186 0.602239 -0.306327
-0.045729 0.602810 -0.306316
-0.043278 0.603390 -0.306313
-0.040843 0.604017 -0.306339
-0.037947 0.603126 -0.305536
-0.035526 0.603758 -0.305573
-0.033164 0.604581 -0.305720
-0.029191 0.599836 -0.302824
-0.024549 0.592516 -0.298533
-0.023038 0.596136 -0.300225
-0.020960 0.597789 -0.300846
-0.018989 0.599887 -0.301711
-0.016222 0.598997 -0.300954
-0.013181 0.596968 -0.299585
-0.010151 0.594865 -0.298182
-0.008585 0.598615 -0.299960
-0.006885 0.601948 -0.301513
-0.005196 0.605454 -0.303160
-0.002892 0.606402 -0.303426
-0.000362 0.606359 -0.303162
0.002612 0.604244 -0.301784
0.005132 0.604133 -0.301493
0.007429 0.605059 -0.301766
0.011578 0.596823 -0.297113
0.015229 0.590653 -0.293583
0.017894 0.589265 -0.292632
0.019374 0.594149 -0.295053
0.021498 0.595724 -0.295700
0.024672 0.591377 -0.293177
0.026838 0.592656 -0.293675
0.028817 0.595133 -0.294816
0.030613 0.598896 -0.296648
0.032631 0.601442 -0.297831
0.034812 0.603043 -0.298513
0.037242 0.603001 -0.298321
0.039821 0.601852 -0.297544
0.042086 0.602944 -0.297966
0.044409 0.603646 -0.298183
0.046762 0.604133 -0.298291
0.049100 0.604766 -0.298480
0.051526 0.604644 -0.298272
0.053484 0.608848 -0.300366
0.056086 0.607141 -0.299324
0.058944 0.602578 -0.296772
0.061811 0.597377 -0.293888
0.063607 0.603913 -0.297233
0.065975 0.604218 -0.297278
0.068175 0.606758 -0.298510
0.070639 0.605907 -0.297950
0.073099 0.604957 -0.297342
0.075343 0.607377 -0.298522
0.077832 0.605816 -0.297600
0.080216 0.606001 -0.297606
0.082586 0.606500 -0.297782
0.084976 0.606607 -0.297754
0.087291 0.608899 -0.298885
0.089856 0.603537 -0.295979
0.092226 0.603832 -0.296064
0.094684 0.599799 -0.293870
0.097022 0.601159 -0.294526
0.099353 0.604750 -0.296362
0.101732 0.605882 -0.296905
0.104123 0.607481 -0.297697
0.106519 0.607192 -0.297499
0.108882 0.604110 -0.295835
0.111217 0.601238 -0.294285
0.113673 0.605371 -0.296429
0.116068 0.605514 -0.296476
0.118499 0.606746 -0.297100
0.120887 0.606430 -0.296913
0.123203 0.604418 -0.295838
0.125585 0.604225 -0.295724
0.127991 0.604511 -0.295867
0.130384 0.604469 -0.295841
0.132792 0.604634 -0.295928
0.135243 0.605393 -0.296333
0.137719 0.606339 -0.296839
0.140130 0.606306 -0.296834
0.142609 0.607067 -0.297251
0.144888 0.605440 -0.296415
0.147184 0.604153 -0.295761
0.149210 0.600244 -0.293730
0.151803 0.602128 -0.294754
0.154416 0.604003 -0.295776
0.156866 0.604251 -0.295946
0.159378 0.604967 -0.296365
0.161776 0.604686 -0.296261
0.164241 0.604910 -0.296428
0.166465 0.603323 -0.295642
0.169017 0.604159 -0.296136
0.171865 0.606931 -0.297655
0.173804 0.603492 -0.295899
0.176160 0.602920 -0.295658
0.178900 0.604738 -0.296680
0.181874 0.607820 -0.298372
0.183337 0.601938 -0.295331
0.186000 0.603142 -0.296033
0.188868 0.605376 -0.297281
0.191346 0.605404 -0.297363
0.193614 0.604336 -0.296866
0.196020 0.604008 -0.296759
0.198503 0.604065 -0.296855
0.200196 0.600346 -0.294952
0.202826 0.601165 -0.295448
0.205999 0.604405 -0.297224
0.208027 0.602419 -0.296230
0.209826 0.599537 -0.294757
0.208426 0.583253 -0.286179
0.211347 0.585572 -0.287452
0.214506 0.588767 -0.289185
0.215280 0.582384 -0.285835
0.217115 0.580392 -0.284806
0.219688 0.581309 -0.285313
0.222535 0.583224 -0.286342
0.226010 0.587384 -0.288554
0.231155 0.597403 -0.293864
0.233781 0.598208 -0.294279
0.237075 0.601319 -0.295907
0.238165 0.596869 -0.293515
0.241965 0.601650 -0.296006
0.243033 0.597342 -0.293669
0.244863 0.595672 -0.292718
0.249768 0.603860 -0.296975
0.251306 0.601310 -0.295533
0.250963 0.593102 -0.291083
0.250838 0.585847 -0.287129
0.251803 0.582108 -0.285024
0.253926 0.581931 -0.284789
0.254073 0.576076 -0.281543
0.255271 0.573443 -0.279988
0.256877 0.572080 -0.279090
0.260656 0.576850 -0.281410
0.265259 0.583809 -0.284863
0.269339 0.589226 -0.287484
0.269238 0.583371 -0.284167
0.277182 0.598989 -0.292105
0.279118 0.598588 -0.291618
0.281285 0.598853 -0.291466
0.282687 0.597214 -0.290304
-0.180558 0.591306 -0.314890
-0.179721 0.593865 -0.316473
-0.176093 0.591998 -0.315452
-0.171827 0.589093 -0.313806
-0.171928 0.593349 -0.316328
-0.168265 0.591470 -0.315245
-0.163785 0.588222 -0.313344
-0.160916 0.587667 -0.312999
-0.160750 0.591748 -0.315345
-0.157927 0.591358 -0.315060
-0.155264 0.591269 -0.314933
-0.152957 0.591832 -0.315169
-0.150754 0.592618 -0.315518
-0.148103 0.592642 -0.315405
-0.145042 0.591945 -0.314854
-0.142462 0.592140 -0.314808
-0.140516 0.593536 -0.315445
-0.137771 0.593481 -0.315221
-0.133950 0.591402 -0.313806
-0.132188 0.593244 -0.314656
-0.130711 0.595696 -0.315846
-0.128854 0.597473 -0.316628
-0.125250 0.595825 -0.315412
-0.121447 0.593745 -0.313937
-0.118392 0.593143 -0.313307
-0.116764 0.595479 -0.314366
-0.115491 0.598619 -0.315876
-0.111590 0.596271 -0.314212
-0.108598 0.595813 -0.313631
-0.105880 0.595936 -0.313377
-0.103812 0.597487 -0.313937
-0.100912 0.597217 -0.313445
-0.098601 0.598264 -0.313704
-0.096117 0.598933 -0.313740
-0.092737 0.597523 -0.312585
-0.089919 0.597384 -0.312155
-0.087416 0.597984 -0.312143
-0.084851 0.598433 -0.312044
-0.082821 0.600197 -0.312689
-0.079395 0.598503 -0.311370
-0.076414 0.597866 -0.310653
-0.073821 0.598190 -0.310481
-0.072366 0.601484 -0.311987
-0.069388 0.600807 -0.311249
-0.066483 0.600282 -0.310601
-0.063951 0.600739 -0.310508
-0.061732 0.602062 -0.310902
-0.059025 0.602016 -0.310530
-0.056590 0.602727 -0.310585
-0.053314 0.600969 -0.309261
-0.050656 0.600966 -0.308924
-0.048383 0.602107 -0.309228
-0.046039 0.603041 -0.309420
-0.043636 0.603792 -0.309513
-0.041094 0.604097 -0.309361
-0.038584 0.604488 -0.309261
-0.035988 0.604579 -0.308999
-0.032474 0.601535 -0.307004
-0.028913 0.598182 -0.304847
-0.025280 0.594411 -0.302469
-0.021939 0.591509 -0.300578
-0.021470 0.598988 -0.304422
-0.019405 0.600778 -0.305127
-0.016556 0.599616 -0.304211
-0.012355 0.593101 -0.300358
-0.010330 0.594946 -0.301108
-0.007439 0.593315 -0.299955
-0.006378 0.599210 -0.302932
-0.004766 0.603002 -0.304756
-0.002584 0.604452 -0.305301
-0.000056 0.604397 -0.305026
0.002345 0.604890 -0.305055
0.005120 0.603621 -0.304129
0.007729 0.603060 -0.303594
0.009812 0.605041 -0.304449
0.012132 0.605892 -0.304692
0.014677 0.605589 -0.304311
0.017569 0.603376 -0.302899
0.019952 0.603821 -0.302936
0.022503 0.603301 -0.302454
0.024735 0.604602 -0.302963
0.027078 0.605283 -0.303140
0.029873 0.603145 -0.301797
0.032564 0.601506 -0.300731
0.035084 0.600868 -0.300210
0.036895 0.605097 -0.302321
0.037090 0.621288 -0.310885
0.038882 0.626734 -0.313651
0.040700 0.632392 -0.316532
0.045928 0.631586 -0.315776
0.049802 0.619863 -0.309319
0.053523 0.608413 -0.303021
0.056504 0.603017 -0.299986
0.058917 0.602886 -0.299784
0.061377 0.602209 -0.299294
0.063660 0.603461 -0.299842
0.065926 0.605059 -0.300580
0.068213 0.606574 -0.301277
0.070517 0.608034 -0.301948
0.072916 0.608274 -0.301970
0.075397 0.607155 -0.301269
0.077868 0.605997 -0.300552
0.080215 0.607030 -0.301011
0.082658 0.606170 -0.300463
0.084941 0.609051 -0.301918
0.087684 0.599548 -0.296761
0.089856 0.605983 -0.300123
0.092307 0.603680 -0.298822
0.094751 0.600571 -0.297096
0.097148 0.598462 -0.295909
0.099473 0.601942 -0.297707
0.101844 0.602538 -0.297971
0.104225 0.605216 -0.299349
0.106614 0.604848 -0.299107
0.108967 0.601499 -0.297281
0.111344 0.601730 -0.297367
0.113789 0.604893 -0.299020
0.116169 0.604398 -0.298727
0.118607 0.605833 -0.299467
0.121002 0.605683 -0.299367
0.123402 0.605653 -0.299335
0.125838 0.606343 -0.299691
0.128114 0.603840 -0.298350
0.130373 0.601456 -0.297077
0.132891 0.603538 -0.298186
0.135119 0.601021 -0.296850
0.137629 0.602679 -0.297741
0.140120 0.603828 -0.298366
0.142335 0.601528 -0.297157
0.144773 0.601964 -0.297409
0.147098 0.601130 -0.296988
0.149374 0.599853 -0.296335
0.151798 0.600097 -0.296496
0.154408 0.601989 -0.297539
0.156975 0.603300 -0.298275
0.159480 0.603964 -0.298670
0.161966 0.604388 -0.298939
0.164367 0.604109 -0.298838
0.166854 0.604458 -0.299073
0.169685 0.607192 -0.300584
0.172155 0.607249 -0.300670
0.174129 0.604013 -0.298999
0.176040 0.600577 -0.297223
0.178754 0.602284 -0.298194
0.181210 0.602334 -0.298282
0.183737 0.602770 -0.298577
0.186428 0.604089 -0.299344
0.189010 0.604728 -0.299749
0.191507 0.604866 -0.299886
0.193928 0.604597 -0.299805
0.196164 0.603410 -0.299232
0.198624 0.603373 -0.299272
0.200755 0.601765 -0.298470
0.202942 0.600494 -0.297846
0.206084 0.603611 -0.299568
0.207035 0.596899 -0.296023
0.208390 0.592242 -0.293574
0.208792 0.583783 -0.289083
0.211857 0.586696 -0.290679
0.213527 0.583859 -0.289188
0.215418 0.582026 -0.288229
0.217362 0.580493 -0.287425
0.219379 0.579318 -0.286805
0.222351 0.581759 -0.288116
0.226363 0.587929 -0.291417
0.230642 0.594845 -0.295109
0.234206 0.599022 -0.297323
0.236382 0.598289 -0.296894
0.239702 0.601497 -0.298567
0.241684 0.600165 -0.297796
0.243912 0.599727 -0.297491
0.245635 0.597710 -0.296330
0.247484 0.596202 -0.295429
0.249595 0.595604 -0.295003
0.250685 0.591931 -0.292919
0.250792 0.585440 -0.289319
0.252464 0.583856 -0.288329
0.253260 0.579789 -0.286002
0.254658 0.577635 -0.284683
0.255838 0.574963 -0.283077
0.258799 0.577438 -0.284199
0.261405 0.578911 -0.284773
0.262433 0.576066 -0.283036
0.264292 0.575596 -0.282550
0.267854 0.579752 -0.284504
0.276953 0.598508 -0.294171
0.279144 0.598817 -0.294043
0.280992 0.598289 -0.293458
-0.176286 0.588542 -0.315807
-0.174647 0.589815 -0.316642
-0.172551 0.590399 -0.317054
-0.169180 0.588931 -0.316238
-0.168994 0.592755 -0.318526
-0.165077 0.590434 -0.317170
-0.161220 0.588202 -0.315848
-0.159106 0.588933 -0.316257
-0.157973 0.591403 -0.317674
-0.153900 0.588829 -0.316097
-0.153306 0.592353 -0.318099
-0.150514 0.592069 -0.317838
-0.147701 0.591768 -0.317550
-0.144769 0.591269 -0.317129
-0.141837 0.590783 -0.316699
-0.140094 0.592513 -0.317556
-0.137764 0.593200 -0.317785
-0.134010 0.591221 -0.316430
-0.132950 0.594383 -0.318082
-0.130146 0.594248 -0.317783
-0.127903 0.595224 -0.318121
-0.124143 0.593221 -0.316701
-0.120964 0.592345 -0.315932
-0.119189 0.594317 -0.316816
-0.117951 0.597451 -0.318366
-0.114567 0.596186 -0.317337
-0.111905 0.596417 -0.317172
-0.108655 0.595395 -0.316269
-0.105101 0.593685 -0.314960
-0.102674 0.594404 -0.315057
-0.101266 0.597412 -0.316474
-0.098903 0.598334 -0.316674
-0.095786 0.597545 -0.315878
-0.092732 0.596869 -0.315145
-0.090030 0.596993 -0.314870
-0.087181 0.596757 -0.314386
-0.085849 0.600179 -0.316004
-0.082120 0.597783 -0.314274
-0.080005 0.599332 -0.314809
-0.076482 0.597337 -0.313311
-0.073972 0.597872 -0.313264
-0.072142 0.600180 -0.314230
-0.069159 0.599476 -0.313475
-0.066427 0.599407 -0.313084
-0.064314 0.601008 -0.313645
-0.061852 0.601663 -0.313668
-0.059427 0.602421 -0.313751
-0.056543 0.601859 -0.313088
-0.053712 0.601403 -0.312489
-0.051231 0.601950 -0.312461
-0.048707 0.602359 -0.312357
-0.046361 0.603303 -0.312559
-0.043857 0.603757 -0.312487
-0.041345 0.604174 -0.312398
-0.038738 0.604268 -0.312130
-0.036288 0.604857 -0.312145
-0.033112 0.602986 -0.310785
-0.028843 0.597242 -0.307264
-0.023796 0.588506 -0.302083
-0.022218 0.591836 -0.303655
-0.020939 0.596365 -0.305897
-0.019799 0.601574 -0.308517
-0.013197 0.586139 -0.299645
-0.012113 0.591513 -0.302366
-0.009283 0.590139 -0.301338
-0.007772 0.594042 -0.303244
-0.006355 0.598491 -0.305453
-0.004390 0.600778 -0.306464
-0.002338 0.602770 -0.307316
-0.000334 0.605040 -0.308323
0.002262 0.604684 -0.307884
0.004633 0.605334 -0.308004
0.007342 0.604361 -0.307235
0.009855 0.604277 -0.306961
0.012176 0.605137 -0.307211
0.014557 0.605699 -0.307301
0.017210 0.604806 -0.306597
0.019888 0.603691 -0.305776
0.022150 0.604854 -0.306211
0.024855 0.603451 -0.305243
0.027122 0.604587 -0.305672
0.029816 0.603100 -0.304669
0.032288 0.602916 -0.304384
0.034460 0.604707 -0.305184
0.037314 0.601854 -0.303451
0.038265 0.612493 -0.309086
0.040158 0.616877 -0.311307
0.042449 0.618481 -0.312016
0.045279 0.615809 -0.310400
0.047625 0.616984 -0.310883
0.050141 0.616724 -0.310591
0.053632 0.607313 -0.305328
0.056544 0.602599 -0.302629
0.058952 0.602556 -0.302472
0.061226 0.603938 -0.303093
0.063573 0.604623 -0.303340
0.065931 0.605226 -0.303547
0.068239 0.606558 -0.304152
0.070594 0.607381 -0.304486
0.073020 0.607233 -0.304299
0.075416 0.607519 -0.304350
0.077809 0.607900 -0.304457
0.080339 0.605594 -0.303115
0.082725 0.605950 -0.303218
0.085110 0.606391 -0.303371
0.087589 0.604219 -0.302117
0.090082 0.600802 -0.300195
0.092395 0.603301 -0.301473
0.094859 0.599314 -0.299254
0.097276 0.595670 -0.297224
0.099596 0.598717 -0.298811
0.101950 0.600986 -0.299980
0.104330 0.604542 -0.301848
0.106703 0.601400 -0.300108
0.109077 0.600983 -0.299842
0.111451 0.600864 -0.299741
0.113889 0.603654 -0.301211
0.116291 0.604002 -0.301370
0.118688 0.604054 -0.301374
0.121114 0.604835 -0.301774
0.123552 0.605666 -0.302206
0.125965 0.605777 -0.302254
0.128141 0.601344 -0.299857
0.130205 0.595753 -0.296842
0.132607 0.596381 -0.297180
0.134978 0.596428 -0.297210
0.137414 0.597314 -0.297695
0.139852 0.598093 -0.298127
0.142223 0.597948 -0.298064
0.144724 0.599236 -0.298778
0.147018 0.598172 -0.298227
0.149398 0.598062 -0.298194
0.151827 0.598395 -0.298404
0.154346 0.599484 -0.299024
0.157928 0.609661 -0.304547
0.164348 0.621487 -0.311009
0.166057 0.615221 -0.307676
0.170455 0.610926 -0.305458
0.172691 0.609238 -0.304600
0.174703 0.606169 -0.302998
0.176492 0.601879 -0.300736
0.178356 0.598309 -0.298865
0.180916 0.599085 -0.299341
0.183602 0.600531 -0.300180
0.186440 0.602724 -0.301424
0.189054 0.603563 -0.301936
0.191453 0.603213 -0.301804
0.193894 0.603094 -0.301797
0.196438 0.603486 -0.302065
0.198154 0.599826 -0.300138
0.200549 0.599575 -0.300053
0.203125 0.600168 -0.300423
0.204607 0.595795 -0.298101
0.204775 0.585844 -0.292753
0.205853 0.580274 -0.289772
0.209883 0.587393 -0.293658
0.210777 0.581296 -0.290381
0.212882 0.580353 -0.289890
0.215844 0.582848 -0.291255
0.218103 0.582541 -0.291094
0.221401 0.586204 -0.293077
0.223036 0.583566 -0.291638
0.226071 0.586159 -0.293025
0.230598 0.594015 -0.297252
0.233630 0.596367 -0.298487
0.237065 0.600058 -0.300437
0.239049 0.598737 -0.299660
