ply
format ascii 1.0
comment ---
element vertex 1696
property float x
property float y
property float z
element face 0
property list uchar uint vertex_indices
end_header
0.111617 0.602403 -0.136885
0.114944 0.601876 -0.136989
0.118936 0.609990 -0.138628
0.122405 0.610726 -0.138957
0.126282 0.616051 -0.140104
0.129627 0.614957 -0.140106
0.132870 0.612862 -0.139927
0.136184 0.611626 -0.139900
0.139450 0.610000 -0.139802
0.142458 0.606129 -0.139298
0.145580 0.603528 -0.139021
0.149374 0.606695 -0.139780
0.153341 0.610973 -0.140742
0.156351 0.607489 -0.140302
0.159403 0.604528 -0.139954
0.162850 0.604568 -0.140148
0.166500 0.605979 -0.140590
0.170604 0.610313 -0.141564
0.173741 0.608032 -0.141335
0.176841 0.605615 -0.141080
0.179771 0.602261 -0.140652
0.183539 0.604051 -0.141163
0.187258 0.605423 -0.141597
0.190286 0.602784 -0.141297
0.193712 0.602433 -0.141415
0.197243 0.602625 -0.141632
0.200615 0.601942 -0.141688
0.204120 0.601933 -0.141867
0.208140 0.604436 -0.142510
0.213420 0.612875 -0.144251
0.216827 0.612043 -0.144280
0.219526 0.607951 -0.143704
0.221387 0.600226 -0.142452
0.224801 0.599659 -0.142525
0.228452 0.600100 -0.142786
0.232515 0.602232 -0.143362
0.236377 0.603409 -0.143761
0.241633 0.610156 -0.145201
0.244695 0.607884 -0.144956
0.247734 0.605581 -0.144705
0.251448 0.605912 -0.144946
0.256021 0.609418 -0.145783
0.259801 0.609845 -0.146043
0.263387 0.609524 -0.146162
0.266990 0.609242 -0.146288
0.268968 0.603283 -0.145341
0.273058 0.604722 -0.145790
0.276276 0.603151 -0.145670
0.279300 0.600964 -0.145432
0.282569 0.599610 -0.145350
0.285368 0.596773 -0.144986
0.291485 0.604423 -0.146616
0.296681 0.608950 -0.147654
0.301033 0.610735 -0.148171
0.304768 0.610584 -0.148319
0.307850 0.608481 -0.148092
0.307959 0.597777 -0.146217
0.311696 0.597740 -0.146382
0.316119 0.599610 -0.146913
0.320177 0.600382 -0.147233
0.324148 0.600859 -0.147496
0.328685 0.602820 -0.148045
0.334652 0.608494 -0.149310
0.336948 0.604358 -0.148683
0.340779 0.604271 -0.148836
0.342715 0.599324 -0.148047
0.346027 0.597941 -0.147946
0.350837 0.600276 -0.148566
0.354195 0.598965 -0.148477
0.362206 0.608894 -0.150575
0.364963 0.606007 -0.150179
0.366797 0.600989 -0.149365
0.369801 0.598785 -0.149097
0.377670 0.607756 -0.151013
0.383196 0.611164 -0.151843
0.383791 0.603430 -0.150490
0.386730 0.601025 -0.150178
0.390390 0.600216 -0.150177
0.392834 0.596774 -0.149657
0.399499 0.602359 -0.150911
0.404785 0.604876 -0.151563
0.408031 0.603058 -0.151358
0.409833 0.598281 -0.150567
0.418567 0.607639 -0.152568
0.416924 0.595937 -0.150402
0.421760 0.597306 -0.150821
0.426189 0.597805 -0.151066
0.430447 0.597922 -0.151233
0.434773 0.598127 -0.151417
0.439440 0.598930 -0.151718
0.443095 0.597781 -0.151630
0.446501 0.596151 -0.151443
0.456912 0.607336 -0.153811
0.460211 0.605358 -0.153553
0.461548 0.599867 -0.152589
0.463725 0.595936 -0.151934
0.469600 0.598521 -0.152580
0.473308 0.597250 -0.152453
0.478261 0.598091 -0.152747
0.485304 0.602411 -0.153738
0.490657 0.603754 -0.154130
0.492646 0.599436 -0.153382
0.496801 0.598715 -0.153354
0.501836 0.599390 -0.153605
0.504957 0.596920 -0.153220
0.507908 0.594178 -0.152777
0.511918 0.593108 -0.152669
0.513326 0.587955 -0.151733
0.516205 0.585121 -0.151263
0.531150 0.600700 -0.154516
0.534999 0.599149 -0.154302
0.539495 0.598541 -0.154277
0.546807 0.602054 -0.155085
0.548639 0.597415 -0.154237
0.551232 0.593917 -0.153618
0.554883 0.591951 -0.153307
0.560546 0.592822 -0.153571
0.564206 0.590806 -0.153246
0.568976 0.590317 -0.153230
0.575767 0.592566 -0.153769
0.581017 0.592612 -0.153859
0.585115 0.591048 -0.153619
0.589475 0.589812 -0.153445
0.599000 0.595379 -0.154658
0.602724 0.593187 -0.154288
0.611985 0.598166 -0.155382
0.613338 0.592850 -0.154372
0.611317 0.583304 -0.152497
0.614535 0.580495 -0.151999
0.612113 0.570676 -0.150067
0.635691 0.586229 -0.153415
0.637339 0.581464 -0.152524
0.641457 0.579727 -0.152256
0.647277 0.580024 -0.152409
0.658184 0.586281 -0.153792
0.666545 0.589445 -0.154546
0.672918 0.590253 -0.154821
0.679785 0.591611 -0.155217
0.683036 0.588856 -0.154773
0.685862 0.585687 -0.154250
0.693834 0.588318 -0.154933
0.701446 0.590532 -0.155539
0.706435 0.589870 -0.155561
0.708727 0.586334 -0.154997
0.710015 0.581820 -0.154240
0.709739 0.575761 -0.153169
-0.152461 0.601642 -0.119831
-0.149016 0.600669 -0.119870
-0.145433 0.599356 -0.119869
-0.142507 0.600440 -0.120251
-0.139440 0.601211 -0.120596
-0.136491 0.602577 -0.121046
-0.133212 0.602918 -0.121349
-0.129749 0.602719 -0.121578
-0.126202 0.602310 -0.121783
-0.122821 0.602640 -0.122113
-0.119164 0.601994 -0.122298
-0.115766 0.602449 -0.122663
-0.112456 0.603362 -0.123106
-0.108998 0.603763 -0.123476
-0.105468 0.603934 -0.123814
-0.101839 0.603724 -0.124095
-0.098221 0.603594 -0.124393
-0.094808 0.604418 -0.124846
-0.090991 0.603421 -0.125009
-0.087539 0.604121 -0.125446
-0.084087 0.604852 -0.125890
-0.080535 0.605115 -0.126258
-0.077013 0.605530 -0.126652
-0.073470 0.605833 -0.127027
-0.069733 0.605078 -0.127229
-0.065908 0.603752 -0.127335
-0.062315 0.603642 -0.127638
-0.058858 0.604279 -0.128062
-0.055416 0.604991 -0.128496
-0.051812 0.604686 -0.128761
-0.048243 0.604527 -0.129047
-0.044709 0.604525 -0.129357
-0.040892 0.602518 -0.129329
-0.037582 0.603912 -0.129865
-0.034381 0.606141 -0.130540
-0.031282 0.609251 -0.131361
-0.027500 0.607097 -0.131295
-0.024032 0.607284 -0.131619
-0.020778 0.609255 -0.132243
-0.016999 0.606609 -0.132081
-0.013466 0.605946 -0.132252
-0.010166 0.607431 -0.132785
-0.007041 0.610801 -0.133637
-0.003558 0.610538 -0.133868
0.000537 0.603167 -0.132876
0.003579 0.607601 -0.133905
0.007202 0.605043 -0.133729
0.010400 0.607882 -0.134481
0.013753 0.608745 -0.134890
0.016884 0.613161 -0.135912
0.020299 0.613364 -0.136203
0.023894 0.610196 -0.135905
0.027104 0.614134 -0.136841
0.030411 0.616627 -0.137525
0.033959 0.613612 -0.137243
0.037557 0.608275 -0.136550
0.040924 0.608757 -0.136874
0.044320 0.608189 -0.137011
0.047689 0.608522 -0.137304
0.051066 0.608459 -0.137525
0.054435 0.608968 -0.137845
0.057803 0.609969 -0.138250
0.061188 0.607763 -0.138085
0.064552 0.605527 -0.137911
0.067886 0.601961 -0.137496
0.071231 0.602276 -0.137771
0.074593 0.603469 -0.138201
0.077936 0.603176 -0.138364
0.081301 0.603799 -0.138689
0.084664 0.604126 -0.138960
0.088144 0.607709 -0.139816
0.091781 0.614388 -0.141231
0.095131 0.613080 -0.141206
0.098284 0.607919 -0.140481
0.101493 0.604687 -0.140102
0.104786 0.603375 -0.140068
0.108080 0.602225 -0.140062
0.111449 0.602292 -0.140275
0.114870 0.603026 -0.140609
0.118657 0.608381 -0.141787
0.122191 0.609980 -0.142279
0.125626 0.610209 -0.142520
0.129402 0.614106 -0.143434
0.132280 0.608210 -0.142549
0.136123 0.612406 -0.143517
0.139596 0.612680 -0.143764
0.142636 0.608945 -0.143271
0.146058 0.608804 -0.143439
0.149510 0.608878 -0.143647
0.153046 0.609581 -0.143970
0.156615 0.610443 -0.144322
0.160050 0.610205 -0.144470
0.163323 0.608768 -0.144394
0.167109 0.610964 -0.144994
0.170336 0.609206 -0.144857
0.174185 0.611576 -0.145490
0.176881 0.606474 -0.144724
0.179925 0.603767 -0.144405
0.182948 0.601050 -0.144083
0.186971 0.604245 -0.144869
0.189851 0.600782 -0.144404
0.193919 0.603984 -0.145193
0.197309 0.603360 -0.145261
0.200663 0.602542 -0.145292
0.204040 0.601846 -0.145346
0.207644 0.602272 -0.145611
0.212976 0.610998 -0.147451
0.216833 0.612315 -0.147888
0.218964 0.605573 -0.146792
0.221360 0.600298 -0.145972
0.224778 0.599722 -0.146045
0.228633 0.601027 -0.146477
0.232843 0.603741 -0.147180
0.236592 0.604403 -0.147490
0.241146 0.608268 -0.148415
0.244786 0.608312 -0.148608
0.246745 0.601779 -0.147536
0.251043 0.604397 -0.148222
0.256753 0.612174 -0.149905
0.261191 0.614954 -0.150626
0.264813 0.614654 -0.150754
0.267635 0.611493 -0.150327
0.267690 0.598786 -0.148047
0.272248 0.601889 -0.148830
0.276499 0.603824 -0.149387
0.279754 0.602374 -0.149287
0.285060 0.607602 -0.150486
0.291056 0.614829 -0.152078
0.290583 0.601464 -0.149650
0.297519 0.611402 -0.151774
0.300948 0.610326 -0.151746
0.304793 0.610496 -0.151961
0.307229 0.606478 -0.151353
0.308071 0.597922 -0.149850
0.311913 0.598172 -0.150076
0.316183 0.599591 -0.150533
0.320124 0.600024 -0.150795
0.324130 0.600591 -0.151084
0.328367 0.601734 -0.151486
0.335294 0.609963 -0.153293
0.339017 0.609533 -0.153385
0.340116 0.602304 -0.152126
0.342803 0.599289 -0.151701
0.346577 0.599056 -0.151828
0.350618 0.599461 -0.152081
0.354521 0.599483 -0.152258
0.363851 0.612572 -0.155044
0.366733 0.609926 -0.154689
0.367669 0.602740 -0.153422
0.372765 0.605360 -0.154117
0.379525 0.611691 -0.155558
0.386635 0.618621 -0.157121
0.385890 0.607794 -0.155113
0.387312 0.601981 -0.154109
0.387527 0.593645 -0.152593
0.391504 0.593574 -0.152741
0.398552 0.600001 -0.154201
0.408374 0.612065 -0.156804
0.410210 0.607226 -0.155987
0.409035 0.596287 -0.153929
0.416277 0.602632 -0.155375
0.422280 0.606305 -0.156279
0.424701 0.602763 -0.155715
0.428228 0.601425 -0.155597
0.430774 0.598181 -0.155089
0.435354 0.598860 -0.155379
0.439437 0.598543 -0.155463
0.443231 0.597650 -0.155429
0.446960 0.596614 -0.155363
0.454847 0.603163 -0.156851
0.460319 0.605156 -0.157404
0.461150 0.598756 -0.156233
0.464350 0.596644 -0.155939
0.470212 0.599189 -0.156601
0.473643 0.597425 -0.156374
0.479799 0.600319 -0.157105
0.485960 0.603110 -0.157815
0.491216 0.604275 -0.158187
0.493887 0.601079 -0.157657
0.496683 0.598105 -0.157170
0.501921 0.599107 -0.157503
0.505229 0.596937 -0.157176
0.506467 0.591466 -0.156163
0.509476 0.588845 -0.155738
0.516667 0.592735 -0.156661
0.523189 0.595458 -0.157342
0.534041 0.604674 -0.159372
0.539057 0.604837 -0.159519
0.542349 0.602367 -0.159114
0.544600 0.598350 -0.158385
0.548235 0.596383 -0.158080
0.550696 0.592700 -0.157414
0.555293 0.592095 -0.157389
0.561687 0.593995 -0.157885
0.563483 0.589341 -0.157009
0.567495 0.587806 -0.156784
0.574791 0.590765 -0.157498
0.581059 0.592208 -0.157893
0.585277 0.590803 -0.157691
0.590660 0.590925 -0.157808
0.599031 0.594941 -0.158742
0.604130 0.594544 -0.158749
0.608045 0.592571 -0.158424
0.597932 0.572595 -0.154312
0.598858 0.566987 -0.153220
0.606731 0.570181 -0.153981
0.622255 0.582799 -0.156731
0.643496 0.595222 -0.159542
0.642249 0.586858 -0.157875
0.638244 0.575327 -0.155540
0.647874 0.580166 -0.156668
0.659391 0.587114 -0.158248
0.667476 0.589926 -0.158959
0.672443 0.589086 -0.158902
0.679696 0.590873 -0.159408
0.684245 0.589573 -0.159267
0.687589 0.586957 -0.158853
0.693319 0.587058 -0.159024
0.699620 0.587810 -0.159342
0.706974 0.589728 -0.159918
0.710077 0.587048 -0.159523
0.713411 0.584702 -0.159209
0.722388 0.588448 -0.160207
-0.153683 0.604009 -0.123560
-0.148604 0.597629 -0.122743
-0.145800 0.598970 -0.123162
-0.142784 0.599778 -0.123509
-0.139824 0.600958 -0.123928
-0.136665 0.601606 -0.124273
-0.133590 0.602716 -0.124704
-0.130029 0.602192 -0.124882
-0.126578 0.602183 -0.125153
-0.123093 0.602146 -0.125427
-0.119735 0.602704 -0.125805
-0.116368 0.603335 -0.126203
-0.113129 0.604590 -0.126708
-0.109685 0.605111 -0.127100
-0.105791 0.603796 -0.127197
-0.102210 0.603830 -0.127518
-0.098793 0.604625 -0.127967
-0.095289 0.605087 -0.128364
-0.091336 0.603501 -0.128426
-0.087749 0.603587 -0.128764
-0.084217 0.603947 -0.129148
-0.080666 0.604214 -0.129518
-0.077176 0.604796 -0.129940
-0.073664 0.605264 -0.130342
-0.070052 0.605189 -0.130653
-0.066384 0.604767 -0.130904
-0.062691 0.604132 -0.131117
-0.059204 0.604622 -0.131519
-0.055700 0.604993 -0.131898
-0.052001 0.604114 -0.132062
-0.048409 0.603808 -0.132321
-0.044804 0.603331 -0.132548
-0.041302 0.603470 -0.132877
-0.037716 0.602949 -0.133090
-0.034322 0.603736 -0.133525
-0.032009 0.612759 -0.135380
-0.028398 0.612117 -0.135566
-0.024359 0.607822 -0.135115
-0.020835 0.607508 -0.135350
-0.017312 0.607107 -0.135566
-0.013621 0.605009 -0.135482
-0.010261 0.605889 -0.135915
-0.006923 0.606993 -0.136385
-0.003886 0.611380 -0.137430
-0.000298 0.609889 -0.137440
0.003591 0.604505 -0.136758
0.006600 0.609647 -0.137932
0.010168 0.607760 -0.137860
0.013362 0.610962 -0.138689
0.016718 0.612030 -0.139137
0.020117 0.612455 -0.139469
0.023660 0.610213 -0.139321
0.027013 0.611301 -0.139766
0.030311 0.613725 -0.140449
0.033821 0.611392 -0.140276
0.037258 0.610397 -0.140340
0.040680 0.609482 -0.140415
0.044109 0.607903 -0.140367
0.047496 0.607461 -0.140522
0.050870 0.607403 -0.140745
0.054196 0.611128 -0.141653
0.057590 0.610462 -0.141762
0.060984 0.606987 -0.141356
0.064348 0.605116 -0.141239
0.067695 0.603317 -0.141133
0.071025 0.601447 -0.141010
0.074383 0.602495 -0.141421
0.077775 0.604678 -0.142039
0.081145 0.605146 -0.142341
0.084499 0.604859 -0.142503
0.087915 0.606433 -0.143007
0.091650 0.615707 -0.144936
0.094846 0.610678 -0.144217
0.098175 0.609298 -0.144171
0.101301 0.604311 -0.143453
0.104584 0.602795 -0.143377
0.107918 0.602279 -0.143486
0.111301 0.602508 -0.143733
0.114757 0.603671 -0.144153
0.118260 0.605259 -0.144653
0.121562 0.604144 -0.144645
0.124964 0.604279 -0.144871
0.128525 0.606095 -0.145412
0.132522 0.612233 -0.146769
0.135752 0.610121 -0.146570
0.139383 0.611962 -0.147117
0.143042 0.613851 -0.147674
0.146367 0.612632 -0.147641
0.149756 0.611997 -0.147718
0.153434 0.613691 -0.148237
0.157043 0.614684 -0.148623
0.160658 0.615608 -0.148996
0.163885 0.613630 -0.148815
0.166809 0.609624 -0.148244
0.170171 0.608794 -0.148279
0.173917 0.610483 -0.148796
0.177842 0.613167 -0.149505
0.180216 0.606118 -0.148343
0.184041 0.608093 -0.148915
0.186376 0.601277 -0.147792
0.189930 0.601673 -0.148058
0.193645 0.602894 -0.148483
0.197211 0.603221 -0.148736
0.200563 0.602374 -0.148761
0.204094 0.602442 -0.148963
0.208413 0.606377 -0.149917
0.213735 0.614938 -0.151773
0.216038 0.608803 -0.150769
0.218473 0.603526 -0.149929
0.221412 0.600724 -0.149569
0.224754 0.599786 -0.149573
0.228863 0.602165 -0.150226
0.232647 0.603040 -0.150586
0.236379 0.603627 -0.150889
0.240583 0.606069 -0.151557
0.243082 0.601611 -0.150867
0.245773 0.598042 -0.150350
0.249590 0.598879 -0.150701
0.256563 0.611477 -0.153379
0.261000 0.614249 -0.154117
0.264332 0.612897 -0.154039
0.265480 0.603823 -0.152426
0.268041 0.599957 -0.151844
0.271247 0.598404 -0.151720
0.276200 0.602745 -0.152770
0.281181 0.606996 -0.153805
0.285924 0.610302 -0.154653
0.288981 0.608085 -0.154396
0.294627 0.614039 -0.155776
0.296257 0.607359 -0.154624
0.300578 0.609048 -0.155149
0.304560 0.609636 -0.155454
0.306542 0.604277 -0.154560
0.308040 0.597648 -0.153408
0.312364 0.599270 -0.153918
0.316309 0.599742 -0.154195
0.320135 0.599841 -0.154398
0.324015 0.600054 -0.154623
0.328198 0.601048 -0.155006
0.335040 0.609047 -0.156813
0.339179 0.609708 -0.157131
0.341109 0.604614 -0.156276
0.343036 0.599621 -0.155438
0.346966 0.599764 -0.155646
0.351048 0.600248 -0.155924
0.354272 0.598590 -0.155762
0.364399 0.613597 -0.159016
0.369757 0.616825 -0.159859
0.372469 0.613716 -0.159400
0.371926 0.603100 -0.157395
0.378347 0.608671 -0.158718
0.378352 0.599558 -0.157014
0.386593 0.609032 -0.159143
0.389136 0.605669 -0.158623
0.390178 0.599083 -0.157433
0.392531 0.595442 -0.156848
0.399899 0.602516 -0.158484
0.408175 0.611289 -0.160475
0.414129 0.614996 -0.161416
0.414782 0.607709 -0.160070
0.415690 0.601074 -0.158854
0.421431 0.604231 -0.159677
0.425478 0.603924 -0.159778
0.428552 0.601679 -0.159471
0.431639 0.599471 -0.159170
0.435426 0.598611 -0.159149
0.439541 0.598349 -0.159252
0.443835 0.598386 -0.159416
0.447804 0.597779 -0.159444
0.456572 0.605915 -0.161309
0.461752 0.607340 -0.161763
0.465365 0.605888 -0.161609
0.461275 0.590798 -0.158576
0.468504 0.595790 -0.159776
0.474291 0.598134 -0.160417
0.481317 0.602500 -0.161486
0.486950 0.604365 -0.162024
0.492589 0.606150 -0.162545
0.495462 0.603265 -0.162073
0.498096 0.599997 -0.161518
0.501104 0.597353 -0.161091
0.503706 0.594061 -0.160525
0.504561 0.588009 -0.159367
0.508070 0.586205 -0.159111
0.517663 0.593850 -0.160868
0.525313 0.598290 -0.161942
0.531127 0.599787 -0.162387
0.537430 0.601935 -0.162969
0.538030 0.595470 -0.161707
0.541732 0.593663 -0.161439
0.548926 0.596942 -0.162259
0.552085 0.594258 -0.161799
0.557097 0.594224 -0.161905
0.560897 0.592416 -0.161629
0.565662 0.591940 -0.161637
0.570232 0.591147 -0.161575
0.580171 0.597696 -0.163093
0.579352 0.589412 -0.161415
0.585739 0.590949 -0.161851
0.590960 0.590844 -0.161934
0.599004 0.594418 -0.162809
0.602563 0.592001 -0.162391
0.615617 0.601874 -0.164630
0.609450 0.586866 -0.161488
0.608792 0.579098 -0.159910
0.622366 0.589321 -0.162228
0.626146 0.587118 -0.161857
0.638079 0.594962 -0.163666
0.644643 0.596071 -0.164018
0.643070 0.587294 -0.162224
0.647424 0.585752 -0.162004
0.652264 0.584794 -0.161914
0.663117 0.590894 -0.163365
0.668163 0.590114 -0.163324
0.674008 0.590264 -0.163490
0.679832 0.590385 -0.163656
0.686015 0.590916 -0.163918
0.691845 0.591052 -0.164101
0.694505 0.587682 -0.163523
0.701475 0.589140 -0.164011
0.706945 0.588965 -0.164150
0.712893 0.589343 -0.164419
0.718388 0.589270 -0.164599
0.726416 0.591939 -0.165392
-0.153753 0.602556 -0.126698
-0.149326 0.598396 -0.126219
-0.145952 0.597852 -0.126340
-0.143127 0.599339 -0.126806
-0.139945 0.599774 -0.127112
-0.137065 0.601438 -0.127631
-0.133632 0.601285 -0.127861
-0.130405 0.602012 -0.128247
-0.126992 0.602183 -0.128549
-0.123413 0.601827 -0.128772
-0.120159 0.602823 -0.129227
-0.116860 0.603765 -0.129681
-0.113536 0.604713 -0.130142
-0.110032 0.605021 -0.130502
-0.106288 0.604376 -0.130706
-0.102623 0.604090 -0.130973
-0.099192 0.604860 -0.131422
-0.095587 0.604898 -0.131749
-0.091864 0.604406 -0.131988
-0.087942 0.602955 -0.132064
-0.084399 0.603269 -0.132441
-0.080894 0.603773 -0.132851
-0.077383 0.604256 -0.133258
-0.073891 0.604839 -0.133681
-0.070410 0.605482 -0.134115
-0.066896 0.605940 -0.134515
-0.063270 0.605742 -0.134800
-0.059520 0.604762 -0.134947
-0.056256 0.606598 -0.135583
-0.052777 0.607155 -0.135993
-0.049242 0.607333 -0.136336
-0.045078 0.603293 -0.135934
-0.041538 0.603185 -0.136220
-0.038010 0.603087 -0.136504
-0.034308 0.601634 -0.136545
-0.032535 0.614683 -0.139155
-0.029024 0.614930 -0.139496
-0.024769 0.608997 -0.138733
-0.020868 0.605528 -0.138403
-0.016791 0.600108 -0.137717
-0.013434 0.600849 -0.138130
-0.010135 0.602138 -0.138638
-0.007029 0.605454 -0.139510
-0.003912 0.608913 -0.140408
-0.000516 0.609499 -0.140785
0.003079 0.607679 -0.140724
0.006931 0.602277 -0.140007
0.009304 0.616146 -0.142793
0.013320 0.608037 -0.141576
0.016588 0.610292 -0.142246
0.020003 0.610338 -0.142510
0.023552 0.607865 -0.142309
0.026975 0.607370 -0.142468
0.030212 0.610775 -0.143342
0.033538 0.612685 -0.143940
0.036959 0.612378 -0.144128
0.040346 0.612957 -0.144477
0.043787 0.611645 -0.144474
0.047222 0.609963 -0.144399
0.050575 0.611933 -0.145001
0.054012 0.608708 -0.144633
0.057413 0.605898 -0.144339
0.060772 0.608112 -0.144981
0.064149 0.609690 -0.145504
0.067514 0.606765 -0.145180
0.070830 0.601883 -0.144485
0.074180 0.602122 -0.144750
0.077579 0.604597 -0.145436
0.080939 0.604576 -0.145650
0.084305 0.604697 -0.145889
0.087652 0.604173 -0.146005
0.091351 0.612813 -0.147859
0.094776 0.613241 -0.148155
0.097809 0.605414 -0.146879
0.101252 0.606675 -0.147330
0.104357 0.601823 -0.146612
0.107814 0.603288 -0.147100
0.111252 0.604217 -0.147484
0.114579 0.603434 -0.147540
0.118035 0.604380 -0.147927
0.121277 0.602544 -0.147777
0.124719 0.603188 -0.148104
0.128520 0.607671 -0.149172
0.132059 0.608913 -0.149615
0.135420 0.608222 -0.149683
0.138881 0.608505 -0.149940
0.142733 0.612270 -0.150871
0.146226 0.612554 -0.151128
0.149741 0.612942 -0.151404
0.153543 0.615580 -0.152119
0.156823 0.613917 -0.151995
0.160324 0.613994 -0.152210
0.163789 0.613755 -0.152362
0.165905 0.604073 -0.150663
0.169672 0.606131 -0.151263
0.174508 0.615011 -0.153205
0.177912 0.614224 -0.153248
0.180604 0.609069 -0.152429
0.183877 0.607641 -0.152343
0.186624 0.603205 -0.151661
0.189740 0.601053 -0.151429
0.193419 0.602072 -0.151824
0.196926 0.602080 -0.152018
0.200430 0.602035 -0.152202
0.203963 0.602103 -0.152409
0.208014 0.604695 -0.153118
0.212926 0.611296 -0.154628
0.216165 0.609646 -0.154493
0.218976 0.606065 -0.153971
0.221594 0.601736 -0.153296
0.225023 0.601143 -0.153369
0.228783 0.601965 -0.153726
0.232408 0.602154 -0.153956
0.235997 0.602152 -0.154147
0.240115 0.604260 -0.154764
0.242510 0.599404 -0.153975
0.245379 0.596554 -0.153589
0.250777 0.603441 -0.155174
0.255165 0.606251 -0.155935
0.259638 0.609237 -0.156734
0.262225 0.605272 -0.156121
0.266675 0.608023 -0.156873
0.270154 0.607263 -0.156910
0.272189 0.601560 -0.155938
0.276323 0.603079 -0.156439
0.281282 0.607238 -0.157481
0.285124 0.607600 -0.157747
0.291021 0.614480 -0.159351
0.293202 0.609432 -0.158507
0.296121 0.606795 -0.158156
0.300875 0.609795 -0.158965
0.304520 0.609349 -0.159065
0.306949 0.605302 -0.158420
0.307805 0.596781 -0.156848
0.312533 0.599558 -0.157610
0.316612 0.600392 -0.157971
0.320342 0.600202 -0.158119
0.324154 0.600210 -0.158308
0.328814 0.602474 -0.158967
0.333885 0.605732 -0.159833
0.337958 0.606255 -0.160130
0.340588 0.603007 -0.159639
0.342415 0.597773 -0.158730
0.346906 0.599339 -0.159243
0.350690 0.599079 -0.159372
0.354672 0.599278 -0.159598
0.364991 0.614724 -0.163028
0.370595 0.618509 -0.164011
0.372925 0.614470 -0.163347
0.373072 0.605440 -0.161628
0.372665 0.595337 -0.159676
0.378087 0.598633 -0.160552
0.381907 0.598235 -0.160647
0.386720 0.600000 -0.161200
0.392886 0.604634 -0.162361
0.395650 0.601803 -0.161938
0.398814 0.599855 -0.161701
0.405856 0.606055 -0.163197
0.413125 0.612542 -0.164756
0.418140 0.614219 -0.165291
0.419274 0.607958 -0.164129
0.421415 0.603819 -0.163418
0.425538 0.603657 -0.163555
0.428121 0.600450 -0.163038
0.431902 0.599591 -0.163022
0.435983 0.599283 -0.163123
0.440146 0.599096 -0.163249
0.444336 0.598922 -0.163376
0.449656 0.600797 -0.163944
0.457607 0.607394 -0.165530
0.462650 0.608547 -0.165942
0.463777 0.602632 -0.164825
0.462709 0.592921 -0.162882
0.468563 0.595476 -0.163591
0.474222 0.597593 -0.164205
0.479668 0.599251 -0.164718
0.487089 0.604168 -0.165939
0.491008 0.603069 -0.165852
0.496303 0.604222 -0.166253
0.497063 0.597867 -0.165017
0.499589 0.594459 -0.164419
0.502966 0.592436 -0.164121
0.504485 0.587452 -0.163173
0.510198 0.589110 -0.163675
0.517838 0.593678 -0.164813
0.525244 0.597735 -0.165839
0.528362 0.595124 -0.165402
0.532341 0.593808 -0.165247
0.536945 0.593395 -0.165289
0.542204 0.593903 -0.165531
0.549393 0.597162 -0.166377
0.553096 0.595256 -0.166085
0.557233 0.593952 -0.165924
0.562040 0.593566 -0.165963
0.568540 0.595506 -0.166515
0.574690 0.596861 -0.166937
0.579768 0.596660 -0.167014
0.582072 0.592631 -0.166243
0.587193 0.592421 -0.166315
0.595808 0.596815 -0.167408
0.599133 0.594087 -0.166921
0.601589 0.590224 -0.166181
0.606358 0.589379 -0.166111
0.607409 0.583739 -0.164974
0.617878 0.590106 -0.166508
0.624492 0.591461 -0.166928
0.633760 0.596047 -0.168071
0.638460 0.594881 -0.167933
0.640344 0.590268 -0.167028
0.645747 0.589960 -0.167086
0.653021 0.591868 -0.167641
0.659126 0.592332 -0.167878
0.666128 0.593820 -0.168348
0.670581 0.592305 -0.168150
0.675052 0.590833 -0.167966
0.678897 0.588671 -0.167633
0.685426 0.589585 -0.167995
0.693930 0.592703 -0.168861
0.695155 0.587707 -0.167908
0.697500 0.584054 -0.167262
0.706618 0.587872 -0.168310
0.714965 0.590826 -0.169173
0.719407 0.589586 -0.169097
0.736501 0.601852 -0.172091
-0.154525 0.603419 -0.130219
-0.149888 0.598624 -0.129618
-0.147277 0.600712 -0.130185
-0.144054 0.600912 -0.130446
-0.140735 0.600930 -0.130688
-0.137435 0.601157 -0.130975
-0.134220 0.601829 -0.131347
-0.130842 0.602051 -0.131653
-0.127774 0.603554 -0.132185
-0.124428 0.604154 -0.132572
-0.120442 0.602377 -0.132560
-0.117100 0.603172 -0.132994
-0.113805 0.604260 -0.133484
-0.110249 0.604375 -0.133812
-0.106663 0.604421 -0.134132
-0.102966 0.604030 -0.134380
-0.099437 0.604390 -0.134761
-0.095878 0.604656 -0.135127
-0.092105 0.603958 -0.135327
-0.088551 0.604262 -0.135703
-0.085035 0.604764 -0.136115
-0.081346 0.604420 -0.136377
-0.077755 0.604532 -0.136720
-0.074283 0.605249 -0.137169
-0.070782 0.605816 -0.137591
-0.067203 0.605944 -0.137933
-0.063530 0.605500 -0.138173
-0.060179 0.606863 -0.138733
-0.056683 0.607384 -0.139140
-0.052964 0.606497 -0.139294
-0.049283 0.605739 -0.139467
-0.045693 0.605463 -0.139724
-0.041884 0.603616 -0.139694
-0.038501 0.604573 -0.140168
-0.034614 0.601844 -0.139970
-0.032923 0.615501 -0.142752
-0.029314 0.615023 -0.142961
-0.025179 0.610119 -0.142358
-0.020873 0.603278 -0.141392
-0.017214 0.601521 -0.141352
-0.013737 0.601220 -0.141577
-0.010591 0.604038 -0.142373
-0.007109 0.603619 -0.142571
-0.003948 0.606519 -0.143380
-0.000749 0.609229 -0.144153
0.002787 0.608135 -0.144218
0.006339 0.606617 -0.144201
0.010187 0.600827 -0.143382
0.013073 0.608043 -0.144990
0.016311 0.610775 -0.145760
0.019868 0.608541 -0.145596
0.023447 0.605427 -0.145263
0.026817 0.605795 -0.145582
0.030025 0.609713 -0.146569
0.033293 0.612948 -0.147428
0.036679 0.613723 -0.147820
0.040103 0.613395 -0.148002
0.043536 0.612554 -0.148083
0.046954 0.611946 -0.148206
0.050437 0.607198 -0.147537
0.053832 0.605738 -0.147491
0.057198 0.606001 -0.147772
0.060547 0.611547 -0.149066
0.063942 0.612253 -0.149431
0.067307 0.606640 -0.148579
0.070624 0.601445 -0.147802
0.074002 0.603467 -0.148415
0.077376 0.604283 -0.148793
0.080719 0.603495 -0.148860
0.084043 0.602260 -0.148839
0.087482 0.604735 -0.149536
0.091148 0.612401 -0.151244
0.094520 0.611582 -0.151302
0.097810 0.609168 -0.151046
0.101087 0.606890 -0.150815
0.104228 0.602569 -0.150181
0.107608 0.602688 -0.150414
0.111073 0.604019 -0.150885
0.114492 0.604497 -0.151187
0.118214 0.608822 -0.152247
0.121213 0.603673 -0.151439
0.125046 0.608778 -0.152654
0.128654 0.610811 -0.153263
0.131496 0.604544 -0.152228
0.134965 0.605112 -0.152544
0.138570 0.606863 -0.153096
0.141327 0.600690 -0.152071
0.145673 0.608877 -0.153904
0.149402 0.611182 -0.154567
0.152798 0.610581 -0.154650
0.156264 0.610522 -0.154841
0.159760 0.610651 -0.155069
0.162600 0.605987 -0.154335
0.166188 0.606816 -0.154701
0.169479 0.605541 -0.154645
0.174121 0.613149 -0.156377
0.177100 0.609701 -0.155883
0.180164 0.606940 -0.155525
0.183275 0.604581 -0.155247
0.186679 0.604017 -0.155331
0.189805 0.601876 -0.155094
0.193401 0.602395 -0.155396
0.196913 0.602399 -0.155594
0.200246 0.601434 -0.155594
0.204009 0.602664 -0.156042
0.207867 0.604267 -0.156566
0.213908 0.616323 -0.159229
0.217838 0.617799 -0.159731
0.220214 0.612001 -0.158742
0.221434 0.601208 -0.156725
0.224854 0.600566 -0.156789
0.228622 0.601421 -0.157160
0.232219 0.601480 -0.157369
0.235715 0.601091 -0.157484
0.241236 0.608891 -0.159292
0.244017 0.605461 -0.158780
0.247569 0.605134 -0.158909
0.251129 0.604816 -0.159039
0.254957 0.605485 -0.159375
0.257834 0.602600 -0.158971
0.262054 0.604634 -0.159591
0.267181 0.609779 -0.160860
0.270995 0.610137 -0.161133
0.273998 0.607679 -0.160816
0.277314 0.606326 -0.160730
0.280828 0.605644 -0.160783
0.285894 0.609990 -0.161892
0.290023 0.611172 -0.162338
0.293105 0.608992 -0.162076
0.295674 0.605269 -0.161488
0.299665 0.605959 -0.161829
0.304399 0.608818 -0.162629
0.305965 0.602224 -0.161430
0.308177 0.597673 -0.160660
0.312536 0.599366 -0.161212
0.316697 0.600422 -0.161629
0.320592 0.600676 -0.161877
0.324478 0.600869 -0.162111
0.328916 0.602510 -0.162653
0.334753 0.607791 -0.163974
0.338657 0.607830 -0.164176
0.340324 0.602062 -0.163135
0.341983 0.596404 -0.162114
0.346476 0.597981 -0.162642
0.350192 0.597560 -0.162742
0.355875 0.601925 -0.163870
0.362439 0.608265 -0.165426
0.368284 0.612697 -0.166573
0.371563 0.610953 -0.166388
0.371073 0.600484 -0.164316
0.378651 0.608710 -0.166284
0.384107 0.611902 -0.167165
0.383032 0.600406 -0.164859
0.386271 0.598666 -0.164667
0.391028 0.600239 -0.165194
0.395610 0.601362 -0.165622
0.398511 0.598851 -0.165259
0.402380 0.598395 -0.165342
0.406765 0.598983 -0.165652
0.411755 0.600759 -0.166221
0.416596 0.602153 -0.166707
0.423591 0.607786 -0.168121
0.427323 0.606796 -0.168085
0.430332 0.604378 -0.167732
0.430795 0.597054 -0.166298
0.436198 0.599293 -0.166966
0.440614 0.599576 -0.167202
0.444202 0.598264 -0.167086
0.448434 0.598129 -0.167228
0.457315 0.606441 -0.169237
0.461258 0.605610 -0.169225
0.461276 0.597743 -0.167650
0.463901 0.594605 -0.167121
0.469417 0.596543 -0.167716
0.475068 0.598625 -0.168343
0.479110 0.597864 -0.168337
0.483754 0.598089 -0.168549
0.486668 0.595365 -0.168102
0.492663 0.597751 -0.168793
0.496984 0.597295 -0.168848
0.499607 0.594044 -0.168277
0.504608 0.594623 -0.168561
0.509016 0.594197 -0.168618
0.512983 0.593035 -0.168508
0.518889 0.594855 -0.169066
0.522324 0.592784 -0.168749
0.528424 0.594757 -0.169339
0.532124 0.593018 -0.169093
0.537929 0.594398 -0.169548
0.544361 0.596616 -0.170190
0.549191 0.596394 -0.170282
0.553468 0.595319 -0.170179
0.557687 0.594124 -0.170048
0.562258 0.593395 -0.170020
0.569358 0.596167 -0.170784
0.575357 0.597297 -0.171176
0.576517 0.591702 -0.170041
0.582436 0.592630 -0.170384
0.592468 0.599019 -0.171969
0.595973 0.596528 -0.171536
0.597946 0.592011 -0.170639
0.601142 0.589128 -0.170113
0.609876 0.593408 -0.171221
0.611512 0.588469 -0.170225
0.608047 0.577117 -0.167763
0.623520 0.589700 -0.170771
0.631638 0.592858 -0.171627
0.635773 0.591014 -0.171341
0.640212 0.589541 -0.171141
0.645631 0.589243 -0.171213
0.656556 0.595501 -0.172793
0.662613 0.595855 -0.173021
0.666223 0.593315 -0.172588
0.670894 0.592040 -0.172449
0.675618 0.590843 -0.172332
0.679895 0.589154 -0.172106
0.688015 0.591836 -0.172895
0.696063 0.594398 -0.173664
0.694512 0.586292 -0.171971
0.691015 0.576215 -0.169824
0.708439 0.589116 -0.173012
0.715299 0.590426 -0.173521
0.719356 0.588755 -0.173346
0.730278 0.594438 -0.174892
-0.155222 0.604033 -0.133714
-0.151443 0.602155 -0.133599
-0.147940 0.601313 -0.133674
-0.144897 0.602182 -0.134056
-0.141865 0.603263 -0.134486
-0.138093 0.601890 -0.134500
-0.134725 0.602062 -0.134791
-0.131297 0.602139 -0.135075
-0.127867 0.602323 -0.135385
-0.124483 0.602792 -0.135753
-0.120662 0.601666 -0.135848
-0.117367 0.602668 -0.136322
-0.114036 0.603635 -0.136797
-0.110629 0.604384 -0.137238
-0.106941 0.604031 -0.137488
-0.103287 0.603848 -0.137770
-0.099747 0.604186 -0.138148
-0.096199 0.604527 -0.138529
-0.092526 0.604315 -0.138812
-0.088997 0.604771 -0.139216
-0.085404 0.604938 -0.139569
-0.081778 0.604932 -0.139890
-0.078907 0.608746 -0.140903
-0.074863 0.606604 -0.140837
-0.071328 0.607046 -0.141238
-0.067431 0.605480 -0.141271
-0.063875 0.605707 -0.141629
-0.060471 0.606786 -0.142143
-0.056834 0.606479 -0.142399
-0.053185 0.606017 -0.142625
-0.049503 0.605257 -0.142793
-0.046089 0.606145 -0.143263
-0.042507 0.605889 -0.143519
-0.038775 0.604487 -0.143558
-0.035258 0.604476 -0.143853
-0.033692 0.619163 -0.146893
-0.029741 0.616163 -0.146628
-0.025281 0.608686 -0.145518
-0.021469 0.606023 -0.145305
-0.017587 0.602432 -0.144912
-0.014170 0.602753 -0.145252
-0.010734 0.602846 -0.145546
-0.007481 0.604725 -0.146177
-0.004082 0.605148 -0.146529
-0.000974 0.608823 -0.147499
0.002354 0.610217 -0.148033
0.006264 0.604344 -0.147177
0.009638 0.604837 -0.147533
0.012725 0.609436 -0.148675
0.016012 0.611543 -0.149338
0.019418 0.611924 -0.149669
0.023220 0.605142 -0.148615
0.026575 0.605837 -0.148999
0.029838 0.608559 -0.149775
0.033150 0.610669 -0.150431
0.036639 0.608385 -0.150232
0.039972 0.610226 -0.150834
0.043331 0.611667 -0.151356
0.046814 0.608116 -0.150902
0.050290 0.602970 -0.150133
0.053636 0.603949 -0.150558
0.056956 0.609002 -0.151782
0.060327 0.612819 -0.152764
0.063730 0.612755 -0.152984
0.067095 0.606144 -0.151910
0.070426 0.602152 -0.151348
0.073806 0.603890 -0.151915
0.077164 0.603637 -0.152088
0.080518 0.603327 -0.152248
0.083899 0.603959 -0.152594
0.087280 0.604390 -0.152899
0.091042 0.614572 -0.155148
0.094332 0.611530 -0.154760
0.097619 0.608989 -0.154470
0.100836 0.605506 -0.153989
0.104000 0.601629 -0.153425
0.107386 0.601871 -0.153686
0.110891 0.603809 -0.154288
0.114306 0.604196 -0.154577
0.118075 0.609133 -0.155783
0.121427 0.608272 -0.155821
0.124498 0.604184 -0.155203
0.128345 0.609070 -0.156402
0.131263 0.603649 -0.155511
0.134686 0.603751 -0.155738
0.138249 0.605137 -0.156227
0.141715 0.605477 -0.156502
0.144837 0.602722 -0.156146
0.148669 0.606114 -0.157044
0.152230 0.607012 -0.157433
0.155823 0.608047 -0.157850
0.159782 0.611703 -0.158805
0.162919 0.609117 -0.158479
0.165482 0.602646 -0.157352
0.168982 0.602894 -0.157605
0.173086 0.607045 -0.158664
0.176876 0.608907 -0.159252
0.179489 0.603365 -0.158309
0.183373 0.605705 -0.158995
0.186810 0.605276 -0.159109
0.189870 0.602703 -0.158776
0.193319 0.602371 -0.158908
0.196949 0.602986 -0.159237
0.200353 0.602350 -0.159305
0.203821 0.602033 -0.159439
0.207247 0.601493 -0.159527
0.213408 0.614176 -0.162384
0.217449 0.616212 -0.163015
0.219899 0.610767 -0.162075
0.221475 0.601587 -0.160347
0.224588 0.599561 -0.160121
0.228342 0.600358 -0.160488
0.231998 0.600673 -0.160755
0.236160 0.603036 -0.161454
0.242673 0.614805 -0.164146
0.244868 0.608908 -0.163100
0.247695 0.605670 -0.162615
0.251868 0.607669 -0.163241
0.254817 0.604972 -0.162869
0.258378 0.604594 -0.162989
0.262468 0.606106 -0.163513
0.266890 0.608708 -0.164270
0.271146 0.610610 -0.164879
0.274940 0.610831 -0.165129
0.277597 0.607197 -0.164552
0.281146 0.606596 -0.164624
0.284528 0.605445 -0.164578
0.288739 0.606949 -0.165103
0.292055 0.605561 -0.165005
0.295668 0.605105 -0.165107
0.300801 0.609251 -0.166204
0.304516 0.608996 -0.166351
0.306432 0.603418 -0.165343
0.308360 0.598014 -0.164370
0.312408 0.598799 -0.164739
0.316759 0.600383 -0.165282
0.320912 0.601342 -0.165689
0.324582 0.600922 -0.165796
0.329382 0.603526 -0.166563
0.336148 0.611240 -0.168449
0.338603 0.607426 -0.167814
0.341318 0.604361 -0.167341
0.343474 0.599923 -0.166565
0.347571 0.600446 -0.166877
0.353504 0.605469 -0.168179
0.356929 0.604201 -0.168097
0.359279 0.600343 -0.167442
0.362727 0.599164 -0.167377
0.366447 0.598621 -0.167451
0.370560 0.598971 -0.167723
0.381087 0.613947 -0.171236
0.386361 0.616649 -0.172033
0.389179 0.613771 -0.171591
0.390183 0.606933 -0.170265
0.392990 0.604152 -0.169839
0.395175 0.600066 -0.169119
0.399837 0.601299 -0.169585
0.402188 0.597621 -0.168953
0.406350 0.597747 -0.169169
0.410471 0.597749 -0.169357
0.417250 0.603089 -0.170743
0.423899 0.608007 -0.172035
0.428827 0.609371 -0.172529
0.431293 0.605853 -0.171925
0.431149 0.597336 -0.170191
0.436729 0.599900 -0.170952
0.440332 0.598633 -0.170848
0.444339 0.598106 -0.170910
0.448266 0.597401 -0.170930
0.455776 0.603208 -0.172425
0.460686 0.604149 -0.172818
0.461733 0.598130 -0.171629
0.464032 0.594408 -0.170959
0.471743 0.600171 -0.172445
0.477983 0.603220 -0.173314
0.479400 0.597917 -0.172277
0.482981 0.596338 -0.172088
0.487175 0.595768 -0.172127
0.494339 0.600074 -0.173281
0.496958 0.596798 -0.172699
0.500494 0.595027 -0.172459
0.504627 0.594197 -0.172433
0.510067 0.595405 -0.172873
0.514028 0.594214 -0.172761
0.518415 0.593655 -0.172793
0.523062 0.593453 -0.172906
0.527681 0.593156 -0.172995
0.533513 0.594636 -0.173494
0.540001 0.597008 -0.174198
0.544884 0.596907 -0.174329
0.550127 0.597275 -0.174568
0.553091 0.594288 -0.174028
0.557594 0.593502 -0.173997
0.562424 0.593139 -0.174063
0.568022 0.593799 -0.174365
0.575818 0.597434 -0.175359
0.577744 0.592883 -0.174447
0.576357 0.583866 -0.172492
0.594520 0.601263 -0.176694
0.594184 0.593628 -0.175059
0.597201 0.590509 -0.174476
0.601035 0.588464 -0.174142
0.608661 0.591306 -0.174952
0.614555 0.591824 -0.175219
0.610644 0.579870 -0.172562
0.616519 0.580373 -0.172825
0.633053 0.594053 -0.176185
0.635495 0.590104 -0.175407
0.641670 0.590738 -0.175708
0.645335 0.588301 -0.175288
0.657210 0.595680 -0.177184
0.664547 0.597526 -0.177781
0.666169 0.592628 -0.176788
0.670553 0.591009 -0.176573
0.676347 0.591031 -0.176750
0.680817 0.589542 -0.176574
0.687371 0.590431 -0.176967
0.691128 0.588188 -0.176622
0.687000 0.577271 -0.174220
0.699621 0.584944 -0.176244
0.711213 0.591389 -0.177987
0.715937 0.590351 -0.177955
0.721350 0.590106 -0.178120
0.728072 0.591295 -0.178637
-0.156029 0.604997 -0.137285
-0.151649 0.601178 -0.136821
-0.148497 0.601547 -0.137112
-0.145465 0.602496 -0.137516
-0.141936 0.601885 -0.137652
-0.139224 0.604290 -0.138337
-0.134928 0.601190 -0.138046
-0.131622 0.601735 -0.138416
-0.128202 0.601985 -0.138741
-0.124535 0.601404 -0.138923
-0.121253 0.602386 -0.139394
-0.117652 0.602220 -0.139663
-0.114330 0.603245 -0.140152
-0.111220 0.605243 -0.140824
-0.107401 0.604389 -0.140981
-0.103665 0.603889 -0.141205
-0.100138 0.604315 -0.141600
-0.096558 0.604540 -0.141961
-0.093021 0.604981 -0.142363
-0.089439 0.605232 -0.142730
-0.085662 0.604545 -0.142924
-0.081938 0.604066 -0.143157
-0.078745 0.606238 -0.143881
-0.075332 0.607348 -0.144408
-0.071614 0.606853 -0.144635
-0.068010 0.606913 -0.144965
-0.064168 0.605589 -0.145032
-0.060650 0.606020 -0.145427
-0.057067 0.606029 -0.145740
-0.053432 0.605666 -0.145981
-0.049996 0.606480 -0.146443
-0.046319 0.605700 -0.146599
-0.042756 0.605576 -0.146878
-0.039111 0.604793 -0.147027
-0.035572 0.604663 -0.147299
-0.033892 0.618469 -0.150238
-0.029607 0.612854 -0.149456
-0.025523 0.608346 -0.148880
-0.021621 0.604943 -0.148511
-0.018050 0.604089 -0.148629
-0.014383 0.602205 -0.148543
-0.010973 0.602537 -0.148884
-0.007601 0.603212 -0.149289
-0.004301 0.604642 -0.149839
-0.001605 0.612925 -0.151725
0.001974 0.611603 -0.151737
0.005646 0.608860 -0.151467
0.009539 0.602727 -0.150526
0.012722 0.605820 -0.151394
0.015813 0.610697 -0.152612
0.019109 0.612870 -0.153298
0.022502 0.613591 -0.153696
0.026122 0.609920 -0.153223
0.029464 0.611399 -0.153767
0.032914 0.610554 -0.153848
0.036464 0.606698 -0.153327
0.039834 0.607230 -0.153676
0.043191 0.608304 -0.154132
0.046690 0.603512 -0.153414
0.050052 0.603722 -0.153693
0.053399 0.605089 -0.154202
0.056737 0.608734 -0.155169
0.060104 0.613643 -0.156391
0.063512 0.610571 -0.156005
0.066873 0.603914 -0.154892
0.070221 0.602336 -0.154800
0.073582 0.602538 -0.155067
0.076954 0.603238 -0.155434
0.080313 0.603017 -0.155612
0.083701 0.603878 -0.156010
0.087098 0.604686 -0.156396
0.090698 0.610595 -0.157823
0.094081 0.610065 -0.157936
0.097373 0.607676 -0.157667
0.100827 0.608773 -0.158110
0.103723 0.599844 -0.156494
0.107228 0.602095 -0.157171
0.110728 0.603912 -0.157760
0.114054 0.602988 -0.157783
0.118286 0.614069 -0.160286
0.121370 0.609554 -0.159567
0.125503 0.617788 -0.161486
0.127982 0.606738 -0.159409
0.131270 0.605291 -0.159320
0.134545 0.603791 -0.159218
0.138426 0.608195 -0.160345
0.141942 0.608820 -0.160686
0.145094 0.606154 -0.160339
0.147946 0.601127 -0.159496
0.151819 0.604713 -0.160454
0.155946 0.609965 -0.161764
0.159550 0.610865 -0.162162
0.162895 0.609780 -0.162142
0.165832 0.605870 -0.161527
0.169222 0.605243 -0.161602
0.173146 0.608113 -0.162415
0.176477 0.607002 -0.162387
0.179939 0.606721 -0.162534
0.183292 0.605766 -0.162537
0.186802 0.605736 -0.162737
0.189704 0.602227 -0.162197
0.193196 0.602120 -0.162378
0.196750 0.602311 -0.162624
0.200263 0.602241 -0.162813
0.203732 0.601915 -0.162948
0.207281 0.601962 -0.163163
0.213387 0.614355 -0.166025
0.216685 0.612851 -0.165910
0.219214 0.607827 -0.165037
0.221987 0.604094 -0.164440
0.224632 0.599926 -0.163746
0.228089 0.599414 -0.163840
0.232133 0.601374 -0.164467
0.236561 0.604806 -0.165414
0.240263 0.605117 -0.165687
0.243536 0.603681 -0.165581
0.247046 0.603190 -0.165679
0.251419 0.605981 -0.166491
0.255534 0.607671 -0.167065
0.258937 0.606642 -0.167047
0.262714 0.606971 -0.167325
0.267184 0.609711 -0.168131
0.270871 0.609600 -0.168314
0.274601 0.609604 -0.168521
0.278648 0.610644 -0.168957
0.278342 0.597242 -0.166218
0.283047 0.600528 -0.167145
0.287175 0.601833 -0.167637
0.290742 0.601300 -0.167724
0.296511 0.607560 -0.169312
0.301135 0.610104 -0.170081
0.304842 0.609797 -0.170220
0.306898 0.604605 -0.169275
0.308571 0.598433 -0.168110
0.313038 0.600394 -0.168749
0.317115 0.601170 -0.169126
0.321072 0.601560 -0.169417
0.325355 0.602797 -0.169897
0.329217 0.602836 -0.170110
0.332154 0.600389 -0.169767
0.339343 0.609099 -0.171922
0.341872 0.605517 -0.171324
0.346830 0.608180 -0.172126
0.352916 0.613570 -0.173544
0.353708 0.605679 -0.171972
0.355787 0.601110 -0.171145
0.359004 0.599371 -0.170954
0.362660 0.598689 -0.171001
0.366556 0.598554 -0.171171
0.370710 0.598990 -0.171469
0.378897 0.608599 -0.173850
0.388297 0.620669 -0.176795
0.390603 0.616588 -0.176072
0.391976 0.610522 -0.174893
0.393388 0.604654 -0.173756
0.397470 0.604629 -0.173949
0.399996 0.601264 -0.173378
0.402591 0.598091 -0.172849
0.406735 0.598164 -0.173061
0.410505 0.597433 -0.173088
0.418623 0.605472 -0.175129
0.424631 0.609069 -0.176152
0.428529 0.608375 -0.176188
0.430143 0.603200 -0.175190
0.431484 0.597574 -0.174085
0.435054 0.596289 -0.173978
0.440586 0.598694 -0.174724
0.444502 0.597989 -0.174750
0.448759 0.597886 -0.174914
0.454367 0.600205 -0.175640
0.458755 0.600230 -0.175833
0.461969 0.598115 -0.175527
0.465773 0.597042 -0.175462
0.474535 0.604598 -0.177407
0.478629 0.603886 -0.177426
0.479091 0.596941 -0.175986
0.483141 0.596156 -0.175983
0.487921 0.596560 -0.176257
0.494306 0.599558 -0.177138
0.499253 0.600091 -0.177441
0.501507 0.596202 -0.176705
0.509122 0.600930 -0.177992
0.511072 0.596528 -0.177131
0.515114 0.595444 -0.177048
0.519286 0.594531 -0.177005
0.523810 0.594124 -0.177079
0.527847 0.592928 -0.176966
0.534614 0.595809 -0.177815
0.541084 0.598131 -0.178533
0.546224 0.598389 -0.178762
0.549385 0.595699 -0.178289
0.553289 0.594078 -0.178069
0.557555 0.592949 -0.177964
0.562356 0.592540 -0.178029
0.569747 0.595706 -0.178945
0.576541 0.597923 -0.179635
0.578982 0.594067 -0.178876
0.583510 0.593065 -0.178797
0.583035 0.585302 -0.177100
0.593076 0.591626 -0.178771
0.596652 0.589256 -0.178362
0.601380 0.588380 -0.178311
0.609864 0.592315 -0.179414
0.615546 0.592542 -0.179628
0.617097 0.587487 -0.178573
0.622467 0.587268 -0.178681
0.631970 0.592136 -0.180016
0.637474 0.591956 -0.180137
0.641737 0.590232 -0.179887
0.646216 0.588766 -0.179701
0.658772 0.596929 -0.181846
0.667874 0.600831 -0.182967
0.667347 0.593373 -0.181338
0.672006 0.592049 -0.181199
0.677378 0.591557 -0.181265
0.682772 0.591095 -0.181342
0.688238 0.590723 -0.181447
0.681255 0.576472 -0.178173
0.691043 0.581039 -0.179490
0.704228 0.589266 -0.181710
0.716499 0.596380 -0.183670
0.717338 0.591092 -0.182602
0.723044 0.591129 -0.182845
0.737749 0.600733 -0.185446
-0.154919 0.599684 -0.139731
-0.152057 0.600869 -0.140164
-0.148823 0.600994 -0.140415
-0.145665 0.601537 -0.140753
-0.142661 0.602777 -0.141229
-0.138584 0.600395 -0.141049
-0.135792 0.602690 -0.141737
-0.132434 0.603107 -0.142088
-0.128734 0.602373 -0.142234
-0.125057 0.601798 -0.142416
-0.121634 0.602272 -0.142798
-0.118211 0.602840 -0.143203
-0.114807 0.603576 -0.143645
-0.111392 0.604352 -0.144098
-0.107840 0.604633 -0.144463
-0.104212 0.604633 -0.144778
-0.100618 0.604808 -0.145128
-0.097015 0.604968 -0.145476
-0.093401 0.605091 -0.145819
-0.089902 0.605759 -0.146266
-0.086338 0.606135 -0.146658
-0.082065 0.603017 -0.146385
-0.078805 0.604838 -0.147051
-0.075358 0.605754 -0.147545
-0.071748 0.605817 -0.147875
-0.068012 0.605145 -0.148062
-0.064624 0.606353 -0.148608
-0.060913 0.605707 -0.148796
-0.057420 0.606264 -0.149214
-0.053819 0.606134 -0.149498
-0.050108 0.605238 -0.149630
-0.046523 0.605044 -0.149895
-0.042947 0.604834 -0.150155
-0.039303 0.604056 -0.150301
-0.035899 0.604894 -0.150760
-0.032878 0.608604 -0.151782
-0.029060 0.606297 -0.151619
-0.024987 0.601666 -0.150994
-0.021760 0.603716 -0.151683
-0.018218 0.603100 -0.151843
-0.014704 0.602604 -0.152023
-0.011300 0.603040 -0.152386
-0.007833 0.602798 -0.152612
-0.004655 0.605532 -0.153429
-0.001771 0.611755 -0.154942
0.001616 0.612663 -0.155394
0.005512 0.607218 -0.154569
0.009300 0.602453 -0.153875
0.012712 0.602308 -0.154105
0.015734 0.607988 -0.155508
0.019274 0.605973 -0.155357
0.022343 0.611912 -0.156813
0.025723 0.612828 -0.157253
0.029241 0.610898 -0.157113
0.032674 0.610453 -0.157273
0.036045 0.611514 -0.157736
0.039545 0.608822 -0.157433
0.043040 0.605283 -0.156953
0.046294 0.610667 -0.158296
0.049771 0.606607 -0.157704
0.053106 0.609984 -0.158635
0.056496 0.610748 -0.159030
0.059897 0.610272 -0.159168
0.063294 0.610196 -0.159386
0.066674 0.606774 -0.158912
0.070008 0.601937 -0.158140
0.073378 0.602746 -0.158536
0.076747 0.603064 -0.158829
0.080125 0.603555 -0.159156
0.083489 0.603364 -0.159341
0.086905 0.604734 -0.159851
0.090438 0.608814 -0.160926
0.093906 0.610409 -0.161483
0.097350 0.611117 -0.161855
0.100595 0.607822 -0.161385
0.103522 0.599420 -0.159839
0.107083 0.602579 -0.160721
0.110479 0.602741 -0.160972
0.113982 0.604335 -0.161525
0.117803 0.609882 -0.162914
0.121741 0.616186 -0.164466
0.125452 0.619076 -0.165297
0.129049 0.620329 -0.165782
0.131414 0.608393 -0.163463
0.134460 0.604404 -0.162827
0.138005 0.605532 -0.163281
0.141692 0.607801 -0.163978
0.144923 0.605838 -0.163771
0.148256 0.604838 -0.163769
0.151945 0.606762 -0.164394
0.155439 0.606974 -0.164651
0.158836 0.606402 -0.164739
0.162048 0.604480 -0.164536
0.166284 0.609822 -0.165899
0.169816 0.610004 -0.166149
0.173221 0.609292 -0.166207
0.176610 0.608480 -0.166243
0.179598 0.605206 -0.165744
0.183012 0.604631 -0.165829
0.186540 0.604717 -0.166057
0.189474 0.601395 -0.165543
0.193003 0.601493 -0.165773
0.196814 0.603052 -0.166322
0.200329 0.602949 -0.166508
0.203739 0.602281 -0.166571
0.207339 0.602552 -0.166839
0.212612 0.610879 -0.168874
0.216885 0.614047 -0.169781
0.218979 0.606964 -0.168435
0.221991 0.604312 -0.168061
0.226421 0.608000 -0.169084
0.230268 0.608979 -0.169511
0.233575 0.607598 -0.169416
0.236580 0.604989 -0.169049
0.239290 0.601256 -0.168431
0.242921 0.601301 -0.168650
0.246686 0.601833 -0.168977
0.250947 0.604207 -0.169714
0.256493 0.611273 -0.171499
0.259590 0.609038 -0.171213
0.263648 0.610319 -0.171710
0.268048 0.612733 -0.172462
0.271750 0.612603 -0.172646
0.274665 0.609752 -0.172219
0.277049 0.605185 -0.171405
0.278656 0.598180 -0.170040
0.282738 0.599415 -0.170527
0.286717 0.600245 -0.170923
0.290596 0.600704 -0.171236
0.295950 0.605675 -0.172569
0.301226 0.610216 -0.173808
0.304841 0.609619 -0.173885
0.307149 0.605159 -0.173085
0.308911 0.599223 -0.171946
0.312410 0.598397 -0.171967
0.316895 0.600336 -0.172618
0.320960 0.601023 -0.172984
0.325150 0.602002 -0.173417
0.330270 0.605422 -0.174409
0.336335 0.611222 -0.175947
0.338352 0.606240 -0.175017
0.342931 0.607973 -0.175625
0.348337 0.611728 -0.176699
0.352606 0.612498 -0.177088
0.355684 0.610268 -0.176785
0.355260 0.599520 -0.174516
0.358945 0.598916 -0.174584
0.362661 0.598372 -0.174665
0.366882 0.598995 -0.175015
0.371519 0.600529 -0.175578
0.382965 0.617549 -0.179737
0.389185 0.622315 -0.181056
0.388395 0.611310 -0.178706
0.389997 0.605805 -0.177632
0.393051 0.603554 -0.177313
0.395786 0.600640 -0.176837
0.398199 0.597078 -0.176208
0.403370 0.599341 -0.176941
0.406836 0.597987 -0.176827
0.410952 0.597955 -0.177021
0.418599 0.605023 -0.178884
0.425467 0.610332 -0.180337
0.427889 0.606701 -0.179685
0.428818 0.600200 -0.178354
0.431639 0.597459 -0.177906
0.435940 0.597561 -0.178128
0.439837 0.596858 -0.178160
0.444615 0.597771 -0.178573
0.449691 0.599171 -0.179102
0.452799 0.596909 -0.178761
0.456055 0.594922 -0.178483
0.459999 0.594158 -0.178495
0.469223 0.602678 -0.180718
0.472432 0.600475 -0.180387
0.475762 0.598483 -0.180103
0.478768 0.595932 -0.179684
0.482829 0.595170 -0.179692
0.487172 0.594846 -0.179803
0.497207 0.603883 -0.182160
0.499110 0.599385 -0.181268
0.505454 0.602114 -0.182112
0.507584 0.597988 -0.181306
0.510528 0.595186 -0.180815
0.514567 0.594105 -0.180738
0.520802 0.596398 -0.181474
0.523781 0.593592 -0.180978
0.528095 0.592816 -0.180970
0.536468 0.598100 -0.182430
0.543198 0.600776 -0.183260
0.547494 0.599755 -0.183192
0.550736 0.597162 -0.182740
0.553363 0.593677 -0.182069
0.557580 0.592475 -0.181952
0.562267 0.591900 -0.181987
0.570044 0.595603 -0.183065
0.574592 0.594701 -0.183019
0.582423 0.598257 -0.184063
0.582187 0.590741 -0.182398
0.582362 0.583869 -0.180886
0.592970 0.590947 -0.182793
0.597328 0.589603 -0.182636
0.601737 0.588299 -0.182488
0.614443 0.597666 -0.184966
0.617965 0.595068 -0.184501
0.620787 0.591588 -0.183819
0.625000 0.589869 -0.183570
0.633480 0.593424 -0.184626
