ply
format ascii 1.0
comment ---
element vertex 1688
property float x
property float y
property float z
element face 0
property list uchar uint vertex_indices
end_header
0.150522 0.611604 -0.327661
0.154082 0.610539 -0.327477
0.157494 0.608544 -0.326883
0.160168 0.602009 -0.324277
0.163794 0.601650 -0.324405
0.167382 0.601050 -0.324427
0.170871 0.599889 -0.324201
0.177673 0.617174 -0.332175
0.181676 0.618336 -0.332991
0.184285 0.612082 -0.330506
0.186658 0.604925 -0.327615
0.189868 0.602277 -0.326731
0.193747 0.602975 -0.327340
0.197557 0.603282 -0.327778
0.201634 0.604773 -0.328747
0.205313 0.604373 -0.328871
0.210852 0.612139 -0.332658
0.215129 0.614096 -0.333847
0.218505 0.612151 -0.333286
0.222097 0.611145 -0.333147
0.226462 0.613260 -0.334414
0.229707 0.610847 -0.333645
0.233068 0.608948 -0.333107
0.237557 0.611356 -0.334515
0.241200 0.610503 -0.334452
0.245538 0.612176 -0.335534
0.249944 0.613991 -0.336683
0.255008 0.618004 -0.338833
0.258186 0.615376 -0.337976
0.260639 0.610371 -0.336039
0.263899 0.608177 -0.335378
0.270014 0.615288 -0.338953
0.273634 0.614166 -0.338785
0.276755 0.611487 -0.337910
0.279803 0.608640 -0.336958
0.283993 0.609311 -0.337614
0.288692 0.611434 -0.338938
0.294135 0.615634 -0.341219
0.296548 0.610934 -0.339426
0.298347 0.604608 -0.336885
0.300955 0.600698 -0.335451
0.309137 0.612182 -0.341099
0.308868 0.600421 -0.336056
0.312722 0.599959 -0.336215
0.318377 0.604197 -0.338547
0.321960 0.602914 -0.338335
0.325501 0.601521 -0.338075
0.335120 0.615380 -0.344884
0.338035 0.612216 -0.343816
0.340731 0.608568 -0.342525
0.342946 0.603822 -0.340723
0.349838 0.610250 -0.344122
0.354532 0.611318 -0.345035
0.356396 0.605787 -0.342875
0.359089 0.602244 -0.341642
0.360603 0.596104 -0.339194
0.365739 0.598100 -0.340557
0.371268 0.600852 -0.342282
0.375386 0.600444 -0.342531
0.379580 0.600157 -0.342842
0.385103 0.602618 -0.344453
0.388286 0.600116 -0.343732
0.390871 0.596400 -0.342440
0.394416 0.594667 -0.342088
0.400643 0.598275 -0.344269
0.404695 0.597454 -0.344361
0.408820 0.596742 -0.344510
0.413528 0.597112 -0.345179
0.418089 0.597139 -0.345691
0.423249 0.598233 -0.346720
0.428606 0.599608 -0.347892
0.432763 0.598697 -0.347977
0.436662 0.597284 -0.347828
0.440986 0.596606 -0.348037
0.446780 0.598483 -0.349480
0.450788 0.597141 -0.349382
0.454971 0.596075 -0.349423
0.461757 0.599411 -0.351596
0.466044 0.598404 -0.351678
0.469832 0.596533 -0.351346
0.474464 0.596036 -0.351686
0.478917 0.595207 -0.351869
0.484141 0.595582 -0.352643
0.488752 0.594920 -0.352917
0.494248 0.595616 -0.353859
0.500294 0.597101 -0.355193
0.503932 0.594807 -0.354680
0.510411 0.596837 -0.356292
0.514905 0.595798 -0.356398
0.519296 0.594593 -0.356423
0.523960 0.593781 -0.356642
0.531443 0.597055 -0.358883
0.536579 0.596858 -0.359407
0.541387 0.596179 -0.359689
0.546369 0.595746 -0.360090
0.552013 0.596233 -0.360944
0.556877 0.595633 -0.361251
0.562328 0.595848 -0.361958
0.567883 0.596209 -0.362730
0.572529 0.595362 -0.362887
0.577661 0.595198 -0.363374
0.582376 0.594520 -0.363590
0.586975 0.593739 -0.363740
0.592858 0.594667 -0.364736
0.598483 0.595297 -0.365566
0.603139 0.594746 -0.365781
0.608109 0.594659 -0.366212
0.614863 0.596849 -0.367779
-0.279768 0.597273 -0.301990
-0.278006 0.601098 -0.303826
-0.275735 0.604013 -0.305277
-0.271257 0.602203 -0.304756
-0.268006 0.603229 -0.305403
-0.264414 0.603607 -0.305771
-0.260362 0.603041 -0.305737
-0.257345 0.604971 -0.306732
-0.253463 0.604991 -0.306923
-0.249190 0.604157 -0.306750
-0.244569 0.602528 -0.306238
-0.242385 0.606917 -0.308229
-0.237929 0.605815 -0.307922
-0.234030 0.606137 -0.308204
-0.230468 0.607377 -0.308864
-0.226845 0.608523 -0.309480
-0.222238 0.607121 -0.309027
-0.218178 0.607162 -0.309174
-0.213991 0.606866 -0.309176
-0.209846 0.606680 -0.309222
-0.206309 0.608190 -0.309977
-0.202588 0.609216 -0.310527
-0.198063 0.607914 -0.310102
-0.194125 0.608281 -0.310375
-0.190047 0.608213 -0.310465
-0.186328 0.609210 -0.311003
-0.182429 0.609646 -0.311306
-0.178071 0.608599 -0.310987
-0.173820 0.607820 -0.310781
-0.169395 0.606392 -0.310303
-0.165839 0.607771 -0.311008
-0.162225 0.608957 -0.311634
-0.158303 0.609067 -0.311808
-0.153964 0.607645 -0.311340
-0.149696 0.606370 -0.310935
-0.145816 0.606420 -0.311091
-0.142182 0.607340 -0.311616
-0.138445 0.607846 -0.311969
-0.134479 0.607420 -0.311932
-0.130823 0.608158 -0.312388
-0.127034 0.608325 -0.312607
-0.123278 0.608578 -0.312865
-0.119302 0.607846 -0.312708
-0.115377 0.607247 -0.312611
-0.111502 0.606784 -0.312573
-0.107901 0.607506 -0.313040
-0.104358 0.608481 -0.313618
-0.100041 0.605709 -0.312609
-0.096306 0.605621 -0.312741
-0.092904 0.607173 -0.313572
-0.089029 0.606288 -0.313370
-0.085257 0.605851 -0.313362
-0.081668 0.606345 -0.313752
-0.077943 0.606054 -0.313811
-0.074465 0.607139 -0.314459
-0.070914 0.607801 -0.314929
-0.067246 0.607734 -0.315091
-0.063479 0.606974 -0.314960
-0.059788 0.606627 -0.315008
-0.056237 0.607184 -0.315443
-0.052414 0.605789 -0.315048
-0.048961 0.606995 -0.315766
-0.045393 0.607366 -0.316130
-0.041693 0.606671 -0.316040
-0.038060 0.606444 -0.316152
-0.034651 0.608120 -0.317083
-0.031431 0.611634 -0.318806
-0.027755 0.611096 -0.318793
-0.024613 0.615835 -0.321050
-0.020657 0.612443 -0.319814
-0.016466 0.606037 -0.317279
-0.012785 0.604863 -0.316997
-0.009247 0.605314 -0.317418
-0.005795 0.606957 -0.318354
-0.002460 0.610519 -0.320123
0.001047 0.611944 -0.320972
0.004332 0.617321 -0.323534
0.008056 0.615634 -0.323042
0.012178 0.605562 -0.318919
0.015734 0.605950 -0.319326
0.019263 0.607132 -0.320079
0.022845 0.607126 -0.320319
0.026433 0.606940 -0.320482
0.030011 0.607114 -0.320803
0.033598 0.607007 -0.321004
0.037200 0.605849 -0.320748
0.040795 0.604379 -0.320357
0.044366 0.605383 -0.321046
0.047949 0.606126 -0.321623
0.051540 0.606655 -0.322109
0.055212 0.613984 -0.325570
0.058864 0.615230 -0.326375
0.062457 0.612879 -0.325607
0.066017 0.610111 -0.324655
0.069415 0.602939 -0.321770
0.073092 0.605414 -0.323119
0.076780 0.607475 -0.324288
0.080330 0.606031 -0.323918
0.083933 0.605832 -0.324096
0.087630 0.607292 -0.325007
0.091439 0.610268 -0.326589
0.095141 0.611112 -0.327232
0.098742 0.610386 -0.327184
0.102353 0.609839 -0.327216
0.105888 0.608375 -0.326843
0.109293 0.605540 -0.325862
0.113129 0.607661 -0.327078
0.116630 0.606056 -0.326643
0.120116 0.604434 -0.326200
0.123697 0.603805 -0.326199
0.127414 0.604398 -0.326742
0.132265 0.614542 -0.331541
0.135789 0.612990 -0.331135
0.139162 0.610343 -0.330240
0.142838 0.610140 -0.330436
0.146125 0.607108 -0.329369
0.149796 0.606928 -0.329576
0.153051 0.603933 -0.328524
0.157208 0.606963 -0.330171
0.161456 0.610335 -0.331975
0.165462 0.611986 -0.333010
0.169051 0.611039 -0.332881
0.173320 0.614013 -0.334516
0.178092 0.619570 -0.337317
0.181576 0.617831 -0.336837
0.183606 0.608517 -0.332940
0.186382 0.603481 -0.330968
0.190030 0.603019 -0.331060
0.193675 0.602532 -0.331142
0.197464 0.602723 -0.331533
0.201354 0.603339 -0.332117
0.205277 0.604041 -0.332743
0.211111 0.613079 -0.337156
0.214688 0.611979 -0.336971
0.218266 0.610900 -0.336796
0.222895 0.614155 -0.338596
0.227625 0.617641 -0.340506
0.231115 0.616074 -0.340116
0.232949 0.608160 -0.336827
0.237658 0.611384 -0.338626
0.241894 0.612701 -0.339556
0.246099 0.613820 -0.340400
0.251287 0.618360 -0.342815
0.255172 0.618147 -0.343056
0.257955 0.614141 -0.341555
0.261015 0.611176 -0.340533
0.265173 0.611907 -0.341212
0.269616 0.613503 -0.342292
0.273005 0.611654 -0.341788
0.276125 0.608992 -0.340910
0.279140 0.606065 -0.339909
0.283537 0.607378 -0.340871
0.288396 0.609986 -0.342437
0.291722 0.607988 -0.341872
0.295529 0.607402 -0.341965
0.299064 0.606029 -0.341694
0.303216 0.606383 -0.342229
0.307674 0.607523 -0.343135
0.309347 0.601071 -0.340504
0.314004 0.602711 -0.341648
0.318345 0.603436 -0.342371
0.322011 0.602355 -0.342253
0.325841 0.601684 -0.342331
0.329943 0.601674 -0.342722
0.334255 0.602140 -0.343340
0.338537 0.602478 -0.343904
0.342085 0.600999 -0.343617
0.345918 0.600193 -0.343650
0.350241 0.600509 -0.344217
0.354680 0.601039 -0.344891
0.357928 0.598801 -0.344260
0.362614 0.599801 -0.345166
0.365200 0.596084 -0.343841
0.369931 0.597095 -0.344763
0.375894 0.600684 -0.346918
0.379992 0.600168 -0.347128
0.384354 0.600169 -0.347590
0.388315 0.599286 -0.347636
0.391102 0.595976 -0.346526
0.397344 0.599670 -0.348773
0.401101 0.598266 -0.348585
0.405025 0.597170 -0.348550
0.410439 0.598943 -0.349901
0.414476 0.597976 -0.349941
0.420571 0.600876 -0.351852
0.424895 0.600335 -0.352111
0.428902 0.599162 -0.352071
0.432854 0.597859 -0.351973
0.437030 0.596936 -0.352064
0.442597 0.598459 -0.353351
0.446797 0.597477 -0.353426
0.451082 0.596609 -0.353563
0.456932 0.598398 -0.355005
0.462127 0.598973 -0.355862
0.466319 0.597791 -0.355864
0.470516 0.596588 -0.355862
0.474762 0.595437 -0.355889
0.479033 0.594300 -0.355927
0.485374 0.596458 -0.357597
0.489863 0.595575 -0.357771
0.495848 0.597010 -0.359098
0.500874 0.596876 -0.359653
0.506251 0.597239 -0.360459
0.511105 0.596757 -0.360847
0.515801 0.596009 -0.361105
0.520308 0.594961 -0.361214
0.526952 0.597038 -0.362887
0.531983 0.596701 -0.363352
0.536982 0.596302 -0.363784
0.542066 0.596012 -0.364269
0.547555 0.596285 -0.365034
0.552071 0.595191 -0.365103
0.556924 0.594583 -0.365411
0.562036 0.594343 -0.365897
0.567937 0.595182 -0.366921
0.572901 0.594772 -0.367302
0.577045 0.593310 -0.367134
0.583463 0.594881 -0.368498
0.587169 0.592945 -0.368057
0.593575 0.594555 -0.369414
0.598941 0.594862 -0.370087
0.604518 0.595485 -0.370903
0.609564 0.595495 -0.371387
0.613139 0.593749 -0.370945
-0.279849 0.595963 -0.305382
-0.279412 0.602623 -0.308436
-0.275586 0.602115 -0.308468
-0.272421 0.603186 -0.309154
-0.268537 0.602781 -0.309207
-0.264607 0.602370 -0.309247
-0.260656 0.602005 -0.309297
-0.257513 0.603612 -0.310168
-0.254483 0.605614 -0.311198
-0.250611 0.605739 -0.311427
-0.246663 0.605757 -0.311602
-0.243136 0.606878 -0.312236
-0.239445 0.607680 -0.312728
-0.234925 0.606459 -0.312358
-0.231149 0.607152 -0.312792
-0.227692 0.608725 -0.313594
-0.223441 0.608276 -0.313535
-0.218899 0.607054 -0.313144
-0.214406 0.605932 -0.312792
-0.210518 0.606454 -0.313134
-0.206792 0.607440 -0.313672
-0.202962 0.608152 -0.314092
-0.198765 0.607809 -0.314062
-0.194856 0.608279 -0.314378
-0.190764 0.608189 -0.314455
-0.186752 0.608312 -0.314623
-0.182881 0.608842 -0.314964
-0.178803 0.608693 -0.315018
-0.174267 0.607027 -0.314426
-0.170363 0.607324 -0.314672
-0.166385 0.607338 -0.314799
-0.163025 0.609407 -0.315804
-0.159139 0.609679 -0.316045
-0.154396 0.606879 -0.314977
-0.149957 0.605008 -0.314307
-0.146919 0.608160 -0.315784
-0.143089 0.608413 -0.316027
-0.138883 0.607177 -0.315635
-0.135401 0.608668 -0.316411
-0.131380 0.608007 -0.316271
-0.127648 0.608442 -0.316602
-0.123925 0.608879 -0.316937
-0.119583 0.606629 -0.316123
-0.115674 0.606113 -0.316055
-0.111911 0.606167 -0.316234
-0.108286 0.606803 -0.316666
-0.104706 0.607622 -0.317179
-0.100804 0.606878 -0.317024
-0.097200 0.607513 -0.317464
-0.093197 0.606107 -0.317030
-0.089315 0.605200 -0.316813
-0.085972 0.607079 -0.317797
-0.082319 0.607301 -0.318072
-0.078421 0.606106 -0.317738
-0.074879 0.606863 -0.318249
-0.071404 0.608018 -0.318934
-0.067673 0.607615 -0.318950
-0.063941 0.607137 -0.318936
-0.060264 0.606943 -0.319047
-0.056622 0.606934 -0.319240
-0.053009 0.607087 -0.319506
-0.049581 0.608572 -0.320352
-0.045905 0.608235 -0.320411
-0.042205 0.607644 -0.320362
-0.038530 0.607168 -0.320365
-0.034986 0.607755 -0.320832
-0.031708 0.610781 -0.322362
-0.027973 0.609714 -0.322115
-0.024124 0.607370 -0.321314
-0.020596 0.608134 -0.321868
-0.016761 0.605543 -0.320961
-0.013159 0.605357 -0.321104
-0.009611 0.605796 -0.321522
-0.006103 0.606808 -0.322193
-0.002933 0.612794 -0.325042
0.000019 0.623024 -0.329755
0.004067 0.616683 -0.327217
0.007949 0.612201 -0.325492
0.011935 0.604725 -0.322453
0.015445 0.606174 -0.323328
0.018991 0.607112 -0.323982
0.022609 0.606267 -0.323854
0.026196 0.606172 -0.324058
0.029774 0.606447 -0.324426
0.033368 0.606113 -0.324526
0.036944 0.606921 -0.325133
0.040562 0.604223 -0.324194
0.044144 0.604032 -0.324362
0.047726 0.605045 -0.325063
0.051316 0.605228 -0.325400
0.055013 0.615201 -0.330074
0.058711 0.618601 -0.331844
0.062317 0.615800 -0.330866
0.065921 0.613885 -0.330281
0.069314 0.605661 -0.326892
0.072977 0.607197 -0.327840
0.076582 0.606878 -0.327964
0.080181 0.606428 -0.328031
0.083781 0.606013 -0.328115
0.087429 0.606473 -0.328589
0.091334 0.611004 -0.330884
0.095081 0.612393 -0.331779
0.098766 0.612665 -0.332177
0.102677 0.615802 -0.333858
0.105985 0.611107 -0.332034
0.109534 0.609698 -0.331681
0.113127 0.608879 -0.331593
0.117167 0.612712 -0.333596
0.120932 0.613428 -0.334201
0.124772 0.614721 -0.335068
0.127852 0.609100 -0.332823
0.132170 0.614460 -0.335525
0.135352 0.610079 -0.333837
0.138670 0.607074 -0.332768
0.142397 0.607337 -0.333176
0.145997 0.606624 -0.333143
0.149439 0.604825 -0.332619
0.153148 0.604912 -0.332950
0.157221 0.607327 -0.334338
0.161962 0.613750 -0.337550
0.166041 0.615700 -0.338736
0.169438 0.613471 -0.338023
0.173483 0.615051 -0.339044
0.178084 0.619596 -0.341420
0.181822 0.619187 -0.341541
0.183422 0.607549 -0.336534
0.186855 0.605862 -0.336068
0.190781 0.606688 -0.336752
0.194701 0.607413 -0.337392
0.197379 0.602200 -0.335312
0.201348 0.603162 -0.336063
0.205181 0.603433 -0.336499
0.210697 0.611057 -0.340317
0.214256 0.609898 -0.340102
0.218011 0.609580 -0.340276
0.222177 0.610930 -0.341220
0.226902 0.614441 -0.343164
0.230473 0.613230 -0.342933
0.234375 0.613315 -0.343301
0.237238 0.609444 -0.341841
0.240526 0.607267 -0.341165
0.244589 0.607950 -0.341815
0.248483 0.607977 -0.342163
0.252276 0.607616 -0.342335
0.255740 0.606111 -0.341975
0.259506 0.605643 -0.342100
0.265023 0.610929 -0.344910
0.268235 0.608531 -0.344141
0.271788 0.607267 -0.343903
0.274667 0.603903 -0.342684
0.278259 0.602814 -0.342530
0.282332 0.603176 -0.343058
0.286254 0.603042 -0.343357
0.290190 0.602919 -0.343664
0.293969 0.602314 -0.343748
0.298029 0.602484 -0.344199
0.302559 0.603919 -0.345251
0.306486 0.603620 -0.345490
0.310503 0.603533 -0.345832
0.314505 0.603370 -0.346142
0.318333 0.602717 -0.346225
0.322172 0.602073 -0.346314
0.326354 0.602277 -0.346810
0.330210 0.601618 -0.346900
0.334169 0.601190 -0.347105
0.338196 0.600894 -0.347376
0.342860 0.602095 -0.348365
0.346469 0.600719 -0.348130
0.350591 0.600536 -0.348469
0.354578 0.600000 -0.348644
0.358426 0.599119 -0.348659
0.362511 0.598744 -0.348920
0.367455 0.600228 -0.350080
0.371662 0.600018 -0.350432
0.375822 0.599665 -0.350722
0.379879 0.599051 -0.350890
0.384183 0.598919 -0.351297
0.388981 0.599762 -0.352182
0.392816 0.598565 -0.352086
0.397930 0.599925 -0.353235
0.401823 0.598766 -0.353168
0.406256 0.598642 -0.353611
0.411130 0.599323 -0.354453
0.416204 0.600316 -0.355455
0.420812 0.600345 -0.355994
0.425006 0.599542 -0.356133
0.428887 0.598125 -0.355976
0.433097 0.597286 -0.356109
0.437493 0.596743 -0.356393
0.442197 0.596705 -0.356933
0.447404 0.597496 -0.357888
0.451842 0.596871 -0.358153
0.457377 0.598092 -0.359337
0.462257 0.598111 -0.359935
0.466566 0.597116 -0.360035
0.470941 0.596196 -0.360178
0.475282 0.595188 -0.360282
0.480170 0.595035 -0.360817
0.486104 0.596508 -0.362172
0.490204 0.594991 -0.362036
0.496028 0.596158 -0.363251
0.501031 0.595982 -0.363796
0.506439 0.596384 -0.364636
0.512274 0.597382 -0.365781
0.517042 0.596721 -0.366091
0.521755 0.595957 -0.366350
0.526807 0.595676 -0.366853
0.532228 0.595907 -0.367616
0.537517 0.595923 -0.368267
0.542917 0.596078 -0.368988
0.548260 0.596137 -0.369656
0.553066 0.595443 -0.369933
0.557415 0.594136 -0.369887
0.563078 0.594646 -0.370766
0.568814 0.595259 -0.371688
0.573678 0.594715 -0.372004
0.578064 0.593576 -0.372000
0.585266 0.596171 -0.373911
0.589965 0.595515 -0.374127
0.594806 0.595100 -0.374449
0.600453 0.595765 -0.375314
0.606288 0.596712 -0.376308
0.609832 0.594847 -0.375817
0.611360 0.590589 -0.374054
-0.284560 0.604580 -0.312994
-0.280068 0.602518 -0.312380
-0.276469 0.602487 -0.312617
-0.272960 0.602776 -0.312980
-0.269643 0.603619 -0.313568
-0.264248 0.599883 -0.312189
-0.260956 0.600986 -0.312865
-0.258732 0.604694 -0.314647
-0.254889 0.604781 -0.314870
-0.251287 0.605527 -0.315367
-0.247985 0.607096 -0.316207
-0.243784 0.606574 -0.316144
-0.239655 0.606276 -0.316169
-0.235693 0.606442 -0.316386
-0.231731 0.606658 -0.316618
-0.228035 0.607603 -0.317158
-0.224044 0.607828 -0.317384
-0.219724 0.607202 -0.317240
-0.215612 0.607128 -0.317330
-0.211268 0.606420 -0.317144
-0.207445 0.607146 -0.317572
-0.203503 0.607548 -0.317859
-0.199634 0.608161 -0.318237
-0.195313 0.607442 -0.318039
-0.191621 0.608558 -0.318632
-0.187244 0.607598 -0.318330
-0.183177 0.607529 -0.318413
-0.179183 0.607650 -0.318578
-0.175187 0.607729 -0.318726
-0.171169 0.607693 -0.318826
-0.167677 0.609362 -0.319664
-0.163703 0.609408 -0.319803
-0.159723 0.609384 -0.319914
-0.155831 0.609621 -0.320140
-0.151079 0.606718 -0.319010
-0.147188 0.606801 -0.319173
-0.143793 0.608687 -0.320120
-0.139923 0.608782 -0.320295
-0.135991 0.608582 -0.320344
-0.132167 0.608745 -0.320554
-0.128234 0.608416 -0.320553
-0.123949 0.606548 -0.319887
-0.120186 0.606758 -0.320126
-0.116063 0.605356 -0.319667
-0.112363 0.605711 -0.319975
-0.108693 0.606169 -0.320330
-0.104968 0.606334 -0.320561
-0.101520 0.607782 -0.321354
-0.097445 0.606163 -0.320814
-0.093783 0.606492 -0.321126
-0.089879 0.605531 -0.320878
-0.086392 0.606689 -0.321557
-0.082706 0.606769 -0.321769
-0.079267 0.608200 -0.322574
-0.075572 0.608175 -0.322746
-0.071864 0.608025 -0.322867
-0.068060 0.607220 -0.322703
-0.064327 0.606776 -0.322700
-0.060679 0.606812 -0.322910
-0.057017 0.606719 -0.323065
-0.053368 0.606665 -0.323241
-0.049961 0.608342 -0.324178
-0.046233 0.607661 -0.324084
-0.042499 0.606836 -0.323928
-0.038892 0.606961 -0.324192
-0.035338 0.607509 -0.324645
-0.032055 0.610524 -0.326187
-0.028177 0.608179 -0.325371
-0.024504 0.607589 -0.325330
-0.021077 0.609490 -0.326390
-0.017080 0.605276 -0.324753
-0.013439 0.604706 -0.324726
-0.009879 0.605037 -0.325099
-0.006366 0.606021 -0.325763
-0.003310 0.613618 -0.329359
-0.000170 0.621093 -0.332908
0.003608 0.619217 -0.332316
0.007679 0.611703 -0.329222
0.011595 0.605768 -0.326827
0.015206 0.605231 -0.326829
0.018766 0.605867 -0.327354
0.022305 0.607270 -0.328224
0.025887 0.607719 -0.328670
0.029487 0.607699 -0.328911
0.033070 0.608575 -0.329552
0.036683 0.608065 -0.329576
0.040259 0.611047 -0.331163
0.043891 0.608905 -0.330461
0.047504 0.612453 -0.332307
0.051160 0.617038 -0.334621
0.054836 0.618790 -0.335670
0.058481 0.617254 -0.335247
0.062163 0.618120 -0.335902
0.065757 0.615100 -0.334813
0.069166 0.606932 -0.331406
0.072790 0.607056 -0.331729
0.076388 0.606410 -0.331706
0.079978 0.605690 -0.331651
0.083625 0.606150 -0.332129
0.087330 0.607526 -0.333023
0.091182 0.610998 -0.334867
0.095129 0.615335 -0.337106
0.099048 0.618590 -0.338860
0.102470 0.614860 -0.337451
0.105965 0.612433 -0.336632
0.109464 0.610298 -0.335945
0.113394 0.613049 -0.337478
0.117208 0.614272 -0.338320
0.121229 0.617364 -0.340014
0.125117 0.618863 -0.340987
0.128814 0.618482 -0.341104
0.131824 0.612248 -0.338551
0.135410 0.611199 -0.338363
0.138800 0.608665 -0.337496
0.142371 0.607642 -0.337320
0.146659 0.611859 -0.339545
0.150693 0.613956 -0.340803
0.153745 0.609262 -0.338948
0.157507 0.609467 -0.339340
0.161493 0.611031 -0.340358
0.166063 0.616019 -0.342956
0.169086 0.611537 -0.341196
0.172276 0.608246 -0.339984
0.176947 0.613343 -0.342641
0.181893 0.619599 -0.345839
0.185009 0.615875 -0.344429
0.186898 0.606046 -0.340194
0.190713 0.606284 -0.340614
0.194413 0.605920 -0.340757
0.197930 0.604677 -0.340494
0.201423 0.603350 -0.340192
0.205450 0.604461 -0.341024
0.209998 0.607776 -0.342885
0.213734 0.607422 -0.343042
0.216761 0.604078 -0.341806
0.221449 0.607668 -0.343805
0.224571 0.604781 -0.342784
0.228601 0.605552 -0.343472
0.232284 0.604923 -0.343509
0.235709 0.603319 -0.343090
0.239203 0.602000 -0.342805
0.242774 0.600980 -0.342663
0.247027 0.602389 -0.343663
0.250949 0.602557 -0.344083
0.254726 0.602189 -0.344254
0.258699 0.602463 -0.344729
0.262635 0.602571 -0.345129
0.267488 0.605607 -0.346916
0.270688 0.603249 -0.346157
0.273957 0.601150 -0.345522
0.277854 0.601020 -0.345820
0.281923 0.601374 -0.346352
0.286180 0.602243 -0.347132
0.290217 0.602404 -0.347580
0.293946 0.601637 -0.347589
0.297900 0.601493 -0.347898
0.302088 0.601969 -0.348507
0.306656 0.603431 -0.349591
0.310539 0.602962 -0.349757
0.314468 0.602589 -0.349972
0.318486 0.602423 -0.350291
0.322559 0.602360 -0.350663
0.326552 0.602056 -0.350924
0.330746 0.602222 -0.351415
0.334788 0.601966 -0.351707
0.338957 0.601983 -0.352136
0.342983 0.601612 -0.352383
0.347254 0.601786 -0.352897
0.351078 0.600870 -0.352889
0.354904 0.599937 -0.352878
0.358662 0.598828 -0.352785
0.363890 0.600988 -0.354285
0.367671 0.599852 -0.354190
0.371878 0.599623 -0.354541
0.375739 0.598607 -0.354514
0.379763 0.597915 -0.354650
0.385869 0.601546 -0.356906
0.389642 0.600212 -0.356741
0.393891 0.599830 -0.357049
0.398178 0.599483 -0.357379
0.402370 0.598900 -0.357599
0.407340 0.599805 -0.358560
0.411375 0.598822 -0.358596
0.415859 0.598666 -0.359047
0.420820 0.599358 -0.359925
0.425027 0.598569 -0.360077
0.429410 0.598068 -0.360378
0.433721 0.597389 -0.360597
0.438189 0.596953 -0.360943
0.442883 0.596872 -0.361474
0.448087 0.597630 -0.362431
0.452753 0.597378 -0.362891
0.458286 0.598564 -0.364079
0.462460 0.597358 -0.364075
0.466622 0.596105 -0.364052
0.472249 0.597252 -0.365243
0.476617 0.596255 -0.365360
0.481508 0.596073 -0.365894
0.486380 0.595814 -0.366395
0.491485 0.595877 -0.367064
0.496294 0.595428 -0.367478
0.500886 0.594606 -0.367705
0.507738 0.597214 -0.369686
0.512983 0.597293 -0.370381
0.517560 0.596333 -0.370546
0.522369 0.595704 -0.370881
0.526600 0.594213 -0.370772
0.533689 0.596861 -0.372792
0.538149 0.595670 -0.372833
0.543336 0.595518 -0.373407
0.550416 0.598008 -0.375344
0.553918 0.595484 -0.374678
0.558495 0.594487 -0.374794
0.563761 0.594454 -0.375402
0.569087 0.594514 -0.376049
0.575939 0.596625 -0.377754
0.580582 0.595811 -0.377920
0.585539 0.595456 -0.378310
0.590538 0.595200 -0.378735
0.595615 0.595097 -0.379223
0.601186 0.595674 -0.380049
0.606711 0.596241 -0.380850
0.610547 0.594757 -0.380549
0.609428 0.587249 -0.377040
-0.285519 0.605145 -0.317244
-0.280269 0.601431 -0.315910
-0.276983 0.602051 -0.316434
-0.273650 0.602704 -0.316960
-0.270481 0.603853 -0.317689
-0.267046 0.604544 -0.318209
-0.264142 0.606570 -0.319296
-0.260231 0.606415 -0.319429
-0.255519 0.604469 -0.318774
-0.251927 0.605223 -0.319279
-0.248336 0.606076 -0.319819
-0.244336 0.606024 -0.319957
-0.240228 0.605766 -0.319998
-0.235813 0.604785 -0.319716
-0.231948 0.605221 -0.320045
-0.228368 0.606445 -0.320710
-0.224597 0.607232 -0.321181
-0.220600 0.607463 -0.321404
-0.216886 0.608483 -0.321968
-0.212981 0.609013 -0.322315
-0.208904 0.609081 -0.322459
-0.204446 0.608066 -0.322128
-0.200748 0.609194 -0.322729
-0.196998 0.610188 -0.323273
-0.192953 0.610314 -0.323436
-0.187867 0.607257 -0.322210
-0.183511 0.606315 -0.321907
-0.180019 0.608017 -0.322760
-0.176355 0.609189 -0.323383
-0.172306 0.609108 -0.323460
-0.168257 0.608979 -0.323516
-0.164248 0.608932 -0.323611
-0.160221 0.608767 -0.323656
-0.155426 0.605851 -0.322499
-0.151705 0.606610 -0.322953
-0.148003 0.607418 -0.323431
-0.144397 0.608558 -0.324059
-0.140509 0.608615 -0.324213
-0.136666 0.608796 -0.324426
-0.132897 0.609221 -0.324748
-0.128745 0.608052 -0.324374
-0.125034 0.608601 -0.324757
-0.121566 0.610150 -0.325583
-0.117208 0.607849 -0.324719
-0.112987 0.605991 -0.324052
-0.109331 0.606558 -0.324455
-0.105518 0.606368 -0.324529
-0.101693 0.606052 -0.324549
-0.098061 0.606611 -0.324959
-0.094251 0.606252 -0.324967
-0.090827 0.607813 -0.325825
-0.086411 0.604143 -0.324376
-0.083234 0.606975 -0.325803
-0.079522 0.606921 -0.325958
-0.075911 0.607396 -0.326349
-0.072210 0.607312 -0.326497
-0.068479 0.606990 -0.326541
-0.064759 0.606677 -0.326592
-0.061195 0.607316 -0.327069
-0.057336 0.605953 -0.326660
-0.054172 0.609348 -0.328365
-0.050383 0.608378 -0.328136
-0.046666 0.607848 -0.328105
-0.042875 0.606651 -0.327779
-0.039168 0.606001 -0.327698
-0.035728 0.607554 -0.328601
-0.032201 0.608437 -0.329209
-0.028860 0.611124 -0.330624
-0.025173 0.610623 -0.330620
-0.021225 0.607326 -0.329370
-0.017622 0.607415 -0.329633
-0.014476 0.612819 -0.332277
-0.011135 0.616448 -0.334131
-0.007223 0.613028 -0.332832
-0.003585 0.612958 -0.333035
-0.000042 0.614321 -0.333883
0.003547 0.615122 -0.334481
0.007188 0.615126 -0.334724
0.010801 0.615693 -0.335222
0.014499 0.614507 -0.334934
0.018178 0.613493 -0.334724
0.021810 0.613557 -0.335001
0.025267 0.619356 -0.337867
0.029020 0.615895 -0.336559
0.032675 0.615569 -0.336666
0.036334 0.614850 -0.336598
0.039979 0.614882 -0.336870
0.043632 0.613706 -0.336597
0.047275 0.614482 -0.337209
0.050942 0.618085 -0.339106
0.054617 0.618604 -0.339607
0.058237 0.614962 -0.338220
0.061912 0.615811 -0.338874
0.065540 0.614308 -0.338459
0.069003 0.607775 -0.335754
0.072573 0.606070 -0.335246
0.076184 0.605724 -0.335359
0.079777 0.605005 -0.335302
0.083412 0.605195 -0.335661
0.087127 0.606717 -0.336631
0.091014 0.610760 -0.338758
0.095002 0.615646 -0.341276
0.098855 0.617879 -0.342581
0.102488 0.616867 -0.342402
0.105540 0.608791 -0.338978
0.109624 0.613564 -0.341456
0.113157 0.611739 -0.340903
0.116935 0.612597 -0.341585
0.120776 0.613942 -0.342495
0.124772 0.616568 -0.343997
0.128341 0.615103 -0.343614
0.131518 0.610377 -0.341724
0.135109 0.609394 -0.341564
0.139071 0.611358 -0.342767
0.143121 0.613794 -0.344192
0.146698 0.612585 -0.343931
0.150432 0.612523 -0.344202
0.154515 0.614777 -0.345551
0.156861 0.605540 -0.341560
0.160594 0.605606 -0.341892
0.164346 0.605745 -0.342259
0.167779 0.603965 -0.341734
0.171215 0.602270 -0.341248
0.174891 0.601976 -0.341416
0.179031 0.604175 -0.342752
0.182662 0.603542 -0.342766
0.186645 0.604713 -0.343626
0.190588 0.605586 -0.344349
0.194169 0.604631 -0.344216
0.197758 0.603732 -0.344111
0.201732 0.604617 -0.344846
0.205529 0.604632 -0.345173
0.209304 0.604516 -0.345441
0.212827 0.603295 -0.345190
0.216618 0.603219 -0.345480
0.220182 0.602184 -0.345319
0.224628 0.604706 -0.346842
0.228284 0.603982 -0.346832
0.232082 0.603800 -0.347080
0.235859 0.603517 -0.347283
0.238859 0.600343 -0.346116
0.242597 0.599934 -0.346261
0.247709 0.604385 -0.348723
0.251364 0.603560 -0.348677
0.255571 0.604620 -0.349532
0.260010 0.606383 -0.350727
0.263593 0.605232 -0.350533
0.267158 0.604029 -0.350318
0.270938 0.603515 -0.350433
0.274967 0.603761 -0.350916
0.278783 0.603314 -0.351069
0.282478 0.602478 -0.351039
0.286593 0.602878 -0.351605
0.290270 0.601953 -0.351537
0.294125 0.601533 -0.351716
0.298470 0.602469 -0.352552
0.302545 0.602590 -0.352999
0.306892 0.603411 -0.353789
0.310664 0.602620 -0.353804
0.314347 0.601577 -0.353700
0.318638 0.602113 -0.354365
0.322860 0.602415 -0.354921
0.327180 0.602917 -0.355580
0.331635 0.603696 -0.356379
0.335174 0.602155 -0.356053
0.338852 0.600952 -0.355894
0.343221 0.601393 -0.356543
0.346969 0.600312 -0.356453
0.351503 0.601044 -0.357255
0.355062 0.599472 -0.356933
0.358915 0.598562 -0.356940
0.364598 0.601715 -0.358951
0.369092 0.602118 -0.359617
0.372715 0.600564 -0.359324
0.375955 0.598182 -0.358626
0.381307 0.600283 -0.360150
0.385807 0.600496 -0.360747
0.390134 0.600295 -0.361146
0.394249 0.599618 -0.361314
0.399364 0.600911 -0.362470
0.402984 0.599153 -0.362113
0.407249 0.598647 -0.362386
0.411788 0.598629 -0.362909
0.416466 0.598822 -0.363545
0.421167 0.598997 -0.364180
0.425375 0.598193 -0.364331
0.429734 0.597628 -0.364609
0.434263 0.597328 -0.365026
0.439005 0.597360 -0.365619
0.443535 0.596960 -0.366000
0.448474 0.597228 -0.366727
0.453893 0.598265 -0.367852
0.458151 0.597229 -0.367933
0.461866 0.595241 -0.367534
0.468749 0.598546 -0.369838
0.473687 0.598502 -0.370444
0.477148 0.595987 -0.369793
0.481766 0.595348 -0.370105
0.486451 0.594778 -0.370457
0.491322 0.594464 -0.370945
0.497702 0.596466 -0.372631
0.502711 0.596259 -0.373184
0.507551 0.595757 -0.373588
0.513142 0.596359 -0.374566
0.520289 0.599232 -0.376727
0.524193 0.597222 -0.376354
0.530089 0.598135 -0.377500
0.534640 0.597062 -0.377611
0.539138 0.595915 -0.377679
0.543935 0.595200 -0.377968
0.549589 0.595692 -0.378883
0.555613 0.596680 -0.380054
0.562628 0.599008 -0.381924
0.565431 0.595588 -0.380757
0.569247 0.593612 -0.380337
0.576532 0.596306 -0.382371
0.581662 0.596140 -0.382880
0.586022 0.595010 -0.382862
0.591123 0.594899 -0.383366
0.595809 0.594307 -0.383596
0.601099 0.594544 -0.384246
0.607677 0.596451 -0.385768
0.611599 0.595086 -0.385521
0.615595 0.593905 -0.385347
-0.281830 0.595794 -0.317178
-0.280362 0.600120 -0.319342
-0.276843 0.600195 -0.319635
-0.274316 0.602578 -0.320927
-0.270832 0.603002 -0.321350
-0.267778 0.604519 -0.322240
-0.263963 0.604442 -0.322420
-0.260052 0.604244 -0.322534
-0.256407 0.604758 -0.322951
-0.252661 0.605133 -0.323297
-0.248214 0.603915 -0.322932
-0.245229 0.606299 -0.324143
-0.241705 0.607481 -0.324816
-0.236536 0.604631 -0.323706
-0.232601 0.604885 -0.323956
-0.228758 0.605422 -0.324325
-0.225210 0.606779 -0.325050
-0.221694 0.608286 -0.325836
-0.217843 0.608950 -0.326247
-0.213542 0.608413 -0.326124
-0.209111 0.607499 -0.325831
-0.205174 0.607947 -0.326137
-0.201293 0.608561 -0.326516
-0.197308 0.608871 -0.326759
-0.193485 0.609654 -0.327211
-0.188262 0.606205 -0.325790
-0.184891 0.608300 -0.326822
-0.180970 0.608713 -0.327110
-0.176829 0.608400 -0.327079
-0.172889 0.608687 -0.327314
-0.169097 0.609427 -0.327752
-0.164511 0.607476 -0.326998
-0.160748 0.608224 -0.327443
-0.156523 0.607332 -0.327164
-0.152582 0.607367 -0.327297
-0.148604 0.607214 -0.327350
-0.144821 0.607727 -0.327702
-0.141185 0.608762 -0.328288
-0.137608 0.610012 -0.328973
-0.133033 0.607309 -0.327904
-0.129229 0.607547 -0.328145
-0.125726 0.608983 -0.328923
-0.121787 0.608582 -0.328887
-0.117991 0.608728 -0.329097
-0.113757 0.606884 -0.328423
-0.109940 0.606781 -0.328528
-0.105874 0.605466 -0.328096
-0.102060 0.605225 -0.328146
-0.098837 0.607802 -0.329458
-0.094789 0.606329 -0.328964
-0.091284 0.607519 -0.329663
-0.087535 0.607428 -0.329793
-0.083722 0.606931 -0.329745
-0.079835 0.605945 -0.329480
-0.076148 0.605995 -0.329682
-0.072561 0.606603 -0.330137
-0.068848 0.606420 -0.330241
-0.065217 0.606706 -0.330558
-0.061485 0.606304 -0.330569
-0.058341 0.609806 -0.332337
-0.054589 0.609251 -0.332286
-0.050847 0.608689 -0.332234
-0.047051 0.607639 -0.331965
-0.043290 0.606729 -0.331761
-0.039604 0.606326 -0.331788
-0.036012 0.606655 -0.332148
-0.032662 0.609140 -0.333483
-0.029618 0.614702 -0.336212
-0.025808 0.613242 -0.335773
-0.021654 0.608053 -0.333650
-0.018191 0.609790 -0.334660
-0.015313 0.618481 -0.338823
-0.011673 0.618864 -0.339229
-0.007579 0.613341 -0.336958
-0.003508 0.607327 -0.334463
0.000071 0.607808 -0.334916
0.003575 0.609567 -0.335953
0.006959 0.613775 -0.338108
0.010562 0.614536 -0.338698
0.014304 0.612434 -0.337986
0.018135 0.607641 -0.336048
0.021788 0.606461 -0.335757
0.025228 0.611800 -0.338444
0.028749 0.616174 -0.340696
0.032434 0.614788 -0.340318
0.036090 0.614433 -0.340413
0.039741 0.614356 -0.340637
0.043396 0.613647 -0.340573
0.047045 0.612927 -0.340505
0.050700 0.614402 -0.341446
0.054351 0.613745 -0.341410
0.057989 0.612529 -0.341118
0.061628 0.611852 -0.341075
0.065307 0.612925 -0.341840
0.068780 0.606691 -0.339237
0.072374 0.605648 -0.339027
0.075963 0.604662 -0.338844
0.079637 0.605702 -0.339598
0.083233 0.604921 -0.339512
0.086908 0.605637 -0.340120
0.090853 0.610642 -0.342717
0.094761 0.614247 -0.344670
0.098496 0.614841 -0.345230
0.102127 0.613923 -0.345090
0.105404 0.608710 -0.342953
0.108967 0.607379 -0.342620
0.112675 0.607749 -0.343080
0.116276 0.606922 -0.342983
0.119766 0.605044 -0.342397
0.123378 0.604451 -0.342410
0.127147 0.605276 -0.343087
0.130720 0.604309 -0.342929
0.134361 0.603942 -0.343051
0.138133 0.604587 -0.343649
0.141662 0.603323 -0.343353
0.145343 0.603213 -0.343600
0.149684 0.607684 -0.346000
0.153041 0.605175 -0.345123
0.156511 0.603537 -0.344656
0.160187 0.603269 -0.344833
0.164392 0.606212 -0.346527
0.168105 0.606027 -0.346748
0.171520 0.604116 -0.346155
0.175742 0.606765 -0.347718
0.178452 0.601067 -0.345335
0.182784 0.604169 -0.347117
0.186842 0.605672 -0.348145
0.190840 0.606764 -0.348982
0.194061 0.604001 -0.347989
0.197992 0.604699 -0.348642
0.201770 0.604629 -0.348932
0.205492 0.604275 -0.349088
0.209144 0.603597 -0.349092
0.212997 0.603783 -0.349510
0.216695 0.603281 -0.349600
0.220351 0.602593 -0.349604
0.224779 0.605002 -0.351093
0.228558 0.604727 -0.351299
0.232234 0.604032 -0.351306
0.236421 0.605263 -0.352239
0.240276 0.605183 -0.352546
0.243953 0.604431 -0.352532
0.247465 0.603088 -0.352236
0.251713 0.604326 -0.353185
0.255581 0.604187 -0.353474
0.259706 0.604878 -0.354166
0.263790 0.605376 -0.354769
0.267283 0.603913 -0.354426
0.271039 0.603299 -0.354496
0.275121 0.603691 -0.355057
0.278772 0.602711 -0.354955
0.282501 0.601964 -0.354969
0.286438 0.601821 -0.355280
0.290410 0.601747 -0.355627
0.294668 0.602460 -0.356363
0.298974 0.603247 -0.357139
0.302903 0.602925 -0.357378
0.306717 0.602257 -0.357451
0.310545 0.601612 -0.357539
0.315076 0.602806 -0.358533
0.319058 0.602494 -0.358793
0.322923 0.601846 -0.358892
0.327251 0.602348 -0.359562
0.331485 0.602562 -0.360094
0.335236 0.601536 -0.360020
0.339342 0.601356 -0.360368
0.343807 0.601994 -0.361126
0.347703 0.601231 -0.361196
0.352574 0.602708 -0.362382
0.355391 0.599390 -0.361193
0.360497 0.601289 -0.362601
0.364689 0.601050 -0.362953
0.368856 0.600716 -0.363263
0.373245 0.600823 -0.363799
0.377253 0.600060 -0.363906
0.381361 0.599477 -0.364110
0.386070 0.600112 -0.364930
0.390309 0.599713 -0.365238
0.395357 0.600913 -0.366358
0.399246 0.599704 -0.366272
0.403783 0.599754 -0.366827
0.408709 0.600510 -0.367747
0.412784 0.599548 -0.367805
0.417208 0.599220 -0.368191
0.421403 0.598410 -0.368339
0.425538 0.597453 -0.368419
0.429737 0.596581 -0.368548
0.434866 0.597359 -0.369525
0.439469 0.597118 -0.369991
0.444677 0.597899 -0.370987
0.448811 0.596720 -0.370988
0.454228 0.597734 -0.372120
0.458433 0.596593 -0.372153
0.461986 0.594321 -0.371608
0.469570 0.598779 -0.374540
0.473846 0.597616 -0.374582
0.478045 0.596300 -0.374548
0.483068 0.596290 -0.375196
0.488086 0.596221 -0.375819
0.493591 0.596872 -0.376822
0.498370 0.596330 -0.377209
0.503196 0.595827 -0.377619
0.507939 0.595164 -0.377948
0.515384 0.598550 -0.380404
0.520059 0.597697 -0.380638
0.525259 0.597604 -0.381273
0.529942 0.596732 -0.381496
0.535553 0.597193 -0.382420
0.539969 0.595922 -0.382426
0.544742 0.595168 -0.382699
0.549982 0.595075 -0.383316
0.558525 0.599545 -0.386356
0.562876 0.598195 -0.386292
0.567347 0.597045 -0.386321
0.572386 0.596698 -0.386767
0.578953 0.598407 -0.388301
0.582930 0.596711 -0.387995
0.587195 0.595461 -0.387908
0.591694 0.594577 -0.388000
0.596225 0.593800 -0.388128
0.601541 0.594084 -0.388808
0.607950 0.595793 -0.390236
0.614286 0.597445 -0.391613
0.618361 0.596357 -0.391482
-0.283940 0.598833 -0.322500
-0.280251 0.598378 -0.322578
-0.277698 0.600512 -0.323790
-0.274710 0.601856 -0.324641
-0.271879 0.603701 -0.325702
-0.267364 0.601912 -0.325137
-0.263976 0.602757 -0.325729
-0.260817 0.604254 -0.326600
-0.257217 0.604856 -0.327062
-0.253281 0.604770 -0.327206
-0.248756 0.603349 -0.326746
-0.246250 0.606873 -0.328479
-0.242666 0.607902 -0.329093
-0.238510 0.607591 -0.329100
-0.233853 0.606053 -0.328552
-0.229544 0.605408 -0.328395
-0.225944 0.606626 -0.329065
-0.222357 0.607943 -0.329773
-0.218521 0.608646 -0.330204
-0.214094 0.607772 -0.329925
-0.209315 0.605893 -0.329193
-0.205897 0.607790 -0.330148
-0.202287 0.609193 -0.330880
-0.197638 0.607596 -0.330267
-0.193748 0.608176 -0.330629
-0.190090 0.609451 -0.331302
-0.186450 0.610792 -0.332005
-0.181802 0.609005 -0.331306
-0.177704 0.608862 -0.331345
-0.173638 0.608773 -0.331410
-0.169706 0.609083 -0.331655
-0.165611 0.608810 -0.331641
-0.161422 0.608154 -0.331456
-0.157344 0.607811 -0.331414
-0.153489 0.608197 -0.331702
-0.149331 0.607443 -0.331480
-0.145466 0.607689 -0.331710
-0.141428 0.607236 -0.331630
-0.137328 0.606466 -0.331409
-0.133709 0.607504 -0.332005
-0.129896 0.607750 -0.332248
-0.125960 0.607445 -0.332246
-0.122258 0.608048 -0.332657
-0.118302 0.607533 -0.332567
-0.114574 0.607940 -0.332896
-0.110615 0.607266 -0.332740
-0.106991 0.608055 -0.333249
-0.103248 0.608263 -0.333499
-0.099441 0.608113 -0.333590
-0.095511 0.607291 -0.333380
-0.091641 0.606672 -0.333265
-0.087900 0.606650 -0.333424
-0.084048 0.605975 -0.333290
-0.080564 0.607259 -0.334047
-0.076699 0.606377 -0.333825
-0.072935 0.606000 -0.333835
-0.069340 0.606577 -0.334282
-0.065644 0.606506 -0.334437
-0.062173 0.607852 -0.335239
-0.058501 0.607890 -0.335451
-0.054996 0.609058 -0.336179
-0.051319 0.609022 -0.336363
-0.047524 0.608053 -0.336124
-0.043675 0.606546 -0.335643
-0.039982 0.606140 -0.335665
-0.036418 0.606767 -0.336162
-0.032641 0.605516 -0.335804
-0.030052 0.615184 -0.340441
-0.026258 0.613991 -0.340116
-0.022134 0.609247 -0.338167
-0.018927 0.613918 -0.340532
-0.015412 0.615555 -0.341511
-0.011603 0.613790 -0.340932
-0.007990 0.614317 -0.341408
-0.004067 0.610564 -0.339919
-0.000221 0.607396 -0.338699
0.003517 0.605438 -0.338036
0.007000 0.607631 -0.339285
0.010290 0.613974 -0.342451
0.014250 0.607291 -0.339615
0.017905 0.606342 -0.339424
0.021289 0.612567 -0.342547
0.024947 0.612099 -0.342583
0.028572 0.612738 -0.343133
0.032269 0.610286 -0.342254
0.035926 0.608890 -0.341864
0.039524 0.611693 -0.343423
0.043176 0.610280 -0.343029
0.046816 0.608838 -0.342622
0.050448 0.608469 -0.342715
0.054082 0.608426 -0.342960
0.057695 0.606886 -0.342511
0.061369 0.609113 -0.343817
0.064923 0.605474 -0.342391
0.068549 0.605375 -0.342616
0.072182 0.605465 -0.342931
0.075806 0.605209 -0.343085
0.079453 0.605452 -0.343475
0.083139 0.606360 -0.344177
0.086780 0.606229 -0.344395
0.090418 0.606015 -0.344576
0.093995 0.604844 -0.344308
0.097612 0.604344 -0.344357
0.101133 0.602617 -0.343829
0.104776 0.602555 -0.344085
0.108701 0.605726 -0.345865
0.112388 0.605891 -0.346232
0.115983 0.605034 -0.346119
0.119534 0.603795 -0.345826
0.123171 0.603431 -0.345947
0.126876 0.603678 -0.346358
0.130649 0.604434 -0.347012
0.134408 0.604975 -0.347565
0.138055 0.604554 -0.347665
0.141771 0.604648 -0.348010
0.145585 0.605412 -0.348675
0.149393 0.606035 -0.349275
0.152850 0.604222 -0.348718
0.156583 0.604287 -0.349056
0.160657 0.606460 -0.350400
0.164455 0.606777 -0.350861
0.168027 0.605705 -0.350662
0.171746 0.605507 -0.350881
0.175719 0.606695 -0.351765
0.179476 0.606618 -0.352045
0.183256 0.606633 -0.352371
0.187204 0.607473 -0.353095
0.190580 0.605390 -0.352418
0.194317 0.605130 -0.352617
0.197814 0.603723 -0.352265
0.201695 0.604115 -0.352782
0.205532 0.604258 -0.353180
0.209339 0.604233 -0.353499
0.213206 0.604434 -0.353930
0.216860 0.603700 -0.353911
0.220597 0.603308 -0.354059
0.224762 0.604618 -0.355034
0.228509 0.604197 -0.355172
0.232535 0.604831 -0.355825
0.236364 0.604669 -0.356095
0.240123 0.604220 -0.356227
0.244028 0.604283 -0.356610
0.247890 0.604158 -0.356905
0.252096 0.605201 -0.357772
0.255848 0.604621 -0.357851
0.259194 0.602669 -0.357261
0.263694 0.604548 -0.358548
0.267709 0.604761 -0.359023
0.271384 0.603852 -0.358951
0.275131 0.603162 -0.358989
0.278764 0.602110 -0.358852
0.282442 0.601194 -0.358785
0.286506 0.601415 -0.359280
0.290754 0.602127 -0.360022
0.295063 0.602954 -0.360825
0.299003 0.602675 -0.361086
0.302862 0.602140 -0.361225
0.306784 0.601757 -0.361442
0.310845 0.601720 -0.361835
0.314489 0.600539 -0.361664
0.319073 0.601802 -0.362712
0.322970 0.601225 -0.362850
0.326863 0.600612 -0.362974
0.330947 0.600449 -0.363327
0.335390 0.601130 -0.364107
0.340076 0.602336 -0.365156
0.343918 0.601448 -0.365162
0.347919 0.600913 -0.365350
0.352245 0.601103 -0.365908
0.356805 0.601776 -0.366714
0.360557 0.600558 -0.366575
0.364611 0.599996 -0.366771
0.369074 0.600302 -0.367412
0.373333 0.600105 -0.367805
0.377743 0.600189 -0.368346
0.382052 0.600004 -0.368758
0.386508 0.600080 -0.369309
0.390641 0.599437 -0.369502
0.395090 0.599397 -0.370008
0.399841 0.599912 -0.370804
0.404509 0.600194 -0.371490
0.408671 0.599425 -0.371645
0.413393 0.599702 -0.372343
0.417603 0.598938 -0.372515
0.421710 0.597944 -0.372576
0.425653 0.596610 -0.372467
0.430076 0.596135 -0.372808
0.435770 0.597920 -0.374322
0.440666 0.598173 -0.375055
0.444682 0.596805 -0.374957
0.450135 0.597924 -0.376155
0.454608 0.597268 -0.376439
0.458723 0.595957 -0.376389
0.463188 0.595210 -0.376638
0.469257 0.597102 -0.378272
0.473825 0.596420 -0.378570
0.478882 0.596497 -0.379271
0.483365 0.595594 -0.379463
0.488694 0.596010 -0.380353
0.494224 0.596682 -0.381385
0.499283 0.596559 -0.382003
0.505438 0.598081 -0.383496
0.509804 0.596806 -0.383511
0.514911 0.596635 -0.384112
0.520536 0.597204 -0.385109
0.525468 0.596709 -0.385540
0.531496 0.597795 -0.386814
0.536777 0.597760 -0.387488
0.541204 0.596491 -0.387497
0.545476 0.595021 -0.387391
0.550504 0.594628 -0.387856
0.555818 0.594639 -0.388530
0.563864 0.598384 -0.391212
0.567844 0.596573 -0.390883
0.573338 0.596841 -0.391666
0.579063 0.597436 -0.392612
0.583867 0.596843 -0.392898
0.587934 0.595342 -0.392671
0.592485 0.594536 -0.392802
0.598245 0.595337 -0.393788
0.602773 0.594623 -0.393926
0.611018 0.598635 -0.396628
0.614676 0.596952 -0.396189
0.616765 0.593441 -0.394720
-0.285909 0.601566 -0.327729
-0.281536 0.599647 -0.327156
-0.278003 0.599638 -0.327426
-0.275183 0.601313 -0.328439
-0.272042 0.602435 -0.329190
-0.268870 0.603630 -0.329962
-0.265751 0.605085 -0.330839
-0.262228 0.605749 -0.331348
-0.257995 0.604875 -0.331151
-0.254402 0.605582 -0.331656
-0.250455 0.605546 -0.331815
-0.246865 0.606450 -0.332388
-0.242976 0.606711 -0.332662
-0.238545 0.605694 -0.332349
-0.235069 0.607112 -0.333128
-0.231460 0.608275 -0.333786
-0.227011 0.607323 -0.333480
-0.223186 0.608022 -0.333916
-0.219027 0.607865 -0.333959
-0.215622 0.609771 -0.334932
-0.210539 0.607099 -0.333828
-0.206951 0.608546 -0.334588
-0.202562 0.607742 -0.334325
-0.198690 0.608401 -0.334723
-0.194887 0.609270 -0.335216
-0.190605 0.608703 -0.335058
-0.186668 0.609144 -0.335356
-0.182869 0.609998 -0.335843
-0.178397 0.608713 -0.335359
-0.173911 0.607297 -0.334816
-0.170125 0.608085 -0.335277
-0.166147 0.608218 -0.335441
-0.161934 0.607503 -0.335222
-0.158041 0.607823 -0.335476
-0.153897 0.607214 -0.335310
-0.150015 0.607478 -0.335543
-0.146152 0.607767 -0.335791
-0.142169 0.607563 -0.335817
-0.138559 0.608727 -0.336471
-0.134407 0.607754 -0.336153
-0.130494 0.607641 -0.336230
-0.126534 0.607277 -0.336197
-0.123195 0.609441 -0.337320
-0.118812 0.607168 -0.336421
-0.115065 0.607525 -0.336727
-0.111286 0.607698 -0.336952
-0.107494 0.607761 -0.337130
-0.103730 0.607908 -0.337350
-0.099959 0.607973 -0.337537
-0.096040 0.607249 -0.337365
-0.092319 0.607440 -0.337616
-0.088761 0.608452 -0.338246
-0.084800 0.607285 -0.337882
-0.080876 0.606211 -0.337562
-0.077365 0.607381 -0.338275
-0.073802 0.608266 -0.338862
-0.069999 0.607705 -0.338788
-0.066227 0.607247 -0.338764
-0.062534 0.607230 -0.338945
-0.058908 0.607613 -0.339315
-0.055275 0.607934 -0.339658
-0.051631 0.608151 -0.339957
-0.047807 0.607004 -0.339630
-0.044130 0.606860 -0.339768
-0.040565 0.607579 -0.340308
-0.036791 0.606549 -0.340042
-0.033072 0.605881 -0.339947
-0.030162 0.612620 -0.343281
-0.026218 0.609922 -0.342252
-0.022495 0.609176 -0.342128
-0.018712 0.607672 -0.341655
-0.015271 0.609879 -0.342906
-0.011518 0.608537 -0.342513
-0.007798 0.607430 -0.342230
-0.004223 0.608149 -0.342799
-0.000640 0.608830 -0.343352
0.003222 0.605127 -0.341866
0.006848 0.604878 -0.341990
0.010344 0.607091 -0.343265
0.014017 0.605999 -0.343000
0.017678 0.604920 -0.342744
0.021262 0.605628 -0.343323
0.024841 0.606758 -0.344103
0.028456 0.607000 -0.344470
0.032074 0.607244 -0.344840
0.035683 0.608233 -0.345561
0.039323 0.607552 -0.345502
0.042959 0.606669 -0.345348
0.046586 0.606756 -0.345652
0.050214 0.606415 -0.345757
0.053837 0.605680 -0.345678
0.057473 0.606265 -0.346221
0.061087 0.605217 -0.345997
0.064728 0.605640 -0.346468
0.068356 0.605380 -0.346619
0.072003 0.605675 -0.347033
0.075633 0.605391 -0.347175
0.079416 0.608528 -0.348938
0.082964 0.606222 -0.348127
0.086593 0.605776 -0.348197
0.090244 0.605703 -0.348445
0.093901 0.605675 -0.348717
0.097434 0.603845 -0.348132
0.101264 0.606149 -0.349516
0.104955 0.606378 -0.349914
0.108596 0.605955 -0.350004
0.112236 0.605520 -0.350088
0.115834 0.604645 -0.349964
0.119495 0.604451 -0.350166
0.123103 0.603724 -0.350115
0.126819 0.603997 -0.350543
0.130655 0.605228 -0.351432
0.134419 0.605723 -0.351970
0.138302 0.607073 -0.352921
0.141710 0.604700 -0.352086
0.145438 0.604790 -0.352435
0.149167 0.604840 -0.352766
0.153069 0.606020 -0.353643
0.156565 0.604442 -0.353193
0.160505 0.605723 -0.354123
0.164306 0.606044 -0.354592
0.167988 0.605606 -0.354696
0.171622 0.604886 -0.354665
0.175376 0.604845 -0.354964
0.179169 0.604979 -0.355350
0.183047 0.605516 -0.355933
0.186754 0.605123 -0.356066
0.190500 0.604907 -0.356288
0.194034 0.603644 -0.356001
0.198112 0.604983 -0.356983
0.201860 0.604703 -0.357179
0.205484 0.603844 -0.357094
0.209412 0.604327 -0.357666
0.213188 0.604105 -0.357895
0.217021 0.604102 -0.358234
0.220989 0.604617 -0.358830
0.224577 0.603553 -0.358654
0.228598 0.604202 -0.359319
0.232320 0.603639 -0.359393
0.236097 0.603274 -0.359567
0.240052 0.603552 -0.360058
0.243827 0.603131 -0.360209
0.248827 0.607031 -0.362494
0.252559 0.606346 -0.362521
0.255765 0.603857 -0.361659
0.259447 0.603016 -0.361613
0.263455 0.603245 -0.362099
0.267455 0.603402 -0.362553
0.271987 0.605207 -0.363829
0.275375 0.603350 -0.363290
0.279037 0.602360 -0.363185
0.282725 0.601445 -0.363119
0.286934 0.602064 -0.363821
0.291067 0.602403 -0.364388
0.295150 0.602553 -0.364865
0.299193 0.602545 -0.365267
0.303001 0.601846 -0.365327
0.307033 0.601741 -0.365689
0.310925 0.601226 -0.365849
0.314837 0.600736 -0.366026
0.319062 0.601036 -0.366605
0.323053 0.600686 -0.366861
0.326789 0.599658 -0.366780
0.331422 0.600850 -0.367824
0.335464 0.600515 -0.368103
0.339420 0.599936 -0.368264
0.343944 0.600684 -0.369101
0.347976 0.600208 -0.369325
0.352126 0.599975 -0.369677
0.357161 0.601722 -0.371043
0.361044 0.600777 -0.371045
0.364823 0.599575 -0.370922
0.369201 0.599674 -0.371468
0.374682 0.602107 -0.373215
0.377936 0.599667 -0.372475
0.382380 0.599750 -0.373034
0.386882 0.599897 -0.373633
0.391539 0.600307 -0.374374
0.395559 0.599363 -0.374426
0.400428 0.600088 -0.375345
0.404623 0.599406 -0.375545
0.409513 0.600043 -0.376436
0.413664 0.599184 -0.376559
0.418146 0.598921 -0.376998
0.422095 0.597605 -0.376897
0.425965 0.596118 -0.376712
0.432058 0.598686 -0.378651
0.436817 0.598718 -0.379275
0.441048 0.597748 -0.379382
0.445479 0.597096 -0.379663
0.450522 0.597471 -0.380491
0.454970 0.596751 -0.380751
0.459903 0.596822 -0.381433
0.463799 0.595084 -0.381169
0.468584 0.594814 -0.381684
0.474208 0.595875 -0.382913
0.480432 0.597836 -0.384628
0.485526 0.597880 -0.385333
0.490642 0.597910 -0.386036
0.495658 0.597732 -0.386634
0.500770 0.597663 -0.387294
0.505474 0.596924 -0.387599
0.510711 0.596970 -0.388326
0.514756 0.595189 -0.388073
0.524441 0.601788 -0.392336
0.527971 0.599174 -0.391635
0.530920 0.595746 -0.390487
0.537014 0.596893 -0.391810
0.541608 0.595867 -0.391952
0.546710 0.595566 -0.392481
0.551441 0.594752 -0.392723
0.556322 0.594163 -0.393078
0.565038 0.598819 -0.396291
0.569336 0.597436 -0.396192
0.574026 0.596625 -0.396391
0.579724 0.597190 -0.397329
0.584581 0.596676 -0.397659
0.588593 0.595116 -0.397392
0.594583 0.596172 -0.398547
0.600485 0.597148 -0.399640
0.604922 0.596317 -0.399710
0.609390 0.595601 -0.399818
0.614684 0.595988 -0.400514
0.620387 0.596944 -0.401500
-0.284749 0.597658 -0.329986
-0.282356 0.599920 -0.331307
-0.278542 0.599278 -0.331296
-0.275614 0.600686 -0.332203
-0.272792 0.602479 -0.333273
-0.269825 0.604108 -0.334255
-0.266586 0.605269 -0.335011
-0.262738 0.605167 -0.335179
-0.259293 0.606100 -0.335806
-0.254874 0.604859 -0.335428
-0.251914 0.607150 -0.336653
-0.248210 0.607784 -0.337111
