ply
format ascii 1.0
comment ---
element vertex 1677
property float x
property float y
property float z
element face 0
property list uchar uint vertex_indices
end_header
0.199455 0.606540 -0.168083
0.201561 0.603549 -0.167429
0.209420 0.616114 -0.170268
0.211496 0.612908 -0.169567
0.213313 0.609070 -0.168725
0.218260 0.613381 -0.169713
0.216925 0.601532 -0.167073
0.221474 0.604743 -0.167814
0.224518 0.604094 -0.167690
0.228136 0.604821 -0.167875
0.232791 0.607980 -0.168607
0.236311 0.608312 -0.168704
0.237707 0.603612 -0.167671
0.241591 0.604747 -0.167950
0.245031 0.604793 -0.167984
0.248298 0.604406 -0.167922
0.253183 0.607586 -0.168662
0.254316 0.602404 -0.167521
0.256026 0.598562 -0.166682
0.259842 0.599283 -0.166871
0.265272 0.603359 -0.167814
0.267847 0.601340 -0.167386
0.269451 0.597334 -0.166511
0.272624 0.596588 -0.166370
0.278235 0.600728 -0.167329
0.282369 0.601809 -0.167600
0.286047 0.601947 -0.167659
0.289582 0.601782 -0.167648
0.292250 0.599943 -0.167261
0.296484 0.601100 -0.167548
0.300611 0.602022 -0.167782
0.303725 0.601045 -0.167588
0.308777 0.603636 -0.168198
0.313093 0.604847 -0.168496
0.316446 0.604320 -0.168401
0.319636 0.603537 -0.168247
0.322975 0.603056 -0.168161
0.325604 0.601386 -0.167804
0.325917 0.595819 -0.166566
0.329061 0.595211 -0.166447
0.333782 0.597312 -0.166938
0.338032 0.598640 -0.167253
-0.352930 0.605052 -0.171047
-0.349550 0.604959 -0.171019
-0.346356 0.605267 -0.171082
-0.342581 0.604598 -0.170918
-0.339783 0.605753 -0.171172
-0.336280 0.605687 -0.171144
-0.332832 0.605770 -0.171148
-0.330220 0.607467 -0.171521
-0.327537 0.609104 -0.171879
-0.322648 0.606553 -0.171274
-0.320016 0.608366 -0.171670
-0.316807 0.609097 -0.171817
-0.313379 0.609418 -0.171868
-0.309375 0.608585 -0.171654
-0.305781 0.608568 -0.171627
-0.303130 0.610494 -0.172046
-0.299031 0.609421 -0.171775
-0.295196 0.608863 -0.171623
-0.291645 0.608880 -0.171603
-0.288591 0.609955 -0.171825
-0.285350 0.610617 -0.171953
-0.281539 0.609992 -0.171785
-0.277910 0.609726 -0.171701
-0.274662 0.610289 -0.171806
-0.271612 0.611292 -0.172012
-0.267639 0.610105 -0.171717
-0.264068 0.609801 -0.171625
-0.260499 0.609452 -0.171523
-0.257359 0.610103 -0.171651
-0.253637 0.609276 -0.171440
-0.250336 0.609443 -0.171458
-0.247069 0.609656 -0.171487
-0.243621 0.609358 -0.171399
-0.240504 0.609876 -0.171498
-0.237381 0.610350 -0.171588
-0.234218 0.610678 -0.171646
-0.230634 0.609810 -0.171429
-0.227329 0.609650 -0.171376
-0.224341 0.610340 -0.171518
-0.220781 0.609356 -0.171277
-0.217708 0.609720 -0.171345
-0.214743 0.610377 -0.171481
-0.211441 0.609990 -0.171379
-0.208083 0.609371 -0.171224
-0.205391 0.610777 -0.171532
-0.201978 0.609889 -0.171317
-0.198696 0.609353 -0.171183
-0.196181 0.611287 -0.171613
-0.192825 0.610428 -0.171406
-0.189805 0.610644 -0.171445
-0.186758 0.610737 -0.171456
-0.183683 0.610696 -0.171438
-0.180736 0.611074 -0.171515
-0.177610 0.610777 -0.171439
-0.174498 0.610483 -0.171364
-0.171418 0.610267 -0.171307
-0.168691 0.611373 -0.171552
-0.165701 0.611451 -0.171563
-0.162787 0.611807 -0.171638
-0.159736 0.611580 -0.171580
-0.156675 0.611273 -0.171504
-0.153810 0.611761 -0.171610
-0.150909 0.612082 -0.171679
-0.147887 0.611847 -0.171621
-0.144732 0.610963 -0.171415
-0.141851 0.611295 -0.171486
-0.139105 0.612262 -0.171704
-0.136197 0.612458 -0.171745
-0.133237 0.612369 -0.171722
-0.130351 0.612642 -0.171781
-0.127169 0.611325 -0.171479
-0.124258 0.611394 -0.171492
-0.121412 0.611810 -0.171585
-0.118549 0.612127 -0.171656
-0.115650 0.612228 -0.171678
-0.112731 0.612187 -0.171667
-0.109651 0.611117 -0.171422
-0.106853 0.611785 -0.171574
-0.104004 0.612140 -0.171654
-0.101167 0.612580 -0.171755
-0.098245 0.612422 -0.171719
-0.095330 0.612289 -0.171688
-0.092420 0.612164 -0.171660
-0.089638 0.613042 -0.171861
-0.086552 0.611441 -0.171496
-0.083634 0.611156 -0.171432
-0.080909 0.612563 -0.171754
-0.078060 0.612909 -0.171834
-0.075170 0.612882 -0.171829
-0.072269 0.612714 -0.171793
-0.069358 0.612420 -0.171727
-0.066513 0.612826 -0.171821
-0.063597 0.612405 -0.171727
-0.060822 0.613751 -0.172036
-0.057822 0.612152 -0.171673
-0.054964 0.612420 -0.171737
-0.052092 0.612506 -0.171758
-0.049221 0.612598 -0.171782
-0.046327 0.612272 -0.171710
-0.043420 0.611611 -0.171562
-0.040559 0.611832 -0.171615
-0.037696 0.612070 -0.171672
-0.034808 0.611619 -0.171572
-0.032074 0.616272 -0.172636
-0.029201 0.617071 -0.172822
-0.026314 0.617573 -0.172940
-0.023370 0.614554 -0.172254
-0.020446 0.610630 -0.171361
-0.017582 0.611112 -0.171474
-0.014714 0.611788 -0.171632
-0.011843 0.611665 -0.171607
-0.008975 0.611279 -0.171523
-0.006031 0.616631 -0.172748
-0.003119 0.617478 -0.172945
-0.000314 0.613402 -0.172018
0.002596 0.614416 -0.172254
0.005556 0.616641 -0.172765
0.008468 0.617021 -0.172856
0.011215 0.613421 -0.172038
0.013882 0.608839 -0.170996
0.016817 0.610239 -0.171320
0.019771 0.611704 -0.171658
0.022794 0.614067 -0.172202
0.025760 0.615204 -0.172466
0.028702 0.615841 -0.172616
0.031693 0.617037 -0.172894
0.034368 0.614164 -0.172243
0.037283 0.614406 -0.172303
0.040353 0.616311 -0.172743
0.043261 0.616320 -0.172749
0.046055 0.615173 -0.172493
0.048464 0.610463 -0.171422
0.051953 0.615973 -0.172686
0.054819 0.615575 -0.172600
0.057482 0.613498 -0.172131
0.060727 0.616250 -0.172766
0.062975 0.611061 -0.171586
0.065605 0.609084 -0.171140
0.068643 0.610165 -0.171393
0.071558 0.610303 -0.171431
0.074510 0.610662 -0.171519
0.077397 0.610562 -0.171503
0.080316 0.610654 -0.171530
0.083170 0.610323 -0.171461
0.086580 0.613303 -0.172150
0.089744 0.614680 -0.172472
0.092690 0.614729 -0.172490
0.095321 0.613039 -0.172112
0.097227 0.607547 -0.170864
0.099897 0.606291 -0.170585
0.103213 0.608345 -0.171063
0.106190 0.608603 -0.171130
0.109130 0.608654 -0.171151
0.112400 0.610233 -0.171521
0.115865 0.612616 -0.172075
0.119193 0.614255 -0.172460
0.122138 0.614111 -0.172437
0.125174 0.614343 -0.172500
0.127845 0.612997 -0.172203
0.130532 0.611749 -0.171928
0.133202 0.610458 -0.171644
0.136055 0.609917 -0.171532
0.140432 0.615304 -0.172777
0.143229 0.614423 -0.172587
0.145484 0.611518 -0.171935
0.147232 0.606824 -0.170873
0.149714 0.604927 -0.170452
0.153303 0.606990 -0.170939
0.157365 0.610595 -0.171778
0.160146 0.609659 -0.171579
0.161884 0.605220 -0.170577
0.164899 0.605119 -0.170569
0.168790 0.607833 -0.171207
0.173204 0.612095 -0.172200
0.176958 0.614107 -0.172678
0.179830 0.613294 -0.172509
0.181568 0.609015 -0.171546
0.183174 0.604440 -0.170516
0.186130 0.603951 -0.170422
0.189675 0.605148 -0.170716
0.193002 0.605647 -0.170851
0.196211 0.605759 -0.170897
0.199128 0.605017 -0.170748
0.202879 0.606535 -0.171118
0.209901 0.616780 -0.173491
0.211365 0.611929 -0.172401
0.213966 0.610152 -0.172017
0.217290 0.610245 -0.172062
0.217274 0.601797 -0.170147
0.221477 0.604123 -0.170706
0.224861 0.604312 -0.170776
0.227995 0.603845 -0.170695
0.232280 0.606114 -0.171243
0.236173 0.607347 -0.171555
0.238224 0.604188 -0.170857
0.241278 0.603386 -0.170701
0.245600 0.605452 -0.171206
0.248795 0.604885 -0.171105
0.250170 0.600248 -0.170068
0.253295 0.599525 -0.169933
0.256768 0.599531 -0.169965
0.260610 0.600285 -0.170171
0.267456 0.607322 -0.171824
0.269209 0.603532 -0.170984
0.270942 0.599761 -0.170147
0.275593 0.601980 -0.170692
0.279028 0.601675 -0.170655
0.283882 0.604163 -0.171262
0.285298 0.599829 -0.170296
0.287072 0.596274 -0.169508
0.291334 0.597543 -0.169834
0.296619 0.600708 -0.170597
0.300579 0.601313 -0.170769
0.303802 0.600540 -0.170622
0.307339 0.600360 -0.170612
0.312818 0.603699 -0.171413
0.316414 0.603615 -0.171423
0.319403 0.602478 -0.171188
0.323382 0.603122 -0.171364
0.324498 0.598832 -0.170398
0.323029 0.590241 -0.168434
0.328670 0.593918 -0.169306
0.334716 0.598248 -0.170328
0.337971 0.597910 -0.170268
-0.349912 0.599141 -0.172833
-0.349431 0.604111 -0.173995
-0.346811 0.605435 -0.174296
-0.343116 0.604915 -0.174161
-0.339693 0.604938 -0.174152
-0.336183 0.604855 -0.174115
-0.332931 0.605296 -0.174200
-0.330315 0.606985 -0.174576
-0.327177 0.607753 -0.174734
-0.322515 0.605633 -0.174212
-0.320065 0.607792 -0.174695
-0.316851 0.608513 -0.174838
-0.313246 0.608480 -0.174803
-0.309359 0.607880 -0.174634
-0.306357 0.609072 -0.174885
-0.303207 0.609977 -0.175068
-0.299785 0.610325 -0.175120
-0.295825 0.609523 -0.174902
-0.291908 0.608771 -0.174696
-0.288416 0.608899 -0.174696
-0.285227 0.609671 -0.174847
-0.281301 0.608786 -0.174610
-0.278019 0.609298 -0.174701
-0.274998 0.610388 -0.174927
-0.271783 0.611016 -0.175046
-0.268016 0.610322 -0.174855
-0.264523 0.610217 -0.174803
-0.261197 0.610475 -0.174836
-0.257336 0.609379 -0.174552
-0.253679 0.608713 -0.174370
-0.250467 0.609109 -0.174438
-0.247353 0.609720 -0.174556
-0.244106 0.609956 -0.174587
-0.240683 0.609688 -0.174500
-0.237267 0.609385 -0.174407
-0.234112 0.609732 -0.174466
-0.231215 0.610757 -0.174684
-0.227778 0.610253 -0.174545
-0.224591 0.610399 -0.174559
-0.221146 0.609756 -0.174390
-0.218054 0.610087 -0.174448
-0.214928 0.610278 -0.174475
-0.211265 0.608807 -0.174114
-0.208289 0.609360 -0.174226
-0.205512 0.610509 -0.174478
-0.202399 0.610586 -0.174481
-0.199067 0.609913 -0.174309
-0.195878 0.609646 -0.174232
-0.192954 0.610221 -0.174353
-0.189826 0.610079 -0.174306
-0.186696 0.609886 -0.174249
-0.183838 0.610606 -0.174405
-0.180728 0.610409 -0.174348
-0.177734 0.610596 -0.174380
-0.174606 0.610255 -0.174291
-0.171604 0.610341 -0.174301
-0.168678 0.610694 -0.174374
-0.165853 0.611423 -0.174535
-0.162831 0.611354 -0.174511
-0.159858 0.611456 -0.174527
-0.156837 0.611325 -0.174489
-0.153928 0.611643 -0.174556
-0.150982 0.611776 -0.174581
-0.147991 0.611690 -0.174554
-0.144984 0.611493 -0.174503
-0.141911 0.610951 -0.174371
-0.139214 0.612165 -0.174649
-0.136271 0.612200 -0.174653
-0.133262 0.611874 -0.174573
-0.130420 0.612375 -0.174686
-0.127541 0.612682 -0.174754
-0.124236 0.610658 -0.174279
-0.121383 0.611028 -0.174362
-0.118600 0.611800 -0.174540
-0.115759 0.612255 -0.174643
-0.112739 0.611619 -0.174493
-0.109673 0.610641 -0.174263
-0.106962 0.611873 -0.174549
-0.104097 0.612142 -0.174611
-0.101186 0.612091 -0.174598
-0.098247 0.611821 -0.174534
-0.095325 0.611633 -0.174490
-0.092482 0.612021 -0.174580
-0.089605 0.612158 -0.174612
-0.086694 0.612006 -0.174577
-0.083829 0.612222 -0.174628
-0.080958 0.612379 -0.174665
-0.078115 0.612811 -0.174767
-0.075212 0.612678 -0.174736
-0.072296 0.612380 -0.174668
-0.069412 0.612379 -0.174669
-0.066577 0.612943 -0.174802
-0.063716 0.613226 -0.174870
-0.060807 0.612925 -0.174801
-0.057910 0.612737 -0.174759
-0.054983 0.612076 -0.174607
-0.052130 0.612467 -0.174701
-0.049278 0.612943 -0.174814
-0.046403 0.613056 -0.174843
-0.043490 0.612404 -0.174693
-0.040615 0.612467 -0.174710
-0.037752 0.612832 -0.174798
-0.034925 0.614383 -0.175163
-0.032120 0.617153 -0.175811
-0.029224 0.617320 -0.175854
-0.026315 0.616873 -0.175752
-0.023405 0.616121 -0.175580
-0.020451 0.610256 -0.174216
-0.017585 0.610421 -0.174258
-0.014717 0.611128 -0.174426
-0.011846 0.611018 -0.174404
-0.008982 0.610281 -0.174236
-0.006046 0.615207 -0.175388
-0.003112 0.617445 -0.175914
-0.000240 0.616113 -0.175607
0.002611 0.614478 -0.175230
0.005534 0.615489 -0.175470
0.008454 0.616131 -0.175624
0.011357 0.616235 -0.175653
0.014132 0.613582 -0.175038
0.017059 0.614328 -0.175217
0.020034 0.615784 -0.175561
0.022948 0.616015 -0.175619
0.025784 0.615009 -0.175389
0.028492 0.612349 -0.174774
0.031259 0.610789 -0.174414
0.034768 0.618547 -0.176230
0.037568 0.617162 -0.175912
0.040402 0.616290 -0.175714
0.043436 0.617586 -0.176022
0.046255 0.616607 -0.175799
0.049062 0.615581 -0.175565
0.051559 0.611823 -0.174694
0.054648 0.613519 -0.175096
0.058023 0.617450 -0.176019
0.060875 0.616859 -0.175888
0.062947 0.610274 -0.174357
0.065635 0.608736 -0.174004
0.068569 0.609063 -0.174088
0.071623 0.610179 -0.174355
0.074634 0.610924 -0.174536
0.077511 0.610729 -0.174498
0.080265 0.609753 -0.174278
0.083575 0.612230 -0.174864
0.086686 0.613353 -0.175134
0.089711 0.613904 -0.175271
0.092634 0.613831 -0.175263
0.095309 0.612387 -0.174934
0.097350 0.607623 -0.173830
0.100550 0.609095 -0.174183
0.103390 0.608655 -0.174090
0.106199 0.608063 -0.173962
0.109248 0.608633 -0.174105
0.112529 0.610250 -0.174493
0.116036 0.612811 -0.175102
0.119127 0.613363 -0.175243
0.122145 0.613542 -0.175296
0.125232 0.613993 -0.175413
0.128195 0.613875 -0.175398
0.131152 0.613710 -0.175372
0.134188 0.613846 -0.175417
0.137292 0.614224 -0.175519
0.139744 0.612021 -0.175018
0.142036 0.609264 -0.174387
0.144961 0.608956 -0.174330
0.147683 0.607880 -0.174093
0.149848 0.604806 -0.173389
0.152817 0.604663 -0.173372
0.156979 0.608640 -0.174319
0.159846 0.608025 -0.174192
0.162513 0.606725 -0.173905
0.166621 0.610194 -0.174736
0.169941 0.610955 -0.174933
0.173505 0.612438 -0.175299
0.177173 0.614161 -0.175723
0.179950 0.613041 -0.175481
0.181990 0.609677 -0.174714
0.183249 0.604045 -0.173416
0.186257 0.603704 -0.173358
0.189946 0.605312 -0.173758
0.193185 0.605545 -0.173836
0.197014 0.607391 -0.174293
0.199378 0.605083 -0.173777
0.203245 0.606905 -0.174230
0.209023 0.613774 -0.175867
0.211981 0.612924 -0.175695
0.214492 0.610887 -0.175245
0.216456 0.607455 -0.174468
0.217626 0.602059 -0.173230
0.221211 0.602818 -0.173438
0.225166 0.604426 -0.173846
0.228423 0.604246 -0.173835
0.232730 0.606550 -0.174409
0.236665 0.607866 -0.174751
0.238944 0.605226 -0.174164
0.241782 0.603902 -0.173887
0.246663 0.607224 -0.174703
0.249472 0.605757 -0.174393
0.250335 0.599965 -0.173066
0.253229 0.598729 -0.172812
0.257931 0.601395 -0.173476
0.262773 0.604249 -0.174186
0.265381 0.602286 -0.173762
0.269399 0.603269 -0.174032
0.273856 0.605095 -0.174502
0.276996 0.604170 -0.174323
0.281389 0.605750 -0.174736
0.284925 0.605566 -0.174732
0.286420 0.601367 -0.173781
0.287408 0.596269 -0.172616
0.291625 0.597445 -0.172933
0.297684 0.602059 -0.174061
0.300667 0.600817 -0.173806
0.303661 0.599622 -0.173561
0.308073 0.601043 -0.173933
0.311883 0.601352 -0.174042
0.316502 0.603114 -0.174493
0.318694 0.600573 -0.173925
0.325158 0.605571 -0.175140
0.324631 0.598416 -0.173476
0.323381 0.590210 -0.171562
0.325187 0.587386 -0.170919
0.333295 0.595228 -0.172799
0.338011 0.597342 -0.173321
-0.351136 0.600645 -0.176348
-0.349867 0.604235 -0.177202
-0.346849 0.604854 -0.177338
-0.343848 0.605579 -0.177497
-0.340239 0.605275 -0.177406
-0.336658 0.605067 -0.177336
-0.333718 0.606095 -0.177560
-0.330603 0.606857 -0.177719
-0.327249 0.607217 -0.177778
-0.323707 0.607251 -0.177758
-0.320157 0.607294 -0.177738
-0.316907 0.607943 -0.177863
-0.313588 0.608479 -0.177959
-0.309692 0.607868 -0.177780
-0.306476 0.608627 -0.177928
-0.303386 0.609659 -0.178141
-0.299820 0.609710 -0.178118
-0.295675 0.608517 -0.177796
-0.291690 0.607616 -0.177545
-0.288751 0.608940 -0.177827
-0.284994 0.608470 -0.177679
-0.281550 0.608655 -0.177688
-0.278245 0.609124 -0.177765
-0.275203 0.610170 -0.177981
-0.271945 0.610705 -0.178075
-0.268421 0.610591 -0.178014
-0.264769 0.610122 -0.177869
-0.261550 0.610646 -0.177962
-0.258125 0.610634 -0.177927
-0.254224 0.609391 -0.177599
-0.250909 0.609548 -0.177606
-0.247760 0.610085 -0.177705
-0.244555 0.610449 -0.177763
-0.240930 0.609666 -0.177548
-0.237579 0.609546 -0.177492
-0.234274 0.609502 -0.177455
-0.231046 0.609623 -0.177458
-0.228114 0.610527 -0.177649
-0.224924 0.610678 -0.177661
-0.221520 0.610174 -0.177517
-0.218379 0.610377 -0.177543
-0.215438 0.611138 -0.177703
-0.212342 0.611407 -0.177746
-0.209195 0.611489 -0.177746
-0.205578 0.610058 -0.177385
-0.202455 0.610107 -0.177378
-0.198981 0.608983 -0.177092
-0.196051 0.609566 -0.177214
-0.193005 0.609741 -0.177239
-0.189773 0.609248 -0.177105
-0.186897 0.609934 -0.177254
-0.183822 0.609903 -0.177232
-0.180927 0.610480 -0.177356
-0.177915 0.610617 -0.177375
-0.174846 0.610507 -0.177336
-0.171810 0.610485 -0.177319
-0.168833 0.610652 -0.177347
-0.165718 0.610250 -0.177241
-0.163102 0.611809 -0.177602
-0.159883 0.610919 -0.177380
-0.157132 0.611930 -0.177612
-0.154205 0.612194 -0.177666
-0.151108 0.611696 -0.177539
-0.148100 0.611542 -0.177495
-0.145328 0.612440 -0.177702
-0.142306 0.612174 -0.177632
-0.139240 0.611661 -0.177503
-0.136251 0.611472 -0.177452
-0.133223 0.611050 -0.177346
-0.130348 0.611372 -0.177418
-0.127608 0.612407 -0.177660
-0.124216 0.609921 -0.177064
-0.121395 0.610471 -0.177191
-0.118750 0.612036 -0.177560
-0.115828 0.612038 -0.177557
-0.112842 0.611625 -0.177456
-0.109993 0.612025 -0.177549
-0.107169 0.612591 -0.177681
-0.104207 0.612254 -0.177599
-0.101214 0.611664 -0.177457
-0.098357 0.611982 -0.177532
-0.095326 0.611021 -0.177302
-0.092430 0.611006 -0.177298
-0.089610 0.611577 -0.177433
-0.086758 0.611908 -0.177511
-0.083897 0.612185 -0.177577
-0.080990 0.612047 -0.177545
-0.078108 0.612118 -0.177562
-0.075217 0.612093 -0.177557
-0.072353 0.612334 -0.177615
-0.069481 0.612507 -0.177657
-0.066610 0.612693 -0.177703
-0.063729 0.612756 -0.177719
-0.060810 0.612340 -0.177622
-0.057915 0.612178 -0.177585
-0.055019 0.611969 -0.177537
-0.052157 0.612267 -0.177610
-0.049335 0.613279 -0.177853
-0.046403 0.612401 -0.177646
-0.043534 0.612656 -0.177709
-0.040656 0.612748 -0.177734
-0.037783 0.612967 -0.177789
-0.035042 0.617129 -0.178783
-0.032134 0.616926 -0.178737
-0.029197 0.615498 -0.178400
-0.026261 0.613424 -0.177910
-0.023407 0.615461 -0.178398
-0.020451 0.609387 -0.176955
-0.017585 0.609285 -0.176934
-0.014719 0.608832 -0.176830
-0.011845 0.611315 -0.177425
-0.008986 0.609512 -0.176999
-0.006047 0.614685 -0.178235
-0.003187 0.612970 -0.177831
-0.000297 0.613226 -0.177896
0.002573 0.612648 -0.177762
0.005483 0.613421 -0.177951
0.008450 0.615523 -0.178456
0.011295 0.614250 -0.178158
0.014348 0.617603 -0.178961
0.017300 0.618403 -0.179156
0.020190 0.617967 -0.179058
0.022952 0.615526 -0.178481
0.025678 0.612873 -0.177854
0.028492 0.611795 -0.177602
0.031499 0.613374 -0.177984
0.034234 0.611399 -0.177519
0.037476 0.615527 -0.178508
0.040149 0.612944 -0.177898
0.043186 0.614406 -0.178253
0.046183 0.615319 -0.178477
0.048893 0.613408 -0.178027
0.051757 0.613051 -0.177949
0.054706 0.613449 -0.178050
0.058059 0.617173 -0.178945
0.060698 0.614860 -0.178400
0.063379 0.613035 -0.177972
0.065872 0.609929 -0.177239
0.068728 0.609628 -0.177175
0.071793 0.610781 -0.177458
0.074823 0.611612 -0.177664
0.077585 0.610630 -0.177438
0.080515 0.610753 -0.177476
0.083822 0.613152 -0.178056
0.086930 0.614217 -0.178319
0.089548 0.612376 -0.177890
0.092406 0.611961 -0.177800
0.095352 0.612032 -0.177827
0.097578 0.608250 -0.176935
0.100464 0.608065 -0.176901
0.103401 0.608120 -0.176925
0.106232 0.607634 -0.176820
0.109308 0.608330 -0.176998
0.112566 0.609828 -0.177367
0.115603 0.610221 -0.177473
0.118793 0.611260 -0.177734
0.121823 0.611526 -0.177810
0.125141 0.612995 -0.178174
0.128150 0.613080 -0.178209
0.131535 0.614682 -0.178606
0.134763 0.615564 -0.178831
0.137307 0.613671 -0.178395
0.139281 0.609613 -0.177441
0.141745 0.607548 -0.176964
0.145592 0.610702 -0.177734
0.148667 0.610881 -0.177794
0.150850 0.607807 -0.177078
0.153150 0.605231 -0.176480
0.156887 0.607706 -0.177091
0.160065 0.608154 -0.177217
0.163621 0.609823 -0.177637
0.166594 0.609482 -0.177576
0.171211 0.614449 -0.178785
0.174677 0.615547 -0.179070
0.177254 0.613782 -0.178671
0.179632 0.611426 -0.178131
0.183714 0.614282 -0.178839
0.183414 0.603913 -0.176382
0.186672 0.604297 -0.176499
0.190134 0.605225 -0.176748
0.194490 0.608634 -0.177591
0.196599 0.605588 -0.176890
0.200133 0.606536 -0.177145
0.203149 0.606000 -0.177046
0.209106 0.613346 -0.178838
0.211969 0.612242 -0.178604
0.213621 0.607962 -0.177610
0.216493 0.606901 -0.177389
0.217705 0.601614 -0.176154
0.222233 0.604727 -0.176935
0.225376 0.604293 -0.176866
0.229173 0.605419 -0.177172
0.233101 0.606783 -0.177537
0.236341 0.606437 -0.177492
0.239803 0.606574 -0.177564
0.242115 0.604011 -0.176987
0.247345 0.608110 -0.178013
0.249325 0.604759 -0.177248
0.252124 0.603268 -0.176931
0.254964 0.601864 -0.176636
0.259436 0.603979 -0.177188
0.262726 0.603480 -0.177111
0.266347 0.603651 -0.177197
0.270513 0.604914 -0.177546
0.274534 0.605814 -0.177808
0.277373 0.604262 -0.177479
0.280817 0.603928 -0.177445
0.285593 0.606211 -0.178041
0.289396 0.606514 -0.178160
0.289514 0.599671 -0.176554
0.292759 0.598942 -0.176423
0.295965 0.598145 -0.176275
0.301074 0.600907 -0.176986
0.304831 0.601111 -0.177079
0.308552 0.601247 -0.177154
0.313351 0.603333 -0.177700
0.316757 0.602903 -0.177636
0.320137 0.602455 -0.177566
0.325394 0.605318 -0.178295
0.326674 0.601289 -0.177354
0.324011 0.590645 -0.174809
0.326162 0.588401 -0.174295
0.334439 0.596503 -0.176285
0.341238 0.602052 -0.177654
-0.354278 0.605485 -0.180706
-0.351282 0.606080 -0.180841
-0.347548 0.605442 -0.180669
-0.344461 0.606022 -0.180794
-0.340960 0.605920 -0.180747
-0.337316 0.605608 -0.180647
-0.334217 0.606348 -0.180802
-0.331309 0.607504 -0.181057
-0.327610 0.607220 -0.180957
-0.323741 0.606631 -0.180779
-0.320532 0.607334 -0.180917
-0.317451 0.608320 -0.181123
-0.313906 0.608417 -0.181109
-0.309907 0.607606 -0.180871
-0.306771 0.608531 -0.181059
-0.303516 0.609228 -0.181190
-0.300050 0.609489 -0.181213
-0.296073 0.608660 -0.180969
-0.292706 0.609095 -0.181034
-0.288629 0.607974 -0.180719
-0.285272 0.608382 -0.180777
-0.281870 0.608668 -0.180807
-0.278729 0.609517 -0.180974
-0.275501 0.610152 -0.181089
-0.272212 0.610625 -0.181165
-0.268107 0.609153 -0.180766
-0.265081 0.610170 -0.180977
-0.261890 0.610773 -0.181086
-0.257814 0.609177 -0.180659
-0.254796 0.610122 -0.180854
-0.251218 0.609637 -0.180701
-0.248027 0.610079 -0.180774
-0.244914 0.610692 -0.180890
-0.241560 0.610640 -0.180845
-0.237988 0.609957 -0.180646
-0.234536 0.609531 -0.180512
-0.231402 0.609920 -0.180577
-0.228307 0.610385 -0.180661
-0.225124 0.610567 -0.180677
-0.221718 0.610069 -0.180529
-0.218534 0.610157 -0.180524
-0.215619 0.611001 -0.180704
-0.212693 0.611798 -0.180874
-0.209463 0.611641 -0.180812
-0.206094 0.611002 -0.180633
-0.202914 0.610897 -0.180586
-0.199387 0.609630 -0.180256
-0.196146 0.609215 -0.180135
-0.192996 0.609050 -0.180075
-0.190330 0.610484 -0.180406
-0.187066 0.609862 -0.180237
-0.184354 0.611121 -0.180526
-0.181301 0.611167 -0.180521
-0.178235 0.611133 -0.180497
-0.175532 0.612409 -0.180793
-0.172138 0.611076 -0.180454
-0.169151 0.611233 -0.180479
-0.166041 0.610877 -0.180379
-0.163248 0.611750 -0.180579
-0.160391 0.612363 -0.180717
-0.157303 0.612000 -0.180617
-0.154340 0.612130 -0.180639
-0.151329 0.612020 -0.180602
-0.148263 0.611633 -0.180499
-0.145223 0.611316 -0.180413
-0.142193 0.611006 -0.180329
-0.139280 0.611213 -0.180372
-0.136318 0.611162 -0.180353
-0.133454 0.611579 -0.180447
-0.130517 0.611613 -0.180449
-0.127587 0.611661 -0.180455
-0.124682 0.611820 -0.180489
-0.121712 0.611609 -0.180432
-0.118807 0.611733 -0.180458
-0.115923 0.611963 -0.180510
-0.112928 0.611515 -0.180397
-0.110074 0.611897 -0.180487
-0.107202 0.612171 -0.180550
-0.104321 0.612382 -0.180599
-0.101404 0.612338 -0.180586
-0.098284 0.610834 -0.180219
-0.095255 0.609867 -0.179982
-0.092702 0.612456 -0.180610
-0.089714 0.611775 -0.180443
-0.086816 0.611760 -0.180439
-0.083946 0.611971 -0.180490
-0.081059 0.612036 -0.180506
-0.078115 0.611553 -0.180388
-0.075239 0.611686 -0.180421
-0.072402 0.612212 -0.180549
-0.069564 0.612776 -0.180687
-0.066617 0.612130 -0.180531
-0.063716 0.611959 -0.180490
-0.060883 0.612635 -0.180656
-0.057921 0.611623 -0.180412
-0.055048 0.611754 -0.180445
-0.052214 0.612526 -0.180635
-0.049389 0.613563 -0.180889
-0.046456 0.612755 -0.180695
-0.043548 0.612291 -0.180584
-0.040656 0.612072 -0.180533
-0.037787 0.612410 -0.180619
-0.034978 0.614565 -0.181145
-0.032155 0.616960 -0.181730
-0.029168 0.613591 -0.180914
-0.026283 0.613797 -0.180968
-0.023390 0.613538 -0.180908
-0.020539 0.617133 -0.181786
-0.017652 0.620747 -0.182668
-0.014729 0.620876 -0.182703
-0.011816 0.618319 -0.182085
-0.008911 0.617523 -0.181896
-0.006126 0.608658 -0.179745
-0.003237 0.609868 -0.180043
-0.000345 0.610681 -0.180245
0.002440 0.607453 -0.179465
0.005321 0.608037 -0.179611
0.008376 0.613039 -0.180832
0.011354 0.615103 -0.181339
0.014351 0.617139 -0.181839
0.017325 0.618337 -0.182135
0.020145 0.616645 -0.181729
0.022943 0.614821 -0.181291
0.025714 0.612858 -0.180819
0.028727 0.614531 -0.181232
0.031542 0.613377 -0.180957
0.034054 0.608621 -0.179806
0.036738 0.606387 -0.179269
0.039786 0.608382 -0.179760
0.042656 0.608300 -0.179747
0.045546 0.608409 -0.179780
0.048839 0.612328 -0.180740
0.051922 0.613970 -0.181147
0.054827 0.613925 -0.181143
0.057523 0.612123 -0.180712
0.060534 0.612972 -0.180926
0.063347 0.612209 -0.180748
0.065916 0.609673 -0.180139
0.068868 0.610054 -0.180240
0.071727 0.609745 -0.180173
0.074738 0.610459 -0.180356
0.077710 0.610858 -0.180462
0.080597 0.610680 -0.180428
0.083993 0.613607 -0.181150
0.086940 0.613680 -0.181178
0.089979 0.614265 -0.181331
0.094085 0.620785 -0.182930
0.095146 0.610313 -0.180390
0.098715 0.613700 -0.181227
0.101677 0.613751 -0.181251
0.104600 0.613584 -0.181222
0.108969 0.620528 -0.182926
0.111052 0.616126 -0.181867
0.112212 0.607564 -0.179794
0.114883 0.606308 -0.179502
0.117705 0.605768 -0.179384
0.121216 0.608251 -0.180004
0.124076 0.607807 -0.179911
0.127716 0.610638 -0.180616
0.131021 0.611948 -0.180952
0.133894 0.611434 -0.180843
0.136214 0.608727 -0.180200
0.139002 0.607914 -0.180020
0.142535 0.609938 -0.180532
0.146285 0.612672 -0.181218
0.150430 0.616720 -0.182225
0.152758 0.614053 -0.181594
0.153857 0.607111 -0.179921
0.155467 0.602154 -0.178732
0.159510 0.605638 -0.179605
0.161916 0.603482 -0.179101
0.165015 0.603651 -0.179166
0.168193 0.604034 -0.179283
0.175204 0.616584 -0.182374
0.177215 0.613019 -0.181529
0.180841 0.614513 -0.181921
0.183317 0.612434 -0.181440
0.183387 0.603196 -0.179210
0.186978 0.604558 -0.179572
0.190104 0.604497 -0.179587
0.194201 0.607162 -0.180269
0.197168 0.606537 -0.180148
0.200155 0.605948 -0.180036
0.203216 0.605534 -0.179969
0.212131 0.620808 -0.183742
0.212682 0.613466 -0.181981
0.213910 0.608057 -0.180692
0.215893 0.604699 -0.179907
0.221340 0.610172 -0.181286
0.225706 0.612748 -0.181957
0.231368 0.618402 -0.183384
0.233044 0.614163 -0.182386
0.231537 0.602362 -0.179533
0.234251 0.600821 -0.179198
0.238658 0.603228 -0.179832
0.241851 0.602730 -0.179755
0.245620 0.603510 -0.179992
0.250027 0.605658 -0.180566
0.253181 0.604932 -0.180435
0.256385 0.604294 -0.180327
0.259534 0.603509 -0.180183
0.262942 0.603258 -0.180171
0.267649 0.605707 -0.180823
0.272220 0.607774 -0.181383
0.274053 0.604140 -0.180540
0.276410 0.601624 -0.179971
0.279920 0.601448 -0.179980
0.283604 0.601591 -0.180067
0.288517 0.604108 -0.180740
0.291402 0.602633 -0.180427
0.290943 0.594799 -0.178545
0.298384 0.602024 -0.180379
0.302254 0.602423 -0.180528
0.305460 0.601590 -0.180371
0.309939 0.603095 -0.180791
0.313356 0.602663 -0.180731
0.317000 0.602659 -0.180775
0.320819 0.602984 -0.180899
0.326742 0.606995 -0.181933
0.327145 0.601436 -0.180596
0.326537 0.594305 -0.178867
0.328274 0.591324 -0.178162
0.335266 0.597240 -0.179658
0.356769 0.627117 -0.187088
-0.352824 0.602305 -0.183108
-0.351446 0.605713 -0.183951
-0.348560 0.606582 -0.184152
-0.344493 0.605413 -0.183837
-0.341804 0.606779 -0.184157
-0.337634 0.605514 -0.183812
-0.334491 0.606174 -0.183947
-0.331518 0.607208 -0.184174
-0.328361 0.607952 -0.184326
-0.324436 0.607269 -0.184116
-0.320895 0.607338 -0.184094
-0.317820 0.608342 -0.184305
-0.314340 0.608574 -0.184321
-0.310505 0.608102 -0.184158
-0.306924 0.608133 -0.184121
-0.304266 0.610062 -0.184559
-0.300264 0.609223 -0.184303
-0.296702 0.609275 -0.184269
-0.293189 0.609416 -0.184257
-0.289949 0.610124 -0.184388
-0.286329 0.609992 -0.184308
-0.282529 0.609422 -0.184119
-0.279015 0.609449 -0.184079
-0.275574 0.609606 -0.184073
-0.272006 0.609435 -0.183985
-0.268463 0.609279 -0.183902
-0.265087 0.609474 -0.183907
-0.261952 0.610211 -0.184048
-0.258595 0.610383 -0.184049
-0.254928 0.609745 -0.183849
-0.251159 0.608783 -0.183569
-0.248126 0.609629 -0.183740
-0.245085 0.610433 -0.183902
-0.241323 0.609317 -0.183587
-0.238177 0.609764 -0.183662
-0.235107 0.610384 -0.183781
-0.231657 0.609928 -0.183634
-0.228552 0.610377 -0.183712
-0.225501 0.610947 -0.183822
-0.221491 0.608727 -0.183238
-0.218599 0.609661 -0.183441
-0.215743 0.610686 -0.183667
-0.212354 0.610090 -0.183490
-0.209388 0.610729 -0.183622
-0.206283 0.610911 -0.183641
-0.203123 0.610883 -0.183609
-0.199948 0.610765 -0.183556
-0.196228 0.608813 -0.183047
-0.193242 0.609200 -0.183121
-0.190921 0.611822 -0.183751
-0.187940 0.612214 -0.183828
-0.184250 0.610088 -0.183280
-0.181488 0.611174 -0.183531
-0.178663 0.612031 -0.183726
-0.175126 0.610234 -0.183262
-0.172384 0.611350 -0.183523
-0.169288 0.611105 -0.183446
-0.166158 0.610683 -0.183327
-0.163170 0.610781 -0.183337
-0.160443 0.611919 -0.183606
-0.157466 0.612030 -0.183620
-0.154325 0.611412 -0.183455
-0.151301 0.611247 -0.183403
-0.148300 0.611147 -0.183367
-0.145100 0.610107 -0.183099
-0.142171 0.610255 -0.183125
-0.139330 0.610806 -0.183253
-0.136407 0.610956 -0.183282
-0.133424 0.610784 -0.183231
-0.130540 0.611089 -0.183299
-0.127669 0.611454 -0.183383
-0.124781 0.611719 -0.183442
-0.121870 0.611848 -0.183469
-0.118934 0.611821 -0.183456
-0.115898 0.611179 -0.183292
-0.112983 0.611208 -0.183295
-0.110106 0.611459 -0.183353
-0.107188 0.611446 -0.183346
-0.104294 0.611568 -0.183373
-0.101384 0.611565 -0.183369
-0.098546 0.612061 -0.183490
-0.095663 0.612239 -0.183532
-0.092728 0.612020 -0.183475
-0.089843 0.612162 -0.183509
-0.086892 0.611753 -0.183406
-0.084011 0.611901 -0.183442
-0.081082 0.611609 -0.183369
-0.078186 0.611583 -0.183362
-0.075273 0.611378 -0.183311
-0.072439 0.611955 -0.183454
-0.069540 0.611869 -0.183434
-0.066602 0.611320 -0.183298
-0.063732 0.611517 -0.183348
-0.060882 0.611987 -0.183466
-0.057999 0.612048 -0.183482
-0.055068 0.611401 -0.183323
-0.052214 0.611865 -0.183440
-0.049369 0.612550 -0.183612
-0.046496 0.612836 -0.183685
-0.043567 0.612020 -0.183485
-0.040657 0.611423 -0.183339
-0.037773 0.611354 -0.183325
-0.035140 0.618586 -0.185121
-0.032143 0.615834 -0.184442
-0.029239 0.615757 -0.184426
-0.026305 0.614106 -0.184020
-0.023408 0.613914 -0.183976
-0.020534 0.615798 -0.184446
-0.017643 0.617788 -0.184944
-0.014732 0.618713 -0.185177
-0.011808 0.620274 -0.185569
-0.008916 0.616754 -0.184700
-0.006105 0.609747 -0.182966
-0.003224 0.610130 -0.183065
-0.000322 0.611203 -0.183336
0.002541 0.610535 -0.183175
0.005334 0.607910 -0.182528
0.008429 0.613904 -0.184021
0.011373 0.615019 -0.184302
0.014332 0.616194 -0.184599
0.017164 0.614728 -0.184241
0.020150 0.616168 -0.184604
0.022960 0.614546 -0.184207
0.025974 0.616202 -0.184624
0.028798 0.614962 -0.184322
0.031613 0.613741 -0.184026
0.034315 0.611279 -0.183421
0.037032 0.609236 -0.182920
0.040004 0.610214 -0.183170
0.042919 0.610475 -0.183242
0.045806 0.610423 -0.183236
0.048875 0.612093 -0.183658
0.052028 0.614360 -0.184228
0.055034 0.615145 -0.184431
0.057709 0.613091 -0.183929
0.060522 0.612287 -0.183738
0.063261 0.610961 -0.183417
0.066073 0.610259 -0.183252
0.068789 0.608905 -0.182924
0.072009 0.611111 -0.183482
0.074833 0.610505 -0.183341
0.077724 0.610356 -0.183314
0.080863 0.611763 -0.183674
0.084018 0.613166 -0.184033
0.086935 0.613056 -0.184017
0.090006 0.613820 -0.184218
0.093541 0.617130 -0.185052
0.095761 0.613070 -0.184055
0.098511 0.612016 -0.183806
0.101794 0.613752 -0.184250
0.104752 0.613744 -0.184262
0.108132 0.615794 -0.184785
0.111213 0.616286 -0.184922
0.111915 0.605562 -0.182270
0.114886 0.605717 -0.182324
0.118282 0.607749 -0.182845
0.121148 0.607340 -0.182759
0.124446 0.608785 -0.183135
0.127603 0.609549 -0.183343
0.130723 0.610104 -0.183498
0.133309 0.608456 -0.183107
0.136101 0.607659 -0.182928
0.139522 0.609309 -0.183358
0.142853 0.610526 -0.183681
0.146692 0.613559 -0.184458
0.150591 0.616673 -0.185255
0.152823 0.613653 -0.184525
0.154354 0.608235 -0.183199
0.156529 0.605209 -0.182469
0.159584 0.605259 -0.182506
0.162433 0.604582 -0.182363
0.165013 0.603008 -0.181997
0.168158 0.603285 -0.182092
0.174988 0.615246 -0.185103
0.177273 0.612550 -0.184459
0.179669 0.610249 -0.183915
0.182331 0.608789 -0.183582
0.183116 0.601743 -0.181855
0.186960 0.603858 -0.182415
0.190622 0.605342 -0.182819
0.193664 0.604978 -0.182762
0.196617 0.604335 -0.182637
0.200354 0.605839 -0.183048
0.203591 0.605894 -0.183100
0.209066 0.611906 -0.184641
0.212774 0.613036 -0.184963
0.214938 0.610066 -0.184261
0.218063 0.609604 -0.184188
0.221685 0.610370 -0.184422
0.227752 0.617172 -0.186169
0.229653 0.613487 -0.185292
0.233679 0.615017 -0.185722
0.231526 0.601660 -0.182423
0.235058 0.602050 -0.182569
0.238717 0.602683 -0.182776
0.242178 0.602797 -0.182855
0.246036 0.603768 -0.183149
0.250886 0.606891 -0.183986
0.254752 0.607715 -0.184246
0.257878 0.606858 -0.184085
0.260267 0.604396 -0.183521
0.263085 0.602868 -0.183193
0.268930 0.607698 -0.184464
0.271851 0.606308 -0.184171
0.272835 0.600947 -0.182880
0.276248 0.600600 -0.182850
0.280328 0.601567 -0.183151
0.283547 0.600782 -0.183011
0.289450 0.605230 -0.184190
0.292805 0.604641 -0.184100
0.290513 0.593294 -0.181295
0.299015 0.602519 -0.183679
0.302230 0.601686 -0.183525
0.306215 0.602288 -0.183732
0.309934 0.602396 -0.183813
0.313862 0.602887 -0.183989
0.317601 0.603044 -0.184079
0.320771 0.602220 -0.183919
0.327615 0.607833 -0.185385
0.327690 0.601703 -0.183878
0.328848 0.597585 -0.182876
0.329750 0.593163 -0.181794
0.333871 0.594256 -0.182105
0.334581 0.589742 -0.180992
-0.352842 0.601687 -0.186139
-0.351180 0.604587 -0.186869
-0.347847 0.604649 -0.186866
-0.343513 0.602982 -0.186414
-0.341108 0.604839 -0.186864
-0.338398 0.606230 -0.187191
-0.334730 0.605927 -0.187079
-0.331776 0.606995 -0.187317
-0.329437 0.609288 -0.187865
-0.324528 0.606741 -0.187170
-0.321254 0.607326 -0.187276
-0.317970 0.607923 -0.187383
-0.314501 0.608176 -0.187399
-0.311033 0.608443 -0.187419
-0.307269 0.608115 -0.187285
-0.304297 0.609402 -0.187563
-0.300059 0.608071 -0.187171
-0.296675 0.608492 -0.187226
-0.293593 0.609552 -0.187445
-0.290303 0.610162 -0.187548
-0.286639 0.609944 -0.187440
-0.283251 0.610299 -0.187478
-0.279012 0.608716 -0.187022
-0.275523 0.608763 -0.186983
-0.271970 0.608627 -0.186898
-0.268472 0.608575 -0.186835
-0.265313 0.609288 -0.186968
-0.262003 0.609612 -0.187002
-0.258682 0.609873 -0.187022
-0.255358 0.610091 -0.187031
-0.251654 0.609314 -0.186788
-0.248359 0.609509 -0.186794
-0.244681 0.608674 -0.186538
-0.241693 0.609578 -0.186726
-0.238713 0.610483 -0.186916
-0.235116 0.609700 -0.186677
-0.231855 0.609766 -0.186655
-0.228725 0.610156 -0.186717
-0.225701 0.610809 -0.186847
-0.222217 0.610117 -0.186636
-0.218940 0.609958 -0.186561
-0.215343 0.608802 -0.186235
-0.212553 0.609997 -0.186507
-0.209292 0.609743 -0.186412
-0.206236 0.610076 -0.186467
-0.203169 0.610342 -0.186506
-0.199718 0.609339 -0.186224
-0.197047 0.610812 -0.186572
-0.193744 0.610194 -0.186389
-0.191006 0.611428 -0.186678
-0.187491 0.609984 -0.186289
-0.184674 0.610903 -0.186499
-0.181515 0.610595 -0.186400
-0.178504 0.610777 -0.186425
-0.175296 0.610195 -0.186258
-0.172400 0.610742 -0.186378
-0.169523 0.611343 -0.186512
-0.166199 0.610179 -0.186200
-0.163294 0.610613 -0.186294
-0.160364 0.610934 -0.186360
-0.157406 0.611116 -0.186391
-0.154412 0.611123 -0.186379
-0.151380 0.610931 -0.186317
-0.148312 0.610543 -0.186207
-0.145375 0.610706 -0.186236
-0.142487 0.611079 -0.186319
-0.139342 0.610209 -0.186089
-0.136384 0.610190 -0.186074
-0.133475 0.610390 -0.186115
-0.130564 0.610561 -0.186150
-0.127707 0.611002 -0.186254
-0.124821 0.611289 -0.186319
-0.121928 0.611522 -0.186371
-0.118978 0.611422 -0.186339
-0.116010 0.611194 -0.186275
-0.113031 0.610856 -0.186184
-0.110153 0.611109 -0.186243
-0.107257 0.611244 -0.186273
-0.104263 0.610716 -0.186135
-0.101381 0.610903 -0.186179
-0.098619 0.611940 -0.186438
-0.095785 0.612495 -0.186576
-0.092691 0.611092 -0.186218
-0.089849 0.611571 -0.186337
-0.087000 0.612001 -0.186444
-0.084062 0.611692 -0.186365
-0.081226 0.612253 -0.186505
-0.078168 0.610773 -0.186130
-0.075297 0.610973 -0.186181
-0.072464 0.611568 -0.186331
-0.069548 0.611312 -0.186266
-0.066616 0.610839 -0.186147
-0.063734 0.610900 -0.186163
-0.060881 0.611329 -0.186272
-0.057997 0.611368 -0.186283
-0.055101 0.611243 -0.186253
-0.052216 0.611246 -0.186256
-0.049385 0.612168 -0.186491
-0.046498 0.612203 -0.186502
-0.043583 0.611662 -0.186367
-0.040673 0.611117 -0.186232
-0.037798 0.611313 -0.186284
-0.035191 0.619386 -0.188329
-0.032267 0.619324 -0.188316
-0.029255 0.615679 -0.187397
-0.026344 0.615344 -0.187316
-0.023435 0.614927 -0.187214
-0.020544 0.615848 -0.187451
-0.017645 0.616928 -0.187728
-0.014736 0.619934 -0.188493
-0.011812 0.619653 -0.188426
-0.008921 0.615938 -0.187490
-0.006084 0.610925 -0.186226
-0.003199 0.611042 -0.186260
-0.000313 0.611120 -0.186285
0.002542 0.610063 -0.186022
0.005437 0.610510 -0.186141
0.008489 0.614975 -0.187276
0.011533 0.618222 -0.188103
0.014365 0.616349 -0.187635
0.017412 0.618898 -0.188286
0.020178 0.616106 -0.187585
0.023181 0.617550 -0.187957
0.026039 0.616613 -0.187726
0.028936 0.616318 -0.187658
0.031734 0.614757 -0.187269
0.034282 0.610299 -0.186148
0.037050 0.608883 -0.185796
0.039996 0.609553 -0.185973
0.042915 0.609861 -0.186058
0.045862 0.610410 -0.186205
0.048945 0.612173 -0.186659
0.052334 0.616546 -0.187775
0.055534 0.618888 -0.188377
0.057895 0.614053 -0.187161
0.060633 0.612592 -0.186800
0.063281 0.610529 -0.186287
0.066073 0.609671 -0.186079
0.069251 0.611625 -0.186584
0.072128 0.611343 -0.186523
0.074946 0.610672 -0.186363
0.077764 0.610024 -0.186210
0.080734 0.610355 -0.186305
0.083963 0.612230 -0.186792
0.086924 0.612390 -0.186844
0.089928 0.612767 -0.186952
0.092705 0.611840 -0.186730
0.095665 0.611936 -0.186768
0.098954 0.613755 -0.187243
0.102069 0.614563 -0.187462
0.104920 0.613976 -0.187328
0.108141 0.615219 -0.187658
0.110757 0.613479 -0.187232
0.111969 0.605209 -0.185151
0.115187 0.606484 -0.185491
0.118206 0.606795 -0.185587
0.121296 0.607373 -0.185751
0.124274 0.607425 -0.185783
0.127981 0.610514 -0.186586
0.131494 0.612650 -0.187148
0.134234 0.611558 -0.186891
0.137965 0.614397 -0.187633
0.141054 0.614613 -0.187710
0.143252 0.611406 -0.186918
0.145665 0.609095 -0.186354
0.148887 0.609799 -0.186557
0.152431 0.611601 -0.187040
0.154171 0.606949 -0.185883
0.156699 0.605160 -0.185455
0.159928 0.605789 -0.185642
0.162722 0.604905 -0.185445
0.165464 0.603849 -0.185205
0.169702 0.607632 -0.186197
0.175459 0.616084 -0.188379
0.177896 0.613841 -0.187840
0.179398 0.608759 -0.186580
0.181439 0.605431 -0.185766
0.183679 0.602766 -0.185122
0.187729 0.605455 -0.185843
0.190761 0.605082 -0.185785
0.193864 0.604882 -0.185771
0.197219 0.605355 -0.185931
0.200672 0.606045 -0.186147
0.204010 0.606360 -0.186269
0.207911 0.608133 -0.186764
0.211347 0.608583 -0.186923
0.214567 0.608417 -0.186925
0.218265 0.609435 -0.187231
0.223750 0.614903 -0.188676
0.225910 0.611881 -0.187953
0.230494 0.614859 -0.188764
0.231740 0.609613 -0.187475
0.231036 0.599798 -0.185017
0.236259 0.604194 -0.186194
0.239677 0.604225 -0.186256
0.242224 0.602208 -0.185796
0.247091 0.605461 -0.186685
0.252758 0.610376 -0.188003
0.256096 0.609976 -0.187960
0.259632 0.609974 -0.188019
0.262259 0.607976 -0.187568
0.266045 0.608452 -0.187752
0.270349 0.609963 -0.188203
0.271464 0.604794 -0.186939
0.272858 0.600287 -0.185844
0.277225 0.601868 -0.186315
0.280755 0.601711 -0.186338
0.285019 0.602977 -0.186728
0.291829 0.609152 -0.188382
0.294268 0.606745 -0.187827
0.296622 0.604218 -0.187240
0.298400 0.600656 -0.186385
0.303498 0.603340 -0.187138
0.306126 0.601424 -0.186705
0.310093 0.601985 -0.186909
0.314477 0.603295 -0.187305
0.317558 0.602275 -0.187097
0.320654 0.601324 -0.186905
0.324991 0.602579 -0.187280
0.328449 0.602328 -0.187263
0.329966 0.598818 -0.186400
0.333463 0.598761 -0.186426
0.330886 0.588621 -0.183841
0.353535 0.620408 -0.192099
-0.353936 0.602938 -0.189662
-0.351290 0.604117 -0.189954
-0.345826 0.600396 -0.188957
-0.343473 0.602237 -0.189414
-0.341060 0.604068 -0.189865
-0.338227 0.605225 -0.190134
-0.335286 0.606258 -0.190368
-0.332106 0.606908 -0.190497
-0.328873 0.607509 -0.190611
-0.324996 0.606923 -0.190411
-0.321513 0.607108 -0.190411
-0.317846 0.606955 -0.190320
-0.314668 0.607780 -0.190483
-0.311230 0.608109 -0.190515
-0.307879 0.608621 -0.190593
-0.304656 0.609402 -0.190740
-0.301445 0.610220 -0.190897
-0.297078 0.608604 -0.190417
-0.294039 0.609764 -0.190662
-0.290437 0.609711 -0.190589
-0.286793 0.609539 -0.190486
-0.283510 0.610132 -0.190583
-0.280202 0.610653 -0.190662
-0.276085 0.609306 -0.190254
-0.272612 0.609373 -0.190215
-0.269560 0.610389 -0.190424
-0.266412 0.611162 -0.190571
-0.262499 0.610071 -0.190234
-0.258867 0.609593 -0.190057
-0.255527 0.609779 -0.190054
-0.252147 0.609821 -0.190015
-0.248318 0.608676 -0.189668
-0.244899 0.608513 -0.189578
-0.241836 0.609228 -0.189717
-0.238857 0.610143 -0.189909
-0.235273 0.609403 -0.189673
-0.231974 0.609375 -0.189623
-0.228916 0.609973 -0.189737
-0.225845 0.610502 -0.189834
-0.222505 0.610231 -0.189724
-0.219298 0.610293 -0.189703
-0.216131 0.610433 -0.189702
-0.212470 0.609043 -0.189307
-0.209182 0.608704 -0.189185
-0.206079 0.608888 -0.189200
-0.203035 0.609220 -0.189254
-0.200115 0.609918 -0.189404
-0.196934 0.609747 -0.189331
-0.193824 0.609769 -0.189308
-0.190694 0.609678 -0.189258
-0.187749 0.610185 -0.189362
-0.184687 0.610263 -0.189358
-0.181409 0.609532 -0.189144
-0.178343 0.609507 -0.189115
-0.175490 0.610235 -0.189281
-0.172470 0.610328 -0.189284
-0.169704 0.611363 -0.189532
-0.166566 0.610944 -0.189404
-0.163442 0.610535 -0.189280
-0.160446 0.610595 -0.189278
-0.157477 0.610743 -0.189300
-0.154488 0.610778 -0.189293
-0.151556 0.611033 -0.189344
-0.148533 0.610865 -0.189286
-0.145583 0.610993 -0.189306
-0.143002 0.612820 -0.189765
-0.139894 0.612188 -0.189590
-0.136448 0.609846 -0.188974
-0.133663 0.610675 -0.189178
-0.130826 0.611251 -0.189316
-0.127817 0.610924 -0.189223
-0.124764 0.610320 -0.189058
-0.121918 0.610814 -0.189177
-0.119091 0.611416 -0.189325
-0.116073 0.610912 -0.189188
-0.113101 0.610633 -0.189110
-0.110217 0.610858 -0.189162
-0.107312 0.610953 -0.189181
-0.104416 0.611084 -0.189210
-0.101538 0.611331 -0.189270
-0.098913 0.613378 -0.189794
-0.095884 0.612576 -0.189583
-0.092715 0.610634 -0.189079
-0.089958 0.611782 -0.189373
-0.086994 0.611303 -0.189247
-0.084175 0.612016 -0.189429
-0.081345 0.612671 -0.189596
-0.078354 0.611868 -0.189388
-0.075314 0.610489 -0.189031
-0.072483 0.611112 -0.189192
-0.069788 0.613269 -0.189748
-0.066774 0.611994 -0.189419
-0.063798 0.611016 -0.189167
-0.060891 0.610799 -0.189112
-0.058038 0.611278 -0.189237
-0.055139 0.611131 -0.189200
-0.052295 0.611838 -0.189384
-0.049439 0.612438 -0.189540
-0.046556 0.612626 -0.189591
-0.043596 0.611260 -0.189240
-0.040703 0.611116 -0.189206
-0.037847 0.611879 -0.189405
-0.035063 0.614941 -0.190198
-0.032253 0.618136 -0.191025
-0.029307 0.617051 -0.190748
-0.026365 0.615633 -0.190386
-0.023509 0.619020 -0.191263
-0.020578 0.618274 -0.191075
-0.017650 0.616807 -0.190700
-0.014738 0.617956 -0.191001
-0.011819 0.618084 -0.191038
-0.008926 0.615135 -0.190282
-0.006087 0.610301 -0.189039
-0.003176 0.611805 -0.189432
-0.000316 0.610511 -0.189104
0.002572 0.610629 -0.189139
0.005480 0.611299 -0.189317
0.008655 0.618821 -0.191264
0.011613 0.619552 -0.191458
0.014584 0.620400 -0.191683
0.017328 0.616754 -0.190749
0.020253 0.616865 -0.190784
0.023146 0.616419 -0.190675
0.026084 0.616714 -0.190758
0.028949 0.615925 -0.190561
0.031803 0.615087 -0.190352
0.034397 0.611144 -0.189342
0.037152 0.609488 -0.188922
0.040001 0.609035 -0.188812
0.042940 0.609549 -0.188953
0.045893 0.610137 -0.189113
0.048910 0.611260 -0.189412
0.052505 0.617497 -0.191031
0.055340 0.616619 -0.190814
0.057919 0.613659 -0.190059
0.060486 0.610827 -0.189337
0.063196 0.609286 -0.188949
0.066187 0.609927 -0.189125
0.069218 0.610792 -0.189359
0.072160 0.610968 -0.189416
0.074929 0.609961 -0.189167
0.077806 0.609699 -0.189111
0.080935 0.611018 -0.189464
0.084069 0.612271 -0.189800
0.087137 0.613042 -0.190013
0.090080 0.613031 -0.190023
0.092727 0.611355 -0.189604
0.095726 0.611656 -0.189696
0.099021 0.613495 -0.190187
0.102389 0.615600 -0.190746
0.106269 0.620151 -0.191940
0.108718 0.617432 -0.191253
0.110420 0.611237 -0.189668
0.112732 0.608165 -0.188891
0.115343 0.606581 -0.188499
0.118257 0.606402 -0.188472
0.121243 0.606519 -0.188521
0.124644 0.608388 -0.189025
0.128426 0.611748 -0.189916
0.131778 0.613180 -0.190308
0.135230 0.614933 -0.190784
0.139108 0.618269 -0.191671
0.141475 0.615599 -0.191004
0.143403 0.611338 -0.189925
0.145338 0.607235 -0.188887
0.148862 0.609063 -0.189387
0.151745 0.608493 -0.189267
0.153957 0.605549 -0.188532
0.156661 0.604385 -0.188259
0.159896 0.605029 -0.188455
0.163078 0.605446 -0.188594
0.166398 0.606267 -0.188839
0.170313 0.608948 -0.189567
0.175773 0.616410 -0.191538
0.177975 0.613419 -0.190797
0.179788 0.609290 -0.189761
0.182405 0.607689 -0.189382
0.183539 0.601683 -0.187860
0.188159 0.606044 -0.189032
0.191306 0.605983 -0.189057
0.194718 0.606635 -0.189268
0.197742 0.606144 -0.189183
0.200517 0.604937 -0.188914
0.204880 0.608038 -0.189766
0.207774 0.607079 -0.189563
0.210200 0.604866 -0.189035
0.213414 0.604724 -0.189047
0.217441 0.606628 -0.189594
0.221236 0.607845 -0.189963
0.225614 0.610438 -0.190693
0.229310 0.611239 -0.190957
0.231914 0.609327 -0.190514
0.231230 0.599565 -0.188024
0.237456 0.606311 -0.189843
0.239888 0.604007 -0.189301
0.242592 0.602346 -0.188928
0.248814 0.608649 -0.190638
0.252273 0.608571 -0.190681
0.256551 0.610257 -0.191187
0.258927 0.607715 -0.190589
0.263492 0.609904 -0.191229
0.266586 0.608875 -0.191027
0.270212 0.608948 -0.191115
0.274209 0.609749 -0.191395
0.274287 0.602489 -0.189561
0.278064 0.602840 -0.189724
0.281443 0.602362 -0.189668
0.284087 0.600421 -0.189229
0.291516 0.607814 -0.191242
0.295778 0.608924 -0.191604
0.297717 0.605578 -0.190795
0.301444 0.605657 -0.190885
0.301867 0.599596 -0.189357
0.307230 0.602737 -0.190251
0.310703 0.602383 -0.190222
0.314218 0.602122 -0.190217
0.317422 0.601331 -0.190069
0.320574 0.600488 -0.189905
0.324269 0.600633 -0.189998
0.326965 0.599091 -0.189643
0.331471 0.600699 -0.190116
0.335235 0.601070 -0.190259
0.341419 0.605518 -0.191475
0.349291 0.612723 -0.193416
-0.354907 0.603970 -0.193146
-0.351018 0.602975 -0.192862
-0.348582 0.604609 -0.193276
-0.345164 0.604584 -0.193241
-0.341053 0.603367 -0.192883
-0.338579 0.605170 -0.193329
-0.335643 0.606212 -0.193567
-0.332568 0.607058 -0.193749
-0.329039 0.607103 -0.193713
-0.325637 0.607424 -0.193748
-0.321995 0.607312 -0.193665
-0.318466 0.607435 -0.193642
-0.314889 0.607479 -0.193596
-0.311866 0.608641 -0.193846
-0.308284 0.608696 -0.193800
-0.305149 0.609667 -0.193997
-0.301475 0.609531 -0.193898
-0.297564 0.608877 -0.193660
-0.294431 0.609846 -0.193854
-0.291139 0.610474 -0.193957
-0.287245 0.609775 -0.193708
-0.283500 0.609357 -0.193533
-0.280255 0.610018 -0.193646
-0.276497 0.609493 -0.193444
-0.272754 0.608948 -0.193238
-0.269614 0.609761 -0.193393
-0.266483 0.610578 -0.193550
-0.262300 0.608844 -0.193031
-0.259043 0.609273 -0.193087
-0.255722 0.609515 -0.193095
-0.252350 0.609588 -0.193059
-0.249043 0.609780 -0.193056
-0.245145 0.608409 -0.192640
-0.242473 0.610161 -0.193053
-0.238878 0.609464 -0.192818
-0.235720 0.609876 -0.192879
-0.232284 0.609493 -0.192730
-0.229150 0.609894 -0.192790
-0.225876 0.609863 -0.192738
-0.222528 0.609571 -0.192618
-0.219294 0.609559 -0.192572
-0.216153 0.609776 -0.192590
-0.212551 0.608568 -0.192232
-0.209233 0.608145 -0.192082
-0.205942 0.607751 -0.191942
-0.203175 0.608952 -0.192224
-0.200295 0.609792 -0.192412
-0.197253 0.610085 -0.192457
-0.194339 0.610775 -0.192607
-0.190829 0.609436 -0.192224
-0.187892 0.609981 -0.192339
-0.185000 0.610662 -0.192491
-0.181620 0.609592 -0.192182
-0.178534 0.609512 -0.192135
-0.175549 0.609764 -0.192177
-0.172646 0.610301 -0.192295
-0.169606 0.610299 -0.192272
-0.166779 0.611095 -0.192461
-0.163659 0.610722 -0.192342
-0.160590 0.610503 -0.192265
-0.157630 0.610700 -0.192298
-0.154665 0.610857 -0.192322
-0.151658 0.610804 -0.192291
-0.148727 0.611056 -0.192342
-0.145858 0.611571 -0.192462
-0.142911 0.611723 -0.192488
-0.140145 0.612712 -0.192735
