ply
format ascii 1.0
comment ---
element vertex 1690
property float x
property float y
property float z
element face 0
property list uchar uint vertex_indices
end_header
-0.131796 0.610506 -0.172868
-0.127092 0.607686 -0.172340
-0.124153 0.607780 -0.172323
-0.121883 0.609005 -0.172504
-0.118658 0.608588 -0.172397
-0.116033 0.609190 -0.172468
-0.113246 0.609497 -0.172489
-0.110465 0.609796 -0.172507
-0.107880 0.610429 -0.172585
-0.105230 0.610929 -0.172639
-0.102132 0.610581 -0.172545
-0.099375 0.610831 -0.172556
-0.096718 0.611244 -0.172595
-0.094138 0.611780 -0.172656
-0.090196 0.609650 -0.172253
-0.087924 0.610714 -0.172406
-0.085312 0.611093 -0.172441
-0.082247 0.610533 -0.172312
-0.079914 0.611413 -0.172434
-0.076961 0.611002 -0.172332
-0.074536 0.611645 -0.172413
-0.071851 0.611720 -0.172396
-0.068864 0.611112 -0.172260
-0.066239 0.611241 -0.172252
-0.062813 0.609575 -0.171934
-0.060420 0.610130 -0.172001
-0.057847 0.610261 -0.171994
-0.055399 0.610642 -0.172032
-0.052998 0.611111 -0.172085
-0.050262 0.610773 -0.171998
-0.047517 0.610372 -0.171900
-0.045177 0.610900 -0.171964
-0.042842 0.611422 -0.172027
-0.040792 0.612631 -0.172209
-0.038514 0.613271 -0.172292
-0.039359 0.621821 -0.173744
-0.038569 0.626374 -0.174504
-0.031217 0.613906 -0.172321
-0.028622 0.613639 -0.172248
-0.025888 0.612965 -0.172106
-0.024320 0.615416 -0.172503
-0.022048 0.615966 -0.172572
-0.020062 0.617309 -0.172777
-0.019149 0.621714 -0.173512
-0.014445 0.615281 -0.172376
-0.009764 0.608693 -0.171214
-0.005657 0.603584 -0.170309
-0.001457 0.598010 -0.169324
-0.002222 0.607487 -0.170932
-0.000684 0.610057 -0.171350
0.001665 0.610116 -0.171336
0.004439 0.608786 -0.171083
0.006735 0.608952 -0.171087
0.004713 0.623503 -0.173566
0.007787 0.621248 -0.173154
0.011249 0.617556 -0.172494
0.013990 0.616242 -0.172244
0.016626 0.615237 -0.172048
0.019284 0.614091 -0.171827
0.021941 0.612890 -0.171597
0.024522 0.611914 -0.171406
0.026885 0.611715 -0.171348
0.029435 0.610760 -0.171161
0.033180 0.604962 -0.170143
0.035873 0.603209 -0.169820
0.040054 0.595158 -0.168417
0.042077 0.595944 -0.168530
0.042475 0.603813 -0.169856
0.043796 0.607912 -0.170535
0.046276 0.606910 -0.170341
0.048030 0.609220 -0.170714
0.050075 0.610235 -0.170865
0.049726 0.622945 -0.173016
0.052536 0.620496 -0.172574
0.055498 0.617134 -0.171977
0.058766 0.611973 -0.171072
0.061814 0.607714 -0.170322
0.065041 0.602215 -0.169360
0.068836 0.593172 -0.167794
0.069154 0.603917 -0.169607
0.070455 0.609363 -0.170514
0.072674 0.609440 -0.170505
0.074842 0.609823 -0.170548
0.077077 0.609779 -0.170519
0.079348 0.609471 -0.170444
0.081613 0.609169 -0.170371
0.083816 0.609281 -0.170368
0.084959 0.617383 -0.171726
0.085049 0.634330 -0.174589
0.089529 0.616858 -0.171592
0.091928 0.615570 -0.171350
0.094350 0.613950 -0.171053
0.096331 0.616236 -0.171419
0.098602 0.615928 -0.171345
0.100726 0.617049 -0.171513
0.102467 0.622334 -0.172389
0.104933 0.620058 -0.171980
0.106971 0.622566 -0.172384
0.109256 0.622250 -0.172308
0.111861 0.617604 -0.171497
0.115477 0.597910 -0.168132
0.117180 0.604542 -0.169237
0.119317 0.605050 -0.169301
0.121541 0.604070 -0.169114
0.123564 0.606800 -0.169555
0.125772 0.606082 -0.169412
0.127900 0.607079 -0.169560
0.129555 0.621089 -0.171911
0.131843 0.619538 -0.171627
0.134182 0.615578 -0.170934
0.136540 0.609040 -0.169806
0.138766 0.606323 -0.169325
0.140888 0.609510 -0.169843
0.143066 0.609467 -0.169814
0.145241 0.609855 -0.169858
0.147418 0.609772 -0.169823
0.149593 0.609477 -0.169751
0.151741 0.607021 -0.169315
0.153928 0.608729 -0.169582
0.155990 0.603288 -0.168642
0.157790 0.589314 -0.166263
0.160209 0.601050 -0.168223
0.162442 0.604037 -0.168706
0.164610 0.604645 -0.168787
0.166758 0.604666 -0.168770
0.168998 0.606591 -0.169073
0.171244 0.608306 -0.169341
0.174052 0.619502 -0.171206
0.176056 0.616078 -0.170608
0.177944 0.611411 -0.169801
0.180111 0.611232 -0.169749
0.182294 0.611295 -0.169739
0.184247 0.608506 -0.169248
0.188404 0.606542 -0.168876
0.197253 0.608437 -0.169111
0.199525 0.609310 -0.169237
0.201740 0.609615 -0.169267
0.204099 0.611053 -0.169487
0.207006 0.616642 -0.170404
0.211142 0.631050 -0.172800
0.212274 0.622656 -0.171370
0.212740 0.610129 -0.169249
0.214854 0.609582 -0.169136
0.216976 0.609103 -0.169035
0.219014 0.608099 -0.168847
0.220538 0.603954 -0.168132
0.223886 0.610988 -0.169289
0.227225 0.617557 -0.170368
0.229643 0.618513 -0.170506
0.231789 0.617889 -0.170381
0.233933 0.617260 -0.170255
0.235960 0.616032 -0.170029
0.236914 0.609345 -0.168890
0.237955 0.603387 -0.167874
0.240085 0.602999 -0.167789
0.242471 0.603824 -0.167906
0.245166 0.606023 -0.168253
0.246589 0.602308 -0.167612
0.248908 0.602715 -0.167660
0.254663 0.618043 -0.170197
0.255960 0.613689 -0.169450
0.257833 0.611887 -0.169129
0.259092 0.607613 -0.168396
0.261397 0.607674 -0.168386
0.263696 0.607680 -0.168366
0.266348 0.609011 -0.168567
0.268392 0.607963 -0.168372
0.270545 0.607321 -0.168245
0.272942 0.607560 -0.168265
0.274580 0.605044 -0.167825
0.276047 0.601984 -0.167296
0.276249 0.594638 -0.166054
0.280107 0.599895 -0.166908
0.283318 0.602783 -0.167368
0.285974 0.603725 -0.167504
0.288226 0.603297 -0.167413
0.290600 0.603235 -0.167382
0.296574 0.614340 -0.169205
0.298484 0.612611 -0.168898
0.298659 0.605678 -0.167726
0.300904 0.605067 -0.167604
0.303079 0.604237 -0.167446
0.303432 0.598171 -0.166419
0.302497 0.588615 -0.164815
0.311670 0.607461 -0.167918
0.314124 0.607290 -0.167869
0.317155 0.608654 -0.168073
0.319817 0.608971 -0.168105
0.322462 0.609210 -0.168123
0.325246 0.609780 -0.168196
0.328579 0.611714 -0.168494
0.334915 0.614558 -0.168921
0.336234 0.611389 -0.168375
0.336629 0.606074 -0.167475
0.335775 0.597930 -0.166108
0.330981 0.580759 -0.163251
0.342983 0.602939 -0.166892
0.345427 0.602713 -0.166832
0.348996 0.605046 -0.167195
0.351949 0.605972 -0.167326
0.354438 0.605881 -0.167288
0.367010 0.627761 -0.170873
0.368499 0.625336 -0.170449
0.363119 0.608409 -0.167637
0.366497 0.610319 -0.167928
0.371815 0.616271 -0.168885
-0.165013 0.602178 -0.174329
-0.164894 0.606126 -0.175015
-0.161178 0.604872 -0.174754
-0.159751 0.607052 -0.175116
-0.156520 0.606591 -0.174998
-0.154018 0.607262 -0.175084
-0.151180 0.607456 -0.175083
-0.148294 0.607604 -0.175073
-0.145909 0.608558 -0.175209
-0.142866 0.608503 -0.175160
-0.140080 0.608866 -0.175188
-0.137289 0.609234 -0.175215
-0.134706 0.609950 -0.175306
-0.131983 0.610447 -0.175356
-0.128499 0.609675 -0.175177
-0.125948 0.610451 -0.175277
-0.122588 0.609846 -0.175128
-0.119497 0.609676 -0.175058
-0.116536 0.609707 -0.175024
-0.113552 0.609678 -0.174979
-0.110696 0.609848 -0.174971
-0.107796 0.609918 -0.174944
-0.105039 0.610222 -0.174960
-0.102274 0.610486 -0.174969
-0.099758 0.611193 -0.175058
-0.096663 0.610784 -0.174946
-0.093255 0.609732 -0.174719
-0.090575 0.610034 -0.174736
-0.087835 0.610189 -0.174727
-0.084761 0.609648 -0.174593
-0.082303 0.610298 -0.174673
-0.079937 0.611113 -0.174784
-0.077608 0.611989 -0.174905
-0.074023 0.610230 -0.174555
-0.071549 0.610739 -0.174611
-0.068684 0.610386 -0.174513
-0.065974 0.610326 -0.174468
-0.064146 0.612162 -0.174763
-0.060384 0.609715 -0.174292
-0.058867 0.612220 -0.174706
-0.055477 0.610488 -0.174364
-0.052420 0.609443 -0.174145
-0.050089 0.610037 -0.174219
-0.047932 0.611025 -0.174364
-0.045126 0.610449 -0.174229
-0.042800 0.610992 -0.174295
-0.040538 0.611677 -0.174386
-0.038351 0.612538 -0.174509
-0.039009 0.620601 -0.175915
-0.039236 0.627754 -0.177157
-0.030420 0.611506 -0.174235
-0.026976 0.608968 -0.173754
-0.025578 0.611814 -0.174231
-0.024243 0.614887 -0.174749
-0.021775 0.614896 -0.174721
-0.019134 0.614392 -0.174603
-0.016815 0.614760 -0.174640
-0.013640 0.612644 -0.174236
-0.010441 0.610369 -0.173805
-0.004943 0.601155 -0.172143
-0.000986 0.596287 -0.171253
-0.002657 0.608518 -0.173395
-0.000688 0.609768 -0.173590
0.001613 0.609981 -0.173601
0.004303 0.608925 -0.173387
0.006628 0.609005 -0.173375
0.004919 0.622510 -0.175739
0.007263 0.622722 -0.175750
0.011565 0.616166 -0.174564
0.014546 0.613994 -0.174154
0.016779 0.614394 -0.174199
0.019306 0.613723 -0.174055
0.022167 0.611767 -0.173683
0.024606 0.611311 -0.173578
0.027177 0.610310 -0.173376
0.030028 0.608151 -0.172970
0.032702 0.606600 -0.172672
0.036193 0.601628 -0.171771
0.038884 0.599769 -0.171419
0.040958 0.600444 -0.171514
0.041110 0.609482 -0.173082
0.043922 0.607085 -0.172636
0.045561 0.609893 -0.173106
0.047891 0.609599 -0.173031
0.050083 0.609935 -0.173066
0.049497 0.623795 -0.175481
0.052015 0.622836 -0.175287
0.055856 0.615043 -0.173893
0.058147 0.614969 -0.173856
0.061119 0.611203 -0.173170
0.064376 0.605651 -0.172171
0.067819 0.598716 -0.170930
0.069325 0.602688 -0.171604
0.070532 0.608670 -0.172632
0.072742 0.608789 -0.172629
0.074916 0.609124 -0.172665
0.077085 0.609509 -0.172709
0.079310 0.609514 -0.172687
0.083812 0.609099 -0.172568
0.084567 0.620139 -0.174479
0.085476 0.630786 -0.176321
0.089850 0.614053 -0.173367
0.091818 0.616314 -0.173740
0.094064 0.616300 -0.173714
0.096495 0.614560 -0.173387
0.098545 0.616315 -0.173671
0.101058 0.613538 -0.173162
0.103194 0.614477 -0.173303
0.105652 0.611885 -0.172827
0.107649 0.614430 -0.173249
0.109762 0.615798 -0.173466
0.112160 0.613536 -0.173048
0.117153 0.604926 -0.171500
0.119167 0.607513 -0.171929
0.121288 0.608600 -0.172097
0.125679 0.608167 -0.171976
0.127693 0.612179 -0.172653
0.129495 0.622913 -0.174501
0.131783 0.621709 -0.174268
0.134343 0.610103 -0.172225
0.136512 0.610831 -0.172329
0.138709 0.610320 -0.172218
0.140856 0.613080 -0.172676
0.143062 0.611942 -0.172456
0.145261 0.609635 -0.172033
0.147439 0.609973 -0.172070
0.149611 0.608816 -0.171847
0.151785 0.608934 -0.171845
0.153960 0.609146 -0.171860
0.156069 0.605907 -0.171276
0.157916 0.593322 -0.169070
0.160338 0.604405 -0.170972
0.162653 0.609305 -0.171801
0.166940 0.608050 -0.171540
0.169137 0.608720 -0.171634
0.171451 0.611476 -0.172090
0.174413 0.625040 -0.174419
0.176219 0.618007 -0.173178
0.178180 0.614269 -0.172509
0.180276 0.612902 -0.172251
0.182399 0.612044 -0.172081
0.184218 0.607541 -0.171280
0.188413 0.606066 -0.170983
0.190547 0.605813 -0.170918
0.195248 0.609473 -0.171509
0.197591 0.610986 -0.171749
0.199554 0.609026 -0.171390
0.201808 0.609659 -0.171478
0.204150 0.610944 -0.171679
0.207123 0.617029 -0.172708
0.211231 0.631187 -0.175130
0.212680 0.625077 -0.174055
0.212834 0.610289 -0.171483
0.214938 0.609658 -0.171354
0.217280 0.610607 -0.171497
0.219360 0.609820 -0.171341
0.221726 0.610819 -0.171493
0.224154 0.612117 -0.171696
0.227247 0.617197 -0.172551
0.230092 0.620573 -0.173111
0.231573 0.616214 -0.172341
0.233447 0.614170 -0.171969
0.233766 0.604052 -0.170208
0.233610 0.591983 -0.168114
0.238154 0.603927 -0.170148
0.240534 0.604732 -0.170267
0.242989 0.605839 -0.170438
0.245571 0.607455 -0.170696
0.246979 0.603632 -0.170020
0.251791 0.615087 -0.171968
0.256552 0.615752 -0.172043
0.258323 0.613477 -0.171633
0.259430 0.608551 -0.170769
0.261327 0.606949 -0.170475
0.264054 0.608639 -0.170747
0.266292 0.608352 -0.170678
0.268878 0.609355 -0.170832
0.271447 0.610223 -0.170962
0.272471 0.605409 -0.170118
0.273696 0.601449 -0.169422
0.274645 0.596633 -0.168579
0.273415 0.584450 -0.166476
0.281183 0.603104 -0.169651
0.283718 0.603682 -0.169732
0.285825 0.602805 -0.169564
0.288690 0.604356 -0.169811
0.291465 0.605536 -0.169995
0.299093 0.621727 -0.172745
0.299672 0.615805 -0.171714
0.300383 0.610435 -0.170778
0.301516 0.606448 -0.170079
0.303184 0.604113 -0.169663
0.302331 0.594589 -0.168019
0.302757 0.588936 -0.167037
0.311743 0.607235 -0.170142
0.315528 0.610704 -0.170717
0.317745 0.609815 -0.170547
0.320039 0.609130 -0.170412
0.322512 0.608910 -0.170356
0.324954 0.608595 -0.170285
0.329351 0.613246 -0.171059
0.333567 0.610788 -0.170603
0.335513 0.609198 -0.170314
0.337885 0.608674 -0.170206
0.339032 0.605250 -0.169605
0.341777 0.605666 -0.169657
0.349209 0.616924 -0.171553
0.355611 0.625553 -0.173001
0.357537 0.623888 -0.172698
0.358032 0.619100 -0.171863
0.360427 0.618636 -0.171763
0.352018 0.594731 -0.167681
0.358709 0.603867 -0.169213
0.361749 0.605080 -0.169398
0.363689 0.604004 -0.169194
0.364681 0.601035 -0.168668
-0.167759 0.605794 -0.177523
-0.162813 0.602707 -0.176910
-0.161260 0.604621 -0.177232
-0.159132 0.605755 -0.177407
-0.156858 0.606725 -0.177550
-0.154213 0.607183 -0.177596
-0.151752 0.607960 -0.177700
-0.149163 0.608577 -0.177774
-0.146003 0.608328 -0.177685
-0.142811 0.608039 -0.177588
-0.140717 0.609510 -0.177818
-0.137639 0.609424 -0.177758
-0.134564 0.609343 -0.177698
-0.132044 0.610171 -0.177807
-0.129142 0.610375 -0.177799
-0.127245 0.612267 -0.178106
-0.122545 0.609399 -0.177527
-0.119880 0.609965 -0.177587
-0.116887 0.609950 -0.177538
-0.114099 0.610273 -0.177553
-0.111227 0.610428 -0.177537
-0.108479 0.610785 -0.177558
-0.105117 0.609998 -0.177368
-0.102532 0.610597 -0.177434
-0.099954 0.611193 -0.177501
-0.096226 0.609594 -0.177161
-0.093748 0.610315 -0.177252
-0.090787 0.610084 -0.177166
-0.088019 0.610191 -0.177144
-0.084927 0.609620 -0.176997
-0.082637 0.610614 -0.177139
-0.079916 0.610715 -0.177116
-0.077258 0.610915 -0.177113
-0.074509 0.610893 -0.177069
-0.071168 0.609584 -0.176788
-0.068932 0.610569 -0.176930
-0.065481 0.608911 -0.176587
-0.063805 0.611067 -0.176945
-0.061818 0.612554 -0.177181
-0.058649 0.611385 -0.176929
-0.056185 0.611759 -0.176961
-0.053605 0.611838 -0.176939
-0.051055 0.611956 -0.176924
-0.048854 0.612872 -0.177057
-0.045652 0.611375 -0.176747
-0.042703 0.610422 -0.176538
-0.040357 0.610897 -0.176590
-0.038236 0.611918 -0.176743
-0.037601 0.616698 -0.177585
-0.039790 0.628838 -0.179774
-0.029900 0.609825 -0.176261
-0.027559 0.610183 -0.176294
-0.026726 0.614566 -0.177063
-0.024209 0.614470 -0.177014
-0.020832 0.611970 -0.176525
-0.018729 0.612937 -0.176671
-0.016948 0.614819 -0.176983
-0.014705 0.615400 -0.177058
-0.011477 0.613089 -0.176606
-0.007808 0.609371 -0.175898
-0.000900 0.595726 -0.173381
-0.002781 0.608593 -0.175697
-0.000643 0.609319 -0.175801
0.001675 0.609478 -0.175801
0.004103 0.609266 -0.175733
0.006161 0.610233 -0.175881
0.005750 0.619437 -0.177527
0.005758 0.627514 -0.178968
0.011936 0.614587 -0.176589
0.014284 0.614616 -0.176566
0.016916 0.613610 -0.176356
0.018973 0.614639 -0.176515
0.021458 0.614102 -0.176390
0.024565 0.611175 -0.175832
0.026385 0.613068 -0.176149
0.029360 0.610491 -0.175655
0.032349 0.607729 -0.175128
0.035750 0.603162 -0.174274
0.039493 0.596960 -0.173124
0.041144 0.599379 -0.173537
0.041112 0.609200 -0.175291
0.043277 0.609679 -0.175352
0.045455 0.610107 -0.175404
0.047745 0.610012 -0.175361
0.050044 0.609855 -0.175307
0.049161 0.625163 -0.178050
0.051547 0.624900 -0.177977
0.056300 0.612517 -0.175713
0.058552 0.612588 -0.175701
0.060762 0.612875 -0.175728
0.063559 0.609920 -0.175170
0.068212 0.596251 -0.172678
0.069423 0.601879 -0.173670
0.070585 0.608115 -0.174770
0.072769 0.608388 -0.174795
0.074948 0.608694 -0.174826
0.079174 0.610217 -0.175053
0.081294 0.610984 -0.175167
0.085115 0.615801 -0.175986
0.085371 0.631397 -0.178769
0.090082 0.611971 -0.175249
0.092196 0.612928 -0.175397
0.094232 0.614640 -0.175681
0.096462 0.614692 -0.175666
0.099052 0.611274 -0.175028
0.101119 0.612775 -0.175274
0.103603 0.609994 -0.174751
0.105655 0.611717 -0.175037
0.107735 0.613293 -0.175296
0.110112 0.611319 -0.174918
0.112433 0.609812 -0.174625
0.115920 0.591480 -0.171313
0.117289 0.602802 -0.173321
0.121091 0.612141 -0.174949
0.123425 0.609607 -0.174472
0.127679 0.612646 -0.174970
0.129311 0.628121 -0.177717
0.131666 0.625621 -0.177246
0.134332 0.610892 -0.174587
0.136567 0.608966 -0.174219
0.138673 0.613087 -0.174934
0.140865 0.613643 -0.175010
0.143086 0.611200 -0.174551
0.145280 0.609739 -0.174267
0.147460 0.609706 -0.174238
0.149643 0.610426 -0.174344
0.151834 0.611269 -0.174472
0.153982 0.608879 -0.174023
0.155896 0.595850 -0.171676
0.157946 0.593388 -0.171215
0.160453 0.607304 -0.173675
0.162668 0.608778 -0.173916
0.164887 0.610035 -0.174118
0.167113 0.611183 -0.174300
0.169278 0.610844 -0.174218
0.174461 0.625146 -0.176720
0.176357 0.619519 -0.175696
0.178363 0.616314 -0.175104
0.180483 0.615132 -0.174871
0.182210 0.608949 -0.173750
0.184651 0.612261 -0.174317
0.188257 0.603764 -0.172764
0.191035 0.610353 -0.173914
0.193116 0.609347 -0.173714
0.195349 0.609878 -0.173787
0.199620 0.609069 -0.173602
0.204233 0.611086 -0.173918
0.207067 0.616064 -0.174780
0.211331 0.631397 -0.177478
0.213053 0.627253 -0.176722
0.213405 0.613775 -0.174312
0.215050 0.609916 -0.173608
0.217411 0.610968 -0.173775
0.219705 0.611516 -0.173851
0.221720 0.610292 -0.173615
0.224129 0.611477 -0.173805
0.226474 0.612198 -0.173913
0.229247 0.615291 -0.174440
0.230728 0.611063 -0.173673
0.232437 0.608261 -0.173158
0.232472 0.596804 -0.171114
0.233496 0.590945 -0.170059
0.238786 0.606612 -0.172810
0.240820 0.605660 -0.172623
0.243732 0.608905 -0.173178
0.245749 0.607815 -0.172967
0.247831 0.607043 -0.172813
0.252732 0.618802 -0.174870
0.257212 0.618097 -0.174709
0.257948 0.611452 -0.173519
0.259638 0.608942 -0.173059
0.262060 0.609429 -0.173127
0.263918 0.607652 -0.172797
0.266479 0.608619 -0.172950
0.269007 0.609387 -0.173068
0.270835 0.607505 -0.172720
0.273769 0.609676 -0.173086
0.275233 0.606492 -0.172508
0.275749 0.600063 -0.171360
0.274547 0.587919 -0.169207
0.282106 0.605783 -0.172335
0.285495 0.609140 -0.172910
0.287704 0.608497 -0.172781
0.289897 0.607789 -0.172641
0.292696 0.608978 -0.172835
0.303269 0.634232 -0.177260
0.300145 0.616794 -0.174178
0.301243 0.612571 -0.173420
0.302304 0.608335 -0.172661
0.303420 0.604360 -0.171948
0.300809 0.589796 -0.169374
0.303520 0.590662 -0.169512
0.311745 0.606796 -0.172331
0.315637 0.610558 -0.172977
0.317902 0.609794 -0.172828
0.320199 0.609110 -0.172693
0.322703 0.608967 -0.172654
0.324437 0.606818 -0.172262
0.331010 0.617020 -0.174036
0.333438 0.610027 -0.172780
0.335845 0.609567 -0.172684
0.337155 0.606477 -0.172127
0.339279 0.605401 -0.171923
0.341929 0.605590 -0.171940
0.342979 0.602079 -0.171309
0.348433 0.608723 -0.172456
0.349841 0.606098 -0.171980
0.354482 0.610759 -0.172778
0.348883 0.592822 -0.169621
0.351076 0.592270 -0.169507
0.360630 0.607568 -0.172165
0.362560 0.606379 -0.171938
0.364285 0.604836 -0.171648
0.366235 0.603844 -0.171455
-0.167390 0.604885 -0.179889
-0.164792 0.605230 -0.179917
-0.161725 0.604932 -0.179821
-0.159041 0.605242 -0.179839
-0.156238 0.605412 -0.179830
-0.153791 0.606162 -0.179930
-0.151867 0.607755 -0.180191
-0.148998 0.607938 -0.180180
-0.146305 0.608419 -0.180225
-0.143507 0.608759 -0.180242
-0.139746 0.607573 -0.179965
-0.137881 0.609432 -0.180272
-0.135071 0.609787 -0.180290
-0.131179 0.608360 -0.179966
-0.129244 0.610161 -0.180260
-0.126355 0.610380 -0.180250
-0.123052 0.609884 -0.180104
-0.119618 0.609132 -0.179909
-0.117254 0.610210 -0.180064
-0.114364 0.610363 -0.180042
-0.111752 0.610988 -0.180110
-0.108876 0.611124 -0.180085
-0.105819 0.610905 -0.179993
-0.103016 0.611118 -0.179984
-0.100201 0.611283 -0.179966
-0.096787 0.610284 -0.179726
-0.094652 0.611676 -0.179943
-0.091093 0.610308 -0.179634
-0.088429 0.610628 -0.179648
-0.085557 0.610505 -0.179577
-0.083818 0.612621 -0.179932
-0.079627 0.609765 -0.179345
-0.077166 0.610364 -0.179413
-0.074095 0.609669 -0.179237
-0.071594 0.610125 -0.179279
-0.068598 0.609499 -0.179117
-0.066693 0.611180 -0.179392
-0.063381 0.609785 -0.179086
-0.061647 0.611822 -0.179429
-0.059016 0.611859 -0.179394
-0.056413 0.611928 -0.179366
-0.053322 0.610837 -0.179120
-0.051254 0.612075 -0.179314
-0.048613 0.611956 -0.179252
-0.045737 0.611237 -0.179078
-0.042869 0.610484 -0.178897
-0.040389 0.610637 -0.178888
-0.038389 0.611962 -0.179101
-0.037572 0.616286 -0.179877
-0.031596 0.613907 -0.179357
-0.029630 0.615321 -0.179587
-0.026675 0.614099 -0.179322
-0.022870 0.610501 -0.178611
-0.019010 0.606622 -0.177849
-0.018824 0.612875 -0.178989
-0.017305 0.615506 -0.179448
-0.015298 0.616786 -0.179655
-0.012571 0.615968 -0.179469
-0.008664 0.611595 -0.178616
-0.001426 0.597009 -0.175852
-0.002957 0.608820 -0.178033
-0.000672 0.609100 -0.178054
0.001536 0.609609 -0.178118
0.003717 0.610200 -0.178198
0.005837 0.610987 -0.178315
0.004079 0.624687 -0.180845
0.005980 0.626448 -0.181143
0.010277 0.619996 -0.179907
0.014454 0.613718 -0.178705
0.016152 0.616037 -0.179108
0.018592 0.615724 -0.179020
0.021223 0.614673 -0.178795
0.023126 0.616312 -0.179072
0.025462 0.616327 -0.179046
0.028390 0.614002 -0.178584
0.032114 0.608388 -0.177510
0.035338 0.604565 -0.176771
0.038956 0.598922 -0.175693
0.041177 0.598966 -0.175675
0.040847 0.610078 -0.177715
0.042995 0.610660 -0.177797
0.045934 0.607660 -0.177212
0.047680 0.610048 -0.177629
0.049897 0.610288 -0.177647
0.049060 0.625380 -0.180424
0.051736 0.623692 -0.180083
0.056236 0.612586 -0.177995
0.058631 0.611919 -0.177845
0.061157 0.610502 -0.177556
0.063381 0.610655 -0.177558
0.068660 0.593473 -0.174347
0.069345 0.602096 -0.175920
0.070514 0.608310 -0.177047
0.072777 0.608106 -0.176983
0.074963 0.608373 -0.177007
0.077039 0.609364 -0.177166
0.079133 0.610276 -0.177309
0.081309 0.610666 -0.177357
0.083517 0.610835 -0.177363
0.084753 0.618319 -0.178722
0.085086 0.633427 -0.181489
0.090090 0.611715 -0.177451
0.092253 0.612264 -0.177527
0.094246 0.614344 -0.177887
0.096486 0.614306 -0.177855
0.099259 0.609117 -0.176872
0.101356 0.610233 -0.177054
0.103330 0.612752 -0.177494
0.105568 0.612571 -0.177436
0.107778 0.612671 -0.177430
0.110268 0.609259 -0.176777
0.112520 0.608568 -0.176626
0.115919 0.591432 -0.173445
0.117323 0.602240 -0.175412
0.121182 0.610529 -0.176891
0.125622 0.609566 -0.176666
0.127617 0.614281 -0.177509
0.129321 0.628055 -0.180018
0.131623 0.627250 -0.179845
0.134129 0.618703 -0.178250
0.136455 0.614457 -0.177446
0.138754 0.609391 -0.176492
0.140906 0.611746 -0.176901
0.143102 0.611452 -0.176824
0.145294 0.611042 -0.176725
0.147482 0.610837 -0.176664
0.149679 0.612656 -0.176975
0.151874 0.612782 -0.176975
0.154001 0.608361 -0.176141
0.155904 0.594895 -0.173651
0.157923 0.591298 -0.172970
0.160465 0.606638 -0.175757
0.162657 0.607496 -0.175892
0.169309 0.610705 -0.176412
0.171808 0.616699 -0.177486
0.174852 0.631157 -0.180107
0.176396 0.619427 -0.177939
0.178184 0.612977 -0.176738
0.180349 0.612597 -0.176647
0.182649 0.614037 -0.176888
0.183984 0.603437 -0.174930
0.184714 0.586979 -0.171904
0.188406 0.604824 -0.175141
0.193182 0.609441 -0.175941
0.197500 0.609048 -0.175827
0.204647 0.613888 -0.176646
0.206912 0.614323 -0.176705
0.211863 0.634828 -0.180418
0.212378 0.621834 -0.178031
0.213377 0.613063 -0.176414
0.215214 0.610512 -0.175930
0.217074 0.608254 -0.175499
0.219411 0.609141 -0.175641
0.221607 0.609094 -0.175613
0.223516 0.607304 -0.175269
0.225807 0.607820 -0.175343
0.228214 0.608945 -0.175529
0.230156 0.607419 -0.175233
0.231816 0.604440 -0.174674
0.232505 0.596506 -0.173215
0.233458 0.590288 -0.172068
0.239172 0.608058 -0.175276
0.241179 0.606935 -0.175055
0.243179 0.605805 -0.174832
0.245760 0.607394 -0.175103
0.248164 0.608084 -0.175211
0.252825 0.618733 -0.177126
0.256605 0.615035 -0.176422
0.258162 0.611871 -0.175832
0.260280 0.611093 -0.175674
0.261815 0.607982 -0.175095
0.264110 0.607941 -0.175072
0.266384 0.607790 -0.175029
0.268846 0.608319 -0.175110
0.271109 0.608056 -0.175047
0.273124 0.606871 -0.174818
0.275298 0.606262 -0.174693
0.274194 0.594169 -0.172491
0.274964 0.588912 -0.171527
0.282418 0.606379 -0.174673
0.285278 0.607960 -0.174945
0.287899 0.608675 -0.175061
0.290371 0.608849 -0.175080
0.292825 0.608928 -0.175081
0.300023 0.615957 -0.176326
0.301722 0.613547 -0.175878
0.303147 0.610370 -0.175291
0.302818 0.602157 -0.173796
0.299637 0.586004 -0.170867
0.305941 0.597048 -0.172850
0.312246 0.607734 -0.174768
0.315463 0.609625 -0.175098
0.317963 0.609501 -0.175064
0.320536 0.609552 -0.175062
0.322075 0.606870 -0.174566
0.324798 0.607298 -0.174632
0.331409 0.617572 -0.176474
0.334880 0.613137 -0.175650
0.336322 0.610279 -0.175123
0.337779 0.607531 -0.174615
0.338582 0.603306 -0.173841
0.339887 0.600369 -0.173299
0.343816 0.603574 -0.173864
0.346531 0.603944 -0.173917
0.350762 0.607733 -0.174585
0.348610 0.597263 -0.172685
0.349251 0.593208 -0.171940
0.351457 0.592676 -0.171828
0.360627 0.607129 -0.174414
0.362872 0.606611 -0.174303
0.364752 0.605388 -0.174065
0.365911 0.602750 -0.173571
-0.168852 0.606626 -0.182775
-0.165178 0.605415 -0.182494
-0.161862 0.604755 -0.182320
-0.159668 0.605793 -0.182481
-0.155961 0.604614 -0.182201
-0.153769 0.605743 -0.182377
-0.151523 0.606840 -0.182544
-0.148758 0.607178 -0.182560
-0.145879 0.607363 -0.182545
-0.143059 0.607659 -0.182550
-0.140267 0.608016 -0.182566
-0.137234 0.607996 -0.182507
-0.135226 0.609649 -0.182777
-0.131895 0.609152 -0.182622
-0.128901 0.609197 -0.182575
-0.126143 0.609631 -0.182603
-0.122382 0.608351 -0.182294
-0.119844 0.609134 -0.182391
-0.117292 0.609887 -0.182482
-0.114664 0.610503 -0.182546
-0.111828 0.610737 -0.182535
-0.108971 0.610909 -0.182512
-0.106078 0.610993 -0.182473
-0.103167 0.611013 -0.182421
-0.100169 0.610839 -0.182332
-0.097437 0.611133 -0.182335
-0.094601 0.611199 -0.182294
-0.090822 0.609407 -0.181890
-0.088273 0.609946 -0.181942
-0.086056 0.611121 -0.182120
-0.082142 0.608881 -0.181631
-0.079686 0.609514 -0.181704
-0.077120 0.609900 -0.181729
-0.074802 0.610776 -0.181850
-0.071977 0.610568 -0.181761
-0.069254 0.610535 -0.181706
-0.066176 0.609699 -0.181496
-0.063159 0.608939 -0.181302
-0.061314 0.610723 -0.181602
-0.059112 0.611715 -0.181749
-0.056996 0.612896 -0.181933
-0.053498 0.610889 -0.181500
-0.051055 0.611256 -0.181527
-0.048283 0.610824 -0.181400
-0.046540 0.612810 -0.181742
-0.043214 0.610977 -0.181345
-0.040573 0.610744 -0.181259
-0.038605 0.612156 -0.181492
-0.037848 0.616638 -0.182317
-0.034975 0.622357 -0.183342
-0.029992 0.615936 -0.182063
-0.025199 0.609813 -0.180843
-0.021565 0.606627 -0.180192
-0.019554 0.607792 -0.180379
-0.018275 0.611012 -0.180963
-0.016788 0.613709 -0.181447
-0.015125 0.615956 -0.181843
-0.012535 0.615535 -0.181726
-0.007650 0.608263 -0.180292
-0.003163 0.601938 -0.179042
-0.003211 0.609279 -0.180419
-0.000982 0.609747 -0.180476
0.001440 0.609599 -0.180414
0.003687 0.609981 -0.180454
0.005769 0.610897 -0.180597
0.005292 0.620332 -0.182375
0.005873 0.626493 -0.183524
0.012109 0.613380 -0.180977
0.014188 0.614345 -0.181131
0.016376 0.614934 -0.181212
0.018892 0.614332 -0.181066
0.021508 0.613319 -0.180841
0.024248 0.611781 -0.180516
0.025737 0.614973 -0.181097
0.027585 0.616862 -0.181428
0.031521 0.610468 -0.180175
0.034280 0.608593 -0.179788
0.037884 0.603109 -0.178711
0.040794 0.600320 -0.178150
0.040783 0.610075 -0.179984
0.042987 0.610417 -0.180021
0.045346 0.610053 -0.179923
0.047563 0.610317 -0.179945
0.049783 0.610561 -0.179964
0.049130 0.624765 -0.182644
0.051666 0.623769 -0.182426
0.055618 0.615477 -0.180818
0.058931 0.610093 -0.179765
0.061508 0.608359 -0.179407
0.065268 0.599993 -0.177788
0.068471 0.594304 -0.176679
0.069211 0.602643 -0.178240
0.070756 0.606617 -0.178969
0.072708 0.608299 -0.179262
0.074796 0.609209 -0.179409
0.077020 0.609261 -0.179393
0.079224 0.609439 -0.179400
0.083614 0.609915 -0.179439
0.084765 0.618020 -0.180951
0.084997 0.633910 -0.183939
0.089568 0.615771 -0.180472
0.092038 0.613895 -0.180090
0.094261 0.614025 -0.180089
0.096613 0.612963 -0.179862
0.099090 0.610585 -0.179386
0.101333 0.610321 -0.179311
0.103208 0.613904 -0.179964
0.105430 0.613988 -0.179954
0.107767 0.612692 -0.179684
0.110079 0.611532 -0.179439
0.112433 0.609654 -0.179059
0.115911 0.591493 -0.175601
0.117322 0.602222 -0.177604
0.121172 0.610720 -0.179161
0.125570 0.610772 -0.179122
0.127774 0.610666 -0.179077
0.129373 0.626863 -0.182109
0.131747 0.623692 -0.181486
0.134360 0.610689 -0.179008
0.136526 0.611879 -0.179208
0.138677 0.614531 -0.179684
0.140892 0.614039 -0.179567
0.143111 0.612507 -0.179254
0.145311 0.612039 -0.179142
0.147506 0.613126 -0.179323
0.149709 0.613719 -0.179411
0.151897 0.612522 -0.179162
0.154061 0.610580 -0.178773
0.156111 0.603847 -0.177483
0.157960 0.591615 -0.175160
0.160473 0.605835 -0.177811
0.162678 0.607126 -0.178030
0.169307 0.609846 -0.178473
0.171774 0.615286 -0.179471
0.174889 0.631032 -0.182403
0.176421 0.619101 -0.180141
0.178019 0.609834 -0.178380
0.180067 0.608027 -0.178019
0.182171 0.607159 -0.177834
0.184182 0.605249 -0.177455
0.184775 0.587098 -0.174032
0.188423 0.604413 -0.177255
0.191079 0.609636 -0.178212
0.193221 0.609249 -0.178118
0.197275 0.606437 -0.177549
0.199669 0.608390 -0.177894
0.202212 0.611419 -0.178440
0.204120 0.609097 -0.177985
0.206980 0.614307 -0.178939
0.211682 0.616266 -0.179264
0.213640 0.614373 -0.178891
0.215186 0.609803 -0.178017
0.217312 0.609298 -0.177904
0.219302 0.607943 -0.177631
0.221432 0.607506 -0.177531
0.223425 0.606259 -0.177280
0.225740 0.606933 -0.177387
0.228749 0.611471 -0.178215
0.231133 0.612305 -0.178353
0.232099 0.605467 -0.177060
0.231801 0.592347 -0.174596
0.233518 0.590121 -0.174165
0.239165 0.607532 -0.177393
0.241446 0.607744 -0.177416
0.243677 0.607686 -0.177389
0.245772 0.606971 -0.177239
0.248264 0.608059 -0.177426
0.252962 0.618850 -0.179419
0.256375 0.613574 -0.178406
0.258312 0.612017 -0.178101
0.259680 0.608172 -0.177371
0.262407 0.609873 -0.177673
0.264067 0.607298 -0.177180
0.266485 0.607705 -0.177243
0.269256 0.609390 -0.177543
0.271515 0.609086 -0.177473
0.273302 0.607049 -0.177082
0.274221 0.601959 -0.176123
0.274128 0.593481 -0.174536
0.277082 0.595736 -0.174943
0.282744 0.607011 -0.177027
0.285499 0.608225 -0.177241
0.288085 0.608811 -0.177339
0.290651 0.609278 -0.177415
0.293170 0.609544 -0.177454
0.300073 0.615635 -0.178565
0.301795 0.613293 -0.178121
0.303569 0.611145 -0.177712
0.305768 0.610266 -0.177540
0.300029 0.586679 -0.173155
0.306455 0.598041 -0.175255
0.312920 0.609135 -0.177304
0.315405 0.609000 -0.177271
0.318701 0.611022 -0.177638
0.320483 0.608944 -0.177244
0.323244 0.609462 -0.177332
0.325648 0.609023 -0.177242
0.332187 0.619074 -0.179098
0.334656 0.612117 -0.177791
0.336865 0.611141 -0.177601
0.338414 0.608598 -0.177121
0.339445 0.604897 -0.176426
0.340037 0.600271 -0.175559
0.342675 0.600492 -0.175590
0.348525 0.608039 -0.176977
0.350010 0.605595 -0.176513
0.353748 0.608238 -0.176990
0.349949 0.594309 -0.174398
0.354461 0.598761 -0.175209
0.359674 0.604649 -0.176284
0.362870 0.606172 -0.176551
0.365638 0.606812 -0.176652
0.366978 0.604535 -0.176213
-0.168662 0.605970 -0.185196
-0.164027 0.603351 -0.184618
-0.162113 0.604741 -0.184856
-0.160006 0.605910 -0.185046
-0.157398 0.606385 -0.185092
-0.154901 0.607071 -0.185180
-0.152113 0.607351 -0.185182
-0.149107 0.607324 -0.185121
-0.145769 0.606796 -0.184957
-0.142771 0.606809 -0.184901
-0.139852 0.606957 -0.184871
-0.137579 0.608155 -0.185054
-0.134799 0.608554 -0.185073
-0.131803 0.608600 -0.185021
-0.129556 0.609891 -0.185220
-0.127114 0.610869 -0.185355
-0.123939 0.610606 -0.185238
-0.121082 0.610868 -0.185228
-0.117841 0.610447 -0.185080
-0.115024 0.610741 -0.185076
-0.112115 0.610851 -0.185036
-0.108866 0.610324 -0.184868
-0.106182 0.610787 -0.184899
-0.103464 0.611169 -0.184915
-0.100768 0.611566 -0.184934
-0.097381 0.610636 -0.184687
-0.094715 0.611028 -0.184706
-0.091136 0.609629 -0.184366
-0.088057 0.609138 -0.184210
-0.086102 0.610828 -0.184491
-0.082844 0.609910 -0.184251
-0.081898 0.613625 -0.184938
-0.077882 0.611088 -0.184375
-0.075012 0.610835 -0.184270
-0.072430 0.611147 -0.184279
-0.069677 0.611064 -0.184210
-0.067325 0.611810 -0.184307
-0.064451 0.611396 -0.184173
-0.061401 0.610549 -0.183953
-0.058741 0.610519 -0.183897
-0.056721 0.611907 -0.184125
-0.054072 0.611848 -0.184065
-0.050883 0.610496 -0.183748
-0.048755 0.611580 -0.183917
-0.046258 0.611779 -0.183910
-0.043270 0.610758 -0.183662
-0.040839 0.611048 -0.183675
-0.038621 0.611845 -0.183788
-0.037330 0.614977 -0.184366
-0.039711 0.627575 -0.186820
-0.034069 0.619649 -0.185206
-0.029714 0.614856 -0.184214
-0.025449 0.610141 -0.183239
-0.021596 0.606374 -0.182453
-0.016899 0.600150 -0.181183
-0.014898 0.601244 -0.181360
-0.013350 0.603627 -0.181793
-0.011392 0.604879 -0.182003
-0.009158 0.605334 -0.182055
-0.006522 0.604591 -0.181872
-0.005774 0.609488 -0.182801
-0.007885 0.623268 -0.185483
-0.005709 0.624134 -0.185616
-0.003648 0.625367 -0.185823
-0.000849 0.624244 -0.185565
0.002695 0.620629 -0.184817
0.007889 0.611383 -0.182962
0.013355 0.600875 -0.180861
0.015447 0.601585 -0.180967
0.017400 0.602787 -0.181171
0.019939 0.601927 -0.180969
0.022546 0.600766 -0.180709
0.024198 0.603072 -0.181130
0.026323 0.603666 -0.181216
0.028515 0.604005 -0.181251
0.031071 0.602918 -0.181007
0.033123 0.603779 -0.181145
0.035160 0.604722 -0.181299
0.037435 0.604694 -0.181263
0.040225 0.602457 -0.180795
0.040876 0.609391 -0.182124
0.043129 0.609509 -0.182117
0.045326 0.609870 -0.182158
0.047538 0.610158 -0.182185
0.049679 0.610785 -0.182278
0.049193 0.624182 -0.184869
0.051724 0.623205 -0.184648
0.056192 0.612284 -0.182484
0.058967 0.609644 -0.181940
0.061659 0.607293 -0.181452
0.064976 0.601355 -0.180265
0.068405 0.594437 -0.178887
0.069082 0.603149 -0.180560
0.070384 0.608607 -0.181597
0.072492 0.609397 -0.181724
0.074704 0.609560 -0.181728
0.077013 0.609082 -0.181608
0.079306 0.608661 -0.181498
0.081339 0.610018 -0.181736
0.083571 0.610017 -0.181708
0.084838 0.617258 -0.183091
0.085098 0.632909 -0.186109
0.089382 0.617085 -0.183003
0.091987 0.614141 -0.182403
0.094425 0.612402 -0.182038
0.096784 0.611223 -0.181783
0.099165 0.609703 -0.181461
0.101462 0.608863 -0.181272
0.103578 0.609839 -0.181435
0.105457 0.613556 -0.182131
0.107781 0.612410 -0.181882
0.110109 0.611056 -0.181593
0.112531 0.608266 -0.181026
0.115561 0.596413 -0.178702
0.117287 0.602720 -0.179900
0.119035 0.609616 -0.181211
0.121202 0.610204 -0.181300
0.123368 0.610863 -0.181402
0.125567 0.610948 -0.181393
0.127770 0.610893 -0.181357
0.129429 0.625558 -0.184170
0.131958 0.617436 -0.182573
0.134467 0.607184 -0.180565
0.136614 0.608562 -0.180807
0.138727 0.612517 -0.181546
0.140895 0.615116 -0.182024
0.143136 0.611775 -0.181353
0.145338 0.609978 -0.180982
0.147528 0.612700 -0.181483
0.149723 0.612223 -0.181367
0.151909 0.611303 -0.181165
0.154066 0.609141 -0.180723
0.156149 0.604326 -0.179771
0.158049 0.594016 -0.177759
0.160615 0.609556 -0.180732
0.162787 0.609320 -0.180663
0.169453 0.612046 -0.181118
0.171817 0.615320 -0.181725
0.174903 0.630496 -0.184623
0.176303 0.616505 -0.181907
0.177987 0.608670 -0.180376
0.180035 0.606909 -0.180015
0.182042 0.604838 -0.179595
0.183971 0.602034 -0.179034
0.184692 0.585551 -0.175844
0.188408 0.603646 -0.179301
0.193475 0.611186 -0.180706
0.195706 0.611556 -0.180756
0.197911 0.611648 -0.180752
0.199998 0.610696 -0.180549
0.202053 0.609536 -0.180305
0.204475 0.611399 -0.180642
0.207111 0.614771 -0.181269
0.211727 0.616041 -0.181472
0.213639 0.613832 -0.181029
0.215586 0.611979 -0.180654
0.217510 0.610071 -0.180270
0.219415 0.608143 -0.179882
0.221347 0.606470 -0.179543
0.224173 0.610220 -0.180243
0.227114 0.614407 -0.181026
0.229200 0.613508 -0.180836
0.230989 0.611007 -0.180340
0.233632 0.613185 -0.180740
0.233224 0.599298 -0.178067
0.233596 0.590042 -0.176281
0.239150 0.606966 -0.179501
0.241543 0.607723 -0.179630
0.243746 0.607519 -0.179575
0.246005 0.607557 -0.179567
0.248326 0.607846 -0.179608
0.253212 0.619456 -0.181811
0.258742 0.633328 -0.184446
0.255996 0.611474 -0.180258
0.257962 0.610073 -0.179977
0.260381 0.610536 -0.180053
0.262573 0.610050 -0.179947
0.264605 0.608920 -0.179719
0.266858 0.608651 -0.179656
0.269928 0.611431 -0.180175
0.271990 0.610355 -0.179958
0.276209 0.617096 -0.181233
0.275667 0.606628 -0.179226
0.276063 0.599774 -0.177909
0.278171 0.599002 -0.177752
0.283251 0.608240 -0.179505
0.285479 0.607678 -0.179389
0.288191 0.608676 -0.179571
0.290943 0.609731 -0.179764
0.293225 0.609237 -0.179662
0.300045 0.615063 -0.180757
0.301472 0.611841 -0.180137
0.303840 0.611462 -0.180058
0.306865 0.612967 -0.180339
0.300545 0.587698 -0.175519
0.306844 0.598668 -0.177603
0.312173 0.606589 -0.179107
0.315139 0.607796 -0.179332
0.317657 0.607736 -0.179315
0.321153 0.610243 -0.179788
0.322971 0.608272 -0.179407
0.326488 0.610708 -0.179866
0.332660 0.619790 -0.181591
0.336033 0.615037 -0.180675
0.335446 0.607217 -0.179181
0.338787 0.609026 -0.179520
0.341835 0.610090 -0.179716
0.347143 0.616407 -0.180912
0.344679 0.604657 -0.178668
0.348831 0.608274 -0.179348
0.352424 0.610562 -0.179775
0.352015 0.603938 -0.178505
0.349095 0.591999 -0.176223
0.354167 0.597686 -0.177294
0.360750 0.606511 -0.178960
0.363990 0.608102 -0.179248
0.366009 0.607152 -0.179052
0.369040 0.608368 -0.179266
-0.164666 0.599808 -0.186461
-0.163247 0.601829 -0.186838
-0.163329 0.606144 -0.187693
-0.160668 0.606504 -0.187717
-0.157796 0.606589 -0.187680
-0.154949 0.606747 -0.187657
-0.153156 0.608549 -0.187975
-0.149696 0.607835 -0.187765
-0.146931 0.608210 -0.187781
-0.143185 0.607060 -0.187477
-0.140728 0.607950 -0.187598
-0.137589 0.607766 -0.187494
-0.135105 0.608645 -0.187610
-0.132448 0.609258 -0.187670
-0.130697 0.611382 -0.188043
-0.127014 0.610292 -0.187748
-0.124455 0.611077 -0.187842
-0.121260 0.610767 -0.187708
-0.118378 0.610976 -0.187683
-0.115374 0.610951 -0.187609
-0.112452 0.611046 -0.187560
-0.109677 0.611383 -0.187562
-0.105617 0.609357 -0.187075
-0.103191 0.610263 -0.187195
-0.100970 0.611542 -0.187393
-0.097822 0.611071 -0.187230
-0.094723 0.610647 -0.187078
-0.092553 0.611973 -0.187286
-0.088717 0.610037 -0.186825
-0.085950 0.610135 -0.186782
-0.083627 0.611088 -0.186916
-0.080823 0.611055 -0.186849
-0.079215 0.613438 -0.187277
-0.075241 0.610927 -0.186703
-0.072636 0.611196 -0.186700
-0.069909 0.611179 -0.186639
-0.067278 0.611328 -0.186613
-0.064303 0.610697 -0.186428
-0.062062 0.611636 -0.186565
-0.059031 0.610796 -0.186339
-0.056406 0.610818 -0.186291
-0.054055 0.611440 -0.186365
-0.051143 0.610735 -0.186170
-0.048798 0.611316 -0.186238
-0.046526 0.612056 -0.186338
-0.043455 0.610847 -0.186043
-0.040896 0.610830 -0.185991
-0.038756 0.611823 -0.186146
-0.036919 0.613581 -0.186456
-0.040320 0.628769 -0.189498
-0.033683 0.618287 -0.187321
-0.029927 0.615067 -0.186621
-0.027557 0.615427 -0.186649
-0.020030 0.601790 -0.183838
-0.016718 0.599318 -0.183294
-0.016082 0.604213 -0.184246
-0.015779 0.610175 -0.185413
-0.012909 0.608908 -0.185115
-0.010845 0.609931 -0.185282
-0.008333 0.609631 -0.185182
-0.008729 0.618057 -0.186847
-0.009042 0.626470 -0.188509
-0.005336 0.622639 -0.187695
-0.002041 0.619954 -0.187114
0.000856 0.618437 -0.186769
0.003393 0.618021 -0.186647
0.011598 0.598743 -0.182719
0.013099 0.601430 -0.183226
0.013590 0.607660 -0.184448
0.015781 0.608148 -0.184511
0.018027 0.608433 -0.184534
0.020361 0.608389 -0.184490
0.023988 0.603549 -0.183482
0.025012 0.608304 -0.184406
0.027567 0.607349 -0.184180
0.030163 0.606178 -0.183912
0.032054 0.607756 -0.184197
0.035063 0.604824 -0.183575
0.037239 0.605222 -0.183623
0.039050 0.607164 -0.183982
0.040617 0.610228 -0.184565
0.043114 0.609294 -0.184346
0.045358 0.609442 -0.184345
0.047452 0.610281 -0.184483
0.049688 0.610464 -0.184489
0.049845 0.620738 -0.186518
0.049991 0.631550 -0.188654
0.055671 0.614674 -0.185241
0.058752 0.610507 -0.184377
0.061553 0.607608 -0.183767
0.064463 0.603932 -0.183002
0.067975 0.596632 -0.181512
0.069114 0.602719 -0.182701
0.070194 0.609508 -0.184031
0.072452 0.609409 -0.183982
0.074748 0.609044 -0.183881
0.076609 0.611502 -0.184343
0.079423 0.607641 -0.183544
0.081253 0.610405 -0.184068
0.083583 0.609712 -0.183901
0.084610 0.618766 -0.185680
0.085159 0.632224 -0.188336
0.089389 0.616827 -0.185237
0.092124 0.612791 -0.184404
0.094582 0.610838 -0.183987
0.097015 0.608920 -0.183578
0.100165 0.599916 -0.181757
0.102984 0.593349 -0.180423
0.104302 0.602017 -0.182123
0.106480 0.601985 -0.182090
0.108658 0.601939 -0.182054
0.110707 0.603469 -0.182332
0.112725 0.605596 -0.182729
0.114280 0.614571 -0.184487
0.115941 0.623217 -0.186178
0.117752 0.630743 -0.187646
0.120506 0.622659 -0.186013
0.122494 0.627996 -0.187046
0.124984 0.623598 -0.186146
0.127586 0.615470 -0.184507
0.130371 0.600215 -0.181454
0.132474 0.601681 -0.181720
0.134625 0.601804 -0.181719
0.136770 0.602261 -0.181784
0.138912 0.602970 -0.181900
0.141067 0.603242 -0.181929
0.143228 0.602829 -0.181822
0.145385 0.602413 -0.181715
0.147537 0.601639 -0.181537
0.149682 0.601150 -0.181416
0.151825 0.600990 -0.181360
0.153976 0.601520 -0.181441
0.156155 0.603199 -0.181749
0.158322 0.603804 -0.181844
0.160565 0.606775 -0.182408
0.171937 0.616783 -0.184265
0.174887 0.629448 -0.186740
0.176390 0.617147 -0.184290
0.178125 0.610024 -0.182862
0.180098 0.607121 -0.182267
0.182426 0.609177 -0.182649
0.184094 0.602912 -0.181392
0.184802 0.586222 -0.178082
0.188437 0.603360 -0.181437
0.191367 0.611437 -0.183006
0.193440 0.610236 -0.182748
0.197805 0.610106 -0.182680
0.200010 0.610228 -0.182683
0.202199 0.610191 -0.182655
0.204501 0.611046 -0.182803
0.207164 0.614626 -0.183487
0.212144 0.635220 -0.187515
0.212856 0.623633 -0.185217
0.213283 0.610809 -0.182678
0.215270 0.609309 -0.182364
0.217456 0.609187 -0.182322
0.219348 0.607192 -0.181911
0.220620 0.601482 -0.180773
0.223268 0.604293 -0.181307
0.225630 0.605272 -0.181482
0.228182 0.607244 -0.181852
0.230438 0.607466 -0.181879
0.232589 0.607086 -0.181788
0.233247 0.598917 -0.180170
0.235281 0.598127 -0.180000
0.239522 0.608308 -0.181981
0.241760 0.608270 -0.181959
0.243818 0.607361 -0.181766
0.245972 0.606906 -0.181663
0.248107 0.606360 -0.181542
0.253134 0.618599 -0.183927
0.255311 0.617951 -0.183787
0.255200 0.607602 -0.181747
0.257460 0.607489 -0.181713
0.259859 0.607917 -0.181786
0.262060 0.607507 -0.181694
0.265102 0.610366 -0.182243
0.268205 0.613317 -0.182811
0.268997 0.607437 -0.181650
0.272606 0.612131 -0.182559
0.274312 0.609732 -0.182081
0.276249 0.608205 -0.181774
0.276512 0.600857 -0.180329
0.278352 0.599143 -0.179986
0.283332 0.608022 -0.181716
0.285894 0.608561 -0.181815
0.288761 0.610038 -0.182098
0.290691 0.608432 -0.181778
0.294354 0.612294 -0.182528
0.300053 0.614588 -0.182967
0.301873 0.612547 -0.182565
0.301694 0.604647 -0.181017
0.307007 0.612884 -0.182624
0.300589 0.587356 -0.177631
0.308009 0.601464 -0.180386
0.313165 0.608847 -0.181827
0.315733 0.608927 -0.181841
0.318344 0.609092 -0.181871
0.320552 0.608163 -0.181688
0.323783 0.609905 -0.182027
0.326214 0.609518 -0.181950
0.333089 0.620380 -0.184071
0.339277 0.629206 -0.185795
0.336093 0.614699 -0.182957
0.337879 0.612649 -0.182554
0.339745 0.610841 -0.182198
0.342025 0.610062 -0.182043
0.345410 0.611885 -0.182396
0.348279 0.612481 -0.182508
0.348859 0.607871 -0.181602
0.353476 0.612457 -0.182492
0.356654 0.613763 -0.182740
0.350487 0.594603 -0.178989
0.353692 0.596214 -0.179294
0.361217 0.607060 -0.181401
0.363427 0.606464 -0.181273
0.364828 0.604241 -0.180825
0.368141 0.606073 -0.181167
-0.167110 0.602958 -0.189665
-0.166752 0.606554 -0.190390
-0.163624 0.606185 -0.190258
-0.160914 0.606473 -0.190265
-0.156742 0.604610 -0.189806
-0.155447 0.607100 -0.190280
-0.153270 0.608319 -0.190479
-0.150926 0.609329 -0.190630
-0.147461 0.608629 -0.190413
-0.144482 0.608696 -0.190359
-0.139996 0.606372 -0.189791
-0.138148 0.608254 -0.190122
-0.134871 0.607851 -0.189964
-0.132985 0.609725 -0.190291
-0.129476 0.608934 -0.190048
-0.127240 0.610257 -0.190256
-0.124544 0.610812 -0.190299
-0.121360 0.610524 -0.190163
-0.118525 0.610815 -0.190150
-0.115948 0.611545 -0.190230
-0.112415 0.610566 -0.189948
-0.109670 0.610957 -0.189957
-0.105502 0.608735 -0.189413
-0.103061 0.609613 -0.189526
-0.100312 0.609908 -0.189517
-0.097309 0.609696 -0.189401
-0.094801 0.610389 -0.189477
-0.092231 0.610946 -0.189525
-0.088450 0.609114 -0.189069
-0.086803 0.611423 -0.189489
-0.084061 0.611559 -0.189450
-0.081477 0.611983 -0.189474
-0.078277 0.611117 -0.189226
-0.075671 0.611428 -0.189227
-0.072414 0.610338 -0.188935
-0.070063 0.611116 -0.189036
-0.067641 0.611725 -0.189103
-0.064425 0.610580 -0.188802
-0.061507 0.610028 -0.188628
-0.059130 0.610637 -0.188697
-0.056489 0.610629 -0.188638
-0.053736 0.610331 -0.188519
-0.051289 0.610701 -0.188541
-0.048921 0.611236 -0.188599
-0.046442 0.611485 -0.188597
-0.043828 0.611383 -0.188523
-0.040827 0.610294 -0.188244
-0.038775 0.611507 -0.188446
-0.036787 0.612885 -0.188683
-0.033243 0.616783 -0.189396
-0.030622 0.616537 -0.189296
-0.027067 0.613762 -0.188671
-0.022653 0.608551 -0.187540
-0.017214 0.600340 -0.185788
-0.016687 0.605560 -0.186828
-0.016203 0.611032 -0.187921
-0.014054 0.611859 -0.188049
-0.011204 0.610638 -0.187753
-0.008881 0.610918 -0.187768
-0.008257 0.616295 -0.188841
-0.007512 0.621449 -0.189868
-0.004283 0.619027 -0.189324
-0.000807 0.615722 -0.188599
0.002071 0.614206 -0.188245
0.005542 0.610679 -0.187476
0.011594 0.598445 -0.184906
0.012129 0.604391 -0.186099
0.013070 0.609133 -0.187042
0.015351 0.609336 -0.187047
0.017765 0.609054 -0.186952
0.019881 0.609819 -0.187073
0.022717 0.607936 -0.186649
0.025028 0.607938 -0.186614
0.027004 0.609206 -0.186840
0.029662 0.607838 -0.186524
0.031833 0.608337 -0.186592
0.033897 0.609278 -0.186752
0.035893 0.610519 -0.186974
0.038205 0.610456 -0.186927
0.040590 0.610057 -0.186812
0.042974 0.609629 -0.186691
0.045300 0.609425 -0.186617
0.047567 0.609469 -0.186594
0.049682 0.610215 -0.186715
0.050048 0.619475 -0.188585
0.050430 0.629087 -0.190527
0.055995 0.612752 -0.187141
0.058285 0.612682 -0.187095
0.061270 0.608865 -0.186281
0.064482 0.603578 -0.185167
0.067881 0.596916 -0.183771
0.069098 0.602570 -0.184900
0.070059 0.610071 -0.186407
0.072285 0.610197 -0.186403
0.074671 0.609302 -0.186191
0.077354 0.606380 -0.185563
0.078927 0.610781 -0.186434
0.081432 0.608931 -0.186027
0.083572 0.609581 -0.186131
0.084692 0.617934 -0.187809
0.084961 0.633559 -0.190973
0.089115 0.618852 -0.187938
0.091843 0.614976 -0.187118
0.094702 0.609603 -0.185992
0.097278 0.606332 -0.185296
0.100004 0.601302 -0.184242
0.102845 0.594604 -0.182848
0.103913 0.606001 -0.185145
0.106006 0.607159 -0.185354
0.108055 0.608941 -0.185690
0.110136 0.610517 -0.185983
0.112546 0.607903 -0.185423
0.114133 0.616606 -0.187168
0.115322 0.632629 -0.190403
0.118365 0.620638 -0.187934
0.120819 0.617071 -0.187181
0.123019 0.617795 -0.187300
0.125157 0.619979 -0.187717
0.128320 0.597971 -0.183216
0.130475 0.597609 -0.183117
0.132317 0.606862 -0.184971
0.138836 0.608089 -0.185142
0.141008 0.609007 -0.185302
0.143193 0.609321 -0.185340
0.147568 0.609000 -0.185224
0.149752 0.609045 -0.185208
0.154052 0.604696 -0.184276
0.158374 0.604634 -0.184214
0.162811 0.608036 -0.184854
0.165028 0.609081 -0.185042
0.167326 0.611763 -0.185560
0.172015 0.617430 -0.186658
0.174827 0.627621 -0.188694
0.176776 0.622561 -0.187647
0.178360 0.612787 -0.185648
0.180360 0.610062 -0.185075
0.182543 0.610027 -0.185045
0.184047 0.601696 -0.183340
0.185129 0.589396 -0.180836
0.188533 0.603789 -0.183719
0.191103 0.608073 -0.184562
0.195623 0.609588 -0.184824
0.197987 0.611167 -0.185122
0.199968 0.609281 -0.184721
0.202236 0.609928 -0.184831
0.204556 0.610927 -0.185012
0.207553 0.617065 -0.186228
0.211788 0.631982 -0.189213
0.212378 0.619626 -0.186704
0.213136 0.609238 -0.184594
0.214982 0.606827 -0.184090
0.217148 0.606643 -0.184035
0.218459 0.601036 -0.182889
0.218960 0.590771 -0.180807
0.223102 0.602780 -0.183206
0.225565 0.604371 -0.183509
0.228158 0.606585 -0.183938
0.230388 0.606670 -0.183939
0.232624 0.606756 -0.183941
0.235109 0.608113 -0.184198
0.240975 0.626557 -0.187889
0.242815 0.624121 -0.187385
0.244259 0.619854 -0.186514
0.246663 0.620303 -0.186590
0.248849 0.619694 -0.186455
0.250119 0.614940 -0.185487
0.249671 0.602779 -0.183034
0.251843 0.602439 -0.182954
0.254594 0.604530 -0.183363
0.257242 0.606082 -0.183664
0.259477 0.605863 -0.183610
0.261533 0.604908 -0.183409
0.263543 0.603777 -0.183174
0.265873 0.603886 -0.183187
0.268545 0.605238 -0.183450
0.271049 0.605890 -0.183574
0.273497 0.606281 -0.183646
0.274721 0.602279 -0.182837
0.276770 0.601264 -0.182628
0.280490 0.605968 -0.183566
0.283618 0.608481 -0.184065
0.286649 0.610554 -0.184477
0.289088 0.610594 -0.184481
0.291343 0.610013 -0.184362
0.294120 0.611053 -0.184567
0.300382 0.615078 -0.185371
0.301757 0.611693 -0.184691
0.302610 0.606847 -0.183719
0.304488 0.605083 -0.183366
0.309019 0.603806 -0.183111
0.313336 0.608818 -0.184116
0.315744 0.608456 -0.184045
0.319010 0.610379 -0.184432
