ply
format ascii 1.0
comment ---
element vertex 1749
property float x
property float y
property float z
element face 0
property list uchar uint vertex_indices
end_header
0.128567 0.607987 0.149621
0.130994 0.609397 0.149894
0.133446 0.611003 0.150205
0.135680 0.608679 0.149773
0.137983 0.607766 0.149608
0.140261 0.606613 0.149399
0.142641 0.606979 0.149476
0.145252 0.610256 0.150105
0.147628 0.610305 0.150124
0.149754 0.607508 0.149605
0.152136 0.607743 0.149660
0.154548 0.608263 0.149769
0.156878 0.607906 0.149713
0.159447 0.609813 0.150086
0.161716 0.608867 0.149920
0.164029 0.608352 0.149836
0.166340 0.607851 0.149755
0.168428 0.605604 0.149343
0.170807 0.605740 0.149384
0.173454 0.607819 0.149794
0.176106 0.609790 0.150184
0.178657 0.610907 0.150413
0.181207 0.611936 0.150625
0.183897 0.613787 0.150995
0.186484 0.614869 0.151220
0.188091 0.609898 0.150297
0.190309 0.608808 0.150112
0.192522 0.607735 0.149930
0.194984 0.608091 0.150020
0.197576 0.609111 0.150237
0.199972 0.609023 0.150245
0.202410 0.609140 0.150292
0.204553 0.607734 0.150052
0.206012 0.603008 0.149181
0.210310 0.612135 0.150944
0.212578 0.611282 0.150812
0.214933 0.610840 0.150759
0.217669 0.612108 0.151032
0.219941 0.611255 0.150903
0.221906 0.609093 0.150525
0.223987 0.607482 0.150254
0.226773 0.608817 0.150545
0.229899 0.611448 0.151084
0.232358 0.611306 0.151097
0.234723 0.610771 0.151035
0.237169 0.610537 0.151033
0.239822 0.611058 0.151176
0.242481 0.611550 0.151315
0.244400 0.609323 0.150935
0.246870 0.609098 0.150940
0.250274 0.612095 0.151563
0.251735 0.608317 0.150891
0.255272 0.611605 0.151573
0.258319 0.613129 0.151920
0.260062 0.610337 0.151440
0.262021 0.608292 0.151105
0.265027 0.609565 0.151409
0.267822 0.610109 0.151574
0.270225 0.609407 0.151502
0.274701 0.614891 0.152621
0.277009 0.613783 0.152475
0.278447 0.610152 0.151844
0.282129 0.612997 0.152462
0.284076 0.610845 0.152118
0.285885 0.608336 0.151707
0.286994 0.603955 0.150935
0.289951 0.604630 0.151141
0.294291 0.608910 0.152047
0.295923 0.605967 0.151556
0.298408 0.605263 0.151501
0.301460 0.605981 0.151722
0.305953 0.610248 0.152635
0.310212 0.613783 0.153407
0.309918 0.606124 0.152005
0.312599 0.605776 0.152024
0.316208 0.607601 0.152468
0.318881 0.607167 0.152473
0.321755 0.607180 0.152565
0.324625 0.607164 0.152652
0.326216 0.604259 0.152174
0.332885 0.612649 0.153906
0.334501 0.609773 0.153433
0.336592 0.607983 0.153172
0.339744 0.608490 0.153360
0.343732 0.610744 0.153889
0.346873 0.611183 0.154061
0.350142 0.611880 0.154282
0.354186 0.614147 0.154810
0.356636 0.613180 0.154698
0.357891 0.609888 0.154124
0.359692 0.607769 0.153777
0.360993 0.604757 0.153248
0.362661 0.602553 0.152874
0.364253 0.600294 0.152484
0.366988 0.600275 0.152531
0.370806 0.602315 0.152981
0.377146 0.609005 0.154347
-0.195099 0.597755 0.149241
-0.195105 0.602302 0.150088
-0.193256 0.603936 0.150370
-0.189951 0.603234 0.150196
-0.187307 0.603677 0.150237
-0.184349 0.603641 0.150181
-0.181166 0.603259 0.150053
-0.178172 0.603231 0.149989
-0.175356 0.603544 0.149986
-0.172664 0.604109 0.150028
-0.170251 0.605205 0.150167
-0.167364 0.605482 0.150147
-0.164468 0.605761 0.150124
-0.162013 0.606868 0.150258
-0.159511 0.607911 0.150376
-0.156680 0.608353 0.150379
-0.153143 0.607446 0.150124
-0.150730 0.608684 0.150276
-0.147595 0.608519 0.150161
-0.144196 0.607811 0.149942
-0.141659 0.608794 0.150044
-0.138612 0.608740 0.149950
-0.136223 0.610013 0.150108
-0.132163 0.607804 0.149607
-0.129145 0.607708 0.149508
-0.126291 0.607929 0.149469
-0.123858 0.609036 0.149598
-0.121153 0.609538 0.149615
-0.117936 0.608880 0.149414
-0.115349 0.609584 0.149471
-0.112775 0.610302 0.149532
-0.109077 0.608402 0.149102
-0.106291 0.608546 0.149059
-0.103684 0.609084 0.149090
-0.101176 0.609836 0.149164
-0.098484 0.610121 0.149152
-0.095715 0.610182 0.149099
-0.092709 0.609613 0.148930
-0.089712 0.609013 0.148757
-0.087253 0.609748 0.148836
-0.084585 0.609916 0.148810
-0.081941 0.610117 0.148792
-0.078117 0.607108 0.148177
-0.076250 0.609323 0.148537
-0.073844 0.610070 0.148626
-0.071546 0.611112 0.148771
-0.068946 0.611285 0.148756
-0.065655 0.609424 0.148364
-0.063272 0.610146 0.148454
-0.061001 0.611194 0.148606
-0.058563 0.611735 0.148665
-0.055786 0.611213 0.148528
-0.053049 0.610768 0.148407
-0.050036 0.609395 0.148115
-0.047024 0.607947 0.147811
-0.044223 0.607122 0.147624
-0.041508 0.606523 0.147480
-0.038790 0.605865 0.147326
-0.035613 0.603563 0.146870
-0.033901 0.606332 0.147353
-0.033008 0.612130 0.148398
-0.029958 0.610195 0.148013
-0.027312 0.609673 0.147890
-0.025012 0.610428 0.148005
-0.022562 0.610602 0.148013
-0.019947 0.610102 0.147898
-0.018392 0.613845 0.148568
-0.016441 0.616082 0.148960
-0.013574 0.614537 0.148654
-0.010552 0.612235 0.148210
-0.007162 0.608197 0.147446
-0.005581 0.612078 0.148145
-0.002493 0.609195 0.147597
0.000012 0.608894 0.147525
0.002738 0.607500 0.147253
0.003890 0.613763 0.148394
0.006232 0.614320 0.148484
0.008609 0.614699 0.148541
0.010996 0.615028 0.148589
0.013838 0.612876 0.148181
0.016597 0.611056 0.147835
0.019228 0.609854 0.147603
0.021794 0.608952 0.147427
0.023937 0.610546 0.147712
0.026544 0.609318 0.147477
0.029020 0.608846 0.147382
0.030898 0.612307 0.148013
0.033171 0.613264 0.148182
0.035758 0.612037 0.147950
0.038635 0.608562 0.147304
0.041148 0.607601 0.147121
0.043543 0.607497 0.147097
0.045726 0.609109 0.147390
0.047747 0.612233 0.147961
0.050079 0.612826 0.148066
0.052511 0.612526 0.148007
0.054871 0.612888 0.148071
0.057392 0.611605 0.147832
0.059719 0.612279 0.147954
0.061912 0.614543 0.148369
0.064172 0.616238 0.148680
0.066884 0.612342 0.147961
0.069447 0.609955 0.147521
0.071766 0.610782 0.147672
0.074304 0.608293 0.147214
0.076668 0.608322 0.147219
0.079098 0.607134 0.147000
0.081437 0.607512 0.147071
0.083800 0.607434 0.147057
0.086348 0.602717 0.146190
0.088542 0.606713 0.146927
0.090765 0.610980 0.147714
0.093097 0.612556 0.148006
0.095519 0.610577 0.147644
0.097911 0.609295 0.147410
0.100278 0.608985 0.147356
0.102657 0.606456 0.146893
0.104998 0.610465 0.147635
0.107367 0.610817 0.147703
0.109730 0.609925 0.147542
0.112090 0.609571 0.147481
0.114418 0.607434 0.147092
0.116780 0.607876 0.147178
0.119177 0.609488 0.147480
0.121559 0.610137 0.147605
0.123927 0.610203 0.147623
0.126246 0.609047 0.147416
0.128576 0.608376 0.147299
0.130951 0.608718 0.147368
0.133304 0.608599 0.147353
0.135674 0.608778 0.147394
0.138019 0.608547 0.147359
0.140336 0.607918 0.147251
0.142686 0.607823 0.147242
0.145339 0.611594 0.147946
0.147750 0.612015 0.148033
0.149987 0.610405 0.147746
0.152178 0.608448 0.147395
0.154494 0.607960 0.147316
0.157284 0.612143 0.148099
0.159707 0.612512 0.148179
0.161649 0.608528 0.147456
0.163800 0.606652 0.147123
0.166148 0.606542 0.147116
0.168497 0.606427 0.147108
0.170751 0.605586 0.146968
0.173287 0.606871 0.147220
0.176255 0.611133 0.148023
0.178365 0.609184 0.147679
0.180676 0.608688 0.147605
0.183894 0.614066 0.148616
0.186301 0.614020 0.148626
0.187914 0.609122 0.147741
0.190222 0.608601 0.147664
0.192684 0.608974 0.147754
0.194934 0.608120 0.147618
0.197442 0.608694 0.147747
0.199967 0.609317 0.147885
0.202354 0.609166 0.147882
0.204632 0.608456 0.147776
0.206480 0.605635 0.147279
0.209700 0.609528 0.148028
0.212453 0.611026 0.148333
0.214719 0.610192 0.148208
0.217589 0.612086 0.148590
0.220413 0.613671 0.148915
0.222440 0.611734 0.148589
0.224322 0.609239 0.148159
0.227348 0.611540 0.148622
0.230017 0.612279 0.148795
0.232721 0.613099 0.148985
0.234923 0.611907 0.148803
0.236958 0.610092 0.148505
0.239870 0.611600 0.148827
0.242168 0.610766 0.148715
0.245160 0.612435 0.149070
0.247366 0.611228 0.148890
0.249126 0.608476 0.148424
0.251477 0.607811 0.148348
0.254303 0.608733 0.148570
0.256977 0.609084 0.148687
0.259330 0.608347 0.148603
0.261580 0.607273 0.148456
0.264447 0.608137 0.148674
0.267887 0.610704 0.149212
0.270494 0.610622 0.149256
0.272522 0.608777 0.148971
0.275691 0.610307 0.149321
0.277561 0.607989 0.148951
0.280653 0.609194 0.149243
0.283808 0.610502 0.149556
0.285485 0.607639 0.149087
0.288383 0.608156 0.149255
0.291248 0.608531 0.149398
0.293721 0.607819 0.149338
0.295786 0.606026 0.149075
0.297940 0.604478 0.148860
0.301136 0.605581 0.149146
0.305975 0.610728 0.150199
0.311828 0.618198 0.151695
0.310368 0.607643 0.149779
0.313300 0.607881 0.149907
0.316062 0.607680 0.149953
0.318852 0.607524 0.150009
0.321812 0.607736 0.150134
0.323730 0.605550 0.149804
0.326007 0.604209 0.149635
0.329739 0.606106 0.150082
0.334643 0.610502 0.151006
0.336291 0.607745 0.150565
0.339495 0.608370 0.150769
0.342093 0.607699 0.150724
0.345918 0.609599 0.151170
0.349115 0.610168 0.151359
0.352629 0.611376 0.151668
0.349934 0.600115 0.149581
0.355851 0.606215 0.150824
0.357259 0.603361 0.150343
0.359297 0.601822 0.150111
0.361808 0.601261 0.150062
0.363275 0.598769 0.149637
0.365366 0.597550 0.149452
0.368280 0.597932 0.149570
0.386667 0.626818 0.155182
-0.199731 0.605557 0.148086
-0.194846 0.602202 0.147433
-0.191810 0.601886 0.147343
-0.188111 0.600515 0.147050
-0.188015 0.605220 0.147886
-0.183838 0.603135 0.147450
-0.181266 0.603800 0.147522
-0.178699 0.604523 0.147601
-0.175801 0.604710 0.147576
-0.172641 0.604462 0.147467
-0.170026 0.605202 0.147538
-0.167346 0.605857 0.147591
-0.164518 0.606266 0.147595
-0.161969 0.607204 0.147695
-0.159295 0.607930 0.147755
-0.155444 0.606439 0.147402
-0.153315 0.608205 0.147651
-0.150377 0.608434 0.147615
-0.147099 0.607982 0.147452
-0.144465 0.608781 0.147521
-0.141554 0.609022 0.147486
-0.138649 0.609254 0.147450
-0.135789 0.609560 0.147428
-0.132167 0.608252 0.147110
-0.128773 0.607360 0.146870
-0.126275 0.608334 0.146973
-0.123633 0.608986 0.147018
-0.121249 0.610187 0.147165
-0.118198 0.609898 0.147040
-0.115082 0.609420 0.146882
-0.111801 0.608513 0.146647
-0.108950 0.608539 0.146584
-0.106357 0.609132 0.146626
-0.103675 0.609492 0.146627
-0.100632 0.608951 0.146466
-0.098364 0.610253 0.146641
-0.095747 0.610685 0.146660
-0.092849 0.610388 0.146548
-0.089576 0.609086 0.146254
-0.086961 0.609408 0.146258
-0.084231 0.609403 0.146204
-0.081681 0.609838 0.146231
-0.079241 0.610545 0.146309
-0.076645 0.610808 0.146308
-0.074091 0.611162 0.146325
-0.070508 0.608590 0.145813
-0.068657 0.610861 0.146181
-0.065512 0.609405 0.145874
-0.062681 0.608798 0.145724
-0.060621 0.610452 0.145983
-0.058337 0.611441 0.146123
-0.055475 0.610640 0.145942
-0.052880 0.610622 0.145903
-0.050235 0.610414 0.145831
-0.046485 0.606577 0.145105
-0.044159 0.607287 0.145202
-0.041697 0.607534 0.145216
-0.038670 0.605830 0.144879
-0.035754 0.604421 0.144597
-0.034338 0.608251 0.145260
-0.033761 0.615216 0.146489
-0.029389 0.608473 0.145249
-0.026843 0.608288 0.145192
-0.024776 0.609891 0.145458
-0.022166 0.609427 0.145352
-0.019740 0.609644 0.145371
-0.017509 0.610639 0.145529
-0.015626 0.613085 0.145950
-0.012851 0.611852 0.145710
-0.009820 0.609444 0.145260
-0.007742 0.611096 0.145540
-0.004886 0.609309 0.145203
-0.002286 0.608594 0.145059
0.000483 0.607033 0.144765
0.001961 0.611585 0.145569
0.003245 0.617292 0.146581
0.006856 0.611522 0.145533
0.008969 0.613184 0.145819
0.010987 0.615422 0.146210
0.013764 0.613630 0.145878
0.016673 0.610980 0.145393
0.019175 0.610507 0.145299
0.021159 0.613050 0.145747
0.024309 0.608626 0.144945
0.026585 0.609403 0.145077
0.028816 0.610507 0.145268
0.031064 0.611545 0.145448
0.033346 0.612407 0.145596
0.036155 0.609548 0.145078
0.038725 0.608240 0.144839
0.041229 0.607331 0.144671
0.042639 0.615017 0.146045
0.045805 0.608805 0.144927
0.047774 0.612357 0.145561
0.050127 0.612753 0.145629
0.052618 0.611873 0.145468
0.055091 0.611083 0.145324
0.057511 0.610741 0.145261
0.059922 0.610444 0.145206
0.062052 0.613300 0.145716
0.064146 0.616910 0.146363
0.067109 0.609834 0.145093
0.069392 0.611087 0.145317
0.071930 0.608777 0.144903
0.074304 0.608665 0.144883
0.076689 0.608348 0.144827
0.079067 0.608097 0.144782
0.081466 0.607334 0.144646
0.083857 0.606593 0.144515
0.086299 0.604360 0.144116
0.088566 0.606482 0.144498
0.090858 0.608420 0.144847
0.093201 0.609044 0.144961
0.095534 0.610428 0.145212
0.097911 0.609937 0.145127
0.100298 0.608047 0.144791
0.102662 0.606826 0.144575
0.105009 0.608052 0.144798
0.107376 0.612407 0.145583
0.109738 0.610579 0.145259
0.112098 0.609986 0.145157
0.114423 0.607722 0.144755
0.116775 0.607674 0.144752
0.119159 0.608875 0.144972
0.121545 0.609786 0.145141
0.123915 0.609998 0.145185
0.126210 0.608308 0.144887
0.128546 0.607874 0.144816
0.130890 0.607674 0.144787
0.133188 0.606679 0.144615
0.135600 0.607735 0.144812
0.137982 0.608185 0.144900
0.140237 0.606701 0.144642
0.142619 0.607136 0.144728
0.145243 0.610604 0.145359
0.147766 0.612442 0.145699
0.149977 0.610528 0.145365
0.151978 0.606526 0.144656
0.154226 0.605448 0.144473
0.156943 0.609059 0.145132
0.159598 0.611751 0.145627
0.161807 0.610204 0.145361
0.163823 0.607117 0.144819
0.165917 0.604901 0.144433
0.169192 0.612221 0.145763
0.170874 0.606801 0.144802
0.173906 0.611718 0.145701
0.175628 0.606943 0.144857
0.178101 0.607644 0.144999
0.180457 0.607506 0.144991
0.183410 0.611228 0.145678
0.186077 0.612912 0.145999
0.188163 0.610935 0.145661
0.190201 0.608773 0.145291
0.192615 0.608876 0.145330
0.194942 0.608467 0.145277
0.197411 0.608833 0.145364
0.199902 0.609279 0.145467
0.202258 0.608982 0.145437
0.204409 0.607642 0.145219
0.206470 0.605898 0.144930
0.209893 0.610780 0.145836
0.212233 0.610314 0.145779
0.214174 0.608012 0.145391
0.216972 0.609642 0.145714
0.219985 0.612123 0.146193
0.222393 0.611864 0.146177
0.224900 0.612010 0.146235
0.227010 0.610483 0.145993
0.229876 0.612051 0.146311
0.232434 0.612308 0.146393
0.235042 0.612721 0.146505
0.237250 0.611560 0.146333
0.239430 0.610307 0.146145
0.242276 0.611522 0.146406
0.245065 0.612454 0.146617
0.248151 0.614371 0.147008
0.250200 0.612580 0.146728
0.251988 0.609926 0.146292
0.254333 0.609202 0.146208
0.257158 0.610056 0.146412
0.259333 0.608735 0.146221
0.262597 0.610900 0.146667
0.265296 0.611184 0.146772
0.268281 0.612308 0.147032
0.270598 0.611327 0.146910
0.272671 0.609610 0.146655
0.274737 0.607889 0.146400
0.277613 0.608537 0.146579
0.280142 0.608133 0.146568
0.283887 0.611127 0.147180
0.287024 0.612306 0.147462
0.289196 0.610779 0.147249
0.291789 0.610394 0.147248
0.294021 0.609023 0.147067
0.296490 0.608274 0.147001
0.298466 0.606241 0.146700
0.301745 0.607538 0.147013
0.304875 0.608390 0.147245
0.310665 0.615750 0.148679
0.309800 0.606675 0.147084
0.313414 0.608569 0.147513
0.316134 0.608265 0.147537
0.318995 0.608272 0.147619
0.321898 0.608349 0.147714
0.324340 0.607349 0.147611
0.325614 0.603735 0.147023
0.331985 0.611491 0.148543
0.334677 0.610984 0.148531
0.337073 0.609839 0.148400
0.338956 0.607619 0.148068
0.341830 0.607541 0.148133
0.343615 0.605198 0.147774
0.348464 0.609217 0.148599
0.351405 0.609272 0.148684
0.350442 0.601502 0.147304
0.351980 0.598896 0.146885
0.355352 0.599973 0.147150
0.357589 0.598852 0.147002
0.359024 0.596253 0.146572
0.361784 0.596266 0.146627
0.365254 0.597655 0.146935
0.369774 0.601016 0.147609
0.367857 0.592518 0.146053
-0.195475 0.598981 0.144240
-0.194745 0.602357 0.144828
-0.191855 0.602291 0.144786
-0.188691 0.601819 0.144666
-0.185904 0.602019 0.144662
-0.183307 0.602589 0.144721
-0.182297 0.605936 0.145279
-0.178833 0.605129 0.145080
-0.175418 0.604419 0.144895
-0.172798 0.605127 0.144963
-0.169912 0.605392 0.144949
-0.167636 0.606783 0.145135
-0.165061 0.607665 0.145226
-0.161351 0.606470 0.144942
-0.157907 0.605743 0.144740
-0.155388 0.606750 0.144850
-0.151997 0.606098 0.144660
-0.149314 0.606793 0.144711
-0.146813 0.607845 0.144827
-0.144385 0.609051 0.144969
-0.141553 0.609449 0.144966
-0.138163 0.608694 0.144758
-0.135211 0.608798 0.144703
-0.131907 0.608138 0.144513
-0.129518 0.609367 0.144661
-0.126002 0.608179 0.144378
-0.123214 0.608507 0.144368
-0.120334 0.608606 0.144317
-0.117630 0.609062 0.144331
-0.115100 0.609886 0.144412
-0.111994 0.609378 0.144257
-0.109086 0.609275 0.144176
-0.106446 0.609762 0.144200
-0.103727 0.610035 0.144189
-0.100676 0.609476 0.144031
-0.098150 0.610146 0.144092
-0.095452 0.610369 0.144076
-0.091717 0.607954 0.143595
-0.089358 0.608940 0.143717
-0.087086 0.610139 0.143878
-0.084015 0.609241 0.143670
-0.081521 0.609814 0.143723
-0.079105 0.610579 0.143811
-0.075548 0.608205 0.143347
-0.072857 0.608131 0.143291
-0.070630 0.609325 0.143459
-0.068143 0.609782 0.143499
-0.065473 0.609681 0.143442
-0.062629 0.609033 0.143290
-0.060052 0.609129 0.143270
-0.058002 0.610804 0.143529
-0.055033 0.609655 0.143293
-0.052524 0.609883 0.143300
-0.050423 0.611394 0.143534
-0.047113 0.608994 0.143082
-0.044153 0.607638 0.142815
-0.041662 0.607786 0.142813
-0.038258 0.604784 0.142259
-0.035791 0.604915 0.142256
-0.033569 0.605889 0.142402
-0.030828 0.604997 0.142222
-0.028263 0.604697 0.142147
-0.025430 0.603353 0.141890
-0.023240 0.604389 0.142051
-0.020801 0.604474 0.142046
-0.018538 0.605233 0.142160
-0.016636 0.607460 0.142531
-0.013535 0.604806 0.142049
-0.010988 0.604353 0.141954
-0.008816 0.605474 0.142134
-0.006551 0.606209 0.142248
-0.004048 0.605890 0.142178
-0.002007 0.607660 0.142474
0.000747 0.606135 0.142194
0.003670 0.603710 0.141758
0.006068 0.603731 0.141751
0.008109 0.605540 0.142056
0.010303 0.606626 0.142235
0.012652 0.606930 0.142279
0.015636 0.603772 0.141718
0.017735 0.605378 0.141990
0.020226 0.604797 0.141881
0.022782 0.603787 0.141697
0.024767 0.606181 0.142108
0.026828 0.608219 0.142458
0.029465 0.606648 0.142177
0.031943 0.606018 0.142062
0.034193 0.606904 0.142212
0.036418 0.608010 0.142400
0.039088 0.605901 0.142028
0.041567 0.605082 0.141881
0.043884 0.605467 0.141945
0.046275 0.605266 0.141906
0.048603 0.605566 0.141956
0.050907 0.606101 0.142047
0.053365 0.605219 0.141891
0.055713 0.605329 0.141908
0.058142 0.604591 0.141778
0.060445 0.605133 0.141872
0.062725 0.605984 0.142019
0.064486 0.613181 0.143274
0.067086 0.610493 0.142805
0.069531 0.609557 0.142642
0.071958 0.608734 0.142499
0.074332 0.608618 0.142479
0.076690 0.608715 0.142497
0.079054 0.608728 0.142500
0.081431 0.608454 0.142453
0.083858 0.606984 0.142199
0.086229 0.606547 0.142124
0.088603 0.605876 0.142009
0.090930 0.606544 0.142128
0.093359 0.603482 0.141596
0.095664 0.604837 0.141835
0.098030 0.603280 0.141566
0.100334 0.605765 0.142003
0.102685 0.604734 0.141827
0.105025 0.603897 0.141684
0.107366 0.606664 0.142171
0.109691 0.603657 0.141650
0.112021 0.603402 0.141610
0.114356 0.603642 0.141657
0.116720 0.605152 0.141925
0.119027 0.603923 0.141716
0.121344 0.603383 0.141627
0.123675 0.603401 0.141635
0.125999 0.603237 0.141613
0.128348 0.603655 0.141692
0.130665 0.603350 0.141645
0.133151 0.606188 0.142148
0.135334 0.603457 0.141678
0.137736 0.604546 0.141876
0.140085 0.604706 0.141911
0.142427 0.604744 0.141926
0.144865 0.606006 0.142155
0.146958 0.602945 0.141629
0.149347 0.603582 0.141750
0.151680 0.603545 0.141753
0.153892 0.602257 0.141538
0.156278 0.602786 0.141641
0.158735 0.603917 0.141849
0.161173 0.604774 0.142011
0.163466 0.604298 0.141939
0.165636 0.602837 0.141696
0.167971 0.602777 0.141698
0.170450 0.603815 0.141893
0.172762 0.603535 0.141858
0.175088 0.603358 0.141842
0.177652 0.604819 0.142112
0.180493 0.608027 0.142690
0.182743 0.607188 0.142559
0.185738 0.611070 0.143256
0.187849 0.609308 0.142965
0.190274 0.609496 0.143017
0.192526 0.608653 0.142888
0.194925 0.608665 0.142910
0.197264 0.608329 0.142871
0.199749 0.608765 0.142969
0.202179 0.608876 0.143011
0.204458 0.608197 0.142915
0.206592 0.606809 0.142695
0.209194 0.607724 0.142880
0.211733 0.608275 0.143002
0.214110 0.608033 0.142986
0.216370 0.607253 0.142876
0.218680 0.606697 0.142807
0.220274 0.603056 0.142196
0.223596 0.606836 0.142891
0.226676 0.609434 0.143380
0.228409 0.606445 0.142886
0.232204 0.611732 0.143851
0.234582 0.611269 0.143804
0.237151 0.611526 0.143885
0.238713 0.607966 0.143295
0.240682 0.606006 0.142987
0.244072 0.609220 0.143594
0.248584 0.616266 0.144879
0.250768 0.614918 0.144683
0.252930 0.613511 0.144479
0.254994 0.611787 0.144219
0.256472 0.608150 0.143622
0.259910 0.610976 0.144169
0.260915 0.605893 0.143318
0.265375 0.611807 0.144416
0.267219 0.609400 0.144041
0.269767 0.609175 0.144055
0.271826 0.607458 0.143805
0.274529 0.607658 0.143896
0.276483 0.605637 0.143594
0.279467 0.606588 0.143822
0.281885 0.605879 0.143756
0.287041 0.612747 0.145041
0.289362 0.611627 0.144906
0.291088 0.608902 0.144485
0.294414 0.610463 0.144830
0.295831 0.606948 0.144270
0.299321 0.608844 0.144678
0.301428 0.607133 0.144442
0.305414 0.610144 0.145053
0.311345 0.617839 0.146506
0.309799 0.607075 0.144650
0.313432 0.609018 0.145073
0.316209 0.608849 0.145119
0.318739 0.608077 0.145057
0.321870 0.608687 0.145244
0.324416 0.607925 0.145184
0.326493 0.606106 0.144934
0.331362 0.610510 0.145806
0.334534 0.611070 0.145985
0.337334 0.610799 0.146013
0.340336 0.610958 0.146119
0.341082 0.606350 0.145361
0.344988 0.608437 0.145813
0.349444 0.611612 0.146461
0.351700 0.610245 0.146284
0.352268 0.605534 0.145497
0.353547 0.602361 0.144986
0.355821 0.601240 0.144844
0.358237 0.600450 0.144759
0.361927 0.602157 0.145125
0.362704 0.598333 0.144479
0.366240 0.599820 0.144797
0.373848 0.608899 0.146496
0.369203 0.595287 0.144050
-0.197651 0.602812 0.142302
-0.194487 0.602254 0.142180
-0.192052 0.602944 0.142273
-0.189295 0.603162 0.142278
-0.186196 0.602855 0.142187
-0.183788 0.603761 0.142304
-0.180304 0.602873 0.142103
-0.177660 0.603461 0.142157
-0.175362 0.604696 0.142321
-0.172764 0.605449 0.142397
-0.170424 0.606697 0.142557
-0.166625 0.605344 0.142259
-0.164035 0.606182 0.142343
-0.160852 0.605945 0.142237
-0.158001 0.606325 0.142238
-0.155147 0.606702 0.142237
-0.152946 0.608331 0.142453
-0.148501 0.605627 0.141913
-0.146569 0.607783 0.142221
-0.143962 0.608627 0.142299
-0.141469 0.609698 0.142417
-0.137582 0.607928 0.142040
-0.134547 0.607845 0.141958
-0.131964 0.608676 0.142035
-0.129650 0.610066 0.142210
-0.125791 0.608145 0.141811
-0.123237 0.608975 0.141891
-0.120173 0.608668 0.141774
-0.117581 0.609369 0.141833
-0.114965 0.609998 0.141881
-0.111561 0.608802 0.141615
-0.108774 0.608965 0.141584
-0.106409 0.610087 0.141721
-0.103439 0.609760 0.141609
-0.100735 0.610026 0.141600
-0.097701 0.609453 0.141449
-0.095037 0.609743 0.141447
-0.091694 0.608297 0.141149
-0.088894 0.608154 0.141076
-0.086306 0.608521 0.141092
-0.084108 0.609881 0.141280
-0.081351 0.609757 0.141214
-0.078565 0.609514 0.141129
-0.075551 0.608602 0.140931
-0.073092 0.609169 0.140989
-0.070441 0.609177 0.140951
-0.067994 0.609738 0.141009
-0.065371 0.609765 0.140978
-0.062701 0.609623 0.140919
-0.060085 0.609604 0.140882
-0.057522 0.609717 0.140868
-0.054910 0.609646 0.140825
-0.052542 0.610311 0.140908
-0.049785 0.609720 0.140778
-0.046920 0.608732 0.140582
-0.044139 0.607957 0.140423
-0.041496 0.607588 0.140334
-0.039334 0.608826 0.140521
-0.035884 0.605594 0.139946
-0.033532 0.606114 0.140012
-0.030424 0.603894 0.139612
-0.028169 0.604704 0.139730
-0.025845 0.605260 0.139805
-0.023078 0.604118 0.139591
-0.020872 0.605096 0.139740
-0.018581 0.605751 0.139834
-0.015019 0.601258 0.139053
-0.013083 0.603282 0.139382
-0.011115 0.605230 0.139699
-0.008671 0.605191 0.139678
-0.006205 0.605029 0.139637
-0.003896 0.605544 0.139712
-0.001356 0.605003 0.139608
0.000815 0.606154 0.139792
0.003779 0.603517 0.139333
0.006075 0.604033 0.139411
0.008241 0.605207 0.139600
0.010450 0.606200 0.139760
0.013280 0.603929 0.139366
0.015607 0.604260 0.139414
0.017989 0.604287 0.139411
0.020352 0.604406 0.139425
0.022857 0.603675 0.139294
0.025034 0.604886 0.139494
0.027206 0.606180 0.139708
0.029658 0.605727 0.139626
0.032008 0.605918 0.139654
0.034257 0.606797 0.139799
0.036865 0.605158 0.139517
0.039312 0.604575 0.139414
0.041659 0.604708 0.139434
0.043819 0.606322 0.139705
0.046339 0.605071 0.139490
0.048697 0.605094 0.139492
0.051108 0.604636 0.139413
0.053510 0.604204 0.139338
0.055891 0.603922 0.139289
0.058015 0.606244 0.139682
0.060448 0.605451 0.139547
0.062767 0.605848 0.139614
0.065010 0.607211 0.139845
0.067139 0.610173 0.140348
0.069580 0.609245 0.140191
0.071977 0.608824 0.140120
0.074350 0.608708 0.140101
0.076709 0.608783 0.140115
0.079060 0.609008 0.140155
0.081395 0.609575 0.140253
0.083768 0.609408 0.140227
0.086205 0.607564 0.139916
0.088597 0.606515 0.139740
0.091066 0.602558 0.139071
0.093361 0.603895 0.139301
0.095679 0.604700 0.139440
0.097994 0.606102 0.139682
0.100347 0.605385 0.139563
0.102692 0.604784 0.139465
0.105032 0.603681 0.139281
0.107364 0.603750 0.139297
0.109692 0.603290 0.139223
0.112034 0.604262 0.139393
0.114349 0.603133 0.139206
0.116708 0.604602 0.139460
0.119047 0.604715 0.139485
0.121323 0.602805 0.139166
0.123652 0.602882 0.139185
0.125986 0.603050 0.139219
0.128301 0.602771 0.139178
0.130649 0.603189 0.139255
0.132945 0.602585 0.139160
0.135303 0.603112 0.139256
0.137598 0.602581 0.139173
0.140009 0.603800 0.139388
0.142475 0.605609 0.139704
0.144714 0.604286 0.139487
0.147000 0.603678 0.139393
0.149344 0.603782 0.139419
0.151645 0.603400 0.139364
0.154030 0.603913 0.139461
0.156331 0.603542 0.139408
0.158707 0.603902 0.139480
0.161179 0.605073 0.139690
0.163470 0.604586 0.139619
0.165638 0.603104 0.139378
0.167966 0.602994 0.139372
0.170242 0.602484 0.139298
0.172557 0.602282 0.139277
0.175005 0.603030 0.139418
0.177590 0.604659 0.139710
0.179800 0.603663 0.139555
0.182144 0.603582 0.139557
0.184577 0.604049 0.139653
0.187476 0.607313 0.140226
0.189999 0.608146 0.140385
0.192458 0.608552 0.140473
0.194825 0.608395 0.140465
0.197235 0.608460 0.140495
0.199613 0.608335 0.140494
0.202244 0.609510 0.140716
0.204602 0.609223 0.140689
0.206811 0.608190 0.140535
0.208559 0.604966 0.140008
0.211201 0.606074 0.140222
0.213064 0.603523 0.139811
0.215499 0.603639 0.139856
0.217942 0.603758 0.139903
0.220011 0.602235 0.139670
0.222049 0.600619 0.139422
0.224262 0.599770 0.139306
0.226585 0.599371 0.139268
0.229063 0.599576 0.139334
0.232507 0.603515 0.140041
0.234732 0.602609 0.139920
0.237301 0.603002 0.140022
0.238928 0.599883 0.139523
0.242201 0.602797 0.140059
0.244641 0.602616 0.140066
0.246883 0.601722 0.139952
0.249153 0.600923 0.139855
0.251929 0.601820 0.140051
0.254490 0.601944 0.140115
0.255134 0.595793 0.139101
0.259116 0.600492 0.139955
0.261280 0.599282 0.139793
0.263942 0.599615 0.139898
0.266567 0.599793 0.139978
0.269719 0.601509 0.140325
0.272596 0.602322 0.140517
0.274726 0.600902 0.140326
0.277403 0.601056 0.140407
0.280197 0.601498 0.140540
0.281280 0.597138 0.139843
0.285780 0.602217 0.140781
0.288200 0.601504 0.140718
0.290729 0.601066 0.140704
0.294019 0.602593 0.141032
0.297447 0.604398 0.141410
0.300171 0.604325 0.141463
0.303044 0.604593 0.141577
0.306655 0.606645 0.142002
0.309861 0.607618 0.142242
0.313112 0.608643 0.142491
0.315858 0.608411 0.142522
0.318289 0.607418 0.142421
0.321614 0.608490 0.142681
0.324220 0.607871 0.142646
0.326546 0.606617 0.142499
0.329336 0.606404 0.142535
0.333220 0.608580 0.142990
0.339068 0.614938 0.144180
0.338278 0.606944 0.142848
0.340746 0.606019 0.142757
0.345691 0.610277 0.143577
0.349480 0.612059 0.143960
0.351173 0.609540 0.143583
0.351542 0.604431 0.142747
0.353672 0.602960 0.142549
0.356717 0.603343 0.142676
0.361666 0.607447 0.143459
0.361354 0.601385 0.142439
0.364868 0.602764 0.142733
0.367203 0.601942 0.142632
0.369761 0.601601 0.142613
0.376857 0.609678 0.144082
-0.195660 0.599895 0.139173
-0.194538 0.602654 0.139622
-0.191841 0.602920 0.139641
-0.188861 0.602770 0.139584
-0.186387 0.603517 0.139677
-0.183590 0.603772 0.139681
-0.180244 0.603126 0.139528
-0.177553 0.603637 0.139570
-0.175301 0.604958 0.139745
-0.173064 0.606355 0.139931
-0.170126 0.606544 0.139909
-0.167372 0.607084 0.139944
-0.164207 0.606888 0.139852
-0.160997 0.606607 0.139745
-0.158119 0.606943 0.139741
-0.155639 0.608035 0.139863
-0.152904 0.608655 0.139905
-0.148101 0.605251 0.139266
-0.145729 0.606535 0.139420
-0.143683 0.608480 0.139685
-0.140860 0.608882 0.139689
-0.137641 0.608459 0.139555
-0.134336 0.607819 0.139384
-0.131775 0.608691 0.139469
-0.129128 0.609372 0.139522
-0.125828 0.608633 0.139338
-0.123249 0.609408 0.139408
-0.120452 0.609690 0.139397
-0.117485 0.609562 0.139318
-0.114744 0.609903 0.139319
-0.111841 0.609846 0.139254
-0.108664 0.609113 0.139078
-0.105777 0.609001 0.139007
-0.103057 0.609248 0.138997
-0.100328 0.609441 0.138979
-0.097566 0.609519 0.138943
-0.094873 0.609731 0.138932
-0.092024 0.609518 0.138850
-0.088856 0.608448 0.138627
-0.086420 0.609202 0.138710
-0.083481 0.608620 0.138571
-0.080959 0.609096 0.138609
-0.078046 0.608493 0.138470
-0.075596 0.609104 0.138533
-0.072935 0.609112 0.138498
-0.070397 0.609429 0.138515
-0.067740 0.609382 0.138473
-0.064976 0.608989 0.138375
-0.062504 0.609410 0.138413
-0.060010 0.609748 0.138438
-0.057442 0.609840 0.138423
-0.054939 0.610101 0.138438
-0.052332 0.610013 0.138396
-0.049848 0.610286 0.138415
-0.047082 0.609617 0.138278
-0.044321 0.608914 0.138138
-0.041812 0.609008 0.138130
-0.039371 0.609310 0.138157
-0.036728 0.608888 0.138066
-0.034113 0.608523 0.137985
-0.031622 0.608570 0.137973
-0.029014 0.608158 0.137886
-0.026381 0.607612 0.137778
-0.023760 0.607068 0.137671
-0.021738 0.608811 0.137943
-0.019066 0.608015 0.137796
-0.016506 0.607621 0.137716
-0.014410 0.609104 0.137947
-0.011983 0.609232 0.137955
-0.009270 0.608108 0.137756
-0.007179 0.609653 0.137999
-0.004076 0.606692 0.137499
-0.002206 0.609250 0.137910
0.000551 0.607728 0.137649
0.002571 0.609671 0.137960
0.005166 0.608846 0.137815
0.007555 0.609003 0.137833
0.009646 0.610697 0.138104
0.012158 0.610222 0.138018
0.014829 0.608833 0.137782
0.017414 0.607838 0.137612
0.019592 0.609111 0.137816
0.021943 0.609418 0.137861
0.024508 0.608422 0.137692
0.026944 0.608157 0.137643
0.029406 0.607691 0.137562
0.031212 0.611566 0.138197
0.033902 0.609577 0.137866
0.036258 0.609826 0.137904
0.038678 0.609597 0.137863
0.041212 0.608468 0.137675
0.043329 0.610552 0.138017
0.045822 0.609677 0.137871
0.048250 0.609278 0.137803
0.050759 0.608101 0.137608
0.052990 0.609423 0.137825
0.055479 0.608303 0.137640
0.057822 0.608576 0.137685
0.060139 0.609142 0.137778
0.062603 0.608071 0.137602
0.064931 0.608518 0.137676
0.067088 0.611191 0.138117
0.069604 0.609288 0.137804
0.071974 0.609240 0.137798
0.074346 0.609137 0.137782
0.076712 0.609104 0.137778
0.079052 0.609547 0.137853
0.081432 0.609233 0.137803
0.083772 0.609731 0.137888
0.086189 0.608404 0.137671
0.088554 0.608173 0.137636
0.090939 0.607194 0.137477
0.093273 0.607804 0.137581
0.095636 0.607288 0.137499
0.097990 0.607024 0.137459
0.100323 0.608264 0.137667
0.102673 0.608631 0.137732
0.105025 0.609749 0.137920
0.107384 0.609352 0.137859
0.109734 0.608483 0.137720
0.112085 0.608326 0.137699
0.114431 0.607967 0.137645
0.116788 0.608301 0.137705
0.119113 0.607287 0.137543
0.121520 0.609255 0.137873
0.123880 0.609379 0.137899
0.126189 0.608199 0.137711
0.128581 0.609124 0.137870
0.130936 0.609112 0.137874
0.133305 0.609355 0.137921
0.135657 0.609279 0.137916
0.137955 0.608359 0.137771
0.140288 0.608068 0.137731
0.142598 0.607483 0.137642
0.144955 0.607573 0.137666
0.147310 0.607632 0.137684
0.149682 0.607852 0.137729
0.152035 0.607849 0.137738
0.154330 0.607228 0.137645
0.156671 0.607112 0.137636
0.159053 0.607376 0.137690
0.161387 0.607184 0.137669
0.163563 0.605629 0.137423
0.166044 0.606705 0.137613
0.168546 0.607857 0.137815
0.170905 0.607822 0.137822
0.173225 0.607477 0.137778
0.175791 0.608910 0.138028
0.178251 0.609489 0.138138
0.180642 0.609563 0.138165
0.183014 0.609492 0.138168
0.185150 0.607922 0.137924
0.187487 0.607659 0.137896
0.189974 0.608275 0.138015
0.192318 0.608023 0.137991
0.194714 0.608055 0.138014
0.197191 0.608504 0.138107
0.199619 0.608654 0.138151
0.201980 0.608431 0.138134
0.204453 0.608761 0.138210
0.206961 0.609229 0.138309
0.209227 0.608483 0.138207
0.211410 0.607356 0.138044
0.213793 0.607184 0.138039
0.216203 0.607111 0.138051
0.218417 0.606159 0.137918
0.220801 0.605953 0.137910
0.223860 0.608583 0.138375
0.226280 0.608433 0.138378
0.228736 0.608409 0.138403
0.230813 0.606850 0.138174
0.233280 0.606846 0.138204
0.235606 0.606273 0.138140
0.238266 0.606947 0.138285
0.241178 0.608497 0.138578
0.243450 0.607641 0.138470
0.245507 0.606023 0.138237
0.248575 0.607957 0.138596
0.250890 0.607211 0.138511
0.252678 0.604681 0.138128
0.255454 0.605478 0.138301
0.258098 0.605782 0.138394
0.260881 0.606486 0.138555
0.263533 0.606722 0.138639
0.266213 0.607002 0.138731
0.267729 0.603686 0.138223
0.271331 0.606700 0.138776
0.273824 0.606305 0.138759
0.275998 0.604959 0.138584
0.278457 0.604434 0.138548
0.282294 0.607773 0.139162
0.284695 0.606985 0.139085
0.286378 0.604218 0.138675
0.288570 0.602869 0.138505
0.292537 0.606238 0.139131
0.295327 0.606392 0.139217
0.297662 0.605327 0.139098
0.300540 0.605641 0.139213
0.302875 0.604547 0.139091
0.306097 0.605645 0.139341
0.309607 0.607381 0.139700
0.312580 0.607744 0.139828
0.315668 0.608343 0.139997
0.318149 0.607472 0.139917
0.321525 0.608666 0.140188
0.324206 0.608221 0.140181
0.326779 0.607520 0.140131
0.328946 0.605917 0.139928
0.330676 0.603379 0.139564
0.332673 0.601471 0.139307
0.334722 0.599710 0.139074
0.337446 0.599417 0.139090
0.340449 0.599709 0.139205
0.343351 0.599792 0.139283
0.345919 0.599199 0.139244
0.347090 0.595820 0.138726
0.349454 0.594912 0.138628
0.353528 0.597408 0.139112
0.354828 0.594485 0.138663
0.357569 0.594427 0.138703
0.360381 0.594545 0.138770
0.361674 0.591844 0.138348
0.363812 0.590819 0.138210
0.366194 0.590318 0.138158
-0.197846 0.603746 0.137198
-0.193840 0.601826 0.136860
-0.191109 0.602033 0.136870
-0.188423 0.602369 0.136897
-0.185890 0.603017 0.136971
-0.183324 0.603664 0.137042
-0.180258 0.603500 0.136976
-0.177390 0.603710 0.136968
-0.175096 0.604961 0.137129
-0.172737 0.606145 0.137276
-0.170238 0.607120 0.137386
-0.167091 0.606953 0.137307
-0.164376 0.607580 0.137356
-0.161844 0.608567 0.137463
-0.157806 0.606744 0.137107
-0.155105 0.607414 0.137160
-0.152361 0.608004 0.137199
-0.149952 0.609249 0.137345
-0.145570 0.606618 0.136855
-0.143119 0.607755 0.136983
-0.140690 0.608938 0.137118
-0.137271 0.608101 0.136923
-0.134748 0.609070 0.137024
-0.132094 0.609759 0.137079
-0.128939 0.609370 0.136959
-0.126064 0.609540 0.136932
-0.123641 0.610661 0.137060
-0.120485 0.610160 0.136924
-0.117306 0.609560 0.136774
-0.114447 0.609627 0.136733
-0.111919 0.610418 0.136811
-0.109409 0.611236 0.136895
-0.105798 0.609443 0.136556
-0.102760 0.608930 0.136426
-0.100156 0.609414 0.136459
-0.097578 0.609935 0.136499
-0.094879 0.610131 0.136487
-0.092218 0.610389 0.136487
-0.089133 0.609534 0.136308
-0.086474 0.609721 0.136299
-0.083867 0.610012 0.136308
-0.080425 0.608049 0.135953
-0.077942 0.608583 0.136004
-0.075612 0.609520 0.136121
-0.072954 0.609534 0.136089
-0.070155 0.609113 0.135989
-0.067581 0.609293 0.135987
-0.064816 0.608886 0.135891
-0.062179 0.608814 0.135851
-0.059792 0.609456 0.135926
-0.057293 0.609742 0.135946
-0.054776 0.609954 0.135954
-0.052251 0.610115 0.135955
-0.049711 0.610201 0.135945
-0.047013 0.609746 0.135849
-0.044493 0.609836 0.135841
-0.042002 0.609996 0.135846
-0.039409 0.609787 0.135792
-0.035504 0.604962 0.134998
-0.034123 0.608904 0.135612
-0.031541 0.608620 0.135549
-0.029083 0.608756 0.135554
-0.026553 0.608599 0.135513
-0.024203 0.609102 0.135578
-0.021958 0.610007 0.135709
-0.019568 0.610348 0.135750
-0.016913 0.609605 0.135617
-0.014335 0.609130 0.135529
-0.012070 0.609933 0.135646
-0.009645 0.610058 0.135655
-0.007188 0.610024 0.135638
-0.004470 0.608796 0.135432
-0.001900 0.608171 0.135322
0.000264 0.609410 0.135512
0.002389 0.610877 0.135739
0.005074 0.609631 0.135531
0.007438 0.609927 0.135571
0.009706 0.610715 0.135691
0.012185 0.610406 0.135635
0.014867 0.608956 0.135397
0.017292 0.608846 0.135374
0.019469 0.610148 0.135578
0.021919 0.609887 0.135531
0.024357 0.609667 0.135492
0.026716 0.609912 0.135527
0.029218 0.609238 0.135416
0.032108 0.605898 0.134878
0.033705 0.611268 0.135735
0.036195 0.610599 0.135626
0.038574 0.610696 0.135640
0.040919 0.611044 0.135694
0.043501 0.609519 0.135448
0.045792 0.610258 0.135565
0.048157 0.610414 0.135590
0.050669 0.609245 0.135402
0.053066 0.609039 0.135369
0.055297 0.610434 0.135592
0.057741 0.609755 0.135484
0.060151 0.609353 0.135420
0.062507 0.609515 0.135446
0.064866 0.609647 0.135468
0.067234 0.609662 0.135472
0.069579 0.609993 0.135526
0.071964 0.609749 0.135489
0.074334 0.609704 0.135484
0.076712 0.609486 0.135451
0.079075 0.609506 0.135456
0.081410 0.610075 0.135550
0.083821 0.609032 0.135385
0.086179 0.609074 0.135395
0.088551 0.608706 0.135339
0.090902 0.608886 0.135371
0.093253 0.609095 0.135408
0.095617 0.608781 0.135361
0.097975 0.608551 0.135328
0.100328 0.608634 0.135345
0.102676 0.609399 0.135472
0.105032 0.609677 0.135520
0.107392 0.610409 0.135642
0.109745 0.609354 0.135478
0.112083 0.607940 0.135256
0.114451 0.609073 0.135443
0.116805 0.609105 0.135453
0.119169 0.609506 0.135523
0.121524 0.609477 0.135524
0.123905 0.610196 0.135645
0.126263 0.610168 0.135646
0.128565 0.608901 0.135450
0.130874 0.608035 0.135318
0.133361 0.610563 0.135730
0.135656 0.609437 0.135556
0.137971 0.608798 0.135461
0.140294 0.608347 0.135396
0.142691 0.608956 0.135502
0.144994 0.608285 0.135403
0.147302 0.607741 0.135324
0.149679 0.608033 0.135379
0.151993 0.607608 0.135320
0.154244 0.606565 0.135162
0.156713 0.607752 0.135363
0.159137 0.608401 0.135477
0.161353 0.607110 0.135280
0.163677 0.606847 0.135249
0.166014 0.606701 0.135236
0.168434 0.607214 0.135330
0.170665 0.606230 0.135184
0.173388 0.608939 0.135632
0.175826 0.609409 0.135720
0.178252 0.609754 0.135789
0.180605 0.609578 0.135775
0.182706 0.607755 0.135497
0.185215 0.608597 0.135647
0.187544 0.608270 0.135610
0.189913 0.608184 0.135612
0.192308 0.608235 0.135637
0.194530 0.607295 0.135503
0.196854 0.606939 0.135463
0.199520 0.608408 0.135718
0.201968 0.608650 0.135776
0.204350 0.608522 0.135775
0.206854 0.608987 0.135870
0.209278 0.609019 0.135896
0.211614 0.608612 0.135853
0.213933 0.608124 0.135796
0.216271 0.607714 0.135753
0.218604 0.607280 0.135707
0.221364 0.608683 0.135959
0.223604 0.607803 0.135842
0.226471 0.609530 0.136148
0.228783 0.608908 0.136075
0.231229 0.608818 0.136089
0.233389 0.607583 0.135918
0.235714 0.607003 0.135854
0.238707 0.608922 0.136196
0.241106 0.608552 0.136168
0.243351 0.607604 0.136048
0.246061 0.608316 0.136197
0.248348 0.607491 0.136099
0.250611 0.606583 0.135987
0.253292 0.607082 0.136106
0.255884 0.607234 0.136168
0.258467 0.607319 0.136222
0.261466 0.608701 0.136487
0.263895 0.608203 0.136448
0.265906 0.606391 0.136196
0.269017 0.607958 0.136495
0.271601 0.607858 0.136524
0.274013 0.607214 0.136466
0.276537 0.606877 0.136458
0.279719 0.608404 0.136756
0.282377 0.608364 0.136800
0.285098 0.608465 0.136868
0.287535 0.607746 0.136803
0.290434 0.608259 0.136941
0.293222 0.608421 0.137022
0.295526 0.607276 0.136891
0.298248 0.607206 0.136937
0.301329 0.608016 0.137128
0.303899 0.607486 0.137100
0.306521 0.607064 0.137092
0.309231 0.606832 0.137115
0.312419 0.607729 0.137324
0.315086 0.607333 0.137322
0.318381 0.608388 0.137559
0.321346 0.608626 0.137663
0.324241 0.608672 0.137735
0.326780 0.607893 0.137671
0.328921 0.606229 0.137461
0.332018 0.606689 0.137602
0.334667 0.606153 0.137578
0.338165 0.607437 0.137854
0.340970 0.607218 0.137881
0.343360 0.606139 0.137765
0.345782 0.605153 0.137663
0.348050 0.603885 0.137512
0.351041 0.604113 0.137607
0.354426 0.605139 0.137833
0.356951 0.604473 0.137776
0.360145 0.605149 0.137940
0.362707 0.604627 0.137901
0.364789 0.603241 0.137715
0.368236 0.604500 0.137966
0.370692 0.603931 0.137909
0.373305 0.603715 0.137907
-0.194857 0.599201 0.133841
-0.193679 0.601875 0.134251
-0.191012 0.602191 0.134279
-0.187995 0.601981 0.134219
-0.185456 0.602618 0.134291
-0.183030 0.603502 0.134399
-0.180046 0.603480 0.134360
-0.177423 0.604119 0.134423
-0.174329 0.603968 0.134357
-0.171628 0.604536 0.134404
-0.170012 0.607081 0.134764
-0.166708 0.606627 0.134644
-0.164162 0.607563 0.134744
-0.161244 0.607830 0.134736
-0.157706 0.606936 0.134542
-0.154928 0.607458 0.134573
-0.152489 0.608637 0.134707
-0.148523 0.606852 0.134371
-0.145538 0.606943 0.134332
-0.142978 0.607861 0.134424
-0.140167 0.608270 0.134436
-0.137856 0.609688 0.134607
-0.133933 0.607774 0.134252
-0.131347 0.608585 0.134329
-0.128593 0.609026 0.134347
-0.126146 0.610105 0.134467
-0.123074 0.609815 0.134372
-0.119563 0.608515 0.134118
-0.116905 0.609051 0.134155
-0.114290 0.609659 0.134204
-0.111712 0.610330 0.134263
-0.108647 0.609849 0.134143
-0.105116 0.608217 0.133843
-0.102579 0.608877 0.133904
-0.100422 0.610434 0.134107
-0.097526 0.610184 0.134028
-0.094858 0.610455 0.134031
-0.091990 0.610189 0.133952
-0.089361 0.610489 0.133962
-0.086535 0.610250 0.133889
-0.083811 0.610234 0.133852
-0.080481 0.608563 0.133557
-0.078235 0.609742 0.133709
-0.075627 0.609923 0.133706
-0.072737 0.609291 0.133577
-0.069889 0.608722 0.133459
-0.067411 0.609163 0.133500
-0.064877 0.609420 0.133513
-0.062249 0.609375 0.133480
-0.059621 0.609293 0.133442
-0.057172 0.609725 0.133485
-0.054377 0.609065 0.133359
-0.052876 0.612436 0.133863
-0.049397 0.609541 0.133390
-0.046724 0.609151 0.133308
-0.044418 0.609930 0.133410
-0.041853 0.609839 0.133377
-0.039397 0.610089 0.133398
-0.036950 0.610351 0.133422
-0.033677 0.607657 0.132986
-0.031600 0.609168 0.133206
-0.029271 0.609783 0.133286
-0.026810 0.609900 0.133291
-0.024360 0.610034 0.133298
-0.021105 0.607012 0.132815
-0.019622 0.610896 0.133407
-0.016141 0.606804 0.132759
-0.014821 0.611472 0.133474
-0.011952 0.609761 0.133198
-0.009622 0.610285 0.133270
-0.006882 0.609002 0.133061
-0.004534 0.609411 0.133116
-0.002170 0.609741 0.133159
-0.000043 0.611182 0.133376
0.002244 0.611900 0.133480
0.005009 0.610275 0.133221
0.007417 0.610355 0.133227
0.009727 0.610929 0.133311
0.012297 0.610136 0.133182
0.014964 0.608749 0.132962
0.017331 0.608950 0.132989
0.019578 0.609842 0.133124
0.021855 0.610589 0.133236
0.024362 0.609960 0.133135
0.026833 0.609499 0.133061
0.029160 0.609932 0.133125
0.031810 0.608217 0.132857
0.033844 0.610634 0.133230
0.036135 0.611355 0.133341
0.038595 0.610871 0.133264
0.040902 0.611504 0.133362
0.043338 0.611142 0.133305
0.045770 0.610771 0.133247
0.048174 0.610604 0.133221
0.050647 0.609782 0.133093
0.053052 0.609505 0.133051
0.055348 0.610275 0.133171
0.057719 0.610315 0.133178
0.060149 0.609719 0.133086
0.062515 0.609767 0.133095
0.064830 0.610431 0.133200
0.067212 0.610297 0.133180
0.069568 0.610499 0.133214
0.071936 0.610526 0.133220
0.074376 0.609415 0.133050
0.076725 0.609651 0.133089
0.079095 0.609513 0.133070
0.081428 0.610107 0.133165
0.083770 0.610598 0.133244
0.086165 0.609841 0.133130
0.088530 0.609732 0.133116
0.090892 0.609662 0.133109
0.093257 0.609451 0.133079
0.095616 0.609366 0.133070
0.097977 0.609084 0.133030
0.100328 0.609453 0.133092
0.102682 0.609666 0.133129
0.105038 0.610160 0.133210
0.107396 0.609967 0.133185
0.109759 0.610711 0.133305
0.112109 0.609880 0.133181
0.114449 0.608875 0.133030
0.116805 0.609087 0.133069
0.119179 0.609931 0.133205
0.121535 0.609901 0.133207
0.123894 0.609973 0.133224
0.126279 0.610697 0.133342
0.128591 0.609623 0.133182
0.130882 0.608332 0.132988
0.133125 0.606387 0.132692
0.135600 0.608668 0.133054
0.137941 0.608512 0.133037
0.140408 0.610190 0.133305
0.142733 0.609730 0.133242
0.144987 0.608395 0.133042
0.147274 0.607615 0.132929
0.149606 0.607418 0.132907
0.151952 0.607381 0.132910
0.154289 0.607255 0.132900
0.156735 0.608195 0.133055
0.159081 0.608107 0.133052
0.161369 0.607488 0.132965
0.163669 0.607019 0.132903
0.165977 0.606634 0.132854
0.168239 0.605905 0.132751
0.170796 0.607477 0.133008
0.173207 0.607848 0.133078
0.175777 0.609309 0.133318
0.177854 0.607254 0.133010
0.180193 0.607075 0.132996
0.182796 0.608597 0.133247
0.185140 0.608382 0.133228
0.187544 0.608531 0.133266
0.189971 0.608792 0.133322
0.192275 0.608315 0.133263
0.194516 0.607484 0.133150
0.196810 0.606968 0.133086
0.199216 0.607061 0.133118
0.201855 0.608338 0.133335
0.204394 0.609023 0.133461
0.206786 0.608930 0.133466
0.209141 0.608637 0.133440
0.211574 0.608709 0.133472
0.213950 0.608486 0.133458
0.216264 0.607971 0.133399
0.218973 0.609199 0.133614
0.221195 0.608247 0.133489
0.223480 0.607572 0.133407
0.226110 0.608333 0.133551
0.229003 0.610101 0.133854
0.231597 0.610583 0.133956
0.233090 0.606722 0.133378
0.235881 0.607948 0.133599
0.238703 0.609217 0.133827
0.241062 0.608699 0.133776
0.243232 0.607487 0.133617
0.246068 0.608657 0.133832
0.248554 0.608528 0.133845
0.250840 0.607689 0.133747
0.253105 0.606771 0.133637
0.255902 0.607617 0.133806
0.258546 0.607904 0.133888
0.261282 0.608441 0.134011
0.264207 0.609519 0.134220
0.265873 0.606623 0.133803
0.268758 0.607503 0.133983
0.271559 0.608068 0.134115
0.274159 0.607983 0.134145
0.276843 0.608112 0.134210
0.279798 0.608973 0.134392
0.282246 0.608340 0.134339
0.285533 0.610023 0.134653
0.287843 0.608939 0.134531
0.290913 0.609903 0.134734
0.293119 0.608502 0.134563
0.295606 0.607839 0.134510
0.298087 0.607147 0.134454
0.301566 0.608979 0.134799
0.304076 0.608288 0.134745
0.306546 0.607483 0.134673
0.309683 0.608297 0.134860
0.312164 0.607475 0.134787
0.315340 0.608297 0.134977
0.318020 0.607903 0.134973
0.320876 0.607899 0.135032
0.323939 0.608343 0.135163
0.326639 0.607934 0.135159
0.329491 0.607854 0.135207
0.332242 0.607536 0.135216
0.335343 0.607974 0.135347
0.338348 0.608182 0.135440
0.340913 0.607449 0.135382
0.343428 0.606628 0.135309
0.346051 0.606050 0.135273
0.348692 0.605531 0.135245
0.351226 0.604821 0.135185
0.355295 0.607201 0.135621
0.357473 0.605824 0.135450
0.360550 0.606257 0.135568
0.362868 0.605251 0.135451
0.365579 0.605054 0.135462
0.368861 0.605978 0.135651
0.370940 0.604687 0.135478
0.372083 0.601746 0.135036
-0.196715 0.602519 0.131753
-0.193445 0.601800 0.131625
-0.191101 0.602654 0.131737
-0.188217 0.602674 0.131716
-0.185461 0.602953 0.131732
-0.182593 0.603091 0.131724
-0.179935 0.603628 0.131774
-0.177338 0.604316 0.131845
-0.174967 0.605440 0.131981
-0.171962 0.605483 0.131948
-0.169228 0.606030 0.131990
-0.166643 0.606871 0.132077
-0.163846 0.607349 0.132106
-0.160644 0.607085 0.132020
-0.157985 0.607833 0.132088
-0.155356 0.608648 0.132166
-0.151763 0.607614 0.131959
-0.148586 0.607352 0.131871
-0.145546 0.607335 0.131820
-0.142808 0.607900 0.131859
-0.140426 0.609173 0.132006
-0.137778 0.609908 0.132071
-0.133822 0.607923 0.131720
-0.130984 0.608202 0.131716
-0.128195 0.608559 0.131724
-0.125393 0.608864 0.131725
-0.122951 0.609927 0.131843
-0.119719 0.609237 0.131694
-0.116917 0.609453 0.131684
-0.114096 0.609594 0.131663
-0.111105 0.609312 0.131579
-0.108270 0.609344 0.131544
-0.105157 0.608685 0.131404
-0.102924 0.610070 0.131577
-0.099181 0.607799 0.131194
-0.097693 0.610961 0.131639
-0.094623 0.610236 0.131494
-0.091881 0.610280 0.131466
-0.089290 0.610671 0.131493
-0.086861 0.611458 0.131580
-0.083332 0.609333 0.131227
-0.080920 0.610093 0.131312
-0.078277 0.610211 0.131301
-0.075500 0.609930 0.131231
-0.072851 0.609961 0.131209
-0.070046 0.609515 0.131115
-0.067381 0.609427 0.131077
-0.064962 0.610015 0.131142
-0.062438 0.610281 0.131159
-0.059678 0.609810 0.131066
-0.056933 0.609340 0.130973
-0.055272 0.612189 0.131383
-0.051874 0.609613 0.130974
-0.049449 0.610047 0.131021
-0.047085 0.610666 0.131096
-0.044146 0.609367 0.130883
-0.041535 0.609101 0.130826
-0.039251 0.609922 0.130934
-0.037019 0.610925 0.131071
-0.034630 0.611376 0.131124
-0.032191 0.611641 0.131151
-0.029470 0.610848 0.131018
-0.026966 0.610813 0.131001
-0.024542 0.611061 0.131026
-0.021974 0.610730 0.130965
-0.019630 0.611254 0.131034
-0.017279 0.611749 0.131098
-0.014408 0.610087 0.130839
-0.011746 0.609217 0.130699
-0.009480 0.609994 0.130808
-0.007198 0.610718 0.130909
-0.004587 0.609968 0.130789
-0.002411 0.611172 0.130963
-0.000142 0.611969 0.131077
0.002611 0.610450 0.130843
0.005049 0.610397 0.130829
0.007363 0.610949 0.130907
0.010159 0.609009 0.130611
0.012643 0.608607 0.130546
0.014981 0.608970 0.130597
0.017305 0.609413 0.130660
0.019874 0.608451 0.130513
0.021744 0.611568 0.130979
0.024472 0.609608 0.130682
