ply
format ascii 1.0
comment ---
element vertex 1708
property float x
property float y
property float z
element face 0
property list uchar uint vertex_indices
end_header
0.419515 0.604645 -0.370641
0.422430 0.603719 -0.370175
0.425141 0.603865 -0.370248
0.427325 0.607097 -0.371868
0.430261 0.605932 -0.371295
0.433474 0.602918 -0.369801
0.436092 0.603537 -0.370126
0.438611 0.604829 -0.370791
0.441262 0.605268 -0.371033
0.443979 0.605236 -0.371044
0.446727 0.604944 -0.370928
0.449441 0.604858 -0.370918
0.452254 0.603937 -0.370494
0.454667 0.606302 -0.371717
0.457472 0.605377 -0.371297
0.460269 0.604408 -0.370859
0.462976 0.604196 -0.370802
0.465694 0.603819 -0.370666
0.468293 0.604675 -0.371150
0.470938 0.605071 -0.371407
0.473632 0.604899 -0.371383
0.476279 0.605292 -0.371644
0.478991 0.604801 -0.371466
0.481702 0.604236 -0.371253
0.484353 0.604524 -0.371471
0.487009 0.604760 -0.371665
0.489686 0.604593 -0.371660
0.492370 0.604231 -0.371560
0.495029 0.604381 -0.371719
0.497691 0.604448 -0.371840
0.500371 0.603940 -0.371674
0.503020 0.604422 -0.372009
0.505664 0.605418 -0.372605
0.508347 0.604442 -0.372211
0.510997 0.605801 -0.372995
0.513668 0.605746 -0.373071
0.516338 0.606265 -0.373438
0.518999 0.603916 -0.372363
0.521668 0.604585 -0.372811
0.524318 0.603542 -0.372399
0.526983 0.603755 -0.372622
0.529652 0.603967 -0.372848
0.532303 0.603508 -0.372737
0.535044 0.605629 -0.373932
0.537743 0.606195 -0.374345
0.540393 0.605544 -0.374145
0.543048 0.605088 -0.374047
0.545716 0.604910 -0.374092
0.548460 0.605982 -0.374772
0.551136 0.605839 -0.374841
0.553798 0.605483 -0.374804
0.556371 0.604000 -0.374198
0.559042 0.603873 -0.374282
0.561716 0.603763 -0.374378
0.564537 0.605226 -0.375275
0.567304 0.605950 -0.375801
0.569609 0.602089 -0.373999
0.572685 0.605700 -0.376000
0.575321 0.605072 -0.375847
0.577986 0.604716 -0.375836
0.580652 0.604366 -0.375831
0.583284 0.603754 -0.375695
0.586004 0.603822 -0.375910
0.588731 0.603904 -0.376135
0.591544 0.604544 -0.376649
0.594197 0.604044 -0.376583
0.596952 0.604208 -0.376861
0.599717 0.604398 -0.377156
0.602383 0.603943 -0.377124
0.605004 0.603226 -0.376961
0.607507 0.601845 -0.376460
0.610428 0.602827 -0.377177
0.613486 0.604454 -0.378230
0.615958 0.602910 -0.377656
0.618706 0.602814 -0.377832
0.621544 0.603136 -0.378227
0.624301 0.603022 -0.378401
0.627122 0.603179 -0.378720
0.630116 0.604092 -0.379434
0.632729 0.603223 -0.379232
0.635432 0.602756 -0.379241
0.638021 0.601796 -0.379000
0.641047 0.602660 -0.379708
0.643973 0.603043 -0.380173
0.646719 0.602665 -0.380247
0.650372 0.605797 -0.382153
0.652605 0.603348 -0.381159
0.655245 0.602486 -0.380996
0.658335 0.603270 -0.381697
0.660574 0.600935 -0.380773
0.663024 0.599396 -0.380268
0.666558 0.601620 -0.381739
0.669985 0.603361 -0.382964
0.672429 0.601736 -0.382429
0.675547 0.602332 -0.383066
0.677844 0.600243 -0.382295
0.680927 0.600660 -0.382848
0.684546 0.602680 -0.384253
0.687064 0.601255 -0.383846
0.690227 0.601764 -0.384465
0.693409 0.602274 -0.385091
0.696292 0.601869 -0.385238
0.699071 0.601147 -0.385221
0.702217 0.601437 -0.385746
0.705589 0.602301 -0.386582
0.708412 0.601619 -0.386600
0.711248 0.600961 -0.386633
0.715294 0.603453 -0.388355
0.717689 0.601585 -0.387749
0.720556 0.600940 -0.387799
0.722858 0.598874 -0.387089
0.725934 0.598742 -0.387419
0.728273 0.596802 -0.386776
0.732423 0.599213 -0.388480
0.736524 0.601415 -0.390075
0.738135 0.597759 -0.388505
0.742522 0.600531 -0.390412
0.745327 0.599641 -0.390335
0.748213 0.598940 -0.390358
0.753086 0.602604 -0.392752
0.756441 0.602873 -0.393299
0.759315 0.602100 -0.393273
0.761805 0.600538 -0.392809
0.764523 0.599486 -0.392615
0.767590 0.599181 -0.392822
0.770512 0.598596 -0.392866
0.773580 0.598326 -0.393072
0.776293 0.597375 -0.392892
0.780410 0.599205 -0.394231
0.783237 0.598522 -0.394174
0.785987 0.597733 -0.394042
0.789157 0.597780 -0.394357
0.792242 0.597702 -0.394586
0.794861 0.596798 -0.394341
0.797989 0.596882 -0.394624
0.801027 0.596842 -0.394819
0.804917 0.598365 -0.395862
0.806889 0.596518 -0.395016
0.809394 0.595689 -0.394712
0.812413 0.595816 -0.394918
0.815271 0.595720 -0.394978
0.818199 0.595797 -0.395113
0.821641 0.596794 -0.395737
0.824905 0.597535 -0.396197
0.827478 0.597178 -0.396024
0.830589 0.597769 -0.396356
0.833162 0.597538 -0.396209
0.835774 0.597433 -0.396111
0.838391 0.597398 -0.396030
0.840564 0.596721 -0.395571
0.840035 0.591873 -0.392774
0.221587 0.591213 -0.368076
0.222206 0.594196 -0.369910
0.224010 0.595218 -0.370734
0.225689 0.596543 -0.371696
0.227950 0.596921 -0.372160
0.230062 0.597641 -0.372781
0.232715 0.597461 -0.372925
0.235487 0.597125 -0.372970
0.237156 0.598887 -0.374071
0.240828 0.597012 -0.373291
0.243700 0.596674 -0.373279
0.245328 0.598757 -0.374490
0.248143 0.598665 -0.374567
0.251850 0.596896 -0.373765
0.254910 0.596418 -0.373608
0.256970 0.597971 -0.374475
0.258577 0.600520 -0.375838
0.262113 0.599260 -0.375226
0.264304 0.600783 -0.376029
0.267478 0.600340 -0.375806
0.271210 0.598755 -0.374981
0.274110 0.598936 -0.375050
0.277187 0.598776 -0.374930
0.279550 0.600199 -0.375611
0.282638 0.600081 -0.375489
0.284303 0.603171 -0.377003
0.287382 0.603147 -0.376909
0.291870 0.599895 -0.375150
0.295065 0.599579 -0.374890
0.297329 0.601465 -0.375752
0.300270 0.601782 -0.375804
0.302700 0.603351 -0.376491
0.305579 0.603851 -0.376627
0.310811 0.598459 -0.373744
0.313483 0.599412 -0.374106
0.315788 0.601328 -0.374957
0.318686 0.601733 -0.375035
0.321906 0.601271 -0.374669
0.325077 0.600910 -0.374354
0.327759 0.601859 -0.374709
0.330680 0.602145 -0.374726
0.333696 0.602147 -0.374599
0.336613 0.602405 -0.374605
0.339470 0.602821 -0.374693
0.341786 0.604838 -0.375599
0.345471 0.602731 -0.374408
0.347890 0.604435 -0.375159
0.351947 0.601005 -0.373304
0.354712 0.601562 -0.373479
0.357539 0.601905 -0.373549
0.359984 0.603493 -0.374255
0.362828 0.603756 -0.374292
0.365509 0.604556 -0.374605
0.368541 0.604116 -0.374293
0.371506 0.603859 -0.374079
0.373923 0.605569 -0.374866
0.377657 0.602381 -0.373175
0.380206 0.603553 -0.373698
0.383270 0.602729 -0.373214
0.386024 0.603071 -0.373325
0.389076 0.602172 -0.372813
0.391937 0.601996 -0.372671
0.394356 0.603666 -0.373468
0.396966 0.604543 -0.373867
0.399632 0.605178 -0.374149
0.402534 0.604722 -0.373882
0.405087 0.605856 -0.374425
0.408244 0.604097 -0.373508
0.411005 0.604175 -0.373525
0.413649 0.604813 -0.373830
0.416343 0.605197 -0.374009
0.418968 0.605934 -0.374372
0.421912 0.604927 -0.373856
0.424840 0.603911 -0.373341
0.427515 0.604291 -0.373535
0.430452 0.603073 -0.372924
0.433378 0.601815 -0.372298
0.435360 0.606549 -0.374704
0.438468 0.604038 -0.373452
0.441235 0.603686 -0.373294
0.443845 0.604411 -0.373685
0.446542 0.604514 -0.373765
0.449167 0.605155 -0.374120
0.452069 0.603572 -0.373354
0.454438 0.606332 -0.374788
0.457176 0.606053 -0.374689
0.460018 0.604765 -0.374081
0.462842 0.603485 -0.373481
0.465436 0.604398 -0.373995
0.467909 0.606714 -0.375221
0.470823 0.604212 -0.374012
0.473499 0.604267 -0.374100
0.475996 0.606630 -0.375361
0.478815 0.604825 -0.374512
0.481547 0.604027 -0.374177
0.484229 0.603882 -0.374176
0.486833 0.605075 -0.374856
0.489573 0.603827 -0.374301
0.492260 0.603420 -0.374176
0.494914 0.603703 -0.374403
0.497555 0.604407 -0.374847
0.500185 0.605696 -0.375591
0.502864 0.605549 -0.375609
0.505575 0.603765 -0.374797
0.508229 0.604509 -0.375273
0.510891 0.605194 -0.375722
0.513558 0.606208 -0.376341
0.516236 0.605033 -0.375849
0.518908 0.604892 -0.375886
0.521546 0.601678 -0.374359
0.524235 0.603785 -0.375547
0.526889 0.603138 -0.375334
0.529568 0.603656 -0.375717
0.532274 0.604891 -0.376470
0.534993 0.606096 -0.377210
0.537670 0.605919 -0.377248
0.540238 0.603425 -0.376104
0.542952 0.604215 -0.376641
0.545678 0.605078 -0.377219
0.548390 0.605521 -0.377584
0.551107 0.605944 -0.377944
0.553774 0.605593 -0.377909
0.556398 0.604687 -0.377592
0.559009 0.603719 -0.377246
0.561763 0.604472 -0.377787
0.564484 0.604761 -0.378092
0.567153 0.604458 -0.378096
0.569927 0.605170 -0.378625
0.572550 0.604397 -0.378394
0.575273 0.604553 -0.378643
0.577923 0.604044 -0.378554
0.580609 0.603839 -0.378624
0.583320 0.603822 -0.378795
0.586183 0.604905 -0.379537
0.588917 0.604958 -0.379750
0.591510 0.603999 -0.379445
0.594261 0.604139 -0.379711
0.596835 0.603089 -0.379364
0.599666 0.603686 -0.379874
0.602474 0.604078 -0.380282
0.605090 0.603289 -0.380082
0.607445 0.601039 -0.379125
0.610697 0.603828 -0.380791
0.613265 0.602770 -0.380461
0.615864 0.601899 -0.380232
0.618791 0.602708 -0.380882
0.621564 0.602681 -0.381100
0.624329 0.602584 -0.381288
0.627084 0.602416 -0.381442
0.629822 0.602141 -0.381544
0.632783 0.602843 -0.382163
0.635439 0.602152 -0.382057
0.638096 0.601463 -0.381957
0.641114 0.602272 -0.382647
0.644066 0.602743 -0.383165
0.646966 0.602949 -0.383549
0.649466 0.601558 -0.383098
0.652990 0.604092 -0.384719
0.655911 0.604235 -0.385087
0.658349 0.602571 -0.384506
0.660596 0.600256 -0.383583
0.663649 0.600824 -0.384190
0.667797 0.605103 -0.386770
0.670287 0.603585 -0.386285
0.672407 0.600861 -0.385162
0.675810 0.602371 -0.386294
0.679204 0.603765 -0.387371
0.681867 0.602777 -0.387186
0.684323 0.601148 -0.386662
0.687404 0.601435 -0.387166
0.690580 0.601954 -0.387800
0.693526 0.601749 -0.388052
0.696209 0.600756 -0.387886
0.699466 0.601385 -0.388596
0.702032 0.600037 -0.388247
0.705430 0.600974 -0.389132
0.708763 0.601670 -0.389893
0.711515 0.600772 -0.389798
0.715231 0.602383 -0.391064
0.717769 0.600886 -0.390651
0.720564 0.600056 -0.390601
0.724060 0.600967 -0.391499
0.726369 0.598908 -0.390784
0.729799 0.599596 -0.391565
0.732812 0.599244 -0.391781
0.736916 0.601441 -0.393391
0.738813 0.598447 -0.392162
0.741993 0.598446 -0.392568
0.745373 0.598876 -0.393210
0.748548 0.598829 -0.393587
0.753483 0.602621 -0.396076
0.756438 0.602028 -0.396147
0.759879 0.602482 -0.396792
0.761629 0.599365 -0.395456
0.764865 0.599413 -0.395861
0.767697 0.598637 -0.395801
0.770540 0.597911 -0.395757
0.773431 0.597311 -0.395773
0.777555 0.599174 -0.397146
0.780846 0.599385 -0.397589
0.782930 0.597290 -0.396732
0.785462 0.596122 -0.396375
0.789640 0.598108 -0.397764
0.792102 0.596888 -0.397345
0.794813 0.596190 -0.397198
0.799781 0.599655 -0.399364
0.802010 0.598155 -0.398731
0.804305 0.596849 -0.398185
0.809568 0.600853 -0.400598
0.809127 0.594864 -0.397380
0.811629 0.594135 -0.397093
0.814794 0.594610 -0.397460
0.818668 0.596333 -0.398507
0.822253 0.597595 -0.399272
0.824411 0.596514 -0.398699
0.826534 0.595454 -0.398114
0.829677 0.596140 -0.398489
0.832980 0.597135 -0.399016
0.835525 0.596952 -0.398859
0.839034 0.598372 -0.399582
0.841643 0.598404 -0.399504
0.221926 0.594398 -0.372869
0.223742 0.595372 -0.373687
0.225841 0.595927 -0.374273
0.227602 0.597160 -0.375193
0.229645 0.597975 -0.375880
0.231660 0.598921 -0.376618
0.233325 0.600592 -0.377714
0.237957 0.596884 -0.376007
0.241044 0.596050 -0.375768
0.243655 0.596160 -0.375999
0.245622 0.597560 -0.376881
0.247730 0.598778 -0.377650
0.250809 0.598201 -0.377469
0.253987 0.597474 -0.377192
0.255171 0.600739 -0.378969
0.259904 0.597021 -0.377102
0.261805 0.599007 -0.378181
0.264329 0.599811 -0.378630
0.265821 0.602822 -0.380209
0.271357 0.597455 -0.377419
0.273998 0.598148 -0.377764
0.276113 0.600024 -0.378709
0.278652 0.601055 -0.379203
0.281676 0.601070 -0.379156
0.284458 0.601652 -0.379393
0.288149 0.600207 -0.378567
0.291925 0.598545 -0.377618
0.294425 0.599819 -0.378186
0.298622 0.597130 -0.376691
0.299389 0.602585 -0.379412
0.302912 0.601503 -0.378738
0.306042 0.601354 -0.378542
0.308464 0.602969 -0.379256
0.312059 0.601646 -0.378446
0.314823 0.602411 -0.378713
0.317986 0.602144 -0.378445
0.321235 0.601621 -0.378044
0.324679 0.600538 -0.377353
0.327586 0.600871 -0.377394
0.330389 0.601484 -0.377580
0.333507 0.601199 -0.377303
0.336632 0.600858 -0.376999
0.339249 0.601966 -0.377445
0.342105 0.602371 -0.377529
0.344839 0.603131 -0.377799
0.347734 0.603387 -0.377813
0.350553 0.603859 -0.377940
0.354564 0.600502 -0.376101
0.357093 0.601818 -0.376670
0.359877 0.602300 -0.376814
0.362447 0.603492 -0.377326
0.365109 0.604376 -0.377683
0.369673 0.598572 -0.374611
0.371843 0.601085 -0.375813
0.374379 0.602327 -0.376367
0.376481 0.605204 -0.377763
0.379735 0.603771 -0.376953
0.382963 0.602344 -0.376152
0.385630 0.603053 -0.376449
0.388092 0.604589 -0.377174
0.391162 0.603632 -0.376627
0.394163 0.602889 -0.376194
0.396853 0.603428 -0.376422
0.399638 0.603536 -0.376434
0.402031 0.605403 -0.377351
0.404761 0.605754 -0.377495
0.408083 0.603237 -0.376177
0.411031 0.602405 -0.375725
0.413434 0.604254 -0.376649
0.416123 0.604683 -0.376851
0.418934 0.604447 -0.376717
0.421889 0.603372 -0.376158
0.424719 0.602908 -0.375915
0.427351 0.603547 -0.376241
0.430022 0.603958 -0.376454
0.432482 0.605679 -0.377341
0.435760 0.602212 -0.375578
0.438071 0.604920 -0.376977
0.441101 0.602827 -0.375924
0.443825 0.602746 -0.375905
0.446280 0.604627 -0.376893
0.449041 0.604266 -0.376737
0.451606 0.605427 -0.377363
0.454373 0.604951 -0.377156
0.457120 0.604590 -0.377010
0.459834 0.604466 -0.376990
0.462384 0.605890 -0.377765
0.465120 0.605543 -0.377637
0.467844 0.605254 -0.377542
0.470557 0.605043 -0.377490
0.473268 0.604799 -0.377424
0.475935 0.605054 -0.377617
0.478627 0.604983 -0.377646
0.481357 0.604315 -0.377372
0.484006 0.604813 -0.377699
0.486632 0.605794 -0.378276
0.489334 0.605459 -0.378182
0.492086 0.603953 -0.377489
0.494749 0.604213 -0.377706
0.497414 0.604491 -0.377935
0.500103 0.604017 -0.377780
0.502766 0.604386 -0.378062
0.505394 0.606607 -0.379299
0.508115 0.604234 -0.378176
0.510796 0.603438 -0.377867
0.513461 0.604196 -0.378361
0.516134 0.604315 -0.378528
0.518803 0.603529 -0.378232
0.521481 0.604296 -0.378739
0.524126 0.602320 -0.377834
0.526807 0.603121 -0.378364
0.529477 0.603109 -0.378478
0.532187 0.604402 -0.379269
0.534913 0.605714 -0.380073
0.537557 0.604685 -0.379670
0.540215 0.604149 -0.379524
0.542869 0.603611 -0.379381
0.545581 0.604161 -0.379803
0.548295 0.604640 -0.380191
0.551032 0.605353 -0.380704
0.553835 0.606863 -0.381634
0.556513 0.606517 -0.381605
0.559043 0.604378 -0.380648
0.561716 0.604109 -0.380664
0.564383 0.603770 -0.380647
0.567128 0.604237 -0.381052
0.569851 0.604420 -0.381312
0.572573 0.604547 -0.381547
0.574982 0.601871 -0.380325
0.577873 0.603464 -0.381330
0.580614 0.603691 -0.381627
0.583335 0.603705 -0.381816
0.585752 0.601429 -0.380813
0.588935 0.604791 -0.382759
0.591476 0.603439 -0.382245
0.594153 0.603063 -0.382244
0.596801 0.602491 -0.382145
0.599615 0.602967 -0.382599
0.602372 0.603034 -0.382842
0.605184 0.603389 -0.383240
0.607739 0.602237 -0.382851
0.610413 0.601774 -0.382827
0.613204 0.601929 -0.383133
0.616018 0.602170 -0.383488
0.618998 0.603200 -0.384265
0.621738 0.602964 -0.384378
0.623957 0.600209 -0.383165
0.627110 0.601933 -0.384321
0.630114 0.602855 -0.385060
0.632900 0.602728 -0.385249
0.635628 0.602322 -0.385295
0.638383 0.602015 -0.385398
0.641277 0.602266 -0.385802
0.644000 0.601777 -0.385818
0.646749 0.601378 -0.385887
0.649970 0.602794 -0.386926
0.652487 0.601439 -0.386495
0.655954 0.603643 -0.387969
0.658749 0.603270 -0.388072
0.661196 0.601630 -0.387503
0.663879 0.600844 -0.387395
0.667010 0.601595 -0.388115
0.668725 0.597508 -0.386245
0.672808 0.601368 -0.388647
0.675885 0.601787 -0.389207
0.678846 0.601780 -0.389543
0.681544 0.600915 -0.389423
0.684868 0.601971 -0.390344
0.687608 0.601187 -0.390277
0.690934 0.602131 -0.391150
0.693531 0.600883 -0.390841
0.696721 0.601342 -0.391463
0.698915 0.598939 -0.390533
0.702661 0.600888 -0.391975
0.706339 0.602553 -0.393269
0.709056 0.601549 -0.393112
0.712142 0.601520 -0.393492
0.715064 0.601035 -0.393625
0.717722 0.599855 -0.393380
0.720792 0.599721 -0.393710
0.723940 0.599758 -0.394137
0.727299 0.600282 -0.394834
0.730327 0.599967 -0.395070
0.733944 0.601039 -0.396073
0.736504 0.599581 -0.395678
0.738713 0.597333 -0.394843
0.742363 0.598413 -0.395850
0.744962 0.597088 -0.395519
0.749252 0.599533 -0.397282
0.753521 0.601858 -0.398976
0.756265 0.600823 -0.398796
0.758068 0.597812 -0.397505
0.762107 0.599574 -0.398871
0.765164 0.599258 -0.399069
0.768353 0.599228 -0.399416
0.771156 0.598427 -0.399322
0.773953 0.597650 -0.399228
0.778754 0.600857 -0.401362
0.780498 0.598054 -0.400102
0.782038 0.594950 -0.398654
0.787173 0.598783 -0.401102
0.789391 0.597074 -0.400407
0.792445 0.596993 -0.400614
0.795200 0.596401 -0.400512
0.799071 0.597892 -0.401570
0.801790 0.597321 -0.401441
0.805053 0.597778 -0.401874
0.807872 0.597491 -0.401864
0.810026 0.596099 -0.401205
0.815135 0.599892 -0.403468
0.815992 0.596392 -0.401567
0.819842 0.598086 -0.402594
0.822403 0.597640 -0.402383
0.824191 0.595972 -0.401455
0.825398 0.593436 -0.400011
0.830705 0.597708 -0.402413
0.833073 0.597199 -0.402078
0.834596 0.595400 -0.400988
0.838129 0.596898 -0.401750
0.839777 0.595446 -0.400816
0.225285 0.592380 -0.375000
0.226956 0.593637 -0.375966
0.227960 0.596166 -0.377580
0.229574 0.597710 -0.378666
0.231834 0.598178 -0.379173
0.234458 0.598057 -0.379354
0.236719 0.598669 -0.379899
0.240753 0.596058 -0.378739
0.242771 0.597248 -0.379550
0.245916 0.596387 -0.379268
0.247848 0.597898 -0.380210
0.250092 0.598894 -0.380865
0.252941 0.598788 -0.380922
0.256597 0.597139 -0.380150
0.256341 0.603338 -0.383484
0.261705 0.598354 -0.380924
0.263955 0.599681 -0.381663
0.267153 0.599122 -0.381394
0.270454 0.598378 -0.381012
0.274003 0.597128 -0.380350
0.275025 0.601312 -0.382529
0.278843 0.599553 -0.381571
0.281713 0.599869 -0.381690
0.284800 0.599732 -0.381560
0.287337 0.600859 -0.382082
0.290035 0.601666 -0.382427
0.293472 0.600792 -0.381879
0.296632 0.600556 -0.381659
0.299800 0.600301 -0.381421
0.302945 0.600098 -0.381205
0.305479 0.601394 -0.381769
0.308788 0.600790 -0.381331
0.311362 0.602022 -0.381853
0.314297 0.602355 -0.381900
0.317456 0.602102 -0.381638
0.320744 0.601485 -0.381184
0.324207 0.600358 -0.380463
0.327089 0.600766 -0.380544
0.329735 0.601824 -0.380964
0.333326 0.600223 -0.379997
0.335110 0.603732 -0.381698
0.338038 0.603994 -0.381706
0.341870 0.601549 -0.380304
0.344627 0.602240 -0.380540
0.347603 0.602252 -0.380425
0.350678 0.601920 -0.380133
0.353954 0.600906 -0.379491
0.356691 0.601571 -0.379725
0.359349 0.602487 -0.380094
0.362389 0.602120 -0.379798
0.364841 0.603722 -0.380530
0.367537 0.604496 -0.380836
0.370743 0.603442 -0.380197
0.373871 0.602598 -0.379671
0.376461 0.603682 -0.380150
0.379369 0.603568 -0.380012
0.382674 0.601874 -0.379059
0.385275 0.602860 -0.379500
0.387431 0.605659 -0.380885
0.390320 0.605512 -0.380748
0.393563 0.603817 -0.379814
0.396837 0.601871 -0.378754
0.399721 0.601537 -0.378533
0.401868 0.604502 -0.380026
0.404505 0.605296 -0.380399
0.407859 0.602661 -0.379001
0.410722 0.602269 -0.378768
0.413143 0.604053 -0.379666
0.415854 0.604395 -0.379822
0.418995 0.602431 -0.378789
0.421214 0.605386 -0.380306
0.424136 0.604504 -0.379841
0.427111 0.603224 -0.379175
0.429807 0.603514 -0.379325
0.432776 0.602090 -0.378591
0.435037 0.605094 -0.380154
0.437957 0.603888 -0.379541
0.440617 0.604361 -0.379801
0.443218 0.605258 -0.380285
0.445986 0.604961 -0.380154
0.448751 0.604624 -0.380006
0.451562 0.603865 -0.379644
0.454264 0.603926 -0.379709
0.456976 0.603872 -0.379719
0.459575 0.604832 -0.380257
0.462242 0.605192 -0.380488
0.465037 0.604270 -0.380058
0.467760 0.603988 -0.379963
0.470481 0.603673 -0.379855
0.473235 0.602892 -0.379507
0.475777 0.604721 -0.380516
0.478586 0.603085 -0.379732
0.481211 0.603908 -0.380226
0.483848 0.604666 -0.380690
0.486513 0.605034 -0.380955
0.489156 0.605873 -0.381467
0.491888 0.604966 -0.381076
0.494633 0.603501 -0.380398
0.497304 0.603645 -0.380558
0.499984 0.603507 -0.380575
0.502645 0.604060 -0.380955
0.505299 0.605174 -0.381628
0.507983 0.605083 -0.381679
0.510671 0.604496 -0.381474
0.513353 0.604157 -0.381401
0.516031 0.603026 -0.380919
0.518703 0.602996 -0.381012
0.521369 0.602329 -0.380776
0.524048 0.602971 -0.381226
0.526723 0.603028 -0.381373
0.529386 0.602576 -0.381258
0.532135 0.605061 -0.382680
0.534810 0.604725 -0.382631
0.537494 0.604636 -0.382715
0.540129 0.603488 -0.382247
0.542916 0.605529 -0.383451
0.545555 0.604529 -0.383067
0.548200 0.603760 -0.382806
0.550892 0.603784 -0.382964
0.553638 0.604532 -0.383504
0.556313 0.604231 -0.383498
0.558917 0.603076 -0.383046
0.561634 0.603316 -0.383329
0.564373 0.603751 -0.383719
0.567068 0.603650 -0.383830
0.569816 0.604046 -0.384206
0.572632 0.605014 -0.384887
0.575300 0.604551 -0.384818
0.577934 0.603809 -0.384604
0.580636 0.603655 -0.384705
0.583350 0.603582 -0.384851
0.586121 0.603902 -0.385209
0.588869 0.604003 -0.385455
0.591425 0.602748 -0.384987
0.593988 0.601595 -0.384577
0.596919 0.602855 -0.385447
0.599938 0.604557 -0.386557
0.602106 0.600983 -0.384873
0.604923 0.601394 -0.385307
0.607926 0.602806 -0.386276
0.610502 0.601751 -0.385940
0.613256 0.601677 -0.386128
0.616304 0.603103 -0.387120
0.618936 0.602319 -0.386940
0.621810 0.602731 -0.387402
0.624320 0.601351 -0.386911
0.627545 0.603343 -0.388227
0.630221 0.602702 -0.388141
0.633016 0.602589 -0.388341
0.635891 0.602794 -0.388717
0.638658 0.602499 -0.388830
0.641206 0.601273 -0.388447
0.643879 0.600574 -0.388352
0.647359 0.603071 -0.389982
0.650287 0.603283 -0.390388
0.653173 0.603291 -0.390690
0.655042 0.599483 -0.388936
0.658541 0.601733 -0.390459
0.660696 0.599056 -0.389323
0.663960 0.600330 -0.390330
0.666987 0.600705 -0.390857
0.670050 0.601149 -0.391427
0.672907 0.600863 -0.391606
0.675446 0.599518 -0.391215
0.679006 0.601438 -0.392606
0.682505 0.603058 -0.393842
0.685334 0.602528 -0.393911
0.688150 0.601942 -0.393953
0.691045 0.601576 -0.394121
0.694221 0.602003 -0.394728
0.696704 0.600394 -0.394222
0.699648 0.600104 -0.394445
0.702739 0.600195 -0.394881
0.706351 0.601671 -0.396086
0.708168 0.598252 -0.394594
0.712112 0.600524 -0.396248
0.714865 0.599600 -0.396138
0.718054 0.599787 -0.396647
0.720864 0.598987 -0.396610
0.724285 0.599698 -0.397415
0.727605 0.600117 -0.398059
0.730407 0.599251 -0.397989
0.733661 0.599463 -0.398519
0.737381 0.600738 -0.399645
0.739945 0.599292 -0.399246
0.742756 0.598433 -0.399174
0.745531 0.597503 -0.399057
0.749046 0.598225 -0.399864
0.753071 0.600033 -0.401280
0.755526 0.598410 -0.400757
0.758150 0.597184 -0.400450
0.761044 0.596562 -0.400475
0.763543 0.595140 -0.400037
0.768365 0.598511 -0.402306
0.771427 0.598258 -0.402510
0.774608 0.598264 -0.402849
0.777612 0.597941 -0.402988
0.779949 0.596349 -0.402390
0.784504 0.599085 -0.404242
0.786424 0.596781 -0.403204
0.790074 0.597812 -0.404051
0.793170 0.597825 -0.404300
0.795972 0.597338 -0.404244
0.798606 0.596598 -0.404022
0.801917 0.597134 -0.404510
0.804654 0.596685 -0.404413
0.807168 0.595901 -0.404103
0.809469 0.594812 -0.403595
0.812297 0.594708 -0.403630
0.817370 0.598501 -0.405879
0.820284 0.598619 -0.405997
0.822731 0.598007 -0.405673
0.825838 0.598562 -0.405997
0.826154 0.594561 -0.403683
0.830061 0.596563 -0.404793
0.832640 0.596434 -0.404658
0.835088 0.596157 -0.404417
0.836790 0.594753 -0.403508
0.226141 0.590614 -0.376918
0.227652 0.592110 -0.378029
0.229433 0.593215 -0.378920
0.230953 0.594871 -0.380085
0.232416 0.596724 -0.381338
0.234386 0.597752 -0.382139
0.236852 0.597949 -0.382483
0.239107 0.598608 -0.383052
0.241946 0.598248 -0.383064
0.245274 0.597017 -0.382594
0.247778 0.597402 -0.382962
0.250241 0.597937 -0.383390
0.252808 0.598338 -0.383729
0.255198 0.599155 -0.384271
0.259872 0.595483 -0.382408
0.259923 0.601122 -0.385477
0.264499 0.597695 -0.383708
0.267139 0.598237 -0.384033
0.270568 0.597188 -0.383496
0.273213 0.597814 -0.383833
0.274157 0.602140 -0.386124
0.276543 0.603480 -0.386812
0.281445 0.599356 -0.384580
0.284091 0.600177 -0.384966
0.287374 0.599604 -0.384600
0.289232 0.602297 -0.385958
0.292869 0.600955 -0.385162
0.296690 0.599159 -0.384117
0.299729 0.599183 -0.384030
0.302713 0.599349 -0.384012
0.305533 0.599920 -0.384203
0.308088 0.601171 -0.384749
0.311264 0.600884 -0.384474
0.313951 0.601835 -0.384853
0.316875 0.602189 -0.384911
0.320195 0.601497 -0.384414
0.323483 0.600850 -0.383940
0.326602 0.600627 -0.383689
0.329262 0.601650 -0.384097
0.332110 0.602157 -0.384232
0.335265 0.601775 -0.383898
0.338193 0.602018 -0.383896
0.341262 0.601824 -0.383664
0.344857 0.600009 -0.382581
0.346662 0.603591 -0.384344
0.349961 0.602608 -0.383705
0.353177 0.601819 -0.383171
0.356278 0.601342 -0.382805
0.358163 0.604826 -0.384526
0.362337 0.600714 -0.382255
0.364956 0.601736 -0.382689
0.367374 0.603468 -0.383499
0.370857 0.601440 -0.382338
0.373659 0.601768 -0.382419
0.376200 0.603042 -0.383001
0.379580 0.601157 -0.381928
0.382481 0.601005 -0.381771
0.384612 0.603863 -0.383196
0.387081 0.605441 -0.383954
0.390075 0.604883 -0.383596
0.393244 0.603527 -0.382825
0.396270 0.602691 -0.382331
0.398571 0.604991 -0.383485
0.401410 0.604924 -0.383403
0.404336 0.604417 -0.383096
0.407653 0.601979 -0.381782
0.410327 0.602529 -0.382036
0.413007 0.603051 -0.382281
0.415664 0.603678 -0.382585
0.418456 0.603595 -0.382521
0.421383 0.602736 -0.382056
0.423577 0.605924 -0.383713
0.426779 0.603415 -0.382393
0.429572 0.603166 -0.382259
0.432280 0.603399 -0.382382
0.435223 0.602106 -0.381710
0.438017 0.601685 -0.381499
0.440324 0.604542 -0.383007
0.443058 0.604545 -0.383025
0.445764 0.604717 -0.383136
0.448461 0.604949 -0.383282
0.451138 0.605335 -0.383513
0.454030 0.603923 -0.382805
0.456748 0.603870 -0.382812
0.459476 0.603699 -0.382762
0.462134 0.604154 -0.383043
0.464917 0.603355 -0.382671
0.467612 0.603396 -0.382741
0.470191 0.604710 -0.383483
0.472892 0.604705 -0.383537
0.475525 0.605554 -0.384042
0.478237 0.605398 -0.384023
0.481012 0.604264 -0.383495
0.483706 0.604212 -0.383537
0.486404 0.604054 -0.383527
0.489116 0.603581 -0.383355
0.491819 0.603171 -0.383218
0.494477 0.603719 -0.383588
0.497178 0.603207 -0.383404
0.499832 0.604012 -0.383916
0.502510 0.604204 -0.384108
0.505195 0.604099 -0.384147
0.507870 0.604578 -0.384497
0.510563 0.603887 -0.384234
0.513243 0.604062 -0.384430
0.515926 0.603891 -0.384447
0.518606 0.603341 -0.384266
0.521275 0.602282 -0.383821
0.523951 0.602362 -0.383978
0.526667 0.604390 -0.385167
0.529357 0.604497 -0.385345
0.531990 0.602679 -0.384510
0.534773 0.605557 -0.386159
0.537454 0.605172 -0.386086
0.540131 0.604773 -0.386010
0.542936 0.606922 -0.387285
0.545551 0.605259 -0.386545
0.548271 0.605563 -0.386850
0.550876 0.604064 -0.386203
0.553482 0.602770 -0.385667
0.556083 0.601551 -0.385173
0.558962 0.603842 -0.386545
0.561629 0.603406 -0.386473
0.564310 0.603139 -0.386494
0.567022 0.603193 -0.386689
0.569746 0.603328 -0.386931
0.572512 0.603808 -0.387360
0.575281 0.604245 -0.387770
0.577882 0.603188 -0.387387
0.580552 0.602754 -0.387340
0.583452 0.604112 -0.388253
0.586006 0.602751 -0.387717
0.588792 0.603130 -0.388115
0.591533 0.603138 -0.388319
0.594118 0.602073 -0.387952
0.596754 0.601387 -0.387791
0.600070 0.604939 -0.389907
0.602810 0.604763 -0.390028
0.605483 0.604178 -0.389935
0.607941 0.602382 -0.389194
0.610606 0.601799 -0.389109
0.613374 0.601760 -0.389320
0.616123 0.601596 -0.389468
0.618983 0.601970 -0.389912
0.621717 0.601670 -0.389996
0.624385 0.601041 -0.389907
0.627043 0.600362 -0.389795
0.630361 0.602682 -0.391310
0.633144 0.602486 -0.391470
0.636092 0.602977 -0.392008
0.638613 0.601604 -0.391539
0.641266 0.600807 -0.391386
0.644253 0.601361 -0.391973
0.647290 0.602050 -0.392640
0.650356 0.602790 -0.393340
0.653337 0.603140 -0.393834
0.655945 0.602056 -0.393550
0.657239 0.596202 -0.390663
0.661355 0.600603 -0.393387
0.664120 0.600073 -0.393420
0.667177 0.600528 -0.393999
0.670098 0.600473 -0.394304
0.673005 0.600340 -0.394571
0.675915 0.600184 -0.394830
0.679400 0.601821 -0.396084
0.682291 0.601513 -0.396272
0.685245 0.601371 -0.396556
0.688085 0.600856 -0.396639
0.691243 0.601261 -0.397237
0.694331 0.601417 -0.397702
0.697083 0.600570 -0.397614
0.699664 0.599236 -0.397259
0.702505 0.598631 -0.397313
0.705398 0.598155 -0.397441
0.708384 0.597911 -0.397703
0.711767 0.598690 -0.398540
0.715199 0.599540 -0.399421
0.718588 0.600229 -0.400216
0.721841 0.600524 -0.400793
0.725203 0.601056 -0.401505
0.727268 0.598381 -0.400413
0.730799 0.599286 -0.401337
0.733939 0.599218 -0.401712
0.736779 0.598436 -0.401682
0.740695 0.600134 -0.403055
0.743015 0.598149 -0.402338
0.746839 0.599572 -0.403551
0.749944 0.599363 -0.403833
0.753181 0.599441 -0.404273
0.755305 0.597122 -0.403340
0.758360 0.596839 -0.403559
0.761620 0.596996 -0.404020
0.764936 0.597273 -0.404541
0.768166 0.597378 -0.404953
0.771407 0.597516 -0.405373
0.775308 0.598981 -0.406542
0.778529 0.599096 -0.406923
0.781813 0.599353 -0.407371
0.784273 0.598051 -0.406904
0.786914 0.597154 -0.406652
0.790381 0.597863 -0.407308
0.793529 0.597999 -0.407616
0.795847 0.596649 -0.407045
0.798448 0.595885 -0.406792
0.802593 0.597958 -0.408160
0.805148 0.597206 -0.407871
0.806585 0.594552 -0.406458
0.809796 0.595093 -0.406874
0.813229 0.596061 -0.407515
0.816532 0.596842 -0.408026
0.820188 0.598262 -0.408885
0.822800 0.597962 -0.408724
0.824792 0.596692 -0.407977
0.829394 0.599807 -0.409752
0.829685 0.595878 -0.407419
0.832370 0.595955 -0.407388
0.834505 0.595205 -0.406857
0.836152 0.593748 -0.405895
0.227496 0.592111 -0.380882
0.230334 0.591307 -0.380775
0.233014 0.590837 -0.380829
0.233037 0.595226 -0.383458
0.234868 0.596461 -0.384388
0.236999 0.597229 -0.385052
0.239391 0.597595 -0.385482
0.242140 0.597360 -0.385572
0.244812 0.597332 -0.385754
0.247573 0.597194 -0.385858
0.250038 0.597687 -0.386281
0.252515 0.598226 -0.386710
0.255138 0.598548 -0.387004
0.258161 0.598136 -0.386885
0.262640 0.594833 -0.385193
0.263978 0.597912 -0.386914
0.266924 0.597793 -0.386899
0.269770 0.597929 -0.387004
0.272288 0.598803 -0.387489
0.274351 0.600713 -0.388517
0.276750 0.601978 -0.389183
0.280247 0.600902 -0.388575
0.283351 0.600701 -0.388425
0.285765 0.602074 -0.389109
0.289970 0.599422 -0.387618
0.292945 0.599560 -0.387616
0.296240 0.598969 -0.387213
0.299622 0.598163 -0.386687
0.302190 0.599307 -0.387200
0.304398 0.601368 -0.388198
0.308190 0.599560 -0.387113
0.311187 0.599700 -0.387069
0.313642 0.601223 -0.387762
0.316540 0.601636 -0.387856
0.319937 0.600736 -0.387244
0.323101 0.600418 -0.386943
0.326234 0.600158 -0.386671
0.329366 0.599875 -0.386386
0.332465 0.599656 -0.386136
0.335108 0.600708 -0.386565
0.338058 0.600882 -0.386526
0.340871 0.601441 -0.386694
0.344376 0.599913 -0.385750
0.347434 0.599668 -0.385493
0.350333 0.599883 -0.385484
0.352809 0.601414 -0.386178
0.355407 0.602577 -0.386679
0.359201 0.599818 -0.385096
0.361931 0.600487 -0.385341
0.364514 0.601649 -0.385852
0.366935 0.603391 -0.386674
0.370091 0.602553 -0.386129
0.373122 0.602101 -0.385793
0.376438 0.600536 -0.384871
0.378587 0.603285 -0.386245
0.381954 0.601413 -0.385168
0.384246 0.603662 -0.386285
0.386965 0.604256 -0.386526
0.389922 0.603860 -0.386247
0.392978 0.602992 -0.385723
0.395809 0.603019 -0.385677
0.398412 0.604019 -0.386153
0.401291 0.603782 -0.385977
0.404163 0.603535 -0.385800
0.406938 0.603697 -0.385845
0.410124 0.601830 -0.384819
0.412655 0.603107 -0.385463
0.415240 0.604150 -0.385988
0.418338 0.602495 -0.385088
0.420890 0.603690 -0.385702
0.423615 0.603949 -0.385824
0.426378 0.603975 -0.385828
0.429069 0.604396 -0.386044
0.431731 0.604995 -0.386359
0.434191 0.606885 -0.387362
0.437369 0.604139 -0.385915
0.440376 0.602336 -0.384971
0.442848 0.604161 -0.385951
0.445624 0.603855 -0.385807
0.448288 0.604354 -0.386094
0.450997 0.604505 -0.386199
0.453690 0.604765 -0.386367
0.456679 0.602448 -0.385173
0.459315 0.603105 -0.385558
0.462030 0.603046 -0.385568
0.464796 0.602432 -0.385286
0.467504 0.602338 -0.385285
0.470072 0.603779 -0.386100
0.472721 0.604419 -0.386494
0.475411 0.604573 -0.386634
0.478061 0.605281 -0.387072
0.480799 0.604775 -0.386869
0.483584 0.603416 -0.386216
0.486292 0.603111 -0.386126
0.489005 0.602635 -0.385948
0.491690 0.602636 -0.386027
0.494372 0.602650 -0.386116
0.496987 0.604505 -0.387186
0.499687 0.604217 -0.387122
0.502391 0.603667 -0.386920
0.505071 0.603950 -0.387165
0.507761 0.603830 -0.387199
0.510459 0.602804 -0.386754
0.513140 0.602855 -0.386884
0.515821 0.604313 -0.387768
0.518504 0.602785 -0.387063
0.521190 0.603239 -0.387419
0.523918 0.606153 -0.389089
0.526599 0.605158 -0.388678
0.529260 0.603745 -0.388047
0.531946 0.603589 -0.388089
0.534638 0.603635 -0.388243
0.537340 0.603890 -0.388511
0.540096 0.605237 -0.389367
0.542751 0.604284 -0.388996
0.545514 0.605404 -0.389738
0.548149 0.604229 -0.389254
0.550771 0.602992 -0.388739
0.553742 0.606791 -0.390928
0.556490 0.607134 -0.391268
0.558841 0.602580 -0.388983
0.561651 0.603789 -0.389794
0.564377 0.603925 -0.390032
0.567053 0.603512 -0.389979
0.569695 0.602771 -0.389753
0.572641 0.604897 -0.391074
0.575216 0.603515 -0.390509
0.577889 0.603050 -0.390442
0.580600 0.602905 -0.390551
0.583491 0.604139 -0.391408
0.586096 0.603111 -0.391047
0.588942 0.603858 -0.391650
0.591436 0.602094 -0.390898
0.594201 0.602231 -0.391179
0.597127 0.603355 -0.391999
0.599877 0.603285 -0.392176
0.602740 0.603865 -0.392711
0.605260 0.602377 -0.392126
0.608371 0.604295 -0.393396
0.610772 0.602168 -0.392472
0.613411 0.601398 -0.392290
0.616182 0.601320 -0.392489
0.618986 0.601386 -0.392770
0.621737 0.601150 -0.392892
0.624395 0.600453 -0.392767
0.627135 0.600135 -0.392852
0.630263 0.601565 -0.393900
0.633512 0.603430 -0.395193
0.635956 0.601688 -0.394513
0.638572 0.600715 -0.394260
0.641185 0.599742 -0.394011
0.644153 0.600212 -0.394560
0.647271 0.601219 -0.395410
0.650319 0.601875 -0.396074
0.653207 0.601860 -0.396374
0.656092 0.601803 -0.396656
0.658852 0.601257 -0.396672
0.661751 0.601191 -0.396960
0.664599 0.600915 -0.397137
0.667705 0.601494 -0.397793
0.670350 0.600468 -0.397565
0.672948 0.599290 -0.397255
0.676170 0.600138 -0.398078
0.679270 0.600526 -0.398651
0.682125 0.600105 -0.398779
0.685214 0.600380 -0.399300
0.688240 0.600416 -0.399693
0.691203 0.600234 -0.399969
0.694337 0.600517 -0.400510
0.697592 0.601104 -0.401228
0.699408 0.597596 -0.399646
0.703148 0.599484 -0.401105
0.705975 0.598798 -0.401117
0.709624 0.600298 -0.402368
0.712141 0.598745 -0.401895
0.715316 0.598914 -0.402400
0.718483 0.599030 -0.402877
0.722151 0.600375 -0.404054
0.725318 0.600415 -0.404492
0.728103 0.599499 -0.404386
0.730719 0.598185 -0.404052
0.733792 0.597969 -0.404342
0.737735 0.599771 -0.405786
0.740393 0.598556 -0.405500
0.743209 0.597721 -0.405428
0.747939 0.601175 -0.407815
0.749961 0.598560 -0.406710
0.752708 0.597589 -0.406542
0.755380 0.596481 -0.406287
0.759440 0.598346 -0.407740
0.762394 0.597856 -0.407824
0.766121 0.598982 -0.408833
0.768257 0.596851 -0.407943
0.771172 0.596356 -0.407988
0.775138 0.597984 -0.409252
0.778319 0.598053 -0.409596
0.781307 0.597771 -0.409721
0.784106 0.597163 -0.409638
0.786650 0.596117 -0.409282
0.791112 0.598729 -0.411041
0.793734 0.597909 -0.410779
0.794978 0.594618 -0.409052
0.800353 0.598941 -0.411754
0.803274 0.598812 -0.411834
0.805321 0.597179 -0.411011
0.807631 0.596092 -0.410484
0.810503 0.596060 -0.410553
0.813238 0.595844 -0.410492
0.815802 0.595395 -0.410271
0.818908 0.595926 -0.410603
0.821920 0.596348 -0.410847
0.824455 0.596027 -0.410634
0.827455 0.596533 -0.410884
0.830678 0.597455 -0.411355
0.832560 0.596245 -0.410556
0.832899 0.592631 -0.408329
0.227849 0.591238 -0.383257
0.229042 0.593319 -0.384713
0.231392 0.593429 -0.385091
0.234595 0.592062 -0.384655
0.236265 0.593530 -0.385731
0.237979 0.595006 -0.386795
0.240153 0.595720 -0.387430
0.242667 0.595877 -0.387744
0.245016 0.596411 -0.388244
0.247969 0.595861 -0.388138
0.250235 0.596691 -0.388760
0.252626 0.597354 -0.389273
0.255282 0.597566 -0.389523
0.257857 0.598002 -0.389876
0.260803 0.597755 -0.389839
0.263098 0.598882 -0.390531
0.266002 0.598831 -0.390565
0.269005 0.598620 -0.390494
0.272187 0.598071 -0.390222
0.274815 0.598734 -0.390595
0.276875 0.600679 -0.391649
0.279432 0.601621 -0.392143
0.282163 0.602233 -0.392443
0.286226 0.599898 -0.391128
0.289925 0.598355 -0.390231
0.293385 0.597343 -0.389613
0.295899 0.598533 -0.390182
0.298920 0.598567 -0.390112
0.301524 0.599617 -0.390587
0.304734 0.599225 -0.390270
0.308467 0.597531 -0.389240
0.310571 0.599878 -0.390398
0.313189 0.600982 -0.390877
0.316448 0.600457 -0.390467
0.319542 0.600338 -0.390275
0.322433 0.600747 -0.390366
0.325286 0.601259 -0.390511
0.329566 0.597839 -0.388527
0.332365 0.598436 -0.388716
0.335306 0.598630 -0.388688
0.337623 0.600613 -0.389627
0.340992 0.599541 -0.388916
0.344184 0.598938 -0.388460
0.347137 0.599018 -0.388375
0.350612 0.597449 -0.387402
0.353177 0.598669 -0.387937
0.355262 0.601453 -0.389316
0.358898 0.599221 -0.387997
0.361150 0.601497 -0.389108
0.363954 0.601945 -0.389238
0.366929 0.601787 -0.389046
0.369826 0.601865 -0.388985
0.373028 0.600808 -0.388318
0.375679 0.601707 -0.388706
0.378448 0.602162 -0.388861
0.381186 0.602722 -0.389075
0.384150 0.602382 -0.388811
0.386853 0.603040 -0.389087
0.389782 0.602763 -0.388866
0.392544 0.603144 -0.389002
0.395383 0.603170 -0.388953
0.398015 0.604076 -0.389380
0.401086 0.603012 -0.388756
0.403904 0.603028 -0.388714
0.406487 0.604126 -0.389258
0.409506 0.603124 -0.388681
0.412179 0.603766 -0.388989
0.414809 0.604625 -0.389418
0.417868 0.603234 -0.388646
0.420837 0.602219 -0.388080
0.423403 0.603365 -0.388676
0.426019 0.604261 -0.389143
0.428841 0.603950 -0.388967
0.431523 0.604453 -0.389232
0.434115 0.605528 -0.389807
0.436686 0.606782 -0.390481
0.439718 0.604954 -0.389510
0.442401 0.605423 -0.389773
0.445333 0.604070 -0.389064
0.448190 0.603152 -0.388592
0.450836 0.603806 -0.388966
0.453747 0.602286 -0.388180
0.456354 0.603235 -0.388719
0.459092 0.603058 -0.388660
0.461798 0.603136 -0.388740
0.464648 0.601747 -0.388039
0.467347 0.601775 -0.388100
0.469984 0.602480 -0.388528
0.472614 0.603330 -0.389037
0.475241 0.604287 -0.389607
0.477950 0.604260 -0.389653
0.480666 0.604088 -0.389625
0.483464 0.602556 -0.388870
0.486072 0.604010 -0.389722
0.488820 0.603074 -0.389294
0.491566 0.601940 -0.388762
0.494100 0.605519 -0.390766
0.496893 0.603105 -0.389553
0.499549 0.604155 -0.390205
0.502268 0.603263 -0.389816
0.504962 0.603054 -0.389798
0.507658 0.602627 -0.389666
0.510348 0.602260 -0.389569
0.513035 0.601843 -0.389448
0.515714 0.604562 -0.391020
0.518398 0.601590 -0.389529
0.521087 0.602342 -0.390047
0.523813 0.605114 -0.391659
0.526520 0.605395 -0.391932
0.529168 0.603172 -0.390855
0.531844 0.602618 -0.390683
0.534544 0.602879 -0.390953
0.537318 0.604857 -0.392156
0.539999 0.604325 -0.392005
0.542701 0.604296 -0.392129
0.545304 0.602451 -0.391274
0.547956 0.601706 -0.391017
0.550862 0.604871 -0.392882
0.553577 0.604870 -0.393035
0.556218 0.603891 -0.392661
0.558851 0.602893 -0.392280
0.561559 0.602852 -0.392422
0.564327 0.603432 -0.392905
0.567035 0.603309 -0.393009
0.569928 0.604966 -0.394085
0.572656 0.604906 -0.394232
0.575213 0.603319 -0.393550
0.577846 0.602478 -0.393278
0.580761 0.603952 -0.394272
0.583441 0.603461 -0.394198
0.586148 0.603172 -0.394238
0.588743 0.602080 -0.393843
0.591826 0.604400 -0.395319
0.594290 0.602405 -0.394437
0.597130 0.602931 -0.394940
0.599979 0.603449 -0.395443
0.602590 0.602468 -0.395128
0.605443 0.602930 -0.395609
0.608269 0.603178 -0.395977
0.610901 0.602314 -0.395739
0.613624 0.601948 -0.395779
0.616336 0.601518 -0.395787
0.619209 0.601890 -0.396243
0.621806 0.600851 -0.395925
0.624590 0.600732 -0.396119
0.627583 0.601553 -0.396838
0.630128 0.600265 -0.396395
0.633476 0.602566 -0.397945
0.636506 0.603343 -0.398657
0.638484 0.599611 -0.396872
0.641225 0.599163 -0.396913
0.644323 0.600137 -0.397750
0.647336 0.600697 -0.398364
0.650436 0.601536 -0.399139
0.653231 0.601151 -0.399237
0.655936 0.600412 -0.399143
0.659076 0.601246 -0.399933
0.661879 0.600812 -0.400020
0.664808 0.600794 -0.400345
0.667744 0.600767 -0.400671
0.670564 0.600318 -0.400764
0.673157 0.599103 -0.400432
0.676362 0.599872 -0.401222
0.679416 0.600097 -0.401711
0.682343 0.599882 -0.401957
0.685629 0.600737 -0.402813
0.688713 0.600922 -0.403297
0.690581 0.597478 -0.401727
0.694307 0.599505 -0.403264
0.696916 0.598246 -0.402940
0.699744 0.597610 -0.402973
0.703555 0.599671 -0.404547
0.706463 0.599186 -0.404674
0.709425 0.598828 -0.404876
0.712328 0.598302 -0.404984
0.715140 0.597525 -0.404950
0.719215 0.599962 -0.406761
0.722180 0.599516 -0.406921
0.725554 0.600071 -0.407657
0.728231 0.598892 -0.407394
0.730391 0.596490 -0.406424
0.735020 0.599971 -0.408849
0.738097 0.599723 -0.409118
0.741429 0.600057 -0.409721
0.744293 0.599311 -0.409695
0.746864 0.597925 -0.409290
0.750336 0.598555 -0.410051
0.752931 0.597261 -0.409685
0.756383 0.597841 -0.410402
0.760041 0.598847 -0.411360
0.763273 0.598943 -0.411778
0.766043 0.598098 -0.411633
0.768895 0.597456 -0.411593
0.771516 0.596382 -0.411287
0.775071 0.597211 -0.412082
0.778068 0.596949 -0.412222
0.780837 0.596280 -0.412106
0.784121 0.596646 -0.412580
0.788380 0.598882 -0.414140
0.791086 0.598197 -0.413959
0.793316 0.596686 -0.413270
0.796300 0.596630 -0.413419
0.801000 0.599734 -0.415415
0.802831 0.597670 -0.414334
0.806436 0.598850 -0.415150
0.808861 0.597981 -0.414731
0.809761 0.594527 -0.412759
0.812625 0.594579 -0.412840
0.815730 0.595096 -0.413173
0.818059 0.594346 -0.412733
0.820709 0.594204 -0.412632
0.823663 0.594628 -0.412842
0.826261 0.594514 -0.412712
0.829556 0.595598 -0.413270
0.830950 0.593639 -0.412006
0.229752 0.591803 -0.386746
0.232182 0.591725 -0.387037
0.234947 0.591105 -0.387013
0.237136 0.591587 -0.387574
0.238850 0.593013 -0.388632
0.240726 0.594228 -0.389558
0.242388 0.595930 -0.390733
0.245789 0.594442 -0.390143
0.248420 0.594455 -0.390356
0.250641 0.595322 -0.391018
0.252904 0.596184 -0.391659
0.255696 0.596082 -0.391751
0.258505 0.596002 -0.391837
0.260596 0.597419 -0.392727
0.262962 0.598363 -0.393339
0.265349 0.599337 -0.393949
0.268870 0.598021 -0.393282
0.272604 0.596273 -0.392360
0.275093 0.597180 -0.392882
0.277258 0.598850 -0.393808
0.279148 0.601196 -0.395091
0.282786 0.599771 -0.394286
0.286550 0.598058 -0.393307
0.290359 0.596222 -0.392250
0.292553 0.598077 -0.393210
0.295824 0.597492 -0.392818
0.298571 0.598145 -0.393096
0.301582 0.598198 -0.393035
0.304420 0.598680 -0.393202
0.307569 0.598417 -0.392953
0.310399 0.598946 -0.393132
0.313016 0.600033 -0.393611
0.316091 0.599968 -0.393453
0.318015 0.602909 -0.394940
0.321601 0.601510 -0.394044
0.325931 0.598042 -0.392014
0.327726 0.601416 -0.393728
0.332237 0.597295 -0.391340
0.335162 0.597524 -0.391332
0.337621 0.599088 -0.392053
0.340157 0.600453 -0.392666
0.343476 0.599502 -0.392015
0.346708 0.598758 -0.391478
0.349794 0.598411 -0.391161
0.352050 0.600639 -0.392250
0.355829 0.598033 -0.390707
0.358092 0.600253 -0.391796
0.360802 0.601039 -0.392107
0.363695 0.601200 -0.392080
0.366830 0.600497 -0.391588
0.370262 0.598686 -0.390497
0.372140 0.602365 -0.392395
0.375354 0.601249 -0.391690
0.378205 0.601415 -0.391686
0.380898 0.602158 -0.392000
0.383677 0.602563 -0.392135
0.387041 0.600608 -0.390993
0.389327 0.602942 -0.392184
0.392089 0.603354 -0.392335
0.394887 0.603600 -0.392402
0.397910 0.602827 -0.391920
0.400613 0.603428 -0.392188
0.403378 0.603735 -0.392301
0.406409 0.602762 -0.391726
0.409175 0.602992 -0.391806
0.411901 0.603399 -0.391988
0.414692 0.603462 -0.391987
0.417649 0.602618 -0.391500
0.420417 0.602716 -0.391527
0.423416 0.601498 -0.390847
0.425897 0.603154 -0.391727
0.428549 0.603861 -0.392098
0.431476 0.602899 -0.391569
0.434416 0.601759 -0.390948
0.436903 0.603476 -0.391879
0.439505 0.604498 -0.392437
0.442205 0.604883 -0.392654
0.445296 0.602402 -0.391324
0.447819 0.604011 -0.392213
0.450796 0.602124 -0.391212
0.453574 0.601690 -0.391003
0.456016 0.604094 -0.392334
0.459019 0.601610 -0.391021
0.461717 0.601756 -0.391137
0.464323 0.602809 -0.391749
0.466969 0.603522 -0.392180
0.469749 0.602793 -0.391833
0.472442 0.602980 -0.391987
0.475150 0.602978 -0.392041
0.477751 0.604387 -0.392865
0.480542 0.603227 -0.392298
0.483312 0.602174 -0.391793
0.486049 0.601477 -0.391485
0.488758 0.601137 -0.391373
0.491392 0.602275 -0.392068
0.494013 0.603957 -0.393063
0.496743 0.603189 -0.392729
0.499473 0.602128 -0.392240
0.502167 0.601992 -0.392256
0.504854 0.602068 -0.392391
0.507548 0.601807 -0.392346
0.510236 0.601751 -0.392416
0.512918 0.602535 -0.392947
0.515610 0.601751 -0.392627
0.518309 0.604580 -0.394280
0.520987 0.601826 -0.392893
0.523726 0.605316 -0.394913
0.526426 0.604949 -0.394835
0.529104 0.603778 -0.394320
0.531788 0.603202 -0.394133
0.534528 0.604333 -0.394882
0.537237 0.604390 -0.395048
0.539912 0.603646 -0.394779
0.542605 0.603395 -0.394783
0.545438 0.605654 -0.396165
0.547983 0.602781 -0.394740
0.550740 0.603521 -0.395297
0.553493 0.604074 -0.395756
0.556161 0.603423 -0.395558
0.558765 0.602033 -0.394957
0.561512 0.602427 -0.395339
0.564191 0.602007 -0.395278
0.566911 0.602014 -0.395455
0.569903 0.604647 -0.397081
0.572610 0.604351 -0.397101
0.575044 0.601643 -0.395794
0.578041 0.603891 -0.397222
0.580424 0.600970 -0.395804
0.583494 0.603565 -0.397433
0.586251 0.603597 -0.397652
0.589102 0.604272 -0.398230
0.591380 0.600925 -0.396589
0.594180 0.601244 -0.396978
0.597038 0.601883 -0.397550
0.599867 0.602269 -0.397986
0.602783 0.603119 -0.398685
0.605518 0.602832 -0.398757
0.608117 0.601763 -0.398400
0.610847 0.601439 -0.398460
0.613605 0.601251 -0.398600
0.616423 0.601353 -0.398907
0.620395 0.607216 -0.402433
0.621696 0.599663 -0.398478
0.624704 0.600605 -0.399268
0.627592 0.600907 -0.399707
0.630282 0.600263 -0.399622
0.633341 0.601245 -0.400452
0.636507 0.602612 -0.401504
0.639292 0.602271 -0.401605
0.641685 0.600296 -0.400791
0.644921 0.601768 -0.401922
0.647711 0.601387 -0.402014
0.650112 0.599483 -0.401254
0.653269 0.600477 -0.402133
0.656322 0.601012 -0.402758
0.659062 0.600353 -0.402715
0.662479 0.602086 -0.404032
0.664947 0.600419 -0.403428
0.667845 0.600241 -0.403673
0.670596 0.599545 -0.403629
0.673416 0.599065 -0.403713
0.677057 0.601211 -0.405297
0.679797 0.600393 -0.405199
0.682615 0.599814 -0.405242
0.685400 0.599120 -0.405223
0.688562 0.599544 -0.405848
0.691684 0.599800 -0.406382
0.694304 0.598562 -0.406063
0.696921 0.597326 -0.405748
0.700784 0.599581 -0.407445
0.703978 0.599890 -0.408028
0.706723 0.598947 -0.407891
0.709280 0.597502 -0.407465
0.712394 0.597534 -0.407896
0.716008 0.598828 -0.409059
0.719232 0.599067 -0.409614
0.722755 0.600024 -0.410587
0.725729 0.599576 -0.410745
0.728465 0.598545 -0.410561
0.731967 0.599356 -0.411450
0.735569 0.600367 -0.412455
0.738340 0.599403 -0.412303
0.741410 0.599141 -0.412557
0.744491 0.598902 -0.412820
0.747766 0.599097 -0.413331
0.750404 0.597884 -0.413009
0.753154 0.596948 -0.412839
0.756367 0.597029 -0.413260
0.759642 0.597246 -0.413751
0.762977 0.597594 -0.414310
0.765932 0.597164 -0.414396
0.769276 0.597552 -0.414954
0.772127 0.596960 -0.414917
0.774500 0.595459 -0.414323
0.778917 0.598025 -0.416131
0.781532 0.597070 -0.415828
0.784633 0.597102 -0.416094
0.788703 0.599002 -0.417455
0.790573 0.596780 -0.416339
0.792923 0.595536 -0.415786
0.800954 0.604766 -0.421463
0.799641 0.596916 -0.416922
0.802453 0.596673 -0.416902
0.804367 0.594892 -0.415939
0.807745 0.595769 -0.416543
0.810493 0.595585 -0.416489
0.813754 0.596343 -0.416977
0.816202 0.595753 -0.416635
0.817971 0.594079 -0.415623
0.820156 0.593190 -0.415058
0.822731 0.593022 -0.414901
0.825506 0.593241 -0.414955
0.827849 0.592809 -0.414597
0.829996 0.592120 -0.414066
0.233050 0.589910 -0.388894
0.235043 0.590636 -0.389622
0.237002 0.591502 -0.390411
0.239155 0.592088 -0.391028
0.240954 0.593404 -0.392032
0.243107 0.594145 -0.392700
0.246266 0.593064 -0.392341
0.248539 0.593713 -0.392920
0.250537 0.594965 -0.393816
0.253335 0.594748 -0.393877
0.256390 0.594078 -0.393669
0.259023 0.594292 -0.393932
0.261295 0.595291 -0.394611
0.263293 0.596924 -0.395625
0.265756 0.597690 -0.396140
0.269872 0.595089 -0.394764
0.273108 0.594326 -0.394392
0.275522 0.595336 -0.394990
0.277013 0.598401 -0.396714
0.280314 0.597634 -0.396292
0.282976 0.598296 -0.396649
0.287459 0.594934 -0.394754
0.289935 0.596059 -0.395341
0.292362 0.597355 -0.396011
0.295372 0.597348 -0.395945
0.298755 0.596480 -0.395390
0.301307 0.597593 -0.395926
0.303743 0.599030 -0.396632
0.307236 0.597914 -0.395913
0.309430 0.600019 -0.396975
0.312621 0.599657 -0.396661
0.315413 0.600311 -0.396906
0.318423 0.600409 -0.396838
0.321426 0.600525 -0.396776
0.324430 0.600629 -0.396704
