ply
format ascii 1.0
comment ---
element vertex 1771
property float x
property float y
property float z
element face 0
property list uchar uint vertex_indices
end_header
0.411033 0.604789 0.062441
0.413436 0.604235 0.062402
0.415817 0.603566 0.062368
0.417729 0.600528 0.062460
0.420522 0.601985 0.062308
0.423841 0.605896 0.062022
0.426508 0.606520 0.061910
0.430229 0.611973 0.061535
0.433150 0.613543 0.061367
0.434788 0.609337 0.061511
0.437021 0.607862 0.061506
0.439077 0.605675 0.061539
0.441453 0.604883 0.061494
0.444009 0.604830 0.061407
0.446984 0.606429 0.061226
0.449347 0.605543 0.061182
0.451488 0.603814 0.061183
0.453682 0.602320 0.061170
0.457916 0.608418 0.060729
0.460601 0.608635 0.060616
0.462402 0.605656 0.060682
0.466501 0.610828 0.060286
0.469443 0.611801 0.060125
0.470353 0.605821 0.060359
0.472982 0.605751 0.060255
0.475463 0.605168 0.060179
0.477929 0.604535 0.060105
0.480043 0.602775 0.060095
0.482474 0.602040 0.060025
0.487658 0.609770 0.059460
0.488413 0.603818 0.059691
0.491646 0.605415 0.059479
0.495568 0.608962 0.059151
0.498166 0.608546 0.059054
0.499900 0.605652 0.059103
0.502631 0.605621 0.058982
0.505386 0.605627 0.058856
0.508024 0.605292 0.058750
0.510791 0.605286 0.058623
0.513378 0.604777 0.058525
0.515775 0.603760 0.058456
0.519067 0.605053 0.058246
0.521805 0.604876 0.058123
0.524681 0.605026 0.057979
0.528069 0.606414 0.057757
0.530602 0.605649 0.057667
0.533205 0.605049 0.057565
0.535424 0.603522 0.057520
0.537792 0.602362 0.057451
0.541001 0.603157 0.057258
0.545023 0.605768 0.056947
0.548327 0.606666 0.056742
0.552235 0.608865 0.056452
0.556620 0.612038 0.056096
0.556570 0.605434 0.056369
0.559083 0.604485 0.056277
0.562253 0.604933 0.056092
0.564494 0.603391 0.056036
0.567634 0.603727 0.055855
0.570269 0.602992 0.055743
0.573674 0.603811 0.055526
0.576906 0.604239 0.055333
0.581057 0.606454 0.055018
0.585546 0.609254 0.054659
0.589604 0.611130 0.054359
0.589734 0.605403 0.054574
0.591189 0.602289 0.054611
0.593508 0.600836 0.054534
0.596477 0.600595 0.054372
0.599048 0.599602 0.054260
0.602189 0.599638 0.054074
0.611984 0.611591 0.053049
0.615010 0.611238 0.052881
0.616868 0.608811 0.052858
0.618404 0.605848 0.052872
0.620095 0.603185 0.052864
0.622297 0.601418 0.052790
0.624841 0.600236 0.052673
0.627132 0.598626 0.052584
0.632002 0.601275 0.052182
0.635178 0.601074 0.051984
0.638548 0.601158 0.051762
0.641621 0.600738 0.051574
0.644825 0.600502 0.051369
0.647708 0.599736 0.051200
0.650532 0.598862 0.051037
0.656743 0.603175 0.050475
0.660306 0.603343 0.050223
0.663075 0.602280 0.050062
0.664444 0.599120 0.050060
0.667545 0.598543 0.049856
0.677264 0.607610 0.048890
0.675449 0.599783 0.049246
0.678431 0.598942 0.049050
0.681925 0.598810 0.048793
0.684987 0.598037 0.048583
0.687936 0.597086 0.048384
0.691100 0.596411 0.048158
0.697886 0.600653 0.047523
0.708082 0.609383 0.046506
0.710533 0.607543 0.046355
0.707563 0.598516 0.046804
0.710053 0.596788 0.046641
0.713439 0.596216 0.046376
0.716665 0.595409 0.046126
0.721024 0.596020 0.045748
0.728048 0.599944 0.045075
0.732774 0.600877 0.044653
0.732323 0.595335 0.044796
0.736383 0.595390 0.044441
0.741966 0.597251 0.043918
0.739055 0.588809 0.044317
0.742469 0.588023 0.044024
0.751017 0.593271 0.043171
0.755572 0.593704 0.042750
0.754307 0.587340 0.042956
0.757854 0.586573 0.042638
0.765859 0.590843 0.041837
0.774215 0.595381 0.040997
0.783915 0.601287 0.040011
0.789905 0.602934 0.039424
0.789224 0.597207 0.039552
0.792635 0.595975 0.039237
0.798575 0.597436 0.038651
0.802577 0.596764 0.038271
0.806826 0.596320 0.037864
0.811127 0.595895 0.037451
0.817260 0.597329 0.036842
0.824969 0.600307 0.036066
0.833486 0.604008 0.035206
0.837210 0.602788 0.034858
0.839114 0.599744 0.034705
0.840128 0.595845 0.034650
0.844820 0.595576 0.034206
0.851986 0.597677 0.033504
0.856444 0.597117 0.033093
0.857216 0.593046 0.033079
0.859351 0.590310 0.032925
0.864482 0.590401 0.032462
0.862754 0.584142 0.032729
0.866319 0.582831 0.032446
0.868143 0.579959 0.032355
0.870650 0.577750 0.032201
0.881332 0.582865 0.031201
0.891662 0.587586 0.030252
0.904255 0.594216 0.029083
0.913723 0.598033 0.028255
0.917028 0.596500 0.028083
0.921849 0.596308 0.027768
0.926330 0.595855 0.027502
0.927966 0.593049 0.027544
0.928005 0.588988 0.027762
0.911273 0.571162 0.029702
0.240148 0.592900 0.062157
0.240746 0.602460 0.061495
0.242309 0.605802 0.061184
0.244603 0.604137 0.061160
0.247081 0.601222 0.061218
0.248637 0.605719 0.060870
0.250261 0.610245 0.060529
0.253211 0.604054 0.060802
0.255920 0.599811 0.060976
0.258084 0.600514 0.060880
0.260237 0.601639 0.060768
0.262474 0.602273 0.060693
0.264829 0.602002 0.060677
0.267181 0.601983 0.060655
0.269459 0.603050 0.060578
0.271819 0.603471 0.060544
0.274160 0.604410 0.060487
0.276623 0.604012 0.060511
0.279138 0.603002 0.060576
0.281585 0.603098 0.060582
0.284028 0.603464 0.060576
0.286436 0.604717 0.060523
0.288930 0.604621 0.060549
0.291423 0.604657 0.060571
0.294013 0.602435 0.060722
0.296705 0.596784 0.061069
0.299008 0.602295 0.060783
0.301372 0.607559 0.060513
0.303883 0.608247 0.060502
0.306373 0.610635 0.060395
0.308883 0.613321 0.060271
0.311477 0.606980 0.060656
0.316510 0.604262 0.060859
0.319018 0.604622 0.060861
0.324047 0.605856 0.060831
0.326537 0.605103 0.060890
0.329020 0.604457 0.060942
0.331437 0.601969 0.061094
0.334054 0.605739 0.060892
0.336565 0.606093 0.060880
0.339073 0.606362 0.060870
0.341654 0.608070 0.060777
0.344229 0.609426 0.060701
0.346527 0.605976 0.060892
0.348875 0.603826 0.061007
0.351382 0.604294 0.060973
0.353951 0.605552 0.060892
0.356276 0.603578 0.060989
0.358672 0.602694 0.061023
0.361128 0.602597 0.061010
0.363786 0.604699 0.060870
0.366479 0.606950 0.060719
0.369049 0.607798 0.060645
0.371527 0.607717 0.060619
0.374431 0.611447 0.060377
0.376220 0.605294 0.060689
0.378588 0.604397 0.060703
0.381074 0.604496 0.060657
0.383585 0.604769 0.060599
0.386125 0.605229 0.060529
0.388694 0.605858 0.060445
0.391169 0.605782 0.060400
0.393551 0.605068 0.060388
0.396226 0.606289 0.060264
0.398788 0.606709 0.060183
0.401250 0.606476 0.060137
0.403649 0.605869 0.060110
0.406102 0.605583 0.060063
0.408728 0.606267 0.059958
0.411148 0.605770 0.059918
0.413535 0.605097 0.059887
0.415724 0.603412 0.059913
0.417741 0.600910 0.059985
0.420849 0.603918 0.059733
0.424326 0.608550 0.059383
0.427176 0.609982 0.059218
0.429877 0.610639 0.059097
0.432968 0.613008 0.058872
0.434754 0.609464 0.058994
0.436967 0.607903 0.058998
0.438741 0.604514 0.059110
0.441216 0.604154 0.059040
0.444069 0.605332 0.058877
0.446402 0.604356 0.058840
0.449169 0.605095 0.058699
0.451487 0.604053 0.058664
0.453941 0.603538 0.058595
0.457952 0.608792 0.058174
0.460394 0.608116 0.058111
0.462809 0.607346 0.058052
0.466536 0.611184 0.057709
0.469796 0.613251 0.057472
0.469969 0.604744 0.057888
0.472787 0.605324 0.057740
0.475374 0.605100 0.057641
0.477573 0.603604 0.057621
0.480052 0.603023 0.057542
0.482200 0.601400 0.057527
0.485637 0.603768 0.057259
0.488757 0.605077 0.057056
0.492317 0.607632 0.056772
0.496036 0.610552 0.056461
0.498935 0.610988 0.056307
0.499707 0.605314 0.056545
0.502496 0.605454 0.056408
0.504985 0.604728 0.056326
0.507815 0.604930 0.056182
0.510478 0.604652 0.056069
0.513099 0.604246 0.055962
0.515899 0.604292 0.055824
0.518831 0.604652 0.055664
0.521869 0.605247 0.055487
0.525041 0.606138 0.055288
0.527868 0.606122 0.055147
0.530546 0.605719 0.055031
0.533017 0.604802 0.054949
0.535257 0.603330 0.054903
0.537443 0.601745 0.054864
0.540227 0.601563 0.054728
0.544742 0.605329 0.054320
0.548485 0.607229 0.054037
0.552739 0.610197 0.053677
0.558379 0.616129 0.053108
0.556290 0.605024 0.053722
0.559047 0.604608 0.053592
0.562444 0.605540 0.053365
0.564596 0.603804 0.053324
0.567188 0.602999 0.053217
0.570427 0.603515 0.053014
0.573089 0.602820 0.052895
0.575883 0.602381 0.052757
0.579194 0.602953 0.052543
0.583658 0.605748 0.052165
0.588059 0.608330 0.051799
0.589958 0.606027 0.051787
0.591005 0.602132 0.051892
0.593248 0.600540 0.051826
0.596071 0.600033 0.051678
0.599403 0.600443 0.051460
0.603525 0.602250 0.051134
0.607209 0.603206 0.050868
0.609868 0.602290 0.050741
0.612537 0.601386 0.050611
0.616494 0.602710 0.050308
0.618603 0.600799 0.050250
0.622394 0.601763 0.049968
0.625101 0.600850 0.049828
0.628364 0.600856 0.049614
0.631745 0.601024 0.049384
0.634620 0.600334 0.049218
0.638076 0.600566 0.048977
0.641258 0.600326 0.048769
0.644018 0.599390 0.048613
0.653107 0.608362 0.047654
0.658838 0.611911 0.047124
0.661195 0.610174 0.047019
0.663307 0.608065 0.046941
0.664529 0.604626 0.046971
0.664669 0.599607 0.047132
0.666647 0.597367 0.047061
0.674843 0.604223 0.046222
0.675248 0.599636 0.046340
0.678689 0.599455 0.046083
0.681847 0.598838 0.045858
0.684905 0.598059 0.045644
0.687276 0.596301 0.045510
0.689884 0.594868 0.045344
0.697994 0.600930 0.044516
0.706682 0.607619 0.043619
0.710870 0.608118 0.043261
0.708166 0.599434 0.043720
0.710583 0.597599 0.043566
0.713570 0.596498 0.043340
0.716136 0.594837 0.043162
0.720471 0.595421 0.042772
0.725491 0.596819 0.042300
0.729531 0.596921 0.041941
0.733556 0.596960 0.041581
0.733617 0.592090 0.041681
0.741205 0.596419 0.040901
0.740145 0.590209 0.041124
0.745247 0.591421 0.040628
0.751791 0.594268 0.039964
0.752051 0.589665 0.040024
0.751270 0.583898 0.040200
0.756707 0.585333 0.039657
0.765168 0.590131 0.038764
0.770399 0.591157 0.038242
0.770424 0.586312 0.038314
0.780144 0.592223 0.037275
0.792388 0.600739 0.035947
0.791344 0.594646 0.036136
0.797024 0.595840 0.035557
0.802109 0.596337 0.035045
0.805781 0.595290 0.034693
0.810636 0.595456 0.034207
0.813529 0.593549 0.033943
0.819166 0.594446 0.033369
0.827790 0.598316 0.032459
0.834028 0.599681 0.031821
0.835645 0.596385 0.031708
0.834805 0.590697 0.031874
0.836075 0.587143 0.031804
0.843492 0.589576 0.031047
0.848297 0.589434 0.030589
0.852590 0.588787 0.030194
0.859286 0.590393 0.029537
0.856365 0.582991 0.029962
0.854807 0.576971 0.030241
0.864441 0.581294 0.029280
0.871692 0.583376 0.028595
0.873127 0.580189 0.028568
0.876656 0.578928 0.028318
0.887864 0.584481 0.027232
0.900926 0.591574 0.025958
0.911399 0.596312 0.024986
0.914119 0.594311 0.024882
0.918729 0.593981 0.024584
0.924272 0.594471 0.024201
0.931872 0.596710 0.023610
0.936170 0.596191 0.023394
0.922938 0.581214 0.025079
0.238748 0.603380 0.059304
0.240744 0.603260 0.059167
0.242601 0.604399 0.058965
0.244975 0.602003 0.058986
0.247610 0.597712 0.059132
0.249220 0.601588 0.058795
0.251013 0.604480 0.058528
0.253581 0.601244 0.058642
0.255949 0.599811 0.058657
0.258039 0.601093 0.058515
0.260254 0.601544 0.058434
0.262570 0.601291 0.058404
0.264851 0.601645 0.058346
0.267154 0.602041 0.058293
0.269309 0.604429 0.058125
0.271798 0.603258 0.058182
0.274180 0.603552 0.058156
0.276469 0.605400 0.058040
0.279089 0.602848 0.058200
0.281525 0.603023 0.058197
0.283969 0.603262 0.058194
0.286395 0.604077 0.058160
0.288909 0.603423 0.058218
0.291395 0.603418 0.058240
0.293899 0.603102 0.058282
0.296572 0.598053 0.058616
0.298867 0.603888 0.058284
0.301325 0.605700 0.058199
0.303808 0.607201 0.058134
0.306268 0.611034 0.057926
0.308805 0.611471 0.057926
0.311376 0.607252 0.058209
0.316411 0.604306 0.058436
0.318918 0.604556 0.058443
0.323903 0.603204 0.058563
0.326399 0.603283 0.058575
0.328897 0.603485 0.058577
0.331392 0.603583 0.058582
0.333846 0.602613 0.058651
0.336448 0.605552 0.058480
0.338950 0.605720 0.058474
0.341540 0.607654 0.058359
0.344128 0.609269 0.058260
0.346410 0.605519 0.058484
0.348839 0.604637 0.058532
0.351301 0.604393 0.058538
0.353802 0.604709 0.058507
0.356197 0.603663 0.058556
0.358586 0.602676 0.058599
0.360983 0.601887 0.058628
0.363670 0.604323 0.058457
0.366350 0.606460 0.058302
0.368929 0.607406 0.058216
0.371525 0.608434 0.058123
0.374167 0.609783 0.058007
0.376219 0.605941 0.058205
0.378695 0.605904 0.058169
0.380931 0.603951 0.058247
0.383532 0.604927 0.058143
0.385933 0.604348 0.058133
0.388660 0.606128 0.057974
0.391067 0.605564 0.057957
0.393663 0.606289 0.057859
0.396161 0.606322 0.057800
0.398666 0.606375 0.057738
0.401155 0.606315 0.057681
0.403624 0.606118 0.057629
0.406068 0.605772 0.057585
0.408553 0.605659 0.057524
0.411146 0.606120 0.057425
0.413438 0.604930 0.057427
0.415645 0.603338 0.057453
0.417194 0.598453 0.057684
0.421371 0.606827 0.057077
0.424594 0.610165 0.056785
0.427201 0.610410 0.056685
0.430261 0.612717 0.056453
0.432819 0.612627 0.056371
0.434720 0.609600 0.056474
0.436109 0.604456 0.056713
0.438457 0.603576 0.056677
0.440914 0.603163 0.056610
0.443571 0.603561 0.056488
0.446498 0.604995 0.056297
0.448962 0.604535 0.056227
0.451281 0.603510 0.056193
0.453819 0.603322 0.056102
0.457279 0.606541 0.055786
0.460222 0.607731 0.055600
0.463219 0.609050 0.055404
0.466376 0.610859 0.055174
0.469704 0.613171 0.054907
0.469805 0.604416 0.055376
0.471988 0.602881 0.055364
0.475419 0.605475 0.055074
0.477863 0.604765 0.055003
0.479778 0.602373 0.055046
0.482129 0.601396 0.054991
0.487354 0.609273 0.054333
0.490484 0.610531 0.054122
0.492830 0.609381 0.054074
0.496152 0.611111 0.053826
0.498772 0.610731 0.053722
0.499676 0.605439 0.053957
0.502095 0.604538 0.053888
0.504894 0.604687 0.053744
0.507366 0.603916 0.053663
0.510170 0.604032 0.053519
0.513148 0.604585 0.053342
0.516007 0.604782 0.053189
0.518882 0.604993 0.053033
0.521313 0.604040 0.052958
0.524903 0.605999 0.052674
0.527580 0.605615 0.052555
0.530311 0.605350 0.052427
0.532895 0.604713 0.052324
0.535181 0.603353 0.052272
0.537231 0.601448 0.052259
0.541020 0.603608 0.051948
0.544961 0.606036 0.051614
0.548642 0.607787 0.051326
0.552848 0.610646 0.050954
0.555548 0.610080 0.050833
0.556234 0.605103 0.051041
0.558844 0.604371 0.050931
0.562082 0.604971 0.050719
0.565058 0.604976 0.050550
0.567367 0.603569 0.050487
0.569621 0.602054 0.050430
0.572204 0.601218 0.050320
0.575427 0.601660 0.050111
0.578717 0.602199 0.049891
0.583360 0.605357 0.049465
0.587173 0.606805 0.049168
0.590745 0.607730 0.048908
0.593441 0.606946 0.048781
0.598309 0.610228 0.048329
0.601303 0.609932 0.048157
0.602271 0.605895 0.048282
0.603622 0.602612 0.048347
0.606835 0.602717 0.048137
0.609738 0.602243 0.047972
0.612280 0.601115 0.047858
0.615103 0.600470 0.047702
0.618872 0.601439 0.047411
0.622926 0.602845 0.047080
0.624723 0.600388 0.047066
0.628779 0.601720 0.046733
0.631519 0.600821 0.046584
0.634223 0.599854 0.046437
0.638139 0.600834 0.046123
0.640759 0.599691 0.045985
0.643549 0.598808 0.045823
0.649268 0.602506 0.045262
0.655412 0.606755 0.044646
0.662245 0.611946 0.043939
0.663746 0.608888 0.043947
0.665056 0.605572 0.043976
0.664883 0.600074 0.044197
0.668551 0.600322 0.043907
0.673092 0.601807 0.043501
0.674856 0.599209 0.043458
0.678291 0.599021 0.043193
0.681768 0.598861 0.042921
0.684630 0.597803 0.042726
0.687185 0.596302 0.042569
0.689549 0.594530 0.042433
0.697699 0.600650 0.041555
0.703295 0.603163 0.041003
0.707387 0.603575 0.040643
0.709088 0.600770 0.040583
0.711180 0.598492 0.040469
0.713228 0.596160 0.040358
0.716816 0.595815 0.040050
0.720832 0.595982 0.039686
0.725314 0.596692 0.039262
0.729284 0.596706 0.038900
0.732508 0.595752 0.038628
0.737682 0.597166 0.038111
0.739768 0.594756 0.037975
0.743661 0.594523 0.037612
0.746641 0.593162 0.037359
0.748755 0.590759 0.037210
0.747460 0.584367 0.037475
0.749928 0.582413 0.037276
0.757690 0.586529 0.036427
0.762759 0.587460 0.035906
0.769562 0.590280 0.035173
0.778075 0.594909 0.034232
0.782229 0.594590 0.033819
0.790619 0.598866 0.032893
0.792665 0.596140 0.032733
0.796360 0.595191 0.032373
0.801970 0.596253 0.031782
0.805467 0.595025 0.031444
0.809324 0.594154 0.031064
0.814800 0.594932 0.030490
0.815548 0.590815 0.030484
0.821446 0.591962 0.029861
0.829046 0.594759 0.029039
0.832605 0.593449 0.028702
0.832906 0.588920 0.028756
0.835148 0.586340 0.028582
0.837985 0.584359 0.028342
0.843689 0.585138 0.027766
0.863399 0.599184 0.025538
0.865083 0.595993 0.025454
0.861463 0.587900 0.026003
0.864902 0.586465 0.025726
0.875028 0.591172 0.024672
0.883446 0.594243 0.023831
0.888624 0.594345 0.023382
0.893107 0.593830 0.023026
0.900134 0.595582 0.022388
0.907243 0.597388 0.021754
0.910091 0.595475 0.021629
0.913001 0.593669 0.021510
0.918248 0.593912 0.021136
0.924361 0.594910 0.020679
0.928031 0.593867 0.020518
0.930880 0.592187 0.020465
0.941350 0.596875 0.019563
0.237625 0.612015 0.056483
0.240496 0.605834 0.056724
0.243382 0.599466 0.056991
0.245872 0.595962 0.057086
0.247453 0.599531 0.056736
0.249056 0.603432 0.056373
0.250678 0.607696 0.055995
0.253641 0.601109 0.056335
0.255868 0.600813 0.056275
0.258069 0.601010 0.056192
0.260141 0.602716 0.056020
0.262541 0.601578 0.056043
0.264876 0.601267 0.056021
0.267037 0.603094 0.055866
0.269408 0.602954 0.055849
0.271762 0.603232 0.055811
0.274176 0.603022 0.055812
0.276596 0.602917 0.055813
0.278996 0.603324 0.055785
0.281372 0.604370 0.055720
0.283821 0.604557 0.055716
0.286326 0.603916 0.055770
0.288816 0.603655 0.055803
0.291335 0.602861 0.055874
0.293843 0.602280 0.055933
0.296396 0.600424 0.056077
0.298788 0.603404 0.055905
0.301247 0.604977 0.055826
0.303720 0.606678 0.055739
0.306186 0.609869 0.055554
0.308694 0.612165 0.055429
0.311273 0.607283 0.055774
0.313801 0.604655 0.055969
0.316309 0.604609 0.055994
0.318822 0.605433 0.055961
0.323786 0.602294 0.056204
0.326280 0.602444 0.056209
0.328772 0.602531 0.056217
0.331214 0.601074 0.056323
0.333788 0.603758 0.056157
0.336297 0.604251 0.056131
0.338817 0.604936 0.056090
0.341419 0.607173 0.055945
0.344050 0.609585 0.055787
0.346270 0.604744 0.056099
0.348741 0.604551 0.056105
0.351214 0.604442 0.056102
0.353743 0.605130 0.056045
0.356201 0.604837 0.056049
0.358282 0.600057 0.056344
0.361035 0.603464 0.056100
0.363655 0.605082 0.055971
0.366392 0.607751 0.055770
0.368959 0.608516 0.055690
0.371621 0.610103 0.055554
0.374154 0.610396 0.055500
0.376239 0.606801 0.055699
0.378414 0.604226 0.055828
0.381076 0.605714 0.055688
0.383329 0.603956 0.055758
0.386160 0.606590 0.055536
0.388724 0.607116 0.055451
0.391221 0.607141 0.055396
0.393688 0.606947 0.055353
0.396080 0.606262 0.055340
0.398520 0.605906 0.055303
0.401120 0.606534 0.055198
0.403525 0.605948 0.055172
0.405969 0.605602 0.055127
0.408465 0.605547 0.055061
0.410891 0.605099 0.055019
0.413418 0.605189 0.054938
0.415614 0.603527 0.054974
0.418119 0.603497 0.054897
0.421252 0.606571 0.054607
0.424199 0.608575 0.054387
0.427104 0.610264 0.054186
0.429542 0.609695 0.054137
0.432767 0.612692 0.053841
0.434149 0.607362 0.054115
0.436441 0.606185 0.054102
0.438336 0.603341 0.054203
0.440865 0.603233 0.054113
0.443646 0.604133 0.053952
0.446439 0.605026 0.053789
0.448845 0.604334 0.053735
0.451147 0.603245 0.053706
0.453657 0.602960 0.053620
0.456767 0.604886 0.053377
0.460014 0.607219 0.053102
0.463115 0.608921 0.052869
0.466544 0.611691 0.052558
0.468819 0.610348 0.052537
0.469794 0.604612 0.052829
0.472135 0.603605 0.052783
0.474590 0.602978 0.052708
0.478207 0.606106 0.052361
0.480573 0.605127 0.052309
0.482636 0.603205 0.052323
0.486500 0.606867 0.051930
0.489084 0.606507 0.051828
0.492245 0.607854 0.051599
0.495733 0.610099 0.051301
0.497686 0.607804 0.051337
0.499721 0.605784 0.051351
0.502384 0.605565 0.051231
0.504561 0.603978 0.051212
0.507090 0.603372 0.051118
0.510429 0.604943 0.050860
0.513500 0.605730 0.050658
0.516767 0.606982 0.050419
0.519072 0.605692 0.050370
0.522037 0.606092 0.050192
0.525138 0.606796 0.049989
0.527397 0.605368 0.049948
0.530106 0.605055 0.049819
0.532826 0.604751 0.049689
0.535183 0.603561 0.049626
0.537727 0.602819 0.049527
0.540853 0.603423 0.049321
0.545849 0.608275 0.048778
0.549568 0.610089 0.048471
0.552470 0.610003 0.048312
0.556494 0.612374 0.047955
0.556423 0.605717 0.048316
0.558896 0.604684 0.048228
0.561646 0.604239 0.048092
0.564736 0.604496 0.047897
0.567398 0.603830 0.047775
0.569539 0.602081 0.047739
0.571849 0.600689 0.047673
0.576762 0.604535 0.047175
0.580617 0.606167 0.046855
0.583391 0.605608 0.046713
0.586648 0.605976 0.046493
0.589908 0.606313 0.046272
0.595629 0.611289 0.045658
0.599887 0.613380 0.045281
0.602348 0.612061 0.045190
0.604132 0.609497 0.045203
0.604434 0.604269 0.045443
0.606444 0.602195 0.045413
0.609226 0.601512 0.045262
0.612393 0.601490 0.045051
0.615215 0.600840 0.044891
0.618705 0.601326 0.044630
0.621792 0.601085 0.044429
0.625717 0.602232 0.044102
0.628368 0.601202 0.043964
0.631431 0.600844 0.043764
0.634945 0.601198 0.043496
0.638176 0.601056 0.043269
0.640543 0.599504 0.043166
0.643365 0.598674 0.042996
0.649449 0.602945 0.042354
0.655460 0.606983 0.041725
0.659195 0.607411 0.041423
0.662461 0.607084 0.041186
0.659052 0.596674 0.041890
0.663850 0.598677 0.041431
0.668213 0.599964 0.041033
0.672601 0.601228 0.040630
0.675301 0.599988 0.040462
0.678140 0.598937 0.040271
0.681496 0.598603 0.040008
0.684454 0.597681 0.039796
0.687307 0.596593 0.039597
0.693444 0.600017 0.038948
0.695781 0.598149 0.038815
0.698290 0.596512 0.038655
0.705340 0.600945 0.037880
0.709217 0.601049 0.037533
0.711909 0.599553 0.037342
0.714760 0.598253 0.037127
0.715811 0.594617 0.037148
0.719567 0.594462 0.036806
0.724563 0.595834 0.036298
0.730682 0.598543 0.035641
0.730582 0.593448 0.035801
0.737561 0.597099 0.035027
0.744974 0.601163 0.034196
0.745378 0.596666 0.034279
0.745097 0.591392 0.034448
0.744092 0.585318 0.034706
0.746888 0.583763 0.034467
0.752972 0.586004 0.033799
0.760553 0.589877 0.032937
0.764128 0.589076 0.032591
0.769746 0.590547 0.031981
0.779175 0.596195 0.030881
0.787174 0.600111 0.029965
0.789102 0.597263 0.029827
0.792570 0.596093 0.029489
0.797006 0.595942 0.029028
0.802035 0.596380 0.028491
0.805262 0.594869 0.028183
0.811600 0.596592 0.027480
0.817933 0.598236 0.026781
0.819958 0.595400 0.026628
0.823077 0.593688 0.026337
0.828007 0.593794 0.025821
0.832487 0.593416 0.025365
0.838441 0.594469 0.024727
0.845738 0.596784 0.023926
0.850895 0.596961 0.023400
0.855517 0.596597 0.022946
0.859253 0.595380 0.022610
0.863353 0.594511 0.022236
0.866973 0.593196 0.021929
0.871272 0.592524 0.021547
0.878143 0.594215 0.020857
0.887749 0.598357 0.019842
0.889443 0.595307 0.019815
0.891801 0.592909 0.019717
0.899797 0.595548 0.018941
0.907759 0.598125 0.018185
0.909688 0.595431 0.018179
0.913427 0.594362 0.017967
0.918814 0.594744 0.017570
0.923329 0.594406 0.017294
0.927528 0.593837 0.017072
0.930870 0.592592 0.016969
0.937535 0.594155 0.016485
0.239406 0.600620 0.054955
0.240532 0.606431 0.054398
0.243780 0.597341 0.054871
0.245845 0.596872 0.054765
0.247528 0.599595 0.054450
0.249250 0.602446 0.054134
0.250699 0.608019 0.053639
0.253764 0.600451 0.054069
0.255952 0.600380 0.053987
0.258155 0.600430 0.053907
0.260314 0.601182 0.053787
0.262554 0.601461 0.053710
0.264866 0.601289 0.053673
0.267168 0.601458 0.053621
0.269445 0.602199 0.053537
0.271806 0.602257 0.053508
0.274144 0.602851 0.053449
0.276520 0.603245 0.053410
0.278950 0.603123 0.053413
0.281316 0.604208 0.053336
0.283753 0.604479 0.053322
0.286266 0.603602 0.053393
0.288760 0.603116 0.053440
0.291227 0.603318 0.053441
0.293761 0.602070 0.053547
0.296376 0.598364 0.053828
0.298651 0.604686 0.053404
0.301125 0.605799 0.053348
0.303628 0.606225 0.053342
0.306080 0.610036 0.053097
0.308584 0.612572 0.052943
0.311135 0.611907 0.053013
0.313695 0.604963 0.053523
0.323681 0.602274 0.053787
0.326166 0.602016 0.053820
0.328728 0.604826 0.053636
0.331179 0.603286 0.053754
0.333719 0.604698 0.053664
0.336265 0.605972 0.053580
0.338783 0.606408 0.053553
0.341224 0.605271 0.053633
0.344146 0.613156 0.053080
0.346151 0.604379 0.053689
0.348619 0.604148 0.053698
0.351135 0.604669 0.053651
0.353550 0.603769 0.053701
0.356073 0.604377 0.053642
0.358392 0.602475 0.053757
0.360816 0.601978 0.053770
0.363619 0.605651 0.053488
0.366327 0.607984 0.053297
0.368991 0.609683 0.053148
0.371662 0.611292 0.053001
0.374229 0.611829 0.052927
0.376121 0.606492 0.053264
0.378535 0.605898 0.053265
0.380830 0.604394 0.053327
0.383361 0.604804 0.053251
0.386147 0.607069 0.053042
0.388615 0.606892 0.053002
0.391125 0.607003 0.052939
0.393603 0.606882 0.052891
0.396053 0.606572 0.052853
0.398427 0.605784 0.052846
0.400818 0.605128 0.052828
0.403664 0.607206 0.052612
0.405845 0.605296 0.052679
0.408305 0.605045 0.052625
0.411024 0.606216 0.052467
0.413235 0.604579 0.052508
0.415710 0.604390 0.052443
0.418095 0.603724 0.052410
0.420909 0.605207 0.052219
0.424122 0.608532 0.051891
0.425926 0.605002 0.052060
0.429715 0.610811 0.051545
0.433096 0.614496 0.051182
0.433938 0.606724 0.051657
0.436384 0.606229 0.051598
0.438937 0.606183 0.051503
0.441320 0.605410 0.051459
0.443758 0.604868 0.051398
0.446344 0.604914 0.051290
0.449063 0.605457 0.051144
0.451082 0.603256 0.051201
0.453471 0.602513 0.051147
0.456997 0.605993 0.050774
0.459976 0.607330 0.050560
0.463253 0.609661 0.050268
0.466332 0.611189 0.050034
0.468806 0.610546 0.049963
0.470007 0.605573 0.050221
0.472483 0.604999 0.050143
0.475112 0.604925 0.050025
0.479089 0.609185 0.049571
0.481169 0.607249 0.049593
0.483276 0.605432 0.049604
0.485335 0.603500 0.049624
0.488077 0.603672 0.049479
0.490410 0.602595 0.049430
0.492951 0.602134 0.049331
0.496112 0.603459 0.049090
0.499727 0.606019 0.048750
0.503459 0.608805 0.048388
0.506911 0.610707 0.048094
0.509544 0.610291 0.047982
0.511505 0.608052 0.048014
0.514421 0.608388 0.047839
0.517609 0.609401 0.047608
0.521033 0.610967 0.047330
0.524219 0.611863 0.047103
0.527435 0.612782 0.046872
0.527520 0.605882 0.047279
0.530064 0.605158 0.047181
0.532786 0.604858 0.047047
0.535315 0.604080 0.046951
0.537769 0.603121 0.046868
0.540742 0.603365 0.046684
0.546109 0.609075 0.046040
0.549275 0.609627 0.045824
0.552831 0.611012 0.045536
0.554760 0.608740 0.045554
0.556737 0.606600 0.045561
0.558761 0.604589 0.045556
0.561316 0.603732 0.045452
0.564283 0.603737 0.045271
0.567145 0.603497 0.045110
0.569557 0.602310 0.045029
0.571845 0.600872 0.044968
0.577721 0.606656 0.044275
0.580960 0.607038 0.044049
0.583172 0.605369 0.044002
0.583166 0.599401 0.044334
0.587093 0.601094 0.043986
0.594924 0.610137 0.042979
0.599093 0.612076 0.042599
0.601982 0.611565 0.042435
0.603938 0.609323 0.042426
0.604815 0.605142 0.042591
0.605868 0.601338 0.042723
0.608830 0.600983 0.042539
0.612375 0.601633 0.042259
0.615486 0.601484 0.042049
0.618514 0.601168 0.041852
0.620967 0.599848 0.041746
0.624362 0.600114 0.041488
0.628125 0.600961 0.041172
0.631336 0.600849 0.040943
0.634789 0.601103 0.040675
0.637990 0.600915 0.040445
0.640461 0.599530 0.040327
0.641932 0.596557 0.040359
0.650483 0.604718 0.039309
0.654259 0.605269 0.038989
0.654470 0.600295 0.039207
0.655953 0.597324 0.039228
0.660331 0.598741 0.038812
0.660966 0.594512 0.038953
0.668034 0.599835 0.038136
0.675883 0.606159 0.037207
0.675149 0.599897 0.037543
0.678413 0.599453 0.037287
0.681122 0.598194 0.037109
0.684679 0.598116 0.036807
0.687869 0.597492 0.036555
0.690190 0.595644 0.036426
0.694118 0.595989 0.036064
0.698683 0.597149 0.035608
0.702924 0.597815 0.035198
0.709627 0.601693 0.034437
0.714699 0.603315 0.033908
0.718866 0.603687 0.033505
0.721112 0.601536 0.033371
0.720356 0.595555 0.033653
0.723021 0.593968 0.033452
0.726783 0.593743 0.033095
0.733984 0.597742 0.032257
0.738906 0.598824 0.031736
0.743250 0.599139 0.031293
0.746110 0.597616 0.031053
0.745076 0.591431 0.031346
0.745527 0.587075 0.031429
0.747919 0.585029 0.031243
0.757320 0.591101 0.030097
0.762980 0.592718 0.029462
0.766066 0.591333 0.029176
0.776565 0.598280 0.027883
0.782562 0.600026 0.027201
0.784096 0.596761 0.027122
0.791900 0.600377 0.026195
0.793386 0.597029 0.026120
0.798396 0.597487 0.025570
0.801364 0.595720 0.025294
0.806423 0.596147 0.024738
0.812570 0.597662 0.024038
0.817492 0.597842 0.023503
0.822134 0.597693 0.023008
0.825814 0.596534 0.022642
0.829397 0.595266 0.022293
0.833588 0.594595 0.021866
0.838147 0.594269 0.021394
0.845729 0.596875 0.020529
0.850365 0.596557 0.020059
0.857357 0.598483 0.019287
0.861931 0.598057 0.018839
0.866431 0.597555 0.018410
0.870619 0.596759 0.018030
0.874904 0.596058 0.017646
0.877619 0.593928 0.017477
0.886004 0.596984 0.016585
0.889881 0.595931 0.016288
0.893625 0.594785 0.016021
0.902152 0.597902 0.015154
0.906577 0.597380 0.014828
0.910790 0.596701 0.014544
0.914863 0.595934 0.014292
0.917745 0.594184 0.014206
0.922626 0.594188 0.013882
0.926607 0.593462 0.013688
0.931855 0.593838 0.013352
0.935198 0.592663 0.013269
0.240712 0.592515 0.053292
0.241547 0.600105 0.052575
0.243501 0.600189 0.052411
0.245622 0.599288 0.052330
0.247556 0.600051 0.052138
0.249476 0.601246 0.051925
0.251304 0.603550 0.051639
0.253866 0.600019 0.051796
0.256114 0.599285 0.051756
0.258317 0.599189 0.051679
0.260437 0.600157 0.051533
0.262628 0.600771 0.051423
0.264916 0.600698 0.051374
0.267191 0.601029 0.051302
0.269499 0.601277 0.051246
0.271822 0.601623 0.051190
0.274083 0.603060 0.051059
0.276502 0.602775 0.051064
0.278931 0.602519 0.051074
0.281284 0.603668 0.050983
0.283710 0.603975 0.050961
0.286211 0.603168 0.051027
0.288706 0.602526 0.051084
0.291163 0.602770 0.051078
0.293628 0.603069 0.051071
0.296289 0.598148 0.051458
0.298515 0.605869 0.050898
0.300994 0.606928 0.050839
0.303494 0.607608 0.050809
0.305976 0.609838 0.050664
0.308479 0.612288 0.050503
0.311036 0.610545 0.050655
0.313585 0.605096 0.051084
0.316095 0.605036 0.051109
0.318594 0.603553 0.051238
0.321106 0.604594 0.051178
0.323609 0.604506 0.051200
0.328585 0.603476 0.051303
0.330962 0.599714 0.051593
0.333614 0.604742 0.051226
0.336178 0.606427 0.051105
0.338655 0.605891 0.051148
0.341291 0.608695 0.050939
0.343897 0.610490 0.050802
0.346159 0.606221 0.051115
0.348501 0.603857 0.051283
0.350961 0.603569 0.051294
0.353425 0.603396 0.051293
0.355841 0.602637 0.051333
0.358343 0.603015 0.051285
0.360780 0.602626 0.051292
0.363460 0.604918 0.051095
0.366164 0.607242 0.050893
0.368757 0.608262 0.050785
0.371533 0.610915 0.050552
0.374121 0.611642 0.050461
0.376080 0.606880 0.050778
0.378387 0.605374 0.050849
0.380846 0.605183 0.050818
0.383453 0.606143 0.050697
0.386004 0.606611 0.050611
0.388464 0.606387 0.050574
0.390900 0.605993 0.050548
0.393456 0.606417 0.050457
0.395900 0.606075 0.050421
0.398339 0.605709 0.050385
0.401159 0.607687 0.050167
0.403538 0.606903 0.050158
0.405759 0.605226 0.050214
0.408211 0.604933 0.050162
0.410897 0.605918 0.050010
0.413536 0.606578 0.049881
0.415607 0.604223 0.049981
0.417855 0.602862 0.050002
0.420893 0.605476 0.049715
0.423650 0.606586 0.049541
0.426759 0.609287 0.049240
0.430451 0.614554 0.048737
0.433142 0.615025 0.048604
0.433714 0.606036 0.049208
0.436200 0.605727 0.049134
0.438703 0.605483 0.049052
0.441228 0.605313 0.048962
0.443761 0.605160 0.048869
0.446326 0.605117 0.048766
0.448845 0.604871 0.048676
0.450999 0.603200 0.048699
0.453119 0.601439 0.048727
0.457748 0.609041 0.048005
0.460574 0.609765 0.047829
0.463381 0.610373 0.047661
0.465629 0.608964 0.047653
0.467886 0.607608 0.047640
0.471018 0.609249 0.047382
0.474141 0.610781 0.047131
0.477974 0.614571 0.046693
0.480952 0.615449 0.046489
0.483812 0.615892 0.046320
0.482957 0.604660 0.047110
0.485359 0.603799 0.047047
0.487893 0.603337 0.046949
0.490642 0.603510 0.046797
0.493279 0.603320 0.046674
0.494710 0.599614 0.046844
0.499531 0.605677 0.046193
0.503984 0.610498 0.045642
0.507307 0.612023 0.045366
0.509504 0.610400 0.045353
0.511745 0.608912 0.045328
0.514188 0.607980 0.045255
0.517553 0.609465 0.044974
0.520940 0.610940 0.044691
0.524686 0.613264 0.044332
0.526705 0.611154 0.044354
0.527459 0.605935 0.044645
0.529980 0.605157 0.044550
0.532742 0.604956 0.044404
0.535355 0.604379 0.044289
0.537966 0.603786 0.044174
0.540548 0.603115 0.044064
0.544610 0.605836 0.043651
0.548079 0.607116 0.043364
0.552001 0.609354 0.042987
0.557983 0.616069 0.042205
0.556686 0.606686 0.042868
0.558655 0.604556 0.042878
0.561222 0.603726 0.042770
0.563851 0.603019 0.042649
0.566710 0.602782 0.042483
0.569672 0.602737 0.042297
0.572142 0.601667 0.042204
0.576445 0.604280 0.041768
0.579711 0.604745 0.041527
0.581641 0.602546 0.041532
0.583333 0.599909 0.041578
0.585280 0.597793 0.041573
0.590378 0.601684 0.041000
0.597956 0.610123 0.039990
0.601145 0.610192 0.039768
0.603881 0.609399 0.039625
0.603606 0.603121 0.040007
0.605495 0.600841 0.040006
0.608416 0.600418 0.039823
0.612277 0.601631 0.039478
0.615337 0.601393 0.039270
0.618007 0.600461 0.039128
0.621186 0.600386 0.038899
0.623920 0.599532 0.038743
0.626848 0.598990 0.038553
0.631527 0.601322 0.038073
0.634430 0.600672 0.037886
0.638163 0.601348 0.037562
0.639831 0.598671 0.037574
0.641719 0.596366 0.037547
0.650557 0.604982 0.036396
0.648613 0.596644 0.036982
0.650851 0.594871 0.036892
0.653843 0.594249 0.036678
0.659940 0.598287 0.035972
0.665515 0.601431 0.035351
0.666773 0.598101 0.035408
0.675867 0.606264 0.034239
0.674766 0.599466 0.034658
0.678066 0.599076 0.034389
0.681341 0.598624 0.034122
0.684956 0.598620 0.033801
0.687864 0.597596 0.033586
0.690255 0.595840 0.033448
0.697278 0.600408 0.032604
0.699449 0.598286 0.032495
0.701903 0.596545 0.032340
0.706935 0.598218 0.031795
0.713562 0.601913 0.031012
0.719552 0.604667 0.030325
0.722709 0.603678 0.030057
0.722001 0.597734 0.030357
0.724044 0.595338 0.030247
0.730525 0.598500 0.029481
0.737535 0.602216 0.028638
0.737956 0.597725 0.028756
0.741230 0.596747 0.028455
0.744706 0.595985 0.028122
0.748405 0.595461 0.027755
0.750985 0.593580 0.027546
0.754713 0.593032 0.027170
0.756063 0.589695 0.027133
0.761767 0.591375 0.026469
0.775328 0.601915 0.024682
0.780303 0.602537 0.024124
0.786822 0.604824 0.023346
0.784900 0.597694 0.023766
0.788864 0.597098 0.023348
0.794574 0.598363 0.022683
0.798654 0.597810 0.022249
0.802279 0.596741 0.021879
0.804559 0.594233 0.021699
0.812586 0.597731 0.020712
0.816772 0.597153 0.020267
0.820198 0.595772 0.019930
0.826802 0.597604 0.019152
0.830553 0.596501 0.018776
0.835901 0.596979 0.018182
0.840305 0.596486 0.017724
0.847231 0.598442 0.016922
0.851397 0.597665 0.016509
0.856836 0.598105 0.015927
0.862397 0.598634 0.015338
0.866453 0.597724 0.014963
0.871038 0.597313 0.014525
0.874627 0.595981 0.014233
0.881031 0.597251 0.013569
0.885362 0.596616 0.013199
0.889547 0.595864 0.012862
0.892862 0.594357 0.012654
0.901580 0.597671 0.011734
0.906859 0.597926 0.011291
0.910435 0.596712 0.011092
0.913954 0.595491 0.010915
0.918165 0.594907 0.010661
0.921747 0.593827 0.010505
0.926073 0.593420 0.010267
0.931437 0.593920 0.009910
0.939696 0.596851 0.009194
0.240708 0.593507 0.051008
0.241828 0.599021 0.050409
0.243301 0.602509 0.049973
0.245178 0.603420 0.049747
0.247409 0.601903 0.049719
0.249037 0.605396 0.049312
0.250340 0.612071 0.048664
0.251947 0.616892 0.048171
0.254366 0.615154 0.048202
0.256681 0.614533 0.048157
0.257816 0.625445 0.047211
0.265372 0.620791 0.047386
0.267682 0.621907 0.047251
0.270250 0.620287 0.047343
0.273274 0.612898 0.047902
0.275665 0.613478 0.047834
0.278193 0.612394 0.047905
0.280322 0.617617 0.047480
0.282700 0.619704 0.047310
0.285344 0.617529 0.047485
0.287902 0.616858 0.047544
0.290475 0.615936 0.047627
0.293184 0.611683 0.047978
0.295766 0.609997 0.048127
0.298351 0.607865 0.048314
0.300897 0.606647 0.048429
0.303404 0.606802 0.048436
0.305852 0.610684 0.048148
0.308365 0.612480 0.048026
0.310943 0.608001 0.048402
0.313476 0.604324 0.048713
0.315982 0.604618 0.048709
0.318488 0.604551 0.048732
0.320980 0.603370 0.048842
0.323482 0.603589 0.048839
0.325982 0.603674 0.048846
0.328452 0.602667 0.048937
0.330878 0.600547 0.049114
0.333389 0.601473 0.049047
0.336023 0.605306 0.048748
0.338610 0.607310 0.048591
0.341226 0.609548 0.048413
0.343920 0.612883 0.048146
0.346019 0.605621 0.048715
0.348430 0.604369 0.048805
0.350836 0.603226 0.048884
0.353302 0.603076 0.048881
0.355831 0.603778 0.048808
0.358261 0.603205 0.048833
0.360651 0.602244 0.048886
0.363280 0.603999 0.048721
0.365866 0.605134 0.048601
0.368520 0.606841 0.048434
0.371400 0.610531 0.048105
0.373945 0.610880 0.048038
0.375793 0.605168 0.048453
0.378293 0.605319 0.048397
0.380762 0.605203 0.048360
0.383305 0.605660 0.048274
0.385735 0.605235 0.048256
0.388398 0.606507 0.048098
0.390751 0.605526 0.048119
0.393241 0.605520 0.048059
0.395759 0.605680 0.047983
0.398257 0.605688 0.047917
0.401023 0.607332 0.047716
0.403122 0.604880 0.047843
0.405733 0.605519 0.047718
0.408208 0.605343 0.047656
0.410798 0.605784 0.047541
0.413369 0.606083 0.047436
0.415221 0.602588 0.047638
0.417439 0.601116 0.047673
0.420729 0.605022 0.047265
0.423825 0.607789 0.046948
0.426810 0.609874 0.046683
0.430121 0.613361 0.046299
0.433043 0.614904 0.046073
0.433683 0.606217 0.046692
0.436037 0.605326 0.046664
0.438591 0.605306 0.046562
0.441143 0.605254 0.046461
0.443612 0.604839 0.046388
0.446297 0.605282 0.046241
0.448835 0.605107 0.046144
0.450559 0.601771 0.046311
0.452924 0.600966 0.046264
0.457468 0.608265 0.045528
0.461012 0.611627 0.045122
0.463343 0.610492 0.045096
0.465286 0.608008 0.045183
0.467697 0.607202 0.045126
0.470507 0.607757 0.044951
0.473283 0.608156 0.044787
0.475415 0.606396 0.044807
0.479717 0.611692 0.044215
0.484010 0.616759 0.043638
0.482887 0.604672 0.044553
0.485365 0.604044 0.044470
0.487958 0.603760 0.044355
0.490929 0.604590 0.044140
0.493212 0.603343 0.044107
0.495215 0.601296 0.044144
0.498894 0.604074 0.043751
0.503391 0.609048 0.043159
0.506853 0.610982 0.042834
0.509987 0.611936 0.042594
0.511384 0.608154 0.042779
0.513655 0.606777 0.042746
0.516345 0.606509 0.042612
0.519569 0.607605 0.042352
0.523614 0.610740 0.041904
0.526938 0.611951 0.041628
0.527231 0.605576 0.042047
0.529637 0.604522 0.041976
0.532431 0.604408 0.041818
0.535224 0.604268 0.041661
0.537712 0.603389 0.041570
0.540684 0.603632 0.041373
0.544343 0.605421 0.041029
0.547117 0.605132 0.040877
0.552688 0.611092 0.040133
0.555795 0.611428 0.039916
0.556164 0.605743 0.040270
0.558495 0.604405 0.040210
0.560875 0.603178 0.040138
0.563564 0.602605 0.040002
0.566712 0.602977 0.039773
0.569618 0.602814 0.039593
0.572204 0.601979 0.039476
0.574980 0.601518 0.039321
0.578562 0.602645 0.039008
0.581641 0.602729 0.038794
0.583541 0.600494 0.038807
0.586254 0.599845 0.038661
0.588476 0.598248 0.038608
0.594744 0.604266 0.037791
0.599999 0.608241 0.037170
0.603166 0.608262 0.036944
0.604101 0.604193 0.037128
0.605599 0.601198 0.037204
0.608248 0.600288 0.037066
0.612536 0.602254 0.036630
0.615787 0.602342 0.036383
0.619382 0.602993 0.036073
0.621752 0.601512 0.035982
0.624406 0.600510 0.035838
0.630889 0.605893 0.035021
0.636379 0.609495 0.034382
0.639702 0.609446 0.034123
0.644253 0.611355 0.033651
0.646192 0.609008 0.033629
0.646834 0.604620 0.033825
0.647981 0.601082 0.033929
0.650419 0.599588 0.033810
0.649228 0.592510 0.034298
0.653736 0.594217 0.033825
0.658759 0.596636 0.033266
0.664755 0.600425 0.032548
0.671521 0.605241 0.031706
0.672264 0.601115 0.031855
0.675083 0.600043 0.031660
0.678092 0.599228 0.031432
0.681274 0.598639 0.031173
0.685234 0.599120 0.030786
0.688307 0.598317 0.030541
0.691201 0.597247 0.030323
0.697193 0.600389 0.029608
0.700045 0.599186 0.029392
0.702246 0.597096 0.029277
0.706137 0.597246 0.028892
0.711524 0.599321 0.028270
0.717458 0.602025 0.027563
0.721958 0.602789 0.027080
0.724596 0.601119 0.026885
0.726694 0.598757 0.026770
0.732953 0.601607 0.026009
0.734561 0.598592 0.025964
0.738171 0.598050 0.025607
0.740406 0.595802 0.025459
0.744996 0.596390 0.024949
0.751571 0.599290 0.024135
0.758940 0.603030 0.023202
0.757264 0.596065 0.023637
0.761242 0.595743 0.023213
0.765694 0.595927 0.022717
0.769032 0.594795 0.022386
0.773588 0.595012 0.021872
0.780195 0.597470 0.021051
0.782843 0.595460 0.020821
0.786228 0.594252 0.020479
0.792631 0.596296 0.019690
0.798327 0.597499 0.019008
0.803574 0.598161 0.018393
0.807404 0.597276 0.017988
0.813688 0.598930 0.017224
0.816679 0.597110 0.016946
0.820815 0.596461 0.016502
0.827061 0.597931 0.015753
0.832270 0.598298 0.015161
0.837221 0.598372 0.014610
0.841869 0.598118 0.014109
0.846692 0.598013 0.013589
0.850888 0.597283 0.013167
0.854725 0.596202 0.012803
0.861017 0.597459 0.012094
0.865897 0.597350 0.011599
0.870041 0.596548 0.011218
0.876355 0.597763 0.010539
0.878584 0.595208 0.010452
0.884043 0.595636 0.009919
0.888315 0.594994 0.009567
0.893824 0.595476 0.009054
0.901397 0.597791 0.008267
0.905652 0.597171 0.007962
0.909545 0.596263 0.007722
0.913708 0.595628 0.007459
0.917644 0.594833 0.007243
0.921467 0.593983 0.007059
0.925043 0.592969 0.006924
0.932185 0.594987 0.006319
0.940717 0.598166 0.005544
0.237452 0.617158 0.046887
0.241663 0.601156 0.047996
0.243396 0.602712 0.047693
0.245115 0.604724 0.047364
0.247308 0.603445 0.047314
0.249335 0.603685 0.047151
0.250910 0.607959 0.046665
0.253393 0.605032 0.046785
0.255816 0.602718 0.046867
0.257644 0.605987 0.046494
0.259413 0.610359 0.046039
0.261874 0.608486 0.046116
0.264241 0.607705 0.046111
0.266800 0.605030 0.046275
0.268734 0.609541 0.045845
0.271179 0.608629 0.045879
0.273295 0.612085 0.045553
0.275666 0.612773 0.045468
0.278041 0.613737 0.045367
0.281167 0.603419 0.046222
0.283248 0.609255 0.045722
0.285518 0.612875 0.045414
0.287960 0.613973 0.045323
0.290572 0.611798 0.045512
0.293146 0.610241 0.045653
0.295763 0.607311 0.045911
0.298309 0.605915 0.046043
0.300845 0.604617 0.046168
0.303318 0.605765 0.046089
0.305755 0.609836 0.045764
0.308253 0.612293 0.045576
0.310813 0.609958 0.045791
0.313363 0.603561 0.046347
0.315866 0.604135 0.046316
0.318371 0.604402 0.046310
0.320891 0.605737 0.046213
0.323384 0.604675 0.046316
0.325852 0.602986 0.046470
0.328332 0.602437 0.046526
0.330716 0.598966 0.046826
0.333281 0.601608 0.046610
0.335927 0.605718 0.046269
0.338464 0.606557 0.046200
0.341034 0.607918 0.046085
0.343702 0.610901 0.045831
0.345878 0.605062 0.046313
0.348315 0.604228 0.046374
0.350762 0.603692 0.046406
0.353261 0.603940 0.046370
0.355699 0.603396 0.046397
0.358091 0.602363 0.046463
0.360435 0.600908 0.046561
0.363019 0.602228 0.046423
0.365763 0.605072 0.046154
0.369058 0.613105 0.045445
0.371721 0.614460 0.045294
0.374310 0.615027 0.045206
0.375705 0.605199 0.045993
0.378172 0.605063 0.045960
0.380692 0.605359 0.045887
0.383134 0.605016 0.045865
0.385741 0.605924 0.045735
0.388324 0.606593 0.045622
0.390657 0.605464 0.045658
0.393095 0.605100 0.045627
0.395649 0.605496 0.045529
0.398086 0.605124 0.045493
0.400666 0.605632 0.045380
0.403128 0.605392 0.045327
0.405570 0.605032 0.045283
0.408075 0.605029 0.045205
0.410537 0.604772 0.045147
0.412946 0.604227 0.045111
0.414859 0.601093 0.045297
0.417441 0.601505 0.045174
0.420903 0.606264 0.044671
0.423804 0.608048 0.044423
0.426656 0.609497 0.044201
0.430049 0.613374 0.043765
0.432822 0.614238 0.043588
0.434316 0.609355 0.043913
0.436181 0.606269 0.044079
0.438594 0.605628 0.044029
0.441088 0.605322 0.043947
0.443573 0.604971 0.043868
0.446195 0.605161 0.043738
0.448709 0.604892 0.043647
0.450910 0.603403 0.043663
0.452973 0.601420 0.043722
0.456733 0.605798 0.043209
0.460066 0.608436 0.042849
0.462571 0.607982 0.042765
0.465107 0.607633 0.042669
0.467581 0.607052 0.042592
0.470027 0.606370 0.042522
0.472285 0.605059 0.042509
0.475322 0.606331 0.042258
0.479379 0.610838 0.041709
0.483694 0.615995 0.041095
0.484174 0.608940 0.041602
0.485362 0.604266 0.041891
0.487793 0.603485 0.041820
0.490568 0.603735 0.041651
0.493151 0.603388 0.041536
0.495300 0.601764 0.041539
0.498602 0.603459 0.041230
0.502144 0.605755 0.040861
0.507026 0.611682 0.040147
0.508548 0.608217 0.040316
0.511159 0.607762 0.040200
0.512884 0.604937 0.040308
0.515116 0.603497 0.040283
0.518009 0.603778 0.040092
0.521886 0.606541 0.039661
0.526627 0.611378 0.039025
0.526859 0.604858 0.039485
0.529151 0.603535 0.039442
0.531623 0.602655 0.039354
0.534511 0.602766 0.039168
0.537533 0.603168 0.038951
0.540244 0.602807 0.038808
0.543830 0.604441 0.038465
0.548251 0.607904 0.037937
0.552843 0.611639 0.037378
0.555557 0.611099 0.037241
0.555896 0.605351 0.037624
0.558252 0.604072 0.037560
0.560720 0.603037 0.037470
0.563803 0.603299 0.037246
0.566878 0.603511 0.037025
0.569283 0.602312 0.036946
0.571677 0.601092 0.036867
0.575564 0.602878 0.036477
0.578050 0.601810 0.036378
0.581054 0.601757 0.036172
0.583701 0.600985 0.036038
0.586974 0.601405 0.035777
0.591006 0.603235 0.035365
0.593320 0.601764 0.035297
0.598833 0.606247 0.034596
0.603464 0.608983 0.034075
0.607552 0.610642 0.033662
0.608734 0.607007 0.033813
0.612055 0.607229 0.033548
0.616307 0.609058 0.033105
0.619511 0.608991 0.032864
0.622510 0.608545 0.032660
0.624891 0.607022 0.032571
0.627452 0.605806 0.032445
0.630787 0.605878 0.032175
0.634969 0.607316 0.031749
0.639293 0.608927 0.031298
0.641665 0.607313 0.031202
0.643574 0.604957 0.031188
0.645372 0.602442 0.031189
0.645322 0.597043 0.031517
0.649443 0.598204 0.031096
0.652671 0.597935 0.030834
0.653648 0.594210 0.030966
0.657042 0.594171 0.030670
0.662982 0.597899 0.029930
0.668681 0.601163 0.029234
0.676819 0.607898 0.028121
0.675126 0.600218 0.028700
0.678921 0.600527 0.028332
0.681025 0.598391 0.028251
0.686255 0.600658 0.027637
0.688875 0.599207 0.027464
0.692034 0.598490 0.027197
0.696526 0.599570 0.026705
0.700763 0.600246 0.026255
0.703902 0.599398 0.025986
0.706849 0.598271 0.025747
0.710698 0.598312 0.025356
0.714568 0.598338 0.024960
0.719767 0.600036 0.024345
0.723284 0.599512 0.024004
0.729474 0.602336 0.023227
0.729793 0.597711 0.023400
0.734637 0.598743 0.022838
0.738349 0.598322 0.022456
0.741415 0.597080 0.022177
0.743687 0.594860 0.022021
0.749021 0.596293 0.021375
0.752629 0.595614 0.021003
0.757076 0.595885 0.020496
0.761707 0.596320 0.019959
0.766521 0.596912 0.019392
0.770309 0.596282 0.018986
0.774691 0.596288 0.018486
0.780741 0.598112 0.017724
0.784135 0.596921 0.017378
0.787000 0.595129 0.017113
0.794690 0.598563 0.016100
0.798239 0.597441 0.015730
0.803893 0.598538 0.015035
0.807563 0.597485 0.014649
0.811675 0.596874 0.014196
0.817066 0.597561 0.013549
0.820068 0.595751 0.013271
0.827725 0.598666 0.012286
0.831234 0.597326 0.011939
0.837519 0.598746 0.011175
0.841852 0.598188 0.010713
0.846074 0.597507 0.010274
0.849882 0.596418 0.009904
0.853794 0.595431 0.009527
0.860236 0.596853 0.008778
0.866344 0.597925 0.008091
0.868796 0.595555 0.007960
0.870852 0.592856 0.007897
0.879806 0.596534 0.006823
0.882775 0.594708 0.006648
0.886404 0.593515 0.006389
0.894250 0.596123 0.005524
0.898821 0.595798 0.005155
0.902415 0.594637 0.004945
0.909991 0.596987 0.004171
0.912014 0.594520 0.004218
0.915848 0.593673 0.004019
0.920452 0.593523 0.003725
0.926077 0.594268 0.003302
0.929592 0.593267 0.003197
0.931966 0.591367 0.003269
0.238345 0.612029 0.045022
0.241999 0.599755 0.045872
0.243997 0.599240 0.045733
0.245608 0.601876 0.045333
0.247868 0.599889 0.045342
0.249626 0.602069 0.045001
0.251600 0.602888 0.044789
0.253775 0.602308 0.044710
0.256137 0.600318 0.044766
0.258204 0.601177 0.044583
0.260015 0.604841 0.044164
0.262215 0.605222 0.044043
0.264579 0.604197 0.044056
0.266891 0.603930 0.044013
0.269198 0.603983 0.043950
0.271406 0.605508 0.043766
0.273740 0.605869 0.043693
0.275889 0.609064 0.043377
0.278369 0.608138 0.043433
0.281234 0.601367 0.044016
0.283555 0.602897 0.043867
0.285833 0.605708 0.043610
0.288253 0.606451 0.043541
0.290621 0.608703 0.043343
0.293236 0.605678 0.043617
0.295781 0.604038 0.043771
0.298288 0.603292 0.043848
0.300756 0.603917 0.043806
0.303208 0.605748 0.043658
0.305661 0.608695 0.043412
0.308145 0.611617 0.043170
0.310679 0.612003 0.043152
0.313243 0.604652 0.043820
0.315747 0.603869 0.043906
0.318247 0.603490 0.043955
0.320770 0.605597 0.043782
0.323289 0.606238 0.043738
0.325760 0.604267 0.043924
0.328223 0.602810 0.044062
0.330646 0.600491 0.044274
0.333270 0.604641 0.043912
0.335796 0.605365 0.043851
0.338288 0.605200 0.043866
0.340814 0.605776 0.043813
0.343454 0.608415 0.043575
0.345934 0.607928 0.043611
0.348226 0.604568 0.043898
0.350686 0.604175 0.043919
0.353140 0.603758 0.043940
0.355594 0.603408 0.043952
0.357924 0.601608 0.044090
0.360276 0.600262 0.044184
0.363069 0.603878 0.043836
0.366166 0.610303 0.043234
0.368868 0.612223 0.043029
0.371408 0.612440 0.042972
0.374222 0.615117 0.042693
0.375650 0.605543 0.043503
0.378116 0.605378 0.043471
0.380516 0.604689 0.043484
0.382927 0.604127 0.043482
