ply
format ascii 1.0
comment ---
element vertex 1771
property float x
property float y
property float z
element face 0
property list uchar uint vertex_indices
end_header
0.191769 0.598882 0.482066
0.195026 0.599293 0.483169
0.198236 0.599312 0.484012
0.201418 0.599069 0.484681
0.204435 0.597952 0.484781
0.208117 0.599751 0.486749
0.211439 0.599781 0.487575
0.214873 0.600180 0.488635
0.218682 0.602025 0.490629
0.222130 0.602226 0.491556
0.224014 0.596117 0.488372
0.228749 0.601279 0.492522
0.232398 0.602010 0.493788
0.236032 0.602583 0.494951
0.239408 0.602128 0.495441
0.242293 0.599875 0.494747
0.246199 0.601220 0.496418
0.249813 0.601458 0.497364
0.253305 0.601219 0.497997
0.257052 0.601781 0.499162
0.260399 0.600979 0.499427
0.264354 0.602084 0.500961
0.268084 0.602406 0.501981
0.271606 0.602035 0.502542
0.274982 0.601201 0.502799
0.278705 0.601372 0.503732
0.282449 0.601560 0.504684
0.286150 0.601579 0.505528
0.289984 0.601930 0.506603
0.293609 0.601658 0.507264
0.298057 0.603575 0.509416
0.301473 0.602656 0.509655
0.305163 0.602444 0.510380
0.308938 0.602421 0.511242
0.313327 0.603911 0.513147
0.316835 0.603129 0.513508
0.320728 0.603276 0.514514
0.324312 0.602638 0.514989
0.328621 0.603703 0.516647
0.332272 0.603161 0.517207
0.336572 0.604093 0.518796
0.339534 0.601923 0.518245
0.344216 0.603625 0.520391
0.348256 0.603828 0.521508
0.352657 0.604772 0.523154
0.356301 0.604027 0.523631
0.359323 0.601953 0.523183
0.363523 0.602350 0.524479
0.366312 0.599801 0.523708
0.370141 0.599388 0.524452
0.374578 0.600164 0.526049
0.378556 0.599973 0.526972
0.384561 0.603694 0.530696
0.387781 0.601927 0.530523
0.393979 0.605810 0.534404
0.397174 0.603935 0.534176
0.401878 0.604852 0.535964
0.405459 0.603657 0.536244
0.408986 0.602352 0.536452
0.413689 0.603131 0.538181
0.417775 0.602762 0.539092
0.421796 0.602247 0.539907
0.426054 0.602108 0.541009
0.430473 0.602202 0.542295
0.435066 0.602540 0.543775
0.438926 0.601617 0.544341
0.444044 0.602722 0.546417
0.448960 0.603429 0.548218
0.452164 0.601351 0.547963
0.456751 0.601451 0.549340
0.463806 0.605341 0.553569
0.468031 0.604744 0.554462
0.470082 0.600812 0.552857
0.473963 0.599672 0.553359
0.480184 0.601983 0.556486
0.485222 0.602460 0.558246
0.489200 0.601338 0.558806
0.493514 0.600676 0.559729
0.498022 0.600255 0.560852
0.505104 0.603404 0.564735
0.509143 0.602214 0.565303
0.514164 0.602345 0.566905
0.518603 0.601636 0.567874
0.523555 0.601578 0.569366
0.528346 0.601256 0.570669
0.532940 0.600633 0.571754
0.537385 0.599778 0.572672
0.542892 0.600250 0.574653
0.547800 0.599899 0.576005
0.553693 0.600738 0.578321
0.561751 0.604191 0.582750
0.564081 0.600484 0.581486
0.569799 0.600916 0.583547
0.576319 0.602245 0.586358
0.582408 0.602979 0.588717
0.587818 0.602841 0.590394
0.594660 0.604313 0.593408
0.599872 0.603821 0.594847
0.605476 0.603728 0.596634
0.610066 0.602435 0.597457
0.614875 0.601353 0.598472
0.622808 0.603677 0.602337
0.628386 0.603322 0.604008
0.634388 0.603371 0.606041
0.640471 0.603443 0.608122
0.647868 0.604837 0.611348
0.654750 0.605599 0.614077
0.660439 0.605048 0.615722
0.667612 0.605960 0.618644
0.674126 0.606120 0.620958
0.678663 0.604229 0.621536
0.687120 0.606194 0.625471
0.693157 0.605677 0.627294
0.699957 0.605841 0.629741
0.707578 0.606719 0.632850
0.713703 0.606088 0.634670
0.725011 0.610264 0.640776
0.730618 0.608984 0.642099
0.734984 0.606515 0.642386
0.741746 0.606204 0.644626
0.749861 0.607040 0.647937
0.758178 0.607963 0.651371
0.765129 0.607587 0.653669
0.772537 0.607539 0.656304
0.779702 0.607204 0.658715
0.788406 0.608111 0.662309
0.798958 0.610476 0.667307
0.807093 0.610693 0.670365
0.809281 0.605915 0.668783
0.818221 0.606671 0.672413
0.830110 0.609712 0.678258
0.838085 0.609476 0.681055
0.845405 0.608645 0.683322
0.862089 0.615070 0.692607
0.867712 0.612716 0.693508
0.872711 0.609852 0.693931
0.879273 0.608149 0.695502
0.890188 0.609656 0.700254
0.900200 0.610378 0.704288
0.912550 0.612712 0.709974
0.923372 0.613805 0.714485
0.928475 0.610696 0.714824
0.937760 0.610535 0.718145
0.947115 0.610345 0.721473
0.956677 0.610222 0.724903
0.965065 0.609219 0.727460
0.977356 0.610804 0.732715
0.983585 0.608218 0.733678
0.993014 0.607735 0.736838
1.003652 0.607982 0.740787
1.010116 0.605449 0.741818
1.019874 0.605015 0.745073
1.026335 0.602436 0.746042
1.041036 0.605016 0.752549
1.049599 0.603674 0.754851
1.062460 0.604941 0.759985
1.068555 0.602024 0.760554
1.071023 0.596942 0.758701
1.086137 0.599427 0.765167
1.100015 0.601090 0.770740
1.110433 0.600666 0.773985
1.122935 0.601412 0.778527
1.132381 0.600370 0.781035
1.142851 0.599896 0.784155
1.151835 0.598577 0.786277
1.156771 0.595032 0.785793
1.167938 0.594935 0.789223
1.181813 0.596283 0.794298
1.193674 0.596513 0.798044
1.200626 0.594134 0.798687
1.210927 0.593544 0.801372
1.219817 0.592229 0.803145
1.228813 0.590991 0.804946
1.237120 0.589426 0.806293
1.247312 0.588840 0.808749
1.257683 0.588357 0.811270
1.266096 0.586923 0.812578
1.276924 0.586703 0.815293
0.132716 0.593837 0.456083
0.135413 0.596819 0.458879
0.138213 0.600162 0.461894
0.140761 0.600634 0.463178
0.143361 0.601169 0.464493
0.145946 0.601210 0.465501
0.148516 0.600795 0.466223
0.151000 0.599438 0.466358
0.153678 0.599329 0.467242
0.156084 0.596955 0.466727
0.158791 0.596584 0.467427
0.161963 0.599130 0.469915
0.164821 0.599200 0.470869
0.167629 0.598708 0.471465
0.170402 0.597799 0.471790
0.173450 0.598379 0.473029
0.176388 0.598073 0.473707
0.179603 0.599163 0.475247
0.182824 0.600031 0.476643
0.185997 0.600426 0.477733
0.188999 0.599744 0.478137
0.192026 0.599063 0.478532
0.195258 0.599285 0.479487
0.198416 0.599002 0.480117
0.201656 0.598988 0.480908
0.205483 0.601539 0.483327
0.208526 0.600356 0.483365
0.211887 0.600505 0.484245
0.215603 0.602057 0.486020
0.218945 0.601888 0.486690
0.222254 0.601506 0.487220
0.225342 0.600186 0.487141
0.228063 0.597419 0.486123
0.232569 0.601475 0.489511
0.236165 0.601910 0.490562
0.239514 0.601369 0.490979
0.242607 0.599873 0.490774
0.246059 0.599636 0.491388
0.250046 0.601182 0.493168
0.253453 0.600674 0.493609
0.256742 0.599747 0.493777
0.261382 0.603160 0.496798
0.264402 0.601281 0.496347
0.268319 0.602211 0.497750
0.271963 0.602230 0.498557
0.275932 0.603182 0.499988
0.279184 0.601951 0.499978
0.282709 0.601515 0.500499
0.286428 0.601605 0.501377
0.290043 0.601364 0.502040
0.293827 0.601557 0.503001
0.297735 0.602040 0.504163
0.302009 0.603440 0.505952
0.305631 0.603060 0.506554
0.309760 0.603957 0.508024
0.313422 0.603608 0.508664
0.317139 0.603373 0.509388
0.319850 0.600649 0.508430
0.323561 0.600378 0.509143
0.327721 0.601146 0.510573
0.331608 0.601219 0.511541
0.335613 0.601521 0.512676
0.339093 0.600589 0.512973
0.344095 0.603049 0.515614
0.348377 0.603815 0.517104
0.351813 0.602685 0.517295
0.356341 0.603887 0.519110
0.360103 0.603399 0.519766
0.363152 0.601403 0.519381
0.366695 0.600439 0.519720
0.370547 0.600087 0.520496
0.374486 0.599878 0.521384
0.378626 0.600034 0.522538
0.383460 0.601495 0.524625
0.388088 0.602483 0.526395
0.391527 0.601152 0.526537
0.397596 0.604735 0.530178
0.401120 0.603484 0.530402
0.405318 0.603453 0.531503
0.409113 0.602657 0.532070
0.413271 0.602483 0.533094
0.417754 0.602841 0.534512
0.420862 0.600763 0.534187
0.426675 0.603327 0.537228
0.431079 0.603402 0.538485
0.434916 0.602482 0.539032
0.439521 0.602810 0.540500
0.443273 0.601694 0.540926
0.447610 0.601503 0.542041
0.451782 0.601008 0.542946
0.456281 0.600995 0.544220
0.462415 0.603480 0.547357
0.467272 0.603897 0.548985
0.469998 0.601021 0.548176
0.476180 0.603355 0.551264
0.479796 0.601778 0.551446
0.483888 0.600888 0.552153
0.488294 0.600426 0.553196
0.493703 0.601368 0.555314
0.498724 0.601687 0.556980
0.503251 0.601258 0.558097
0.509521 0.603207 0.561044
0.512169 0.600095 0.560140
0.519177 0.602915 0.563798
0.524385 0.603209 0.565541
0.529217 0.602945 0.566871
0.533193 0.601512 0.567313
0.537554 0.600560 0.568139
0.543007 0.600977 0.570051
0.548968 0.601977 0.572441
0.553418 0.601004 0.573304
0.557209 0.599181 0.573512
0.565074 0.602347 0.577683
0.568390 0.599863 0.577400
0.574696 0.600971 0.579992
0.580602 0.601524 0.582167
0.586376 0.601854 0.584188
0.592828 0.602908 0.586819
0.599682 0.604346 0.589790
0.605561 0.604583 0.591818
0.609854 0.602970 0.592362
0.613379 0.600474 0.592199
0.621810 0.603383 0.596488
0.626790 0.602404 0.597613
0.630666 0.600192 0.597737
0.639050 0.602781 0.601866
0.645939 0.603673 0.604623
0.652491 0.604130 0.607049
0.658615 0.604069 0.609072
0.665781 0.605012 0.611972
0.673631 0.606562 0.615424
0.679141 0.605667 0.616833
0.684516 0.604590 0.618111
0.692706 0.606229 0.621749
0.700427 0.607310 0.624949
0.703595 0.603923 0.624317
0.712787 0.606263 0.628681
0.719899 0.606527 0.631280
0.727087 0.606783 0.633911
0.733854 0.606573 0.636167
0.740530 0.606210 0.638323
0.750209 0.608487 0.642866
0.756490 0.607610 0.644641
0.762994 0.606871 0.646572
0.772215 0.608442 0.650624
0.780065 0.608718 0.653552
0.789522 0.610281 0.657699
0.798562 0.611379 0.661474
0.803287 0.608765 0.661877
0.807074 0.605349 0.661557
0.814973 0.605289 0.664371
0.827467 0.608869 0.670634
0.834984 0.608302 0.673073
0.839345 0.605165 0.673119
0.851725 0.608296 0.679136
0.860623 0.608575 0.682502
0.871951 0.610628 0.687618
0.880003 0.610066 0.690274
0.889367 0.610417 0.693852
0.897855 0.610024 0.696751
0.912603 0.614149 0.704125
0.920615 0.613211 0.706584
0.929890 0.613115 0.709911
0.940011 0.613538 0.713795
0.947330 0.611902 0.715653
0.953625 0.609509 0.716765
0.966925 0.611898 0.722745
0.974824 0.610487 0.724902
0.984844 0.610453 0.728491
0.995838 0.610991 0.732701
1.001421 0.607890 0.733158
1.009405 0.606344 0.735231
1.016126 0.603950 0.736415
1.031725 0.607180 0.743542
1.037291 0.603973 0.743871
1.049091 0.604647 0.748329
1.067109 0.609066 0.756841
1.071320 0.604944 0.756159
1.062736 0.593166 0.747090
1.081395 0.597791 0.755845
1.096877 0.600401 0.762433
1.105976 0.599199 0.764821
1.117402 0.599323 0.768658
1.141673 0.606720 0.780630
1.147391 0.603477 0.780687
1.151561 0.599409 0.779749
1.157701 0.596488 0.780038
1.170487 0.597231 0.784457
1.182632 0.597593 0.788413
1.193409 0.597201 0.791464
1.198642 0.593869 0.791056
1.209653 0.593621 0.794169
1.220207 0.593134 0.796952
1.231731 0.593149 0.800277
1.242645 0.592852 0.803182
1.250685 0.591115 0.804318
1.259307 0.589704 0.805773
1.269368 0.589036 0.808050
1.278334 0.587851 0.809642
1.283031 0.584629 0.808698
0.130396 0.595254 0.452809
0.132735 0.594938 0.453613
0.135366 0.597091 0.455879
0.137922 0.598002 0.457403
0.140661 0.600128 0.459649
0.143414 0.601872 0.461663
0.145959 0.601421 0.462353
0.148412 0.599928 0.462402
0.151158 0.600501 0.463688
0.153876 0.600529 0.464635
0.156369 0.598632 0.464400
0.158678 0.595289 0.463268
0.161722 0.596898 0.465142
0.165135 0.600583 0.468283
0.168097 0.600922 0.469370
0.170863 0.599805 0.469550
0.173685 0.598874 0.469832
0.176741 0.599155 0.470851
0.179790 0.599188 0.471707
0.183024 0.600054 0.473071
0.186120 0.599961 0.473832
0.189299 0.600141 0.474754
0.192422 0.599878 0.475391
0.195479 0.599158 0.475732
0.198912 0.600148 0.477140
0.201676 0.597833 0.476463
0.205125 0.598643 0.477744
0.208882 0.600674 0.479794
0.212188 0.600545 0.480476
0.215376 0.599826 0.480781
0.219381 0.602437 0.483196
0.222698 0.602054 0.483708
0.225679 0.600286 0.483334
0.229242 0.600774 0.484396
0.232888 0.601484 0.485600
0.236429 0.601710 0.486495
0.239789 0.601209 0.486925
0.243266 0.601088 0.487598
0.246649 0.600588 0.488029
0.250218 0.600695 0.488852
0.253763 0.600665 0.489591
0.257151 0.600074 0.489968
0.261076 0.601189 0.491457
0.264994 0.602196 0.492883
0.268400 0.601538 0.493228
0.271729 0.600631 0.493414
0.275330 0.600527 0.494130
0.279680 0.602585 0.496272
0.282946 0.601409 0.496297
0.286799 0.601899 0.497424
0.290600 0.602192 0.498430
0.294214 0.601924 0.499072
0.297912 0.601858 0.499855
0.301618 0.601779 0.500636
0.306315 0.604246 0.503123
0.309820 0.603546 0.503510
0.313860 0.604182 0.504798
0.317012 0.602557 0.504580
0.320223 0.601092 0.504473
0.324021 0.601048 0.505329
0.327966 0.601319 0.506408
0.331415 0.600388 0.506683
0.334822 0.599350 0.506893
0.340798 0.604132 0.511065
0.344411 0.603458 0.511546
0.347946 0.602596 0.511906
0.351625 0.602033 0.512478
0.354831 0.600435 0.512350
0.359846 0.602665 0.514859
0.363744 0.602469 0.515715
0.367519 0.601988 0.516383
0.371228 0.601347 0.516951
0.375396 0.601601 0.518150
0.379003 0.600705 0.518559
0.383346 0.601225 0.519967
0.387744 0.601796 0.521423
0.392070 0.602176 0.522759
0.396397 0.602508 0.524074
0.401764 0.604712 0.526723
0.405249 0.603386 0.526897
0.409223 0.602933 0.527698
0.413411 0.602830 0.528758
0.417750 0.602953 0.529991
0.422056 0.602973 0.531164
0.425802 0.601988 0.531631
0.430958 0.603373 0.533809
0.435102 0.602989 0.534732
0.439069 0.602276 0.535430
0.443518 0.602325 0.536690
0.448297 0.602860 0.538317
0.452684 0.602711 0.539463
0.456700 0.601938 0.540166
0.461383 0.602176 0.541621
0.466337 0.602779 0.543360
0.471174 0.603144 0.544941
0.474132 0.600629 0.544410
0.479104 0.601118 0.546111
0.483009 0.599981 0.546620
0.487353 0.599460 0.547600
0.491873 0.599156 0.548755
0.498286 0.601498 0.551911
0.503915 0.602640 0.554190
0.506644 0.599680 0.553394
0.512936 0.601627 0.556319
0.518231 0.602128 0.558172
0.525049 0.604614 0.561558
0.529230 0.603492 0.562214
0.533567 0.602547 0.563019
0.538493 0.602337 0.564404
0.542196 0.600510 0.564556
0.548218 0.601615 0.566993
0.553710 0.601977 0.568876
0.557787 0.600518 0.569360
0.561116 0.598118 0.569119
0.566999 0.598821 0.571326
0.573563 0.600276 0.574150
0.579506 0.600904 0.576349
0.584176 0.599963 0.577327
0.590327 0.600711 0.579669
0.597405 0.602455 0.582837
0.602929 0.602332 0.584537
0.609288 0.603095 0.586975
0.613553 0.601446 0.587489
0.618814 0.600871 0.588891
0.623876 0.600031 0.590098
0.630252 0.600569 0.592455
0.639360 0.603958 0.597185
0.645766 0.604353 0.599493
0.651411 0.603878 0.601110
0.657234 0.603535 0.602862
0.666387 0.606548 0.607445
0.673208 0.607067 0.609986
0.679633 0.607110 0.612159
0.684950 0.605985 0.613375
0.691098 0.605632 0.615270
0.698244 0.606189 0.617972
0.705572 0.606840 0.620790
0.711737 0.606298 0.622620
0.716479 0.604357 0.623270
0.724362 0.605313 0.626456
0.731813 0.605777 0.629256
0.739838 0.606681 0.632481
0.747376 0.607053 0.635281
0.755197 0.607594 0.638272
0.762145 0.607275 0.640541
0.771497 0.608988 0.644660
0.779127 0.609098 0.647395
0.789461 0.611440 0.652184
0.797585 0.611781 0.655221
0.802677 0.609493 0.655907
0.807428 0.606891 0.656326
0.815100 0.606656 0.658943
0.827455 0.610144 0.665042
0.832685 0.607756 0.665755
0.838311 0.605650 0.666751
0.847406 0.606230 0.670293
0.858795 0.608495 0.675475
0.871714 0.611800 0.681713
0.879370 0.610950 0.684061
0.886486 0.609627 0.685988
0.897769 0.611344 0.690881
0.905221 0.610122 0.692981
0.915745 0.611075 0.697234
0.924681 0.610779 0.700313
0.935648 0.611851 0.704779
0.944282 0.611174 0.707561
0.952179 0.609915 0.709793
0.961123 0.609322 0.712717
0.970345 0.608851 0.715793
0.990947 0.615968 0.726606
1.000042 0.615193 0.729470
0.999770 0.608192 0.725956
1.004701 0.604658 0.725969
1.015964 0.605205 0.730209
1.024477 0.603920 0.732560
1.040719 0.607462 0.739993
1.050701 0.606964 0.743209
1.062631 0.607614 0.747655
1.068623 0.604575 0.748167
1.077546 0.603312 0.750560
1.085453 0.601419 0.752256
1.094628 0.600264 0.754731
1.102080 0.598085 0.756064
1.110005 0.596184 0.757667
1.145481 0.609999 0.776642
1.146623 0.604110 0.773822
1.146025 0.597343 0.769926
1.155202 0.596091 0.772131
1.170947 0.598429 0.778360
1.186823 0.600769 0.784586
1.192660 0.597669 0.784581
1.199080 0.594927 0.784914
1.211882 0.595575 0.789092
1.220140 0.593843 0.790470
1.231692 0.593833 0.793791
1.242860 0.593625 0.796831
1.251415 0.592103 0.798272
1.261349 0.591302 0.800496
1.270252 0.590011 0.802074
1.281115 0.589710 0.804766
1.293332 0.590080 0.808200
0.130585 0.598190 0.451415
0.132802 0.596365 0.451316
0.135258 0.596620 0.452431
0.137870 0.597926 0.454161
0.140379 0.597854 0.455068
0.143106 0.599315 0.456879
0.145904 0.600920 0.458770
0.148206 0.598103 0.458012
0.150956 0.598637 0.459245
0.153919 0.600442 0.461233
0.156736 0.600775 0.462329
0.159430 0.599952 0.462717
0.162112 0.598834 0.462914
0.165058 0.599277 0.464044
0.168364 0.601748 0.466400
0.171423 0.602319 0.467593
0.173698 0.597943 0.465753
0.176724 0.597988 0.466601
0.179799 0.598120 0.467492
0.182843 0.597895 0.468155
0.186000 0.598122 0.469087
0.189391 0.599387 0.470653
0.192725 0.600152 0.471904
0.195914 0.600028 0.472599
0.198945 0.599018 0.472735
0.202216 0.599063 0.473520
0.205376 0.598484 0.473910
0.209183 0.600704 0.476044
0.212361 0.599989 0.476340
0.215531 0.599186 0.476575
0.219122 0.600075 0.477870
0.222783 0.601124 0.479266
0.226279 0.601401 0.480175
0.229897 0.602065 0.481329
0.233402 0.602212 0.482156
0.236601 0.601156 0.482220
0.240008 0.600838 0.482751
0.243719 0.601557 0.483944
0.247232 0.601510 0.484652
0.250510 0.600611 0.484817
0.254042 0.600551 0.485521
0.257928 0.601604 0.486944
0.261600 0.601889 0.487879
0.265340 0.602334 0.488923
0.268782 0.601804 0.489342
0.271949 0.600418 0.489210
0.275242 0.599417 0.489332
0.279130 0.600157 0.490589
0.283397 0.601926 0.492524
0.287357 0.602730 0.493841
0.291168 0.603055 0.494854
0.294863 0.603018 0.495638
0.298192 0.601962 0.495760
0.301655 0.601262 0.496122
0.305541 0.601648 0.497206
0.309978 0.603398 0.499202
0.313873 0.603692 0.500246
0.317279 0.602730 0.500466
0.320678 0.601744 0.500677
0.324821 0.602542 0.502084
0.328674 0.602597 0.503006
0.331975 0.601323 0.503047
0.335226 0.599938 0.503020
0.339391 0.600628 0.504395
0.344963 0.604402 0.507862
0.348420 0.603376 0.508106
0.351595 0.601733 0.507939
0.355653 0.601986 0.509066
0.359884 0.602560 0.510422
0.363936 0.602708 0.511501
0.368389 0.603637 0.513124
0.371896 0.602588 0.513407
0.375434 0.601589 0.513730
0.379924 0.602455 0.515347
0.383205 0.600907 0.515311
0.387388 0.601091 0.516480
0.393911 0.605666 0.520709
0.396715 0.603125 0.520015
0.401179 0.603673 0.521479
0.405691 0.604255 0.522981
0.409202 0.602978 0.523193
0.413543 0.603166 0.524443
0.418132 0.603745 0.525981
0.422431 0.603764 0.527140
0.425987 0.602467 0.527378
0.430158 0.602198 0.528354
0.434869 0.602796 0.529961
0.438989 0.602359 0.530844
0.443781 0.602986 0.532501
0.449487 0.605029 0.535192
0.453475 0.604240 0.535864
0.457659 0.603734 0.536751
0.461934 0.603335 0.537728
0.465613 0.601982 0.538024
0.470129 0.601888 0.539247
0.474966 0.602233 0.540805
0.479139 0.601536 0.541616
0.483446 0.601005 0.542561
0.487695 0.600354 0.543430
0.493754 0.602271 0.546213
0.497581 0.600927 0.546599
0.502471 0.601058 0.548094
0.507204 0.600918 0.549403
0.511689 0.600391 0.550439
0.517582 0.601739 0.552899
0.522159 0.601240 0.553988
0.525460 0.599007 0.553781
0.531900 0.600896 0.556710
0.535429 0.598909 0.556715
0.542032 0.600866 0.559742
0.548014 0.601939 0.562120
0.553805 0.602697 0.564281
0.557914 0.601290 0.564793
0.562480 0.600424 0.565737
0.567793 0.600431 0.567375
0.573543 0.600911 0.569404
0.579317 0.601353 0.571426
0.584637 0.601196 0.573001
0.589555 0.600516 0.574185
0.596642 0.602298 0.577336
0.601962 0.601968 0.578842
0.607770 0.602136 0.580768
0.614240 0.602983 0.583261
0.618908 0.601759 0.584120
0.623496 0.600415 0.584899
0.627585 0.598497 0.585230
0.635054 0.600181 0.588504
0.644409 0.603767 0.593367
0.650829 0.604136 0.595643
0.656498 0.603655 0.597251
0.662386 0.603344 0.599024
0.666998 0.601678 0.599700
0.677484 0.605888 0.605289
0.684975 0.606964 0.608315
0.690146 0.605666 0.609385
0.696124 0.605112 0.611106
0.703142 0.605504 0.613655
0.709636 0.605317 0.615748
0.716042 0.604981 0.617746
0.723458 0.605524 0.620529
0.730967 0.606068 0.623353
0.737103 0.605272 0.625055
0.743895 0.605013 0.627254
0.751607 0.605508 0.630148
0.761207 0.607588 0.634475
0.769663 0.608545 0.637867
0.775345 0.607000 0.639086
0.781312 0.605652 0.640508
0.790424 0.606924 0.644304
0.799700 0.608225 0.648178
0.807700 0.608357 0.651049
0.814101 0.607092 0.652691
0.824015 0.608627 0.656923
0.830122 0.606984 0.658293
0.836423 0.605447 0.659788
0.846814 0.607078 0.664253
0.856401 0.607963 0.668080
0.868014 0.610303 0.673326
0.876670 0.610256 0.676387
0.880649 0.606599 0.676069
0.892914 0.609110 0.681638
0.903095 0.609945 0.685669
0.909772 0.608121 0.687189
0.916253 0.606110 0.688549
0.931322 0.610181 0.695861
0.939829 0.609451 0.698549
0.950574 0.610213 0.702742
0.960926 0.610604 0.706613
0.970553 0.610408 0.709942
0.977738 0.608489 0.711573
0.989056 0.609289 0.715961
0.999286 0.609275 0.719563
1.006063 0.606933 0.720816
1.011924 0.603978 0.721437
1.024506 0.605303 0.726472
1.042926 0.610213 0.735272
1.052963 0.609717 0.738495
1.054712 0.604053 0.736292
1.056838 0.598682 0.734339
1.080099 0.606127 0.745970
1.091189 0.606089 0.749686
1.088167 0.597668 0.744377
1.098103 0.596949 0.747301
1.112565 0.598816 0.753024
1.132087 0.603494 0.761839
1.138115 0.600405 0.762142
1.140766 0.595460 0.760334
1.149634 0.594030 0.762357
1.180934 0.604884 0.778089
1.186785 0.601702 0.778124
1.193489 0.599023 0.778657
1.199679 0.596110 0.778856
1.207345 0.594019 0.779921
1.220237 0.594678 0.784078
1.234311 0.595924 0.788875
1.245020 0.595428 0.791618
1.255195 0.594671 0.794001
1.261562 0.592028 0.794116
1.269792 0.590362 0.795297
1.280217 0.589808 0.797720
1.298139 0.592912 0.804418
1.311741 0.593891 0.808558
0.128202 0.598884 0.447715
0.130464 0.597693 0.447986
0.133019 0.599168 0.449799
0.135501 0.599404 0.450885
0.137879 0.598278 0.451163
0.140246 0.596768 0.451204
0.143169 0.599827 0.453924
0.145493 0.597325 0.453357
0.148314 0.598673 0.455054
0.150989 0.598476 0.455827
0.153786 0.598913 0.456967
0.156843 0.600913 0.459030
0.159629 0.600616 0.459715
0.162383 0.599854 0.460109
0.165329 0.600156 0.461129
0.168398 0.600987 0.462460
0.171219 0.600019 0.462695
0.174039 0.598890 0.462821
0.177034 0.598642 0.463468
0.180170 0.599022 0.464487
0.183119 0.598180 0.464753
0.186230 0.598086 0.465465
0.189722 0.599811 0.467282
0.192973 0.600090 0.468210
0.196108 0.599648 0.468688
0.199399 0.599853 0.469556
0.202539 0.599224 0.469906
0.205899 0.599519 0.470819
0.209450 0.600546 0.472182
0.212669 0.599992 0.472563
0.215900 0.599424 0.472931
0.219473 0.600215 0.474141
0.223039 0.600863 0.475262
0.226238 0.599967 0.475418
0.230148 0.601784 0.477271
0.233658 0.601950 0.478092
0.236770 0.600582 0.477951
0.239854 0.599114 0.477743
0.244103 0.601776 0.480141
0.247456 0.601175 0.480484
0.250962 0.601072 0.481145
0.254587 0.601323 0.482033
0.258297 0.601798 0.483068
0.261886 0.601827 0.483825
0.265300 0.601266 0.484210
0.268919 0.601317 0.484990
0.272375 0.600835 0.485434
0.275724 0.600013 0.485665
0.279259 0.599732 0.486248
0.283234 0.600686 0.487633
0.286303 0.599014 0.487332
0.291569 0.603462 0.490995
0.294796 0.602164 0.490949
0.297925 0.600609 0.490741
0.301837 0.601139 0.491895
0.305979 0.602215 0.493416
0.309359 0.601275 0.493629
0.313616 0.602535 0.495290
0.317353 0.602435 0.496070
0.321102 0.602332 0.496856
0.325014 0.602588 0.497889
0.329212 0.603480 0.499353
0.332875 0.603061 0.499959
0.336409 0.602324 0.500363
0.340647 0.603165 0.501825
0.345029 0.604269 0.503475
0.348841 0.604050 0.504254
0.352130 0.602667 0.504262
0.355261 0.600947 0.504050
0.359898 0.602414 0.505989
0.364488 0.603704 0.507824
0.367523 0.601732 0.507467
0.372732 0.604176 0.510109
0.376161 0.602960 0.510282
0.379679 0.601914 0.510578
0.383585 0.601608 0.511388
0.386904 0.600146 0.511416
0.393202 0.604327 0.515325
0.397412 0.604455 0.516471
0.400825 0.603067 0.516582
0.404819 0.602731 0.517428
0.409832 0.604200 0.519537
0.412640 0.601667 0.518880
0.417206 0.602244 0.520395
0.421997 0.603155 0.522158
0.426125 0.602865 0.523095
0.429679 0.601567 0.523335
0.433600 0.600872 0.524008
0.438839 0.602327 0.526211
0.443681 0.603057 0.527919
0.448855 0.604262 0.529981
0.453322 0.604264 0.531204
0.457730 0.604131 0.532344
0.462284 0.604182 0.533629
0.465650 0.602357 0.533580
0.469986 0.602003 0.534598
0.476045 0.604206 0.537479
0.479678 0.602702 0.537694
0.484532 0.602983 0.539217
0.488937 0.602557 0.540240
0.493083 0.601720 0.540975
0.497599 0.601380 0.542088
0.502462 0.601487 0.543544
0.507329 0.601549 0.544983
0.512316 0.601726 0.546524
0.517915 0.602681 0.548661
0.521431 0.600765 0.548678
0.525156 0.599118 0.548903
0.530294 0.599317 0.550524
0.535488 0.599532 0.552177
0.541141 0.600282 0.554252
0.547191 0.601470 0.556682
0.552575 0.601741 0.558440
0.557603 0.601510 0.559834
0.562922 0.601590 0.561485
0.568370 0.601772 0.563234
0.573890 0.601982 0.565026
0.580672 0.603638 0.567961
0.584739 0.601999 0.568363
0.589755 0.601448 0.569627
0.595572 0.601777 0.571599
0.600862 0.601439 0.573072
0.606544 0.601495 0.574875
0.613963 0.603435 0.578194
0.619431 0.603115 0.579752
0.623393 0.601092 0.579974
0.628343 0.600122 0.581052
0.634437 0.600340 0.583104
0.642924 0.603033 0.587180
0.647928 0.601947 0.588239
0.655200 0.603179 0.591203
0.661073 0.602883 0.592955
0.665846 0.601409 0.593766
0.668994 0.598264 0.593220
0.681538 0.604483 0.600427
0.688927 0.605422 0.603321
0.694226 0.604235 0.604479
0.700602 0.604043 0.606495
0.706629 0.603453 0.608206
0.715024 0.605043 0.611787
0.720516 0.603814 0.613021
0.730294 0.606506 0.617623
0.736073 0.605406 0.619033
0.742824 0.605135 0.621183
0.749274 0.604527 0.623076
0.755279 0.603460 0.624602
0.766536 0.606951 0.630134
0.772990 0.606119 0.631943
0.778609 0.604508 0.633099
0.785828 0.604213 0.635445
0.796182 0.606482 0.640110
0.804250 0.606720 0.643019
0.811672 0.606339 0.645417
0.821058 0.607484 0.649230
0.828241 0.606746 0.651387
0.835457 0.605966 0.653542
0.844309 0.606409 0.656855
0.852555 0.606285 0.659693
0.863531 0.608185 0.664450
0.871871 0.607946 0.667276
0.884985 0.611230 0.673444
0.884568 0.604252 0.670022
0.897200 0.606977 0.675764
0.905680 0.606523 0.678549
0.914869 0.606505 0.681791
0.932000 0.612077 0.690460
0.938697 0.610066 0.691885
0.950525 0.611600 0.696783
0.962058 0.612810 0.701422
0.970860 0.612044 0.704164
0.977103 0.609481 0.705153
0.984526 0.607681 0.706909
0.998453 0.610141 0.712952
1.004616 0.607393 0.713798
1.013058 0.606101 0.716120
1.035809 0.613914 0.727751
1.041838 0.610908 0.728385
1.046823 0.607245 0.728326
1.050218 0.602613 0.727232
1.055776 0.599342 0.727518
1.077343 0.605765 0.737971
1.086218 0.604398 0.740269
1.089410 0.599644 0.738949
1.093654 0.595560 0.738287
1.118560 0.603475 0.750488
1.129741 0.603319 0.754040
1.135775 0.600211 0.754363
1.139534 0.595859 0.753270
1.148545 0.594478 0.755376
1.167990 0.598821 0.763776
1.188342 0.603539 0.772619
1.192360 0.599366 0.771539
1.196161 0.595147 0.770323
1.205945 0.594147 0.772658
1.218491 0.594594 0.776586
1.237383 0.598293 0.784189
1.249132 0.598270 0.787515
1.258140 0.596861 0.789193
1.265137 0.594475 0.789671
1.274421 0.593270 0.791446
1.284745 0.592605 0.793784
1.295562 0.592200 0.796363
1.306472 0.591857 0.798952
1.313927 0.589886 0.799550
0.125651 0.597412 0.442792
0.127934 0.596748 0.443358
0.130699 0.600812 0.446639
0.133231 0.601762 0.448126
0.135521 0.599884 0.447967
0.137739 0.597091 0.447262
0.140344 0.597615 0.448472
0.142953 0.597785 0.449467
0.145774 0.599360 0.451275
0.148445 0.599293 0.452114
0.151098 0.598780 0.452680
0.153893 0.599064 0.453704
0.156920 0.600718 0.455529
0.159729 0.600468 0.456219
0.162576 0.600240 0.456911
0.165514 0.600371 0.457805
0.168506 0.600608 0.458753
0.171511 0.600684 0.459595
0.174444 0.600127 0.460048
0.177435 0.599743 0.460594
0.180560 0.599948 0.461484
0.183560 0.599293 0.461847
0.186674 0.599117 0.462490
0.189956 0.599670 0.463567
0.193011 0.598918 0.463845
0.196173 0.598592 0.464374
0.199649 0.599664 0.465748
0.203012 0.600045 0.466698
0.206255 0.599759 0.467236
0.209616 0.599909 0.468036
0.212923 0.599727 0.468630
0.216072 0.598805 0.468765
0.219659 0.599654 0.469988
0.223223 0.600298 0.471084
0.226865 0.601149 0.472311
0.230537 0.602018 0.473549
0.233735 0.601004 0.473621
0.236918 0.599923 0.473650
0.240922 0.601798 0.475521
0.244882 0.603387 0.477220
0.247896 0.601591 0.476807
0.251170 0.600701 0.476962
0.255139 0.602119 0.478568
0.258747 0.602261 0.479378
0.262220 0.601925 0.479892
0.265641 0.601401 0.480291
0.269070 0.600882 0.480698
0.272785 0.601212 0.481648
0.276182 0.600547 0.481972
0.279692 0.600203 0.482506
0.283275 0.600045 0.483165
0.287227 0.600897 0.484475
0.290893 0.600896 0.485249
0.294596 0.600961 0.486073
0.298179 0.600666 0.486673
0.302056 0.601124 0.487766
0.305514 0.600447 0.488135
0.308991 0.599806 0.488534
0.313727 0.602315 0.490984
0.317558 0.602475 0.491922
0.321244 0.602240 0.492612
0.325242 0.602727 0.493782
0.329108 0.602854 0.494727
0.333393 0.603917 0.496296
0.336847 0.603006 0.496581
0.340775 0.603159 0.497572
0.345114 0.604188 0.499153
0.348967 0.604084 0.499998
0.351694 0.601503 0.499209
0.355648 0.601581 0.500191
0.359825 0.602092 0.501471
0.363917 0.602374 0.502611
0.369038 0.604721 0.505144
0.373342 0.605313 0.506518
0.376675 0.603912 0.506564
0.379823 0.602144 0.506369
0.383346 0.601113 0.506678
0.387695 0.601655 0.508060
0.391628 0.601356 0.508884
0.397102 0.603907 0.511659
0.399892 0.601394 0.510998
0.404210 0.601692 0.512263
0.408518 0.601924 0.513495
0.412476 0.601485 0.514280
0.416571 0.601256 0.515218
0.421710 0.602804 0.517398
0.425911 0.602663 0.518424
0.429671 0.601736 0.518916
0.434051 0.601826 0.520125
0.438203 0.601494 0.521053
0.443175 0.602464 0.522906
0.447641 0.602552 0.524155
0.452407 0.603073 0.525723
0.456650 0.602712 0.526683
0.461216 0.602817 0.527985
0.465373 0.602246 0.528821
0.467970 0.599264 0.527948
0.474640 0.602440 0.531483
0.480443 0.604206 0.534034
0.483545 0.601909 0.533682
0.489359 0.603565 0.536189
0.493001 0.602010 0.536394
0.497021 0.600981 0.536988
0.501719 0.600880 0.538270
0.507636 0.602430 0.540774
0.511282 0.600772 0.540948
0.516620 0.601404 0.542815
0.521939 0.601946 0.544636
0.525829 0.600526 0.545024
0.531139 0.600955 0.546795
0.537113 0.602189 0.549185
0.541766 0.601644 0.550269
0.547439 0.602358 0.552312
0.552045 0.601660 0.553315
0.556663 0.600940 0.554316
0.562062 0.601145 0.556034
0.565638 0.599069 0.556037
0.573409 0.602047 0.559906
0.578783 0.602044 0.561528
0.584670 0.602593 0.563595
0.588965 0.601214 0.564199
0.595438 0.602327 0.566745
0.600344 0.601566 0.567864
0.605437 0.600976 0.569134
0.612520 0.602571 0.572134
0.618819 0.603205 0.574411
0.623231 0.601695 0.575026
0.625691 0.598038 0.573955
0.634203 0.600899 0.578067
0.642504 0.603416 0.581947
0.646935 0.601747 0.582517
0.651499 0.600189 0.583190
0.658950 0.601574 0.586258
0.664073 0.600494 0.587363
0.670899 0.601089 0.589854
0.679903 0.603780 0.594090
0.688013 0.605467 0.597549
0.693537 0.604522 0.598882
0.698948 0.603420 0.600109
0.705237 0.603113 0.602020
0.711871 0.603070 0.604181
0.719438 0.603831 0.607049
0.725957 0.603533 0.609064
0.735593 0.606029 0.613476
0.739454 0.603156 0.613377
0.746989 0.603570 0.616099
0.753641 0.603115 0.618115
0.762555 0.604584 0.621823
0.771558 0.606022 0.625554
0.777283 0.604531 0.626785
0.785865 0.605425 0.630130
0.793762 0.605644 0.632928
0.802411 0.606404 0.636247
0.809900 0.606110 0.638678
0.818233 0.606430 0.641696
0.827042 0.607044 0.645022
0.834364 0.606373 0.647238
0.841899 0.605800 0.649581
0.850886 0.606291 0.652930
0.861150 0.607671 0.657143
0.872441 0.609723 0.662030
0.878816 0.607923 0.663418
0.886596 0.607127 0.665766
0.895370 0.606997 0.668773
0.904457 0.607011 0.671959
0.912863 0.606445 0.674640
0.928997 0.611339 0.682554
0.930446 0.605636 0.680421
0.944191 0.608586 0.686598
0.956835 0.610624 0.691965
0.970015 0.612898 0.697624
0.975132 0.609573 0.697864
0.979678 0.605855 0.697716
0.991051 0.606663 0.702044
1.000541 0.606138 0.705088
1.011390 0.606428 0.708973
1.022465 0.606779 0.712953
1.033390 0.606954 0.716783
1.042631 0.605998 0.719484
1.050606 0.604208 0.721338
1.066629 0.607326 0.728256
1.073605 0.604827 0.729390
1.081403 0.602816 0.731012
1.086064 0.598932 0.730646
1.097646 0.599139 0.734562
1.118316 0.604562 0.744029
1.130593 0.605007 0.748229
1.134625 0.600721 0.747334
1.140503 0.597525 0.747553
1.157221 0.600383 0.754304
1.166010 0.598793 0.756200
1.177693 0.598782 0.759790
1.187752 0.597875 0.762358
1.193701 0.594780 0.762449
1.205492 0.594810 0.765962
1.216373 0.594352 0.768888
1.233699 0.597220 0.775522
1.250890 0.599954 0.781992
1.260482 0.598789 0.783995
1.266096 0.595655 0.783678
1.276707 0.595062 0.786200
1.285748 0.593715 0.787788
1.295345 0.592672 0.789659
1.304233 0.591316 0.791096
1.314382 0.590599 0.793209
1.319921 0.587731 0.792722
0.123246 0.597235 0.438650
0.125514 0.596697 0.439278
0.127939 0.597468 0.440643
0.130330 0.597388 0.441516
0.133132 0.601060 0.444530
0.135365 0.598499 0.443967
0.137870 0.598293 0.444742
0.140522 0.599044 0.446060
0.143243 0.599982 0.447479
0.145938 0.600293 0.448526
0.148536 0.599466 0.448903
0.151299 0.599672 0.449868
0.154232 0.600833 0.451381
0.157049 0.600791 0.452183
0.159905 0.600756 0.452978
0.162583 0.599257 0.452901
0.165528 0.599365 0.453756
0.168466 0.599194 0.454438
0.171687 0.600552 0.456014
0.174815 0.601078 0.457091
0.177675 0.599826 0.457101
0.180753 0.599700 0.457771
0.183878 0.599662 0.458485
0.186872 0.598784 0.458688
0.190113 0.599081 0.459586
0.193350 0.599204 0.460374
0.196573 0.599131 0.461038
0.199911 0.599494 0.461959
0.203398 0.600418 0.463215
0.206663 0.600196 0.463776
0.209818 0.599402 0.463985
0.213055 0.598918 0.464378
0.216502 0.599256 0.465268
0.219941 0.599473 0.466084
0.223476 0.599995 0.467086
0.227469 0.602227 0.469136
0.230818 0.601829 0.469578
0.233956 0.600602 0.469510
0.237351 0.600314 0.470019
0.241291 0.601950 0.471717
0.244743 0.601753 0.472288
0.248382 0.602163 0.473238
0.251754 0.601613 0.473597
0.254948 0.600449 0.473577
0.258911 0.601793 0.475121
0.262576 0.602100 0.476025
0.266050 0.601758 0.476530
0.269488 0.601278 0.476953
0.272959 0.600884 0.477436
0.276709 0.601295 0.478429
0.280323 0.601262 0.479151
0.284051 0.601522 0.480064
0.287567 0.601143 0.480582
0.290969 0.600426 0.480891
0.295151 0.601825 0.482550
0.298854 0.601864 0.483355
0.302457 0.601603 0.483976
0.305993 0.601142 0.484478
0.309311 0.600108 0.484620
0.313278 0.600701 0.485812
0.317622 0.602178 0.487583
0.321053 0.601348 0.487880
0.325195 0.602217 0.489281
0.329332 0.603016 0.490648
0.333070 0.602826 0.491386
0.337102 0.603281 0.492552
0.340751 0.602819 0.493131
0.344601 0.602785 0.493999
0.348306 0.602398 0.494644
0.352480 0.603000 0.495948
0.356245 0.602675 0.496654
0.360582 0.603529 0.498146
0.364421 0.603286 0.498927
0.367983 0.602444 0.499320
0.372511 0.603541 0.501009
0.375437 0.601372 0.500539
0.379909 0.602268 0.502117
0.383319 0.601035 0.502285
0.386873 0.600073 0.502641
0.392405 0.602846 0.505515
0.396042 0.601959 0.505945
0.399759 0.601206 0.506472
0.404324 0.601975 0.508040
0.409459 0.603713 0.510280
0.413087 0.602685 0.510654
0.417147 0.602400 0.511544
0.421807 0.603122 0.513134
0.425723 0.602508 0.513822
0.430197 0.602811 0.515150
0.434329 0.602492 0.516063
0.438293 0.601860 0.516771
0.442200 0.601107 0.517405
0.446645 0.601196 0.518634
0.451192 0.601402 0.519959
0.456270 0.602396 0.521849
0.460807 0.602481 0.523118
0.464760 0.601617 0.523733
0.468924 0.601050 0.524568
0.472176 0.599074 0.524417
0.478391 0.601512 0.527405
0.483070 0.601588 0.528736
0.487261 0.600902 0.529538
0.491548 0.600325 0.530429
0.496570 0.600760 0.532060
0.501929 0.601612 0.534009
0.505193 0.599479 0.533818
0.510134 0.599656 0.535308
0.514357 0.598801 0.536065
0.519753 0.599496 0.537964
0.526044 0.601320 0.540711
0.531427 0.601856 0.542536
0.537464 0.603184 0.544964
0.541740 0.602162 0.545678
0.546520 0.601753 0.546860
0.551997 0.602180 0.548680
0.556968 0.601915 0.550003
0.559082 0.598075 0.548665
0.565913 0.600026 0.551680
0.571526 0.600410 0.553542
0.578003 0.601766 0.556163
0.582541 0.600743 0.557003
0.586627 0.599158 0.557428
0.594229 0.601625 0.560968
0.600114 0.602014 0.562946
0.603571 0.599585 0.562776
0.610513 0.601061 0.565635
0.617046 0.601994 0.568104
0.621454 0.600514 0.568721
0.626377 0.599566 0.569768
0.632052 0.599386 0.571439
0.640452 0.602051 0.575376
0.645932 0.601523 0.576827
0.651256 0.600782 0.578130
0.656803 0.600224 0.579602
0.663454 0.600740 0.581957
0.669202 0.600269 0.583550
0.675478 0.600272 0.585550
0.686292 0.604698 0.591168
0.692478 0.604435 0.593025
0.698909 0.604347 0.595053
0.705412 0.604261 0.597114
0.710683 0.602940 0.598186
0.716855 0.602421 0.599946
0.724909 0.603591 0.603141
0.730637 0.602526 0.604509
0.739170 0.603962 0.608004
0.744926 0.602796 0.609349
0.751757 0.602536 0.611490
0.760216 0.603641 0.614828
0.768789 0.604746 0.618211
0.775723 0.604336 0.620339
0.784602 0.605517 0.623876
0.793281 0.606425 0.627226
0.800602 0.606098 0.629546
0.809140 0.606704 0.632721
0.816147 0.605962 0.634756
0.822870 0.604924 0.636562
0.832401 0.606071 0.640349
0.838338 0.604264 0.641545
0.849132 0.606216 0.646148
0.863364 0.610705 0.653110
0.872755 0.611299 0.656617
0.879494 0.609783 0.658243
0.887700 0.609311 0.660860
0.895107 0.608169 0.662898
0.903207 0.607472 0.665382
0.912122 0.607295 0.668389
0.918437 0.605166 0.669603
0.930798 0.607289 0.674858
0.940043 0.607091 0.677971
0.956591 0.611882 0.685896
0.963055 0.609555 0.687067
0.972897 0.609487 0.690439
0.977654 0.605920 0.690443
0.989444 0.607021 0.695012
0.999079 0.606600 0.698131
1.008484 0.605958 0.701059
1.020530 0.606949 0.705637
1.029006 0.605574 0.707883
1.037024 0.603868 0.709804
1.050079 0.605257 0.714868
1.065615 0.608071 0.721422
1.073182 0.605916 0.722924
1.078101 0.602155 0.722754
1.091476 0.603441 0.727792
1.104275 0.604305 0.732408
1.110652 0.601365 0.733037
1.115967 0.597831 0.732999
1.132259 0.600569 0.739582
1.145485 0.601484 0.744236
1.156272 0.600985 0.747366
1.167876 0.600913 0.750933
1.171500 0.596468 0.749718
1.180159 0.594805 0.751466
1.200332 0.599292 0.759928
1.209467 0.597846 0.761848
1.216291 0.595208 0.762389
1.224529 0.593345 0.763723
1.245669 0.598111 0.772436
1.258607 0.598624 0.776355
1.264603 0.595646 0.776273
1.271656 0.593253 0.776772
1.287333 0.595150 0.782101
1.298491 0.594817 0.784830
1.311209 0.595252 0.788385
1.322820 0.595162 0.791275
1.330749 0.593345 0.792092
0.123224 0.597885 0.435922
0.125491 0.597126 0.436410
0.127673 0.595041 0.436138
0.130448 0.598957 0.439250
0.132933 0.599195 0.440277
0.135423 0.599049 0.441077
0.137958 0.598947 0.441892
0.140666 0.600035 0.443378
0.143400 0.600898 0.444728
0.145911 0.599508 0.444775
0.148562 0.599006 0.445320
0.151384 0.599547 0.446454
0.154472 0.601742 0.448537
0.157138 0.600460 0.448598
0.159921 0.599816 0.449016
0.162811 0.599677 0.449716
0.165668 0.599097 0.450148
0.168602 0.598810 0.450740
0.171425 0.597651 0.450810
0.174539 0.598095 0.451810
0.178095 0.600882 0.454182
0.181034 0.599872 0.454311
0.184063 0.599249 0.454658
0.187162 0.598883 0.455149
0.190536 0.599810 0.456399
0.193897 0.600490 0.457499
0.197056 0.600030 0.457915
0.200230 0.599557 0.458317
0.203567 0.599754 0.459115
0.206984 0.600211 0.460065
0.210192 0.599632 0.460391
0.213569 0.599730 0.461121
0.217097 0.600377 0.462180
0.220504 0.600429 0.462880
0.223853 0.600179 0.463398
0.227249 0.600066 0.463997
0.231122 0.601725 0.465674
0.234059 0.599750 0.465145
0.237747 0.600565 0.466314
0.241268 0.600696 0.467069
0.244578 0.600037 0.467345
0.249075 0.603454 0.470120
0.252064 0.601597 0.469669
0.255143 0.600071 0.469421
0.258978 0.601021 0.470702
0.262571 0.601130 0.471470
0.265736 0.599855 0.471387
0.269753 0.601214 0.472940
0.273351 0.601224 0.473664
0.276689 0.600430 0.473895
0.280541 0.601124 0.475058
0.284637 0.602464 0.476634
0.288341 0.602620 0.477479
0.291887 0.602302 0.478034
0.295051 0.600921 0.477928
0.299552 0.603131 0.480089
0.303095 0.602715 0.480606
0.306201 0.601147 0.480401
0.310044 0.601474 0.481401
0.313913 0.601824 0.482426
0.317586 0.601645 0.483124
0.321360 0.601685 0.483970
0.324835 0.600971 0.484343
0.329260 0.602488 0.486152
0.333690 0.603938 0.487932
0.335495 0.599292 0.485804
0.340421 0.601798 0.488283
0.344728 0.602820 0.489820
0.348446 0.602482 0.490489
0.352129 0.602041 0.491100
0.356757 0.603594 0.493017
0.361042 0.604348 0.494428
0.364674 0.603684 0.494924
0.367894 0.602157 0.494863
0.371698 0.601813 0.495585
0.375908 0.602252 0.496831
0.379971 0.602351 0.497865
0.383657 0.601675 0.498398
0.386926 0.600177 0.498393
0.391287 0.600747 0.499770
0.395799 0.601548 0.501313
0.399878 0.601486 0.502294
0.404037 0.601533 0.503359
0.409230 0.603400 0.505657
0.414064 0.604541 0.507485
0.417573 0.603283 0.507709
0.421081 0.602014 0.507931
0.425891 0.602967 0.509670
0.429402 0.601652 0.509881
0.434166 0.602423 0.511522
0.437844 0.601337 0.511908
0.442087 0.601158 0.512924
0.446457 0.601144 0.514066
0.450528 0.600609 0.514861
0.455316 0.601176 0.516428
0.460056 0.601609 0.517919
0.465328 0.602807 0.519956
0.469218 0.601828 0.520492
0.473207 0.600973 0.521125
0.477874 0.601103 0.522458
0.483182 0.602127 0.524437
0.487314 0.601370 0.525175
0.491656 0.600884 0.526117
0.496367 0.600889 0.527420
0.500614 0.600192 0.528238
0.507461 0.603086 0.531635
0.510909 0.601185 0.531620
0.515167 0.600379 0.532401
0.520265 0.600675 0.533989
0.524471 0.599726 0.534693
0.529224 0.599470 0.535912
0.535579 0.601258 0.538636
0.541763 0.602738 0.541161
0.546852 0.602738 0.542623
0.550203 0.600490 0.542449
0.555346 0.600478 0.543932
0.560479 0.600400 0.545385
0.565399 0.600013 0.546626
0.571860 0.601444 0.549241
0.576728 0.600884 0.550391
0.581663 0.600362 0.551587
0.585928 0.599010 0.552174
0.590469 0.597953 0.552997
0.597441 0.599650 0.555927
0.602821 0.599449 0.557440
0.611531 0.602937 0.561797
0.616296 0.601908 0.562727
0.621208 0.601004 0.563770
0.626703 0.600695 0.565292
0.632052 0.600175 0.566671
0.638238 0.600499 0.568729
0.644458 0.600791 0.570789
0.650573 0.600905 0.572737
0.656749 0.601019 0.574710
0.663601 0.601758 0.577206
0.669260 0.601211 0.578711
0.675167 0.600859 0.580395
0.683604 0.602957 0.584070
0.690594 0.603525 0.586556
0.695710 0.602197 0.587543
0.704386 0.604246 0.591293
0.710694 0.603935 0.593162
0.716179 0.602786 0.594375
0.723513 0.603310 0.596990
0.730557 0.603485 0.599352
0.737232 0.603249 0.601407
0.744823 0.603769 0.604127
0.751139 0.603068 0.605861
0.759175 0.603825 0.608854
0.767656 0.604877 0.612139
0.773571 0.603614 0.613502
0.781550 0.604064 0.616356
0.791100 0.605755 0.620317
0.799266 0.606172 0.623233
0.805907 0.605235 0.625020
0.814061 0.605477 0.627867
0.821473 0.605029 0.630152
0.830718 0.605978 0.633705
0.836643 0.604189 0.634887
0.842623 0.602395 0.636092
0.853083 0.604034 0.640392
0.868182 0.609116 0.647843
0.875255 0.607901 0.649701
0.884626 0.608353 0.653105
0.894421 0.609022 0.656756
0.900343 0.606739 0.657749
0.909650 0.606881 0.661001
0.922305 0.609338 0.666450
0.932106 0.609624 0.669941
0.940292 0.608677 0.672320
0.949260 0.608207 0.675183
0.962982 0.610933 0.681119
0.967880 0.607504 0.681244
0.977690 0.607371 0.684540
0.984214 0.604969 0.685678
0.999640 0.608398 0.692497
1.009607 0.608114 0.695757
1.019450 0.607676 0.698895
1.026405 0.605331 0.700169
1.032562 0.602459 0.700919
1.043662 0.602655 0.704734
1.059692 0.605811 0.711558
1.065879 0.602836 0.712219
1.080248 0.604789 0.717888
1.087841 0.602602 0.719342
1.099995 0.603091 0.723541
1.106473 0.600208 0.724247
1.117603 0.600016 0.727731
1.135455 0.603612 0.735187
1.144339 0.602032 0.737209
1.157007 0.602556 0.741435
1.165573 0.600772 0.743183
1.173079 0.598416 0.744274
1.179184 0.595326 0.744519
1.200854 0.600590 0.753780
1.211453 0.599874 0.756534
1.218210 0.597148 0.757035
1.228476 0.596282 0.759519
1.240160 0.596151 0.762767
1.249767 0.594963 0.764789
1.261993 0.595113 0.768248
1.272507 0.594409 0.770696
1.282017 0.593228 0.772544
1.295913 0.594215 0.776788
1.310425 0.595488 0.781312
1.326213 0.597358 0.786475
1.333235 0.595055 0.786787
1.339671 0.592537 0.786764
0.121138 0.601471 0.433908
0.123274 0.599234 0.433571
0.125446 0.597148 0.433304
0.127875 0.597626 0.434458
0.130282 0.597373 0.435194
0.132959 0.599461 0.437236
0.135427 0.598936 0.437802
0.137952 0.598589 0.438459
0.140545 0.598505 0.439252
0.143199 0.598595 0.440135
0.145871 0.598486 0.440894
0.148548 0.598098 0.441482
0.151430 0.599003 0.442799
0.154268 0.599228 0.443718
0.157271 0.600346 0.445140
0.160156 0.600306 0.445887
0.163085 0.600309 0.446648
0.166042 0.600262 0.447371
0.169000 0.600002 0.447960
0.171929 0.599378 0.448327
0.175270 0.601035 0.450012
0.178167 0.599857 0.450037
0.181518 0.601120 0.451479
0.184411 0.599666 0.451325
0.187510 0.599234 0.451760
0.190998 0.600688 0.453297
0.194361 0.601315 0.454343
0.197589 0.601134 0.454909
0.200720 0.600398 0.455142
0.203822 0.599462 0.455251
0.207115 0.599345 0.455841
0.210750 0.600649 0.457272
0.214394 0.601854 0.458646
0.217747 0.601710 0.459216
0.221212 0.601963 0.460023
0.224485 0.601376 0.460327
0.227615 0.600194 0.460274
0.231168 0.600629 0.461190
0.234544 0.600333 0.461670
0.238293 0.601365 0.462952
0.241609 0.600759 0.463250
0.244929 0.600145 0.463544
0.248230 0.599449 0.463792
0.252590 0.602317 0.466207
0.255454 0.600087 0.465530
0.259200 0.600766 0.466627
0.262948 0.601391 0.467698
0.266514 0.601388 0.468392
0.269961 0.600986 0.468848
0.273561 0.601028 0.469580
0.277079 0.600790 0.470148
0.281061 0.601882 0.471542
0.284226 0.600565 0.471457
0.289178 0.604282 0.474494
0.291372 0.600224 0.472722
0.295436 0.601348 0.474171
0.299052 0.601206 0.474841
0.303221 0.602490 0.476409
0.306717 0.601960 0.476854
0.310134 0.601212 0.477170
0.314423 0.602644 0.478861
0.317837 0.601836 0.479154
0.321429 0.601451 0.479722
0.325742 0.602773 0.481376
0.329063 0.601678 0.481512
0.332790 0.601527 0.482253
0.336630 0.601605 0.483149
0.340682 0.602124 0.484336
0.344801 0.602742 0.485597
0.349027 0.603544 0.486987
0.352321 0.602267 0.487054
0.355635 0.601031 0.487154
0.360642 0.603363 0.489562
0.364520 0.603245 0.490403
0.367844 0.601956 0.490494
0.371719 0.601780 0.491315
0.376067 0.602515 0.492739
0.380366 0.603096 0.494075
0.383783 0.601908 0.494265
0.387193 0.600698 0.494448
0.391086 0.600395 0.495234
0.395916 0.601813 0.497165
0.399674 0.601175 0.497752
0.404484 0.602432 0.499603
0.409066 0.603208 0.501151
0.413188 0.603103 0.502126
0.417305 0.602951 0.503080
0.421021 0.602065 0.503553
0.425436 0.602357 0.504827
0.429717 0.602374 0.505927
0.433545 0.601588 0.506497
0.437705 0.601329 0.507433
0.441773 0.600881 0.508252
0.446364 0.601247 0.509636
0.450503 0.600838 0.510504
0.454630 0.600375 0.511347
0.460586 0.602735 0.514138
0.464411 0.601707 0.514618
0.469124 0.602013 0.516029
0.473683 0.602034 0.517257
0.478330 0.602140 0.518557
0.482342 0.601262 0.519186
0.487798 0.602462 0.521277
0.491670 0.601307 0.521736
0.495586 0.600191 0.522233
0.500512 0.600477 0.523727
0.506531 0.602234 0.526278
0.511773 0.602833 0.528029
0.516099 0.602121 0.528865
0.520835 0.601929 0.530085
0.524340 0.600050 0.530112
0.528942 0.599609 0.531179
0.533715 0.599352 0.532392
0.540542 0.601703 0.535507
0.545951 0.602142 0.537262
0.549990 0.600788 0.537731
0.552984 0.598104 0.537240
0.560293 0.600765 0.540670
0.564444 0.599452 0.541210
0.568466 0.597956 0.541626
0.575478 0.600024 0.544692
0.581226 0.600495 0.546601
0.585493 0.599163 0.547188
0.591482 0.599805 0.549264
0.598175 0.601185 0.551920
0.602955 0.600308 0.552901
0.608200 0.599914 0.554265
0.615618 0.601890 0.557447
0.620716 0.601214 0.558641
0.625914 0.600601 0.559903
0.632267 0.601187 0.562106
0.637373 0.600370 0.563253
0.643180 0.600251 0.564960
0.649110 0.600202 0.566745
0.655381 0.600445 0.568783
0.662583 0.601574 0.571542
0.668995 0.601815 0.573636
0.674540 0.601119 0.575019
0.680002 0.600289 0.576319
0.684872 0.598830 0.577142
0.693076 0.600575 0.580544
0.698865 0.599894 0.582040
0.708712 0.603021 0.586632
0.716382 0.603964 0.589507
0.722893 0.603737 0.591471
0.729090 0.603154 0.593173
0.735747 0.602931 0.595201
0.744346 0.604395 0.598650
0.751172 0.604169 0.600746
0.758049 0.603918 0.602855
0.766496 0.604971 0.606087
0.772176 0.603529 0.607269
0.777185 0.601465 0.607953
0.786916 0.603368 0.612021
0.795294 0.604019 0.615077
0.804140 0.604963 0.618429
0.811368 0.604477 0.620599
0.820063 0.605111 0.623773
0.829490 0.606236 0.627423
0.835809 0.604782 0.628871
0.843470 0.604330 0.631229
0.851494 0.604085 0.633808
0.863247 0.606630 0.638905
0.873374 0.607794 0.642838
0.884202 0.609374 0.647200
