ply
format ascii 1.0
comment ---
element vertex 1771
property float x
property float y
property float z
element face 0
property list uchar uint vertex_indices
end_header
0.180502 0.601719 0.255093
0.183534 0.601437 0.255252
0.186541 0.600935 0.255354
0.189759 0.601585 0.255759
0.193380 0.604351 0.256722
0.196106 0.602107 0.256366
0.199336 0.602563 0.256722
0.202431 0.602268 0.256881
0.205353 0.601097 0.256808
0.208522 0.601149 0.257059
0.212057 0.602896 0.257762
0.215039 0.601995 0.257763
0.219754 0.608899 0.259845
0.222152 0.605307 0.259130
0.225075 0.604113 0.259056
0.228064 0.603235 0.259066
0.231388 0.603757 0.259453
0.236216 0.610290 0.261456
0.239662 0.611108 0.261929
0.241936 0.607358 0.261172
0.244635 0.605352 0.260885
0.250724 0.615982 0.264013
0.253428 0.613886 0.263707
0.254642 0.606540 0.261978
0.259536 0.612343 0.263814
0.262953 0.612842 0.264215
0.265883 0.611667 0.264161
0.270454 0.615960 0.265601
0.275684 0.622243 0.267589
0.276288 0.613464 0.265463
0.279157 0.612104 0.265365
0.283464 0.615227 0.266498
0.285793 0.612200 0.265945
0.288136 0.609291 0.265423
0.293622 0.615736 0.267482
0.296908 0.615564 0.267720
0.299504 0.613400 0.267409
0.302902 0.613538 0.267736
0.307302 0.616434 0.268831
0.311242 0.617960 0.269550
0.309936 0.605274 0.266311
0.312532 0.603295 0.266052
0.315171 0.601461 0.265833
0.318939 0.602565 0.266438
0.321916 0.601598 0.266465
0.324173 0.598822 0.265985
0.328394 0.600959 0.266888
0.335380 0.609759 0.269675
0.337966 0.607692 0.269402
0.338771 0.601414 0.267936
0.343928 0.605483 0.269402
0.348403 0.607833 0.270386
0.351301 0.606486 0.270321
0.353933 0.604542 0.270088
0.358227 0.606315 0.270916
0.363955 0.611165 0.272630
0.366871 0.609754 0.272556
0.369378 0.607463 0.272230
0.374783 0.611335 0.273678
0.377668 0.609804 0.273574
0.380810 0.608804 0.273625
0.385392 0.610735 0.274525
0.387306 0.607198 0.273844
0.388146 0.601566 0.272553
0.392098 0.602164 0.273072
0.393242 0.597243 0.271984
0.396889 0.597216 0.272324
0.401777 0.599515 0.273347
0.406211 0.600870 0.274099
0.410631 0.602130 0.274827
0.413748 0.600928 0.274833
0.420848 0.606954 0.276975
0.426962 0.611034 0.278551
0.430376 0.610187 0.278674
0.431469 0.605240 0.277580
0.433405 0.601829 0.276941
0.437879 0.602815 0.277612
0.441010 0.601457 0.277585
0.443369 0.598791 0.277169
0.446319 0.597126 0.277052
0.458604 0.610818 0.281556
0.462206 0.610041 0.281718
0.464837 0.607677 0.281403
0.464094 0.599948 0.279462
0.467866 0.599458 0.279712
0.471193 0.598245 0.279743
0.474518 0.597014 0.279771
0.483319 0.604130 0.282349
0.488052 0.604911 0.283001
0.491184 0.603240 0.282905
0.495819 0.603786 0.283491
0.499251 0.602518 0.283522
0.505870 0.605856 0.284977
0.509700 0.605080 0.285166
0.512808 0.603254 0.285032
0.515581 0.600952 0.284750
0.520927 0.602236 0.285586
0.523926 0.600218 0.285396
0.527385 0.598828 0.285403
0.531373 0.598137 0.285630
0.539597 0.603081 0.287633
0.544681 0.603728 0.288292
0.549305 0.603718 0.288747
0.553386 0.602960 0.288969
0.556257 0.600621 0.288691
0.559356 0.598573 0.288506
0.564188 0.598707 0.289018
0.568592 0.598261 0.289349
0.578211 0.604222 0.291737
0.582428 0.603416 0.291964
0.583926 0.599289 0.291122
0.587781 0.598025 0.291203
0.593194 0.598592 0.291879
0.597347 0.597622 0.292062
0.601726 0.596890 0.292324
0.607086 0.597260 0.292949
0.614776 0.600241 0.294434
0.618649 0.598799 0.294477
0.623046 0.597925 0.294709
0.629075 0.598836 0.295533
0.633522 0.597944 0.295766
0.638156 0.597226 0.296061
0.644786 0.598629 0.297065
0.648661 0.597015 0.297071
0.652916 0.595785 0.297207
0.661404 0.598971 0.298826
0.668549 0.600653 0.299951
0.669240 0.595614 0.298820
0.675517 0.596315 0.299624
0.682138 0.597300 0.300533
0.685058 0.594517 0.300168
0.701636 0.605266 0.304416
0.696579 0.594531 0.301347
0.704072 0.596145 0.302497
0.708094 0.594335 0.302479
0.712619 0.592988 0.302624
0.720976 0.595233 0.304016
0.726520 0.594751 0.304472
0.740369 0.601924 0.307599
0.746814 0.602106 0.308308
0.753859 0.602775 0.309195
0.760225 0.602762 0.309853
0.763536 0.599965 0.309537
0.763704 0.594382 0.308239
0.772740 0.596614 0.309707
0.786761 0.603071 0.312691
0.789252 0.599434 0.312097
0.788556 0.593090 0.310535
0.795386 0.593151 0.311268
0.801767 0.592774 0.311852
0.816024 0.598857 0.314781
0.820820 0.597005 0.314856
0.829641 0.598389 0.316115
0.832875 0.595186 0.315712
0.837057 0.592732 0.315587
0.841155 0.590188 0.315433
0.846902 0.588912 0.315752
0.850393 0.585842 0.315416
0.852069 0.581370 0.314561
0.848181 0.572690 0.312136
0.869553 0.577295 0.315510
0.883061 0.581495 0.317944
0.896837 0.585729 0.320416
0.921227 0.597464 0.325770
0.929782 0.597563 0.326729
0.944416 0.601877 0.329320
0.950864 0.600282 0.329665
0.955029 0.597045 0.329387
0.956768 0.592117 0.328458
0.960037 0.588237 0.327939
0.980788 0.596104 0.332026
0.978513 0.588383 0.330026
0.966184 0.574099 0.325424
0.965917 0.567880 0.323992
0.977513 0.569348 0.325622
1.040151 0.596818 0.338832
1.046471 0.594339 0.338989
1.055606 0.593545 0.339844
1.067319 0.594236 0.341324
1.078261 0.594335 0.342587
1.088138 0.593681 0.343564
1.098150 0.593008 0.344554
1.112616 0.594843 0.346610
1.118030 0.591280 0.346438
1.133568 0.593476 0.348700
1.145525 0.593477 0.350068
1.152385 0.590509 0.350197
1.168723 0.592733 0.352560
1.178473 0.591186 0.353336
1.191524 0.591342 0.354866
1.211782 0.595229 0.358047
1.219854 0.592476 0.358364
1.234643 0.593179 0.360213
1.243424 0.590655 0.360660
1.260476 0.592299 0.362974
1.281898 0.596000 0.366241
1.289585 0.592677 0.366378
1.310105 0.595647 0.369373
1.318901 0.592757 0.369726
1.336001 0.593838 0.371902
1.344721 0.590836 0.372211
1.363391 0.592499 0.374683
1.377848 0.592104 0.376210
1.379459 0.585777 0.374949
1.398405 0.587393 0.377417
1.423088 0.591496 0.381080
1.434541 0.589619 0.381899
1.442634 0.586289 0.382003
0.139929 0.596343 0.247545
0.142779 0.598855 0.248410
0.145669 0.601087 0.249206
0.148500 0.602185 0.249716
0.151197 0.601620 0.249805
0.153867 0.600524 0.249759
0.156889 0.602074 0.250383
0.159734 0.601831 0.250552
0.162591 0.601441 0.250683
0.165527 0.601426 0.250908
0.168627 0.602361 0.251377
0.171678 0.602728 0.251700
0.174632 0.602270 0.251812
0.177663 0.602191 0.252021
0.180770 0.602471 0.252322
0.183774 0.602004 0.252431
0.186772 0.601443 0.252516
0.189988 0.602073 0.252908
0.193582 0.604688 0.253815
0.196570 0.603850 0.253830
0.199436 0.602373 0.253679
0.202616 0.602529 0.253952
0.205711 0.602226 0.254106
0.208781 0.601786 0.254225
0.212058 0.602312 0.254597
0.215260 0.602453 0.254869
0.218304 0.601857 0.254950
0.221407 0.601535 0.255103
0.224802 0.602463 0.255585
0.227972 0.602396 0.255808
0.231084 0.602080 0.255966
0.234047 0.601170 0.255969
0.238510 0.606189 0.257538
0.240316 0.600753 0.256348
0.243395 0.600330 0.256482
0.246873 0.601392 0.257012
0.249910 0.600802 0.257104
0.252895 0.600035 0.257152
0.255780 0.598935 0.257111
0.259267 0.599931 0.257630
0.262635 0.600478 0.258032
0.265881 0.600587 0.258319
0.269116 0.600643 0.258593
0.272684 0.601746 0.259150
0.277018 0.605211 0.260345
0.280799 0.606830 0.261048
0.284773 0.608966 0.261894
0.287522 0.607341 0.261727
0.293235 0.614500 0.263938
0.297027 0.615830 0.264577
0.300866 0.617230 0.265238
0.303138 0.614152 0.264684
0.307990 0.618302 0.266099
0.309705 0.613724 0.265137
0.309741 0.604731 0.262965
0.312578 0.603414 0.262890
0.315558 0.602480 0.262921
0.318869 0.602402 0.263188
0.321523 0.600627 0.262989
0.324336 0.599270 0.262907
0.329693 0.604222 0.264569
0.335308 0.609641 0.266367
0.339215 0.610768 0.266982
0.341789 0.608667 0.266704
0.345044 0.608186 0.266877
0.351411 0.614894 0.269056
0.354025 0.612816 0.268790
0.355000 0.607060 0.267494
0.358982 0.608118 0.268105
0.365228 0.614096 0.270102
0.369018 0.614554 0.270554
0.369753 0.608413 0.269148
0.371737 0.605033 0.268518
0.381428 0.617834 0.272465
0.384580 0.616766 0.272497
0.385862 0.611868 0.271442
0.389683 0.612176 0.271866
0.391750 0.608941 0.271282
0.389220 0.596683 0.268119
0.397678 0.606082 0.271144
0.402357 0.607949 0.272022
0.405225 0.606288 0.271891
0.408041 0.604529 0.271732
0.411379 0.603744 0.271855
0.415169 0.603770 0.272213
0.420384 0.606347 0.273313
0.425930 0.609424 0.274564
0.429623 0.609098 0.274832
0.431624 0.605767 0.274226
0.433747 0.602682 0.273690
0.438159 0.603561 0.274313
0.441165 0.601989 0.274222
0.443444 0.599191 0.273770
0.446016 0.596900 0.273468
0.454517 0.604379 0.276048
0.461857 0.609766 0.278021
0.465307 0.608733 0.278102
0.464447 0.600810 0.276138
0.466958 0.598332 0.275787
0.470578 0.597594 0.275955
0.474058 0.596617 0.276054
0.475370 0.592306 0.275155
0.484351 0.599642 0.277749
0.494095 0.607927 0.280642
0.497461 0.606554 0.280637
0.498854 0.602276 0.279755
0.499260 0.596612 0.278451
0.506357 0.600631 0.280081
0.513619 0.604762 0.281754
0.518569 0.605515 0.282406
0.521253 0.603055 0.282080
0.525469 0.602713 0.282402
0.526043 0.597367 0.281191
0.530340 0.597115 0.281544
0.539075 0.602765 0.283719
0.546029 0.605902 0.285129
0.547995 0.602393 0.284488
0.551170 0.600479 0.284341
0.555832 0.600473 0.284788
0.560274 0.600145 0.285138
0.564242 0.599183 0.285293
0.569473 0.599773 0.285937
0.577112 0.603285 0.287504
0.581489 0.602692 0.287787
0.583812 0.599577 0.287276
0.587152 0.597700 0.287156
0.592247 0.597902 0.287698
0.596202 0.596713 0.287801
0.600567 0.595983 0.288052
0.607150 0.597782 0.289115
0.613256 0.598957 0.289985
0.617417 0.597861 0.290132
0.620326 0.595337 0.289821
0.627881 0.597978 0.291179
0.634053 0.599002 0.292022
0.639448 0.599113 0.292575
0.644670 0.598988 0.293057
0.648880 0.597735 0.293174
0.652086 0.595397 0.292939
0.663527 0.601698 0.295541
0.669096 0.601728 0.296095
0.672281 0.599253 0.295828
0.674875 0.596173 0.295361
0.680480 0.596144 0.295907
0.685784 0.595765 0.296342
0.689909 0.594175 0.296378
0.699752 0.598180 0.298290
0.703565 0.596192 0.298203
0.707996 0.594784 0.298314
0.715386 0.596178 0.299375
0.725181 0.599767 0.301188
0.727935 0.596637 0.300734
0.735004 0.597518 0.301645
0.736790 0.593469 0.300882
0.741183 0.591816 0.300938
0.756316 0.599828 0.304320
0.757667 0.595315 0.303409
0.775252 0.605203 0.307476
0.775856 0.599952 0.306320
0.780934 0.598628 0.306527
0.786451 0.597645 0.306859
0.787096 0.592467 0.305728
0.795361 0.593758 0.306868
0.800928 0.592707 0.307194
0.809393 0.594012 0.308360
0.814754 0.592681 0.308603
0.824883 0.595183 0.310218
0.832838 0.595822 0.311184
0.836070 0.592616 0.310782
0.847431 0.595819 0.312690
0.846626 0.589376 0.311133
0.843430 0.581136 0.308919
0.848005 0.578941 0.308895
0.854985 0.578543 0.309532
0.860627 0.577073 0.309788
0.881253 0.586715 0.314139
0.880593 0.580395 0.312637
0.890620 0.581924 0.314039
0.919581 0.597031 0.320511
0.929999 0.598484 0.321941
0.940931 0.600188 0.323485
0.951879 0.601781 0.325007
0.954376 0.597384 0.324285
0.958812 0.594318 0.324071
0.962595 0.590778 0.323683
0.963116 0.585020 0.322452
0.968695 0.582657 0.322524
0.974916 0.580671 0.322752
0.978723 0.577053 0.322358
0.982348 0.573295 0.321916
1.003297 0.580594 0.325808
1.040176 0.597717 0.333609
1.047967 0.596165 0.334114
1.056251 0.594844 0.334727
1.066003 0.594341 0.335682
1.077198 0.594613 0.336969
1.085471 0.593015 0.337525
1.096633 0.593052 0.338760
1.105157 0.591426 0.339342
1.112467 0.589017 0.339620
1.139276 0.597725 0.344483
1.145574 0.594493 0.344472
1.152745 0.591704 0.344656
1.168719 0.593739 0.346867
1.177159 0.591482 0.347309
1.190111 0.591604 0.348770
1.207192 0.593816 0.351143
1.216227 0.591606 0.351661
1.238029 0.596009 0.355034
1.245528 0.592806 0.355164
1.251299 0.588687 0.354901
1.279493 0.595877 0.359585
1.289833 0.593892 0.360288
1.296826 0.590207 0.360247
1.319760 0.594280 0.363658
1.331681 0.592872 0.364651
1.343178 0.591215 0.365536
1.360049 0.592048 0.367554
1.374612 0.591724 0.369056
1.387078 0.590385 0.370099
1.397653 0.588169 0.370732
1.419671 0.591089 0.373741
1.432828 0.589982 0.374883
1.438515 0.585601 0.374477
0.140523 0.601209 0.245891
0.142972 0.599467 0.245687
0.145708 0.600171 0.246087
0.148390 0.599905 0.246247
0.151281 0.601141 0.246780
0.154055 0.600932 0.246953
0.156978 0.601641 0.247355
0.160037 0.603092 0.247943
0.162850 0.602313 0.247973
0.165784 0.602251 0.248182
0.168784 0.602456 0.248458
0.171832 0.602796 0.248768
0.174836 0.602663 0.248960
0.178156 0.604429 0.249629
0.180993 0.602972 0.249487
0.183997 0.602499 0.249593
0.187261 0.603484 0.250068
0.190471 0.604032 0.250433
0.193669 0.604414 0.250756
0.196674 0.603693 0.250800
0.199779 0.603482 0.250975
0.202776 0.602693 0.251002
0.206129 0.603673 0.251481
0.209336 0.603867 0.251760
0.212335 0.603055 0.251783
0.215352 0.602340 0.251831
0.218510 0.602277 0.252047
0.222095 0.604071 0.252742
0.225018 0.602933 0.252684
0.228192 0.602887 0.252908
0.231392 0.602940 0.253159
0.234425 0.602306 0.253233
0.237484 0.601792 0.253339
0.240794 0.602258 0.253700
0.243536 0.600548 0.253498
0.246628 0.600191 0.253648
0.250097 0.601205 0.254156
0.253167 0.600750 0.254283
0.256447 0.601033 0.254604
0.259644 0.601008 0.254846
0.262754 0.600678 0.255010
0.266119 0.601189 0.255396
0.269257 0.600932 0.255582
0.272363 0.600564 0.255740
0.275686 0.600874 0.256079
0.278697 0.600190 0.256156
0.281672 0.599401 0.256207
0.286251 0.603431 0.257537
0.288556 0.600601 0.257050
0.291455 0.599562 0.257039
0.294665 0.599425 0.257269
0.298529 0.601113 0.257988
0.302423 0.602813 0.258714
0.306180 0.604061 0.259322
0.309217 0.603309 0.259396
0.312352 0.602814 0.259541
0.315769 0.603046 0.259882
0.318690 0.601962 0.259871
0.321590 0.600828 0.259848
0.324663 0.600133 0.259944
0.330754 0.606903 0.262065
0.335112 0.609225 0.262987
0.339148 0.610681 0.263677
0.342364 0.610114 0.263820
0.346979 0.612817 0.264857
0.351793 0.615880 0.265997
0.356072 0.617604 0.266775
0.356671 0.610948 0.265257
0.360747 0.612174 0.265902
0.365472 0.614766 0.266927
0.366714 0.609688 0.265839
0.368553 0.605982 0.265129
0.375252 0.612637 0.267286
0.380835 0.616755 0.268749
0.390100 0.628356 0.272298
0.387951 0.616315 0.269277
0.388251 0.609468 0.267695
0.389868 0.605375 0.266877
0.394044 0.606387 0.267488
0.397475 0.605888 0.267678
0.405177 0.613590 0.270177
0.408554 0.612840 0.270305
0.409596 0.607676 0.269188
0.411225 0.603684 0.268399
0.416042 0.605608 0.269285
0.422227 0.609939 0.270859
0.426023 0.609836 0.271179
0.429820 0.609701 0.271492
0.432035 0.606746 0.271002
0.434143 0.603630 0.270465
0.437209 0.602191 0.270407
0.440637 0.601362 0.270526
0.443305 0.599230 0.270272
0.446243 0.597556 0.270149
0.453075 0.602291 0.271881
0.457663 0.603229 0.272520
0.463568 0.606229 0.273763
0.468729 0.607940 0.274636
0.469577 0.602767 0.273507
0.471404 0.599194 0.272841
0.473554 0.596152 0.272329
0.481370 0.601795 0.274366
0.487498 0.604727 0.275615
0.493816 0.607843 0.276925
0.498167 0.607938 0.277349
0.498207 0.601668 0.275892
0.503079 0.602498 0.276536
0.503913 0.597468 0.275442
0.513626 0.605128 0.278126
0.516642 0.603162 0.277948
0.521443 0.603683 0.278515
0.524784 0.602137 0.278465
0.525455 0.596933 0.277316
0.529765 0.596712 0.277666
0.537898 0.601571 0.279553
0.545775 0.605953 0.281306
0.546639 0.601004 0.280236
0.549525 0.598737 0.279978
0.553428 0.597780 0.280120
0.559137 0.599100 0.280960
0.563161 0.598226 0.281133
0.571390 0.602579 0.282914
0.576856 0.603386 0.283613
0.581462 0.603082 0.283974
0.584178 0.600447 0.283617
0.587631 0.598704 0.283536
0.591212 0.597105 0.283502
0.594992 0.595726 0.283537
0.602179 0.598305 0.284811
0.603918 0.594494 0.284091
0.614130 0.600410 0.286424
0.617324 0.598214 0.286217
0.620004 0.595436 0.285827
0.624206 0.594358 0.285974
0.633800 0.599195 0.288001
0.639606 0.599762 0.288681
0.644381 0.599157 0.288994
0.648673 0.598000 0.289133
0.651536 0.595303 0.288782
0.659323 0.597781 0.290095
0.667705 0.600784 0.291586
0.669408 0.596798 0.290829
0.675280 0.597095 0.291457
0.680161 0.596336 0.291749
0.687050 0.597553 0.292688
0.692161 0.596933 0.293035
0.694363 0.593414 0.292436
0.698790 0.592078 0.292554
0.709305 0.596588 0.294602
0.714105 0.595501 0.294815
0.722369 0.597660 0.296108
0.730211 0.599331 0.297249
0.729515 0.592984 0.295727
0.735780 0.593107 0.296362
0.740858 0.592092 0.296623
0.746767 0.591789 0.297128
0.753865 0.592501 0.297982
0.759779 0.592093 0.298467
0.766918 0.592710 0.299305
0.774866 0.593960 0.300369
0.782487 0.594845 0.301318
0.789110 0.594802 0.301959
0.794871 0.593968 0.302337
0.799833 0.592420 0.302476
0.808664 0.594045 0.303718
0.814504 0.593118 0.304087
0.824840 0.595801 0.305720
0.831287 0.595233 0.306233
0.837129 0.594124 0.306565
0.845349 0.594848 0.307550
0.846963 0.590316 0.306691
0.844665 0.582766 0.304762
0.851293 0.582144 0.305289
0.858828 0.582151 0.306050
0.868501 0.583693 0.307373
0.910204 0.596963 0.314571
0.919528 0.597742 0.315695
0.926486 0.596726 0.316180
0.934788 0.596599 0.317002
0.946672 0.598905 0.318734
0.954431 0.598207 0.319378
0.957317 0.594079 0.318762
0.959018 0.589135 0.317846
0.961869 0.584974 0.317224
0.970515 0.584674 0.318055
0.974218 0.581019 0.317637
0.973203 0.574257 0.316047
0.980459 0.572891 0.316505
0.999402 0.578938 0.319812
1.039763 0.598329 0.328283
1.046716 0.596263 0.328563
1.054972 0.594941 0.329145
1.062582 0.593143 0.329556
1.079333 0.596820 0.332126
1.084286 0.593224 0.331869
1.098510 0.595097 0.333783
1.104730 0.592114 0.333798
1.113550 0.590591 0.334406
1.129527 0.593096 0.336648
1.145301 0.595314 0.338807
1.158247 0.595775 0.340287
1.166023 0.593239 0.340570
1.177482 0.592663 0.341669
1.187240 0.591060 0.342366
1.203843 0.593048 0.344567
1.214271 0.591602 0.345369
1.237014 0.596527 0.348858
1.247802 0.595038 0.349688
1.258380 0.593366 0.350454
1.273566 0.593957 0.352198
1.284000 0.592059 0.352896
1.306038 0.595837 0.356052
1.316899 0.593981 0.356798
1.328397 0.592388 0.357665
1.340339 0.590963 0.358610
1.359799 0.593037 0.361106
1.376428 0.593679 0.362984
1.385899 0.590954 0.363368
1.397583 0.589247 0.364199
1.412506 0.588989 0.365679
1.426792 0.588418 0.367015
1.436164 0.585676 0.367350
0.140577 0.600426 0.242827
0.143020 0.598632 0.242612
0.145750 0.599298 0.242993
0.148530 0.599957 0.243373
0.151152 0.598794 0.243309
0.154137 0.600457 0.243934
0.157024 0.600888 0.244259
0.160032 0.601952 0.244739
0.163058 0.602822 0.245172
0.166020 0.602951 0.245424
0.168976 0.602819 0.245611
0.171908 0.602353 0.245717
0.174999 0.602821 0.246052
0.178128 0.603364 0.246406
0.181320 0.604140 0.246819
0.184269 0.603316 0.246836
0.187640 0.604907 0.247452
0.190776 0.605006 0.247699
0.193758 0.604187 0.247718
0.196913 0.604286 0.247966
0.199935 0.603635 0.248027
0.203515 0.605814 0.248796
0.205784 0.601373 0.247910
0.209535 0.604260 0.248858
0.212454 0.603075 0.248788
0.215555 0.602764 0.248936
0.218851 0.603321 0.249305
0.222125 0.603741 0.249640
0.225161 0.603114 0.249712
0.228701 0.604609 0.250321
0.231964 0.604897 0.250627
0.234760 0.603290 0.250453
0.237727 0.602405 0.250463
0.240687 0.601524 0.250475
0.243771 0.601135 0.250612
0.247044 0.601452 0.250931
0.250010 0.600630 0.250960
0.253169 0.600515 0.251171
0.256235 0.600066 0.251297
0.259371 0.599863 0.251488
0.262799 0.600641 0.251932
0.266051 0.600791 0.252217
0.269413 0.601282 0.252591
0.272633 0.601287 0.252841
0.275964 0.601623 0.253179
0.278957 0.600883 0.253240
0.281910 0.600029 0.253272
0.285163 0.600083 0.253541
0.288685 0.600907 0.254012
0.291904 0.600807 0.254245
0.295077 0.600556 0.254440
0.298049 0.599725 0.254485
0.302889 0.604080 0.255890
0.304823 0.600335 0.255173
0.308702 0.601920 0.255858
0.312060 0.602046 0.256161
0.315357 0.601986 0.256416
0.318654 0.601900 0.256667
0.321606 0.600910 0.256679
0.324841 0.600629 0.256882
0.328315 0.600921 0.257238
0.332314 0.602459 0.257927
0.334871 0.600448 0.257674
0.338184 0.600261 0.257908
0.341874 0.600930 0.258373
0.346527 0.603784 0.259426
0.349919 0.603648 0.259681
0.354740 0.606709 0.260799
0.359920 0.610460 0.262107
0.362327 0.607979 0.261738
0.365303 0.606764 0.261711
0.369372 0.607890 0.262319
0.373433 0.608938 0.262909
0.377424 0.609778 0.263446
0.381480 0.610697 0.264008
0.384888 0.610233 0.264195
0.389541 0.612260 0.265065
0.392299 0.610418 0.264880
0.394412 0.607311 0.264347
0.399057 0.609175 0.265180
0.404181 0.611883 0.266251
0.408182 0.612350 0.266708
0.410488 0.609578 0.266271
0.411650 0.604702 0.265250
0.418018 0.609478 0.266908
0.423705 0.612869 0.268188
0.427351 0.612473 0.268417
0.430709 0.611534 0.268497
0.432644 0.608073 0.267872
0.433254 0.602344 0.266609
0.436642 0.601481 0.266711
0.440088 0.600698 0.266836
0.443038 0.599056 0.266720
0.445805 0.597105 0.266518
0.451756 0.600404 0.267803
0.457966 0.604014 0.269184
0.463898 0.607060 0.270411
0.470518 0.611098 0.271926
0.474313 0.610552 0.272139
0.476286 0.607129 0.271531
0.478970 0.604836 0.271245
0.480442 0.600696 0.270428
0.487876 0.605627 0.272222
0.492878 0.606771 0.272932
0.493964 0.602044 0.271947
0.499815 0.604367 0.273003
0.505089 0.605762 0.273796
0.510928 0.607899 0.274809
0.509011 0.598915 0.272581
0.512347 0.597471 0.272551
0.517999 0.599244 0.273465
0.522482 0.599326 0.273887
0.524428 0.595898 0.273278
0.530267 0.597764 0.274231
0.535415 0.598626 0.274893
0.539833 0.598461 0.275254
0.551215 0.607402 0.278325
0.549754 0.599426 0.276371
0.554308 0.599309 0.276756
0.558938 0.599248 0.277161
0.562098 0.597290 0.277000
0.565746 0.595937 0.277022
0.577254 0.604297 0.279974
0.582387 0.604638 0.280518
0.584471 0.601228 0.279929
0.587822 0.599363 0.279808
0.591090 0.597391 0.279656
0.594006 0.594998 0.279376
0.602664 0.599313 0.281148
0.604029 0.595066 0.280304
0.614685 0.601499 0.282742
0.616754 0.598023 0.282140
0.620070 0.595967 0.281975
0.627043 0.597978 0.283070
0.632677 0.598428 0.283689
0.638355 0.598872 0.284310
0.644335 0.599588 0.285021
0.648210 0.597988 0.285014
0.651598 0.595856 0.284841
0.657896 0.596774 0.285629
0.665320 0.598801 0.286773
0.670265 0.598186 0.287090
0.673500 0.595785 0.286844
0.679030 0.595704 0.287337
0.687407 0.598431 0.288730
0.691304 0.596605 0.288678
0.692354 0.591964 0.287725
0.696220 0.590103 0.287664
0.706932 0.594836 0.289730
0.711712 0.593756 0.289932
0.718005 0.594077 0.290591
0.726650 0.596546 0.291957
0.728866 0.592938 0.291351
0.735984 0.593859 0.292225
0.741223 0.592993 0.292522
0.748214 0.593672 0.293333
0.757249 0.596112 0.294732
0.762834 0.595390 0.295097
0.768012 0.594264 0.295334
0.771919 0.591995 0.295195
0.778613 0.592112 0.295856
0.787772 0.594272 0.297210
0.794206 0.594025 0.297767
0.800186 0.593340 0.298184
0.807842 0.593995 0.299062
0.820121 0.598375 0.301215
0.823633 0.595467 0.300904
0.830676 0.595395 0.301565
0.836681 0.594427 0.301928
0.843238 0.593846 0.302432
0.849073 0.592640 0.302729
0.854749 0.591263 0.302973
0.868978 0.596414 0.305495
0.873546 0.594039 0.305415
0.878154 0.591663 0.305340
0.883999 0.590181 0.305584
0.878236 0.580069 0.302793
0.911031 0.598300 0.310022
0.918453 0.597704 0.310621
0.926423 0.597429 0.311346
0.930608 0.594386 0.311093
0.934648 0.591216 0.310800
0.949183 0.595329 0.313141
0.953980 0.592559 0.313014
0.962253 0.592125 0.313744
0.966686 0.589014 0.313510
0.965099 0.581849 0.311795
0.974304 0.581876 0.312724
0.975248 0.576397 0.311633
0.992586 0.581557 0.314495
1.014221 0.589267 0.318342
1.034144 0.595627 0.321728
1.041984 0.594162 0.322207
1.053214 0.594728 0.323468
1.062600 0.594040 0.324274
1.075722 0.595528 0.325930
1.085535 0.594882 0.326792
1.094467 0.593613 0.327433
1.107668 0.594769 0.329030
1.113800 0.591672 0.328997
1.137111 0.598408 0.332824
1.140568 0.593586 0.332151
1.150076 0.592156 0.332823
1.168296 0.595484 0.335404
1.176451 0.593088 0.335733
1.186743 0.591789 0.336515
1.196857 0.590308 0.337241
1.223515 0.597529 0.341519
1.232268 0.595075 0.341896
1.242874 0.593526 0.342657
1.265220 0.597921 0.345887
1.269641 0.593029 0.345298
1.281312 0.591778 0.346226
1.298453 0.593165 0.348274
1.312733 0.593027 0.349702
1.324410 0.591549 0.350572
1.342439 0.593055 0.352726
1.354384 0.591582 0.353616
1.370140 0.591852 0.355262
1.385455 0.591852 0.356800
1.395085 0.589212 0.357185
1.408031 0.588080 0.358224
1.426272 0.589291 0.360297
1.442274 0.589462 0.361910
0.140286 0.596060 0.238925
0.143210 0.599246 0.239895
0.145837 0.598886 0.240023
0.148519 0.598646 0.240178
0.151326 0.599153 0.240513
0.154114 0.599128 0.240721
0.157006 0.599635 0.241055
0.159989 0.600545 0.241488
0.163066 0.601855 0.242017
0.166015 0.601913 0.242246
0.169069 0.602515 0.242606
0.171870 0.601176 0.242498
0.174941 0.601552 0.242803
0.178330 0.603796 0.243562
0.181322 0.603335 0.243667
0.184430 0.603496 0.243923
0.187540 0.603573 0.244159
0.190788 0.604349 0.244565
0.193856 0.604036 0.244707
0.197044 0.604324 0.244996
0.200169 0.604229 0.245193
0.203087 0.603047 0.245123
0.206609 0.604874 0.245792
0.209606 0.604060 0.245813
0.212590 0.603203 0.245825
0.215556 0.602279 0.245820
0.219074 0.603859 0.246433
0.222214 0.603696 0.246618
0.225400 0.603724 0.246851
0.228771 0.604515 0.247273
0.231460 0.602466 0.246993
0.234818 0.603176 0.247397
0.237811 0.602413 0.247437
0.240822 0.601741 0.247500
0.244009 0.601751 0.247734
0.247205 0.601783 0.247975
0.250396 0.601787 0.248210
0.253079 0.599966 0.247988
0.256302 0.600093 0.248256
0.259698 0.600796 0.248670
0.262840 0.600603 0.248861
0.265972 0.600368 0.249041
0.269684 0.602019 0.249701
0.272771 0.601597 0.249837
0.276150 0.602091 0.250208
0.279134 0.601328 0.250260
0.282120 0.600581 0.250318
0.285417 0.600769 0.250614
0.289037 0.601884 0.251150
0.292374 0.602122 0.251463
0.295472 0.601648 0.251596
0.298830 0.601899 0.251916
0.302131 0.601961 0.252189
0.305290 0.601609 0.252358
0.308695 0.601905 0.252695
0.312049 0.602033 0.252990
0.315249 0.601728 0.253175
0.318425 0.601342 0.253341
0.321760 0.601347 0.253610
0.325099 0.601332 0.253875
0.328738 0.602031 0.254328
0.331338 0.600146 0.254109
0.335170 0.601249 0.254671
0.338589 0.601312 0.254964
0.342223 0.601847 0.255382
0.345653 0.601864 0.255667
0.348948 0.601541 0.255864
0.352005 0.600655 0.255914
0.355416 0.600549 0.256171
0.358566 0.599839 0.256271
0.362140 0.600032 0.256611
0.366169 0.601167 0.257203
0.369653 0.601082 0.257474
0.373080 0.600846 0.257706
0.377172 0.601956 0.258300
0.380471 0.601381 0.258446
0.383329 0.599896 0.258350
0.388665 0.603356 0.259582
0.393089 0.604900 0.260305
0.396302 0.604010 0.260374
0.400798 0.605575 0.261108
0.404367 0.605301 0.261349
0.406567 0.602417 0.260883
0.413680 0.608710 0.262910
0.418474 0.610554 0.263734
0.422663 0.611215 0.264241
0.425582 0.609539 0.264111
0.430378 0.611200 0.264896
0.435652 0.613627 0.265894
0.432619 0.601500 0.262898
0.435810 0.600316 0.262904
0.440156 0.601084 0.263450
0.443015 0.599292 0.263292
0.445972 0.597664 0.263179
0.454419 0.605080 0.265578
0.460101 0.607789 0.266678
0.464743 0.608722 0.267288
0.472151 0.614012 0.269119
0.477446 0.615811 0.269982
0.480747 0.614415 0.269953
0.479148 0.605429 0.267791
0.483177 0.605202 0.268089
0.485895 0.602954 0.267819
0.491961 0.605729 0.268969
0.497080 0.607003 0.269700
0.497981 0.602015 0.268656
0.503123 0.603251 0.269381
0.506415 0.601759 0.269332
0.512242 0.603867 0.270313
0.510711 0.595520 0.268304
0.513984 0.594002 0.268247
0.522023 0.599058 0.270084
0.526544 0.599159 0.270501
0.532272 0.600852 0.271382
0.534497 0.597775 0.270885
0.539972 0.599029 0.271645
0.544813 0.599382 0.272148
0.551521 0.602117 0.273348
0.555709 0.601510 0.273579
0.559316 0.600130 0.273585
0.563400 0.599337 0.273765
0.565885 0.596519 0.273351
0.578161 0.605838 0.276519
0.579418 0.601419 0.275638
0.582580 0.599355 0.275454
0.585274 0.596725 0.275101
0.590271 0.596845 0.275568
0.594446 0.595950 0.275735
0.599804 0.596411 0.276311
0.606813 0.598731 0.277449
0.614093 0.601272 0.278660
0.616077 0.597707 0.278038
0.619816 0.596139 0.278018
0.626190 0.597491 0.278884
0.632331 0.598515 0.279657
0.637023 0.597889 0.279933
0.641752 0.597270 0.280214
0.648071 0.598321 0.281011
0.652119 0.596894 0.281052
0.658651 0.598059 0.281893
0.665160 0.599132 0.282713
0.669496 0.597894 0.282823
0.672333 0.595097 0.282453
0.680312 0.597513 0.283705
0.686006 0.597542 0.284221
0.690601 0.596428 0.284385
0.688877 0.589061 0.282591
0.697161 0.591546 0.283888
0.704838 0.593347 0.284979
0.710008 0.592663 0.285292
0.717844 0.594469 0.286400
0.723851 0.594469 0.286942
0.728258 0.592927 0.286999
0.733060 0.591725 0.287168
0.741938 0.594213 0.288524
0.746273 0.592488 0.288536
0.753667 0.593482 0.289428
0.760459 0.593866 0.290132
0.766919 0.593893 0.290728
0.773681 0.594124 0.291397
0.778945 0.592999 0.291631
0.786597 0.593876 0.292527
0.794341 0.594754 0.293431
0.801098 0.594725 0.294047
0.807984 0.594741 0.294686
0.818479 0.597663 0.296297
0.825457 0.597596 0.296928
0.829417 0.595027 0.296733
0.836947 0.595294 0.297491
0.845340 0.596172 0.298464
0.851657 0.595334 0.298870
0.857213 0.593850 0.299066
0.864557 0.593698 0.299720
0.872660 0.594054 0.300558
0.881554 0.594925 0.301584
0.887001 0.593125 0.301707
0.898173 0.595521 0.303281
0.910064 0.598318 0.305012
0.917389 0.597666 0.305565
0.924653 0.596899 0.306090
0.930487 0.595046 0.306245
0.933005 0.590809 0.305572
0.944574 0.592880 0.307124
0.953705 0.593139 0.308054
0.968549 0.597205 0.310352
0.969234 0.591520 0.309199
0.967439 0.584197 0.307458
0.970415 0.580091 0.306868
0.973884 0.576296 0.306393
0.990493 0.581008 0.309008
1.019882 0.593731 0.314573
1.026952 0.591905 0.314872
1.041479 0.594701 0.316882
1.052190 0.594958 0.317983
1.062464 0.594833 0.318961
1.072033 0.594170 0.319759
1.084558 0.595192 0.321204
1.094436 0.594501 0.322028
1.106349 0.594910 0.323287
1.114162 0.592807 0.323613
1.124095 0.591855 0.324393
1.136883 0.592435 0.325777
1.151689 0.594021 0.327573
1.167920 0.596248 0.329646
1.177186 0.594471 0.330189
1.188530 0.593748 0.331160
1.200290 0.593150 0.332198
1.221051 0.597235 0.335110
1.230541 0.595189 0.335620
1.236162 0.591068 0.335309
1.250251 0.591282 0.336746
1.267107 0.592789 0.338727
1.277670 0.591004 0.339391
1.298757 0.594377 0.342178
1.309958 0.592737 0.342931
1.319152 0.590078 0.343268
1.341514 0.593695 0.346222
1.351015 0.591075 0.346589
1.366595 0.591287 0.348147
1.381688 0.591209 0.349590
1.394766 0.590160 0.350624
1.415777 0.592665 0.353181
1.429190 0.591690 0.354250
1.419603 0.580580 0.350912
0.141107 0.603299 0.237772
0.143758 0.603438 0.238012
0.146358 0.602630 0.238032
0.148821 0.600227 0.237678
0.151414 0.598782 0.237548
0.154222 0.598933 0.237791
0.156942 0.598051 0.237792
0.160047 0.599964 0.238450
0.162966 0.600100 0.238691
0.165804 0.599417 0.238739
0.168796 0.599667 0.239007
0.171799 0.599804 0.239249
0.174950 0.600754 0.239685
0.177989 0.600801 0.239906
0.181510 0.603705 0.240808
0.184491 0.603103 0.240877
0.187620 0.603316 0.241141
0.190680 0.603048 0.241290
0.194020 0.604276 0.241798
0.197147 0.604244 0.242004
0.200267 0.604134 0.242193
0.203574 0.604939 0.242603
0.206420 0.603401 0.242449
0.209696 0.603977 0.242805
0.212681 0.603140 0.242821
0.215625 0.602135 0.242797
0.218884 0.602570 0.243121
0.222397 0.604080 0.243707
0.225474 0.603651 0.243824
0.228212 0.601806 0.243597
0.231183 0.600985 0.243620
0.234718 0.602451 0.244201
0.237820 0.602146 0.244351
0.240834 0.601504 0.244419
0.244110 0.601869 0.244735
0.247575 0.602904 0.245217
0.249952 0.599948 0.244720
0.253255 0.600385 0.245056
0.256357 0.600089 0.245214
0.260194 0.602318 0.245996
0.263011 0.601015 0.245908
0.265907 0.600007 0.245893
0.269316 0.600687 0.246297
0.273233 0.602958 0.247098
0.276025 0.601592 0.246997
0.279105 0.601148 0.247127
0.282231 0.600840 0.247291
0.285537 0.601060 0.247589
0.289267 0.602510 0.248196
0.292750 0.603174 0.248609
0.295874 0.602768 0.248755
0.298992 0.602335 0.248895
0.302212 0.602177 0.249106
0.305629 0.602537 0.249449
0.309007 0.602760 0.249759
0.312337 0.602821 0.250030
0.315422 0.602212 0.250132
0.318628 0.601909 0.250314
0.321873 0.601686 0.250517
0.325602 0.602656 0.251026
0.328762 0.602160 0.251163
0.332155 0.602219 0.251443
0.335363 0.601802 0.251603
0.338778 0.601857 0.251885
0.342034 0.601506 0.252065
0.345884 0.602510 0.252595
0.348939 0.601637 0.252644
0.352815 0.602610 0.253171
0.355875 0.601706 0.253214
0.359004 0.600943 0.253296
0.362065 0.600017 0.253335
0.366325 0.601655 0.254044
0.369844 0.601647 0.254326
0.373035 0.600919 0.254422
0.375965 0.599632 0.254374
0.380031 0.600664 0.254934
0.383174 0.599770 0.254991
0.386766 0.599757 0.255281
0.391085 0.601145 0.255942
0.394971 0.601618 0.256365
0.398553 0.601459 0.256623
0.402603 0.602159 0.257111
0.405695 0.600999 0.257108
0.408872 0.599986 0.257145
0.412718 0.600190 0.257507
0.418018 0.603000 0.258567
0.420989 0.601517 0.258484
0.423975 0.600053 0.258406
0.428705 0.601655 0.259153
0.432368 0.601324 0.259384
0.436265 0.601365 0.259716
0.439867 0.600863 0.259904
0.443431 0.600269 0.260069
0.446534 0.598880 0.260020
0.458903 0.612763 0.264123
0.461144 0.609786 0.263652
0.464122 0.608020 0.263509
0.471303 0.612964 0.265203
0.476411 0.614488 0.265967
0.477546 0.609727 0.265009
0.485772 0.615997 0.267084
0.487823 0.612639 0.266514
0.487390 0.605545 0.264910
0.492280 0.606540 0.265540
0.496850 0.606999 0.266025
0.498215 0.602697 0.265190
0.500160 0.599287 0.264600
0.505546 0.600857 0.265400
0.507446 0.597388 0.264794
0.519155 0.607783 0.268075
0.517166 0.598801 0.265925
0.520156 0.596841 0.265744
0.534178 0.609973 0.269825
0.535700 0.605870 0.269048
0.538116 0.603005 0.268620
0.542953 0.603368 0.269109
0.546185 0.601573 0.268987
0.552750 0.604110 0.270102
0.556160 0.602487 0.270033
0.559764 0.601102 0.270033
0.563970 0.600463 0.270249
0.567704 0.599202 0.270288
0.579374 0.607758 0.273163
0.576654 0.598445 0.270881
0.581451 0.598405 0.271280
0.588367 0.600873 0.272411
0.593034 0.600569 0.272741
0.596728 0.599078 0.272728
0.602031 0.599454 0.273262
0.608465 0.601088 0.274171
0.613064 0.600542 0.274443
0.616316 0.598431 0.274257
0.619308 0.596023 0.273983
0.624849 0.596457 0.274553
0.631385 0.597937 0.275437
0.636005 0.597247 0.275681
0.639338 0.595130 0.275502
0.644337 0.594795 0.275858
0.651959 0.597207 0.277042
0.659834 0.599795 0.278287
0.664929 0.599387 0.278636
0.668309 0.597166 0.278440
0.673236 0.596523 0.278725
0.679769 0.597471 0.279496
0.684880 0.596924 0.279818
0.690479 0.596824 0.280281
0.689305 0.590000 0.278687
0.697077 0.591988 0.279795
0.704793 0.593834 0.280869
0.706673 0.590002 0.280196
0.716572 0.593803 0.281887
0.723088 0.594299 0.282563
0.729637 0.594763 0.283236
0.732753 0.591997 0.282906
0.736912 0.590181 0.282874
0.745191 0.592076 0.284012
0.753689 0.594076 0.285193
0.758919 0.593078 0.285436
0.762785 0.590839 0.285290
0.775770 0.596539 0.287672
0.778032 0.592807 0.287063
0.781523 0.590137 0.286793
0.792912 0.594154 0.288672
0.799491 0.593993 0.289221
0.806571 0.594189 0.289893
0.816901 0.596995 0.291419
0.821619 0.595103 0.291432
0.826743 0.593508 0.291546
0.835546 0.594823 0.292617
0.841750 0.593983 0.292993
0.848806 0.593759 0.293579
0.855948 0.593535 0.294174
0.865076 0.594773 0.295263
0.873789 0.595599 0.296228
0.880910 0.595130 0.296772
0.888789 0.595161 0.297494
0.895556 0.594290 0.297923
0.905775 0.595890 0.299195
0.914015 0.595940 0.299957
0.922188 0.595859 0.300687
0.928363 0.594272 0.300916
0.934441 0.592564 0.301111
0.942346 0.592077 0.301734
0.950468 0.591663 0.302395
0.964434 0.595164 0.304426
0.974497 0.595861 0.305504
0.979352 0.592958 0.305341
0.980801 0.587760 0.304380
0.979286 0.580626 0.302736
0.989786 0.581348 0.303867
1.008748 0.587398 0.306908
1.031657 0.595731 0.310799
1.043013 0.596513 0.312027
1.052419 0.595957 0.312793
1.061230 0.594938 0.313408
1.070671 0.594215 0.314146
1.079394 0.592964 0.314708
1.091618 0.593716 0.316018
1.100524 0.592380 0.316582
1.115712 0.594625 0.318486
1.125878 0.593807 0.319280
1.135852 0.592780 0.320012
1.148816 0.593347 0.321360
1.161314 0.593523 0.322583
1.179060 0.596472 0.324881
1.183055 0.591740 0.324280
1.198891 0.593381 0.326125
1.211551 0.593178 0.327286
1.226401 0.594018 0.328871
1.234514 0.591222 0.329062
1.255447 0.594975 0.331828
1.266984 0.593758 0.332669
1.280402 0.593413 0.333867
1.300285 0.596186 0.336325
1.308554 0.593104 0.336462
1.324999 0.593969 0.338192
1.334012 0.591172 0.338453
1.342120 0.587937 0.338533
1.372138 0.594958 0.342815
1.381676 0.592286 0.343138
1.391631 0.589813 0.343536
1.414850 0.593340 0.346431
1.425472 0.591126 0.346934
1.430371 0.586407 0.346368
0.142319 0.614587 0.237480
0.144626 0.610807 0.236821
0.146814 0.605756 0.235870
0.149476 0.605044 0.235910
0.151939 0.602265 0.235476
0.154655 0.601500 0.235504
0.157759 0.603637 0.236199
0.161059 0.606872 0.237150
0.163839 0.605705 0.237087
0.166556 0.603954 0.236888
0.170846 0.613164 0.239228
0.173089 0.607697 0.238169
0.175964 0.606587 0.238120
0.178894 0.605766 0.238137
0.182911 0.611581 0.239700
0.185151 0.606327 0.238685
0.187594 0.602470 0.237994
0.190736 0.602704 0.238257
0.194102 0.604093 0.238792
0.197202 0.603937 0.238966
0.200030 0.602335 0.238801
0.203145 0.602226 0.238986
0.206403 0.602801 0.239333
0.209641 0.603223 0.239645
0.212793 0.603202 0.239854
0.215847 0.602714 0.239952
0.218677 0.601228 0.239815
0.221568 0.600065 0.239754
0.225603 0.603830 0.240864
0.228230 0.601534 0.240535
0.231633 0.602500 0.240983
0.234918 0.602944 0.241308
0.237697 0.601379 0.241153
0.240929 0.601604 0.241428
0.244248 0.602139 0.241778
0.247237 0.601426 0.241829
0.250235 0.600759 0.241892
0.253100 0.599634 0.241845
0.256448 0.600227 0.242213
0.259831 0.600907 0.242603
0.263044 0.600977 0.242848
0.266038 0.600305 0.242914
0.269236 0.600307 0.243144
0.273047 0.602254 0.243849
0.276160 0.601923 0.244001
0.279004 0.600754 0.243950
0.282205 0.600692 0.244169
0.285418 0.600649 0.244395
0.288790 0.601054 0.244732
0.292839 0.603397 0.245546
0.295912 0.602853 0.245654
0.298980 0.602290 0.245758
0.302273 0.602345 0.246015
0.305616 0.602512 0.246301
0.309265 0.603475 0.246786
0.312661 0.603710 0.247093
0.315860 0.603400 0.247266
0.318696 0.602132 0.247202
0.321967 0.601981 0.247416
0.325510 0.602488 0.247797
0.329286 0.603532 0.248314
0.332494 0.603130 0.248471
0.335646 0.602574 0.248590
0.338306 0.600831 0.248413
0.341376 0.600067 0.248482
0.345102 0.600812 0.248932
0.348692 0.601194 0.249294
0.352079 0.601078 0.249531
0.356386 0.602982 0.250282
0.359397 0.601951 0.250291
0.362399 0.600893 0.250294
0.366074 0.601274 0.250664
0.370003 0.602150 0.251163
0.373068 0.601158 0.251187
0.375977 0.599833 0.251127
0.379197 0.599140 0.251229
0.383270 0.600152 0.251771
0.387296 0.601012 0.252277
0.390572 0.600333 0.252388
0.394174 0.600272 0.252660
0.397846 0.600309 0.252959
0.402234 0.601673 0.253605
0.405615 0.601071 0.253743
0.408942 0.600345 0.253850
0.412774 0.600529 0.254196
0.417490 0.602282 0.254954
0.421167 0.602083 0.255205
0.424121 0.600563 0.255110
0.427698 0.600138 0.255305
0.432153 0.601212 0.255896
0.435964 0.601113 0.256180
0.439804 0.601027 0.256470
0.443797 0.601163 0.256821
0.447143 0.600178 0.256876
0.450348 0.598940 0.256866
0.453613 0.597787 0.256878
0.456787 0.596474 0.256849
0.465382 0.603811 0.259137
0.468220 0.601850 0.258941
0.473195 0.603235 0.259644
0.477271 0.603158 0.259957
0.480671 0.602008 0.259983
0.485548 0.603079 0.260611
0.490933 0.604850 0.261432
0.493853 0.602884 0.261242
0.496060 0.599868 0.260768
0.503065 0.603854 0.262201
0.509914 0.607494 0.263547
0.511102 0.602949 0.262658
0.514514 0.601593 0.262642
0.520934 0.604424 0.263779
0.528955 0.609372 0.265504
0.531871 0.607189 0.265269
0.537245 0.608341 0.265957
0.540223 0.606211 0.265739
0.543843 0.604935 0.265758
0.549507 0.606330 0.266523
0.554108 0.606272 0.266887
0.554129 0.600265 0.265588
0.559047 0.600587 0.266060
0.563455 0.600215 0.266341
0.567361 0.599180 0.266437
0.577115 0.605374 0.268577
0.582501 0.606041 0.269163
0.588165 0.606991 0.269833
0.591316 0.604851 0.269629
0.592432 0.600281 0.268733
0.595617 0.598199 0.268545
0.603551 0.601671 0.269948
0.609693 0.602955 0.270731
0.613351 0.601320 0.270679
0.614138 0.596405 0.269683
0.619239 0.596399 0.270103
0.623905 0.595862 0.270372
0.632008 0.599089 0.271738
0.638178 0.600094 0.272465
0.644731 0.601449 0.273299
0.646322 0.597402 0.272559
0.650475 0.596112 0.272625
0.658637 0.599023 0.273929
0.663095 0.597966 0.274072
0.667868 0.597207 0.274306
0.673345 0.597135 0.274746
0.679189 0.597389 0.275287
0.684068 0.596619 0.275529
0.690911 0.597770 0.276347
0.694908 0.596042 0.276310
0.701863 0.597187 0.277137
0.701879 0.591541 0.275927
0.704973 0.588902 0.275620
0.711547 0.589567 0.276314
0.722033 0.593850 0.278114
0.730709 0.596313 0.279372
0.735623 0.595200 0.279547
0.739744 0.593329 0.279494
0.749482 0.596529 0.281002
0.757478 0.598050 0.282003
0.758740 0.593494 0.281137
0.762610 0.591265 0.280989
0.768641 0.590905 0.281425
0.778681 0.593961 0.282930
0.785531 0.594167 0.283558
0.790885 0.593039 0.283775
0.799466 0.594583 0.284837
0.805513 0.593925 0.285214
0.816987 0.597693 0.286999
0.823237 0.597056 0.287400
0.827355 0.594640 0.287242
0.831640 0.592337 0.287123
0.839836 0.593114 0.287995
0.846445 0.592559 0.288449
0.856562 0.594676 0.289773
0.863803 0.594463 0.290356
0.872105 0.594991 0.291189
0.880432 0.595454 0.292012
0.888947 0.595972 0.292864
0.898793 0.597391 0.294023
0.903630 0.595023 0.293949
0.912178 0.595320 0.294761
0.920946 0.595689 0.295609
0.927402 0.594317 0.295889
0.929888 0.590085 0.295223
0.934831 0.587568 0.295134
0.946232 0.589483 0.296543
0.961025 0.593594 0.298712
0.971468 0.594581 0.299845
0.987856 0.599444 0.302316
0.985046 0.591360 0.300385
0.985536 0.585514 0.299215
0.996960 0.586804 0.300505
1.009722 0.588831 0.302068
1.025367 0.592550 0.304242
1.042147 0.596804 0.306630
1.050134 0.595378 0.307055
1.063315 0.597079 0.308594
1.069294 0.594238 0.308549
1.078096 0.593051 0.309101
1.087123 0.591913 0.309684
1.102609 0.594502 0.311620
1.108851 0.591520 0.311575
1.128773 0.596392 0.314384
1.137516 0.594652 0.314822
1.147443 0.593503 0.315490
1.159617 0.593517 0.316602
1.172024 0.593543 0.317737
1.185847 0.594224 0.319136
1.197138 0.593407 0.319998
1.207271 0.591876 0.320609
1.218068 0.590616 0.321335
1.232469 0.591154 0.322756
1.255433 0.595980 0.325835
1.267670 0.595127 0.326773
1.278746 0.593607 0.327468
1.297103 0.595645 0.329551
1.304392 0.592103 0.329483
1.326440 0.595721 0.332221
1.331660 0.591098 0.331737
1.343472 0.589634 0.332497
1.365461 0.592903 0.335147
1.380031 0.592598 0.336386
1.390765 0.590491 0.336902
1.409954 0.592211 0.338966
1.418709 0.589188 0.339103
1.419646 0.582748 0.337824
0.145012 0.641185 0.240511
0.144672 0.610012 0.233738
0.147282 0.609015 0.233713
0.149921 0.607953 0.233673
0.152700 0.607826 0.233844
0.155325 0.606085 0.233652
0.158329 0.607233 0.234111
0.161375 0.608352 0.234564
0.163617 0.603096 0.233577
0.167285 0.608342 0.234966
0.170086 0.606954 0.234854
0.173527 0.609829 0.235711
0.176532 0.609511 0.235843
0.180204 0.613321 0.236916
0.183788 0.616241 0.237789
0.187309 0.618507 0.238515
0.187838 0.603222 0.235226
0.190726 0.602014 0.235155
0.194083 0.603386 0.235674
0.197207 0.603391 0.235882
0.200223 0.602790 0.235950
0.203049 0.601225 0.235796
0.206070 0.600671 0.235876
0.212288 0.615464 0.239504
0.214937 0.612805 0.239101
0.217734 0.610926 0.238878
0.220792 0.610290 0.238944
0.224050 0.610535 0.239215
0.226538 0.607473 0.238716
0.229009 0.604465 0.238228
0.232717 0.606628 0.238948
0.235556 0.605215 0.238833
0.238353 0.603682 0.238689
0.241562 0.603788 0.238930
0.244505 0.602878 0.238934
0.247450 0.601999 0.238945
0.250342 0.600949 0.238915
0.253717 0.601649 0.239300
0.257055 0.602182 0.239646
0.259808 0.600677 0.239511
0.263007 0.600717 0.239742
0.266429 0.601478 0.240146
0.269645 0.601528 0.240382
0.272003 0.598815 0.239961
0.275851 0.600868 0.240677
0.278907 0.600382 0.240788
0.281948 0.599850 0.240889
0.285560 0.601026 0.241401
0.288632 0.600555 0.241519
0.291679 0.600003 0.241618
0.295551 0.601806 0.242286
0.298769 0.601694 0.242494
0.302229 0.602230 0.242860
0.305450 0.602074 0.243060
0.308278 0.600839 0.243000
0.313079 0.604858 0.244216
0.315488 0.602469 0.243878
0.318638 0.602036 0.244016
0.321923 0.601933 0.244236
0.325418 0.602330 0.244579
0.328962 0.602811 0.244945
0.332550 0.603355 0.245328
0.335299 0.601834 0.245205
0.338420 0.601207 0.245303
0.341452 0.600357 0.245347
0.345109 0.600947 0.245747
0.348445 0.600755 0.245956
0.351594 0.600115 0.246055
0.355758 0.601721 0.246713
0.358208 0.599479 0.246417
0.363013 0.602383 0.247403
0.366033 0.601346 0.247409
0.369508 0.601265 0.247655
0.373313 0.601845 0.248069
0.376444 0.600978 0.248121
0.379727 0.600409 0.248250
0.383286 0.600375 0.248514
0.387166 0.600950 0.248933
0.390771 0.600929 0.249205
0.394180 0.600491 0.249373
0.397914 0.600655 0.249694
0.402121 0.601678 0.250236
0.405707 0.601471 0.250468
0.409151 0.600966 0.250626
0.412985 0.601155 0.250962
0.417387 0.602336 0.251554
0.421116 0.602239 0.251821
0.424308 0.601150 0.251836
0.427399 0.599867 0.251801
0.431934 0.601092 0.252414
0.435825 0.601142 0.252727
0.439366 0.600553 0.252876
0.444051 0.601870 0.253521
0.447598 0.601218 0.253658
0.450707 0.599819 0.253602
0.453941 0.598613 0.253597
0.457405 0.597767 0.253687
0.461202 0.597431 0.253911
0.468292 0.602270 0.255496
0.471643 0.601118 0.255512
0.475672 0.600997 0.255801
0.479234 0.600124 0.255894
0.483600 0.600450 0.256305
0.487270 0.599682 0.256429
0.492133 0.600663 0.257019
0.495955 0.600051 0.257189
0.499418 0.598890 0.257213
0.504186 0.599591 0.257737
0.508530 0.599634 0.258087
0.513013 0.599830 0.258481
0.518006 0.600694 0.259057
0.523689 0.602454 0.259879
0.526446 0.600130 0.259601
0.535080 0.605781 0.261483
0.537252 0.602602 0.260978
0.541306 0.601946 0.261158
0.550308 0.607775 0.263107
0.550265 0.601657 0.261803
0.553619 0.600001 0.261716
0.557975 0.599615 0.261978
0.563162 0.600247 0.262522
0.567065 0.599215 0.262612
0.573917 0.601820 0.263707
0.585160 0.609730 0.266275
0.588944 0.608364 0.266285
0.590365 0.604133 0.265500
0.588825 0.596403 0.263738
0.597833 0.601251 0.265481
0.606146 0.605149 0.266967
0.612378 0.606514 0.267752
0.615552 0.604295 0.267533
0.621523 0.605258 0.268212
0.623526 0.601684 0.267614
0.628029 0.600924 0.267811
0.631290 0.598759 0.267613
0.638543 0.600963 0.268658
0.644392 0.601554 0.269250
0.645968 0.597498 0.268517
0.647388 0.593304 0.267743
0.653162 0.593735 0.268296
0.661767 0.597069 0.269690
0.665785 0.595545 0.269689
0.671583 0.595828 0.270214
0.678631 0.597326 0.271096
0.682182 0.595230 0.270939
0.688220 0.595602 0.271503
0.694734 0.596387 0.272193
0.700782 0.596653 0.272736
0.707680 0.597686 0.273510
0.710630 0.594859 0.273153
0.715123 0.593500 0.273230
0.721193 0.593600 0.273742
0.726310 0.592755 0.273979
0.736682 0.596732 0.275657
0.750157 0.603423 0.278158
0.753899 0.601102 0.277974
0.756619 0.597849 0.277513
0.759542 0.594780 0.277106
0.762102 0.591392 0.276604
0.766948 0.590007 0.276710
0.782413 0.597781 0.279605
0.784563 0.593933 0.278975
0.789482 0.592447 0.279068
0.798543 0.594414 0.280224
0.805027 0.594134 0.280699
0.809784 0.592368 0.280723
0.822060 0.596722 0.282645
0.827812 0.595642 0.282895
0.834868 0.595563 0.283463
0.839299 0.593330 0.283365
0.845312 0.592316 0.283654
0.859406 0.597552 0.285915
0.863873 0.595181 0.285795
0.869399 0.593594 0.285927
0.879015 0.595061 0.287035
0.892843 0.599581 0.289130
0.896027 0.596033 0.288662
0.900377 0.593331 0.288469
0.910086 0.594505 0.289529
0.916936 0.593513 0.289902
0.925718 0.593837 0.290710
0.932511 0.592664 0.291043
0.933004 0.587020 0.289923
0.938400 0.584797 0.289924
0.960096 0.593710 0.293600
0.969172 0.593784 0.294389
0.982522 0.596636 0.296112
0.990553 0.595798 0.296627
0.992584 0.590930 0.295805
1.006606 0.593875 0.297609
1.011722 0.590918 0.297445
1.015152 0.586845 0.296909
1.036462 0.594042 0.300211
1.046464 0.593920 0.301049
1.059341 0.595469 0.302476
1.069685 0.595328 0.303342
1.075282 0.592209 0.303194
1.092312 0.595885 0.305416
1.101489 0.594721 0.305977
1.109867 0.593001 0.306356
1.116817 0.590377 0.306430
1.133742 0.593404 0.308515
1.145786 0.593485 0.309581
1.162125 0.595850 0.311483
1.170215 0.593482 0.311710
1.182145 0.593150 0.312684
1.194113 0.592731 0.313643
1.211351 0.595023 0.315610
1.222401 0.593879 0.316343
1.231182 0.591466 0.316621
1.249704 0.594026 0.318753
1.267681 0.596142 0.320746
1.275300 0.592886 0.320750
1.288572 0.592424 0.321809
1.302764 0.592331 0.323021
1.318157 0.592736 0.324437
1.331427 0.592029 0.325439
1.345490 0.591639 0.326572
1.362823 0.592724 0.328284
1.374449 0.591074 0.328942
1.384116 0.588509 0.329241
