ply
format ascii 1.0
comment ---
element vertex 1743
property float x
property float y
property float z
element face 0
property list uchar uint vertex_indices
end_header
0.378825 0.594582 0.152659
0.385032 0.598724 0.152858
0.387534 0.597052 0.152608
0.389921 0.595277 0.152364
0.393909 0.596032 0.152334
0.396605 0.594863 0.152168
0.392155 0.583020 0.151180
0.393316 0.579803 0.150885
0.416194 0.608819 0.153130
-0.271463 0.601317 0.154373
-0.269995 0.604077 0.154551
-0.268168 0.606187 0.154691
-0.265714 0.607028 0.154742
-0.262449 0.606138 0.154668
-0.259887 0.606922 0.154743
-0.257544 0.608315 0.154882
-0.254776 0.608825 0.154964
-0.251243 0.607611 0.154918
-0.248191 0.607592 0.154982
-0.245135 0.607631 0.155063
-0.242506 0.608780 0.155247
-0.239759 0.609724 0.155425
-0.236633 0.609788 0.155541
-0.232768 0.608008 0.155515
-0.230019 0.609113 0.155734
-0.226736 0.608881 0.155852
-0.223684 0.609282 0.156028
-0.220395 0.609079 0.156161
-0.217423 0.609755 0.156372
-0.214203 0.609770 0.156533
-0.210771 0.609197 0.156648
-0.207714 0.609679 0.156855
-0.204442 0.609546 0.157012
-0.201277 0.609716 0.157197
-0.198179 0.610081 0.157399
-0.194882 0.609833 0.157550
-0.191624 0.609678 0.157709
-0.188985 0.611443 0.158032
-0.185442 0.610347 0.158109
-0.181978 0.609438 0.158200
-0.179147 0.610565 0.158466
-0.175863 0.610170 0.158597
-0.173180 0.611785 0.158902
-0.170057 0.611885 0.159073
-0.166234 0.609459 0.159018
-0.163022 0.609117 0.159144
-0.160368 0.610778 0.159443
-0.157700 0.612406 0.159737
-0.154300 0.611249 0.159781
-0.151180 0.611097 0.159911
-0.148350 0.612049 0.160136
-0.145142 0.611459 0.160220
-0.141887 0.610603 0.160276
-0.138815 0.610440 0.160390
-0.135777 0.610376 0.160510
-0.132927 0.611091 0.160697
-0.129806 0.610573 0.160768
-0.126907 0.611007 0.160922
-0.123863 0.610734 0.161009
-0.121003 0.611301 0.161169
-0.118164 0.611950 0.161333
-0.115078 0.611331 0.161377
-0.112275 0.612114 0.161546
-0.109337 0.612176 0.161647
-0.106334 0.611835 0.161706
-0.103436 0.612032 0.161812
-0.100685 0.613052 0.161991
-0.097503 0.611517 0.161931
-0.094579 0.611438 0.162002
-0.091738 0.611839 0.162115
-0.088840 0.611856 0.162189
-0.085928 0.611740 0.162247
-0.083118 0.612290 0.162365
-0.080291 0.612722 0.162469
-0.077311 0.612006 0.162464
-0.074416 0.611864 0.162509
-0.071625 0.612501 0.162624
-0.068841 0.613219 0.162745
-0.066031 0.613736 0.162844
-0.063058 0.612792 0.162804
-0.060105 0.611927 0.162769
-0.057338 0.612780 0.162893
-0.054556 0.613524 0.163004
-0.051549 0.611889 0.162890
-0.048617 0.610909 0.162835
-0.045849 0.611749 0.162949
-0.043103 0.612956 0.163095
-0.040303 0.613556 0.163183
-0.037486 0.613967 0.163251
-0.034492 0.611673 0.163062
-0.031622 0.611070 0.163030
-0.029058 0.615877 0.163507
-0.026351 0.618707 0.163795
-0.023520 0.619412 0.163882
-0.020707 0.620688 0.164021
-0.017585 0.613859 0.163393
-0.014714 0.612862 0.163314
-0.011842 0.611489 0.163198
-0.009006 0.611128 0.163176
-0.006171 0.610608 0.163137
-0.003304 0.607439 0.162847
-0.000554 0.614090 0.163483
0.002266 0.618716 0.163927
0.005128 0.619671 0.164022
0.008001 0.620764 0.164129
0.010856 0.618896 0.163955
0.013604 0.610661 0.163177
0.016468 0.612565 0.163357
0.019297 0.612188 0.163320
0.022124 0.611840 0.163285
0.024938 0.611149 0.163216
0.027788 0.611572 0.163251
0.030656 0.612284 0.163312
0.033509 0.612518 0.163327
0.036324 0.611938 0.163264
0.039159 0.611766 0.163238
0.042036 0.612298 0.163278
0.044864 0.611982 0.163237
0.047651 0.611083 0.163139
0.050319 0.608683 0.162899
0.053054 0.607380 0.162761
0.056094 0.609837 0.162978
0.059745 0.618907 0.163816
0.062639 0.618925 0.163800
0.065820 0.621849 0.164056
0.068892 0.623422 0.164184
0.070615 0.612257 0.163111
0.073439 0.611839 0.163049
0.076407 0.612671 0.163104
0.079141 0.611477 0.162967
0.081949 0.610943 0.162891
0.084794 0.610708 0.162842
0.087240 0.607526 0.162515
0.090306 0.608949 0.162620
0.093708 0.612585 0.162931
0.096867 0.614339 0.163064
0.099984 0.615689 0.163157
0.103017 0.616418 0.163191
0.105959 0.616520 0.163165
0.108709 0.615459 0.163029
0.111544 0.614924 0.162940
0.114729 0.616364 0.163035
0.118204 0.619285 0.163267
0.119430 0.610061 0.162363
0.122330 0.609966 0.162310
0.125133 0.609361 0.162209
0.127655 0.607372 0.161977
0.130034 0.604762 0.161686
0.133799 0.608789 0.162010
0.137282 0.611319 0.162193
0.140146 0.610913 0.162102
0.142477 0.608148 0.161790
0.144970 0.606176 0.161550
0.150732 0.618109 0.162595
0.153089 0.615404 0.162283
0.156342 0.616427 0.162313
0.159666 0.617668 0.162361
0.162311 0.616176 0.162156
0.162465 0.605157 0.161072
0.165484 0.605313 0.161015
0.168687 0.606115 0.161015
0.171768 0.606419 0.160967
0.174972 0.607127 0.160953
0.179891 0.613792 0.161480
0.183315 0.615051 0.161511
0.186201 0.614413 0.161365
0.190188 0.617436 0.161550
0.191030 0.610032 0.160784
0.192748 0.605659 0.160293
0.195985 0.606212 0.160246
0.199018 0.606080 0.160134
0.202191 0.606350 0.160054
0.204949 0.605328 0.159856
0.207602 0.603990 0.159626
0.212349 0.608804 0.159945
0.215627 0.609195 0.159862
0.217618 0.605880 0.159447
0.220635 0.605502 0.159290
0.223689 0.605207 0.159137
0.228657 0.610098 0.159439
0.232578 0.612004 0.159473
0.236119 0.612812 0.159404
0.237762 0.608604 0.158892
0.239758 0.605385 0.158463
0.242603 0.604372 0.158226
0.246387 0.605702 0.158188
0.249547 0.605418 0.158006
0.252727 0.605149 0.157821
0.255656 0.604244 0.157578
0.259055 0.604441 0.157425
0.262315 0.604266 0.157237
0.265412 0.603680 0.157009
0.269484 0.605297 0.156965
0.272427 0.604283 0.156693
0.275396 0.603315 0.156421
0.277762 0.601002 0.156033
0.283353 0.605718 0.156231
0.287846 0.607920 0.156213
0.291005 0.607198 0.155946
0.295414 0.609074 0.155891
0.298514 0.608157 0.155601
0.299370 0.602636 0.154930
0.304657 0.606160 0.155000
0.310514 0.610703 0.155147
0.310398 0.603318 0.154322
0.313829 0.602989 0.154070
0.319145 0.606270 0.154105
0.322246 0.605224 0.153792
0.324996 0.603513 0.153425
0.328081 0.602439 0.153110
0.332713 0.604213 0.153020
0.336674 0.604707 0.152829
0.341947 0.607534 0.152821
0.345007 0.606343 0.152502
0.347467 0.604109 0.152106
0.350466 0.602857 0.151792
0.353528 0.601737 0.151493
0.358676 0.604199 0.151473
0.362962 0.605162 0.151344
0.365567 0.603304 0.151009
0.368264 0.601651 0.150700
0.371483 0.600905 0.150468
0.373162 0.597700 0.150064
0.376917 0.597919 0.149926
0.378829 0.595235 0.149586
0.377623 0.587725 0.148902
0.380982 0.587520 0.148774
0.388161 0.593273 0.149097
0.392211 0.594172 0.149077
0.393818 0.591396 0.148803
0.388737 0.578647 0.147814
0.394113 0.581788 0.148005
0.427933 0.627065 0.151292
-0.270197 0.599503 0.151395
-0.269708 0.604363 0.151714
-0.268009 0.606724 0.151856
-0.265295 0.606948 0.151850
-0.262368 0.606783 0.151828
-0.259330 0.606446 0.151808
-0.256981 0.607782 0.151931
-0.253930 0.607583 0.151950
-0.250743 0.607134 0.151964
-0.247809 0.607353 0.152042
-0.244751 0.607346 0.152115
-0.241401 0.606683 0.152150
-0.238728 0.607749 0.152329
-0.235795 0.608237 0.152474
-0.232777 0.608569 0.152617
-0.229712 0.608832 0.152764
-0.226693 0.609256 0.152932
-0.223724 0.609857 0.153122
-0.220822 0.610680 0.153335
-0.217181 0.609520 0.153399
-0.213669 0.608696 0.153493
-0.210603 0.609116 0.153690
-0.207607 0.609752 0.153907
-0.204615 0.610416 0.154130
-0.201230 0.609933 0.154263
-0.198090 0.610156 0.154454
-0.194897 0.610213 0.154633
-0.191698 0.610231 0.154808
-0.188776 0.611103 0.155053
-0.185359 0.610393 0.155169
-0.182222 0.610541 0.155353
-0.178775 0.609635 0.155450
-0.175665 0.609802 0.155632
-0.173173 0.612061 0.155985
-0.169309 0.609568 0.155943
-0.165925 0.608653 0.156029
-0.163336 0.610547 0.156345
-0.160954 0.613238 0.156726
-0.156983 0.610007 0.156609
-0.153424 0.608187 0.156605
-0.151236 0.611617 0.157040
-0.148288 0.612104 0.157225
-0.145364 0.612669 0.157412
-0.141866 0.610821 0.157391
-0.138829 0.610811 0.157523
-0.135650 0.610138 0.157594
-0.132551 0.609749 0.157685
-0.129703 0.610430 0.157865
-0.126840 0.611027 0.158034
-0.123952 0.611494 0.158188
-0.120901 0.611142 0.158269
-0.117860 0.610781 0.158345
-0.114979 0.611179 0.158483
-0.112124 0.611684 0.158627
-0.109048 0.610986 0.158663
-0.106132 0.611093 0.158766
-0.103400 0.612202 0.158953
-0.100331 0.611377 0.158967
-0.097395 0.611262 0.159041
-0.094499 0.611340 0.159128
-0.091684 0.611894 0.159254
-0.088799 0.611995 0.159337
-0.085887 0.611880 0.159399
-0.082964 0.611643 0.159446
-0.080105 0.611807 0.159526
-0.077227 0.611818 0.159590
-0.074384 0.612050 0.159670
-0.071604 0.612777 0.159792
-0.068807 0.613384 0.159901
-0.065943 0.613432 0.159958
-0.063087 0.613515 0.160015
-0.060104 0.612391 0.159962
-0.057377 0.613645 0.160119
-0.054469 0.613118 0.160114
-0.051382 0.610582 0.159928
-0.048581 0.610997 0.160003
-0.045786 0.611510 0.160085
-0.043069 0.613044 0.160256
-0.040317 0.614280 0.160398
-0.037429 0.613682 0.160374
-0.034436 0.611357 0.160194
-0.031615 0.611512 0.160233
-0.028934 0.614200 0.160498
-0.026118 0.614699 0.160565
-0.023363 0.616624 0.160758
-0.020872 0.625307 0.161556
-0.017597 0.614853 0.160635
-0.014651 0.611591 0.160358
-0.011799 0.610661 0.160288
-0.008977 0.610633 0.160297
-0.006137 0.609589 0.160214
-0.003293 0.607587 0.160043
-0.000556 0.615492 0.160761
0.002275 0.618601 0.161047
0.005135 0.621899 0.161348
0.008013 0.622341 0.161392
0.010873 0.620459 0.161225
0.013606 0.610862 0.160362
0.016436 0.611031 0.160377
0.019284 0.611905 0.160454
0.022082 0.610654 0.160339
0.024927 0.611169 0.160381
0.027746 0.610806 0.160343
0.030649 0.612497 0.160488
0.033508 0.612894 0.160516
0.036248 0.610854 0.160324
0.039091 0.610986 0.160325
0.041931 0.611002 0.160315
0.044742 0.610547 0.160262
0.047480 0.609085 0.160117
0.050295 0.608821 0.160079
0.052935 0.606337 0.159841
0.056139 0.610843 0.160228
0.059421 0.615726 0.160648
0.062408 0.616934 0.160737
0.065653 0.620628 0.161047
0.068864 0.623641 0.161296
0.070508 0.611757 0.160209
0.073415 0.612124 0.160218
0.076205 0.611438 0.160132
0.079063 0.611337 0.160097
0.081855 0.610704 0.160013
0.084631 0.609965 0.159919
0.087302 0.608484 0.159757
0.090305 0.609449 0.159813
0.093669 0.612826 0.160082
0.096711 0.613807 0.160136
0.099778 0.614874 0.160196
0.103012 0.616899 0.160340
0.105942 0.616937 0.160306
0.108661 0.615694 0.160156
0.111456 0.614935 0.160049
0.114780 0.617165 0.160205
0.117629 0.616659 0.160116
0.119311 0.609943 0.159476
0.121975 0.608636 0.159315
0.124851 0.608442 0.159250
0.127611 0.607664 0.159132
0.130010 0.605155 0.158860
0.133082 0.605914 0.158874
0.136766 0.609443 0.159131
0.140045 0.610965 0.159209
0.142430 0.608448 0.158929
0.144854 0.606180 0.158670
0.147672 0.605650 0.158562
0.151757 0.610379 0.158913
0.155348 0.612889 0.159066
0.158560 0.613759 0.159074
0.160772 0.610656 0.158732
0.162714 0.606606 0.158306
0.165502 0.605868 0.158167
0.168432 0.605659 0.158072
0.171470 0.605822 0.158007
0.174230 0.604963 0.157850
0.178968 0.611040 0.158291
0.182655 0.613262 0.158395
0.185731 0.613305 0.158308
0.188974 0.613875 0.158264
0.190224 0.607864 0.157651
0.192691 0.605943 0.157387
0.195461 0.605013 0.157206
0.198799 0.605859 0.157174
0.201962 0.606107 0.157088
0.204854 0.605497 0.156925
0.207253 0.603402 0.156633
0.212582 0.609941 0.157070
0.215593 0.609548 0.156915
0.217848 0.606979 0.156574
0.220720 0.606184 0.156379
0.224117 0.606826 0.156301
0.227657 0.607807 0.156247
0.231037 0.608296 0.156149
0.235605 0.611882 0.156303
0.242428 0.621225 0.156929
0.239234 0.604454 0.155389
0.242175 0.603701 0.155172
0.245904 0.604907 0.155113
0.249134 0.604807 0.154942
0.251769 0.603218 0.154646
0.254578 0.602051 0.154380
0.258253 0.602937 0.154278
0.261878 0.603641 0.154156
0.265289 0.603791 0.153985
0.268487 0.603412 0.153767
0.272008 0.603731 0.153601
0.274632 0.602001 0.153267
0.276902 0.599496 0.152870
0.285042 0.609779 0.153478
0.287830 0.608274 0.153150
0.291640 0.608934 0.152988
0.296390 0.611511 0.152972
0.299392 0.610365 0.152662
0.301801 0.607996 0.152255
0.305614 0.608485 0.152067
0.309712 0.609497 0.151915
0.309877 0.602683 0.151166
0.313405 0.602559 0.150925
0.318897 0.606196 0.150965
0.321214 0.603664 0.150541
0.325019 0.603969 0.150329
0.328142 0.602970 0.150020
0.332734 0.604679 0.149911
0.338622 0.608694 0.149971
0.342231 0.608496 0.149723
0.346237 0.608996 0.149529
0.349489 0.608147 0.149240
0.354216 0.609882 0.149142
0.358025 0.609996 0.148932
0.360783 0.608315 0.148600
0.362989 0.605742 0.148214
0.366770 0.605868 0.148027
0.369960 0.605029 0.147782
0.372618 0.603354 0.147489
0.377229 0.604910 0.147431
0.380286 0.603965 0.147212
0.379270 0.596587 0.146562
0.379139 0.590782 0.146037
0.382598 0.590735 0.145922
0.385554 0.589955 0.145771
0.391797 0.594282 0.145984
0.396651 0.596473 0.146066
0.393211 0.586171 0.145314
0.391647 0.578905 0.144785
0.397270 0.582477 0.145010
-0.271851 0.604061 0.148902
-0.269698 0.605270 0.148928
-0.266726 0.604774 0.148847
-0.264708 0.606503 0.148941
-0.260928 0.604353 0.148772
-0.258973 0.606435 0.148920
-0.256036 0.606367 0.148930
-0.253327 0.606914 0.148998
-0.250508 0.607291 0.149067
-0.247680 0.607728 0.149155
-0.244888 0.608333 0.149268
-0.241387 0.607270 0.149273
-0.238689 0.608245 0.149437
-0.235605 0.608324 0.149547
-0.232758 0.609063 0.149715
-0.229459 0.608688 0.149812
-0.226492 0.609216 0.149984
-0.223614 0.610031 0.150184
-0.220652 0.610666 0.150379
-0.216771 0.608818 0.150397
-0.213519 0.608683 0.150546
-0.210490 0.609183 0.150746
-0.207547 0.609950 0.150971
-0.204226 0.609641 0.151118
-0.201185 0.610143 0.151329
-0.197989 0.610188 0.151507
-0.194708 0.609958 0.151665
-0.191658 0.610422 0.151876
-0.188552 0.610703 0.152074
-0.185909 0.612455 0.152384
-0.182071 0.610341 0.152397
-0.178879 0.610269 0.152564
-0.175883 0.610821 0.152779
-0.172680 0.610650 0.152935
-0.169234 0.609586 0.153020
-0.166269 0.610156 0.153229
-0.163067 0.609853 0.153367
-0.160121 0.610438 0.153572
-0.156979 0.610272 0.153715
-0.153938 0.610439 0.153881
-0.151046 0.611157 0.154087
-0.148330 0.612557 0.154345
-0.144723 0.610346 0.154311
-0.141666 0.610282 0.154445
-0.138847 0.611184 0.154652
-0.135803 0.611102 0.154777
-0.132661 0.610536 0.154860
-0.129625 0.610384 0.154972
-0.126814 0.611221 0.155160
-0.123917 0.611645 0.155312
-0.120861 0.611271 0.155395
-0.117753 0.610577 0.155448
-0.114840 0.610801 0.155572
-0.111948 0.611099 0.155700
-0.109068 0.611439 0.155827
-0.106081 0.611163 0.155900
-0.103104 0.610887 0.155969
-0.100370 0.611961 0.156147
-0.097370 0.611477 0.156193
-0.094477 0.611577 0.156284
-0.091649 0.612054 0.156403
-0.088744 0.612017 0.156476
-0.085752 0.611359 0.156495
-0.082869 0.611374 0.156566
-0.080036 0.611714 0.156662
-0.077237 0.612297 0.156775
-0.074427 0.612804 0.156879
-0.071625 0.613370 0.156986
-0.068696 0.612891 0.157002
-0.065832 0.612910 0.157057
-0.062994 0.613123 0.157126
-0.060185 0.613598 0.157215
-0.057215 0.612510 0.157169
-0.054251 0.611332 0.157113
-0.051381 0.611037 0.157130
-0.048794 0.613911 0.157412
-0.045770 0.611799 0.157270
-0.042920 0.611637 0.157291
-0.040183 0.612964 0.157436
-0.037225 0.611251 0.157321
-0.034311 0.609933 0.157237
-0.031511 0.610312 0.157296
-0.028850 0.613238 0.157569
-0.026101 0.614933 0.157735
-0.023367 0.617288 0.157957
-0.020808 0.624383 0.158580
-0.017596 0.615419 0.157834
-0.014623 0.611358 0.157504
-0.011776 0.610478 0.157443
-0.008955 0.610379 0.157447
-0.006122 0.609540 0.157386
-0.003291 0.608326 0.157291
-0.000547 0.615631 0.157922
0.002284 0.618282 0.158154
0.005140 0.619982 0.158303
0.008014 0.622064 0.158484
0.010867 0.619829 0.158296
0.013605 0.610880 0.157533
0.016425 0.610665 0.157514
0.019231 0.609913 0.157448
0.022074 0.610679 0.157510
0.024864 0.609566 0.157410
0.027690 0.609672 0.157413
0.030510 0.609574 0.157397
0.033299 0.608809 0.157324
0.036171 0.609771 0.157396
0.039022 0.610165 0.157419
0.041807 0.609383 0.157340
0.044522 0.607623 0.157177
0.047374 0.608027 0.157197
0.050258 0.608770 0.157245
0.053087 0.608727 0.157225
0.056211 0.612177 0.157500
0.059155 0.613196 0.157568
0.062089 0.613995 0.157615
0.065179 0.616278 0.157788
0.068449 0.620093 0.158089
0.070442 0.611628 0.157346
0.073258 0.611207 0.157286
0.076144 0.611406 0.157277
0.078956 0.610954 0.157211
0.081860 0.611243 0.157207
0.084441 0.609013 0.156988
0.087316 0.609087 0.156963
0.090341 0.610212 0.157026
0.093685 0.613440 0.157265
0.096821 0.615053 0.157366
0.099525 0.613744 0.157219
0.102927 0.616882 0.157446
0.106061 0.618176 0.157515
0.108418 0.614764 0.157187
0.111727 0.617013 0.157333
0.114836 0.617997 0.157372
0.117831 0.618281 0.157350
0.119032 0.608962 0.156521
0.121673 0.607570 0.156356
0.124303 0.606168 0.156189
0.126906 0.604676 0.156013
0.129671 0.604015 0.155905
0.132649 0.604367 0.155880
0.136111 0.606920 0.156036
0.140716 0.614502 0.156609
0.143301 0.612800 0.156406
0.144578 0.605478 0.155735
0.147778 0.606592 0.155763
0.151600 0.610223 0.155997
0.155174 0.612674 0.156130
0.158446 0.613798 0.156152
0.160593 0.610444 0.155801
0.162651 0.606850 0.155429
0.165346 0.605765 0.155262
0.168180 0.605205 0.155135
0.170795 0.603846 0.154941
0.173542 0.602978 0.154785
0.179421 0.613109 0.155525
0.182693 0.613869 0.155495
0.185691 0.613643 0.155382
0.188305 0.612115 0.155160
0.190392 0.608879 0.154798
0.192501 0.605788 0.154445
0.195474 0.605513 0.154317
0.198394 0.605045 0.154171
0.201357 0.604697 0.154031
0.204785 0.605733 0.154000
0.206836 0.602601 0.153631
0.210759 0.605029 0.153703
0.216145 0.611584 0.154100
0.219421 0.611898 0.153994
0.221643 0.609206 0.153647
0.224278 0.607701 0.153391
0.227342 0.607374 0.153225
0.230691 0.607787 0.153113
0.235257 0.611379 0.153246
0.240776 0.617330 0.153556
0.238825 0.603809 0.152347
0.241814 0.603188 0.152139
0.245928 0.605369 0.152144
0.248651 0.604012 0.151871
0.251291 0.602447 0.151579
0.254285 0.601737 0.151349
0.257964 0.602638 0.151238
0.261710 0.603633 0.151128
0.265346 0.604308 0.150990
0.268840 0.604602 0.150819
0.273188 0.606779 0.150784
0.276393 0.606310 0.150546
0.277398 0.600964 0.149944
0.281993 0.603526 0.149924
0.286905 0.606666 0.149940
0.289612 0.605008 0.149601
0.294561 0.608055 0.149601
0.298976 0.609884 0.149507
0.303479 0.611811 0.149416
0.307272 0.612221 0.149212
0.311009 0.612475 0.148993
0.309647 0.602614 0.148058
0.312856 0.601875 0.147769
0.317316 0.603539 0.147648
0.320729 0.603138 0.147380
0.324078 0.602600 0.147104
0.327337 0.601881 0.146815
0.333921 0.607292 0.146947
0.337769 0.607574 0.146727
0.341286 0.607237 0.146468
0.345659 0.608424 0.146314
0.348836 0.607464 0.146020
0.353672 0.609420 0.145925
0.357389 0.609399 0.145704
0.362570 0.611889 0.145654
0.364933 0.609565 0.145296
0.368508 0.609332 0.145083
0.369911 0.605522 0.144649
0.371449 0.602031 0.144247
0.381825 0.612995 0.144787
0.379991 0.604130 0.144066
0.380640 0.599426 0.143627
0.384736 0.600293 0.143557
0.389847 0.602775 0.143604
0.390586 0.598480 0.143237
0.391254 0.594202 0.142887
0.394504 0.593984 0.142811
0.398376 0.594764 0.142813
0.400819 0.593449 0.142700
0.425353 0.625030 0.144667
-0.270484 0.602045 0.145936
-0.268782 0.604191 0.146012
-0.266307 0.604753 0.145997
-0.263452 0.604558 0.145946
-0.261440 0.606367 0.146045
-0.258398 0.605932 0.146009
-0.256169 0.607464 0.146119
-0.252862 0.606577 0.146082
-0.250153 0.607169 0.146159
-0.247557 0.608124 0.146274
-0.244826 0.608841 0.146387
-0.242270 0.610078 0.146547
-0.238309 0.607896 0.146489
-0.235762 0.609293 0.146685
-0.232311 0.608458 0.146740
-0.229486 0.609276 0.146917
-0.226449 0.609595 0.147069
-0.223336 0.609756 0.147219
-0.220156 0.609767 0.147366
-0.217734 0.611884 0.147665
-0.213253 0.608345 0.147579
-0.210396 0.609300 0.147809
-0.207410 0.609924 0.148020
-0.204280 0.610149 0.148207
-0.201007 0.609953 0.148367
-0.197981 0.610488 0.148580
-0.194483 0.609585 0.148694
-0.191509 0.610263 0.148919
-0.188703 0.611476 0.149184
-0.185342 0.610925 0.149323
-0.182363 0.611576 0.149547
-0.179047 0.611101 0.149689
-0.175862 0.611023 0.149857
-0.172784 0.611277 0.150049
-0.169492 0.610756 0.150181
-0.166136 0.609947 0.150289
-0.163170 0.610488 0.150494
-0.160099 0.610621 0.150666
-0.157018 0.610679 0.150829
-0.153884 0.610498 0.150972
-0.151000 0.611242 0.151180
-0.148026 0.611614 0.151357
-0.144384 0.609233 0.151323
-0.141642 0.610454 0.151557
-0.138672 0.610719 0.151716
-0.135782 0.611293 0.151894
-0.132808 0.611473 0.152039
-0.129591 0.610515 0.152093
-0.126704 0.611001 0.152254
-0.123791 0.611340 0.152399
-0.120616 0.610381 0.152442
-0.117721 0.610724 0.152581
-0.114835 0.611087 0.152718
-0.112004 0.611708 0.152871
-0.109013 0.611466 0.152954
-0.106102 0.611604 0.153063
-0.103147 0.611461 0.153147
-0.100209 0.611369 0.153231
-0.097331 0.611587 0.153336
-0.094418 0.611564 0.153419
-0.091583 0.611991 0.153534
-0.088769 0.612548 0.153656
-0.085760 0.611782 0.153671
-0.082874 0.611788 0.153744
-0.080048 0.612182 0.153844
-0.077277 0.612983 0.153974
-0.074425 0.613182 0.154053
-0.071494 0.612725 0.154077
-0.068565 0.612209 0.154094
-0.065743 0.612551 0.154176
-0.062899 0.612687 0.154240
-0.060047 0.612735 0.154293
-0.057135 0.612158 0.154295
-0.054233 0.611590 0.154294
-0.051414 0.611842 0.154357
-0.048468 0.610642 0.154301
-0.045589 0.610084 0.154294
-0.042777 0.610281 0.154345
-0.039987 0.610783 0.154418
-0.037107 0.610027 0.154389
-0.034179 0.608380 0.154285
-0.031443 0.609681 0.154417
-0.028843 0.613615 0.154758
-0.026160 0.616627 0.155023
-0.023541 0.621620 0.155446
-0.020589 0.619627 0.155306
-0.017537 0.614396 0.154902
-0.014548 0.609612 0.154533
-0.011754 0.610297 0.154602
-0.008908 0.608987 0.154509
-0.006078 0.607866 0.154430
-0.003283 0.608520 0.154491
-0.000549 0.616821 0.155168
0.002298 0.616683 0.155163
0.005143 0.615042 0.155035
0.008000 0.618797 0.155341
0.010827 0.615599 0.155085
0.013595 0.610369 0.154664
0.016400 0.609629 0.154603
0.019224 0.609918 0.154624
0.022030 0.609456 0.154582
0.024833 0.608999 0.154540
0.027691 0.610094 0.154622
0.030455 0.608675 0.154500
0.033289 0.609008 0.154518
0.036136 0.609516 0.154548
0.038990 0.610026 0.154578
0.041692 0.607935 0.154397
0.044521 0.608050 0.154392
0.047415 0.609067 0.154459
0.050198 0.608431 0.154391
0.052704 0.604343 0.154045
0.055751 0.607150 0.154252
0.058910 0.610903 0.154533
0.061966 0.613149 0.154692
0.064948 0.614395 0.154770
0.068255 0.618684 0.155090
0.070353 0.611288 0.154471
0.073195 0.611134 0.154433
0.076037 0.610974 0.154392
0.078914 0.611100 0.154374
0.081599 0.609657 0.154228
0.084433 0.609447 0.154180
0.087074 0.607800 0.154016
0.090278 0.610262 0.154178
0.093799 0.614730 0.154499
0.096486 0.613312 0.154349
0.099195 0.612107 0.154215
0.102182 0.612694 0.154222
0.105598 0.615856 0.154432
0.109023 0.618865 0.154628
0.111246 0.614742 0.154256
0.114648 0.617446 0.154425
0.117577 0.617395 0.154373
0.118943 0.608984 0.153658
0.121491 0.607121 0.153460
0.124097 0.605618 0.153289
0.126756 0.604425 0.153141
0.129558 0.603961 0.153049
0.132693 0.605065 0.153079
0.137172 0.612319 0.153590
0.141086 0.616674 0.153870
0.144496 0.618590 0.153956
0.146409 0.613906 0.153523
0.148589 0.610525 0.153190
0.151631 0.610841 0.153145
0.154600 0.610821 0.153071
0.157610 0.610943 0.153006
0.161226 0.613409 0.153121
0.162499 0.606743 0.152524
0.165204 0.605701 0.152362
0.167973 0.604912 0.152218
0.170608 0.603634 0.152033
0.173659 0.603861 0.151962
0.179735 0.614681 0.152702
0.182809 0.614735 0.152611
0.185724 0.614221 0.152472
0.188519 0.613290 0.152300
0.190480 0.609625 0.151916
0.192807 0.607227 0.151627
0.195374 0.605641 0.151397
0.198595 0.606119 0.151320
0.201522 0.605644 0.151168
0.204570 0.605520 0.151040
0.207092 0.603797 0.150787
0.212108 0.609423 0.151083
0.216684 0.613576 0.151262
0.220064 0.614160 0.151170
0.222876 0.613095 0.150952
0.224240 0.608015 0.150433
0.226723 0.606097 0.150146
0.230877 0.608698 0.150188
0.235540 0.612542 0.150316
0.238090 0.610710 0.150023
0.241299 0.610593 0.149852
0.244580 0.610625 0.149688
0.248358 0.611866 0.149606
0.251315 0.611000 0.149368
0.253553 0.608361 0.149000
0.256680 0.607897 0.148783
0.261556 0.611570 0.148856
0.265218 0.612254 0.148712
0.269061 0.613304 0.148588
0.271036 0.610006 0.148155
0.275128 0.611538 0.148056
0.276674 0.607308 0.147552
0.277346 0.601215 0.146919
0.280138 0.599851 0.146611
0.285389 0.603772 0.146660
0.289105 0.604297 0.146473
0.293146 0.605453 0.146324
0.298874 0.610043 0.146401
0.302323 0.609818 0.146150
0.307923 0.613915 0.146184
0.312168 0.615173 0.146024
0.309520 0.602738 0.144964
0.312716 0.601981 0.144673
0.317417 0.604121 0.144569
0.320786 0.603640 0.144294
0.323727 0.602336 0.143966
0.326671 0.601045 0.143641
0.336021 0.611587 0.144065
0.338726 0.609750 0.143705
0.341752 0.608520 0.143388
0.345061 0.607810 0.143107
0.350143 0.610242 0.143025
0.353877 0.610263 0.142798
0.358027 0.611005 0.142622
0.361447 0.610489 0.142375
0.367754 0.614880 0.142433
0.370422 0.613098 0.142127
0.370922 0.607775 0.141622
0.372454 0.604276 0.141239
0.375931 0.604037 0.141062
0.379771 0.604420 0.140934
0.382791 0.603522 0.140744
0.388642 0.607157 0.140833
0.393184 0.608720 0.140816
0.394256 0.604916 0.140502
0.392931 0.597541 0.140000
0.393080 0.592598 0.139656
0.398483 0.595739 0.139795
0.405900 0.601906 0.140125
0.402044 0.591265 0.139504
-0.271418 0.605066 0.143314
-0.268285 0.604048 0.143175
-0.265631 0.604168 0.143122
-0.263551 0.605672 0.143170
-0.261279 0.606862 0.143215
-0.259255 0.608734 0.143317
-0.255876 0.607579 0.143247
-0.252567 0.606646 0.143205
-0.249790 0.607038 0.143260
-0.246617 0.606559 0.143275
-0.244088 0.607713 0.143406
-0.241796 0.609545 0.143593
-0.238355 0.608617 0.143619
-0.234933 0.607771 0.143663
-0.232137 0.608559 0.143820
-0.229242 0.609161 0.143977
-0.226312 0.609726 0.144140
-0.223186 0.609822 0.144283
-0.219954 0.609663 0.144417
-0.216607 0.609210 0.144540
-0.213343 0.608992 0.144683
-0.210111 0.608876 0.144839
-0.207020 0.609166 0.145025
-0.203637 0.608619 0.145160
-0.201504 0.611756 0.145540
-0.197239 0.608573 0.145507
-0.194096 0.608708 0.145694
-0.191379 0.610153 0.145969
-0.188290 0.610458 0.146169
-0.184939 0.609909 0.146312
-0.181871 0.610240 0.146513
-0.178802 0.610552 0.146713
-0.175910 0.611443 0.146950
-0.172836 0.611709 0.147143
-0.169589 0.611347 0.147292
-0.166325 0.610871 0.147430
-0.163140 0.610626 0.147581
-0.160009 0.610534 0.147740
-0.157024 0.610952 0.147931
-0.153961 0.611042 0.148096
-0.150789 0.610663 0.148225
-0.147709 0.610599 0.148373
-0.144728 0.610888 0.148542
-0.141001 0.608045 0.148486
-0.138409 0.609856 0.148755
-0.135611 0.610811 0.148961
-0.132461 0.610200 0.149051
-0.129606 0.610852 0.149228
-0.126638 0.610970 0.149363
-0.123134 0.608503 0.149308
-0.120520 0.610197 0.149549
-0.117712 0.610968 0.149720
-0.114847 0.611440 0.149866
-0.111863 0.611270 0.149961
-0.109054 0.611987 0.150118
-0.106121 0.612020 0.150221
-0.103007 0.610984 0.150243
-0.100121 0.611176 0.150351
-0.097298 0.611714 0.150480
-0.094355 0.611506 0.150552
-0.091466 0.611585 0.150642
-0.088673 0.612263 0.150772
-0.085818 0.612525 0.150869
-0.082885 0.612216 0.150920
-0.080079 0.612768 0.151032
-0.077170 0.612552 0.151084
-0.074292 0.612523 0.151147
-0.071333 0.611816 0.151157
-0.068485 0.611931 0.151224
-0.065636 0.612015 0.151287
-0.062791 0.612113 0.151348
-0.059887 0.611627 0.151363
-0.057103 0.612251 0.151458
-0.054299 0.612695 0.151538
-0.051440 0.612548 0.151570
-0.048520 0.611666 0.151545
-0.045585 0.610471 0.151494
-0.042766 0.610595 0.151539
-0.039932 0.610485 0.151565
-0.037093 0.610286 0.151582
-0.034136 0.608175 0.151452
-0.031435 0.610014 0.151619
-0.028796 0.613263 0.151891
-0.026120 0.616339 0.152147
-0.023301 0.616901 0.152212
-0.020476 0.617421 0.152271
-0.017562 0.615616 0.152152
-0.014638 0.612957 0.151967
-0.011836 0.613844 0.152049
-0.008971 0.612336 0.151947
-0.006121 0.610878 0.151847
-0.003301 0.610547 0.151831
-0.000528 0.615283 0.152199
0.002309 0.615309 0.152207
0.005146 0.615043 0.152191
0.007999 0.618288 0.152441
0.010826 0.615654 0.152242
0.013622 0.612493 0.152002
0.016461 0.613168 0.152051
0.019263 0.611902 0.151952
0.022053 0.610625 0.151851
0.024917 0.611957 0.151947
0.027752 0.612115 0.151952
0.030480 0.609680 0.151758
0.033298 0.609630 0.151745
0.036167 0.610544 0.151803
0.039002 0.610689 0.151802
0.041960 0.612812 0.151949
0.044880 0.614010 0.152025
0.047647 0.612848 0.151921
0.050398 0.611575 0.151807
0.053167 0.610660 0.151719
0.056054 0.611232 0.151742
0.058867 0.610892 0.151695
0.061960 0.613557 0.151875
0.065262 0.618094 0.152194
0.068179 0.618431 0.152194
0.070296 0.611241 0.151624
0.073134 0.611078 0.151584
0.075979 0.610966 0.151547
0.078793 0.610589 0.151488
0.081629 0.610387 0.151441
0.084392 0.609625 0.151351
0.087111 0.608562 0.151237
0.090091 0.609414 0.151265
0.093518 0.613285 0.151519
0.096266 0.612339 0.151409
0.099061 0.611733 0.151324
0.101890 0.611353 0.151254
0.105448 0.615439 0.151516
0.108516 0.616354 0.151540
0.111669 0.617684 0.151592
0.114257 0.615750 0.151400
0.116969 0.614566 0.151262
0.119720 0.613630 0.151140
0.121946 0.609982 0.150816
0.124740 0.609378 0.150716
0.128751 0.614811 0.151063
0.131436 0.613545 0.150910
0.133664 0.610150 0.150598
0.136810 0.611132 0.150609
0.141003 0.616794 0.150962
0.144061 0.617151 0.150921
0.146833 0.616232 0.150784
0.149246 0.613797 0.150534
0.151456 0.610595 0.150226
0.154624 0.611401 0.150210
0.156231 0.605902 0.149730
0.160077 0.609376 0.149904
0.164757 0.615906 0.150297
0.168226 0.617589 0.150334
0.170420 0.614450 0.150017
0.172876 0.612355 0.149775
0.175503 0.610918 0.149578
0.178383 0.610389 0.149443
0.181863 0.611928 0.149455
0.185329 0.613332 0.149454
0.188196 0.612663 0.149301
0.190883 0.611392 0.149101
0.192450 0.606515 0.148643
0.195502 0.606484 0.148527
0.198668 0.606779 0.148431
0.201577 0.606244 0.148273
0.204202 0.604832 0.148049
0.207076 0.604171 0.147876
0.211297 0.607461 0.147975
0.217127 0.615282 0.148386
0.220536 0.615924 0.148290
0.222257 0.611767 0.147858
0.223961 0.607647 0.147426
0.226681 0.606385 0.147188
0.232129 0.612473 0.147451
0.235630 0.613180 0.147340
0.238482 0.612131 0.147104
0.241591 0.611738 0.146909
0.245285 0.612809 0.146809
0.248487 0.612575 0.146616
0.251485 0.611805 0.146383
0.253556 0.608746 0.145993
0.256098 0.606865 0.145679
0.261536 0.611896 0.145818
0.266210 0.614959 0.145820
0.268736 0.612917 0.145483
0.272905 0.614654 0.145387
0.274491 0.610461 0.144903
0.275933 0.606014 0.144402
0.277287 0.601442 0.143891
0.281623 0.603442 0.143797
0.287411 0.608480 0.143890
0.289858 0.606255 0.143520
0.293632 0.606833 0.143322
0.299629 0.611971 0.143404
0.302258 0.610047 0.143043
0.307609 0.613647 0.143020
0.312881 0.616973 0.142974
0.309078 0.602233 0.141833
0.313795 0.604463 0.141720
0.317791 0.605222 0.141517
0.320842 0.604132 0.141203
0.323823 0.602910 0.140883
0.326861 0.601801 0.140570
0.336454 0.612804 0.140962
0.340678 0.613743 0.140769
0.341857 0.609147 0.140261
0.348019 0.613548 0.140271
0.350899 0.612046 0.139950
0.355959 0.614389 0.139851
0.359036 0.613254 0.139563
0.363532 0.614579 0.139420
0.365301 0.611267 0.139030
0.370059 0.613053 0.138930
0.373592 0.612791 0.138729
0.374597 0.608401 0.138316
0.376729 0.605961 0.138022
0.379564 0.604735 0.137808
0.385178 0.608011 0.137849
0.386778 0.604911 0.137564
0.393326 0.609676 0.137712
0.394796 0.606511 0.137456
0.397307 0.605056 0.137308
0.401794 0.606699 0.137340
0.405693 0.607481 0.137344
0.406967 0.604368 0.137160
0.408465 0.601699 0.137018
-0.271823 0.606951 0.140610
-0.267270 0.602767 0.140284
-0.265733 0.605330 0.140364
-0.263565 0.606610 0.140384
-0.261068 0.607257 0.140384
-0.258335 0.607460 0.140375
-0.255212 0.606842 0.140333
-0.252298 0.606789 0.140339
-0.249373 0.606785 0.140363
-0.246609 0.607248 0.140429
-0.243244 0.606328 0.140429
-0.241034 0.608309 0.140610
-0.237996 0.608330 0.140691
-0.235001 0.608523 0.140794
-0.232028 0.608830 0.140916
-0.228917 0.608837 0.141031
-0.225850 0.609004 0.141166
-0.222587 0.608690 0.141281
-0.219698 0.609414 0.141466
-0.216706 0.609901 0.141644
-0.213224 0.609058 0.141750
-0.209674 0.608014 0.141850
-0.206355 0.607613 0.141992
-0.203995 0.610002 0.142307
-0.200517 0.609158 0.142430
-0.197372 0.609283 0.142615
-0.194109 0.609042 0.142779
-0.190966 0.609157 0.142967
-0.188096 0.610118 0.143207
-0.184939 0.610175 0.143392
-0.181781 0.610203 0.143575
-0.178726 0.610553 0.143777
-0.175793 0.611295 0.144003
-0.172818 0.611888 0.144218
-0.169396 0.610909 0.144332
-0.166344 0.611174 0.144522
-0.163046 0.610520 0.144651
-0.160052 0.610928 0.144846
-0.156953 0.610913 0.145010
-0.153805 0.610670 0.145156
-0.150660 0.610393 0.145297
-0.147675 0.610694 0.145472
-0.144631 0.610729 0.145626
-0.141415 0.610002 0.145726
-0.138354 0.609862 0.145861
-0.135424 0.610240 0.146027
-0.132566 0.610913 0.146208
-0.129545 0.610828 0.146336
-0.126605 0.611070 0.146482
-0.123174 0.608950 0.146464
-0.120582 0.610764 0.146708
-0.117732 0.611334 0.146865
-0.114819 0.611568 0.146995
-0.111917 0.611830 0.147124
-0.109050 0.612251 0.147260
-0.106111 0.612252 0.147363
-0.102951 0.610961 0.147375
-0.100095 0.611327 0.147496
-0.097246 0.611708 0.147615
-0.094334 0.611690 0.147703
-0.091418 0.611598 0.147783
-0.088602 0.612120 0.147901
-0.085833 0.612948 0.148038
-0.082891 0.612590 0.148089
-0.079844 0.611418 0.148081
-0.077027 0.611836 0.148180
-0.074202 0.612181 0.148271
-0.071369 0.612456 0.148354
-0.068435 0.611881 0.148374
-0.065599 0.612068 0.148445
-0.062697 0.611640 0.148471
-0.059770 0.610910 0.148472
-0.057056 0.612171 0.148610
-0.054262 0.612697 0.148695
-0.051417 0.612694 0.148739
-0.048554 0.612460 0.148765
-0.045641 0.611564 0.148742
-0.042782 0.611213 0.148754
-0.039890 0.610352 0.148728
-0.037143 0.611440 0.148838
-0.034127 0.608470 0.148658
-0.031372 0.609402 0.148752
-0.028728 0.612470 0.148997
-0.026015 0.614732 0.149182
-0.023227 0.615753 0.149277
-0.020471 0.617781 0.149442
-0.017617 0.617622 0.149449
-0.014791 0.618247 0.149510
-0.011984 0.619801 0.149636
-0.009020 0.615046 0.149310
-0.006150 0.613034 0.149178
-0.003324 0.612910 0.149178
-0.000510 0.613954 0.149260
0.002315 0.614974 0.149339
0.005149 0.616905 0.149482
0.007998 0.617994 0.149562
0.010833 0.616603 0.149464
0.013657 0.615279 0.149370
0.016506 0.615887 0.149411
0.019320 0.614740 0.149326
0.022156 0.614699 0.149318
0.025058 0.616678 0.149454
0.027918 0.616994 0.149469
0.030569 0.612234 0.149120
0.033366 0.611528 0.149059
0.036223 0.612076 0.149087
0.039103 0.612943 0.149136
0.042057 0.614856 0.149258
0.044919 0.615066 0.149257
0.047750 0.614790 0.149220
0.050553 0.614133 0.149155
0.053367 0.613663 0.149101
0.055946 0.610420 0.148850
0.058892 0.611647 0.148915
0.062139 0.615970 0.149198
0.065321 0.619187 0.149401
0.068129 0.618426 0.149321
0.070301 0.611769 0.148821
0.073034 0.610663 0.148713
0.075924 0.610977 0.148705
0.078762 0.610818 0.148662
0.081583 0.610507 0.148607
0.084352 0.609802 0.148523
0.087081 0.608827 0.148418
0.089957 0.608945 0.148389
0.093252 0.611934 0.148561
0.096413 0.613815 0.148653
0.098944 0.611463 0.148445
0.101919 0.612027 0.148442
0.104875 0.612423 0.148424
0.108546 0.617028 0.148700
0.111126 0.615039 0.148512
0.113950 0.614509 0.148425
0.116936 0.614874 0.148398
0.119861 0.614875 0.148344
0.122987 0.615895 0.148360
0.126242 0.617503 0.148414
0.128904 0.616061 0.148254
0.131667 0.615155 0.148130
0.134382 0.614039 0.147989
0.136623 0.610748 0.147696
0.139382 0.609927 0.147572
0.142405 0.610288 0.147528
0.146037 0.613254 0.147661
0.148830 0.612506 0.147535
0.152101 0.613751 0.147545
0.156616 0.620006 0.147894
0.159060 0.617695 0.147654
0.159759 0.608590 0.146949
0.163863 0.612928 0.147159
0.166507 0.611552 0.146976
0.170138 0.613866 0.147042
0.173294 0.614337 0.146979
0.175031 0.609681 0.146568
0.177800 0.608787 0.146408
0.181512 0.611160 0.146465
0.184399 0.610616 0.146323
0.188235 0.613235 0.146389
0.190485 0.610522 0.146096
0.192092 0.605789 0.145666
0.195517 0.606958 0.145626
0.198367 0.606261 0.145458
0.201242 0.605632 0.145292
0.203938 0.604447 0.145086
0.207003 0.604365 0.144950
0.211484 0.608422 0.145079
0.216789 0.614715 0.145347
0.220765 0.616990 0.145349
0.221674 0.610530 0.144783
0.223073 0.605581 0.144313
0.228573 0.611950 0.144565
0.232138 0.612889 0.144464
0.235716 0.613799 0.144356
0.238999 0.613872 0.144191
0.242207 0.613714 0.144007
0.245153 0.612851 0.143774
0.248386 0.612698 0.143582
0.252042 0.613557 0.143448
0.254570 0.611595 0.143135
0.256899 0.609164 0.142790
0.262064 0.613518 0.142856
0.265910 0.614616 0.142717
0.269102 0.614127 0.142478
0.272147 0.613274 0.142212
0.275038 0.612054 0.141921
0.276437 0.607488 0.141428
0.279836 0.607413 0.141199
0.286116 0.613583 0.141331
0.287725 0.609504 0.140859
0.290057 0.607026 0.140479
0.296383 0.612962 0.140580
0.300455 0.614039 0.140396
0.307086 0.620305 0.140502
0.311704 0.622307 0.140360
0.315686 0.622955 0.140140
0.309453 0.603334 0.138797
0.313149 0.603567 0.138558
0.317783 0.605581 0.138415
0.320939 0.604697 0.138114
0.323654 0.602979 0.137769
0.327338 0.603089 0.137523
0.331237 0.603576 0.137300
0.334725 0.603289 0.137038
0.339277 0.604920 0.136879
0.342631 0.604367 0.136610
0.345554 0.603060 0.136309
0.348375 0.601604 0.136007
0.351392 0.600520 0.135732
0.355238 0.600890 0.135539
0.358436 0.600166 0.135300
0.362449 0.600843 0.135140
0.367405 0.603095 0.135068
0.371128 0.603301 0.134907
0.375171 0.604053 0.134785
0.378421 0.603546 0.134616
0.381313 0.602514 0.134436
0.385343 0.603347 0.134361
0.389484 0.604385 0.134311
0.392910 0.604339 0.134226
0.395075 0.602403 0.134067
0.398079 0.601837 0.133992
0.402624 0.603675 0.134047
0.405325 0.602769 0.133991
0.406744 0.600023 0.133865
-0.268426 0.600512 0.137456
-0.267279 0.603766 0.137538
-0.265815 0.606463 0.137604
-0.263369 0.607087 0.137576
-0.260644 0.607176 0.137536
-0.257614 0.606650 0.137479
-0.254806 0.606717 0.137469
-0.252117 0.607148 0.137493
-0.249387 0.607573 0.137533
-0.246222 0.607034 0.137537
-0.242474 0.605132 0.137484
-0.240508 0.607662 0.137678
-0.238041 0.609063 0.137827
-0.235389 0.610096 0.137969
-0.232099 0.609571 0.138041
-0.228485 0.608239 0.138080
-0.225197 0.607779 0.138176
-0.222568 0.609109 0.138378
-0.219409 0.609075 0.138516
-0.216260 0.609095 0.138665
-0.213208 0.609408 0.138836
-0.209992 0.609289 0.138990
-0.206831 0.609334 0.139159
-0.203930 0.610151 0.139375
-0.200871 0.610524 0.139570
-0.197395 0.609656 0.139699
-0.194262 0.609800 0.139887
-0.191319 0.610530 0.140110
-0.187417 0.608239 0.140162
-0.185090 0.610913 0.140498
-0.181912 0.610877 0.140679
-0.178755 0.610887 0.140862
-0.175227 0.609616 0.140969
-0.172350 0.610506 0.141201
-0.169268 0.610683 0.141390
-0.166141 0.610670 0.141565
-0.163267 0.611538 0.141790
-0.160180 0.611617 0.141966
-0.156347 0.608843 0.141968
-0.153528 0.609822 0.142191
-0.150643 0.610539 0.142396
-0.147534 0.610349 0.142543
-0.144483 0.610344 0.142697
-0.141429 0.610284 0.142845
-0.138430 0.610409 0.143000
-0.135447 0.610567 0.143153
-0.132380 0.610313 0.143277
-0.129518 0.610936 0.143452
-0.126585 0.611213 0.143602
-0.123621 0.611310 0.143737
-0.120725 0.611702 0.143886
-0.117819 0.612017 0.144027
-0.114739 0.611413 0.144106
-0.111871 0.611845 0.144247
-0.108939 0.611915 0.144361
-0.106014 0.611984 0.144472
-0.103038 0.611728 0.144558
-0.100091 0.611579 0.144647
-0.097241 0.611962 0.144766
-0.094369 0.612193 0.144873
-0.091472 0.612236 0.144964
-0.088670 0.612862 0.145089
-0.085829 0.613229 0.145195
-0.082565 0.610631 0.145104
-0.079790 0.611341 0.145225
-0.077027 0.612154 0.145350
-0.074097 0.611696 0.145389
-0.071250 0.611841 0.145464
-0.068380 0.611761 0.145521
-0.065545 0.611948 0.145593
-0.062740 0.612376 0.145678
-0.059754 0.611110 0.145649
-0.056923 0.611219 0.145707
-0.054135 0.611757 0.145791
-0.051289 0.611679 0.145832
-0.048495 0.612167 0.145907
-0.045679 0.612408 0.145964
-0.042689 0.610417 0.145871
-0.039835 0.609992 0.145879
-0.037000 0.609762 0.145897
-0.034077 0.608104 0.145818
-0.031300 0.608610 0.145881
-0.028776 0.613770 0.146251
-0.026071 0.616257 0.146442
-0.023256 0.616827 0.146503
-0.020510 0.619190 0.146681
-0.017650 0.618987 0.146686
-0.014788 0.618628 0.146680
-0.011902 0.617273 0.146604
-0.009058 0.617203 0.146613
-0.006141 0.613039 0.146347
-0.003312 0.612585 0.146326
-0.000501 0.613539 0.146398
0.002326 0.613206 0.146381
0.005150 0.614448 0.146469
0.007977 0.614020 0.146443
0.010798 0.613225 0.146391
0.013641 0.614513 0.146477
0.016504 0.616191 0.146587
0.019319 0.615091 0.146510
0.022154 0.615049 0.146502
0.025048 0.616797 0.146612
0.027923 0.617557 0.146655
0.030669 0.615052 0.146478
0.033431 0.613353 0.146354
0.036252 0.613108 0.146325
0.039160 0.614411 0.146398
0.041896 0.612654 0.146266
0.044866 0.614714 0.146387
0.047697 0.614489 0.146354
0.050581 0.614978 0.146367
0.053365 0.614109 0.146288
0.056120 0.612966 0.146190
0.058400 0.606538 0.145740
0.061634 0.611001 0.146011
0.065302 0.619468 0.146547
0.068065 0.618289 0.146441
0.070156 0.610889 0.145921
0.073000 0.610842 0.145888
0.075864 0.610942 0.145863
0.078730 0.611039 0.145836
0.081409 0.609607 0.145707
0.084277 0.609715 0.145678
0.086839 0.607514 0.145495
0.089757 0.607998 0.145488
0.093542 0.614431 0.145871
0.096329 0.613741 0.145783
0.099201 0.613622 0.145731
0.101993 0.612980 0.145644
0.104669 0.611646 0.145509
0.107285 0.610003 0.145353
0.110640 0.612713 0.145479
0.113529 0.612626 0.145422
0.116717 0.614160 0.145467
0.120195 0.617143 0.145605
0.122979 0.616341 0.145495
0.125819 0.615831 0.145402
0.128820 0.616127 0.145359
0.131724 0.615913 0.145281
0.134301 0.614132 0.145100
0.136861 0.612327 0.144915
0.139450 0.610709 0.144741
0.142441 0.610918 0.144683
0.145597 0.611814 0.144666
0.149048 0.613903 0.144722
0.151697 0.612535 0.144556
0.154570 0.612111 0.144447
0.157568 0.612178 0.144367
0.160609 0.612388 0.144293
0.163264 0.611072 0.144121
0.166861 0.613346 0.144172
0.170090 0.614137 0.144127
0.173373 0.615074 0.144088
0.175539 0.611943 0.143790
0.178878 0.613022 0.143754
0.182475 0.614931 0.143766
0.186841 0.619359 0.143931
0.189164 0.616775 0.143656
0.190210 0.610045 0.143123
0.192482 0.607472 0.142846
0.194759 0.604964 0.142569
0.198103 0.605849 0.142498
0.201037 0.605409 0.142342
0.203999 0.605037 0.142187
0.206885 0.604415 0.142013
0.210949 0.607247 0.142044
0.216431 0.614076 0.142309
0.220237 0.615880 0.142267
0.222646 0.613659 0.141981
0.223760 0.607873 0.141480
0.227350 0.608990 0.141385
0.231779 0.612303 0.141414
0.235644 0.613986 0.141342
0.239706 0.616101 0.141290
0.242206 0.614082 0.140992
0.244364 0.611208 0.140643
0.247685 0.611298 0.140460
0.253482 0.617494 0.140620
0.256499 0.616677 0.140375
0.258769 0.614037 0.140023
0.261602 0.612768 0.139745
0.266128 0.615480 0.139685
0.267274 0.610227 0.139178
0.271713 0.612624 0.139091
0.273918 0.609860 0.138716
0.277694 0.610639 0.138531
0.280324 0.608831 0.138202
0.283585 0.608405 0.137944
0.286628 0.607481 0.137656
0.289372 0.605906 0.137332
0.293665 0.607590 0.137175
0.296159 0.605462 0.136816
0.298417 0.602866 0.136433
0.302168 0.603325 0.136205
0.305391 0.602684 0.135918
0.309221 0.603230 0.135691
0.312616 0.602884 0.135417
0.317431 0.605267 0.135278
0.320481 0.604197 0.134968
0.323713 0.603473 0.134677
0.328081 0.604871 0.134489
0.331171 0.603859 0.134188
0.334391 0.603094 0.133902
0.337674 0.602453 0.133627
0.341667 0.603089 0.133416
0.344919 0.602398 0.133149
0.348529 0.602350 0.132918
0.351750 0.601637 0.132665
0.355286 0.601489 0.132446
0.359267 0.602114 0.132272
0.364481 0.604817 0.132199
0.367838 0.604401 0.131999
0.370936 0.603594 0.131795
0.374364 0.603372 0.131630
0.377372 0.602511 0.131452
0.380707 0.602230 0.131313
0.384259 0.602342 0.131208
0.389050 0.604446 0.131203
0.392304 0.604167 0.131113
0.394429 0.602202 0.130969
0.398540 0.603366 0.130975
0.401897 0.603424 0.130953
0.404530 0.602449 0.130904
0.408745 0.603915 0.130977
-0.271687 0.608699 0.135086
-0.268292 0.607007 0.134902
-0.264958 0.605510 0.134744
-0.262940 0.607053 0.134749
-0.260388 0.607495 0.134717
-0.256928 0.605933 0.134605
-0.254500 0.606836 0.134627
-0.252385 0.608582 0.134706
-0.249652 0.608971 0.134734
-0.246141 0.607569 0.134693
-0.243202 0.607607 0.134735
-0.239563 0.605985 0.134711
-0.237570 0.608514 0.134902
-0.234789 0.609171 0.135015
-0.232225 0.610459 0.135172
-0.229015 0.610153 0.135264
-0.225202 0.608296 0.135290
-0.222698 0.609931 0.135497
-0.219460 0.609659 0.135620
-0.216070 0.608991 0.135732
-0.213008 0.609249 0.135897
-0.209861 0.609291 0.136059
-0.206814 0.609639 0.136241
-0.203831 0.610194 0.136439
-0.200445 0.609577 0.136582
-0.197398 0.609960 0.136779
-0.194242 0.610022 0.136962
-0.191183 0.610375 0.137163
-0.188033 0.610443 0.137350
-0.185178 0.611442 0.137587
-0.181868 0.610970 0.137747
-0.178443 0.610079 0.137884
-0.175594 0.611079 0.138120
-0.172419 0.610961 0.138296
-0.169139 0.610441 0.138449
-0.166125 0.610821 0.138648
-0.163137 0.611270 0.138849
-0.159407 0.608956 0.138896
-0.156257 0.608706 0.139052
-0.153274 0.609044 0.139238
-0.150691 0.610928 0.139507
-0.147881 0.611937 0.139725
-0.144184 0.609324 0.139736
-0.141367 0.610227 0.139941
-0.138216 0.609704 0.140062
-0.135183 0.609626 0.140204
-0.132448 0.610827 0.140416
-0.129436 0.610778 0.140552
-0.126518 0.611119 0.140707
-0.123679 0.611809 0.140879
-0.120837 0.612470 0.141045
-0.117698 0.611641 0.141121
-0.114592 0.610897 0.141197
-0.111695 0.611162 0.141329
-0.108870 0.611786 0.141478
-0.105904 0.611629 0.141577
-0.102956 0.611511 0.141675
-0.100041 0.611547 0.141778
-0.097212 0.612051 0.141906
-0.094368 0.612451 0.142024
-0.091521 0.612823 0.142137
-0.088622 0.612830 0.142224
-0.085757 0.613026 0.142320
-0.082728 0.612054 0.142341
-0.079702 0.611005 0.142355
-0.076994 0.612211 0.142502
-0.074014 0.611364 0.142521
-0.071117 0.611083 0.142571
-0.068345 0.611780 0.142678
-0.065578 0.612551 0.142786
-0.062725 0.612571 0.142846
-0.059687 0.610810 0.142794
-0.056855 0.610886 0.142851
-0.054063 0.611351 0.142929
-0.051274 0.611863 0.143008
-0.048504 0.612617 0.143099
-0.045671 0.612661 0.143144
-0.042694 0.610839 0.143071
-0.039844 0.610485 0.143086
-0.036948 0.609378 0.143053
-0.034058 0.608178 0.143011
-0.031339 0.609641 0.143131
-0.028931 0.616980 0.143613
-0.026214 0.619492 0.143794
-0.023346 0.619199 0.143800
-0.020546 0.620459 0.143899
-0.017655 0.619535 0.143862
-0.014757 0.618072 0.143789
-0.011897 0.617499 0.143769
-0.009011 0.615565 0.143662
-0.006136 0.613202 0.143527
-0.003317 0.613342 0.143546
-0.000488 0.612563 0.143505
0.002326 0.613736 0.143584
0.005149 0.612577 0.143517
0.007967 0.612273 0.143501
0.010794 0.613238 0.143562
0.013639 0.614753 0.143655
0.016490 0.615831 0.143720
0.019311 0.615172 0.143675
0.022140 0.614977 0.143658
0.024978 0.615094 0.143658
0.027923 0.618030 0.143832
0.030742 0.617266 0.143774
0.033530 0.615958 0.143682
0.036343 0.615334 0.143630
0.039184 0.615310 0.143614
0.041938 0.613807 0.143505
0.044721 0.612961 0.143435
0.047738 0.615541 0.143576
0.050635 0.616172 0.143595
0.053415 0.615220 0.143514
0.056288 0.615454 0.143505
0.059309 0.617320 0.143596
0.062085 0.616341 0.143509
0.064664 0.613410 0.143301
0.068079 0.618904 0.143611
0.070012 0.610021 0.143033
0.072865 0.610110 0.143007
0.075800 0.610873 0.143021
0.078632 0.610707 0.142976
0.081424 0.610210 0.142909
0.084107 0.608883 0.142790
0.086861 0.608156 0.142706
0.089731 0.608288 0.142674
0.093331 0.613449 0.142947
0.096745 0.617014 0.143120
0.099711 0.617422 0.143099
0.102451 0.616355 0.142986
0.104216 0.609348 0.142511
0.107640 0.612600 0.142657
0.110582 0.612854 0.142620
0.113699 0.614064 0.142639
0.117145 0.616992 0.142759
0.120157 0.617420 0.142726
0.122746 0.615601 0.142556
0.125587 0.615128 0.142465
0.128781 0.616408 0.142477
0.131679 0.616164 0.142396
0.134349 0.614830 0.142247
0.137159 0.614177 0.142137
0.140046 0.613878 0.142046
0.142947 0.613631 0.141956
0.145838 0.613321 0.141860
0.148865 0.613582 0.141796
0.151843 0.613601 0.141714
0.154343 0.611638 0.141514
0.157201 0.611159 0.141398
0.160921 0.614063 0.141478
0.165227 0.619095 0.141680
0.167900 0.617723 0.141503
0.170010 0.614284 0.141203
0.172726 0.613151 0.141036
0.176395 0.615448 0.141064
0.179349 0.615116 0.140937
0.182946 0.616990 0.140933
0.186459 0.618487 0.140904
0.190413 0.621380 0.140951
0.189991 0.609742 0.140166
0.191932 0.606101 0.139836
0.194882 0.605763 0.139691
0.198029 0.606021 0.139575
0.200889 0.605351 0.139404
0.203948 0.605276 0.139263
0.207047 0.605291 0.139123
0.209895 0.604532 0.138936
