ply
format ascii 1.0
comment ---
element vertex 1740
property float x
property float y
property float z
element face 0
property list uchar uint vertex_indices
end_header
0.018384 0.634166 0.266453
0.021214 0.632194 0.265929
0.024081 0.631410 0.265718
0.032972 0.634585 0.266543
0.035680 0.631306 0.265692
0.038076 0.623952 0.263781
0.040921 0.623580 0.263694
0.044076 0.627176 0.264645
0.047414 0.632538 0.266059
0.050303 0.632200 0.265989
0.052750 0.627109 0.264682
0.055585 0.626470 0.264540
0.058720 0.628780 0.265170
0.061563 0.628141 0.265034
0.064437 0.627804 0.264979
0.067841 0.632011 0.266114
0.069027 0.617609 0.262392
0.071348 0.613259 0.261298
0.074079 0.612316 0.261096
0.077070 0.613336 0.261411
0.079763 0.612134 0.261148
0.082512 0.611372 0.261003
0.085315 0.610988 0.260961
0.087913 0.609277 0.260575
0.093356 0.625406 0.264864
0.097263 0.631250 0.266466
0.100403 0.632216 0.266794
0.103167 0.630938 0.266537
0.105196 0.625606 0.265220
0.107040 0.619525 0.263709
0.110249 0.620928 0.264166
0.113458 0.622232 0.264601
0.116961 0.624915 0.265404
0.119705 0.623716 0.265190
0.122068 0.620719 0.264506
0.124759 0.619358 0.264256
0.128360 0.622185 0.265115
0.131396 0.622322 0.265269
0.134496 0.622699 0.265492
0.136926 0.620162 0.264949
0.141271 0.625709 0.266547
0.143306 0.621525 0.265577
0.146033 0.620253 0.265380
0.149180 0.620645 0.265630
0.151789 0.618909 0.265319
0.153773 0.614841 0.264392
0.156848 0.614938 0.264576
0.159713 0.614229 0.264550
0.161547 0.609821 0.263543
0.166900 0.617890 0.265867
0.169342 0.615599 0.265433
0.170850 0.610184 0.264167
0.176476 0.618625 0.266613
0.179120 0.616984 0.266366
0.181899 0.615797 0.266244
0.186322 0.619810 0.267524
0.189874 0.620942 0.268035
0.189565 0.610192 0.265350
0.192607 0.609836 0.265465
0.195585 0.609264 0.265527
0.198533 0.608588 0.265563
0.201566 0.608145 0.265665
0.202811 0.602627 0.264393
0.206480 0.603992 0.264991
0.211498 0.608982 0.266578
0.215761 0.611755 0.267567
0.218519 0.610411 0.267437
0.221134 0.608706 0.267209
0.223767 0.607071 0.266999
0.227055 0.607129 0.267252
0.231396 0.609807 0.268224
0.234342 0.608938 0.268223
0.235588 0.603919 0.267076
0.238959 0.604149 0.267370
0.242905 0.605727 0.268033
0.246880 0.607326 0.268700
0.249610 0.605992 0.268551
0.252967 0.606128 0.268802
0.252354 0.597294 0.266557
0.255946 0.598065 0.266968
0.260346 0.600609 0.267865
0.263950 0.601370 0.268257
0.267345 0.601682 0.268513
0.269656 0.599704 0.268120
0.272490 0.598895 0.268039
0.279998 0.607836 0.270671
0.282836 0.607024 0.270564
0.284810 0.604511 0.269965
0.286778 0.602082 0.269372
0.288928 0.600108 0.268890
0.293572 0.603123 0.269789
0.300489 0.610545 0.271907
0.300056 0.603720 0.270011
0.303700 0.604857 0.270329
0.310618 0.612206 0.272371
0.307909 0.601478 0.269323
0.312411 0.604365 0.270074
0.315753 0.605131 0.270211
0.320305 0.608147 0.270957
0.319740 0.601952 0.269106
0.322036 0.601039 0.268715
0.324320 0.600187 0.268323
0.324596 0.595883 0.266949
0.327002 0.595427 0.266632
0.332074 0.599653 0.267601
-0.318746 0.607628 0.271325
-0.316165 0.607649 0.271506
-0.313554 0.607689 0.271673
-0.310327 0.606618 0.271510
-0.307540 0.606452 0.271581
-0.305851 0.608498 0.272258
-0.303216 0.608790 0.272420
-0.300858 0.609709 0.272740
-0.297619 0.608948 0.272566
-0.294485 0.608452 0.272446
-0.292001 0.609349 0.272700
-0.289413 0.610113 0.272897
-0.286316 0.609894 0.272797
-0.282979 0.609223 0.272549
-0.279835 0.609010 0.272413
-0.277025 0.609572 0.272477
-0.274681 0.611220 0.272829
-0.270708 0.609351 0.272174
-0.267618 0.609460 0.272059
-0.264636 0.609862 0.272011
-0.261663 0.610332 0.271968
-0.258550 0.610522 0.271832
-0.255682 0.611325 0.271854
-0.252643 0.611767 0.271764
-0.249261 0.611415 0.271440
-0.246044 0.611476 0.271223
-0.242835 0.611571 0.271006
-0.239549 0.611482 0.270730
-0.236519 0.612053 0.270630
-0.233560 0.612822 0.270579
-0.230629 0.613684 0.270548
-0.227352 0.613645 0.270264
-0.223748 0.612715 0.269731
-0.220404 0.612452 0.269379
-0.216945 0.611849 0.268933
-0.213690 0.611783 0.268634
-0.210705 0.612469 0.268541
-0.207343 0.612055 0.268147
-0.204080 0.611894 0.267823
-0.200932 0.612043 0.267585
-0.197496 0.611290 0.267104
-0.194208 0.610940 0.266735
-0.190993 0.610775 0.266420
-0.187840 0.610769 0.266150
-0.185042 0.611887 0.266188
-0.181827 0.611622 0.265855
-0.178859 0.612146 0.265738
-0.175946 0.612843 0.265672
-0.172720 0.612425 0.265310
-0.169784 0.612989 0.265216
-0.166738 0.613133 0.265014
-0.163603 0.612912 0.264719
-0.160417 0.612448 0.264363
-0.157802 0.614133 0.264586
-0.153973 0.611057 0.263545
-0.151139 0.611820 0.263531
-0.148273 0.612439 0.263483
-0.145422 0.613109 0.263454
-0.142492 0.613427 0.263335
-0.139327 0.612693 0.262943
-0.136590 0.613796 0.263041
-0.133593 0.613724 0.262833
-0.130806 0.614587 0.262877
-0.127866 0.614723 0.262733
-0.124577 0.613110 0.262135
-0.121715 0.613527 0.262074
-0.118784 0.613569 0.261920
-0.115941 0.614041 0.261883
-0.112986 0.613892 0.261687
-0.109743 0.612082 0.261062
-0.106961 0.612790 0.261099
-0.104117 0.613132 0.261045
-0.101239 0.613254 0.260937
-0.098490 0.614154 0.261036
-0.095508 0.613566 0.260751
-0.092710 0.614129 0.260770
-0.089716 0.613347 0.260443
-0.086755 0.612708 0.260157
-0.083858 0.612467 0.259979
-0.081029 0.612693 0.259925
-0.078146 0.612472 0.259759
-0.075341 0.612845 0.259751
-0.072571 0.613523 0.259825
-0.069743 0.613694 0.259770
-0.066876 0.613491 0.259623
-0.064018 0.613315 0.259486
-0.061219 0.613711 0.259500
-0.058380 0.613670 0.259404
-0.055617 0.614471 0.259528
-0.052714 0.613631 0.259232
-0.049781 0.612278 0.258808
-0.046986 0.612602 0.258818
-0.044211 0.613237 0.258912
-0.041402 0.613382 0.258882
-0.038612 0.613872 0.258944
-0.035748 0.613027 0.258665
-0.032915 0.612609 0.258499
-0.030258 0.616049 0.259327
-0.027434 0.616075 0.259280
-0.024563 0.614722 0.258882
-0.021681 0.612533 0.258272
-0.018820 0.610349 0.257667
-0.016067 0.612310 0.258128
-0.013276 0.613008 0.258267
-0.010473 0.613275 0.258298
-0.007665 0.612968 0.258184
-0.004861 0.613044 0.258172
-0.002059 0.611918 0.257853
0.000755 0.613833 0.258317
0.003566 0.614012 0.258338
0.006380 0.614263 0.258380
0.009190 0.614214 0.258348
0.012020 0.614898 0.258505
0.014827 0.614628 0.258421
0.017698 0.616195 0.258810
0.020482 0.615240 0.258556
0.023229 0.613641 0.258140
0.026027 0.613336 0.258058
0.028857 0.613639 0.258133
0.031610 0.612588 0.257865
0.034466 0.613268 0.258042
0.037244 0.612702 0.257903
0.039988 0.611722 0.257661
0.042747 0.611025 0.257494
0.045563 0.611072 0.257520
0.048509 0.612571 0.257920
0.051333 0.612566 0.257938
0.054216 0.613148 0.258109
0.057053 0.613199 0.258147
0.059897 0.613287 0.258197
0.062732 0.613257 0.258220
0.065621 0.613669 0.258359
0.068243 0.611821 0.257922
0.071303 0.613564 0.258409
0.074170 0.613677 0.258480
0.076628 0.610739 0.257773
0.079396 0.610178 0.257678
0.082367 0.611027 0.257948
0.085499 0.612862 0.258474
0.088451 0.613393 0.258669
0.091201 0.612601 0.258528
0.094171 0.613155 0.258736
0.097098 0.613400 0.258869
0.100179 0.614485 0.259221
0.102728 0.612512 0.258790
0.105444 0.611521 0.258615
0.107938 0.609375 0.258146
0.111693 0.613804 0.259375
0.114279 0.612106 0.259029
0.117535 0.613745 0.259548
0.121475 0.618553 0.260890
0.123507 0.614176 0.259863
0.126378 0.613798 0.259874
0.129357 0.613888 0.260010
0.132254 0.613578 0.260046
0.135006 0.612632 0.259922
0.139107 0.617337 0.261269
0.142564 0.619172 0.261876
0.145251 0.617800 0.261655
0.147684 0.615446 0.261183
0.151493 0.618464 0.262113
0.154568 0.618548 0.262285
0.157417 0.617752 0.262232
0.159899 0.615606 0.261831
0.163906 0.618964 0.262872
0.168107 0.622843 0.264056
0.171004 0.622044 0.264022
0.173249 0.619025 0.263409
0.177155 0.621604 0.264270
0.180638 0.622673 0.264740
0.183277 0.620949 0.264480
0.186257 0.620324 0.264513
0.189338 0.619999 0.264630
0.189862 0.611813 0.262673
0.192699 0.610822 0.262619
0.195390 0.609396 0.262453
0.198496 0.609188 0.262613
0.201294 0.608065 0.262534
0.203916 0.606446 0.262325
0.206086 0.603585 0.261787
0.213692 0.615694 0.265244
0.216529 0.614520 0.265164
0.218989 0.612347 0.264817
0.221501 0.610341 0.264516
0.225461 0.612117 0.265228
0.228843 0.612340 0.265526
0.230535 0.608285 0.264672
0.233208 0.606754 0.264495
0.237043 0.608089 0.265090
0.241542 0.610977 0.266104
0.244279 0.609578 0.265956
0.247100 0.608403 0.265865
0.251180 0.610174 0.266568
0.253150 0.607062 0.265940
0.253484 0.600335 0.264319
0.254651 0.595638 0.263240
0.258236 0.596394 0.263639
0.265476 0.605102 0.266203
0.266446 0.600128 0.265018
0.268430 0.597447 0.264449
0.274909 0.604293 0.266477
0.279452 0.606989 0.267358
0.283737 0.609125 0.268073
0.286044 0.607230 0.267666
0.286438 0.601576 0.266209
0.288859 0.600112 0.265888
0.294385 0.604825 0.267249
0.300917 0.611445 0.269119
0.304612 0.612520 0.269444
0.306148 0.609511 0.268627
0.313543 0.617677 0.270867
0.309696 0.604733 0.267276
0.312411 0.604242 0.267094
0.316458 0.606264 0.267585
0.316187 0.600466 0.265905
0.321712 0.605275 0.267122
0.323137 0.602744 0.266303
0.324530 0.600263 0.265480
0.330302 0.605580 0.266776
0.335171 0.609304 0.267615
0.332729 0.600398 0.264980
0.323451 0.579975 0.259188
-0.321228 0.606936 0.268139
-0.318590 0.606810 0.268284
-0.316184 0.607189 0.268551
-0.313634 0.607374 0.268746
-0.310508 0.606532 0.268638
-0.307958 0.606859 0.268834
-0.305761 0.607954 0.269224
-0.303415 0.608848 0.269539
-0.300401 0.608504 0.269492
-0.297499 0.608447 0.269504
-0.294688 0.608643 0.269566
-0.290889 0.606886 0.269067
-0.288826 0.608751 0.269554
-0.286947 0.611107 0.270156
-0.283377 0.609996 0.269779
-0.280061 0.609464 0.269544
-0.277538 0.610690 0.269778
-0.274939 0.611829 0.269970
-0.270411 0.608776 0.268987
-0.267352 0.608986 0.268891
-0.264552 0.609826 0.268953
-0.261804 0.610845 0.269049
-0.258485 0.610593 0.268783
-0.255237 0.610533 0.268557
-0.252442 0.611575 0.268623
-0.249464 0.612220 0.268569
-0.246376 0.612629 0.268441
-0.242530 0.611180 0.267797
-0.239391 0.611478 0.267624
-0.236425 0.612227 0.267566
-0.233439 0.612944 0.267495
-0.230419 0.613587 0.267398
-0.227184 0.613669 0.267146
-0.223506 0.612547 0.266564
-0.220224 0.612460 0.266262
-0.216996 0.612502 0.265994
-0.213598 0.612046 0.265590
-0.210623 0.612764 0.265503
-0.207398 0.612753 0.265221
-0.204241 0.612917 0.264987
-0.200827 0.612281 0.264540
-0.197400 0.611551 0.264071
-0.194295 0.611767 0.263858
-0.190994 0.611338 0.263476
-0.187897 0.611514 0.263258
-0.184993 0.612289 0.263202
-0.181554 0.611276 0.262676
-0.178717 0.612227 0.262674
-0.175774 0.612808 0.262577
-0.172699 0.612906 0.262357
-0.169537 0.612657 0.262051
-0.166540 0.612961 0.261894
-0.163187 0.611909 0.261387
-0.160488 0.613259 0.261513
-0.156688 0.610360 0.260533
-0.154057 0.611920 0.260723
-0.151168 0.612458 0.260651
-0.147720 0.610687 0.259982
-0.144767 0.610870 0.259827
-0.142377 0.613442 0.260297
-0.139215 0.612698 0.259910
-0.136204 0.612561 0.259686
-0.133810 0.615204 0.260185
-0.130303 0.612709 0.259360
-0.127411 0.613007 0.259262
-0.124559 0.613484 0.259215
-0.121541 0.613100 0.258950
-0.118893 0.614578 0.259169
-0.115934 0.614444 0.258977
-0.112888 0.613785 0.258654
-0.109816 0.612913 0.258282
-0.106827 0.612431 0.258014
-0.104162 0.613800 0.258225
-0.101318 0.614129 0.258172
-0.098495 0.614567 0.258152
-0.095665 0.614958 0.258123
-0.092706 0.614471 0.257874
-0.089742 0.613878 0.257602
-0.086788 0.613288 0.257335
-0.083976 0.613674 0.257320
-0.081094 0.613512 0.257169
-0.078255 0.613653 0.257098
-0.075399 0.613625 0.256988
-0.072605 0.614104 0.257010
-0.069768 0.614197 0.256938
-0.066836 0.613376 0.256637
-0.063996 0.613351 0.256541
-0.061199 0.613729 0.256550
-0.058455 0.614710 0.256715
-0.055589 0.614354 0.256544
-0.052564 0.611990 0.255870
-0.049800 0.612670 0.255967
-0.047004 0.612981 0.255974
-0.044208 0.613299 0.255986
-0.041427 0.613856 0.256061
-0.038619 0.614027 0.256041
-0.035789 0.613799 0.255923
-0.032968 0.613659 0.255830
-0.030186 0.614349 0.255949
-0.027404 0.615171 0.256104
-0.024507 0.612862 0.255473
-0.021633 0.610599 0.254856
-0.018900 0.612979 0.255411
-0.016087 0.612556 0.255262
-0.013298 0.613340 0.255420
-0.010496 0.613591 0.255446
-0.007688 0.613281 0.255334
-0.004883 0.612965 0.255222
-0.002079 0.613765 0.255394
0.000728 0.613863 0.255391
0.003550 0.615069 0.255669
0.006314 0.612185 0.254923
0.009150 0.613887 0.255330
0.011971 0.614371 0.255434
0.014838 0.616166 0.255870
0.017615 0.614968 0.255556
0.020404 0.614309 0.255381
0.023236 0.614726 0.255478
0.026070 0.615084 0.255562
0.028741 0.612372 0.254879
0.031543 0.612279 0.254856
0.034379 0.612701 0.254964
0.037282 0.614028 0.255301
0.039987 0.612454 0.254914
0.042765 0.611993 0.254808
0.045628 0.612569 0.254965
0.048477 0.612910 0.255066
0.051366 0.613622 0.255262
0.054183 0.613495 0.255251
0.057044 0.613786 0.255347
0.059883 0.613825 0.255383
0.062744 0.614027 0.255462
0.065321 0.611754 0.254923
0.068444 0.614130 0.255554
0.071180 0.613231 0.255366
0.074080 0.613631 0.255507
0.076589 0.611089 0.254912
0.079278 0.609974 0.254677
0.082226 0.610690 0.254907
0.085481 0.613371 0.255635
0.088417 0.613806 0.255801
0.091326 0.614014 0.255913
0.094139 0.613596 0.255870
0.096896 0.612840 0.255746
0.099476 0.611086 0.255374
0.102377 0.611190 0.255473
0.105376 0.611785 0.255700
0.108223 0.611515 0.255712
0.110962 0.610674 0.255584
0.113804 0.610358 0.255592
0.116664 0.610115 0.255622
0.119653 0.610464 0.255807
0.123129 0.613050 0.256562
0.125761 0.611626 0.256305
0.128497 0.610692 0.256176
0.131274 0.609945 0.256099
0.134321 0.610351 0.256318
0.136879 0.608658 0.256008
0.141452 0.615274 0.257817
0.144026 0.613542 0.257507
0.146600 0.611845 0.257209
0.148774 0.608631 0.256527
0.152012 0.609536 0.256901
0.154754 0.608530 0.256792
0.158370 0.610711 0.257502
0.161784 0.612051 0.258003
0.164853 0.612092 0.258176
0.167662 0.611196 0.258113
0.170644 0.610882 0.258204
0.173694 0.610766 0.258350
0.176517 0.609870 0.258300
0.179304 0.608853 0.258222
0.185502 0.618641 0.260941
0.188281 0.617415 0.260821
0.188984 0.609820 0.259055
0.192495 0.610908 0.259540
0.195192 0.609505 0.259383
0.198370 0.609515 0.259596
0.201277 0.608709 0.259602
0.203756 0.606682 0.259291
0.208612 0.611314 0.260721
0.214299 0.618057 0.262711
0.217099 0.616750 0.262599
0.220090 0.615960 0.262625
0.222876 0.614626 0.262509
0.225639 0.613240 0.262380
0.234134 0.626509 0.266113
0.234078 0.617846 0.264068
0.234519 0.610635 0.262401
0.239150 0.613865 0.263490
0.244575 0.618908 0.265062
0.245874 0.613966 0.263985
0.247509 0.609933 0.263142
0.251835 0.612242 0.263982
0.255330 0.612583 0.264293
0.256039 0.606611 0.262915
0.257165 0.601723 0.261815
0.262565 0.606390 0.263262
0.267621 0.610202 0.264475
0.269192 0.606433 0.263648
0.271802 0.604981 0.263430
0.275972 0.606862 0.264096
0.281467 0.611479 0.265488
0.286575 0.615225 0.266633
0.287824 0.611081 0.265640
0.289101 0.607123 0.264680
0.290218 0.602972 0.263650
0.295317 0.606782 0.264754
0.300060 0.609868 0.265645
0.305468 0.614219 0.266861
0.310037 0.616936 0.267618
0.313214 0.617030 0.267646
0.312296 0.609528 0.265603
0.313537 0.606226 0.264676
0.316128 0.605524 0.264432
0.318645 0.604762 0.264153
0.321914 0.605432 0.264241
0.324058 0.604148 0.263783
0.326262 0.603055 0.263357
0.331763 0.607838 0.264495
0.337625 0.613235 0.265776
0.337165 0.607695 0.264099
0.312534 0.560885 0.251340
-0.321294 0.606528 0.265217
-0.319046 0.607156 0.265555
-0.315704 0.605812 0.265340
-0.312287 0.604375 0.265081
-0.310325 0.605771 0.265573
-0.308100 0.606757 0.265935
-0.305938 0.607956 0.266335
-0.303216 0.608147 0.266442
-0.300366 0.608161 0.266481
-0.297533 0.608280 0.266529
-0.295023 0.609123 0.266755
-0.292325 0.609667 0.266879
-0.289041 0.609074 0.266675
-0.287204 0.611558 0.267289
-0.283894 0.611043 0.267069
-0.280712 0.610848 0.266917
-0.277769 0.611219 0.266902
-0.274785 0.611559 0.266861
-0.272104 0.612626 0.267002
-0.267482 0.609414 0.265967
-0.264662 0.610249 0.266016
-0.261543 0.610452 0.265879
-0.258588 0.611071 0.265842
-0.255713 0.611922 0.265856
-0.252241 0.611394 0.265487
-0.249285 0.612115 0.265445
-0.245348 0.610466 0.264759
-0.242266 0.610902 0.264624
-0.239284 0.611607 0.264556
-0.235920 0.611357 0.264225
-0.233090 0.612480 0.264257
-0.229825 0.612484 0.263986
-0.226453 0.612196 0.263634
-0.223201 0.612207 0.263360
-0.220129 0.612696 0.263211
-0.216185 0.610752 0.262418
-0.213171 0.611355 0.262299
-0.210575 0.613155 0.262495
-0.207155 0.612577 0.262066
-0.204010 0.612772 0.261841
-0.200871 0.612957 0.261616
-0.197646 0.612853 0.261317
-0.193930 0.611181 0.260612
-0.190740 0.611081 0.260321
-0.187961 0.612269 0.260369
-0.184583 0.611496 0.259911
-0.181492 0.611616 0.259688
-0.178764 0.612935 0.259780
-0.175274 0.611625 0.259196
-0.172106 0.611364 0.258888
-0.168751 0.610379 0.258398
-0.165995 0.611506 0.258456
-0.163000 0.611744 0.258290
-0.159576 0.610323 0.257703
-0.157313 0.613301 0.258249
-0.154509 0.614217 0.258270
-0.150769 0.611360 0.257331
-0.148128 0.612863 0.257511
-0.144811 0.611549 0.256978
-0.141986 0.612253 0.256963
-0.139076 0.612571 0.256855
-0.136268 0.613320 0.256860
-0.133331 0.613473 0.256718
-0.130147 0.612434 0.256280
-0.127440 0.613598 0.256403
-0.124633 0.614289 0.256411
-0.121669 0.614185 0.256222
-0.118616 0.613571 0.255910
-0.115883 0.614588 0.256012
-0.112688 0.613105 0.255489
-0.109740 0.612889 0.255290
-0.107132 0.614581 0.255574
-0.104449 0.615885 0.255764
-0.101332 0.614587 0.255305
-0.098111 0.612515 0.254657
-0.095683 0.615429 0.255261
-0.092786 0.615348 0.255119
-0.089687 0.613834 0.254622
-0.086888 0.614330 0.254632
-0.084045 0.614496 0.254562
-0.081174 0.614434 0.254440
-0.078346 0.614671 0.254395
-0.075485 0.614617 0.254281
-0.072629 0.614579 0.254174
-0.069794 0.614681 0.254105
-0.066850 0.613749 0.253783
-0.063993 0.613542 0.253644
-0.061175 0.613696 0.253598
-0.058353 0.613786 0.253538
-0.055497 0.613463 0.253380
-0.052756 0.614482 0.253557
-0.049884 0.613895 0.253339
-0.047059 0.613848 0.253257
-0.044231 0.613717 0.253157
-0.041412 0.613685 0.253085
-0.038641 0.614432 0.253208
-0.035842 0.614767 0.253231
-0.033001 0.614276 0.253054
-0.030159 0.613623 0.252838
-0.027381 0.614406 0.252980
-0.024518 0.612914 0.252563
-0.021674 0.611569 0.252185
-0.018931 0.613668 0.252659
-0.016106 0.612759 0.252393
-0.013274 0.610800 0.251872
-0.010496 0.611966 0.252123
-0.007710 0.613365 0.252433
-0.004908 0.613797 0.252508
-0.002104 0.613819 0.252484
0.000704 0.614158 0.252540
0.003508 0.613982 0.252472
0.006289 0.612511 0.252087
0.009090 0.612618 0.252094
0.011954 0.615045 0.252673
0.014756 0.614729 0.252580
0.017537 0.613871 0.252356
0.020370 0.614480 0.252495
0.023209 0.615071 0.252632
0.026048 0.615530 0.252739
0.028715 0.612749 0.252051
0.031577 0.613669 0.252276
0.034347 0.612995 0.252112
0.037158 0.612985 0.252113
0.040002 0.613400 0.252221
0.042814 0.613333 0.252213
0.045638 0.613402 0.252241
0.048465 0.613465 0.252271
0.051309 0.613680 0.252340
0.054189 0.614229 0.252494
0.057012 0.614141 0.252494
0.059856 0.614226 0.252539
0.062492 0.612421 0.252122
0.065229 0.611604 0.251950
0.068107 0.611991 0.252078
0.071085 0.613115 0.252390
0.073972 0.613429 0.252506
0.076810 0.613341 0.252525
0.079311 0.610827 0.251950
0.082405 0.612538 0.252419
0.085449 0.613782 0.252776
0.088379 0.614181 0.252928
0.091207 0.613887 0.252913
0.094091 0.613924 0.252982
0.096728 0.612469 0.252686
0.099498 0.611828 0.252594
0.102425 0.612070 0.252724
0.105178 0.611324 0.252613
0.108101 0.611491 0.252732
0.110964 0.611303 0.252766
0.113774 0.610828 0.252733
0.116671 0.610769 0.252807
0.119677 0.611209 0.253008
0.122676 0.611559 0.253191
0.125833 0.612586 0.253547
0.128378 0.610791 0.253205
0.131245 0.610451 0.253228
0.133896 0.609167 0.253021
0.136735 0.608694 0.253020
0.139923 0.609636 0.253375
0.143622 0.612566 0.254232
0.146035 0.610264 0.253787
0.148873 0.609666 0.253771
0.151628 0.608736 0.253677
0.155079 0.610396 0.254236
0.158136 0.610518 0.254414
0.161370 0.611234 0.254747
0.164431 0.611277 0.254915
0.167420 0.611033 0.255016
0.170276 0.610307 0.255000
0.173471 0.610699 0.255270
0.176448 0.610324 0.255351
0.179323 0.609596 0.255348
0.182410 0.609527 0.255515
0.185945 0.610816 0.256031
0.188797 0.609934 0.256002
0.191521 0.608651 0.255874
0.195417 0.610860 0.256638
0.198049 0.609261 0.256438
0.200896 0.608297 0.256403
0.204082 0.608287 0.256614
0.207512 0.608925 0.256994
0.211233 0.610307 0.257570
0.215573 0.613297 0.258561
0.217106 0.608668 0.257599
0.220551 0.609174 0.257958
0.224577 0.611144 0.258697
0.229384 0.615029 0.259933
0.232975 0.615712 0.260345
0.236472 0.616118 0.260686
0.239635 0.615674 0.260806
0.242539 0.614595 0.260761
0.246347 0.615686 0.261277
0.250030 0.616440 0.261705
0.253165 0.615888 0.261789
0.257091 0.617159 0.262344
0.257982 0.611521 0.261088
0.260939 0.610644 0.261070
0.265806 0.614008 0.262157
0.269918 0.615652 0.262787
0.271410 0.611622 0.261916
0.273324 0.608600 0.261300
0.276883 0.609131 0.261607
0.285273 0.619714 0.264556
0.288576 0.619629 0.264679
0.290310 0.616388 0.263955
0.291933 0.613033 0.263184
0.293310 0.609300 0.262297
0.296372 0.609003 0.262303
0.302492 0.614708 0.263882
0.305253 0.613877 0.263713
0.308754 0.614526 0.263918
0.312146 0.615013 0.264061
0.310971 0.607012 0.261935
0.313689 0.606431 0.261757
0.316237 0.605609 0.261497
0.319264 0.605737 0.261469
0.322246 0.605844 0.261416
0.324582 0.604862 0.261056
0.327000 0.604110 0.260737
0.330537 0.605400 0.260940
0.335781 0.609705 0.261919
0.339070 0.610634 0.261987
0.340237 0.607981 0.261094
-0.320606 0.600056 0.260502
-0.321310 0.606046 0.262268
-0.319533 0.607584 0.262834
-0.316861 0.607537 0.262960
-0.313391 0.606051 0.262683
-0.311056 0.606782 0.262978
-0.308597 0.607362 0.263215
-0.305967 0.607691 0.263365
-0.303448 0.608319 0.263576
-0.300393 0.607966 0.263505
-0.297876 0.608754 0.263719
-0.295487 0.609887 0.264006
-0.292829 0.610561 0.264151
-0.290228 0.611429 0.264329
-0.286618 0.610270 0.263947
-0.284517 0.612335 0.264407
-0.281413 0.612359 0.264304
-0.277806 0.611348 0.263909
-0.274762 0.611595 0.263833
-0.271321 0.611017 0.263521
-0.269188 0.613391 0.263980
-0.264803 0.610757 0.263094
-0.261626 0.610864 0.262924
-0.258697 0.611578 0.262903
-0.255531 0.611777 0.262734
-0.252103 0.611375 0.262397
-0.248396 0.610301 0.261874
-0.245861 0.612082 0.262095
-0.242377 0.611561 0.261704
-0.238928 0.611114 0.261326
-0.235905 0.611743 0.261226
-0.232852 0.612304 0.261103
-0.229302 0.611568 0.260638
-0.226163 0.611895 0.260448
-0.223311 0.612989 0.260457
-0.220135 0.613209 0.260236
-0.215947 0.610593 0.259280
-0.212900 0.611101 0.259135
-0.210642 0.613869 0.259574
-0.207297 0.613521 0.259208
-0.203805 0.612695 0.258722
-0.200772 0.613192 0.258579
-0.197277 0.612259 0.258072
-0.193769 0.611214 0.257540
-0.190633 0.611282 0.257296
-0.187550 0.611483 0.257090
-0.184434 0.611546 0.256853
-0.181696 0.612832 0.256930
-0.178669 0.613145 0.256763
-0.175521 0.613011 0.256488
-0.171412 0.609446 0.255349
-0.168955 0.611633 0.255670
-0.166054 0.612240 0.255596
-0.162817 0.611575 0.255205
-0.159855 0.611890 0.255067
-0.156626 0.611141 0.254665
-0.153834 0.612047 0.254684
-0.150760 0.611813 0.254422
-0.148386 0.614412 0.254872
-0.145055 0.613052 0.254337
-0.141992 0.612746 0.254071
-0.139097 0.613125 0.253980
-0.136255 0.613719 0.253947
-0.132914 0.612007 0.253346
-0.130265 0.613429 0.253527
-0.127405 0.613865 0.253468
-0.124753 0.615308 0.253663
-0.121868 0.615605 0.253577
-0.118692 0.614373 0.253118
-0.115754 0.614304 0.252951
-0.112819 0.614211 0.252782
-0.109877 0.614038 0.252597
-0.107019 0.614304 0.252525
-0.104256 0.615108 0.252589
-0.101193 0.614091 0.252209
-0.098299 0.614042 0.252071
-0.095473 0.614401 0.252036
-0.092671 0.614907 0.252041
-0.089698 0.614224 0.251759
-0.086741 0.613583 0.251490
-0.084091 0.615136 0.251762
-0.081283 0.615556 0.251760
-0.078417 0.615504 0.251646
-0.075506 0.615055 0.251438
-0.072511 0.613801 0.251037
-0.069783 0.614819 0.251193
-0.066971 0.615109 0.251175
-0.063959 0.613408 0.250675
-0.061130 0.613418 0.250595
-0.058341 0.613832 0.250616
-0.055559 0.614332 0.250661
-0.052717 0.614134 0.250539
-0.049927 0.614558 0.250570
-0.047101 0.614516 0.250492
-0.044249 0.614045 0.250311
-0.041409 0.613667 0.250157
-0.038638 0.614388 0.250271
-0.035914 0.616062 0.250618
-0.033008 0.614324 0.250142
-0.030177 0.613896 0.249985
-0.027345 0.613295 0.249789
-0.024532 0.613023 0.249676
-0.021690 0.611710 0.249312
-0.018910 0.612292 0.249410
-0.016118 0.612568 0.249436
-0.013310 0.611911 0.249239
-0.010522 0.612523 0.249351
-0.007731 0.613288 0.249501
-0.004930 0.612935 0.249385
-0.002130 0.613311 0.249446
0.000677 0.614244 0.249644
0.003464 0.612764 0.249262
0.006263 0.612796 0.249247
0.009079 0.613605 0.249422
0.011912 0.614757 0.249682
0.014815 0.617786 0.250397
0.017494 0.613733 0.249406
0.020319 0.614203 0.249508
0.023131 0.614274 0.249516
0.025959 0.614620 0.249593
0.028817 0.615453 0.249789
0.031610 0.615017 0.249682
0.034421 0.614923 0.249660
0.037148 0.613580 0.249338
0.040027 0.614465 0.249557
0.042796 0.613808 0.249406
0.045551 0.613037 0.249230
0.048422 0.613653 0.249391
0.051342 0.614707 0.249660
0.054057 0.613529 0.249393
0.056964 0.614317 0.249603
0.059807 0.614405 0.249647
0.062498 0.613107 0.249359
0.065237 0.612291 0.249190
0.068113 0.612654 0.249308
0.070951 0.612663 0.249343
0.073584 0.611076 0.248996
0.076405 0.610959 0.249007
0.079566 0.613250 0.249602
0.082413 0.613194 0.249634
0.085365 0.613824 0.249834
0.088126 0.613144 0.249720
0.091258 0.614804 0.250176
0.093997 0.613949 0.250027
0.096727 0.613059 0.249872
0.099616 0.613109 0.249948
0.102527 0.613245 0.250048
0.105274 0.612448 0.249925
0.107834 0.610676 0.249570
0.110931 0.611736 0.249904
0.113939 0.612266 0.250114
0.116775 0.611891 0.250108
0.119734 0.612093 0.250246
0.122712 0.612342 0.250399
0.125603 0.612145 0.250448
0.128477 0.611854 0.250478
0.131252 0.611102 0.250399
0.134103 0.610679 0.250404
0.136833 0.609726 0.250284
0.140263 0.611662 0.250874
0.143026 0.610797 0.250783
0.145975 0.610663 0.250876
0.148640 0.609397 0.250696
0.152107 0.611196 0.251271
0.155013 0.610795 0.251311
0.158028 0.610772 0.251449
0.160851 0.610024 0.251413
0.164121 0.610841 0.251767
0.166948 0.610055 0.251730
0.169895 0.609671 0.251797
0.173104 0.610135 0.252078
0.176360 0.610700 0.252389
0.179445 0.610657 0.252554
0.182835 0.611545 0.252955
0.185884 0.611300 0.253080
0.188661 0.610186 0.252992
0.191648 0.609710 0.253067
0.194723 0.609469 0.253206
0.197744 0.609043 0.253301
0.200814 0.608733 0.253429
0.204362 0.609752 0.253894
0.207219 0.608773 0.253863
0.210638 0.609338 0.254221
0.213992 0.609674 0.254526
0.216538 0.607807 0.254279
0.219666 0.607498 0.254426
0.222352 0.606019 0.254279
0.226690 0.608779 0.255205
0.229568 0.607753 0.255176
0.232865 0.607772 0.255411
0.236084 0.607577 0.255593
0.239710 0.608351 0.256020
0.242431 0.606924 0.255886
0.245329 0.605939 0.255861
0.248456 0.605498 0.255972
0.251432 0.604713 0.255992
0.254614 0.604408 0.256130
0.258936 0.606659 0.256919
0.262300 0.606739 0.257145
0.265810 0.607139 0.257447
0.269312 0.607522 0.257737
0.272567 0.607382 0.257882
0.277029 0.609803 0.258680
0.278623 0.606222 0.257916
0.282376 0.607189 0.258315
0.289539 0.615094 0.260500
0.291758 0.612919 0.260061
0.294504 0.611876 0.259899
0.296509 0.609439 0.259360
0.298903 0.607854 0.259025
0.303688 0.610956 0.259891
0.307298 0.611807 0.260155
0.308086 0.607369 0.259025
0.310725 0.606533 0.258814
0.313885 0.606738 0.258855
0.316313 0.605657 0.258542
0.319057 0.605232 0.258381
0.322481 0.606104 0.258538
0.325339 0.606015 0.258426
0.328019 0.605681 0.258231
0.331324 0.606515 0.258321
0.333545 0.605517 0.257916
0.336753 0.606306 0.257956
0.341608 0.609969 0.258720
-0.324501 0.606682 0.259444
-0.321373 0.605674 0.259343
-0.320138 0.608249 0.260161
-0.317383 0.608087 0.260245
-0.314483 0.607721 0.260257
-0.311893 0.608016 0.260423
-0.309232 0.608255 0.260556
-0.306280 0.608002 0.260540
-0.303837 0.608821 0.260786
-0.301058 0.609059 0.260860
-0.298271 0.609356 0.260930
-0.295679 0.610122 0.261104
-0.293046 0.610889 0.261259
-0.290033 0.610948 0.261209
-0.286380 0.609732 0.260807
-0.284786 0.612900 0.261536
-0.281995 0.613636 0.261610
-0.278034 0.611912 0.261024
-0.274438 0.610993 0.260633
-0.270793 0.609986 0.260205
-0.267632 0.610079 0.260050
-0.264819 0.610998 0.260097
-0.261939 0.611820 0.260105
-0.258959 0.612453 0.260054
-0.256054 0.613303 0.260047
-0.251320 0.609825 0.258911
-0.249087 0.612316 0.259312
-0.245838 0.612392 0.259080
-0.242324 0.611816 0.258675
-0.239003 0.611711 0.258385
-0.235856 0.612044 0.258204
-0.232872 0.612800 0.258128
-0.229777 0.613274 0.257976
-0.226211 0.612492 0.257501
-0.223498 0.613979 0.257604
-0.219743 0.612626 0.256983
-0.216148 0.611653 0.256460
-0.213278 0.612680 0.256445
-0.210254 0.613268 0.256320
-0.206634 0.612102 0.255753
-0.203651 0.612760 0.255649
-0.200447 0.612739 0.255376
-0.196976 0.611861 0.254891
-0.193683 0.611475 0.254533
-0.190699 0.612019 0.254412
-0.187720 0.612559 0.254294
-0.184531 0.612389 0.254001
-0.181571 0.612941 0.253893
-0.178737 0.613897 0.253889
-0.175664 0.614021 0.253682
-0.172169 0.612623 0.253102
-0.168970 0.612195 0.252769
-0.166011 0.612586 0.252642
-0.162737 0.611776 0.252224
-0.159946 0.612726 0.252244
-0.156945 0.612865 0.252069
-0.153813 0.612444 0.251761
-0.151036 0.613401 0.251796
-0.147992 0.613257 0.251565
-0.145188 0.614072 0.251574
-0.141883 0.612731 0.251061
-0.139097 0.613573 0.251085
-0.136195 0.613887 0.250985
-0.133011 0.612882 0.250568
-0.129930 0.612277 0.250253
-0.127851 0.616428 0.251098
-0.124334 0.613649 0.250264
-0.121216 0.612709 0.249882
-0.118715 0.614885 0.250258
-0.115845 0.615173 0.250181
-0.112898 0.615014 0.250000
-0.109744 0.613657 0.249534
-0.106798 0.613377 0.249332
-0.103999 0.613925 0.249333
-0.101103 0.613878 0.249195
-0.098298 0.614364 0.249189
-0.095337 0.613832 0.248942
-0.092442 0.613674 0.248788
-0.089552 0.613508 0.248636
-0.086732 0.613802 0.248597
-0.083938 0.614272 0.248605
-0.081309 0.616016 0.248920
-0.078514 0.616535 0.248945
-0.075085 0.611790 0.247714
-0.072379 0.612882 0.247883
-0.069863 0.615759 0.248480
-0.067052 0.616070 0.248468
-0.063902 0.613036 0.247660
-0.061101 0.613289 0.247640
-0.058373 0.614329 0.247810
-0.055571 0.614608 0.247801
-0.052733 0.614444 0.247689
-0.049906 0.614390 0.247607
-0.047092 0.614453 0.247555
-0.044231 0.613822 0.247340
-0.041424 0.613928 0.247304
-0.038641 0.614418 0.247361
-0.035849 0.614788 0.247392
-0.033007 0.614209 0.247200
-0.030175 0.613685 0.247023
-0.027385 0.614062 0.247063
-0.024538 0.612901 0.246741
-0.021728 0.612543 0.246611
-0.018935 0.612720 0.246610
-0.016134 0.612558 0.246532
-0.013335 0.612358 0.246446
-0.010545 0.612720 0.246496
-0.007745 0.612143 0.246326
-0.004951 0.611896 0.246236
-0.002156 0.613027 0.246475
0.000640 0.612927 0.246424
0.003435 0.612743 0.246356
0.006237 0.613077 0.246412
0.009084 0.615344 0.246927
0.011855 0.613891 0.246566
0.014641 0.613330 0.246417
0.017449 0.613531 0.246450
0.020262 0.613769 0.246495
0.023105 0.614603 0.246682
0.025844 0.613192 0.246342
0.028618 0.612625 0.246203
0.031537 0.614588 0.246663
0.034354 0.614633 0.246673
0.037102 0.613657 0.246444
0.039886 0.613258 0.246354
0.042685 0.613091 0.246321
0.045480 0.612869 0.246277
0.048257 0.612438 0.246186
0.051088 0.612612 0.246241
0.053911 0.612663 0.246269
0.056853 0.613862 0.246570
0.059731 0.614319 0.246699
0.062483 0.613590 0.246550
0.065227 0.612817 0.246394
0.068121 0.613326 0.246543
0.070969 0.613405 0.246592
0.073602 0.611809 0.246249
0.076480 0.612106 0.246356
0.079540 0.613657 0.246763
0.082380 0.613560 0.246782
0.085111 0.612711 0.246626
0.088055 0.613270 0.246807
0.090713 0.611973 0.246551
0.094048 0.614850 0.247288
0.096715 0.613577 0.247044
0.099621 0.613719 0.247139
0.102519 0.613787 0.247219
0.105177 0.612505 0.246982
0.107870 0.611449 0.246802
0.111074 0.613063 0.247260
0.113899 0.612651 0.247240
0.116779 0.612498 0.247285
0.119598 0.612030 0.247259
0.122607 0.612445 0.247447
0.125522 0.612372 0.247523
0.128511 0.612604 0.247675
0.131220 0.611566 0.247528
0.134208 0.611735 0.247673
0.137325 0.612405 0.247942
0.139851 0.610578 0.247618
0.143038 0.611462 0.247946
0.145775 0.610492 0.247835
0.148496 0.609463 0.247713
0.151287 0.608701 0.247660
0.154598 0.609876 0.248076
0.157899 0.610932 0.248469
0.160829 0.610581 0.248528
0.163469 0.609177 0.248337
0.166644 0.609645 0.248602
0.169647 0.609471 0.248717
0.173041 0.610571 0.249145
0.176342 0.611294 0.249486
0.179420 0.611228 0.249642
0.182740 0.611898 0.249980
0.185739 0.611504 0.250065
0.188707 0.610990 0.250124
0.191825 0.610904 0.250293
0.194878 0.610591 0.250410
0.197789 0.609836 0.250423
0.200851 0.609501 0.250543
0.204279 0.610178 0.250914
0.207650 0.610640 0.251237
0.210153 0.608659 0.250963
0.213423 0.608785 0.251210
0.217047 0.609821 0.251685
0.219215 0.606953 0.251198
0.223014 0.608379 0.251774
0.226278 0.608360 0.251996
0.229662 0.608619 0.252287
0.232972 0.608658 0.252526
0.236318 0.608761 0.252780
0.239402 0.608202 0.252870
0.242310 0.607220 0.252853
0.244889 0.605470 0.252642
0.248081 0.605177 0.252792
0.251436 0.605258 0.253033
0.254544 0.604765 0.253127
0.258074 0.605229 0.253456
0.262396 0.607429 0.254217
0.265507 0.606934 0.254293
0.268870 0.607000 0.254504
0.271919 0.606405 0.254539
0.274810 0.605507 0.254488
0.278663 0.606652 0.254944
0.281633 0.605977 0.254928
0.285115 0.606386 0.255174
0.287422 0.604452 0.254812
0.293445 0.609989 0.256336
0.294846 0.606350 0.255511
0.298517 0.607251 0.255825
0.301799 0.607430 0.255940
0.306098 0.609595 0.256544
0.308297 0.607806 0.256122
0.311097 0.607231 0.255992
0.314228 0.607337 0.256017
0.317220 0.607248 0.255973
0.319562 0.606043 0.255626
0.322946 0.606798 0.255759
0.325942 0.606915 0.255711
0.328714 0.606700 0.255559
0.331988 0.607435 0.255631
0.334616 0.607103 0.255412
0.337296 0.606935 0.255216
0.342130 0.610523 0.255954
-0.323701 0.604720 0.256112
-0.322395 0.607092 0.256871
-0.320571 0.608616 0.257395
-0.317091 0.607129 0.257128
-0.314763 0.607875 0.257416
-0.312349 0.608542 0.257665
-0.308574 0.606674 0.257242
-0.306369 0.607899 0.257597
-0.304065 0.609026 0.257906
-0.301947 0.610617 0.258316
-0.298676 0.609998 0.258138
-0.295706 0.610043 0.258112
-0.292675 0.610032 0.258052
-0.289662 0.610120 0.258000
-0.286730 0.610442 0.257989
-0.283769 0.610765 0.257962
-0.282136 0.613990 0.258662
-0.277929 0.611770 0.257949
-0.274391 0.611009 0.257595
-0.271507 0.611720 0.257604
-0.268246 0.611643 0.257398
-0.264988 0.611600 0.257188
-0.262063 0.612351 0.257168
-0.259388 0.613728 0.257297
-0.254476 0.609885 0.256090
-0.251852 0.611422 0.256241
-0.248575 0.611430 0.255997
-0.245610 0.612207 0.255940
-0.242411 0.612426 0.255736
-0.238741 0.611463 0.255230
-0.235630 0.611895 0.255071
-0.232857 0.613205 0.255130
-0.229072 0.611878 0.254525
-0.225978 0.612338 0.254366
-0.222588 0.611991 0.254005
-0.219293 0.611873 0.253701
-0.216411 0.612883 0.253679
-0.213342 0.613364 0.253525
-0.209845 0.612597 0.253063
-0.206628 0.612595 0.252794
-0.203505 0.612839 0.252587
-0.200258 0.612681 0.252284
-0.196764 0.611726 0.251788
-0.193632 0.611831 0.251557
-0.190746 0.612681 0.251512
-0.187760 0.613201 0.251389
-0.184274 0.612055 0.250863
-0.181326 0.612631 0.250762
-0.178705 0.614295 0.250930
-0.175282 0.613201 0.250431
-0.171811 0.611857 0.249876
-0.168889 0.612394 0.249783
-0.165984 0.612974 0.249705
-0.162897 0.612854 0.249462
-0.159962 0.613266 0.249352
-0.156828 0.612880 0.249054
-0.153934 0.613388 0.248975
-0.150994 0.613691 0.248853
-0.148066 0.614012 0.248738
-0.144728 0.612580 0.248209
-0.142175 0.614422 0.248468
-0.138766 0.612545 0.247842
-0.135929 0.613110 0.247805
-0.132959 0.613056 0.247624
-0.129971 0.612875 0.247417
-0.126927 0.612372 0.247138
-0.124072 0.612739 0.247070
-0.121420 0.614122 0.247247
-0.118612 0.614718 0.247242
-0.115576 0.614102 0.246953
-0.112570 0.613575 0.246689
-0.109578 0.613064 0.246433
-0.106692 0.613102 0.246311
-0.103856 0.613403 0.246255
-0.101094 0.614137 0.246304
-0.098163 0.613821 0.246110
-0.095322 0.614033 0.246043
-0.092468 0.614137 0.245955
-0.089610 0.614186 0.245856
-0.086705 0.613876 0.245677
-0.083904 0.614275 0.245668
-0.081223 0.615596 0.245878
-0.078456 0.616300 0.245946
-0.075448 0.615032 0.245555
-0.072440 0.613617 0.245134
-0.069916 0.616430 0.245704
-0.067075 0.616468 0.245628
-0.063912 0.613299 0.244806
-0.061079 0.613204 0.244705
-0.058383 0.614575 0.244948
-0.055554 0.614522 0.244863
-0.052739 0.614623 0.244815
-0.049914 0.614555 0.244731
-0.047019 0.613501 0.244420
-0.044201 0.613413 0.244336
-0.041431 0.614032 0.244420
-0.038661 0.614711 0.244520
-0.035791 0.613638 0.244214
-0.032989 0.613703 0.244176
-0.030191 0.613862 0.244162
-0.027395 0.614066 0.244161
-0.024613 0.614710 0.244263
-0.021785 0.613998 0.244054
-0.018956 0.612961 0.243771
-0.016146 0.612285 0.243575
-0.013345 0.611831 0.243432
-0.010550 0.611373 0.243290
-0.007772 0.612922 0.243616
-0.004972 0.610277 0.242972
-0.002183 0.612589 0.243478
0.000618 0.613536 0.243671
0.003410 0.613040 0.243531
0.006179 0.611430 0.243136
0.009031 0.614393 0.243801
0.011824 0.614004 0.243692
0.014596 0.613043 0.243453
0.017377 0.612538 0.243322
0.020106 0.610876 0.242925
0.022916 0.611313 0.243016
0.025745 0.612043 0.243177
0.028510 0.611458 0.243036
0.031410 0.613216 0.243439
0.034288 0.614350 0.243700
0.037092 0.614223 0.243671
0.039816 0.613013 0.243394
0.042583 0.612464 0.243272
0.045385 0.612377 0.243259
0.048018 0.610359 0.242802
0.050723 0.609290 0.242567
0.053781 0.611951 0.243197
0.056737 0.613334 0.243533
0.059555 0.613275 0.243539
0.062302 0.612560 0.243395
0.065201 0.613191 0.243565
0.068065 0.613453 0.243653
0.070927 0.613659 0.243730
0.073721 0.613300 0.243678
0.076490 0.612759 0.243588
0.079442 0.613529 0.243804
0.082254 0.613263 0.243782
0.085047 0.612857 0.243731
0.087794 0.612153 0.243614
0.090601 0.611837 0.243589
0.093704 0.613321 0.243985
0.096636 0.613678 0.244123
0.099398 0.613009 0.244026
0.101058 0.606168 0.242497
0.104555 0.609683 0.243378
0.107718 0.611214 0.243802
0.110668 0.611531 0.243947
0.113864 0.613051 0.244375
0.116662 0.612498 0.244325
0.119431 0.611807 0.244245
0.121696 0.608743 0.243616
0.125127 0.611143 0.244265
0.128065 0.611187 0.244368
0.130463 0.608825 0.243913
0.133652 0.609935 0.244272
0.136538 0.609688 0.244319
0.139663 0.610401 0.244594
0.142779 0.611015 0.244851
0.145619 0.610475 0.244841
0.148228 0.609024 0.244622
0.151357 0.609577 0.244877
0.154620 0.610571 0.245240
0.157806 0.611210 0.245525
0.160317 0.609358 0.245227
0.163490 0.609873 0.245492
0.166285 0.609023 0.245439
0.169374 0.609169 0.245625
0.172904 0.610746 0.246155
0.176136 0.611253 0.246437
0.178875 0.610105 0.246331
0.182099 0.610501 0.246595
0.185380 0.611025 0.246895
0.188428 0.610776 0.247016
0.191700 0.611176 0.247296
0.194957 0.611476 0.247556
0.197950 0.610959 0.247626
0.201087 0.610831 0.247792
0.203637 0.609001 0.247555
0.206745 0.608754 0.247700
0.210083 0.609114 0.247995
0.213830 0.610536 0.248549
0.216484 0.608955 0.248383
0.219593 0.608589 0.248512
0.223136 0.609329 0.248912
0.226316 0.609086 0.249076
0.229524 0.608891 0.249253
0.232866 0.609007 0.249507
0.236123 0.608887 0.249705
0.239305 0.608564 0.249853
0.242262 0.607689 0.249866
0.245232 0.606847 0.249885
0.248227 0.606074 0.249919
0.251490 0.605921 0.250102
0.254637 0.605500 0.250216
0.258575 0.606855 0.250763
0.262525 0.608199 0.251304
0.265583 0.607561 0.251350
0.268499 0.606637 0.251318
0.271720 0.606394 0.251447
0.274972 0.606235 0.251587
0.278125 0.605892 0.251673
0.281672 0.606386 0.251955
0.285488 0.607444 0.252367
0.288999 0.607891 0.252614
0.290811 0.604983 0.252012
0.294523 0.605914 0.252352
0.297758 0.605938 0.252451
0.301791 0.607545 0.252929
0.305527 0.608600 0.253254
0.308088 0.607469 0.253015
0.310788 0.606675 0.252842
0.314459 0.607750 0.253119
0.318173 0.608945 0.253406
0.321276 0.609068 0.253408
0.323547 0.607759 0.253032
0.325726 0.606373 0.252619
0.327513 0.604387 0.252038
0.331949 0.607143 0.252620
0.334925 0.607385 0.252557
0.336740 0.605691 0.251993
0.338781 0.604479 0.251532
-0.325662 0.607833 0.254065
-0.322869 0.607517 0.254125
-0.319674 0.606525 0.253997
-0.317109 0.606775 0.254163
-0.315029 0.608020 0.254562
-0.312184 0.607902 0.254598
-0.308724 0.606672 0.254335
-0.305884 0.606699 0.254369
-0.303970 0.608618 0.254862
-0.301907 0.610353 0.255290
-0.299204 0.610907 0.255400
-0.295330 0.609170 0.254913
-0.292907 0.610430 0.255165
-0.289966 0.610711 0.255150
-0.287096 0.611204 0.255172
-0.284456 0.612250 0.255316
-0.280677 0.610937 0.254850
-0.277857 0.611717 0.254894
-0.274678 0.611774 0.254742
-0.271462 0.611791 0.254567
-0.268501 0.612414 0.254530
-0.265079 0.612037 0.254231
-0.262019 0.612510 0.254133
-0.257753 0.610209 0.253334
-0.254906 0.611211 0.253350
-0.251868 0.611795 0.253253
-0.249483 0.613984 0.253546
-0.245222 0.611633 0.252708
-0.242080 0.612000 0.252539
-0.239405 0.613550 0.252657
-0.235527 0.612058 0.252022
-0.231962 0.611324 0.251572
-0.229069 0.612322 0.251545
-0.225725 0.612128 0.251225
-0.222389 0.611928 0.250903
-0.219365 0.612554 0.250784
-0.216347 0.613191 0.250668
-0.213258 0.613621 0.250501
-0.209902 0.613261 0.250145
-0.206585 0.612969 0.249808
-0.203275 0.612658 0.249470
-0.200168 0.612914 0.249271
-0.196760 0.612216 0.248846
-0.193658 0.612416 0.248641
-0.190647 0.612870 0.248500
-0.187507 0.612886 0.248259
-0.184275 0.612558 0.247938
-0.181212 0.612742 0.247745
-0.178271 0.613311 0.247648
-0.175299 0.613748 0.247524
-0.171775 0.612213 0.246935
-0.168929 0.613014 0.246906
-0.165949 0.613318 0.246763
-0.162767 0.612834 0.246439
-0.159647 0.612526 0.246161
-0.156565 0.612312 0.245910
-0.153748 0.613096 0.245899
-0.150961 0.613995 0.245919
-0.147921 0.613844 0.245697
-0.145023 0.614247 0.245609
-0.141771 0.613105 0.245164
-0.138687 0.612608 0.244875
-0.135848 0.613148 0.244833
-0.133070 0.613959 0.244858
-0.130109 0.613910 0.244686
-0.127236 0.614240 0.244607
-0.124233 0.613905 0.244378
-0.121408 0.614421 0.244350
-0.118649 0.615267 0.244403
-0.115431 0.613673 0.243893
-0.112491 0.613481 0.243713
-0.109505 0.612982 0.243466
-0.106668 0.613279 0.243407
-0.103898 0.613957 0.243439
-0.101020 0.613985 0.243325
-0.098241 0.614597 0.243349
-0.095530 0.615660 0.243480
-0.092779 0.616496 0.243562
-0.089873 0.616268 0.243402
-0.086736 0.614343 0.242856
-0.083888 0.614394 0.242767
-0.081110 0.614950 0.242797
-0.078219 0.614624 0.242628
-0.075309 0.614076 0.242411
-0.072659 0.615702 0.242695
-0.069762 0.615211 0.242497
-0.066971 0.615643 0.242513
-0.064020 0.614513 0.242174
-0.061182 0.614407 0.242073
-0.058316 0.613955 0.241895
-0.055555 0.614633 0.241978
-0.052743 0.614738 0.241933
-0.049911 0.614571 0.241828
-0.047046 0.613901 0.241611
-0.044177 0.613056 0.241357
-0.041434 0.614045 0.241522
-0.038669 0.614793 0.241636
-0.035864 0.614893 0.241603
-0.032747 0.608636 0.240128
-0.029935 0.607904 0.239911
-0.027195 0.608761 0.240059
-0.024395 0.608111 0.239866
-0.021599 0.607400 0.239661
-0.018793 0.605973 0.239296
-0.016087 0.608615 0.239857
-0.013317 0.608874 0.239879
-0.010527 0.607635 0.239563
-0.007761 0.607916 0.239594
-0.004990 0.607777 0.239531
-0.002224 0.606689 0.239256
0.000521 0.604010 0.238622
0.003284 0.604974 0.238816
0.006056 0.605907 0.239005
0.008869 0.608337 0.239535
0.011674 0.609562 0.239794
0.014439 0.609093 0.239671
0.017235 0.609580 0.239766
0.020082 0.611228 0.240127
0.022654 0.606396 0.239022
0.025667 0.611312 0.240126
0.028236 0.607216 0.239192
0.031029 0.607540 0.239261
0.033600 0.604305 0.238526
0.036317 0.603631 0.238373
0.039344 0.607249 0.239194
0.042002 0.605680 0.238843
0.045259 0.611504 0.240168
0.047612 0.606344 0.239007
0.050182 0.604047 0.238498
0.052782 0.602261 0.238106
0.056508 0.611685 0.240256
0.058955 0.608234 0.239491
0.061610 0.606926 0.239215
0.064295 0.605959 0.239018
0.067977 0.613305 0.240707
0.070563 0.611327 0.240286
0.073656 0.613369 0.240779
0.076427 0.612853 0.240695
0.079250 0.612719 0.240699
0.082155 0.613139 0.240832
0.084882 0.612308 0.240685
0.086993 0.607507 0.239638
0.089865 0.607764 0.239742
0.092816 0.608456 0.239948
0.095087 0.605044 0.239224
0.097962 0.605280 0.239332
0.101379 0.608517 0.240127
0.103970 0.607043 0.239852
0.106154 0.603449 0.239098
0.109086 0.603886 0.239264
0.112025 0.604310 0.239432
0.115221 0.605948 0.239879
0.118327 0.607049 0.240208
0.121101 0.606503 0.240164
0.123921 0.606158 0.240170
0.126422 0.604369 0.239850
0.130024 0.607465 0.240650
0.132850 0.607054 0.240652
0.135980 0.607910 0.240948
0.138360 0.605599 0.240522
0.141123 0.604901 0.240470
0.143899 0.604246 0.240431
0.146675 0.603577 0.240393
0.151099 0.609184 0.241803
0.154362 0.610204 0.242162
0.157021 0.608929 0.241998
0.160545 0.610780 0.242559
0.162472 0.606880 0.241797
0.166078 0.608917 0.242410
0.168161 0.605640 0.241799
0.172494 0.609990 0.242958
0.175778 0.610692 0.243277
0.178793 0.610463 0.243385
0.181524 0.609297 0.243280
0.184555 0.609071 0.243397
0.187757 0.609339 0.243634
0.191001 0.609689 0.243895
0.194590 0.611018 0.244389
0.197984 0.611696 0.244736
0.200604 0.610073 0.244548
0.203312 0.608714 0.244426
0.206581 0.608931 0.244677
0.209485 0.608096 0.244683
0.212528 0.607630 0.244781
0.216156 0.608708 0.245245
0.219268 0.608359 0.245376
0.222482 0.608251 0.245567
0.226149 0.609278 0.246030
0.229229 0.608761 0.246128
0.232331 0.608282 0.246237
0.235249 0.607335 0.246235
0.238417 0.606998 0.246378
0.242343 0.608461 0.246952
0.245370 0.607741 0.247004
0.248455 0.607160 0.247087
0.251311 0.606049 0.247040
0.254794 0.606380 0.247337
0.258151 0.606410 0.247558
0.262309 0.608209 0.248202
0.265464 0.607768 0.248301
0.268471 0.607023 0.248319
0.271543 0.606438 0.248369
0.274806 0.606281 0.248514
0.278187 0.606388 0.248714
0.281664 0.606711 0.248957
0.286600 0.610019 0.249916
0.287668 0.605492 0.248955
0.291396 0.606394 0.249304
0.294554 0.606191 0.249369
0.297800 0.606201 0.249472
0.301629 0.607380 0.249845
0.305030 0.607766 0.250008
0.307984 0.607350 0.249959
0.310353 0.605901 0.249639
0.313449 0.605885 0.249653
0.318304 0.609153 0.250451
0.321732 0.609831 0.250598
0.322931 0.606548 0.249757
0.324923 0.604805 0.249274
0.327988 0.605057 0.249260
0.330725 0.604795 0.249102
0.334728 0.606806 0.249480
0.337135 0.606104 0.249178
0.339197 0.604892 0.248734
-0.326692 0.609257 0.251561
-0.322932 0.607206 0.251184
-0.319924 0.606593 0.251143
-0.317020 0.606239 0.251148
-0.315039 0.607702 0.251584
-0.312369 0.607952 0.251700
-0.309021 0.606975 0.251495
-0.306173 0.607026 0.251524
-0.303920 0.608319 0.251842
-0.301726 0.609828 0.252195
-0.298757 0.609882 0.252168
-0.296120 0.610676 0.252307
-0.292804 0.610163 0.252103
-0.290157 0.611084 0.252237
-0.287499 0.612061 0.252366
-0.284464 0.612317 0.252301
-0.280703 0.611077 0.251852
-0.277596 0.611271 0.251741
-0.274784 0.612157 0.251787
-0.270964 0.610868 0.251284
-0.268022 0.611552 0.251253
-0.265050 0.612214 0.251206
-0.261075 0.610609 0.250594
-0.258102 0.611314 0.250537
-0.254885 0.611479 0.250340
-0.252122 0.612743 0.250403
-0.249017 0.613217 0.250267
-0.246189 0.614388 0.250293
-0.241924 0.612007 0.249456
-0.238707 0.612201 0.249238
-0.235224 0.611708 0.248852
-0.232113 0.612155 0.248691
-0.228944 0.612444 0.248490
-0.225900 0.613056 0.248366
-0.222748 0.613369 0.248169
-0.219372 0.613051 0.247823
-0.215815 0.612185 0.247348
-0.212750 0.612663 0.247194
-0.208544 0.609830 0.246257
-0.205723 0.610934 0.246257
-0.202743 0.611566 0.246147
-0.199437 0.611195 0.245804
-0.196983 0.613395 0.246070
-0.193709 0.613065 0.245743
-0.190401 0.612579 0.245383
-0.187091 0.612026 0.245012
-0.184152 0.612636 0.244918
-0.181144 0.612997 0.244770
-0.178173 0.613453 0.244648
-0.175086 0.613482 0.244431
-0.171622 0.612137 0.243898
-0.168842 0.613163 0.243922
-0.166041 0.614109 0.243931
-0.162575 0.612564 0.243368
-0.159449 0.612214 0.243087
-0.156611 0.612925 0.243055
-0.153703 0.613351 0.242961
-0.150825 0.613867 0.242893
-0.147918 0.614251 0.242799
-0.144808 0.613749 0.242506
-0.141875 0.613951 0.242379
-0.138786 0.613433 0.242091
-0.135786 0.613256 0.241885
-0.132643 0.612369 0.241523
-0.130223 0.614816 0.241925
-0.127414 0.615460 0.241919
-0.124509 0.615621 0.241808
-0.121291 0.614169 0.241333
-0.118548 0.615078 0.241399
-0.115552 0.614642 0.241164
-0.112512 0.613912 0.240866
