ply
format ascii 1.0
comment ---
element vertex 1698
property float x
property float y
property float z
element face 0
property list uchar uint vertex_indices
end_header
-0.074236 0.604647 -0.279746
-0.070640 0.605329 -0.280331
-0.066631 0.604056 -0.280173
-0.062988 0.604557 -0.280688
-0.059026 0.603445 -0.280589
-0.055493 0.604529 -0.281326
-0.051806 0.604823 -0.281761
-0.048232 0.605740 -0.282435
-0.044477 0.605642 -0.282722
-0.040559 0.604534 -0.282622
-0.036749 0.603969 -0.282729
-0.033088 0.604263 -0.283167
-0.030104 0.608952 -0.285296
-0.026651 0.610733 -0.286311
-0.022571 0.608187 -0.285659
-0.018220 0.603412 -0.284145
-0.014755 0.604888 -0.285045
-0.011290 0.606412 -0.285966
-0.007690 0.606889 -0.286483
-0.003805 0.604887 -0.286041
-0.000096 0.604198 -0.286108
0.003624 0.603252 -0.286076
0.007247 0.603095 -0.286351
0.009975 0.612089 -0.290196
0.013706 0.611038 -0.290130
0.017492 0.609146 -0.289736
0.020823 0.612508 -0.291398
0.024496 0.611755 -0.291452
0.028462 0.606689 -0.289815
0.032316 0.602456 -0.288502
0.035906 0.601743 -0.288572
0.039436 0.601875 -0.288975
0.042960 0.602041 -0.289393
0.046492 0.601984 -0.289725
0.049992 0.602574 -0.290315
0.053463 0.604045 -0.291255
0.056736 0.612131 -0.294821
0.060229 0.614820 -0.296255
0.063875 0.611571 -0.295334
0.067507 0.607168 -0.293953
0.071067 0.604937 -0.293434
0.074591 0.604656 -0.293693
0.078109 0.604968 -0.294190
0.081628 0.604353 -0.294318
0.085133 0.602819 -0.294080
0.088654 0.603688 -0.294806
0.092184 0.604595 -0.295549
0.095746 0.606440 -0.296672
0.099386 0.610381 -0.298643
0.102933 0.610260 -0.298983
0.106469 0.609816 -0.299194
0.109907 0.607147 -0.298507
0.113372 0.605536 -0.298247
0.116870 0.604813 -0.298347
0.120381 0.604375 -0.298564
0.123916 0.604336 -0.298944
0.127492 0.604869 -0.299559
0.131032 0.604768 -0.299918
0.134501 0.603713 -0.299889
0.137980 0.602847 -0.299938
0.141503 0.602528 -0.300212
0.145000 0.601922 -0.300369
0.148512 0.601463 -0.300588
0.152101 0.601755 -0.301117
0.155668 0.601761 -0.301530
0.159112 0.600617 -0.301471
0.164262 0.614029 -0.307420
0.167595 0.611468 -0.306785
0.170943 0.609174 -0.306259
0.174997 0.612323 -0.307988
0.178749 0.613000 -0.308696
0.182399 0.612867 -0.309071
0.185609 0.609720 -0.308192
0.188756 0.606321 -0.307206
0.191775 0.602283 -0.305951
0.195627 0.603550 -0.306911
0.199345 0.603896 -0.307488
0.203000 0.603807 -0.307885
0.206470 0.602648 -0.307835
0.211350 0.609162 -0.311011
0.215378 0.610778 -0.312135
0.219328 0.611857 -0.313035
0.222725 0.610067 -0.312727
0.225099 0.603336 -0.310328
0.229403 0.606072 -0.311933
0.233268 0.606594 -0.312604
0.236406 0.603761 -0.311852
0.239659 0.601523 -0.311351
0.243597 0.602304 -0.312135
0.247454 0.602670 -0.312745
0.251294 0.602907 -0.313303
0.255239 0.603515 -0.314020
0.259048 0.603523 -0.314484
0.262411 0.601759 -0.314188
0.266376 0.602314 -0.314889
0.270463 0.603261 -0.315761
0.274056 0.602332 -0.315827
0.277544 0.601023 -0.315730
0.282670 0.605470 -0.318123
0.287787 0.609679 -0.320421
0.291427 0.608709 -0.320478
0.294775 0.606769 -0.320115
0.298686 0.606693 -0.320562
0.303124 0.608269 -0.321731
0.306836 0.607470 -0.321868
0.309523 0.603497 -0.320617
0.312876 0.601645 -0.320291
0.316668 0.601130 -0.320552
0.320499 0.600706 -0.320854
0.324431 0.600555 -0.321278
0.328928 0.601979 -0.322399
0.332794 0.601557 -0.322708
0.336630 0.601030 -0.322972
0.341526 0.603357 -0.324502
0.344780 0.601193 -0.324046
0.348098 0.599230 -0.323678
0.352173 0.599249 -0.324192
0.355942 0.598453 -0.324344
0.364175 0.608866 -0.329504
0.367660 0.607179 -0.329269
0.369058 0.600408 -0.326757
0.373803 0.601849 -0.327923
0.377306 0.600268 -0.327736
0.379340 0.595254 -0.326003
0.382625 0.593231 -0.325614
0.389108 0.598512 -0.328525
0.394094 0.600251 -0.329844
0.398905 0.601518 -0.330956
0.403745 0.602780 -0.332070
0.406876 0.600278 -0.331477
0.407327 0.592092 -0.328295
0.412131 0.593240 -0.329363
0.417272 0.595022 -0.330726
0.423270 0.598478 -0.332861
0.428724 0.600709 -0.334445
0.430993 0.596472 -0.333064
0.434633 0.595008 -0.332956
0.441298 0.599447 -0.335572
0.444606 0.597265 -0.335141
0.450607 0.600226 -0.337091
0.458926 0.607438 -0.341021
0.466084 0.612278 -0.343866
0.466597 0.604746 -0.340967
0.469618 0.601903 -0.340246
0.473479 0.600591 -0.340241
0.477693 0.599892 -0.340526
0.481329 0.598150 -0.340325
0.484896 0.596285 -0.340069
0.486730 0.591444 -0.338415
0.491353 0.591394 -0.339016
0.497355 0.593611 -0.340694
0.502675 0.594602 -0.341802
0.508098 0.595690 -0.342963
0.513245 0.596259 -0.343887
0.517106 0.594702 -0.343807
0.520947 0.593100 -0.343708
0.525898 0.593220 -0.344437
0.530932 0.593415 -0.345208
0.536156 0.593846 -0.346100
0.542058 0.595241 -0.347465
0.547179 0.595380 -0.348234
0.551640 0.594481 -0.348511
0.555903 0.593253 -0.348634
0.560389 0.592319 -0.348905
0.567690 0.595397 -0.351133
0.571313 0.593116 -0.350766
0.577172 0.593971 -0.351934
0.581110 0.592072 -0.351765
0.584629 0.589574 -0.351308
0.589220 0.588529 -0.351568
0.596805 0.591486 -0.353806
0.601500 0.590456 -0.354093
0.609562 0.593837 -0.356569
0.613969 0.592301 -0.356625
0.618747 0.591210 -0.356908
0.625217 0.592245 -0.358259
0.630582 0.591791 -0.358879
0.637560 0.593305 -0.360493
0.642444 0.592119 -0.360767
0.649096 0.593064 -0.362120
0.655717 0.593886 -0.363423
0.662236 0.594501 -0.364635
0.667893 0.594011 -0.365298
0.674793 0.594931 -0.366687
0.681316 0.595327 -0.367820
0.686685 0.594320 -0.368248
0.693905 0.595387 -0.369744
0.700077 0.595186 -0.370601
0.707018 0.595791 -0.371881
0.713273 0.595569 -0.372742
0.719254 0.594997 -0.373429
0.726613 0.595884 -0.374878
0.733107 0.595778 -0.375816
0.741509 0.597661 -0.377798
0.746415 0.595785 -0.377819
0.753533 0.596222 -0.379051
0.760382 0.596344 -0.380118
0.766613 0.595810 -0.380838
0.772709 0.595133 -0.381479
0.779082 0.594737 -0.382262
0.786520 0.595405 -0.383603
0.793230 0.595345 -0.384550
0.799777 0.595139 -0.385409
0.805886 0.594530 -0.386040
0.812445 0.594388 -0.386907
0.819183 0.594448 -0.387867
0.825576 0.594220 -0.388655
0.829992 0.592198 -0.388453
-0.129857 0.598028 -0.275424
-0.126436 0.597406 -0.275561
-0.123799 0.599669 -0.276783
-0.120564 0.600070 -0.277299
-0.117206 0.600214 -0.277713
-0.113751 0.600166 -0.278052
-0.110359 0.600505 -0.278534
-0.106783 0.600303 -0.278806
-0.103626 0.601847 -0.279740
-0.100453 0.603511 -0.280717
-0.096431 0.601936 -0.280457
-0.092926 0.602521 -0.281017
-0.089376 0.603034 -0.281548
-0.085761 0.603366 -0.282008
-0.082095 0.603553 -0.282411
-0.078465 0.603963 -0.282897
-0.074873 0.604617 -0.283476
-0.071154 0.604731 -0.283846
-0.067319 0.604313 -0.284010
-0.063510 0.604015 -0.284219
-0.060109 0.605785 -0.285227
-0.055902 0.603416 -0.284634
-0.052406 0.604741 -0.285470
-0.048839 0.605719 -0.286172
-0.044990 0.605119 -0.286263
-0.041117 0.604306 -0.286271
-0.037352 0.604049 -0.286494
-0.033761 0.604831 -0.287123
-0.030533 0.607969 -0.288672
-0.027156 0.610266 -0.289896
-0.023274 0.609148 -0.289789
-0.019384 0.607816 -0.289598
-0.015412 0.605706 -0.289102
-0.011905 0.606983 -0.289934
-0.008293 0.607436 -0.290445
-0.004377 0.605267 -0.289927
-0.000523 0.603376 -0.289517
0.002984 0.604456 -0.290279
0.006721 0.603306 -0.290163
0.009896 0.607736 -0.292252
0.012774 0.615785 -0.295780
0.016474 0.615248 -0.295915
0.020080 0.615704 -0.296446
0.023883 0.613559 -0.295946
0.027965 0.607166 -0.293757
0.031669 0.605355 -0.293388
0.035303 0.604281 -0.293312
0.038975 0.602257 -0.292858
0.042563 0.601384 -0.292864
0.046076 0.601804 -0.293388
0.049618 0.601532 -0.293637
0.053121 0.602129 -0.294237
0.056388 0.610196 -0.297838
0.059892 0.612339 -0.299068
0.063493 0.610969 -0.298888
0.067117 0.607335 -0.297795
0.070719 0.602430 -0.296188
0.074231 0.602942 -0.296767
0.077746 0.604055 -0.297591
0.081267 0.603831 -0.297877
0.084777 0.602316 -0.297641
0.088300 0.603115 -0.298345
0.091821 0.603238 -0.298777
0.095405 0.606138 -0.300342
0.098950 0.606511 -0.300882
0.102569 0.609003 -0.302290
0.106055 0.607230 -0.301958
0.109631 0.607946 -0.302645
0.113047 0.605066 -0.301860
0.116573 0.604805 -0.302149
0.120061 0.603856 -0.302157
0.123601 0.603839 -0.302550
0.127168 0.604189 -0.303096
0.130706 0.604019 -0.303429
0.134154 0.602659 -0.303272
0.137613 0.601542 -0.303216
0.141075 0.600529 -0.303204
0.144965 0.604220 -0.305146
0.148393 0.602724 -0.304936
0.151828 0.601387 -0.304794
0.155420 0.601586 -0.305292
0.158941 0.601082 -0.305498
0.163930 0.613082 -0.310934
0.167672 0.613855 -0.311686
0.171341 0.613935 -0.312149
0.175228 0.615599 -0.313279
0.178861 0.615249 -0.313566
0.181872 0.610516 -0.312009
0.185145 0.607829 -0.311311
0.188155 0.603558 -0.309942
0.191926 0.604328 -0.310702
0.195411 0.603243 -0.310679
0.199219 0.604101 -0.311480
0.202724 0.603109 -0.311499
0.206459 0.603421 -0.312073
0.210629 0.606028 -0.313626
0.214921 0.609093 -0.315381
0.218807 0.609862 -0.316159
0.222556 0.609852 -0.316607
0.226154 0.609070 -0.316726
0.229694 0.608003 -0.316723
0.233083 0.606239 -0.316422
0.236212 0.603342 -0.315632
0.239511 0.601292 -0.315205
0.243196 0.600960 -0.315519
0.247542 0.603398 -0.317032
0.251109 0.602465 -0.317091
0.254939 0.602597 -0.317611
0.258717 0.602474 -0.318023
0.262383 0.601884 -0.318234
0.266525 0.603085 -0.319226
0.270555 0.603784 -0.320002
0.273997 0.602269 -0.319813
0.277718 0.601772 -0.320070
0.282683 0.605618 -0.322232
0.287973 0.610402 -0.324813
0.291736 0.609810 -0.325038
0.294234 0.605010 -0.323412
0.298612 0.606469 -0.324541
0.302995 0.607850 -0.325640
0.307307 0.608924 -0.326607
0.309880 0.604556 -0.325166
0.312917 0.601704 -0.324394
0.316637 0.600953 -0.324554
0.320385 0.600272 -0.324746
0.325003 0.602090 -0.326054
0.329395 0.603169 -0.327037
0.331790 0.598597 -0.325495
0.335805 0.598590 -0.325995
0.340489 0.600360 -0.327295
0.344694 0.600764 -0.327985
0.348111 0.599047 -0.327724
0.354510 0.605069 -0.330952
0.357202 0.601420 -0.329824
0.361252 0.601255 -0.330269
0.366434 0.603865 -0.331974
0.372643 0.608870 -0.334773
0.375463 0.605540 -0.333792
0.379483 0.605117 -0.334134
0.380780 0.598295 -0.331558
0.384717 0.597717 -0.331829
0.390550 0.601436 -0.334068
0.396220 0.604655 -0.336087
0.399241 0.601877 -0.335360
0.404850 0.604798 -0.337254
0.408276 0.602891 -0.336931
0.411392 0.600337 -0.336310
0.412900 0.594427 -0.334138
0.418460 0.597044 -0.335908
0.425316 0.602216 -0.338872
0.429445 0.601696 -0.339203
0.431029 0.596062 -0.337156
0.435832 0.596885 -0.338116
0.441053 0.598462 -0.339433
0.445591 0.598646 -0.340106
0.449475 0.597538 -0.340177
0.455715 0.600849 -0.342327
0.460955 0.602181 -0.343556
0.464435 0.600204 -0.343232
0.467974 0.598340 -0.342963
0.472130 0.597580 -0.343219
0.477178 0.598378 -0.344217
0.481149 0.597225 -0.344295
0.484688 0.595303 -0.344011
0.488061 0.593096 -0.343593
0.491455 0.590928 -0.343197
0.496924 0.592238 -0.344466
0.503694 0.595625 -0.346740
0.508317 0.595371 -0.347277
0.514232 0.597168 -0.348808
0.517945 0.595347 -0.348604
0.521906 0.593909 -0.348588
0.526936 0.594125 -0.349378
0.531975 0.594299 -0.350156
0.537095 0.594541 -0.350974
0.542280 0.594821 -0.351818
0.547009 0.594357 -0.352309
0.551912 0.594106 -0.352910
0.556262 0.592990 -0.353095
0.560824 0.592150 -0.353422
0.567518 0.594335 -0.355245
0.572779 0.594375 -0.356023
0.578048 0.594367 -0.356787
0.582447 0.593087 -0.356929
0.586463 0.591245 -0.356799
0.593626 0.593668 -0.358799
0.598714 0.593180 -0.359360
0.604640 0.593756 -0.360463
0.609807 0.593255 -0.361037
0.614726 0.592374 -0.361429
0.620494 0.592544 -0.362359
0.625351 0.591479 -0.362676
0.630688 0.590977 -0.363287
0.637272 0.591982 -0.364672
0.645956 0.595504 -0.367351
0.649567 0.592660 -0.366801
0.656331 0.593638 -0.368210
0.663667 0.595216 -0.369940
0.669315 0.594688 -0.370602
0.675632 0.594893 -0.371650
0.681821 0.594881 -0.372597
0.687544 0.594267 -0.373241
0.694592 0.595117 -0.374654
0.702731 0.597124 -0.376681
0.708831 0.596749 -0.377477
0.713746 0.595017 -0.377569
0.720688 0.595487 -0.378819
0.727730 0.596008 -0.380103
0.734634 0.596324 -0.381286
0.740302 0.595279 -0.381753
0.747315 0.595633 -0.382962
0.754163 0.595776 -0.384060
0.760238 0.595092 -0.384718
0.766555 0.594648 -0.385500
0.773649 0.594983 -0.386696
0.780308 0.594867 -0.387645
0.787674 0.595452 -0.388965
0.793600 0.594617 -0.389509
0.799440 0.593724 -0.390010
0.807429 0.594938 -0.391641
0.815279 0.596023 -0.393191
0.820409 0.594543 -0.393327
0.825181 0.592793 -0.393292
0.831388 0.592452 -0.394007
-0.129822 0.595820 -0.278267
-0.127443 0.598700 -0.279743
-0.124099 0.598509 -0.280042
-0.121367 0.600644 -0.281229
-0.117965 0.600625 -0.281586
-0.114555 0.600735 -0.281988
-0.110758 0.599568 -0.281895
-0.107590 0.600884 -0.282753
-0.104104 0.601158 -0.283207
-0.100727 0.601997 -0.283876
-0.096973 0.601469 -0.284013
-0.093254 0.601164 -0.284233
-0.089867 0.602333 -0.285022
-0.086298 0.602847 -0.285554
-0.082668 0.603191 -0.286019
-0.079159 0.604145 -0.286719
-0.075561 0.604787 -0.287297
-0.071845 0.604934 -0.287681
-0.067964 0.604322 -0.287767
-0.064251 0.604520 -0.288168
-0.060756 0.605847 -0.289011
-0.057125 0.606528 -0.289602
-0.053446 0.606976 -0.290101
-0.049591 0.606461 -0.290222
-0.045452 0.604269 -0.289683
-0.041678 0.604050 -0.289920
-0.037787 0.603063 -0.289854
-0.034163 0.603641 -0.290405
-0.031346 0.609425 -0.293016
-0.027334 0.607561 -0.292606
-0.024147 0.611222 -0.294384
-0.020319 0.610478 -0.294421
-0.014847 0.597318 -0.289526
-0.012417 0.606686 -0.293578
-0.008969 0.608515 -0.294639
-0.005427 0.609625 -0.295417
-0.001165 0.604406 -0.293672
0.002418 0.604889 -0.294201
0.006053 0.604842 -0.294521
0.009643 0.605157 -0.294987
0.012430 0.614055 -0.298897
0.015601 0.619533 -0.301444
0.019692 0.614476 -0.299764
0.023692 0.609844 -0.298253
0.027550 0.606426 -0.297228
0.031214 0.605277 -0.297117
0.034723 0.606311 -0.297888
0.038462 0.603463 -0.297093
0.042115 0.601594 -0.296693
0.045674 0.601208 -0.296894
0.049144 0.602741 -0.297876
0.052699 0.602313 -0.298064
0.056050 0.607885 -0.300696
0.059552 0.609883 -0.301879
0.063126 0.609490 -0.302090
0.066716 0.607850 -0.301795
0.070286 0.606393 -0.301574
0.073853 0.603174 -0.300633
0.077380 0.602699 -0.300815
0.080902 0.602581 -0.301145
0.084424 0.602754 -0.301597
0.087948 0.602896 -0.302038
0.091510 0.605158 -0.303355
0.095104 0.607836 -0.304849
0.098655 0.607884 -0.305260
0.102228 0.608537 -0.305924
0.105897 0.611615 -0.307595
0.109542 0.613302 -0.308695
0.113036 0.611375 -0.308297
0.116195 0.603275 -0.305331
0.119725 0.603098 -0.305659
0.123302 0.603640 -0.306288
0.126906 0.604462 -0.307036
0.130420 0.603865 -0.307195
0.133900 0.602843 -0.307176
0.137350 0.601521 -0.307032
0.141043 0.603099 -0.308107
0.144634 0.603339 -0.308623
0.148147 0.602695 -0.308768
0.151643 0.601898 -0.308850
0.155170 0.601415 -0.309066
0.158669 0.600669 -0.309172
0.163163 0.608437 -0.312885
0.167033 0.610398 -0.314146
0.170808 0.611410 -0.315009
0.174604 0.612446 -0.315884
0.178107 0.611216 -0.315798
0.181205 0.607192 -0.314520
0.184205 0.602728 -0.313050
0.187891 0.603005 -0.313606
0.191495 0.602693 -0.313912
0.195492 0.604768 -0.315243
0.199111 0.604420 -0.315537
0.202563 0.603080 -0.315406
0.206132 0.602428 -0.315571
0.210313 0.605093 -0.317169
0.214550 0.607864 -0.318818
0.218217 0.607508 -0.319119
0.222322 0.609321 -0.320361
0.226446 0.611089 -0.321589
0.229663 0.608401 -0.320882
0.232673 0.604843 -0.319795
0.236146 0.603512 -0.319677
0.239600 0.602114 -0.319530
0.243185 0.601304 -0.319639
0.247059 0.601714 -0.320284
0.250834 0.601656 -0.320726
0.254536 0.601260 -0.321021
0.258368 0.601356 -0.321534
0.262080 0.600944 -0.321825
0.265662 0.600018 -0.321891
0.269980 0.601825 -0.323165
0.274197 0.603150 -0.324230
0.278426 0.604435 -0.325281
0.283078 0.607111 -0.326954
0.288453 0.612135 -0.329677
0.291891 0.610394 -0.329395
0.294693 0.606568 -0.328182
0.298499 0.606112 -0.328472
0.302590 0.606547 -0.329162
0.306610 0.606707 -0.329732
0.309830 0.604355 -0.329176
0.313225 0.602574 -0.328876
0.316813 0.601392 -0.328846
0.320790 0.601357 -0.329333
0.324196 0.599639 -0.329062
0.329217 0.602527 -0.330875
0.332339 0.599978 -0.330230
0.334586 0.595065 -0.328512
0.339847 0.598433 -0.330553
0.345967 0.603954 -0.333582
0.351520 0.607786 -0.335851
0.355748 0.608034 -0.336492
0.358029 0.603278 -0.334845
0.361254 0.600996 -0.334328
0.366195 0.602991 -0.335775
0.373506 0.610678 -0.339844
0.376885 0.608652 -0.339454
0.378768 0.603096 -0.337435
0.386566 0.611496 -0.341860
0.387432 0.603635 -0.338775
0.391600 0.603464 -0.339246
0.396726 0.605412 -0.340704
0.401007 0.605400 -0.341257
0.404463 0.603548 -0.340956
0.408077 0.602046 -0.340819
0.410691 0.598416 -0.339688
0.416031 0.600572 -0.341265
0.420533 0.600895 -0.341990
0.425586 0.602303 -0.343229
0.429589 0.601510 -0.343438
0.432656 0.598827 -0.342758
0.436264 0.597237 -0.342594
0.440933 0.597716 -0.343412
0.445686 0.598304 -0.344287
0.448952 0.596009 -0.343798
0.452690 0.594612 -0.343737
0.458521 0.597097 -0.345529
0.463455 0.597833 -0.346495
0.467312 0.596556 -0.346505
0.471087 0.595115 -0.346439
0.476372 0.596343 -0.347658
0.480675 0.595777 -0.348021
0.484628 0.594572 -0.348081
0.488967 0.594009 -0.348455
0.495141 0.596519 -0.350321
0.499038 0.595115 -0.350300
0.503561 0.594730 -0.350778
0.509234 0.596187 -0.352159
0.514245 0.596490 -0.352986
0.518661 0.595784 -0.353328
0.522800 0.594604 -0.353444
0.527147 0.593725 -0.353712
0.531822 0.593320 -0.354219
0.537273 0.594058 -0.355296
0.542768 0.594793 -0.356382
0.547374 0.594127 -0.356783
0.552507 0.594198 -0.357557
0.557033 0.593321 -0.357869
0.562006 0.593054 -0.358491
0.568067 0.594297 -0.359876
0.574185 0.595536 -0.361270
0.578663 0.594382 -0.361477
0.583144 0.593197 -0.361675
0.588372 0.593003 -0.362379
0.594772 0.594345 -0.363869
0.599866 0.593837 -0.364435
0.605099 0.593462 -0.365078
0.609802 0.592331 -0.365346
0.616426 0.593663 -0.366878
0.621090 0.592373 -0.367084
0.626290 0.591729 -0.367628
0.632645 0.592491 -0.368903
0.639751 0.594112 -0.370633
0.646337 0.594987 -0.371994
0.651974 0.594614 -0.372722
0.656604 0.592960 -0.372796
0.664513 0.595211 -0.374907
0.669772 0.594201 -0.375335
0.675810 0.594063 -0.376225
0.683271 0.595519 -0.377961
0.690043 0.596088 -0.379246
0.695822 0.595453 -0.379906
0.702176 0.595419 -0.380891
0.708278 0.595048 -0.381706
0.716047 0.596471 -0.383480
0.722668 0.596558 -0.384554
0.728910 0.596184 -0.385387
0.734328 0.594890 -0.385731
0.740233 0.594097 -0.386344
0.747252 0.594455 -0.387577
0.755370 0.595918 -0.389408
0.761510 0.595289 -0.390110
0.768372 0.595388 -0.391204
0.775064 0.595301 -0.392192
0.782205 0.595656 -0.393417
0.788324 0.594991 -0.394076
0.794533 0.594433 -0.394782
0.801351 0.594489 -0.395814
0.807862 0.594268 -0.396679
0.815958 0.595589 -0.398381
0.820813 0.593856 -0.398378
0.824969 0.591536 -0.398024
0.835423 0.595153 -0.400952
-0.131540 0.599489 -0.283372
-0.127770 0.597666 -0.283048
-0.125146 0.599927 -0.284302
-0.122436 0.602143 -0.285536
-0.118600 0.600579 -0.285296
-0.115383 0.601379 -0.285971
-0.112086 0.602064 -0.286598
-0.108490 0.601795 -0.286848
-0.104898 0.601669 -0.287150
-0.101417 0.602103 -0.287667
-0.097936 0.602667 -0.288231
-0.093796 0.600670 -0.287787
-0.091043 0.604469 -0.289616
-0.087288 0.604243 -0.289862
-0.083495 0.603911 -0.290064
-0.080190 0.605800 -0.291139
-0.076315 0.605224 -0.291240
-0.072579 0.605305 -0.291598
-0.069011 0.606226 -0.292288
-0.064998 0.605019 -0.292135
-0.061305 0.605370 -0.292597
-0.057605 0.605705 -0.293053
-0.053870 0.605862 -0.293438
-0.050125 0.605950 -0.293795
-0.046079 0.604313 -0.293466
-0.042235 0.603725 -0.293553
-0.038805 0.605551 -0.294605
-0.034505 0.602042 -0.293525
-0.031196 0.604624 -0.294883
-0.027775 0.606580 -0.295993
-0.024553 0.609992 -0.297690
-0.020766 0.609554 -0.297844
-0.016523 0.605630 -0.296596
-0.012754 0.604979 -0.296665
-0.009607 0.609204 -0.298701
-0.005999 0.609854 -0.299299
-0.001793 0.605238 -0.297771
0.001901 0.604809 -0.297934
0.005496 0.605213 -0.298437
0.009190 0.604567 -0.298516
0.012911 0.603474 -0.298415
0.016588 0.602668 -0.298431
0.020063 0.604101 -0.299360
0.023530 0.605732 -0.300373
0.027166 0.605181 -0.300499
0.030815 0.604284 -0.300485
0.034463 0.603156 -0.300378
0.038047 0.602843 -0.300606
0.041272 0.609122 -0.303539
0.044798 0.610361 -0.304411
0.048166 0.615436 -0.306864
0.051923 0.611577 -0.305646
0.055622 0.608190 -0.304621
0.059160 0.609185 -0.305403
0.062690 0.610846 -0.306463
0.066322 0.607713 -0.305544
0.069926 0.604212 -0.304471
0.073466 0.604054 -0.304784
0.077004 0.603384 -0.304885
0.080538 0.604399 -0.305689
0.084062 0.602299 -0.305199
0.087593 0.602704 -0.305753
0.091205 0.607717 -0.308234
0.094821 0.610603 -0.309833
0.098491 0.614377 -0.311809
0.101980 0.611152 -0.310858
0.105575 0.611686 -0.311483
0.109262 0.614251 -0.312965
0.112810 0.613220 -0.312938
0.116412 0.613392 -0.313418
0.119435 0.603190 -0.309524
0.123056 0.604354 -0.310423
0.126589 0.603956 -0.310664
0.130116 0.603488 -0.310877
0.133598 0.602426 -0.310840
0.137118 0.601913 -0.311037
0.140693 0.602045 -0.311509
0.144299 0.602436 -0.312094
0.147804 0.601692 -0.312197
0.151322 0.601106 -0.312369
0.154907 0.601136 -0.312805
0.158778 0.603682 -0.314322
0.162182 0.601958 -0.314012
0.165932 0.603157 -0.314957
0.169661 0.604047 -0.315773
0.173118 0.602751 -0.315650
0.177341 0.607092 -0.317960
0.180827 0.605891 -0.317882
0.183701 0.600570 -0.316021
0.187536 0.601862 -0.317022
0.191382 0.603085 -0.317996
0.195248 0.604307 -0.318973
0.198923 0.604273 -0.319408
0.202445 0.603304 -0.319436
0.206155 0.603402 -0.319931
0.210455 0.606661 -0.321809
0.214679 0.609291 -0.323418
0.217939 0.606768 -0.322774
0.221573 0.606208 -0.322990
0.226251 0.610733 -0.325443
0.229845 0.609822 -0.325510
0.232318 0.603704 -0.323281
0.235542 0.601240 -0.322660
0.239491 0.602064 -0.323491
0.243047 0.601102 -0.323535
0.246635 0.600281 -0.323642
0.250546 0.600789 -0.324340
0.254217 0.600264 -0.324581
0.257961 0.600011 -0.324945
0.261972 0.600761 -0.325758
0.265320 0.598924 -0.325417
0.271130 0.606284 -0.329194
0.274277 0.603597 -0.328477
0.278085 0.603344 -0.328851
0.283757 0.609596 -0.332154
0.287504 0.608951 -0.332359
0.290221 0.604810 -0.330989
0.294184 0.604918 -0.331535
0.298837 0.607226 -0.333079
0.303062 0.608050 -0.333956
0.307068 0.608119 -0.334493
0.309399 0.602975 -0.332663
0.312804 0.601230 -0.332374
0.317028 0.601950 -0.333211
0.320851 0.601431 -0.333484
0.324755 0.601131 -0.333860
0.329459 0.603073 -0.335265
0.333379 0.602727 -0.335624
0.336804 0.600993 -0.335348
0.339770 0.598034 -0.334507
0.346115 0.604144 -0.337848
0.351618 0.607817 -0.340074
0.355135 0.606209 -0.339865
0.358171 0.603386 -0.339093
0.361482 0.601300 -0.338662
0.368360 0.608067 -0.342347
0.371559 0.605627 -0.341757
0.374697 0.603075 -0.341115
0.379238 0.603885 -0.342042
0.384124 0.605441 -0.343323
0.388145 0.604924 -0.343638
0.391461 0.602779 -0.343190
0.394966 0.601080 -0.342953
0.399736 0.602190 -0.344040
0.404482 0.603179 -0.345075
0.407493 0.600366 -0.344318
0.411540 0.599791 -0.344620
0.416139 0.600354 -0.345465
0.420841 0.601078 -0.346391
0.424776 0.600172 -0.346547
0.428728 0.599285 -0.346714
0.432886 0.598792 -0.347072
0.436531 0.597258 -0.346936
0.441913 0.599107 -0.348424
0.445986 0.598351 -0.348669
0.450134 0.597714 -0.348974
0.453978 0.596480 -0.348995
0.458225 0.595980 -0.349373
0.463256 0.596889 -0.350438
0.467118 0.595613 -0.350450
0.471491 0.595240 -0.350904
0.475459 0.594114 -0.350997
0.480709 0.595212 -0.352178
0.485572 0.595571 -0.353005
0.489659 0.594548 -0.353164
0.494757 0.595210 -0.354153
0.499143 0.594619 -0.354533
0.503827 0.594487 -0.355146
0.508704 0.594624 -0.355898
0.514212 0.595728 -0.357134
0.518730 0.595175 -0.357560
0.523680 0.595266 -0.358312
0.527258 0.593158 -0.357978
0.532867 0.594184 -0.359209
0.538548 0.595244 -0.360467
0.543221 0.594702 -0.360934
0.547679 0.593795 -0.361225
0.552743 0.593747 -0.361955
0.557429 0.593090 -0.362387
0.561596 0.591638 -0.362424
0.569700 0.595801 -0.365309
0.574022 0.594453 -0.365418
0.579160 0.594219 -0.366100
0.584142 0.593711 -0.366651
0.591327 0.596179 -0.368731
0.595308 0.594177 -0.368539
0.599998 0.593108 -0.368832
0.605683 0.593320 -0.369792
0.612102 0.594429 -0.371225
0.616666 0.593033 -0.371378
0.621678 0.592178 -0.371818
0.627221 0.591953 -0.372594
0.633817 0.592994 -0.374040
0.640939 0.594606 -0.375797
0.646473 0.594153 -0.376490
0.652421 0.594148 -0.377428
0.658178 0.593845 -0.378220
0.664405 0.594047 -0.379289
0.669865 0.593268 -0.379851
0.676606 0.593943 -0.381192
0.683159 0.594324 -0.382388
0.689479 0.594365 -0.383415
0.696837 0.595526 -0.385049
0.702684 0.594902 -0.385740
0.707541 0.593130 -0.385821
0.717528 0.597000 -0.388942
0.723242 0.596074 -0.389491
0.729068 0.595240 -0.390093
0.735934 0.595490 -0.391287
0.742886 0.595789 -0.392510
0.749970 0.596184 -0.393789
0.756319 0.595777 -0.394630
0.763014 0.595710 -0.395656
0.770114 0.596038 -0.396896
0.776189 0.595313 -0.397552
0.781885 0.594218 -0.397993
0.789152 0.594696 -0.399297
0.796769 0.595515 -0.400782
0.802679 0.594677 -0.401332
0.809354 0.594610 -0.402297
0.814767 0.593369 -0.402588
0.820891 0.592855 -0.403266
0.826308 0.591729 -0.403578
0.827930 0.587149 -0.401915
-0.130930 0.595359 -0.285466
-0.128500 0.598001 -0.286890
-0.125745 0.599789 -0.287975
-0.122462 0.599968 -0.288423
-0.119123 0.600127 -0.288857
-0.115778 0.600433 -0.289345
-0.112727 0.601993 -0.290325
-0.109345 0.602517 -0.290890
-0.105790 0.602538 -0.291252
-0.102173 0.602446 -0.291565
-0.098653 0.602858 -0.292074
-0.095136 0.603402 -0.292632
-0.091651 0.604204 -0.293290
-0.088088 0.604789 -0.293860
-0.084443 0.605120 -0.294325
-0.080690 0.605049 -0.294627
-0.076790 0.604352 -0.294677
-0.073219 0.605200 -0.295343
-0.069479 0.605305 -0.295710
-0.065756 0.605521 -0.296122
-0.061913 0.605154 -0.296297
-0.058050 0.604666 -0.296423
-0.054344 0.604973 -0.296868
-0.050659 0.605398 -0.297361
-0.046895 0.605381 -0.297677
-0.043133 0.605342 -0.297983
-0.039410 0.605497 -0.298369
-0.035764 0.606092 -0.298933
-0.032273 0.607671 -0.299899
-0.028366 0.606553 -0.299771
-0.024704 0.606978 -0.300271
-0.020782 0.605525 -0.300008
-0.016849 0.603813 -0.299639
-0.013442 0.605933 -0.300835
-0.010340 0.610597 -0.303073
-0.006644 0.610625 -0.303421
-0.002276 0.604734 -0.301347
0.001397 0.604543 -0.301606
0.005031 0.604627 -0.301979
0.008694 0.604344 -0.302204
0.012398 0.603520 -0.302208
0.016136 0.602127 -0.301979
0.019663 0.602982 -0.302678
0.023193 0.603822 -0.303373
0.026818 0.603404 -0.303551
0.030383 0.603712 -0.304032
0.033952 0.603907 -0.304468
0.037574 0.603143 -0.304509
0.040769 0.610062 -0.307743
0.044090 0.615727 -0.310465
0.047543 0.619562 -0.312432
0.051187 0.619393 -0.312737
0.055109 0.610869 -0.309554
0.058737 0.609434 -0.309329
0.062259 0.611724 -0.310664
0.065913 0.608145 -0.309544
0.069540 0.603760 -0.308084
0.073085 0.603533 -0.308369
0.076623 0.604175 -0.309021
0.080166 0.603403 -0.309081
0.083700 0.602674 -0.309160
0.087225 0.601762 -0.309164
0.090838 0.606882 -0.311719
0.094442 0.609100 -0.313053
0.098005 0.608851 -0.313347
0.101577 0.608937 -0.313784
0.105184 0.609928 -0.314608
0.108679 0.607888 -0.314146
0.112407 0.611329 -0.316019
0.115948 0.610349 -0.316012
0.119232 0.604899 -0.314095
0.122757 0.604256 -0.314232
0.126274 0.603531 -0.314334
0.129762 0.602443 -0.314283
0.133611 0.606187 -0.316308
0.137669 0.612001 -0.319231
0.141286 0.611961 -0.319640
0.144779 0.610502 -0.319439
0.148443 0.610920 -0.320050
0.152370 0.613853 -0.321751
0.155766 0.611448 -0.321145
0.158864 0.606527 -0.319446
0.161789 0.600501 -0.317263
0.165535 0.601686 -0.318213
0.169200 0.602086 -0.318824
0.172872 0.602449 -0.319421
0.176953 0.605729 -0.321296
0.181144 0.609497 -0.323390
0.184084 0.604452 -0.321629
0.187545 0.603114 -0.321490
0.191051 0.602103 -0.321495
0.194854 0.602935 -0.322312
0.198665 0.603716 -0.323109
0.202269 0.603201 -0.323338
0.205956 0.603143 -0.323770
0.210167 0.605892 -0.325446
0.214671 0.609998 -0.327729
0.218021 0.607888 -0.327260
0.221057 0.604265 -0.326117
0.225278 0.606581 -0.327616
0.230115 0.611671 -0.330357
0.231825 0.601921 -0.326479
0.235188 0.600106 -0.326139
0.238879 0.599785 -0.326468
0.243271 0.602472 -0.328148
0.247714 0.605210 -0.329856
0.252383 0.608719 -0.331918
0.256326 0.609100 -0.332575
0.259488 0.606325 -0.331812
0.262863 0.604453 -0.331454
0.267993 0.609288 -0.334132
0.272184 0.610387 -0.335125
0.275773 0.609209 -0.335088
0.280155 0.610876 -0.336345
0.284483 0.612247 -0.337471
0.286706 0.606285 -0.335256
0.290152 0.604637 -0.335007
0.295210 0.608355 -0.337212
0.300364 0.612212 -0.339488
0.304365 0.612207 -0.340000
0.308522 0.612655 -0.340722
0.308897 0.601377 -0.336047
0.312451 0.600090 -0.335966
0.316575 0.600511 -0.336675
0.321066 0.601957 -0.337861
0.324868 0.601330 -0.338091
0.329294 0.602463 -0.339139
0.334321 0.605199 -0.340937
0.337815 0.603597 -0.340721
0.341804 0.603349 -0.341137
0.345011 0.600988 -0.340568
0.349030 0.600795 -0.341013
0.353743 0.602367 -0.342287
0.356880 0.599840 -0.341642
0.360531 0.598639 -0.341621
0.364943 0.599324 -0.342488
0.369386 0.600026 -0.343367
0.373027 0.598744 -0.343313
0.376879 0.597962 -0.343497
0.381629 0.599264 -0.344671
0.386534 0.600851 -0.345986
0.390351 0.599884 -0.346091
0.394128 0.598816 -0.346151
0.398490 0.599033 -0.346826
0.402646 0.598758 -0.347269
0.406920 0.598706 -0.347823
0.410615 0.597387 -0.347773
0.415113 0.597748 -0.348532
0.419754 0.598359 -0.349415
0.424290 0.598701 -0.350175
0.428466 0.598267 -0.350564
0.432860 0.598240 -0.351154
0.437481 0.598619 -0.351946
0.441768 0.598300 -0.352404
0.446406 0.598622 -0.353178
0.450617 0.598082 -0.353537
0.454524 0.596944 -0.353609
0.458910 0.596680 -0.354111
0.463345 0.596467 -0.354643
0.467702 0.596075 -0.355092
0.470937 0.593642 -0.354542
0.476092 0.594615 -0.355673
0.480851 0.594828 -0.356436
0.485258 0.594384 -0.356880
0.490553 0.595420 -0.358064
0.495029 0.595001 -0.358533
0.499678 0.594834 -0.359134
0.503948 0.593995 -0.359406
0.509178 0.594695 -0.360453
0.514100 0.594831 -0.361226
0.519444 0.595588 -0.362318
0.523711 0.594576 -0.362529
0.528724 0.594697 -0.363318
0.533921 0.595049 -0.364231
0.539013 0.595178 -0.365041
0.543472 0.594293 -0.365346
0.549203 0.595273 -0.366604
0.553876 0.594610 -0.367038
0.557196 0.591926 -0.366447
0.562978 0.592805 -0.367682
0.568595 0.593369 -0.368767
0.574483 0.594246 -0.370024
0.580027 0.594561 -0.371003
0.586735 0.596423 -0.372792
0.590631 0.594324 -0.372547
0.595419 0.593418 -0.372926
0.600207 0.592467 -0.373290
0.605974 0.592773 -0.374317
0.612051 0.593416 -0.375532
0.617871 0.593645 -0.376543
0.622563 0.592351 -0.376768
0.629066 0.593326 -0.378193
0.634737 0.593164 -0.379033
0.640807 0.593435 -0.380114
0.646858 0.593611 -0.381156
0.653848 0.594865 -0.382782
0.658997 0.593799 -0.383188
0.663509 0.591927 -0.383171
0.671460 0.594100 -0.385326
0.677202 0.593575 -0.386050
0.683266 0.593370 -0.386956
0.691445 0.595535 -0.389149
0.699134 0.597039 -0.391001
0.703887 0.595151 -0.391025
0.709578 0.594289 -0.391611
0.716412 0.594651 -0.392869
0.724736 0.596579 -0.394991
0.730337 0.595482 -0.395465
0.738465 0.597063 -0.397415
0.744968 0.596856 -0.398384
0.750967 0.596091 -0.399046
0.757353 0.595712 -0.399920
0.763413 0.594983 -0.400596
0.769708 0.594490 -0.401398
0.775901 0.593892 -0.402136
0.783278 0.594480 -0.403529
0.790106 0.594517 -0.404606
0.797379 0.594996 -0.405921
0.803944 0.594795 -0.406840
0.809016 0.593186 -0.406945
0.815378 0.592862 -0.407758
0.820735 0.591631 -0.408036
0.826207 0.590571 -0.408386
0.836532 0.594070 -0.411323
-0.133510 0.601875 -0.291761
-0.129085 0.597841 -0.290549
-0.125946 0.598281 -0.291111
-0.122794 0.598869 -0.291727
-0.119316 0.598496 -0.291954
-0.116163 0.599447 -0.292705
-0.113181 0.601223 -0.293782
-0.110045 0.602636 -0.294710
-0.106511 0.602729 -0.295104
-0.102821 0.602346 -0.295302
-0.099157 0.602175 -0.295580
-0.095582 0.602468 -0.296042
-0.092140 0.603419 -0.296765
-0.088705 0.604529 -0.297551
-0.085061 0.604862 -0.298019
-0.081224 0.604420 -0.298172
-0.077504 0.604542 -0.298550
-0.073511 0.603440 -0.298429
-0.070014 0.604681 -0.299258
-0.066298 0.604931 -0.299684
-0.062733 0.605969 -0.300430
-0.058991 0.606152 -0.300827
-0.055246 0.606321 -0.301218
-0.051287 0.605320 -0.301131
-0.047503 0.605223 -0.301412
-0.043740 0.605206 -0.301728
-0.040040 0.605536 -0.302185
-0.036356 0.605940 -0.302674
-0.032650 0.606183 -0.303098
-0.028692 0.604735 -0.302828
-0.024853 0.603931 -0.302822
-0.020970 0.602706 -0.302644
-0.017175 0.601959 -0.302663
-0.014429 0.609096 -0.305943
-0.011014 0.611436 -0.307246
-0.007215 0.610711 -0.307282
-0.002723 0.603858 -0.304778
0.000906 0.604094 -0.305213
0.004597 0.603690 -0.305384
0.008193 0.604111 -0.305901
0.011755 0.604854 -0.306553
0.015352 0.605200 -0.307044
0.019041 0.604415 -0.307064
0.022822 0.602296 -0.306528
0.026361 0.603035 -0.307189
0.029860 0.604365 -0.308100
0.033452 0.604357 -0.308454
0.037070 0.603842 -0.308597
0.040388 0.608620 -0.310969
0.043789 0.612609 -0.313016
0.047274 0.615501 -0.314606
0.050908 0.615250 -0.314875
0.054750 0.608805 -0.312526
0.058388 0.606981 -0.312129
0.061904 0.609256 -0.313471
0.065475 0.609753 -0.314063
0.069151 0.603244 -0.311680
0.072692 0.603913 -0.312347
0.076241 0.604013 -0.312774
0.079790 0.603164 -0.312799
0.083330 0.602376 -0.312852
0.086866 0.601904 -0.313041
0.090439 0.604118 -0.314383
0.093987 0.604047 -0.314749
0.097566 0.605127 -0.315612
0.101198 0.607571 -0.317064
0.104714 0.606005 -0.316796
0.108437 0.609908 -0.318885
0.112000 0.609383 -0.319070
0.115462 0.606887 -0.318405
0.118963 0.605514 -0.318225
0.122467 0.604346 -0.318135
0.125957 0.603094 -0.318009
0.129596 0.604088 -0.318860
0.133683 0.610819 -0.322211
0.137878 0.617984 -0.325761
0.141306 0.615307 -0.325027
0.144782 0.613409 -0.324632
0.148302 0.612105 -0.324497
0.152033 0.612972 -0.325315
0.155444 0.610687 -0.324752
0.158626 0.606491 -0.323349
0.161855 0.603010 -0.322258
0.165322 0.601742 -0.322139
0.168989 0.602104 -0.322740
0.172767 0.603238 -0.323685
0.176886 0.606722 -0.325674
0.181026 0.610064 -0.327606
0.184724 0.610103 -0.328078
0.188020 0.607449 -0.327356
0.191046 0.603199 -0.325922
0.194841 0.603911 -0.326696
0.198305 0.602556 -0.326550
0.201925 0.602136 -0.326822
0.205812 0.603196 -0.327759
0.209818 0.604796 -0.328941
0.214474 0.609710 -0.331615
0.217512 0.605963 -0.330404
0.220365 0.601433 -0.328836
0.225089 0.606258 -0.331484
0.229045 0.607131 -0.332355
0.232749 0.606738 -0.332657
0.235725 0.603020 -0.331454
0.241592 0.612252 -0.336122
0.244078 0.606366 -0.333937
0.247639 0.605259 -0.333920
0.252208 0.608332 -0.335809
0.255706 0.606892 -0.335644
0.259590 0.607000 -0.336186
0.263485 0.607107 -0.336731
0.268612 0.611853 -0.339404
0.272912 0.613285 -0.340565
0.276859 0.613332 -0.341093
0.280897 0.613662 -0.341753
0.284087 0.610965 -0.341020
0.287144 0.607874 -0.340103
0.290890 0.607187 -0.340296
0.296255 0.611852 -0.342971
0.299684 0.610010 -0.342634
0.305641 0.616278 -0.346067
0.309889 0.616921 -0.346893
0.308584 0.600359 -0.339699
0.312291 0.599535 -0.339833
0.316754 0.600956 -0.341019
0.320979 0.601592 -0.341841
0.325420 0.602799 -0.342935
0.329537 0.603008 -0.343565
0.333549 0.602881 -0.344038
0.336895 0.600890 -0.343636
0.340557 0.599779 -0.343648
0.344338 0.598985 -0.343812
0.348967 0.600402 -0.345025
0.353128 0.600533 -0.345632
0.356752 0.599254 -0.345573
0.360687 0.598759 -0.345887
0.364768 0.598602 -0.346366
0.368599 0.597803 -0.346540
0.374296 0.601473 -0.348855
0.378222 0.600811 -0.349102
0.382244 0.600353 -0.349450
0.386297 0.599943 -0.349824
0.390204 0.599174 -0.350027
0.394192 0.598571 -0.350313
0.398241 0.598080 -0.350656
0.402560 0.598155 -0.351276
0.406616 0.597624 -0.351605
0.411313 0.598430 -0.352588
0.415194 0.597464 -0.352714
0.419879 0.598151 -0.353648
0.424148 0.597930 -0.354144
0.428297 0.597433 -0.354510
0.432380 0.596776 -0.354800
0.437613 0.598360 -0.356195
0.441716 0.597667 -0.356477
0.445699 0.596719 -0.356637
0.450900 0.598064 -0.357933
0.454902 0.597086 -0.358087
0.459330 0.596878 -0.358627
0.463678 0.596485 -0.359080
0.467566 0.595226 -0.359107
0.471963 0.594862 -0.359584
0.476490 0.594691 -0.360162
0.480747 0.594008 -0.360491
0.485621 0.594359 -0.361342
0.490954 0.595440 -0.362567
0.496028 0.596010 -0.363545
0.500504 0.595523 -0.363997
0.505023 0.595070 -0.364472
0.509199 0.594016 -0.364650
0.514075 0.594065 -0.365393
0.519751 0.595339 -0.366765
0.524843 0.595612 -0.367639
0.529849 0.595691 -0.368422
0.533718 0.593961 -0.368289
0.538751 0.593991 -0.369062
0.544079 0.594411 -0.370045
0.549156 0.594391 -0.370811
0.553638 0.593436 -0.371103
0.559707 0.594763 -0.372583
0.564033 0.593483 -0.372725
0.568631 0.592561 -0.373059
0.575908 0.595388 -0.375353
0.582264 0.596806 -0.376928
0.585956 0.594443 -0.376541
0.591058 0.594000 -0.377164
0.595479 0.592577 -0.377284
0.600388 0.591778 -0.377738
0.605695 0.591457 -0.378454
0.613329 0.594136 -0.380768
0.618598 0.593619 -0.381405
0.623818 0.592983 -0.381990
0.629633 0.593052 -0.382960
0.635129 0.592651 -0.383691
0.641382 0.593134 -0.384906
0.648433 0.594525 -0.386622
0.654408 0.594506 -0.387594
0.660058 0.594028 -0.388330
0.667503 0.595639 -0.390207
0.673095 0.594960 -0.390857
0.678404 0.593899 -0.391308
0.685716 0.595117 -0.393010
0.692705 0.595877 -0.394476
0.699991 0.596898 -0.396096
0.706498 0.596965 -0.397204
0.712222 0.596105 -0.397808
0.719996 0.597462 -0.399644
0.726354 0.597202 -0.400593
0.732283 0.596438 -0.401267
0.738962 0.596447 -0.402373
0.744763 0.595491 -0.402942
0.752786 0.596844 -0.404805
0.758669 0.595927 -0.405394
0.763954 0.594392 -0.405630
0.771570 0.595237 -0.407203
0.779400 0.596269 -0.408880
0.782658 0.592728 -0.407951
0.790749 0.594022 -0.409758
0.798466 0.594934 -0.411340
0.803821 0.593562 -0.411600
0.809512 0.592560 -0.412053
0.818109 0.594363 -0.414103
0.822262 0.591990 -0.413725
0.826938 0.590188 -0.413649
0.828908 0.585963 -0.412138
-0.132989 0.598056 -0.293971
-0.129787 0.598070 -0.294375
-0.126489 0.597948 -0.294718
-0.124060 0.601022 -0.296348
-0.120789 0.601393 -0.296880
-0.116366 0.597803 -0.295799
-0.113957 0.601624 -0.297719
-0.110759 0.602797 -0.298561
-0.107136 0.602535 -0.298814
-0.103808 0.603547 -0.299581
-0.099736 0.601777 -0.299209
-0.096107 0.601834 -0.299577
-0.092820 0.603405 -0.300561
-0.089277 0.604060 -0.301167
-0.085694 0.604646 -0.301743
-0.081918 0.604475 -0.302004
-0.078286 0.605002 -0.302550
-0.074521 0.604987 -0.302872
-0.070518 0.603873 -0.302738
-0.066995 0.605064 -0.303553
-0.063353 0.605733 -0.304152
-0.059630 0.606031 -0.304598
-0.055879 0.606196 -0.304988
-0.052017 0.605752 -0.305125
-0.048103 0.604974 -0.305124
-0.044314 0.604844 -0.305391
-0.040595 0.605082 -0.305812
-0.037050 0.606360 -0.306666
-0.033196 0.605730 -0.306728
-0.028710 0.600863 -0.305023
-0.025250 0.602551 -0.306052
-0.021959 0.605488 -0.307605
-0.019045 0.611337 -0.310381
-0.015402 0.612058 -0.311017
-0.011766 0.612821 -0.311672
-0.007256 0.606377 -0.309304
-0.003360 0.604563 -0.308879
0.000351 0.604166 -0.309050
0.004071 0.603572 -0.309139
0.007613 0.604594 -0.309911
0.011247 0.604689 -0.310296
0.014891 0.604586 -0.310599
0.018528 0.604479 -0.310902
0.022266 0.603009 -0.310630
0.025924 0.602319 -0.310691
0.029412 0.603838 -0.311690
0.033012 0.603809 -0.312036
0.036579 0.604220 -0.312571
0.040008 0.607096 -0.314160
0.043726 0.604725 -0.313515
0.047400 0.602662 -0.313002
0.050962 0.602810 -0.313434
0.054511 0.603255 -0.313997
0.058048 0.604135 -0.314749
0.061498 0.608723 -0.317097
0.065062 0.609838 -0.317958
0.068751 0.603154 -0.315468
0.072303 0.603423 -0.315968
0.075852 0.604330 -0.316747
0.079410 0.604150 -0.317059
0.082965 0.603761 -0.317283
0.086507 0.602536 -0.317147
0.090115 0.606471 -0.319250
0.093656 0.605089 -0.319051
0.097240 0.605934 -0.319822
0.100772 0.604721 -0.319699
0.104354 0.605253 -0.320338
0.108019 0.607646 -0.321793
0.111633 0.608348 -0.322513
0.115095 0.605809 -0.321819
0.118618 0.604807 -0.321797
0.122081 0.602904 -0.321381
0.125665 0.603098 -0.321887
0.129320 0.604228 -0.322807
0.133236 0.608627 -0.325171
0.137502 0.616767 -0.329193
0.141313 0.618565 -0.330425
0.144180 0.609664 -0.326928
0.147919 0.610785 -0.327863
0.151484 0.610003 -0.327957
0.154873 0.607580 -0.327323
0.158280 0.605491 -0.326837
0.161579 0.602604 -0.325995
0.165100 0.601741 -0.326055
0.168717 0.601664 -0.326466
0.172739 0.604621 -0.328238
0.176972 0.608858 -0.330588
0.180787 0.609780 -0.331460
0.184909 0.612686 -0.333225
0.188428 0.611365 -0.333095
0.191002 0.604062 -0.330269
0.194600 0.603494 -0.330475
0.198456 0.604455 -0.331374
0.201579 0.601063 -0.330306
0.205739 0.603656 -0.331948
0.209768 0.605340 -0.333183
0.214889 0.612680 -0.336993
0.216886 0.603433 -0.333264
0.220132 0.600920 -0.332595
0.225152 0.607181 -0.335931
0.229378 0.609288 -0.337378
0.232800 0.607503 -0.337047
0.238484 0.616041 -0.341451
0.242108 0.614991 -0.341464
0.245125 0.611314 -0.340269
0.248125 0.607689 -0.339096
0.251892 0.607359 -0.339440
0.255437 0.606107 -0.339359
0.258584 0.603286 -0.338552
0.263719 0.608259 -0.341357
0.267858 0.609201 -0.342299
0.272419 0.611635 -0.343938
0.276057 0.610564 -0.343951
0.279063 0.607231 -0.342911
0.283628 0.609462 -0.344465
0.286297 0.605041 -0.342914
0.289812 0.603603 -0.342757
0.293875 0.603996 -0.343458
0.297126 0.601695 -0.342896
0.300803 0.600800 -0.342995
0.304520 0.600022 -0.343151
0.308278 0.599362 -0.343363
0.312726 0.600783 -0.344561
0.316916 0.601347 -0.345357
0.321291 0.602400 -0.346389
0.325245 0.602163 -0.346812
0.329621 0.603098 -0.347795
0.333121 0.601521 -0.347585
0.336670 0.600090 -0.347445
0.340263 0.598786 -0.347365
0.344326 0.598739 -0.347889
0.348402 0.598690 -0.348415
0.352985 0.599916 -0.349556
0.356959 0.599520 -0.349922
0.360927 0.599082 -0.350270
0.365199 0.599375 -0.350973
0.369200 0.598961 -0.351338
0.373038 0.598130 -0.351503
0.378081 0.600139 -0.353049
0.382067 0.599588 -0.353357
0.386210 0.599377 -0.353833
0.390304 0.599021 -0.354242
0.394100 0.597972 -0.354316
0.398481 0.598204 -0.355018
0.402914 0.598507 -0.355760
0.407075 0.598178 -0.356195
0.411900 0.599231 -0.357314
0.416097 0.598898 -0.357757
0.420626 0.599224 -0.358528
0.424440 0.598040 -0.358558
0.428922 0.598195 -0.359254
0.433663 0.598821 -0.360188
0.437911 0.598422 -0.360619
0.442228 0.598125 -0.361105
0.446146 0.597027 -0.361195
0.450144 0.596067 -0.361358
0.454693 0.596120 -0.362032
0.460015 0.597559 -0.363407
0.463863 0.596224 -0.363396
0.467689 0.594838 -0.363363
0.472716 0.595584 -0.364409
0.477559 0.595944 -0.365268
0.481135 0.594038 -0.364986
0.485581 0.593631 -0.365467
0.491522 0.595734 -0.367231
0.496389 0.595934 -0.368036
0.501436 0.596380 -0.368975
0.505486 0.595122 -0.369050
0.509259 0.593393 -0.368888
0.514519 0.594048 -0.369955
0.519076 0.593516 -0.370421
0.525293 0.595561 -0.372222
0.530129 0.595354 -0.372873
0.534077 0.593731 -0.372798
0.538128 0.592246 -0.372800
0.544040 0.593543 -0.374255
0.548991 0.593323 -0.374931
0.554803 0.594321 -0.376253
0.559658 0.593843 -0.376814
0.564946 0.593943 -0.377686
0.571110 0.595231 -0.379194
0.575981 0.594605 -0.379707
0.580922 0.594029 -0.380255
0.587436 0.595580 -0.381938
0.592300 0.594776 -0.382387
0.596189 0.592605 -0.382117
0.602111 0.593140 -0.383296
0.608428 0.594124 -0.384728
0.613970 0.594003 -0.385583
0.619188 0.593400 -0.386190
0.624738 0.593169 -0.387007
0.629604 0.592008 -0.387333
0.635797 0.592472 -0.388549
0.642159 0.593069 -0.389850
0.649435 0.594713 -0.391734
0.656370 0.595839 -0.393352
0.661563 0.594776 -0.393788
0.667838 0.594960 -0.394916
0.673559 0.594419 -0.395658
0.681083 0.595933 -0.397542
0.686956 0.595443 -0.398334
0.693052 0.595155 -0.399246
0.701043 0.596961 -0.401331
0.706896 0.596275 -0.402042
0.713076 0.595911 -0.402938
0.720669 0.597054 -0.404685
0.726445 0.596148 -0.405290
0.733020 0.596076 -0.406368
0.739048 0.595381 -0.407096
0.744922 0.594500 -0.407720
0.752763 0.595658 -0.409501
0.758955 0.595062 -0.410284
0.765596 0.594916 -0.411320
0.774092 0.596637 -0.413422
0.780058 0.595778 -0.414039
0.786530 0.595435 -0.414943
0.793597 0.595688 -0.416179
0.798693 0.594026 -0.416293
0.804619 0.593214 -0.416881
0.811036 0.592911 -0.417747
0.818851 0.593969 -0.419388
0.824889 0.593376 -0.420045
0.829074 0.591111 -0.419695
0.839551 0.594742 -0.422785
-0.134023 0.599403 -0.298260
-0.130967 0.599905 -0.298870
-0.128085 0.601206 -0.299802
-0.125174 0.602627 -0.300778
-0.121669 0.602177 -0.300980
-0.117886 0.600888 -0.300831
-0.114638 0.601666 -0.301526
-0.111564 0.603277 -0.302558
-0.108202 0.604003 -0.303221
-0.104622 0.604052 -0.303599
-0.101159 0.604687 -0.304215
-0.097403 0.604285 -0.304397
-0.093683 0.604123 -0.304674
-0.090041 0.604368 -0.305116
-0.086204 0.603873 -0.305246
-0.082708 0.604919 -0.306014
-0.078765 0.604066 -0.305989
-0.075045 0.604246 -0.306392
-0.071148 0.603635 -0.306462
-0.067518 0.604315 -0.307070
-0.063888 0.605043 -0.307697
-0.060190 0.605470 -0.308198
-0.056334 0.605094 -0.308362
-0.052549 0.605070 -0.308672
-0.048741 0.604899 -0.308921
-0.044935 0.604704 -0.309160
-0.041194 0.604845 -0.309541
-0.037426 0.604797 -0.309843
-0.032241 0.595775 -0.306359
-0.029548 0.602319 -0.309443
-0.026404 0.606224 -0.311419
-0.023207 0.609994 -0.313342
-0.019654 0.611405 -0.314271
-0.016056 0.612514 -0.315075
-0.011865 0.609000 -0.313918
-0.007890 0.606879 -0.313352
-0.003919 0.604528 -0.312688
-0.000308 0.605105 -0.313272
0.003229 0.606344 -0.314141
0.006967 0.605651 -0.314188
0.010790 0.603925 -0.313795
0.014423 0.603993 -0.314171
0.018059 0.603950 -0.314502
0.021742 0.603231 -0.314545
0.025381 0.602922 -0.314766
0.029020 0.602465 -0.314925
0.032555 0.603427 -0.315698
0.036119 0.603977 -0.316296
0.039715 0.603952 -0.316650
0.043275 0.604538 -0.317270
0.046926 0.603182 -0.317053
0.050517 0.602864 -0.317287
0.054014 0.604955 -0.318567
0.057526 0.607184 -0.319912
0.060931 0.614312 -0.323392
0.064583 0.612821 -0.323131
0.068324 0.604545 -0.319914
0.071901 0.603740 -0.319951
0.075462 0.603986 -0.320448
0.079025 0.604765 -0.321182
0.082592 0.604731 -0.321562
0.086169 0.605855 -0.322453
0.089794 0.609480 -0.324446
0.093414 0.611021 -0.325529
0.096985 0.609823 -0.325411
0.100513 0.607573 -0.324831
0.104070 0.606753 -0.324880
0.107510 0.603137 -0.323697
0.111248 0.606992 -0.325818
0.114820 0.606646 -0.326084
0.118183 0.602494 -0.324663
0.121798 0.603208 -0.325401
0.125202 0.600507 -0.324624
0.128857 0.601730 -0.325594
0.132846 0.607213 -0.328468
0.137028 0.614348 -0.332089
0.140546 0.612774 -0.331826
0.144139 0.612152 -0.331989
0.147610 0.610253 -0.331581
0.151421 0.611892 -0.332763
0.154901 0.610176 -0.332439
0.158125 0.606242 -0.331116
0.161571 0.604536 -0.330796
0.165188 0.604333 -0.331156
0.169214 0.607349 -0.332972
0.172623 0.605359 -0.332528
0.176534 0.607163 -0.333804
0.180653 0.610260 -0.335672
0.184596 0.611882 -0.336875
0.188221 0.611248 -0.337055
0.191067 0.605634 -0.334964
0.194530 0.604141 -0.334751
0.197857 0.601879 -0.334186
0.201833 0.603474 -0.335387
0.205467 0.603004 -0.335646
0.209302 0.603611 -0.336400
0.213834 0.607845 -0.338827
0.217126 0.605388 -0.338178
0.220344 0.602647 -0.337396
0.224942 0.606770 -0.339786
0.228839 0.607285 -0.340513
0.233014 0.609028 -0.341813
0.237205 0.610719 -0.343093
0.242124 0.615517 -0.345822
0.245872 0.614967 -0.346070
0.248622 0.610172 -0.344338
0.251411 0.605706 -0.342756
0.255667 0.607342 -0.344025
0.258768 0.604286 -0.343099
0.261649 0.600464 -0.341812
0.265372 0.599963 -0.342083
0.269401 0.600580 -0.342881
0.273126 0.600022 -0.343129
0.276944 0.599780 -0.343527
0.281493 0.602075 -0.345126
0.285393 0.602007 -0.345613
0.289324 0.602009 -0.346134
0.293187 0.601748 -0.346533
0.297116 0.601673 -0.347023
0.300666 0.600349 -0.346919
0.304607 0.600265 -0.347408
0.308895 0.601216 -0.348394
0.313291 0.602425 -0.349507
0.317337 0.602511 -0.350086
0.321120 0.601785 -0.350278
0.325586 0.603018 -0.351414
0.329185 0.601715 -0.351333
0.333155 0.601449 -0.351753
0.336834 0.600356 -0.351775
0.340701 0.599769 -0.352044
0.344103 0.597928 -0.351706
0.349212 0.600581 -0.353551
0.353325 0.600544 -0.354095
0.357634 0.600972 -0.354869
0.361550 0.600363 -0.355140
0.365265 0.599241 -0.355163
0.369303 0.598899 -0.355569
0.373828 0.599700 -0.356538
0.377870 0.599298 -0.356922
0.381938 0.598930 -0.357325
0.386178 0.598933 -0.357913
0.390118 0.598214 -0.358150
0.395310 0.600283 -0.359768
0.399304 0.599611 -0.360035
0.403191 0.598685 -0.360179
0.407591 0.598849 -0.360868
