ply
format ascii 1.0
comment ---
element vertex 1771
property float x
property float y
property float z
element face 0
property list uchar uint vertex_indices
end_header
0.569394 0.600363 0.148422
0.575060 0.603486 0.148798
0.579839 0.605236 0.149015
0.582331 0.603663 0.148847
0.583339 0.599999 0.148436
0.584216 0.596192 0.148008
0.585187 0.592557 0.147600
0.586867 0.589930 0.147309
0.591950 0.591920 0.147554
0.595323 0.591556 0.147525
0.599440 0.592160 0.147610
0.602940 0.591920 0.147597
0.602929 0.587110 0.147053
0.603989 0.583753 0.146678
0.613064 0.590644 0.147495
0.616504 0.590294 0.147472
0.623500 0.594382 0.147965
0.626516 0.593471 0.147878
0.630298 0.593518 0.147904
0.629307 0.587783 0.147257
0.631412 0.585884 0.147059
0.636065 0.587072 0.147221
0.644811 0.593090 0.147948
0.645716 0.589852 0.147598
0.650186 0.590836 0.147741
0.061460 0.595220 0.138724
0.061366 0.602270 0.139447
0.063960 0.601584 0.139419
0.066451 0.601280 0.139431
0.068495 0.602424 0.139587
0.070682 0.603236 0.139713
0.073022 0.603657 0.139802
0.075546 0.603563 0.139843
0.077633 0.604956 0.140031
0.080528 0.603755 0.139967
0.083397 0.602644 0.139912
0.086066 0.602222 0.139927
0.088385 0.603037 0.140063
0.090804 0.603550 0.140172
0.093286 0.603868 0.140261
0.095937 0.603582 0.140292
0.098503 0.603608 0.140353
0.100982 0.603966 0.140448
0.103382 0.604644 0.140575
0.106537 0.602302 0.140402
0.108819 0.603430 0.140574
0.110795 0.605861 0.140875
0.113857 0.603729 0.140722
0.116318 0.604099 0.140817
0.118676 0.604914 0.140957
0.121275 0.604630 0.140987
0.123797 0.604656 0.141047
0.126557 0.603502 0.140988
0.128967 0.603970 0.141092
0.131626 0.603159 0.141066
0.134195 0.602735 0.141078
0.136553 0.603357 0.141195
0.138884 0.604114 0.141326
0.141537 0.603061 0.141272
0.143651 0.605005 0.141521
0.146076 0.605169 0.141590
0.148547 0.605013 0.141625
0.150783 0.606281 0.141804
0.154014 0.601109 0.141330
0.155813 0.605157 0.141790
0.158252 0.604991 0.141822
0.160822 0.603827 0.141751
0.163272 0.603419 0.141757
0.165720 0.602941 0.141754
0.168059 0.603252 0.141832
0.170324 0.604157 0.141970
0.172645 0.604608 0.142060
0.175083 0.603984 0.142041
0.177286 0.605473 0.142236
0.179667 0.605304 0.142262
0.182015 0.605410 0.142316
0.184350 0.605622 0.142379
0.186540 0.607472 0.142611
0.188649 0.610461 0.142959
0.191336 0.606377 0.142580
0.193670 0.606524 0.142635
0.196004 0.606663 0.142688
0.198386 0.606027 0.142662
0.200743 0.605659 0.142662
0.203040 0.606301 0.142767
0.205318 0.607408 0.142919
0.207703 0.606336 0.142845
0.210204 0.602171 0.142451
0.212439 0.604215 0.142699
0.214704 0.605918 0.142911
0.217072 0.604331 0.142782
0.219418 0.603058 0.142685
0.221707 0.604325 0.142852
0.224018 0.604771 0.142932
0.226332 0.605400 0.143032
0.228655 0.605212 0.143047
0.230977 0.605152 0.143074
0.233300 0.605331 0.143126
0.235631 0.606009 0.143230
0.237967 0.606559 0.143320
0.240309 0.607099 0.143409
0.242668 0.608075 0.143544
0.245011 0.608138 0.143583
0.247260 0.605305 0.143319
0.249689 0.607872 0.143619
0.252035 0.607874 0.143651
0.254331 0.606799 0.143570
0.256615 0.605624 0.143478
0.258997 0.606342 0.143584
0.261319 0.605935 0.143572
0.263634 0.605438 0.143551
0.266199 0.608518 0.143905
0.268656 0.609735 0.144063
0.270916 0.608319 0.143945
0.273315 0.608674 0.144013
0.275694 0.608725 0.144048
0.278116 0.609193 0.144128
0.280577 0.609987 0.144242
0.282720 0.607608 0.144021
0.285357 0.609959 0.144299
0.287525 0.607943 0.144116
0.290409 0.612126 0.144587
0.292607 0.610371 0.144431
0.294964 0.609959 0.144417
0.297561 0.611370 0.144596
0.300216 0.613076 0.144806
0.302624 0.612897 0.144817
0.304550 0.609412 0.144477
0.307500 0.612897 0.144876
0.309940 0.612870 0.144903
0.312097 0.611054 0.144739
0.313864 0.606971 0.144335
0.316291 0.606964 0.144363
0.318905 0.608000 0.144502
0.321279 0.607624 0.144491
0.323914 0.608661 0.144630
0.326330 0.608461 0.144638
0.328680 0.607913 0.144608
0.330647 0.605452 0.144375
0.334704 0.613304 0.145241
0.336647 0.610669 0.144989
0.339057 0.610317 0.144980
0.341660 0.610839 0.145065
0.344394 0.611897 0.145207
0.346997 0.612322 0.145281
0.349595 0.612681 0.145348
0.352210 0.613080 0.145420
0.354719 0.613008 0.145441
0.357019 0.612078 0.145370
0.359586 0.612213 0.145413
0.361889 0.611307 0.145345
0.364872 0.612988 0.145553
0.368575 0.617268 0.146042
0.371039 0.616844 0.146025
0.373219 0.615399 0.145898
0.376042 0.616251 0.146019
0.377751 0.613198 0.145718
0.380415 0.613479 0.145777
0.382877 0.613054 0.145759
0.385755 0.613990 0.145888
0.388583 0.614716 0.145995
0.391538 0.615799 0.146140
0.393070 0.612379 0.145798
0.396206 0.613982 0.145999
0.400952 0.620398 0.146720
0.403610 0.620363 0.146744
0.405572 0.618264 0.146545
0.406456 0.613090 0.146012
0.409407 0.613941 0.146132
0.413363 0.617569 0.146552
0.416103 0.617705 0.146593
0.417516 0.614194 0.146240
0.419463 0.612197 0.146050
0.423900 0.616842 0.146580
0.426120 0.615535 0.146464
0.427680 0.612542 0.146165
0.431287 0.614815 0.146438
0.434954 0.617156 0.146718
0.434241 0.608561 0.145809
0.436747 0.608041 0.145777
0.439263 0.607533 0.145746
0.442182 0.607977 0.145819
0.444681 0.607396 0.145780
0.447257 0.606985 0.145759
0.449898 0.606710 0.145752
0.451626 0.604351 0.145518
0.456516 0.609092 0.146058
0.461165 0.613159 0.146525
0.464444 0.614113 0.146652
0.466482 0.612345 0.146481
0.468818 0.611226 0.146381
0.470767 0.609293 0.146191
0.472527 0.606983 0.145960
0.475010 0.606187 0.145893
0.479040 0.608519 0.146169
0.482640 0.609906 0.146341
0.484804 0.608383 0.146194
0.487371 0.607654 0.146133
0.490198 0.607416 0.146126
0.492940 0.606990 0.146097
0.496867 0.608786 0.146312
0.501265 0.611393 0.146616
0.503259 0.609454 0.146420
0.504171 0.605542 0.146007
0.507627 0.606292 0.146106
0.512272 0.609122 0.146433
0.516024 0.610274 0.146575
0.518910 0.609846 0.146542
0.519732 0.605809 0.146112
0.522591 0.605319 0.146072
0.526799 0.607092 0.146281
0.531944 0.610364 0.146654
0.535548 0.610968 0.146732
0.537523 0.608841 0.146510
0.540799 0.608837 0.146521
0.544294 0.609145 0.146565
0.546262 0.606974 0.146336
0.549475 0.606773 0.146324
0.555284 0.610583 0.146753
0.555433 0.605537 0.146205
0.558096 0.604396 0.146088
0.561037 0.603658 0.146014
0.564187 0.603208 0.145972
0.566813 0.601951 0.145840
0.568656 0.599533 0.145580
0.576957 0.606493 0.146354
0.580396 0.606291 0.146337
0.583817 0.606031 0.146314
0.587505 0.606116 0.146329
0.586649 0.599835 0.145641
0.588554 0.597454 0.145384
0.595667 0.602192 0.145912
0.599829 0.602821 0.145987
0.598948 0.596665 0.145312
0.602624 0.596639 0.145315
0.604696 0.594489 0.145084
0.607509 0.593322 0.144961
0.613501 0.596247 0.145292
0.616824 0.595704 0.145240
0.622222 0.597778 0.145478
0.624376 0.595758 0.145264
0.632433 0.601074 0.145863
0.628756 0.591920 0.144863
0.630351 0.589340 0.144591
0.633204 0.588333 0.144495
0.642206 0.594688 0.145215
0.649035 0.598385 0.145643
0.652706 0.598344 0.145660
0.645234 0.585401 0.144249
0.059866 0.600266 0.136864
0.061475 0.602360 0.137094
0.063837 0.602361 0.137133
0.066175 0.602520 0.137189
0.069147 0.600818 0.137075
0.070234 0.605031 0.137513
0.072855 0.604578 0.137520
0.075671 0.603548 0.137475
0.077927 0.604377 0.137605
0.080344 0.604749 0.137694
0.083063 0.604155 0.137694
0.085832 0.603401 0.137681
0.088117 0.604353 0.137828
0.090470 0.605117 0.137959
0.093142 0.604762 0.137986
0.095509 0.605539 0.138120
0.097969 0.605995 0.138224
0.100729 0.605311 0.138221
0.103245 0.605552 0.138305
0.105693 0.606066 0.138415
0.109174 0.602343 0.138124
0.110762 0.606372 0.138567
0.114062 0.603220 0.138329
0.116260 0.604728 0.138533
0.118619 0.605550 0.138672
0.121053 0.606029 0.138777
0.123566 0.606122 0.138845
0.126049 0.606327 0.138924
0.128967 0.604358 0.138794
0.131220 0.605605 0.138970
0.133918 0.604563 0.138927
0.136211 0.605577 0.139081
0.138723 0.605401 0.139119
0.141172 0.605521 0.139185
0.143631 0.605540 0.139241
0.146132 0.605267 0.139268
0.148711 0.604448 0.139241
0.151289 0.603533 0.139204
0.153485 0.604990 0.139396
0.155903 0.605013 0.139448
0.158321 0.604978 0.139494
0.160744 0.604854 0.139531
0.163229 0.604221 0.139517
0.165595 0.604401 0.139581
0.167886 0.605145 0.139700
0.170280 0.605042 0.139736
0.172725 0.604444 0.139723
0.174992 0.605352 0.139856
0.177458 0.604415 0.139808
0.179790 0.604664 0.139875
0.182069 0.605441 0.139994
0.184367 0.606056 0.140096
0.186692 0.606374 0.140168
0.188974 0.607204 0.140291
0.191323 0.607226 0.140333
0.193707 0.606741 0.140325
0.196030 0.607032 0.140393
0.198364 0.607148 0.140443
0.200751 0.606361 0.140403
0.203035 0.607282 0.140532
0.205385 0.607005 0.140541
0.207718 0.607027 0.140580
0.210127 0.605149 0.140431
0.212443 0.605316 0.140483
0.214769 0.605197 0.140506
0.217096 0.605000 0.140522
0.219441 0.603862 0.140443
0.221758 0.603696 0.140461
0.224037 0.606297 0.140752
0.226369 0.605479 0.140704
0.228691 0.605389 0.140728
0.231013 0.605571 0.140779
0.233335 0.605377 0.140792
0.235656 0.605182 0.140804
0.238001 0.606692 0.140986
0.240306 0.605338 0.140883
0.242639 0.605654 0.140946
0.244964 0.605506 0.140962
0.247315 0.606154 0.141057
0.249659 0.606397 0.141112
0.252014 0.606821 0.141184
0.254280 0.605230 0.141055
0.256637 0.605619 0.141123
0.258999 0.606021 0.141193
0.261276 0.604925 0.141113
0.263613 0.604846 0.141134
0.266059 0.606299 0.141308
0.268385 0.605934 0.141300
0.270797 0.606657 0.141402
0.273302 0.608361 0.141602
0.275739 0.609103 0.141705
0.277770 0.605411 0.141362
0.280279 0.606881 0.141538
0.282704 0.607381 0.141616
0.285028 0.606869 0.141592
0.287283 0.605758 0.141508
0.289610 0.605323 0.141492
0.292331 0.608105 0.141800
0.294637 0.607393 0.141755
0.297008 0.607195 0.141763
0.299490 0.607790 0.141850
0.301904 0.607845 0.141883
0.304236 0.607304 0.141856
0.306575 0.606823 0.141834
0.309031 0.607097 0.141889
0.311531 0.607598 0.141967
0.313920 0.607378 0.141971
0.316406 0.607714 0.142032
0.318742 0.607152 0.142002
0.321148 0.606990 0.142012
0.323669 0.607428 0.142083
0.326307 0.608441 0.142213
0.328911 0.609208 0.142318
0.331152 0.608090 0.142231
0.333337 0.606731 0.142119
0.335765 0.606578 0.142129
0.338803 0.609257 0.142429
0.340789 0.606995 0.142225
0.343567 0.608343 0.142389
0.346087 0.608485 0.142429
0.348575 0.608464 0.142454
0.350602 0.606495 0.142278
0.353088 0.606470 0.142302
0.355646 0.606710 0.142352
0.358254 0.607123 0.142421
0.360975 0.607935 0.142530
0.363199 0.606810 0.142440
0.365279 0.605175 0.142298
0.368033 0.606037 0.142412
0.370648 0.606354 0.142470
0.373106 0.606087 0.142468
0.375506 0.605607 0.142444
0.378070 0.605684 0.142478
0.380508 0.605317 0.142465
0.382966 0.605008 0.142458
0.385761 0.605779 0.142562
0.388552 0.606491 0.142660
0.391322 0.607100 0.142748
0.394139 0.607812 0.142846
0.396915 0.608356 0.142926
0.399239 0.607517 0.142864
0.401901 0.607674 0.142905
0.404378 0.607273 0.142887
0.406983 0.607228 0.142906
0.409708 0.607502 0.142958
0.412282 0.607330 0.142964
0.414678 0.606653 0.142917
0.417323 0.606648 0.142939
0.420088 0.606937 0.142992
0.422829 0.607137 0.143035
0.425641 0.607492 0.143095
0.429405 0.610237 0.143401
0.431764 0.609361 0.143332
0.434202 0.608679 0.143283
0.436565 0.607809 0.143214
0.439421 0.608129 0.143268
0.442032 0.607836 0.143259
0.444744 0.607761 0.143271
0.447382 0.607495 0.143264
0.450262 0.607764 0.143312
0.451773 0.604903 0.143033
0.455662 0.607404 0.143312
0.458283 0.607019 0.143291
0.461314 0.607510 0.143361
0.464182 0.607613 0.143389
0.466819 0.607196 0.143363
0.469915 0.607726 0.143435
0.472206 0.606542 0.143329
0.474647 0.605667 0.143254
0.478881 0.608424 0.143557
0.481088 0.607019 0.143426
0.483603 0.606229 0.143358
0.487338 0.607820 0.143538
0.489658 0.606598 0.143425
0.493027 0.607386 0.143520
0.496087 0.607538 0.143549
0.499299 0.607941 0.143603
0.502102 0.607542 0.143573
0.504502 0.606379 0.143463
0.506893 0.605193 0.143349
0.513472 0.611510 0.144020
0.514539 0.607876 0.143649
0.516837 0.606445 0.143508
0.519629 0.605865 0.143456
0.522651 0.605657 0.143441
0.525819 0.605663 0.143449
0.531853 0.610449 0.143956
0.534079 0.608765 0.143786
0.535659 0.606013 0.143502
0.539185 0.606448 0.143552
0.545466 0.611273 0.144061
0.546337 0.607335 0.143652
0.548238 0.605061 0.143416
0.553124 0.607455 0.143669
0.555310 0.605589 0.143474
0.557717 0.604059 0.143314
0.560920 0.603723 0.143279
0.563906 0.603030 0.143206
0.567141 0.602680 0.143168
0.569200 0.600573 0.142946
0.576493 0.606067 0.143519
0.578600 0.603962 0.143296
0.582709 0.604706 0.143372
0.588526 0.607803 0.143693
0.586876 0.600402 0.142914
0.589443 0.598930 0.142757
0.600356 0.608848 0.143792
0.603073 0.607462 0.143644
0.602769 0.602035 0.143072
0.605883 0.601215 0.142983
0.609192 0.600644 0.142920
0.613254 0.601044 0.142960
0.617060 0.601090 0.142964
0.620796 0.601033 0.142957
0.623952 0.600235 0.142874
0.631098 0.604432 0.143315
0.634039 0.603346 0.143204
0.635556 0.600538 0.142915
0.638746 0.599821 0.142846
0.641940 0.599134 0.142782
0.648016 0.601915 0.143083
0.652615 0.602921 0.143200
0.652267 0.598140 0.142714
0.650050 0.591301 0.142013
0.059311 0.602294 0.134694
0.061546 0.602561 0.134753
0.063864 0.602682 0.134801
0.066356 0.602369 0.134815
0.067947 0.604903 0.135083
0.070339 0.605090 0.135146
0.072689 0.605491 0.135231
0.075594 0.604177 0.135166
0.078060 0.604316 0.135232
0.080381 0.604996 0.135347
0.082970 0.604837 0.135390
0.085654 0.604381 0.135408
0.088414 0.603670 0.135405
0.090463 0.605502 0.135629
0.092996 0.605652 0.135704
0.095509 0.605894 0.135788
0.098015 0.606177 0.135876
0.101061 0.604385 0.135779
0.103362 0.605446 0.135937
0.105899 0.605591 0.136014
0.108412 0.605825 0.136098
0.110895 0.606169 0.136192
0.113427 0.606301 0.136267
0.115824 0.606996 0.136393
0.118315 0.607272 0.136480
0.120830 0.607415 0.136555
0.123478 0.606904 0.136570
0.126260 0.605684 0.136519
0.128676 0.606163 0.136623
0.131184 0.606164 0.136682
0.133453 0.607357 0.136849
0.136250 0.605756 0.136760
0.138735 0.605728 0.136815
0.141137 0.606113 0.136906
0.143570 0.606293 0.136978
0.146219 0.605156 0.136928
0.148333 0.607170 0.137166
0.151368 0.603454 0.136877
0.153656 0.604310 0.137007
0.155977 0.604950 0.137117
0.158368 0.605095 0.137181
0.160742 0.605322 0.137251
0.163134 0.605384 0.137305
0.165494 0.605651 0.137378
0.167843 0.605967 0.137454
0.170380 0.604705 0.137383
0.172647 0.605625 0.137514
0.175049 0.605358 0.137534
0.177488 0.604666 0.137513
0.179736 0.605751 0.137657
0.182056 0.606150 0.137737
0.184383 0.606470 0.137809
0.186746 0.606370 0.137841
0.188994 0.607598 0.137996
0.191421 0.606637 0.137946
0.193757 0.606744 0.137996
0.196102 0.606705 0.138031
0.198371 0.607803 0.138172
0.200850 0.605490 0.137992
0.203121 0.606554 0.138129
0.205443 0.606773 0.138187
0.207835 0.605426 0.138096
0.210153 0.605576 0.138145
0.212436 0.606711 0.138287
0.214785 0.606035 0.138258
0.217115 0.605781 0.138268
0.219438 0.605772 0.138300
0.221757 0.605936 0.138349
0.224062 0.607260 0.138507
0.226393 0.606954 0.138510
0.228722 0.606446 0.138494
0.231047 0.605873 0.138471
0.233368 0.605532 0.138470
0.235692 0.605613 0.138509
0.238010 0.605239 0.138503
0.240362 0.606726 0.138675
0.242643 0.604629 0.138505
0.244995 0.605650 0.138632
0.247334 0.605943 0.138689
0.249650 0.605505 0.138676
0.251960 0.604991 0.138656
0.254344 0.606106 0.138791
0.256676 0.605976 0.138806
0.259015 0.605942 0.138831
0.261341 0.605673 0.138833
0.263808 0.607535 0.139038
0.266071 0.606246 0.138942
0.268407 0.606033 0.138949
0.270746 0.605851 0.138959
0.273139 0.606303 0.139029
0.275619 0.607637 0.139183
0.277997 0.607725 0.139218
0.280432 0.608352 0.139305
0.282803 0.608266 0.139323
0.285068 0.607190 0.139245
0.287339 0.606220 0.139178
0.289871 0.607513 0.139328
0.292350 0.608249 0.139424
0.294692 0.607822 0.139409
0.297022 0.607308 0.139385
0.299553 0.608271 0.139503
0.301968 0.608327 0.139534
0.304463 0.608899 0.139614
0.306878 0.608878 0.139637
0.309240 0.608492 0.139625
0.311600 0.608090 0.139611
0.314086 0.608449 0.139671
0.316365 0.607552 0.139609
0.318776 0.607433 0.139622
0.321133 0.606997 0.139604
0.323615 0.607233 0.139652
0.326102 0.607463 0.139699
0.328839 0.608940 0.139866
0.331316 0.609024 0.139899
0.333520 0.607744 0.139799
0.335736 0.606562 0.139708
0.338192 0.606529 0.139729
0.340960 0.607903 0.139887
0.343421 0.607824 0.139903
0.345969 0.608106 0.139954
0.348322 0.607526 0.139922
0.350660 0.606883 0.139883
0.353016 0.606321 0.139852
0.355638 0.606831 0.139925
0.358343 0.607626 0.140026
0.360856 0.607632 0.140050
0.363429 0.607843 0.140094
0.365799 0.607270 0.140061
0.368366 0.607419 0.140099
0.370717 0.606769 0.140059
0.373144 0.606391 0.140044
0.375830 0.606902 0.140117
0.378086 0.605914 0.140043
0.380516 0.605519 0.140027
0.383309 0.606314 0.140127
0.386444 0.608171 0.140331
0.388843 0.607603 0.140298
0.391288 0.607178 0.140278
0.393958 0.607442 0.140326
0.396632 0.607689 0.140372
0.399450 0.608338 0.140457
0.401939 0.607982 0.140443
0.404469 0.607732 0.140439
0.407168 0.607953 0.140482
0.409726 0.607751 0.140483
0.412347 0.607710 0.140499
0.415056 0.607888 0.140537
0.417226 0.606588 0.140429
0.420018 0.606955 0.140484
0.422785 0.607227 0.140530
0.425771 0.608034 0.140629
0.428633 0.608480 0.140692
0.431447 0.608775 0.140739
0.433744 0.607756 0.140657
0.436534 0.607944 0.140693
0.439183 0.607767 0.140693
0.441791 0.607474 0.140681
0.444623 0.607691 0.140719
0.447480 0.607936 0.140760
0.449994 0.607365 0.140719
0.452541 0.606857 0.140685
0.455026 0.606198 0.140634
0.457624 0.605779 0.140607
0.459805 0.604436 0.140489
0.463331 0.605999 0.140657
0.465989 0.605647 0.140635
0.469492 0.607057 0.140788
0.472004 0.606343 0.140729
0.474370 0.605319 0.140639
0.476866 0.604553 0.140574
0.480489 0.606040 0.140733
0.483172 0.605596 0.140698
0.486148 0.605708 0.140719
0.488843 0.605242 0.140681
0.491589 0.604854 0.140651
0.494740 0.605210 0.140694
0.497824 0.605399 0.140720
0.500934 0.605601 0.140746
0.503681 0.605101 0.140702
0.506197 0.604157 0.140613
0.509499 0.604609 0.140662
0.512393 0.604295 0.140634
0.516628 0.606305 0.140837
0.518481 0.604100 0.140620
0.521115 0.603247 0.140536
0.525267 0.604955 0.140707
0.527544 0.603436 0.140555
0.530364 0.602816 0.140493
0.534751 0.604749 0.140683
0.537186 0.603424 0.140549
0.539764 0.602318 0.140436
0.542597 0.601603 0.140361
0.547335 0.603869 0.140581
0.550867 0.604164 0.140605
0.554445 0.604486 0.140630
0.557517 0.603986 0.140574
0.560850 0.603851 0.140552
0.563774 0.603068 0.140466
0.566363 0.601762 0.140328
0.570376 0.602534 0.140395
0.573293 0.601660 0.140298
0.576553 0.601259 0.140247
0.579968 0.601049 0.140215
0.583429 0.600873 0.140186
0.586918 0.600703 0.140157
0.590235 0.600266 0.140102
0.593495 0.599730 0.140037
0.596945 0.599430 0.139995
0.600641 0.599437 0.139984
0.604270 0.599330 0.139962
0.610402 0.602489 0.140263
0.613536 0.601670 0.140171
0.616893 0.601137 0.140108
0.619889 0.600142 0.140001
0.622662 0.598876 0.139868
0.626926 0.599493 0.139922
0.631003 0.599867 0.139954
0.633555 0.598366 0.139802
0.636550 0.597438 0.139709
0.640609 0.597823 0.139747
0.642752 0.595931 0.139563
0.649555 0.599605 0.139931
0.652003 0.598136 0.139794
0.653166 0.595230 0.139517
0.060430 0.599447 0.132102
0.061810 0.602185 0.132364
0.063700 0.603571 0.132517
0.066826 0.601332 0.132371
0.069471 0.600592 0.132353
0.070708 0.604316 0.132711
0.073175 0.604319 0.132761
0.075466 0.604959 0.132866
0.077917 0.605149 0.132936
0.080487 0.605004 0.132981
0.082981 0.605155 0.133052
0.086036 0.603411 0.132964
0.088242 0.604622 0.133128
0.090629 0.605253 0.133243
0.093176 0.605339 0.133313
0.095718 0.605458 0.133388
0.098033 0.606449 0.133536
0.100746 0.605937 0.133558
0.103431 0.605510 0.133587
0.105833 0.606193 0.133710
0.108555 0.605575 0.133723
0.110896 0.606506 0.133867
0.113302 0.607174 0.133989
0.115711 0.607834 0.134111
0.118588 0.606390 0.134051
0.121010 0.606935 0.134161
0.123539 0.606966 0.134227
0.125955 0.607503 0.134335
0.128609 0.606850 0.134340
0.131087 0.607011 0.134415
0.133623 0.606835 0.134460
0.135954 0.607696 0.134593
0.138823 0.605616 0.134471
0.141158 0.606372 0.134594
0.143519 0.606970 0.134702
0.146164 0.605870 0.134662
0.148696 0.605344 0.134671
0.151275 0.604442 0.134645
0.153727 0.604254 0.134681
0.156064 0.604783 0.134779
0.158427 0.605107 0.134859
0.160807 0.605288 0.134925
0.163174 0.605534 0.134995
0.165586 0.605396 0.135031
0.167838 0.606477 0.135174
0.170167 0.606950 0.135262
0.172924 0.603710 0.135022
0.175045 0.605891 0.135260
0.177354 0.606450 0.135354
0.179689 0.606749 0.135423
0.182031 0.606957 0.135485
0.184325 0.607674 0.135590
0.186670 0.607828 0.135645
0.189154 0.606273 0.135547
0.191566 0.605410 0.135510
0.193853 0.606104 0.135611
0.196157 0.606605 0.135694
0.198512 0.606345 0.135709
0.200874 0.605875 0.135704
0.203220 0.605572 0.135713
0.205512 0.606275 0.135812
0.207872 0.605576 0.135785
0.210201 0.605443 0.135808
0.212460 0.607180 0.135997
0.214796 0.606977 0.136013
0.217124 0.606915 0.136041
0.219444 0.607231 0.136102
0.221810 0.605047 0.135938
0.224097 0.607370 0.136178
0.226421 0.607808 0.136249
0.228758 0.605911 0.136109
0.231080 0.606004 0.136148
0.233404 0.606082 0.136185
0.235722 0.605501 0.136162
0.238051 0.605993 0.136236
0.240377 0.606012 0.136266
0.242705 0.606041 0.136297
0.244997 0.604782 0.136212
0.247346 0.605521 0.136306
0.249725 0.606830 0.136452
0.252057 0.606727 0.136470
0.254356 0.605882 0.136421
0.256690 0.605841 0.136444
0.259040 0.606048 0.136489
0.261426 0.606762 0.136580
0.263817 0.607422 0.136666
0.266188 0.607677 0.136715
0.268586 0.608218 0.136789
0.270822 0.606638 0.136671
0.273244 0.607393 0.136765
0.275652 0.607887 0.136835
0.278106 0.608787 0.136941
0.280430 0.608250 0.136917
0.282806 0.608229 0.136939
0.285203 0.608379 0.136977
0.287478 0.607411 0.136913
0.289943 0.608100 0.137000
0.292394 0.608594 0.137069
0.294771 0.608446 0.137079
0.297128 0.608124 0.137073
0.299526 0.608096 0.137094
0.302040 0.608869 0.137188
0.304417 0.608626 0.137189
0.306807 0.608453 0.137196
0.309308 0.608986 0.137268
0.311705 0.608811 0.137275
0.313989 0.607934 0.137217
0.316473 0.608261 0.137270
0.318819 0.607762 0.137247
0.321285 0.607929 0.137284
0.323676 0.607658 0.137282
0.326232 0.608248 0.137358
0.328884 0.609280 0.137476
0.331250 0.608805 0.137454
0.333502 0.607771 0.137381
0.335829 0.607124 0.137343
0.338560 0.608370 0.137480
0.341153 0.608911 0.137552
0.343378 0.607764 0.137468
0.345773 0.607386 0.137454
0.348263 0.607412 0.137478
0.350650 0.606984 0.137460
0.353052 0.606614 0.137447
0.355640 0.606988 0.137503
0.358530 0.608517 0.137665
0.361071 0.608620 0.137696
0.363274 0.607413 0.137605
0.365856 0.607646 0.137647
0.368396 0.607696 0.137673
0.371069 0.608200 0.137740
0.373533 0.607930 0.137735
0.375825 0.607057 0.137674
0.378257 0.606668 0.137658
0.380803 0.606658 0.137677
0.383622 0.607524 0.137777
0.386337 0.608006 0.137842
0.388907 0.607991 0.137860
0.391214 0.607132 0.137799
0.393797 0.607133 0.137818
0.396881 0.608633 0.137976
0.399326 0.608159 0.137951
0.402012 0.608388 0.137991
0.404656 0.608469 0.138016
0.407147 0.608089 0.137998
0.409706 0.607892 0.137998
0.412286 0.607739 0.138001
0.415145 0.608331 0.138073
0.417822 0.608393 0.138095
0.420088 0.607343 0.138014
0.422900 0.607730 0.138066
0.425738 0.608152 0.138121
0.428221 0.607638 0.138088
0.431087 0.608076 0.138144
0.433961 0.608500 0.138199
0.436234 0.607420 0.138112
0.438864 0.607207 0.138106
0.441476 0.606934 0.138093
0.443976 0.606379 0.138054
0.447118 0.607307 0.138154
0.449981 0.607546 0.138188
0.452464 0.606895 0.138139
0.455256 0.606927 0.138153
0.457967 0.606752 0.138147
0.460333 0.605803 0.138068
0.463976 0.607605 0.138247
0.466968 0.607950 0.138288
0.469517 0.607325 0.138238
0.472106 0.606772 0.138194
0.474321 0.605434 0.138075
0.477197 0.605443 0.138082
0.480255 0.605787 0.138120
0.483200 0.605870 0.138133
0.486064 0.605762 0.138128
0.488913 0.605596 0.138116
0.493492 0.608724 0.138414
0.495071 0.606057 0.138165
0.497572 0.605147 0.138081
0.500299 0.604644 0.138034
0.503245 0.604520 0.138023
0.506301 0.604567 0.138027
0.510759 0.607093 0.138263
0.513764 0.606950 0.138247
0.515700 0.604896 0.138051
0.518595 0.604518 0.138011
0.521778 0.604607 0.138014
0.525194 0.605052 0.138050
0.527935 0.604315 0.137974
0.530895 0.603922 0.137930
0.533900 0.603572 0.137888
0.537444 0.604068 0.137926
0.540251 0.603326 0.137846
0.543028 0.602514 0.137758
0.548790 0.606390 0.138111
0.550935 0.604497 0.137920
0.553862 0.603810 0.137841
0.557009 0.603434 0.137791
0.560143 0.603008 0.137736
0.563554 0.602965 0.137716
0.566653 0.602420 0.137648
0.569575 0.601588 0.137552
0.573182 0.601729 0.137547
0.576449 0.601341 0.137491
0.579857 0.601123 0.137451
0.582872 0.600321 0.137356
0.587385 0.601589 0.137455
0.591499 0.602248 0.137496
0.594123 0.600826 0.137342
0.598827 0.602216 0.137451
0.601616 0.600986 0.137316
0.605199 0.600808 0.137278
0.610405 0.602742 0.137439
0.613651 0.602071 0.137357
0.616542 0.600941 0.137233
0.619536 0.599951 0.137123
0.622917 0.599461 0.137061
0.627955 0.601046 0.137194
0.630603 0.599642 0.137050
0.633160 0.598155 0.136900
0.636304 0.597418 0.136823
0.639053 0.596232 0.136706
0.645670 0.599704 0.137024
0.648818 0.599030 0.136960
0.651842 0.598248 0.136889
0.653595 0.596034 0.136688
0.059669 0.602071 0.129969
0.061364 0.603904 0.130146
0.064259 0.602289 0.130056
0.066942 0.601363 0.130024
0.068479 0.604031 0.130277
0.071611 0.601863 0.130153
0.073535 0.603541 0.130335
0.075766 0.604349 0.130451
0.078251 0.604408 0.130511
0.080560 0.605108 0.130624
0.083122 0.605021 0.130676
0.085844 0.604412 0.130688
0.088264 0.604877 0.130788
0.090739 0.605190 0.130876
0.093327 0.605117 0.130935
0.095536 0.606462 0.131108
0.097682 0.608105 0.131306
0.100602 0.606818 0.131270
0.103048 0.607346 0.131380
0.105715 0.606989 0.131418
0.108208 0.607321 0.131512
0.111028 0.606272 0.131495
0.113326 0.607397 0.131652
0.116095 0.606475 0.131644
0.118279 0.608103 0.131842
0.121149 0.606625 0.131787
0.123634 0.606851 0.131870
0.125914 0.608035 0.132030
0.128520 0.607625 0.132060
0.131081 0.607384 0.132103
0.133721 0.606671 0.132106
0.136257 0.606431 0.132147
0.138831 0.605925 0.132164
0.141184 0.606586 0.132277
0.143490 0.607507 0.132411
0.146135 0.606411 0.132377
0.148755 0.605357 0.132346
0.151255 0.604949 0.132367
0.153640 0.605210 0.132442
0.155831 0.606743 0.132622
0.158551 0.604655 0.132500
0.160910 0.604968 0.132577
0.163489 0.603609 0.132513
0.165715 0.604828 0.132663
0.168199 0.604026 0.132644
0.170161 0.607457 0.132978
0.172935 0.604080 0.132742
0.175083 0.606028 0.132950
0.177395 0.606562 0.133039
0.179761 0.606549 0.133082
0.182105 0.606721 0.133139
0.184403 0.607372 0.133235
0.186851 0.606315 0.133188
0.189205 0.606238 0.133222
0.191536 0.606408 0.133275
0.193892 0.606216 0.133298
0.196200 0.606656 0.133373
0.198577 0.606032 0.133358
0.200891 0.606340 0.133421
0.203221 0.606357 0.133458
0.205556 0.606257 0.133485
0.207886 0.606179 0.133513
0.210203 0.606409 0.133567
0.212504 0.607075 0.133657
0.214822 0.607384 0.133716
0.217143 0.607659 0.133772
0.219471 0.607698 0.133807
0.221849 0.604855 0.133596
0.224133 0.607277 0.133834
0.226458 0.607527 0.133885
0.228777 0.609889 0.134117
0.231112 0.605527 0.133774
0.233434 0.606009 0.133844
0.235762 0.606539 0.133917
0.238073 0.605530 0.133859
0.240407 0.606104 0.133936
0.242719 0.605519 0.133913
0.245037 0.605287 0.133920
0.247383 0.605911 0.134000
0.249720 0.606085 0.134041
0.252008 0.605066 0.133979
0.254337 0.605035 0.134002
0.256681 0.605280 0.134048
0.259077 0.606370 0.134167
0.261452 0.606901 0.134237
0.263831 0.607376 0.134302
0.266173 0.607247 0.134315
0.268556 0.607630 0.134372
0.270860 0.606956 0.134338
0.273275 0.607628 0.134419
0.275700 0.608308 0.134501
0.278069 0.608294 0.134523
0.280389 0.607755 0.134499
0.282791 0.608026 0.134545
0.285217 0.608469 0.134606
0.287582 0.608299 0.134613
0.289941 0.608069 0.134615
0.292383 0.608502 0.134675
0.294768 0.608424 0.134690
0.297130 0.608152 0.134688
0.299595 0.608626 0.134750
0.302003 0.608638 0.134773
0.304371 0.608349 0.134769
0.306810 0.608522 0.134805
0.309260 0.608733 0.134844
0.311632 0.608417 0.134837
0.314044 0.608342 0.134852
0.316726 0.609823 0.135001
0.318994 0.608845 0.134937
0.321257 0.607861 0.134871
0.323819 0.608525 0.134949
0.326297 0.608690 0.134984
0.328670 0.608283 0.134968
0.331331 0.609321 0.135079
0.333550 0.608123 0.134994
0.336157 0.608811 0.135074
0.338439 0.607931 0.135017
0.341332 0.609856 0.135205
0.343581 0.608801 0.135132
0.345740 0.607380 0.135026
0.348254 0.607512 0.135057
0.350643 0.607098 0.135040
0.353077 0.606865 0.135038
0.355986 0.608530 0.135203
0.358634 0.609079 0.135270
0.360979 0.608419 0.135231
0.363358 0.607892 0.135203
0.365750 0.607413 0.135179
0.368474 0.608142 0.135261
0.371013 0.608164 0.135281
0.373490 0.607947 0.135280
0.375751 0.606971 0.135211
0.378380 0.607260 0.135254
0.381045 0.607642 0.135305
0.383549 0.607460 0.135306
0.386053 0.607267 0.135306
0.388508 0.606902 0.135290
0.391232 0.607373 0.135348
0.393526 0.606482 0.135285
0.396546 0.607802 0.135418
0.399250 0.608120 0.135462
0.402260 0.609307 0.135582
0.404727 0.608867 0.135558
0.407053 0.608015 0.135498
0.409462 0.607400 0.135458
0.412327 0.608049 0.135529
0.415207 0.608696 0.135601
0.417679 0.608208 0.135571
0.420396 0.608361 0.135598
0.422992 0.608173 0.135594
0.425571 0.607922 0.135584
0.428327 0.608110 0.135613
0.430838 0.607652 0.135584
0.433642 0.607913 0.135618
0.436238 0.607634 0.135604
0.438656 0.606910 0.135550
0.441216 0.606521 0.135525
0.443816 0.606210 0.135507
0.447281 0.607895 0.135665
0.449788 0.607314 0.135622
0.452494 0.607173 0.135617
0.455378 0.607410 0.135645
0.458372 0.607858 0.135691
0.461149 0.607795 0.135692
0.464131 0.608152 0.135729
0.466629 0.607440 0.135670
0.469876 0.608296 0.135750
0.472100 0.606973 0.135636
0.474844 0.606722 0.135616
0.477718 0.606714 0.135617
0.480310 0.606111 0.135565
0.483068 0.605821 0.135540
0.486268 0.606376 0.135588
0.489100 0.606174 0.135569
0.492452 0.606943 0.135636
0.495249 0.606609 0.135603
0.497757 0.605708 0.135519
0.500459 0.605155 0.135466
0.503328 0.604888 0.135437
0.506449 0.605049 0.135445
0.510409 0.606681 0.135582
0.513556 0.606796 0.135584
0.516174 0.605945 0.135500
0.518939 0.605333 0.135435
0.522072 0.605328 0.135424
0.525283 0.605419 0.135420
0.528143 0.604882 0.135359
0.530597 0.603641 0.135235
0.532948 0.602219 0.135093
0.538045 0.605264 0.135347
0.540862 0.604529 0.135265
0.544717 0.605425 0.135326
0.547714 0.604910 0.135261
0.551033 0.604867 0.135237
0.553741 0.603841 0.135125
0.556683 0.603154 0.135042
0.559978 0.602977 0.135003
0.563653 0.603333 0.135010
0.566966 0.603105 0.134965
0.569899 0.602283 0.134867
0.573044 0.601749 0.134793
0.577257 0.602725 0.134852
0.580341 0.602035 0.134763
0.585042 0.603604 0.134873
0.588506 0.603379 0.134824
0.591096 0.601921 0.134667
0.594399 0.601434 0.134594
0.598176 0.601568 0.134577
0.601772 0.601430 0.134535
0.604952 0.600719 0.134444
0.609095 0.601264 0.134463
0.613762 0.602461 0.134540
0.616632 0.601305 0.134412
0.619597 0.600281 0.134296
0.623477 0.600423 0.134284
0.627349 0.600550 0.134272
0.629779 0.598885 0.134106
0.634616 0.600212 0.134203
0.638915 0.600870 0.134244
0.643034 0.601311 0.134268
0.645867 0.600226 0.134162
0.649079 0.599631 0.134102
0.651818 0.598520 0.134001
0.657362 0.600721 0.134192
0.058649 0.605449 0.127870
0.061671 0.603393 0.127750
0.064113 0.603115 0.127766
0.066150 0.604152 0.127882
0.069163 0.602291 0.127788
0.071420 0.602824 0.127874
0.073669 0.603472 0.127972
0.075977 0.604016 0.128065
0.078415 0.604213 0.128135
0.080920 0.604244 0.128195
0.083381 0.604472 0.128272
0.085797 0.604901 0.128366
0.088279 0.605149 0.128449
0.090781 0.605358 0.128529
0.093158 0.606048 0.128647
0.095340 0.607505 0.128824
0.098219 0.606380 0.128808
0.100140 0.608916 0.129068
0.102874 0.608338 0.129093
0.105609 0.607723 0.129116
0.108313 0.607198 0.129145
0.110973 0.606810 0.129184
0.113529 0.606832 0.129254
0.115891 0.607676 0.129387
0.118576 0.607078 0.129409
0.121165 0.606861 0.129459
0.123742 0.606653 0.129510
0.126421 0.605907 0.129518
0.128717 0.606973 0.129664
0.131301 0.606593 0.129699
0.133740 0.606900 0.129785
0.136622 0.604815 0.129686
0.138870 0.606045 0.129842
0.141222 0.606711 0.129954
0.143796 0.606081 0.129963
0.146283 0.605881 0.130006
0.148775 0.605593 0.130040
0.151238 0.605419 0.130082
0.153653 0.605494 0.130142
0.155757 0.607620 0.130362
0.158716 0.603889 0.130122
0.161074 0.604178 0.130196
0.163076 0.607091 0.130476
0.165770 0.604815 0.130346
0.168491 0.602105 0.130181
0.170345 0.606362 0.130564
0.172756 0.606080 0.130588
0.175302 0.604510 0.130510
0.177488 0.606148 0.130684
0.179863 0.606026 0.130718
0.182234 0.605893 0.130750
0.184539 0.606407 0.130833
0.186769 0.607810 0.130985
0.189206 0.606802 0.130946
0.191593 0.606262 0.130942
0.193893 0.606817 0.131025
0.196261 0.606411 0.131030
0.198576 0.606731 0.131093
0.200954 0.605992 0.131070
0.203261 0.606404 0.131139
0.205582 0.606550 0.131185
0.207903 0.606710 0.131232
0.210238 0.606517 0.131250
0.212553 0.606797 0.131305
0.214856 0.607513 0.131395
0.217175 0.607830 0.131452
0.219512 0.607484 0.131456
0.221847 0.606964 0.131444
0.224173 0.606845 0.131464
0.226492 0.607390 0.131538
0.228824 0.605833 0.131441
0.231143 0.605097 0.131410
0.233468 0.606655 0.131563
0.235797 0.607102 0.131627
0.238115 0.606415 0.131598
0.240425 0.605669 0.131564
0.242766 0.606389 0.131648
0.245117 0.607206 0.131740
0.247410 0.605987 0.131666
0.249742 0.606074 0.131698
0.252102 0.606744 0.131777
0.254392 0.605777 0.131722
0.256784 0.606892 0.131837
0.259118 0.606761 0.131850
0.261390 0.605617 0.131779
0.263809 0.606811 0.131899
0.266188 0.607248 0.131958
0.268509 0.606832 0.131946
0.270863 0.606839 0.131968
0.273242 0.607107 0.132012
0.275651 0.607648 0.132078
0.278078 0.608302 0.132152
0.280385 0.607644 0.132119
0.282722 0.607307 0.132113
0.285235 0.608594 0.132239
0.287619 0.608597 0.132259
0.289978 0.608367 0.132261
0.292376 0.608436 0.132286
0.294762 0.608380 0.132301
0.297066 0.607685 0.132264
0.299608 0.608745 0.132371
0.302019 0.608788 0.132394
0.304403 0.608608 0.132398
0.306803 0.608527 0.132410
0.309257 0.608769 0.132449
0.311621 0.608413 0.132439
0.313958 0.607891 0.132414
0.316682 0.609648 0.132577
0.319003 0.608979 0.132541
0.321108 0.607125 0.132406
0.323814 0.608593 0.132545
0.326271 0.608655 0.132568
0.328732 0.608711 0.132591
0.331154 0.608544 0.132595
0.333622 0.608588 0.132616
0.335994 0.608153 0.132597
0.338614 0.608874 0.132674
0.341015 0.608539 0.132664
0.343428 0.608250 0.132657
0.345885 0.608147 0.132665
0.348186 0.607362 0.132617
0.350542 0.606819 0.132589
0.353136 0.607254 0.132641
0.355680 0.607447 0.132674
0.358380 0.608232 0.132755
0.360879 0.608188 0.132767
0.363320 0.607903 0.132760
0.365933 0.608253 0.132805
0.368388 0.607991 0.132798
0.370931 0.608037 0.132818
0.373163 0.606964 0.132744
0.375778 0.607233 0.132781
0.378440 0.607638 0.132829
0.380971 0.607567 0.132838
0.383640 0.607936 0.132883
0.386076 0.607518 0.132862
0.388672 0.607605 0.132883
0.391083 0.607087 0.132854
0.393962 0.608010 0.132944
0.396484 0.607801 0.132940
0.398996 0.607547 0.132931
0.401567 0.607458 0.132936
0.404937 0.609664 0.133133
0.407123 0.608405 0.133039
0.409541 0.607814 0.133001
0.412216 0.607934 0.133022
0.414876 0.607987 0.133038
0.417633 0.608279 0.133072
0.420168 0.607951 0.133055
0.422926 0.608199 0.133085
0.425626 0.608264 0.133100
0.428101 0.607734 0.133064
0.430842 0.607863 0.133083
0.433476 0.607704 0.133077
0.436015 0.607290 0.133050
0.438557 0.606873 0.133021
0.441167 0.606605 0.133005
0.443940 0.606706 0.133019
0.446796 0.606972 0.133046
0.449746 0.607423 0.133088
0.452457 0.607294 0.133081
0.455364 0.607584 0.133109
0.458353 0.608024 0.133148
0.461282 0.608295 0.133172
0.463882 0.607823 0.133134
0.466508 0.607388 0.133098
0.469341 0.607376 0.133097
0.472285 0.607567 0.133111
0.474624 0.606477 0.133018
0.477702 0.606890 0.133050
0.480306 0.606312 0.132998
0.483065 0.606024 0.132970
0.486057 0.606172 0.132977
0.489284 0.606740 0.133018
0.492262 0.606787 0.133015
0.495155 0.606640 0.132995
0.497994 0.606363 0.132962
0.500808 0.606012 0.132923
0.503389 0.605209 0.132845
0.506223 0.604849 0.132803
0.509945 0.606056 0.132891
0.512684 0.605456 0.132827
0.516207 0.606214 0.132875
0.519068 0.605766 0.132821
0.521523 0.604592 0.132706
0.525029 0.605197 0.132738
0.527895 0.604673 0.132675
0.530496 0.603682 0.132571
0.533306 0.603017 0.132494
0.537549 0.604665 0.132608
0.541113 0.605142 0.132624
0.544108 0.604663 0.132558
0.547552 0.604864 0.132549
0.550602 0.604403 0.132483
0.553754 0.604071 0.132426
0.556986 0.603829 0.132376
0.560454 0.603909 0.132352
0.563631 0.603511 0.132287
0.566877 0.603185 0.132227
0.570127 0.602832 0.132164
0.573872 0.603167 0.132157
0.577576 0.603399 0.132141
0.580737 0.602817 0.132056
0.585083 0.603880 0.132107
0.587958 0.602835 0.131983
0.590518 0.601344 0.131823
0.593843 0.600896 0.131748
0.597903 0.601424 0.131754
0.601103 0.600762 0.131662
0.605942 0.602263 0.131747
0.610085 0.602799 0.131754
0.613855 0.602821 0.131719
0.616974 0.601987 0.131615
0.619418 0.600298 0.131443
0.622850 0.599880 0.131376
0.626650 0.599929 0.131349
0.630054 0.599486 0.131284
0.634759 0.600653 0.131353
0.639257 0.601557 0.131402
0.642667 0.601145 0.131348
0.645596 0.600185 0.131252
0.648598 0.599351 0.131170
0.652658 0.599801 0.131195
0.653473 0.596497 0.130920
0.059578 0.603143 0.125349
0.062158 0.602346 0.125325
0.064817 0.601388 0.125293
0.066429 0.603678 0.125491
0.068383 0.605066 0.125630
0.071367 0.603347 0.125557
0.073670 0.603818 0.125640
0.075867 0.604714 0.125755
0.078548 0.604108 0.125769
0.081034 0.604188 0.125833
0.083501 0.604386 0.125908
0.085825 0.605120 0.126023
0.088342 0.605237 0.126096
0.090785 0.605650 0.126191
0.093203 0.606186 0.126297
0.095737 0.606323 0.126375
0.098094 0.607148 0.126503
0.101557 0.603722 0.126330
0.103024 0.608038 0.126707
0.105692 0.607681 0.126753
0.108463 0.606865 0.126765
0.111148 0.606363 0.126800
0.113690 0.606429 0.126875
0.116321 0.606078 0.126920
0.118604 0.607242 0.127072
0.121218 0.606910 0.127117
0.123954 0.605950 0.127116
0.126608 0.605299 0.127136
0.129121 0.605275 0.127200
0.131423 0.606278 0.127338
0.133941 0.606164 0.127394
0.136568 0.605415 0.127403
0.138968 0.605827 0.127495
0.141588 0.604969 0.127494
0.143971 0.605393 0.127584
0.146129 0.607129 0.127771
0.148912 0.605091 0.127679
0.151323 0.605224 0.127745
0.153887 0.604320 0.127734
0.156346 0.604010 0.127766
0.158745 0.604050 0.127822
0.160851 0.606160 0.128030
0.163439 0.604766 0.127978
0.165709 0.605678 0.128095
0.168047 0.606067 0.128173
0.170442 0.605963 0.128213
0.172920 0.605086 0.128195
0.175310 0.604870 0.128225
0.177658 0.604997 0.128279
0.179869 0.606436 0.128430
0.182257 0.606136 0.128451
0.184642 0.605786 0.128467
0.186938 0.606380 0.128552
0.189498 0.603789 0.128398
0.191547 0.607431 0.128710
0.193944 0.606716 0.128695
0.196318 0.606196 0.128693
0.198666 0.605977 0.128714
0.200953 0.606713 0.128805
0.203308 0.606276 0.128807
0.205625 0.606487 0.128857
0.207942 0.606698 0.128907
0.210275 0.606534 0.128927
0.212631 0.605663 0.128894
0.214915 0.606795 0.129011
0.217225 0.607310 0.129081
0.219554 0.607120 0.129097
0.221894 0.606236 0.129059
0.224223 0.605467 0.129030
0.226538 0.605626 0.129070
0.228857 0.605243 0.129069
0.231172 0.604580 0.129045
0.233501 0.607206 0.129272
0.235825 0.607055 0.129287
0.238129 0.605588 0.129200
0.240456 0.605886 0.129248
0.242784 0.606107 0.129290
0.245104 0.605917 0.129300
0.247440 0.606204 0.129345
0.249771 0.606258 0.129373
0.252095 0.606090 0.129383
0.254434 0.606229 0.129416
0.256798 0.606797 0.129482
0.259111 0.606335 0.129468
0.261455 0.606400 0.129495
0.263744 0.605595 0.129454
0.266122 0.606114 0.129515
0.268538 0.607038 0.129607
0.270944 0.607696 0.129678
0.273242 0.606989 0.129643
0.275513 0.606007 0.129587
0.277889 0.606213 0.129622
0.280387 0.607596 0.129748
0.282793 0.607936 0.129794
0.285155 0.607816 0.129803
0.287589 0.608304 0.129859
0.290032 0.608804 0.129916
0.292451 0.609048 0.129953
0.294736 0.608188 0.129905
0.297101 0.607966 0.129905
0.299497 0.607961 0.129922
0.301983 0.608567 0.129987
0.304401 0.608641 0.130010
0.306821 0.608701 0.130031
0.309289 0.609034 0.130074
0.311668 0.608772 0.130070
0.314011 0.608285 0.130049
0.316316 0.607573 0.130010
0.318627 0.606916 0.129975
0.321116 0.607257 0.130018
0.323682 0.607978 0.130090
0.326234 0.608560 0.130151
0.328666 0.608475 0.130160
0.331082 0.608296 0.130162
0.333501 0.608113 0.130163
0.336047 0.608526 0.130210
0.338500 0.608461 0.130220
0.340965 0.608438 0.130233
0.343416 0.608328 0.130239
0.345771 0.607787 0.130212
0.348061 0.606967 0.130162
0.350598 0.607192 0.130194
0.353176 0.607559 0.130237
0.355707 0.607705 0.130262
0.358007 0.606909 0.130214
0.360702 0.607657 0.130286
0.363252 0.607801 0.130311
0.365824 0.608007 0.130340
0.368693 0.609268 0.130452
0.370635 0.607138 0.130298
0.372949 0.606373 0.130250
0.375761 0.607345 0.130339
0.378247 0.607150 0.130336
0.380869 0.607400 0.130367
0.383724 0.608387 0.130456
0.386160 0.607967 0.130435
0.388685 0.607823 0.130434
0.391685 0.609155 0.130550
0.394056 0.608481 0.130507
0.396490 0.608001 0.130480
0.399106 0.608062 0.130494
0.401824 0.608398 0.130530
0.404636 0.608981 0.130585
0.407418 0.609438 0.130630
0.409817 0.608782 0.130587
0.412293 0.608339 0.130560
0.414894 0.608229 0.130559
0.417368 0.607759 0.130529
0.420183 0.608186 0.130569
0.422682 0.607754 0.130542
0.425385 0.607838 0.130554
0.428070 0.607852 0.130560
0.430494 0.607186 0.130513
0.433425 0.607775 0.130563
0.435907 0.607225 0.130523
0.438452 0.606820 0.130494
0.441395 0.607349 0.130539
0.444493 0.608208 0.130608
0.446440 0.606344 0.130462
0.449698 0.607514 0.130555
0.452426 0.607426 0.130548
0.455443 0.607966 0.130589
0.458324 0.608162 0.130603
0.461121 0.608145 0.130600
0.463803 0.607855 0.130574
0.466693 0.607987 0.130580
0.468890 0.606629 0.130468
0.471539 0.606216 0.130430
0.474982 0.607419 0.130518
0.477482 0.606648 0.130450
0.480095 0.606091 0.130398
0.483181 0.606459 0.130418
0.486514 0.607273 0.130472
0.489522 0.607407 0.130471
0.492190 0.606853 0.130415
0.494826 0.606220 0.130352
0.498463 0.607448 0.130435
0.500953 0.606486 0.130344
0.503435 0.605497 0.130250
0.506211 0.605030 0.130195
0.509758 0.605923 0.130247
0.512617 0.605540 0.130197
0.515038 0.604360 0.130083
0.518766 0.605443 0.130146
0.521715 0.605126 0.130097
0.524114 0.603842 0.129972
0.527736 0.604608 0.130006
0.530521 0.603924 0.129925
0.533412 0.603394 0.129855
0.537007 0.603982 0.129871
0.540465 0.604300 0.129865
0.543610 0.604071 0.129815
0.546664 0.603663 0.129749
0.550102 0.603825 0.129727
0.554003 0.604660 0.129755
0.556816 0.603771 0.129649
0.560399 0.604029 0.129630
0.563494 0.603509 0.129550
0.566952 0.603500 0.129509
0.569368 0.601921 0.129345
0.573246 0.602463 0.129344
0.577900 0.604073 0.129424
0.580557 0.602768 0.129279
0.583308 0.601587 0.129143
0.588549 0.603872 0.129273
0.590302 0.601257 0.129026
0.593551 0.600712 0.128938
0.597860 0.601583 0.128958
0.602727 0.603159 0.129032
0.604117 0.600064 0.128749
0.609033 0.601643 0.128824
0.614721 0.604179 0.128972
0.616904 0.602132 0.128773
0.619955 0.601221 0.128661
0.623022 0.600341 0.128553
0.626273 0.599704 0.128466
0.630078 0.599768 0.128435
0.634271 0.600313 0.128442
0.638472 0.600867 0.128453
0.641633 0.600170 0.128372
0.645169 0.599953 0.128331
0.647727 0.598604 0.128208
0.651160 0.598334 0.128171
0.658457 0.602602 0.128481
0.062809 0.594107 0.122420
0.062868 0.600635 0.122869
0.064520 0.602658 0.123033
0.066318 0.604386 0.123182
0.068507 0.605045 0.123268
0.071275 0.603988 0.123246
0.073765 0.603857 0.123287
0.076205 0.603953 0.123347
0.078381 0.604984 0.123470
0.080948 0.604795 0.123517
0.083241 0.605581 0.123630
0.085979 0.604890 0.123649
0.088231 0.605925 0.123783
0.091714 0.602605 0.123633
0.093734 0.604534 0.123828
0.096910 0.602236 0.123747
0.099397 0.602480 0.123833
0.101850 0.602862 0.123930
0.104231 0.603542 0.124047
0.105819 0.607441 0.124378
0.108502 0.606980 0.124420
0.111585 0.604796 0.124346
0.113939 0.605626 0.124474
0.116319 0.606358 0.124594
0.119440 0.603759 0.124490
0.120902 0.608637 0.124889
0.123755 0.607163 0.124859
0.126754 0.604875 0.124773
0.129146 0.605432 0.124879
0.131598 0.605673 0.124962
0.134061 0.605828 0.125038
0.136581 0.605634 0.125090
0.139126 0.605253 0.125127
0.141758 0.604314 0.125125
0.144285 0.603876 0.125156
0.146664 0.604251 0.125242
0.149181 0.603752 0.125266
0.151513 0.604344 0.125365
0.153893 0.604607 0.125439
0.156361 0.604244 0.125469
0.158692 0.604762 0.125559
0.161066 0.604962 0.125626
0.163535 0.604411 0.125639
0.166067 0.603278 0.125611
0.168218 0.605080 0.125786
0.170543 0.605515 0.125865
0.172969 0.605064 0.125880
0.175371 0.604734 0.125903
0.177716 0.604872 0.125958
0.180052 0.605066 0.126016
0.182173 0.607471 0.126227
0.184770 0.604863 0.126086
0.187052 0.605569 0.126177
0.189294 0.606789 0.126303
0.191711 0.605848 0.126276
0.194003 0.606476 0.126358
0.196351 0.606317 0.126384
0.198671 0.606518 0.126435
0.200980 0.606911 0.126498
0.203307 0.607011 0.126540
0.205676 0.606214 0.126517
0.207992 0.606429 0.126566
0.210362 0.605283 0.126517
0.212675 0.605420 0.126558
0.214984 0.605702 0.126609
0.217280 0.606526 0.126697
0.219604 0.606352 0.126714
0.221938 0.605553 0.126686
0.224260 0.605061 0.126679
0.226571 0.605388 0.126729
0.228889 0.604629 0.126702
0.231201 0.604526 0.126721
0.233518 0.605326 0.126803
0.235828 0.604695 0.126783
0.238148 0.605073 0.126835
0.240468 0.605196 0.126868
0.242768 0.604448 0.126837
0.245123 0.605748 0.126954
0.247445 0.605678 0.126971
0.249775 0.605817 0.127003
0.252105 0.605852 0.127027
0.254447 0.606104 0.127066
0.256806 0.606600 0.127123
0.259147 0.606671 0.127148
0.261420 0.605570 0.127089
0.263791 0.606083 0.127146
0.266136 0.606125 0.127168
0.268467 0.605940 0.127174
0.270910 0.607141 0.127279
0.273086 0.605027 0.127145
0.275502 0.605779 0.127217
0.277979 0.607080 0.127329
0.280393 0.607585 0.127383
0.282755 0.607521 0.127395
0.285104 0.607301 0.127396
0.287501 0.607503 0.127428
0.289967 0.608240 0.127498
0.292451 0.609042 0.127572
0.294801 0.608708 0.127564
0.297054 0.607630 0.127501
0.299416 0.607395 0.127500
0.301884 0.607905 0.127552
0.304345 0.608303 0.127597
0.306825 0.608775 0.127646
0.309240 0.608782 0.127661
0.311732 0.609236 0.127709
0.314044 0.608555 0.127674
0.316350 0.607853 0.127637
0.318715 0.607502 0.127626
0.321228 0.607969 0.127674
0.323626 0.607770 0.127673
0.326109 0.608003 0.127703
0.328610 0.608296 0.127738
0.331009 0.608039 0.127733
0.333401 0.607737 0.127724
0.335879 0.607842 0.127745
0.338421 0.608217 0.127785
0.340872 0.608140 0.127792
0.343233 0.607641 0.127768
0.345691 0.607571 0.127775
0.348050 0.607054 0.127749
0.350568 0.607209 0.127772
0.353175 0.607700 0.127820
0.355647 0.607611 0.127825
0.358149 0.607622 0.127837
0.360562 0.607265 0.127822
0.363098 0.607373 0.127841
0.365627 0.607431 0.127856
0.368028 0.606999 0.127835
0.371264 0.609559 0.128033
0.373642 0.608986 0.128001
0.375240 0.605704 0.127770
0.378027 0.606569 0.127843
0.380676 0.606924 0.127878
0.383142 0.606644 0.127866
0.385547 0.606156 0.127839
0.388284 0.606723 0.127889
0.391711 0.609414 0.128095
0.394039 0.608608 0.128043
0.396360 0.607787 0.127990
0.399245 0.608660 0.128061
0.401781 0.608458 0.128053
0.404585 0.609018 0.128100
0.407357 0.609450 0.128138
0.409937 0.609309 0.128133
0.412522 0.609164 0.128127
0.414752 0.608032 0.128048
0.417098 0.607222 0.127992
0.420226 0.608494 0.128089
0.422621 0.607787 0.128040
0.425423 0.608130 0.128068
0.427513 0.606625 0.127959
0.430737 0.607994 0.128061
0.433404 0.607918 0.128056
0.435872 0.607335 0.128013
0.438573 0.607308 0.128010
0.441361 0.607467 0.128021
0.444084 0.607444 0.128017
0.446030 0.605588 0.127878
0.448866 0.605800 0.127890
0.452423 0.607619 0.128020
0.455329 0.607909 0.128036
0.457951 0.607536 0.128003
0.460688 0.607399 0.127986
0.463492 0.607383 0.127978
0.466071 0.606860 0.127931
0.468856 0.606755 0.127914
0.471100 0.605500 0.127812
0.474025 0.605648 0.127812
0.477218 0.606309 0.127848
0.480021 0.606142 0.127823
0.484071 0.608429 0.127977
0.486199 0.606853 0.127846
0.488594 0.605802 0.127753
0.491946 0.606584 0.127793
0.494380 0.605571 0.127700
0.498503 0.607722 0.127838
0.500944 0.606668 0.127740
