ply
format ascii 1.0
comment ---
element vertex 1759
property float x
property float y
property float z
element face 0
property list uchar uint vertex_indices
end_header
0.282487 0.603044 0.053723
0.285443 0.602740 0.053585
0.288259 0.602048 0.053474
0.290083 0.598740 0.053574
0.291888 0.595449 0.053670
0.298814 0.605323 0.052681
0.304776 0.612476 0.051906
0.310537 0.618911 0.051183
0.315157 0.622342 0.050702
0.310370 0.602834 0.052132
0.313240 0.602138 0.051992
0.316485 0.602322 0.051775
0.319002 0.600771 0.051700
0.321161 0.598406 0.051692
0.323364 0.596174 0.051671
0.325271 0.593301 0.051702
0.331192 0.599386 0.050961
0.338884 0.609183 0.049890
0.345194 0.615720 0.049092
0.348589 0.615824 0.048845
0.345022 0.601162 0.049889
0.347527 0.599514 0.049795
0.349804 0.597404 0.049739
0.352441 0.596048 0.049615
0.355857 0.596269 0.049347
0.363497 0.604887 0.048321
0.370247 0.611524 0.047463
0.375259 0.614589 0.046918
0.373511 0.604506 0.047565
0.375736 0.602198 0.047505
0.378663 0.601235 0.047320
0.381712 0.600490 0.047112
0.384645 0.599516 0.046922
0.388129 0.599539 0.046635
0.391958 0.600151 0.046289
0.395791 0.600727 0.045943
0.399506 0.601049 0.045615
0.402640 0.600316 0.045384
0.405681 0.599407 0.045166
0.408062 0.597352 0.045056
0.410165 0.594838 0.044989
0.416455 0.599366 0.044232
0.425867 0.608951 0.042970
0.432251 0.613329 0.042207
0.434130 0.610260 0.042174
0.432123 0.600965 0.042761
0.434619 0.598997 0.042619
0.437951 0.598355 0.042340
0.441660 0.598280 0.042000
0.444955 0.597533 0.041724
0.448977 0.597879 0.041332
0.453206 0.598497 0.040906
0.458078 0.600033 0.040378
0.462367 0.600637 0.039941
0.466331 0.600716 0.039554
0.472115 0.603408 0.038884
0.483667 0.614330 0.037327
0.479875 0.603093 0.038128
0.480576 0.598390 0.038234
0.483465 0.596804 0.038001
0.485472 0.593989 0.037898
0.496201 0.603173 0.036472
0.496518 0.597978 0.036622
0.508705 0.608840 0.034979
0.513222 0.609219 0.034493
0.514120 0.604767 0.034545
0.519981 0.606859 0.033852
0.526488 0.609711 0.033062
0.521649 0.597890 0.033955
0.524180 0.595630 0.033748
0.526989 0.593724 0.033495
0.541859 0.606879 0.031462
0.548030 0.608981 0.030711
0.557817 0.615437 0.029429
0.550575 0.601046 0.030639
0.553979 0.599690 0.030284
0.556904 0.597743 0.029995
0.560124 0.596138 0.029658
0.565388 0.596910 0.029021
0.566369 0.592660 0.029002
0.571657 0.593388 0.028353
0.579545 0.597016 0.027326
0.580592 0.592820 0.027284
0.587420 0.595111 0.026403
0.588816 0.591302 0.026300
0.592322 0.589829 0.025890
0.611563 0.605426 0.023215
0.607889 0.596028 0.023827
0.607175 0.589907 0.024009
0.608037 0.585515 0.023958
0.617260 0.589904 0.022707
0.628457 0.596209 0.021170
0.633357 0.595877 0.020529
0.638046 0.595283 0.019914
0.645873 0.597811 0.018846
0.653360 0.599899 0.017822
0.657342 0.598424 0.017294
0.661597 0.597189 0.016722
0.668334 0.598333 0.015792
0.673385 0.597775 0.015097
0.678382 0.597121 0.014406
0.683299 0.596345 0.013721
0.689699 0.596915 0.012821
0.695334 0.596707 0.012027
0.701423 0.596862 0.011163
0.705552 0.595170 0.010575
0.709074 0.592906 0.010070
0.716987 0.594546 0.008937
0.720754 0.592430 0.008391
0.725033 0.590744 0.007770
0.736490 0.595262 0.006126
0.738707 0.591693 0.005795
0.746220 0.592644 0.004710
0.752571 0.592541 0.003790
0.758400 0.591947 0.002945
0.766486 0.593178 0.001780
0.778032 0.597168 0.000124
0.779748 0.593048 -0.000129
0.783419 0.590527 -0.000656
0.796248 0.595301 -0.002482
0.800704 0.593329 -0.003110
0.806794 0.592626 -0.003963
0.794019 0.577284 -0.002121
0.829394 0.593639 -0.007084
0.813858 0.566110 -0.004675
0.823556 0.568105 -0.005958
0.815628 0.557260 -0.004725
0.828586 0.551723 -0.006132
0.871827 0.577138 -0.012049
0.879829 0.577672 -0.012967
0.889368 0.579250 -0.014076
0.910286 0.588548 -0.016752
0.919834 0.590014 -0.017804
0.926841 0.589760 -0.018474
0.933699 0.589421 -0.019095
0.941993 0.590044 -0.019887
0.942662 0.585696 -0.019596
0.935014 0.576054 -0.018137
0.080905 0.601582 0.060467
0.082762 0.598208 0.060345
0.084629 0.594690 0.060247
0.086688 0.596879 0.059758
0.089004 0.604928 0.058855
0.091033 0.603176 0.058666
0.093020 0.599875 0.058603
0.095417 0.605236 0.057920
0.098195 0.616687 0.056794
0.100705 0.620865 0.056211
0.102141 0.605185 0.057122
0.104596 0.607491 0.056708
0.106903 0.606722 0.056537
0.109154 0.604756 0.056470
0.111463 0.603343 0.056375
0.113326 0.595917 0.056755
0.116201 0.601236 0.056171
0.119126 0.606254 0.055619
0.121798 0.607680 0.055354
0.124440 0.608361 0.055158
0.127158 0.609479 0.054938
0.129977 0.611225 0.054679
0.132775 0.612411 0.054473
0.135427 0.611989 0.054402
0.138191 0.612382 0.054275
0.140928 0.612353 0.054190
0.143259 0.608961 0.054378
0.146151 0.609951 0.054226
0.148723 0.608404 0.054281
0.151170 0.605954 0.054413
0.153844 0.605136 0.054421
0.157481 0.610711 0.053924
0.160231 0.610128 0.053920
0.162490 0.606431 0.054167
0.166046 0.610791 0.053774
0.168753 0.609824 0.053807
0.171147 0.607068 0.053984
0.173611 0.604804 0.054122
0.176500 0.604942 0.054069
0.179908 0.607787 0.053798
0.183549 0.611667 0.053444
0.189356 0.626253 0.052229
0.189526 0.612360 0.053297
0.191124 0.605964 0.053762
0.193626 0.604086 0.053864
0.196515 0.604044 0.053815
0.199500 0.604419 0.053730
0.201960 0.602454 0.053831
0.203925 0.598428 0.054096
0.205975 0.594913 0.054318
0.212621 0.610464 0.052991
0.215997 0.612168 0.052781
0.219426 0.613998 0.052558
0.224580 0.622440 0.051791
0.223734 0.607686 0.052911
0.226163 0.605710 0.052986
0.228674 0.604091 0.053029
0.231476 0.603558 0.052980
0.232416 0.596439 0.053468
0.236018 0.598807 0.053173
0.241431 0.607264 0.052370
0.244790 0.608516 0.052157
0.252397 0.623740 0.050779
0.255938 0.625232 0.050534
0.252943 0.605765 0.052030
0.255531 0.604457 0.052012
0.258278 0.603661 0.051949
0.261385 0.603968 0.051788
0.264484 0.604218 0.051629
0.267668 0.604688 0.051446
0.270714 0.604724 0.051296
0.273722 0.604626 0.051153
0.276533 0.603948 0.051055
0.279192 0.602845 0.050990
0.282216 0.602750 0.050835
0.285159 0.602415 0.050696
0.288017 0.601838 0.050575
0.288860 0.595947 0.050911
0.292624 0.597775 0.050574
0.295897 0.598272 0.050349
0.303202 0.608917 0.049230
0.310361 0.618887 0.048160
0.315104 0.622626 0.047629
0.309969 0.602253 0.049228
0.312890 0.601689 0.049076
0.315815 0.601120 0.048920
0.318594 0.600198 0.048792
0.321869 0.600413 0.048558
0.322621 0.594849 0.048843
0.325310 0.593753 0.048723
0.334075 0.606159 0.047369
0.340796 0.613747 0.046442
0.345597 0.616960 0.045907
0.349274 0.617658 0.045599
0.345036 0.601544 0.046846
0.347570 0.599953 0.046749
0.350140 0.598446 0.046641
0.352690 0.596901 0.046534
0.355551 0.595990 0.046365
0.363121 0.604481 0.045300
0.371046 0.613449 0.044179
0.375047 0.614519 0.043802
0.379080 0.615597 0.043419
0.375343 0.601781 0.044473
0.378190 0.600673 0.044300
0.381389 0.600216 0.044060
0.384470 0.599521 0.043840
0.388132 0.599869 0.043514
0.391250 0.599198 0.043284
0.397002 0.603216 0.042584
0.399937 0.602135 0.042386
0.403192 0.601605 0.042130
0.405968 0.600224 0.041956
0.407890 0.597374 0.041929
0.410196 0.595206 0.041831
0.419082 0.604091 0.040593
0.426074 0.609614 0.039688
0.431542 0.612486 0.039049
0.433488 0.609534 0.039011
0.431584 0.600410 0.039622
0.434294 0.598790 0.039445
0.438393 0.599362 0.039031
0.441861 0.598902 0.038722
0.444727 0.597486 0.038512
0.447277 0.595582 0.038352
0.451331 0.595959 0.037940
0.456382 0.597791 0.037363
0.462399 0.600988 0.036628
0.465673 0.600051 0.036342
0.468000 0.597715 0.036208
0.477701 0.606029 0.034875
0.481509 0.605727 0.034499
0.481724 0.600309 0.034699
0.482805 0.596173 0.034755
0.484503 0.592936 0.034706
0.488250 0.592539 0.034327
0.505277 0.610190 0.031837
0.513835 0.616050 0.030698
0.497001 0.587848 0.033569
0.503433 0.590919 0.032757
0.513686 0.598899 0.031345
0.520893 0.602736 0.030412
0.525707 0.603385 0.029854
0.525691 0.597830 0.030044
0.528088 0.595383 0.029855
0.539560 0.604282 0.028255
0.546571 0.607451 0.027348
0.545859 0.601046 0.027629
0.551248 0.602131 0.026966
0.553682 0.599596 0.026754
0.556789 0.597867 0.026434
0.561138 0.597594 0.025921
0.562144 0.593368 0.025913
0.569915 0.597022 0.024871
0.577318 0.600140 0.023882
0.579133 0.596794 0.023739
0.583977 0.596879 0.023133
0.587753 0.595723 0.022684
0.593348 0.596555 0.021956
0.601676 0.600321 0.020812
0.607804 0.601578 0.019997
0.609316 0.597793 0.019872
0.608143 0.591164 0.020146
0.616218 0.594379 0.019025
0.622228 0.595324 0.018211
0.629215 0.597212 0.017246
0.633835 0.596582 0.016631
0.638585 0.596042 0.015993
0.644109 0.596241 0.015234
0.649739 0.596487 0.014456
0.657556 0.598840 0.013346
0.661623 0.597415 0.012792
0.666433 0.596684 0.012122
0.670992 0.595668 0.011486
0.678627 0.597549 0.010387
0.683872 0.597080 0.009640
0.689693 0.597101 0.008803
0.694626 0.596240 0.008095
0.699605 0.595380 0.007376
0.704897 0.594763 0.006608
0.708854 0.592896 0.006034
0.715410 0.593327 0.005072
0.721102 0.592928 0.004236
0.728966 0.594383 0.003076
0.734708 0.593910 0.002230
0.740230 0.593201 0.001415
0.747024 0.593532 0.000412
0.753224 0.593299 -0.000503
0.760366 0.593804 -0.001556
0.774925 0.600386 -0.003709
0.775646 0.595441 -0.003804
0.777479 0.591443 -0.004060
0.782269 0.589849 -0.004750
0.791764 0.591988 -0.006134
0.799502 0.592653 -0.007249
0.808297 0.594089 -0.008512
0.794525 0.577972 -0.006421
0.796201 0.563574 -0.006461
0.810432 0.569093 -0.008472
0.814238 0.566776 -0.008926
0.820647 0.566385 -0.009748
0.811084 0.554389 -0.008200
0.810301 0.544072 -0.007760
0.821169 0.546987 -0.009166
0.882346 0.580004 -0.017666
0.895361 0.583990 -0.019297
0.908497 0.587990 -0.020916
0.919107 0.590218 -0.022137
0.922233 0.587402 -0.022246
0.923611 0.583481 -0.022079
0.942338 0.591067 -0.024382
0.942285 0.586273 -0.023956
0.941251 0.580938 -0.023368
0.922726 0.564465 -0.020273
0.083012 0.597303 0.058068
0.084864 0.593942 0.057961
0.086930 0.596836 0.057396
0.089035 0.599264 0.056875
0.091213 0.602245 0.056320
0.093259 0.600800 0.056115
0.095794 0.609340 0.055149
0.098547 0.620237 0.054002
0.100576 0.615539 0.054083
0.102276 0.605135 0.054633
0.104717 0.607485 0.054191
0.107037 0.607177 0.053972
0.109266 0.605108 0.053908
0.111459 0.602324 0.053916
0.113231 0.594007 0.054386
0.116261 0.601498 0.053590
0.119198 0.606825 0.052977
0.121866 0.608347 0.052685
0.124512 0.609197 0.052459
0.127146 0.609578 0.052282
0.129771 0.609578 0.052147
0.132567 0.610936 0.051909
0.135520 0.613367 0.051592
0.137972 0.611145 0.051670
0.140477 0.609344 0.051722
0.143844 0.614354 0.051213
0.146262 0.611612 0.051359
0.148562 0.608067 0.051578
0.150590 0.602699 0.051958
0.154510 0.610637 0.051225
0.157607 0.612484 0.051008
0.159615 0.607087 0.051403
0.161975 0.604151 0.051596
0.165206 0.606633 0.051334
0.168841 0.611307 0.050889
0.171252 0.608626 0.051066
0.173605 0.605721 0.051263
0.176733 0.607155 0.051094
0.179845 0.608392 0.050940
0.183550 0.612602 0.050534
0.189503 0.627935 0.049181
0.189738 0.614309 0.050288
0.191157 0.607005 0.050856
0.193639 0.605009 0.050972
0.196616 0.605357 0.050886
0.199223 0.604008 0.050942
0.201744 0.602319 0.051025
0.204128 0.600090 0.051152
0.206203 0.596640 0.051381
0.211771 0.607726 0.050359
0.216074 0.613234 0.049811
0.219891 0.616585 0.049444
0.224063 0.621165 0.048966
0.223502 0.607504 0.050059
0.226031 0.605899 0.050109
0.228551 0.604304 0.050154
0.231338 0.603713 0.050109
0.233073 0.599396 0.050384
0.235029 0.595981 0.050578
0.240429 0.604449 0.049731
0.246265 0.614076 0.048774
0.250608 0.618427 0.048273
0.255985 0.625978 0.047484
0.253689 0.608709 0.048877
0.255610 0.605252 0.049052
0.258487 0.604845 0.048954
0.261114 0.603666 0.048921
0.263756 0.602546 0.048878
0.267371 0.604317 0.048573
0.270589 0.604855 0.048374
0.272626 0.601964 0.048479
0.275226 0.600728 0.048431
0.278171 0.600466 0.048292
0.282026 0.602686 0.047924
0.284684 0.601578 0.047853
0.286654 0.598641 0.047946
0.289479 0.598011 0.047826
0.292113 0.596876 0.047747
0.298380 0.605056 0.046806
0.300325 0.602064 0.046891
0.309808 0.617930 0.045220
0.316816 0.627262 0.044143
0.309827 0.602311 0.046267
0.312684 0.601591 0.046127
0.315615 0.601037 0.045967
0.318989 0.601507 0.045707
0.321917 0.600906 0.045544
0.324048 0.598476 0.045552
0.325664 0.594919 0.045667
0.334231 0.606879 0.044286
0.341359 0.615359 0.043228
0.346254 0.618760 0.042652
0.348714 0.616827 0.042590
0.345008 0.601841 0.043803
0.347586 0.600340 0.043699
0.350303 0.599131 0.043563
0.352175 0.596192 0.043596
0.355905 0.597050 0.043249
0.363862 0.606306 0.042056
0.370730 0.613172 0.041092
0.375567 0.615883 0.040536
0.377871 0.613606 0.040481
0.374707 0.600902 0.041488
0.377692 0.600066 0.041286
0.380867 0.599572 0.041045
0.384595 0.600080 0.040697
0.387478 0.599002 0.040510
0.391435 0.599857 0.040117
0.396361 0.602396 0.039542
0.399673 0.601993 0.039271
0.402468 0.600659 0.039094
0.405734 0.600139 0.038829
0.407958 0.597810 0.038753
0.410076 0.595316 0.038693
0.417313 0.601439 0.037697
0.424572 0.607439 0.036704
0.430740 0.611487 0.035912
0.435957 0.613872 0.035294
0.431965 0.601335 0.036321
0.433657 0.598083 0.036324
0.437132 0.597678 0.036008
0.442065 0.599528 0.035433
0.442146 0.593798 0.035709
0.445260 0.592795 0.035449
0.450453 0.594928 0.034826
0.459035 0.602076 0.033617
0.463701 0.603225 0.033088
0.465479 0.600065 0.033054
0.469528 0.600240 0.032628
0.478066 0.606856 0.031436
0.482863 0.607961 0.030883
0.485936 0.606566 0.030620
0.490630 0.607433 0.030082
0.493099 0.605158 0.029916
0.494508 0.601429 0.029924
0.500754 0.604323 0.029120
0.510774 0.612214 0.027689
0.501345 0.593930 0.029484
0.501460 0.588585 0.029687
0.504653 0.587337 0.029377
0.510488 0.589504 0.028630
0.521511 0.598266 0.027033
0.523712 0.595581 0.026880
0.529223 0.597084 0.026184
0.538873 0.603694 0.024813
0.543783 0.604268 0.024213
0.551152 0.607805 0.023212
0.552669 0.604121 0.023154
0.553739 0.599924 0.023163
0.558018 0.599589 0.022651
0.561686 0.598495 0.022234
0.564236 0.596066 0.021992
0.576592 0.605015 0.020181
0.577961 0.601125 0.020120
0.581709 0.599969 0.019675
0.586293 0.599731 0.019094
0.590588 0.599127 0.018555
0.594838 0.598437 0.018019
0.600490 0.599250 0.017257
0.603861 0.597519 0.016852
0.605886 0.594323 0.016653
0.611281 0.594730 0.015919
0.615361 0.593689 0.015389
0.624527 0.597945 0.014056
0.628930 0.597128 0.013466
0.633325 0.596265 0.012873
0.638351 0.596009 0.012177
0.643784 0.596114 0.011413
0.648283 0.595230 0.010791
0.653884 0.595400 0.009993
0.660611 0.596617 0.009015
0.666297 0.596743 0.008195
0.669158 0.594092 0.007810
0.677961 0.597102 0.006498
0.682730 0.596187 0.005809
0.688586 0.596250 0.004948
0.693617 0.595488 0.004212
0.697893 0.593990 0.003589
0.704188 0.594301 0.002650
0.708863 0.593088 0.001960
0.712959 0.591322 0.001357
0.723932 0.595620 -0.000313
0.727261 0.593077 -0.000800
0.734259 0.593713 -0.001855
0.742948 0.595735 -0.003173
0.751519 0.597563 -0.004471
0.752887 0.593221 -0.004654
0.758558 0.592505 -0.005501
0.768898 0.590136 -0.007031
0.776181 0.590626 -0.008115
0.781206 0.589242 -0.008846
0.792962 0.593207 -0.010608
0.797115 0.591045 -0.011189
0.802824 0.584707 -0.011924
0.812303 0.586657 -0.013296
0.822073 0.588758 -0.014699
0.817986 0.580344 -0.013958
0.809189 0.568540 -0.012482
0.823131 0.573752 -0.014481
0.816070 0.563450 -0.013244
0.838690 0.574877 -0.016532
0.853436 0.580414 -0.018591
0.863668 0.582618 -0.019936
0.859706 0.574739 -0.019099
0.862323 0.571603 -0.019243
0.881102 0.579743 -0.021813
0.894687 0.584165 -0.023565
0.912660 0.591507 -0.025946
0.917450 0.589810 -0.026311
0.920655 0.587085 -0.026413
0.913733 0.577680 -0.024979
0.919768 0.576992 -0.025458
0.941234 0.586426 -0.028199
0.945122 0.584315 -0.028298
0.939951 0.576426 -0.027040
0.083244 0.595440 0.055885
0.085094 0.592737 0.055727
0.087012 0.591591 0.055460
0.089271 0.599180 0.054506
0.091370 0.600522 0.054057
0.093682 0.605739 0.053305
0.096078 0.611193 0.052539
0.098961 0.624794 0.051109
0.100901 0.618463 0.051328
0.102477 0.606071 0.052071
0.104697 0.605046 0.051887
0.107080 0.606097 0.051542
0.109315 0.604418 0.051440
0.111609 0.603275 0.051307
0.113157 0.592245 0.052031
0.116249 0.600771 0.051100
0.119359 0.608319 0.050259
0.122054 0.610241 0.049912
0.124655 0.610699 0.049702
0.127144 0.609699 0.049630
0.129559 0.607815 0.049646
0.132098 0.606992 0.049581
0.135036 0.609572 0.049228
0.137583 0.608410 0.049212
0.140470 0.609953 0.048968
0.143533 0.612626 0.048631
0.146422 0.613627 0.048448
0.148212 0.606308 0.049008
0.151166 0.607672 0.048806
0.154688 0.612767 0.048279
0.156868 0.608465 0.048590
0.159119 0.604809 0.048849
0.161331 0.601041 0.049121
0.165420 0.608896 0.048362
0.168874 0.612471 0.047985
0.171530 0.611192 0.048043
0.174369 0.610962 0.048008
0.176443 0.606522 0.048351
0.179678 0.608445 0.048125
0.184251 0.617181 0.047287
0.188696 0.624805 0.046547
0.189651 0.614804 0.047388
0.190495 0.604708 0.048238
0.193445 0.604972 0.048156
0.196500 0.605688 0.048030
0.199198 0.604740 0.048053
0.201707 0.602978 0.048146
0.203948 0.600121 0.048337
0.205700 0.595302 0.048702
0.212090 0.609829 0.047311
0.214867 0.609122 0.047297
0.219952 0.617587 0.046445
0.223174 0.618452 0.046280
0.224026 0.610222 0.046940
0.225765 0.605603 0.047270
0.228397 0.604420 0.047282
0.230785 0.602380 0.047369
0.232602 0.598371 0.047633
0.235657 0.598797 0.047487
0.241708 0.609454 0.046392
0.244337 0.608204 0.046390
0.247446 0.608571 0.046235
0.254362 0.621297 0.044926
0.254193 0.610899 0.045762
0.256482 0.608559 0.045845
0.259678 0.609085 0.045657
0.261630 0.605776 0.045825
0.265804 0.609225 0.045353
0.270318 0.613555 0.044793
0.273712 0.614467 0.044549
0.276070 0.612353 0.044588
0.281894 0.620087 0.043686
0.281627 0.610582 0.044421
0.285764 0.613433 0.043974
0.289788 0.615875 0.043561
0.291347 0.611635 0.043785
0.295465 0.614230 0.043347
0.297797 0.612087 0.043363
0.299989 0.609617 0.043407
0.303291 0.609993 0.043171
0.308738 0.615692 0.042410
0.316204 0.626185 0.041168
0.310930 0.605401 0.043002
0.312667 0.601953 0.043129
0.315778 0.601820 0.042925
0.318745 0.601328 0.042753
0.321408 0.600118 0.042648
0.323444 0.597481 0.042685
0.326289 0.596702 0.042532
0.333911 0.606546 0.041298
0.338755 0.610014 0.040701
0.345254 0.616967 0.039741
0.349927 0.619802 0.039194
0.344919 0.602013 0.040766
0.347725 0.600989 0.040613
0.349634 0.598100 0.040652
0.352513 0.597234 0.040478
0.354258 0.594063 0.040542
0.361896 0.602725 0.039359
0.370080 0.612239 0.038073
0.376435 0.617931 0.037180
0.374280 0.607010 0.038051
0.373256 0.598464 0.038674
0.376880 0.598866 0.038337
0.380063 0.598402 0.038089
0.383465 0.598322 0.037796
0.387262 0.598936 0.037422
0.391197 0.599753 0.037022
0.394668 0.599692 0.036712
0.397224 0.597980 0.036582
0.401015 0.598436 0.036208
0.404882 0.598982 0.035818
0.408336 0.598776 0.035508
0.410850 0.596947 0.035377
0.416327 0.600099 0.034677
0.422293 0.603969 0.033886
0.427982 0.607268 0.033152
0.433116 0.609564 0.032524
0.431681 0.601188 0.033130
0.433854 0.598706 0.033051
0.439324 0.601448 0.032357
0.440864 0.597956 0.032391
0.441279 0.592758 0.032628
0.443810 0.590873 0.032469
0.457197 0.605461 0.030329
0.463864 0.609633 0.029422
0.463858 0.603760 0.029724
0.464915 0.599532 0.029828
0.470475 0.601917 0.029119
0.476285 0.604583 0.028365
0.479921 0.604050 0.028000
0.483474 0.603373 0.027647
0.491424 0.608839 0.026516
0.492536 0.604665 0.026590
0.494688 0.601964 0.026477
0.499335 0.602676 0.025924
0.507150 0.601967 0.025069
0.503465 0.591512 0.025952
0.499157 0.580399 0.026932
0.519828 0.601906 0.023606
0.519593 0.596067 0.023878
0.524072 0.596307 0.023337
0.529315 0.597466 0.022664
0.533730 0.597527 0.022130
0.549204 0.611249 0.019719
0.552424 0.609630 0.019387
0.552935 0.604703 0.019507
0.554276 0.600825 0.019482
0.557043 0.598677 0.019211
0.560768 0.597657 0.018776
0.563201 0.595098 0.018553
0.569245 0.596733 0.017723
0.574069 0.596890 0.017093
0.578400 0.596436 0.016543
0.583870 0.597230 0.015799
0.589318 0.597938 0.015056
0.593827 0.597545 0.014465
0.598414 0.597196 0.013857
0.603433 0.597275 0.013174
0.607210 0.595965 0.012691
0.612286 0.596015 0.011991
0.616381 0.594978 0.011448
0.625816 0.599504 0.010026
0.628818 0.597216 0.009653
0.632664 0.595787 0.009138
0.637246 0.595081 0.008498
0.644031 0.596559 0.007495
0.648974 0.596114 0.006788
0.655884 0.597573 0.005758
0.662794 0.598949 0.004724
0.665738 0.596386 0.004330
0.671465 0.596498 0.003480
0.677124 0.596486 0.002638
0.681409 0.595119 0.002015
0.685114 0.593178 0.001483
0.692966 0.595065 0.000276
0.695701 0.592154 -0.000106
0.699653 0.590350 -0.000688
0.704636 0.589454 -0.001438
0.708324 0.587361 -0.001981
0.709323 0.582869 -0.002092
0.715904 0.583303 -0.003104
0.733495 0.593240 -0.005889
0.733685 0.587958 -0.005870
0.730359 0.579725 -0.005286
0.741486 0.583799 -0.007026
0.752750 0.587859 -0.008783
0.747308 0.577950 -0.007853
0.757380 0.580912 -0.009411
0.774913 0.589837 -0.012161
0.780066 0.588577 -0.012916
0.789524 0.590732 -0.014354
0.800380 0.593908 -0.016006
0.811047 0.596836 -0.017617
0.812647 0.592639 -0.017765
0.819205 0.592293 -0.018694
0.821250 0.588485 -0.018890
0.822309 0.583975 -0.018915
0.807885 0.567951 -0.016462
0.819230 0.566199 -0.017910
0.825577 0.565810 -0.018713
0.858652 0.584670 -0.023721
0.865867 0.584717 -0.024611
0.853052 0.570582 -0.022323
0.862526 0.572324 -0.023527
0.879627 0.579337 -0.025899
0.898064 0.587148 -0.028446
0.914358 0.593365 -0.030623
0.919586 0.591985 -0.031045
0.919103 0.586801 -0.030555
0.908094 0.574703 -0.028420
0.905495 0.568374 -0.027570
0.933287 0.582076 -0.031360
0.949425 0.588000 -0.033319
0.937206 0.575564 -0.030926
0.085204 0.587255 0.053868
0.087488 0.598160 0.052590
0.089704 0.604269 0.051713
0.091833 0.606239 0.051189
0.093662 0.600204 0.051358
0.096489 0.615527 0.049711
0.099033 0.622375 0.048792
0.100965 0.616415 0.048992
0.102438 0.602712 0.049888
0.104788 0.604257 0.049470
0.107156 0.605390 0.049099
0.109475 0.605186 0.048859
0.111714 0.603492 0.048765
0.113046 0.589917 0.049750
0.116579 0.604104 0.048260
0.119297 0.607138 0.047779
0.121991 0.609280 0.047390
0.124480 0.608757 0.047253
0.126935 0.607661 0.047182
0.129373 0.606220 0.047153
0.131554 0.602283 0.047365
0.134209 0.602646 0.047193
0.137178 0.605479 0.046803
0.139911 0.605971 0.046638
0.141913 0.600456 0.047036
0.144457 0.599328 0.047038
0.147022 0.598305 0.047037
0.149883 0.599337 0.046852
0.152759 0.600307 0.046678
0.155450 0.599870 0.046640
0.156653 0.589714 0.047516
0.161540 0.603289 0.046175
0.165717 0.611668 0.045322
0.168932 0.613785 0.045057
0.170897 0.608504 0.045490
0.173039 0.604456 0.045809
0.176128 0.605752 0.045626
0.179465 0.608267 0.045329
0.183272 0.613056 0.044817
0.187023 0.617288 0.044356
0.190040 0.617656 0.044259
0.190311 0.604724 0.045420
0.193202 0.604718 0.045357
0.196058 0.604525 0.045310
0.198897 0.604240 0.045270
0.201583 0.603276 0.045292
0.204133 0.601743 0.045366
0.204830 0.592427 0.046179
0.211617 0.608671 0.044551
0.215366 0.611929 0.044157
0.218811 0.613828 0.043889
0.223364 0.619957 0.043211
0.223998 0.610850 0.043992
0.225555 0.605529 0.044407
0.228047 0.603825 0.044472
0.230552 0.602216 0.044524
0.232863 0.599956 0.044635
0.235566 0.599126 0.044605
0.239726 0.603299 0.044085
0.243313 0.605383 0.043762
0.246781 0.606982 0.043481
0.249796 0.607032 0.043347
0.254854 0.613609 0.042569
0.258080 0.614177 0.042374
0.260853 0.613298 0.042316
0.264100 0.613876 0.042111
0.267853 0.615934 0.041755
0.270300 0.614038 0.041785
0.271147 0.607507 0.042274
0.276730 0.614766 0.041385
0.279095 0.612668 0.041425
0.282098 0.612391 0.041278
0.285606 0.613487 0.040989
0.287998 0.611501 0.041007
0.291501 0.612516 0.040716
0.294341 0.611729 0.040605
0.298037 0.613165 0.040262
0.299430 0.608629 0.040526
0.302191 0.607648 0.040423
0.310666 0.620944 0.038845
0.315297 0.624386 0.038273
0.310392 0.604509 0.040113
0.312940 0.603018 0.040049
0.315484 0.601527 0.039982
0.318330 0.600754 0.039837
0.320786 0.599074 0.039783
0.323178 0.597259 0.039741
0.325844 0.596080 0.039629
0.331533 0.601634 0.038796
0.336371 0.605151 0.038173
0.339631 0.605128 0.037922
0.348664 0.617471 0.036334
0.344699 0.601913 0.037751
0.346783 0.599375 0.037763
0.350000 0.599216 0.037513
0.351256 0.595012 0.037702
0.353605 0.593090 0.037640
0.357952 0.595182 0.037131
0.368537 0.609538 0.035255
0.374764 0.615017 0.034350
0.374251 0.607302 0.034914
0.373665 0.599585 0.035482
0.376723 0.598906 0.035257
0.379498 0.597679 0.035091
0.382656 0.597156 0.034841
0.387136 0.599036 0.034312
0.391991 0.601521 0.033707
0.393898 0.598640 0.033716
0.396465 0.596959 0.033584
0.399874 0.596758 0.033276
0.405163 0.599790 0.032584
0.410934 0.603555 0.031797
0.413591 0.601918 0.031642
0.417329 0.602100 0.031268
0.420782 0.601772 0.030949
0.425374 0.603292 0.030403
0.433511 0.610524 0.029159
0.431709 0.601545 0.029873
0.433457 0.598380 0.029883
0.437197 0.598394 0.029500
0.441326 0.598983 0.029041
0.443365 0.596289 0.028984
0.444894 0.592831 0.029020
0.459310 0.608973 0.026592
0.465534 0.612446 0.025737
0.463699 0.603822 0.026409
0.462824 0.596745 0.026890
0.467599 0.598015 0.026302
0.474560 0.602385 0.025305
0.478657 0.602534 0.024845
0.485572 0.606636 0.023860
0.487521 0.603654 0.023795
0.491335 0.603282 0.023382
0.496104 0.604197 0.022792
0.497984 0.601116 0.022729
0.505333 0.605439 0.021665
0.506473 0.601339 0.021730
0.507896 0.597652 0.021738
0.513249 0.599151 0.021033
0.520035 0.602446 0.020068
0.525773 0.604289 0.019293
0.525794 0.598766 0.019537
0.529321 0.597735 0.019150
0.533450 0.597435 0.018653
0.538119 0.597769 0.018057
0.544290 0.599900 0.017194
0.549575 0.600869 0.016486
0.552950 0.599475 0.016111
0.555997 0.597673 0.015789
0.559282 0.596141 0.015422
0.565988 0.598603 0.014454
0.570071 0.597928 0.013941
0.573382 0.596332 0.013558
0.580148 0.598657 0.012572
0.585290 0.599060 0.011865
0.589491 0.598355 0.011317
0.593957 0.597909 0.010720
0.599133 0.598202 0.009997
0.603530 0.597594 0.009403
0.607418 0.596399 0.008893
0.612270 0.596206 0.008214
0.618959 0.597910 0.007217
0.624877 0.598722 0.006349
0.628669 0.597260 0.005839
0.631817 0.595111 0.005434
0.637611 0.595645 0.004575
0.644436 0.597159 0.003538
0.650001 0.597329 0.002711
0.655963 0.597836 0.001813
0.662306 0.598653 0.000847
0.666497 0.597306 0.000241
0.670481 0.595729 -0.000333
0.675831 0.595429 -0.001142
0.680089 0.594046 -0.001769
0.688610 0.596628 -0.003117
0.685508 0.588315 -0.002514
0.687395 0.584689 -0.002752
0.693147 0.584597 -0.003642
0.700362 0.585772 -0.004779
0.700221 0.580292 -0.004684
0.696966 0.572103 -0.004069
0.698789 0.568468 -0.004307
0.710832 0.573731 -0.006254
0.713858 0.571080 -0.006691
0.718632 0.569919 -0.007419
0.736248 0.579578 -0.010288
0.740753 0.578034 -0.010965
0.747802 0.578578 -0.012061
0.750803 0.575741 -0.012477
0.768785 0.585097 -0.015382
0.777942 0.587124 -0.016808
0.790623 0.591882 -0.018811
0.798587 0.592780 -0.020019
0.810453 0.596679 -0.021862
0.813397 0.593546 -0.022213
0.818975 0.592461 -0.022988
0.822646 0.589913 -0.023433
0.823493 0.585253 -0.023398
0.793652 0.557705 -0.018291
0.788955 0.549268 -0.017322
0.832014 0.565979 -0.023689
0.848024 0.567584 -0.025730
0.894823 0.585588 -0.032283
0.910890 0.591710 -0.034474
0.915967 0.590279 -0.034863
0.918931 0.587462 -0.034889
0.907085 0.574822 -0.032528
0.897171 0.563682 -0.030468
0.936058 0.584764 -0.036125
0.954466 0.592193 -0.038485
0.088225 0.612072 0.049037
0.090497 0.618701 0.048067
0.092045 0.605428 0.048865
0.094009 0.602940 0.048728
0.096621 0.613728 0.047411
0.099166 0.620991 0.046413
0.100986 0.613402 0.046772
0.102571 0.602164 0.047486
0.104813 0.602278 0.047179
0.107416 0.607302 0.046430
0.109729 0.607159 0.046169
0.112443 0.611995 0.045457
0.114589 0.608632 0.045523
0.116840 0.606480 0.045491
0.119168 0.605076 0.045402
0.121438 0.602813 0.045408
0.123969 0.603198 0.045176
0.126555 0.603816 0.044932
0.129193 0.604614 0.044683
0.131632 0.603259 0.044651
0.134529 0.605872 0.044248
0.137010 0.604515 0.044237
0.139557 0.603616 0.044192
0.142036 0.602071 0.044219
0.144411 0.599676 0.044337
0.147831 0.605050 0.043706
0.150563 0.605014 0.043609
0.152791 0.601369 0.043871
0.155326 0.599913 0.043925
0.156518 0.589715 0.044843
0.161222 0.602210 0.043537
0.165311 0.610128 0.042682
0.166278 0.598950 0.043710
0.169687 0.602464 0.043293
0.172363 0.601606 0.043310
0.175969 0.605838 0.042824
0.179341 0.608562 0.042488
0.182772 0.611411 0.042139
0.186860 0.617421 0.041476
0.190690 0.621825 0.040970
0.190271 0.605447 0.042530
0.193115 0.605205 0.042485
0.195899 0.604678 0.042468
0.198658 0.604036 0.042459
0.201333 0.603028 0.042486
0.203901 0.601574 0.042555
0.205362 0.595485 0.043086
0.211316 0.608239 0.041725
0.214827 0.610541 0.041407
0.218574 0.613675 0.041002
0.221582 0.613782 0.040898
0.224079 0.611910 0.040989
0.225366 0.605547 0.041532
0.227811 0.603668 0.041619
0.230280 0.601924 0.041689
0.232733 0.600171 0.041756
0.235144 0.598313 0.041831
0.238628 0.600182 0.041522
0.242274 0.602515 0.041161
0.245355 0.602879 0.040996
0.250519 0.610003 0.040132
0.254832 0.614147 0.039567
0.258441 0.615910 0.039242
0.260538 0.612901 0.039406
0.262328 0.609026 0.039656
0.267237 0.614641 0.038917
0.269111 0.611061 0.039129
0.270813 0.607063 0.039382
0.274949 0.610167 0.038889
0.278538 0.611607 0.038564
0.281388 0.610913 0.038459
0.285271 0.613062 0.038049
0.289154 0.615127 0.037643
0.290117 0.609291 0.038070
0.292719 0.607920 0.038021
0.295662 0.607447 0.037873
0.298700 0.607207 0.037695
0.302728 0.609455 0.037245
0.309389 0.618200 0.036087
0.313468 0.620319 0.035637
0.310747 0.605799 0.036991
0.313025 0.603641 0.037002
0.314967 0.600712 0.037094
0.317775 0.599861 0.036956
0.321183 0.600390 0.036663
0.324080 0.599713 0.036498
0.325375 0.595409 0.036733
0.330574 0.599883 0.035987
0.333772 0.599815 0.035742
0.337367 0.600584 0.035399
0.345142 0.610288 0.034042
0.343438 0.599607 0.034983
0.345889 0.597864 0.034912
0.348344 0.596144 0.034835
0.351313 0.595485 0.034635
0.352612 0.591430 0.034822
0.357331 0.594288 0.034208
0.364717 0.602331 0.032984
0.372922 0.611767 0.031586
0.377990 0.614887 0.030913
0.376165 0.604712 0.031800
0.378695 0.602976 0.031694
0.382376 0.603403 0.031328
0.390291 0.611628 0.030026
0.392778 0.609700 0.029928
0.398944 0.614449 0.029023
0.403274 0.615771 0.028523
0.404010 0.610661 0.028799
0.408554 0.612308 0.028251
0.413897 0.615273 0.027533
0.413523 0.608323 0.028031
0.411311 0.598363 0.028906
0.415402 0.599178 0.028445
0.419409 0.599802 0.028002
0.424746 0.602571 0.027283
0.438237 0.618547 0.024883
0.432049 0.602403 0.026544
0.433287 0.598415 0.026666
0.437571 0.599291 0.026163
0.441319 0.599275 0.025768
0.444033 0.597624 0.025581
0.447836 0.597642 0.025172
0.458606 0.608206 0.023372
0.463910 0.610308 0.022668
0.464034 0.604618 0.022991
0.463147 0.597512 0.023504
0.467295 0.597862 0.023021
0.474156 0.602091 0.022007
0.480507 0.605471 0.021096
0.482344 0.602348 0.021061
0.486380 0.602337 0.020596
0.492943 0.605802 0.019645
0.495257 0.603311 0.019509
0.498300 0.601824 0.019229
0.501634 0.600719 0.018891
0.507353 0.602790 0.018098
0.506125 0.595573 0.018616
0.510982 0.596443 0.017981
0.517354 0.599227 0.017060
0.519125 0.595992 0.017000
0.522209 0.594452 0.016689
0.528396 0.596823 0.015799
0.534346 0.598810 0.014952
0.538896 0.598984 0.014363
0.543220 0.598834 0.013813
0.547743 0.598886 0.013224
0.552064 0.598651 0.012669
0.555416 0.597218 0.012288
0.558839 0.595852 0.011890
0.567168 0.600221 0.010596
0.570185 0.598291 0.010266
0.574360 0.597685 0.009721
0.580651 0.599456 0.008791
0.585878 0.599946 0.008051
0.590379 0.599567 0.007438
0.593348 0.597449 0.007096
0.597164 0.596251 0.006597
0.602412 0.596586 0.005839
0.606509 0.595624 0.005282
0.612745 0.596915 0.004340
0.617610 0.596681 0.003640
0.622405 0.596326 0.002947
0.626003 0.594683 0.002463
0.634145 0.597696 0.001171
0.639016 0.597265 0.000455
0.645230 0.598145 -0.000502
0.651812 0.599323 -0.001528
0.655494 0.597551 -0.002046
0.661002 0.597550 -0.002888
0.665929 0.596928 -0.003632
0.670311 0.595738 -0.004284
0.674599 0.594425 -0.004923
0.679692 0.593841 -0.005706
0.688115 0.596335 -0.007073
0.679077 0.582512 -0.005393
0.674067 0.572597 -0.004422
0.691328 0.583109 -0.007337
0.698077 0.583881 -0.008419
0.697706 0.578216 -0.008262
0.690113 0.566204 -0.006852
0.694054 0.564488 -0.007448
0.704849 0.568712 -0.009234
0.716681 0.573698 -0.011195
0.712682 0.565035 -0.010410
0.723026 0.568607 -0.012107
0.733557 0.572220 -0.013830
0.736324 0.569281 -0.014206
0.746749 0.572642 -0.015899
0.762586 0.580300 -0.018517
0.776979 0.586610 -0.020874
0.788101 0.590147 -0.022656
0.797073 0.591879 -0.024056
0.807378 0.594586 -0.025671
0.813077 0.593633 -0.026482
0.814432 0.589321 -0.026535
0.817633 0.586468 -0.026891
0.825390 0.587082 -0.028009
0.796559 0.560281 -0.022873
0.789790 0.550306 -0.021493
0.817398 0.555944 -0.025387
0.845615 0.566451 -0.029513
0.908053 0.590499 -0.038380
0.912921 0.588975 -0.038726
0.920814 0.589524 -0.039546
0.915348 0.581152 -0.038138
0.940832 0.588792 -0.041230
0.945690 0.587405 -0.041439
0.939110 0.578659 -0.039771
0.912626 0.557292 -0.034885
0.918923 0.553061 -0.034644
0.088840 0.621742 0.045773
0.090521 0.612014 0.046263
0.092332 0.606231 0.046410
0.094491 0.608424 0.045831
0.096319 0.602663 0.046009
0.099328 0.619982 0.044022
0.101703 0.622875 0.043400
0.103805 0.620162 0.043325
0.105712 0.614096 0.043588
0.107923 0.612788 0.043409
0.110717 0.619416 0.042474
0.113195 0.620630 0.042074
0.115269 0.616132 0.042247
0.116885 0.606114 0.042982
0.119086 0.603448 0.043009
0.121505 0.603092 0.042822
0.124044 0.603712 0.042550
0.126609 0.604254 0.042297
0.129158 0.604331 0.042102
0.131798 0.604985 0.041861
0.134230 0.603519 0.041844
0.137113 0.605811 0.041457
0.139447 0.603216 0.041575
0.142088 0.603067 0.041455
0.144594 0.601738 0.041464
0.147694 0.604760 0.041036
0.150279 0.603756 0.041027
0.152690 0.601485 0.041155
0.155288 0.600506 0.041157
0.156056 0.587569 0.042394
0.161685 0.606040 0.040406
0.164208 0.604298 0.040500
0.167110 0.604845 0.040362
0.169909 0.604700 0.040299
0.173602 0.609543 0.039721
0.176993 0.612416 0.039348
0.179376 0.609708 0.039555
0.182606 0.611503 0.039295
0.186930 0.618737 0.038470
0.191014 0.624391 0.037807
0.190272 0.606372 0.039610
0.193128 0.606180 0.039556
0.195884 0.605507 0.039550
0.198586 0.604594 0.039569
0.201146 0.603069 0.039649
0.203569 0.600991 0.039786
0.204768 0.593792 0.040459
0.209671 0.602241 0.039485
0.214353 0.609429 0.038638
0.216886 0.607752 0.038721
0.221464 0.614107 0.037953
0.224315 0.613582 0.037907
0.225049 0.605098 0.038702
0.227516 0.603303 0.038785
0.230004 0.601634 0.038852
0.232428 0.599775 0.038936
0.233601 0.593592 0.039478
0.238181 0.599308 0.038746
0.241995 0.602224 0.038307
0.244859 0.601866 0.038214
0.249249 0.606485 0.037581
0.255023 0.615379 0.036481
0.258495 0.616691 0.036192
0.259076 0.608949 0.036879
0.263027 0.611743 0.036421
0.266302 0.612392 0.036190
0.268344 0.609342 0.036359
0.270084 0.605475 0.036614
0.275162 0.611315 0.035801
0.277258 0.608501 0.035933
0.281253 0.611051 0.035470
0.286718 0.617559 0.034563
0.289342 0.616139 0.034527
0.290562 0.610970 0.034905
0.291189 0.604355 0.035444
0.293782 0.603018 0.035391
0.298986 0.608404 0.034579
0.305169 0.616101 0.033498
0.309891 0.619912 0.032847
0.313430 0.620676 0.032534
0.310268 0.605064 0.034081
0.312706 0.603298 0.034053
0.314977 0.601154 0.034065
0.317856 0.600462 0.033908
0.321255 0.600964 0.033609
0.324326 0.600675 0.033397
0.324653 0.594171 0.033904
0.329846 0.598650 0.033130
0.333967 0.600631 0.032640
0.338237 0.602860 0.032115
0.343506 0.607154 0.031339
0.347389 0.608374 0.030920
0.350682 0.608297 0.030649
0.353910 0.608056 0.030394
0.355802 0.605050 0.030466
0.359142 0.605022 0.030178
0.359188 0.598361 0.030687
0.363329 0.599935 0.030199
0.371621 0.609575 0.028720
0.377126 0.613569 0.027918
0.379998 0.612401 0.027743
0.382184 0.609928 0.027726
0.386799 0.612027 0.027139
0.390453 0.612270 0.026777
0.394700 0.613561 0.026278
0.398680 0.614309 0.025841
0.400440 0.611027 0.025908
0.402482 0.608283 0.025906
0.407355 0.610534 0.025264
0.412182 0.612626 0.024635
0.411309 0.604845 0.025271
0.411843 0.599585 0.025585
0.414996 0.598810 0.025316
0.421188 0.603078 0.024385
0.429902 0.611384 0.022911
0.436830 0.616572 0.021834
0.430998 0.601016 0.023497
0.433794 0.599532 0.023299
0.438182 0.600562 0.022760
0.441209 0.599405 0.022508
0.444261 0.598277 0.022249
0.447103 0.596814 0.022031
0.454062 0.601603 0.020953
0.462650 0.608711 0.019543
0.462599 0.602775 0.019922
0.463969 0.599016 0.020000
0.468633 0.600105 0.019399
0.473031 0.600751 0.018853
0.476747 0.600373 0.018444
0.480282 0.599708 0.018069
0.483146 0.598076 0.017828
0.485830 0.596188 0.017618
0.488009 0.593602 0.017506
0.491244 0.592470 0.017180
0.497421 0.595298 0.016267
0.502828 0.597003 0.015508
0.507144 0.597189 0.014964
0.510910 0.596611 0.014525
0.515604 0.597211 0.013902
0.519250 0.596409 0.013482
0.522382 0.594926 0.013158
0.530271 0.599446 0.011911
0.533916 0.598522 0.011484
0.537790 0.597858 0.011010
0.542500 0.598193 0.010372
0.547965 0.599397 0.009588
0.551467 0.598169 0.009176
0.555835 0.597954 0.008595
0.561330 0.599033 0.007799
0.563693 0.596374 0.007592
0.571002 0.599466 0.006447
0.574152 0.597667 0.006084
0.578716 0.597469 0.005451
0.585002 0.599172 0.004493
0.588374 0.597535 0.004076
0.591646 0.595770 0.003674
0.597022 0.596300 0.002876
0.602431 0.596809 0.002069
0.606879 0.596221 0.001437
0.611074 0.595325 0.000848
0.615940 0.595105 0.000131
0.621392 0.595453 -0.000698
0.624641 0.593454 -0.001125
0.637748 0.601589 -0.003366
0.643131 0.601642 -0.004191
0.643117 0.596188 -0.004030
0.636732 0.584403 -0.002710
0.650040 0.592315 -0.004996
0.657926 0.594699 -0.006291
0.668082 0.599195 -0.008002
0.670126 0.595728 -0.008238
0.674016 0.594035 -0.008814
0.681181 0.595418 -0.009986
0.685891 0.594418 -0.010715
0.672280 0.576362 -0.008129
0.682333 0.580365 -0.009831
0.696729 0.588199 -0.012318
0.705409 0.590671 -0.013770
0.701516 0.581794 -0.012953
0.698228 0.573566 -0.012249
0.692678 0.563454 -0.011139
0.718250 0.580546 -0.015627
0.727133 0.582891 -0.017108
0.721398 0.572666 -0.015961
0.719082 0.565475 -0.015427
0.728130 0.567888 -0.016926
0.732098 0.565997 -0.017510
0.737141 0.564981 -0.018279
0.761124 0.579361 -0.022421
0.779727 0.589095 -0.025588
0.788719 0.590928 -0.027027
0.795100 0.590622 -0.027989
0.803839 0.592137 -0.029358
0.806367 0.588764 -0.029609
0.813794 0.589196 -0.030715
0.823021 0.590965 -0.032122
0.828444 0.589801 -0.032838
0.816578 0.575690 -0.030492
0.799862 0.558216 -0.027288
0.793938 0.548977 -0.025972
0.796771 0.546274 -0.026176
0.816718 0.555974 -0.029348
0.846629 0.567763 -0.033852
0.869544 0.579101 -0.037432
0.867036 0.567771 -0.036150
0.903515 0.588136 -0.041951
0.913527 0.590169 -0.043167
0.922317 0.591354 -0.044143
0.919598 0.584832 -0.043137
0.883144 0.556043 -0.036416
0.929571 0.577821 -0.043061
0.945413 0.583706 -0.045078
0.955415 0.585763 -0.046083
0.090733 0.610180 0.044057
0.092693 0.608592 0.043810
0.094303 0.598640 0.044390
0.096812 0.608069 0.043093
0.098981 0.608984 0.042637
0.101722 0.619474 0.041240
0.103863 0.617926 0.041047
0.106009 0.616098 0.040895
0.108395 0.617533 0.040430
0.111121 0.623165 0.039549
0.114199 0.632459 0.038303
0.115300 0.615196 0.039782
0.116786 0.603879 0.040679
0.119097 0.602791 0.040541
0.121551 0.603032 0.040278
0.124051 0.603413 0.040014
0.126669 0.604664 0.039670
0.129200 0.604697 0.039465
0.131637 0.603603 0.039390
0.134375 0.605043 0.039060
0.137054 0.605655 0.038827
0.139562 0.604615 0.038779
0.141867 0.601849 0.038924
0.144862 0.604413 0.038512
0.147405 0.603299 0.038500
0.150077 0.603044 0.038404
0.152782 0.602909 0.038302
0.155249 0.601073 0.038390
0.156390 0.590591 0.039413
0.160186 0.597451 0.038578
0.164562 0.607387 0.037414
0.167413 0.607585 0.037302
0.170425 0.608634 0.037101
0.174210 0.613935 0.036442
0.177141 0.614198 0.036330
0.179135 0.609380 0.036771
0.182140 0.610034 0.036620
0.187097 0.620557 0.035396
0.190559 0.623099 0.035038
0.190051 0.606233 0.036795
0.192841 0.605744 0.036769
0.195581 0.605014 0.036767
0.198322 0.604294 0.036764
0.201240 0.604362 0.036672
0.203187 0.600197 0.037043
0.205741 0.598756 0.037113
0.209109 0.600739 0.036805
0.213259 0.605803 0.036153
0.217970 0.612885 0.035274
0.221430 0.614776 0.034963
0.223615 0.611680 0.035200
0.224628 0.604269 0.035914
0.227128 0.602610 0.035987
0.229788 0.601570 0.035988
0.232385 0.600326 0.036009
0.233545 0.594076 0.036585
0.239643 0.605010 0.035236
0.241773 0.602134 0.035428
0.244988 0.602942 0.035202
0.248959 0.606178 0.034698
0.254001 0.612728 0.033815
0.257079 0.612836 0.033652
0.260053 0.612592 0.033525
0.263485 0.613741 0.033235
0.266282 0.612914 0.033164
0.267573 0.607619 0.033601
0.269644 0.604741 0.033758
0.269936 0.596796 0.034495
0.277328 0.609232 0.032886
0.282577 0.615284 0.032002
0.286504 0.617491 0.031554
0.288338 0.613921 0.031770
0.290264 0.610670 0.031947
0.288298 0.597196 0.033316
0.293426 0.602565 0.032482
0.298141 0.606700 0.031786
0.302465 0.609708 0.031214
0.308564 0.617054 0.030123
0.311821 0.617158 0.029881
0.309503 0.603639 0.031254
0.311487 0.600796 0.031359
0.314626 0.600744 0.031128
0.317906 0.600998 0.030856
0.321106 0.601031 0.030605
0.322369 0.596606 0.030890
0.322453 0.589599 0.031487
0.328500 0.596044 0.030447
0.334904 0.603088 0.029323
0.339411 0.605805 0.028719
0.342285 0.604915 0.028553
0.345442 0.604618 0.028310
0.349455 0.606098 0.027842
0.353651 0.607893 0.027328
0.358044 0.610022 0.026767
0.362818 0.612845 0.026111
0.364281 0.608932 0.026298
0.364188 0.601995 0.026868
0.369543 0.605860 0.026066
0.375441 0.610662 0.025134
0.378821 0.610501 0.024831
0.382369 0.610628 0.024485
0.385086 0.609166 0.024340
0.389922 0.611631 0.023681
0.394162 0.612919 0.023168
0.395140 0.608230 0.023433
0.396267 0.603877 0.023654
0.399955 0.604131 0.023266
0.406995 0.610234 0.022094
0.408653 0.606824 0.022181
0.410402 0.603609 0.022241
0.413043 0.601946 0.022090
0.417776 0.603807 0.021458
0.422564 0.605688 0.020816
0.427580 0.607873 0.020124
0.433729 0.611830 0.019181
0.430890 0.601150 0.020249
0.433742 0.599754 0.020037
0.437656 0.600034 0.019587
0.440948 0.599298 0.019274
0.443415 0.597264 0.019139
0.446528 0.596228 0.018859
0.450480 0.596453 0.018395
0.455598 0.598394 0.017679
0.458663 0.597201 0.017405
0.462349 0.596913 0.016995
0.467498 0.598733 0.016272
0.471922 0.599431 0.015704
0.475649 0.599082 0.015283
0.479249 0.598522 0.014886
0.482834 0.597915 0.014491
0.485900 0.596559 0.014201
0.492622 0.600231 0.013149
0.495587 0.598665 0.012877
0.499642 0.598567 0.012376
0.503138 0.597682 0.011988
0.506577 0.596699 0.011609
0.510727 0.596628 0.011083
0.515873 0.597817 0.010352
0.520270 0.597977 0.009771
0.524115 0.597389 0.009300
0.528157 0.597020 0.008787
0.532540 0.597043 0.008202
0.537108 0.597254 0.007578
0.544111 0.600412 0.006467
0.547219 0.598726 0.006130
0.550901 0.597718 0.005675
0.556729 0.599252 0.004793
0.561105 0.598993 0.004195
0.567492 0.601054 0.003200
0.570327 0.598902 0.002898
0.574378 0.598145 0.002355
0.577612 0.596422 0.001967
0.583633 0.597835 0.001033
0.586566 0.595717 0.000696
0.590599 0.594811 0.000141
0.599354 0.599063 -0.001330
0.604985 0.599786 -0.002199
0.609621 0.599373 -0.002879
0.612018 0.596523 -0.003133
0.614309 0.593564 -0.003372
0.617686 0.591747 -0.003824
0.620557 0.589388 -0.004183
0.619597 0.583075 -0.003818
0.626392 0.584740 -0.004934
0.636885 0.590062 -0.006755
0.645492 0.593343 -0.008218
0.645170 0.587651 -0.007991
0.659429 0.596343 -0.010527
0.670778 0.601986 -0.012511
0.668300 0.594131 -0.011888
0.675693 0.595801 -0.013129
0.681740 0.596110 -0.014118
0.685496 0.594211 -0.014679
0.683819 0.587243 -0.014222
0.688889 0.586561 -0.015033
0.697973 0.589499 -0.016596
0.705715 0.591116 -0.017906
0.711113 0.590552 -0.018778
0.705188 0.579908 -0.017536
0.695785 0.566356 -0.015650
0.706529 0.570534 -0.017517
0.731297 0.586672 -0.021984
0.724791 0.575760 -0.020633
0.725019 0.570699 -0.020531
0.721452 0.562508 -0.019724
0.725221 0.560514 -0.020270
0.729760 0.559149 -0.020953
0.780932 0.590345 -0.030047
0.787368 0.590143 -0.031039
0.793388 0.589581 -0.031943
0.795903 0.586244 -0.032191
0.798159 0.582737 -0.032378
0.813802 0.589579 -0.034999
0.821564 0.590255 -0.036158
0.829219 0.590815 -0.037278
0.831390 0.587234 -0.037382
0.823977 0.576582 -0.035730
0.822296 0.555774 -0.034044
0.869496 0.584622 -0.042099
0.880822 0.587701 -0.043686
0.882408 0.583927 -0.043510
0.880999 0.578147 -0.042782
0.900609 0.586906 -0.045749
0.911804 0.589797 -0.047190
0.920371 0.590876 -0.048136
0.925146 0.589411 -0.048390
0.947572 0.586095 -0.049719
0.958137 0.588539 -0.050833
0.957169 0.583593 -0.049952
0.090581 0.598682 0.042846
0.092850 0.605759 0.041726
0.094905 0.606306 0.041269
0.096699 0.600730 0.041448
0.098640 0.598060 0.041346
0.101460 0.610883 0.039658
0.103657 0.611094 0.039277
0.105868 0.610971 0.038944
0.108343 0.614280 0.038263
0.111159 0.621575 0.037170
0.114174 0.630320 0.035928
0.115894 0.621297 0.036586
0.116808 0.602999 0.038261
0.119173 0.602763 0.038021
0.121573 0.602595 0.037787
0.124187 0.604372 0.037354
0.126480 0.602469 0.037333
0.128992 0.602563 0.037107
0.131600 0.603284 0.036825
0.134233 0.603940 0.036560
0.136905 0.604664 0.036298
0.139390 0.603581 0.036246
0.141893 0.602539 0.036200
0.144659 0.603413 0.035951
0.147362 0.603617 0.035785
0.150010 0.603258 0.035690
0.152771 0.603586 0.035525
0.155075 0.600694 0.035728
0.156480 0.591996 0.036589
0.161053 0.603807 0.035156
0.164482 0.607798 0.034603
0.167386 0.608344 0.034441
0.170268 0.608660 0.034309
0.173232 0.609358 0.034137
0.176595 0.612154 0.033729
0.178690 0.607952 0.034116
0.182284 0.611745 0.033598
0.186729 0.619652 0.032613
0.190838 0.625463 0.031865
0.189582 0.604893 0.034118
0.192375 0.604459 0.034081
0.195020 0.603325 0.034124
0.197747 0.602590 0.034120
0.200803 0.603315 0.033948
0.203668 0.603153 0.033875
0.204918 0.596114 0.034589
0.208916 0.600777 0.033959
0.213476 0.607522 0.033084
0.217278 0.610949 0.032587
0.220643 0.612507 0.032301
0.223917 0.613636 0.032061
0.224721 0.605388 0.032903
0.226426 0.600765 0.033324
0.229681 0.601917 0.033072
0.232691 0.602136 0.032925
0.233953 0.596201 0.033491
0.239009 0.603521 0.032506
0.242764 0.606166 0.032062
0.244997 0.603637 0.032219
0.249372 0.608181 0.031541
0.252136 0.607373 0.031488
0.256722 0.612337 0.030749
0.259792 0.612399 0.030583
0.263038 0.612979 0.030350
0.264951 0.609491 0.030597
0.266198 0.604107 0.031067
0.266132 0.595016 0.031978
0.273347 0.607186 0.030344
0.277617 0.610600 0.029749
0.281694 0.613353 0.029227
0.284754 0.613192 0.029050
0.287433 0.611978 0.028997
0.285940 0.599574 0.030298
0.290276 0.602916 0.029685
0.293674 0.603695 0.029379
0.296578 0.603156 0.029229
0.300278 0.604628 0.028828
0.305710 0.610376 0.027893
0.310869 0.615269 0.027056
0.309712 0.604597 0.028141
0.311598 0.601501 0.028286
0.314738 0.601441 0.028051
0.317482 0.600427 0.027931
0.320270 0.599512 0.027794
0.323124 0.598746 0.027635
0.322558 0.590236 0.028452
0.325906 0.590649 0.028139
0.336018 0.605944 0.025923
0.339351 0.606070 0.025630
0.341115 0.602787 0.025770
0.343819 0.601552 0.025644
0.346986 0.601290 0.025389
0.350931 0.602622 0.024923
0.355575 0.605329 0.024271
0.361668 0.610884 0.023238
0.366791 0.614337 0.022471
0.368205 0.610322 0.022682
0.369006 0.605167 0.023043
0.372442 0.605206 0.022714
0.376492 0.606389 0.022227
0.380391 0.607230 0.021780
0.384303 0.608045 0.021330
0.389383 0.610978 0.020588
0.392095 0.609471 0.020441
0.391698 0.602322 0.021061
0.393284 0.598855 0.021180
0.401357 0.606952 0.019704
0.404311 0.605850 0.019486
0.407239 0.604693 0.019273
0.409634 0.602612 0.019184
0.414136 0.604126 0.018588
0.416878 0.602613 0.018412
0.420121 0.601933 0.018114
0.423454 0.601382 0.017794
0.426643 0.600574 0.017505
0.429531 0.599261 0.017284
0.433576 0.599794 0.016793
0.437233 0.599667 0.016391
0.440517 0.598924 0.016073
0.443494 0.597684 0.015823
0.446331 0.596219 0.015602
0.451299 0.597991 0.014897
0.455166 0.598034 0.014441
0.459858 0.599270 0.013799
0.463169 0.598408 0.013465
0.467187 0.598562 0.012972
0.471435 0.599008 0.012428
0.475425 0.599040 0.011939
0.479206 0.598736 0.011494
0.482921 0.598310 0.011062
0.486971 0.598321 0.010556
0.491929 0.599545 0.009852
0.495739 0.599140 0.009394
0.498969 0.597920 0.009059
0.502602 0.597223 0.008634
