ply
format ascii 1.0
comment ---
element vertex 1678
property float x
property float y
property float z
element face 0
property list uchar uint vertex_indices
end_header
0.001558 0.619345 -0.022234
0.004240 0.617132 -0.022298
0.007131 0.621140 -0.022188
0.009908 0.621484 -0.022179
0.012707 0.622209 -0.022157
0.015240 0.617531 -0.022282
0.018052 0.618667 -0.022246
0.020854 0.619458 -0.022217
0.023660 0.620161 -0.022189
0.026377 0.619470 -0.022198
0.029121 0.619210 -0.022193
0.031911 0.619545 -0.022170
0.034756 0.620496 -0.022128
0.037542 0.620647 -0.022106
0.040173 0.619074 -0.022131
0.043064 0.620322 -0.022075
0.045847 0.620371 -0.022050
0.048515 0.619315 -0.022054
0.051688 0.622881 -0.021927
0.054584 0.623732 -0.021874
0.057109 0.621411 -0.021908
0.059949 0.621761 -0.021864
0.063155 0.624896 -0.021740
0.064874 0.616689 -0.021933
0.067307 0.614158 -0.021964
0.069973 0.613392 -0.021944
0.072751 0.613410 -0.021898
0.075544 0.613505 -0.021849
0.078332 0.613528 -0.021798
0.080967 0.612585 -0.021773
0.083689 0.612191 -0.021730
0.087279 0.616852 -0.021538
0.090533 0.619327 -0.021406
0.093162 0.618196 -0.021375
0.095981 0.618114 -0.021311
0.098558 0.616736 -0.021282
0.101147 0.615460 -0.021247
0.103957 0.615319 -0.021176
0.106544 0.614066 -0.021135
0.110144 0.617670 -0.020947
0.113429 0.619613 -0.020803
0.115722 0.616916 -0.020796
0.117997 0.614224 -0.020786
0.120732 0.613622 -0.020709
0.123297 0.612283 -0.020652
0.126281 0.612724 -0.020537
0.129117 0.612504 -0.020438
0.132885 0.616010 -0.020221
0.136132 0.617287 -0.020067
0.138872 0.616519 -0.019974
0.141976 0.617126 -0.019834
0.145903 0.620742 -0.019593
0.149167 0.621763 -0.019430
0.151922 0.620883 -0.019324
0.154616 0.619778 -0.019222
0.157139 0.618082 -0.019136
0.159883 0.617158 -0.019020
0.162742 0.616616 -0.018888
0.166023 0.617443 -0.018707
0.169263 0.618068 -0.018527
0.172113 0.617396 -0.018388
0.175938 0.619761 -0.018140
0.178911 0.619383 -0.017982
0.182125 0.619709 -0.017795
0.186774 0.624281 -0.017455
0.185739 0.611936 -0.017710
0.188726 0.611592 -0.017538
0.191778 0.611406 -0.017357
0.194579 0.610483 -0.017199
0.197595 0.610150 -0.017018
0.200363 0.609113 -0.016859
0.203971 0.610335 -0.016614
0.210516 0.619280 -0.016074
0.214229 0.620535 -0.015819
0.217081 0.619508 -0.015649
0.220148 0.619026 -0.015458
0.223152 0.618373 -0.015273
0.226138 0.617671 -0.015090
0.227292 0.612497 -0.015087
0.230373 0.612083 -0.014896
0.232976 0.610528 -0.014753
0.235130 0.607951 -0.014655
0.238085 0.607286 -0.014484
0.241226 0.607059 -0.014298
0.244316 0.606722 -0.014121
0.247556 0.606731 -0.013935
0.250665 0.606459 -0.013768
0.254437 0.607649 -0.013544
0.257143 0.606534 -0.013428
0.259891 0.605557 -0.013316
0.263118 0.605633 -0.013167
0.266692 0.606457 -0.012997
0.269978 0.606706 -0.012863
0.273004 0.606459 -0.012763
0.276133 0.606469 -0.012665
0.279468 0.606934 -0.012560
0.282183 0.606217 -0.012523
0.284189 0.604189 -0.012560
0.287057 0.603921 -0.012533
0.290308 0.604449 -0.012487
0.294118 0.606087 -0.012407
0.296959 0.605942 -0.012424
0.299630 0.605551 -0.012468
0.302281 0.605198 -0.012528
0.305053 0.605141 -0.012591
0.309168 0.607585 -0.012559
-0.341171 0.605724 -0.012592
-0.338802 0.606353 -0.012491
-0.336671 0.607502 -0.012383
-0.335027 0.609637 -0.012248
-0.332467 0.610184 -0.012201
-0.327980 0.607209 -0.012330
-0.325601 0.608227 -0.012296
-0.323989 0.610797 -0.012209
-0.321409 0.611617 -0.012218
-0.318351 0.611589 -0.012282
-0.314937 0.610919 -0.012390
-0.311952 0.611147 -0.012474
-0.309114 0.611725 -0.012558
-0.305989 0.611785 -0.012678
-0.303051 0.612276 -0.012794
-0.299867 0.612309 -0.012942
-0.296293 0.611561 -0.013136
-0.293222 0.611896 -0.013295
-0.289572 0.611024 -0.013515
-0.286699 0.611841 -0.013672
-0.283914 0.612890 -0.013829
-0.280775 0.613191 -0.014025
-0.277412 0.613004 -0.014247
-0.273876 0.612421 -0.014492
-0.270803 0.612894 -0.014697
-0.267454 0.612727 -0.014933
-0.264352 0.613138 -0.015148
-0.261571 0.614318 -0.015336
-0.258608 0.615070 -0.015543
-0.255131 0.614558 -0.015800
-0.251441 0.613479 -0.016079
-0.248202 0.613489 -0.016315
-0.245118 0.613873 -0.016537
-0.241658 0.613256 -0.016795
-0.238465 0.613300 -0.017026
-0.235844 0.614851 -0.017200
-0.232302 0.613901 -0.017463
-0.228831 0.613086 -0.017718
-0.226011 0.614037 -0.017907
-0.223130 0.614807 -0.018100
-0.219695 0.613961 -0.018345
-0.216280 0.613108 -0.018586
-0.213561 0.614265 -0.018755
-0.210820 0.615351 -0.018924
-0.207439 0.614463 -0.019154
-0.204430 0.614671 -0.019344
-0.201502 0.615101 -0.019522
-0.198211 0.614330 -0.019735
-0.195252 0.614587 -0.019911
-0.192306 0.614856 -0.020083
-0.189539 0.615700 -0.020232
-0.185952 0.613697 -0.020465
-0.182871 0.613367 -0.020642
-0.180166 0.614331 -0.020776
-0.177323 0.614790 -0.020921
-0.174612 0.615717 -0.021048
-0.171762 0.616115 -0.021187
-0.168814 0.616107 -0.021334
-0.165683 0.615344 -0.021499
-0.162714 0.615165 -0.021643
-0.159890 0.615533 -0.021768
-0.157127 0.616140 -0.021882
-0.154004 0.615194 -0.022037
-0.151226 0.615680 -0.022147
-0.148170 0.614913 -0.022289
-0.145321 0.615019 -0.022402
-0.143018 0.617638 -0.022444
-0.139828 0.616120 -0.022596
-0.137029 0.616401 -0.022695
-0.134259 0.616813 -0.022788
-0.131318 0.616334 -0.022901
-0.128265 0.615216 -0.023028
-0.125622 0.616215 -0.023096
-0.122941 0.617021 -0.023166
-0.120367 0.618446 -0.023218
-0.117695 0.619355 -0.023280
-0.114342 0.616208 -0.023444
-0.111623 0.616752 -0.023511
-0.108766 0.616428 -0.023597
-0.105934 0.616217 -0.023677
-0.103274 0.617125 -0.023726
-0.100523 0.617435 -0.023789
-0.097354 0.614730 -0.023924
-0.094746 0.615986 -0.023958
-0.091938 0.615763 -0.024026
-0.089167 0.615793 -0.024086
-0.086498 0.616651 -0.024123
-0.083688 0.616330 -0.024188
-0.080921 0.616349 -0.024242
-0.078045 0.615310 -0.024319
-0.075389 0.616332 -0.024344
-0.072643 0.616490 -0.024389
-0.069874 0.616385 -0.024438
-0.067147 0.616740 -0.024474
-0.064474 0.617747 -0.024492
-0.061608 0.616397 -0.024565
-0.058879 0.616720 -0.024597
-0.056031 0.615336 -0.024667
-0.053341 0.616173 -0.024683
-0.050592 0.616129 -0.024717
-0.047860 0.616364 -0.024744
-0.045127 0.616611 -0.024769
-0.042370 0.616354 -0.024804
-0.039636 0.616558 -0.024827
-0.036617 0.609108 -0.025026
-0.034274 0.620389 -0.024788
-0.031612 0.623885 -0.024730
-0.028852 0.624542 -0.024736
-0.026042 0.622802 -0.024796
-0.023274 0.622859 -0.024813
-0.020507 0.623137 -0.024824
-0.017737 0.623160 -0.024839
-0.014967 0.622829 -0.024860
-0.012200 0.622479 -0.024880
-0.009449 0.620630 -0.024934
-0.006721 0.618415 -0.024994
-0.003938 0.620284 -0.024959
-0.001142 0.621948 -0.024927
0.001523 0.618282 -0.025016
0.004293 0.618908 -0.025005
0.007074 0.619683 -0.024989
0.009878 0.620807 -0.024963
0.012593 0.619765 -0.024986
0.015430 0.621307 -0.024948
0.017991 0.617557 -0.025029
0.020741 0.617532 -0.025024
0.023583 0.618927 -0.024984
0.026314 0.618504 -0.024984
0.029098 0.618843 -0.024965
0.031990 0.620498 -0.024914
0.034853 0.621603 -0.024874
0.037394 0.618885 -0.024921
0.040046 0.617625 -0.024932
0.042868 0.618219 -0.024898
0.045613 0.617980 -0.024882
0.048354 0.617708 -0.024864
0.051094 0.617419 -0.024845
0.054367 0.621764 -0.024716
0.057335 0.623200 -0.024653
0.060137 0.623174 -0.024621
0.063028 0.623824 -0.024572
0.064671 0.615077 -0.024741
0.067243 0.613606 -0.024737
0.070004 0.613522 -0.024699
0.072864 0.614090 -0.024643
0.075666 0.614215 -0.024595
0.078402 0.613888 -0.024555
0.081086 0.613236 -0.024520
0.083755 0.612505 -0.024486
0.086959 0.614903 -0.024373
0.090059 0.616563 -0.024274
0.092919 0.616778 -0.024208
0.095575 0.615853 -0.024167
0.098611 0.616946 -0.024074
0.102029 0.619907 -0.023931
0.104806 0.619496 -0.023869
0.108061 0.621411 -0.023745
0.110443 0.619040 -0.023725
0.113468 0.619745 -0.023625
0.115733 0.616917 -0.023611
0.117443 0.611705 -0.023656
0.120260 0.611515 -0.023570
0.123281 0.612178 -0.023458
0.125849 0.610877 -0.023394
0.129664 0.614717 -0.023192
0.132498 0.614423 -0.023094
0.135100 0.613189 -0.023017
0.137687 0.611910 -0.022939
0.140829 0.612754 -0.022799
0.144856 0.616830 -0.022568
0.148350 0.618767 -0.022390
0.150985 0.617511 -0.022295
0.153731 0.616654 -0.022185
0.156426 0.615611 -0.022077
0.158878 0.613740 -0.021989
0.161601 0.612804 -0.021871
0.165290 0.615040 -0.021658
0.168300 0.614965 -0.021507
0.171523 0.615532 -0.021333
0.174764 0.616100 -0.021155
0.178369 0.617735 -0.020940
0.182068 0.619563 -0.020715
0.185851 0.621547 -0.020480
0.185644 0.611686 -0.020603
0.188770 0.611749 -0.020421
0.191933 0.611877 -0.020233
0.194218 0.609497 -0.020122
0.197826 0.610818 -0.019890
0.200331 0.609052 -0.019754
0.204160 0.610867 -0.019499
0.210367 0.618904 -0.019036
0.214426 0.621068 -0.018761
0.216600 0.618279 -0.018649
0.218458 0.614732 -0.018563
0.221862 0.615136 -0.018342
0.225334 0.615674 -0.018117
0.228613 0.615702 -0.017908
0.232947 0.618253 -0.017612
0.238602 0.623861 -0.017205
0.237897 0.614387 -0.017340
0.241082 0.614158 -0.017147
0.245774 0.617374 -0.016832
0.250107 0.619695 -0.016552
0.251744 0.615949 -0.016502
0.252973 0.611403 -0.016490
0.261209 0.622225 -0.015904
0.263792 0.620649 -0.015794
0.264726 0.615622 -0.015826
0.269023 0.617802 -0.015591
0.272156 0.617544 -0.015460
0.274142 0.614969 -0.015431
0.275844 0.611911 -0.015435
0.280478 0.614851 -0.015215
0.284726 0.617008 -0.015038
0.285612 0.612554 -0.015139
0.289815 0.614705 -0.014992
0.293552 0.615971 -0.014895
0.299761 0.621992 -0.014624
0.300230 0.617108 -0.014806
0.303082 0.616844 -0.014819
0.302822 0.610877 -0.015078
0.305937 0.611294 -0.015097
0.306106 0.606403 -0.015345
0.309705 0.607866 -0.015356
-0.342998 0.608225 -0.015283
-0.339716 0.607262 -0.015257
-0.337797 0.608837 -0.015146
-0.335397 0.609628 -0.015083
-0.332031 0.608719 -0.015105
-0.328535 0.607622 -0.015152
-0.326566 0.609453 -0.015098
-0.324190 0.610612 -0.015088
-0.321647 0.611539 -0.015104
-0.318120 0.610634 -0.015209
-0.314923 0.610418 -0.015303
-0.312381 0.611554 -0.015358
-0.309141 0.611366 -0.015480
-0.306525 0.612488 -0.015564
-0.303643 0.613132 -0.015681
-0.300605 0.613509 -0.015821
-0.296392 0.611467 -0.016065
-0.293430 0.612060 -0.016218
-0.290290 0.612313 -0.016394
-0.287072 0.612422 -0.016585
-0.283937 0.612732 -0.016776
-0.281117 0.613763 -0.016947
-0.276914 0.611711 -0.017237
-0.273970 0.612481 -0.017430
-0.270907 0.612996 -0.017636
-0.267727 0.613243 -0.017855
-0.264469 0.613304 -0.018084
-0.261724 0.614585 -0.018273
-0.258475 0.614657 -0.018504
-0.255064 0.614313 -0.018751
-0.251703 0.614060 -0.018994
-0.248713 0.614719 -0.019207
-0.245568 0.614967 -0.019432
-0.241508 0.612807 -0.019733
-0.238755 0.614015 -0.019924
-0.236062 0.615385 -0.020108
-0.232884 0.615437 -0.020332
-0.229341 0.614447 -0.020584
-0.225819 0.613451 -0.020833
-0.222668 0.613441 -0.021048
-0.219607 0.613654 -0.021254
-0.216608 0.614017 -0.021451
-0.213662 0.614512 -0.021641
-0.210674 0.614851 -0.021831
-0.207350 0.614128 -0.022048
-0.204404 0.614526 -0.022229
-0.201353 0.614560 -0.022416
-0.198173 0.614137 -0.022612
-0.195207 0.614365 -0.022785
-0.192541 0.615559 -0.022929
-0.189287 0.614759 -0.023122
-0.185854 0.613270 -0.023327
-0.182985 0.613672 -0.023480
-0.180130 0.614101 -0.023628
-0.177352 0.614788 -0.023765
-0.174390 0.614780 -0.023916
-0.171546 0.615178 -0.024053
-0.168789 0.615889 -0.024178
-0.165952 0.616274 -0.024308
-0.162759 0.615212 -0.024469
-0.159855 0.615249 -0.024600
-0.157033 0.615598 -0.024719
-0.154376 0.616631 -0.024820
-0.151397 0.616265 -0.024949
-0.148545 0.616419 -0.025063
-0.145734 0.616726 -0.025169
-0.142715 0.616049 -0.025295
-0.139839 0.615991 -0.025404
-0.137174 0.616921 -0.025487
-0.134332 0.616981 -0.025586
-0.131436 0.616741 -0.025689
-0.128465 0.616062 -0.025799
-0.125485 0.615266 -0.025908
-0.123007 0.617165 -0.025956
-0.120309 0.617896 -0.026026
-0.117409 0.617460 -0.026119
-0.114675 0.617964 -0.026189
-0.111688 0.616909 -0.026289
-0.108850 0.616709 -0.026369
-0.106120 0.617178 -0.026432
-0.103427 0.617896 -0.026488
-0.100599 0.617692 -0.026560
-0.097461 0.615227 -0.026676
-0.094715 0.615471 -0.026734
-0.092148 0.617092 -0.026763
-0.089240 0.616080 -0.026842
-0.086460 0.616029 -0.026900
-0.083696 0.616094 -0.026954
-0.080814 0.615063 -0.027027
-0.078131 0.615798 -0.027063
-0.075273 0.614855 -0.027130
-0.072666 0.616386 -0.027147
-0.069851 0.615797 -0.027204
-0.067144 0.616352 -0.027236
-0.064419 0.616723 -0.027271
-0.061716 0.617401 -0.027297
-0.058851 0.615953 -0.027363
-0.056219 0.617636 -0.027368
-0.053308 0.615238 -0.027448
-0.050622 0.616197 -0.027463
-0.047878 0.616236 -0.027493
-0.045096 0.615534 -0.027537
-0.042371 0.615885 -0.027558
-0.039507 0.612959 -0.027640
-0.036804 0.613604 -0.027653
-0.034335 0.621653 -0.027527
-0.031597 0.622665 -0.027531
-0.028843 0.623416 -0.027538
-0.026059 0.622829 -0.027568
-0.023251 0.620134 -0.027636
-0.020485 0.619310 -0.027668
-0.017748 0.622661 -0.027622
-0.014978 0.620937 -0.027667
-0.012218 0.620858 -0.027681
-0.009489 0.617341 -0.027757
-0.006735 0.618001 -0.027754
-0.003986 0.618048 -0.027761
-0.001250 0.617486 -0.027778
0.001582 0.620626 -0.027725
0.004281 0.618666 -0.027765
0.007050 0.619127 -0.027759
0.009803 0.619054 -0.027761
0.012644 0.620908 -0.027726
0.015368 0.620081 -0.027739
0.018080 0.619153 -0.027752
0.020709 0.616974 -0.027787
0.023498 0.617568 -0.027769
0.026226 0.617181 -0.027767
0.028934 0.616552 -0.027769
0.032059 0.621307 -0.027669
0.035005 0.623352 -0.027618
0.037561 0.620708 -0.027652
0.040167 0.618840 -0.027669
0.042804 0.617466 -0.027676
0.045599 0.617743 -0.027650
0.048293 0.617030 -0.027641
0.051087 0.617259 -0.027612
0.053866 0.617314 -0.027585
0.057057 0.620778 -0.027492
0.060382 0.625036 -0.027382
0.063455 0.627019 -0.027312
0.064650 0.614815 -0.027507
0.067399 0.614630 -0.027474
0.070097 0.614065 -0.027446
0.072912 0.614308 -0.027401
0.075764 0.614753 -0.027349
0.078441 0.614037 -0.027317
0.081019 0.612726 -0.027295
0.083819 0.612790 -0.027243
0.086782 0.613779 -0.027171
0.089967 0.615950 -0.027073
0.092624 0.615056 -0.027032
0.095497 0.615350 -0.026966
0.098375 0.615622 -0.026897
0.102917 0.624375 -0.026655
0.106139 0.626083 -0.026550
0.109048 0.626153 -0.026475
0.111485 0.623937 -0.026443
0.112980 0.617401 -0.026497
0.115706 0.616729 -0.026429
0.117727 0.612915 -0.026423
0.121278 0.615905 -0.026272
0.123346 0.612403 -0.026254
0.126121 0.611968 -0.026168
0.130104 0.616477 -0.025974
0.133351 0.617815 -0.025842
0.135652 0.615333 -0.025790
0.137404 0.610782 -0.025780
0.139835 0.608949 -0.025708
0.144450 0.615288 -0.025451
0.147639 0.616142 -0.025310
0.150405 0.615407 -0.025202
0.153245 0.614926 -0.025084
0.155870 0.613675 -0.024980
0.158338 0.611892 -0.024885
0.160997 0.610774 -0.024772
0.164396 0.612096 -0.024596
0.168498 0.615611 -0.024363
0.171712 0.616144 -0.024197
0.174834 0.616329 -0.024035
0.177504 0.615075 -0.023905
0.181111 0.616669 -0.023699
0.185765 0.621305 -0.023411
0.185821 0.612223 -0.023471
0.188831 0.611942 -0.023302
0.191383 0.610324 -0.023166
0.194955 0.611588 -0.022949
0.197385 0.609611 -0.022817
0.200824 0.610414 -0.022606
0.203017 0.607803 -0.022487
0.210615 0.619574 -0.021964
0.214053 0.620100 -0.021749
0.215651 0.615834 -0.021669
0.217229 0.611606 -0.021589
0.220470 0.611636 -0.021386
0.224199 0.612848 -0.021147
0.227744 0.613557 -0.020922
0.231244 0.614116 -0.020701
0.236363 0.618493 -0.020364
0.237239 0.612785 -0.020338
0.240502 0.612743 -0.020140
0.244235 0.613768 -0.019912
0.248863 0.616782 -0.019622
0.250550 0.613164 -0.019550
0.252970 0.611255 -0.019430
0.256724 0.612302 -0.019219
0.262087 0.616796 -0.018900
0.265011 0.616021 -0.018764
0.265533 0.610239 -0.018806
0.267578 0.607779 -0.018747
0.272618 0.611553 -0.018487
0.276048 0.612011 -0.018351
0.278350 0.610232 -0.018304
0.281306 0.609836 -0.018223
0.285930 0.612776 -0.018039
0.288987 0.612659 -0.017976
0.292231 0.612958 -0.017913
0.287105 0.597346 -0.018426
0.294117 0.605028 -0.018135
0.299538 0.609648 -0.017967
0.303473 0.611496 -0.017914
0.305020 0.608989 -0.018030
0.305939 0.605455 -0.018199
0.312117 0.611545 -0.018047
-0.342027 0.605735 -0.018184
-0.341485 0.609722 -0.017987
-0.338504 0.609420 -0.017958
-0.335643 0.609407 -0.017935
-0.333061 0.609982 -0.017908
-0.329835 0.609436 -0.017938
-0.326968 0.609627 -0.017958
-0.324789 0.611199 -0.017946
-0.321027 0.609823 -0.018054
-0.318326 0.610541 -0.018105
-0.315474 0.611037 -0.018178
-0.312176 0.610714 -0.018295
-0.308933 0.610546 -0.018420
-0.306212 0.611478 -0.018521
-0.303466 0.612421 -0.018635
-0.300277 0.612507 -0.018790
-0.297529 0.613553 -0.018924
-0.293874 0.612729 -0.019130
-0.290451 0.612410 -0.019329
-0.287158 0.612382 -0.019526
-0.284163 0.613021 -0.019709
-0.280840 0.612958 -0.019921
-0.278241 0.614529 -0.020087
-0.274027 0.612457 -0.020372
-0.270999 0.613068 -0.020577
-0.267880 0.613476 -0.020792
-0.264887 0.614180 -0.021000
-0.261546 0.614052 -0.021235
-0.257986 0.613370 -0.021486
-0.255157 0.614455 -0.021687
-0.251988 0.614693 -0.021912
-0.248918 0.615163 -0.022131
-0.244569 0.612327 -0.022439
-0.241771 0.613429 -0.022636
-0.238949 0.614464 -0.022834
-0.235840 0.614725 -0.023051
-0.232982 0.615643 -0.023248
-0.228751 0.612757 -0.023540
-0.226431 0.615108 -0.023694
-0.222704 0.613483 -0.023946
-0.219674 0.613784 -0.024146
-0.216646 0.614066 -0.024343
-0.213625 0.614332 -0.024536
-0.210579 0.614494 -0.024728
-0.207415 0.614255 -0.024926
-0.204202 0.613814 -0.025123
-0.201447 0.614777 -0.025285
-0.198101 0.613818 -0.025486
-0.195115 0.613972 -0.025658
-0.192418 0.615054 -0.025806
-0.189419 0.615107 -0.025972
-0.186418 0.615116 -0.026135
-0.183141 0.614112 -0.026315
-0.180444 0.615114 -0.026449
-0.177222 0.614194 -0.026618
-0.174318 0.614385 -0.026761
-0.171581 0.615178 -0.026888
-0.168740 0.615563 -0.027020
-0.165961 0.616167 -0.027144
-0.163042 0.616200 -0.027275
-0.159995 0.615671 -0.027413
-0.157247 0.616332 -0.027525
-0.154322 0.616231 -0.027648
-0.151318 0.615751 -0.027774
-0.148618 0.616564 -0.027873
-0.145720 0.616479 -0.027986
-0.142719 0.615878 -0.028104
-0.139957 0.616356 -0.028200
-0.137225 0.616966 -0.028290
-0.134451 0.617368 -0.028381
-0.131472 0.616709 -0.028487
-0.128475 0.615889 -0.028593
-0.125744 0.616428 -0.028673
-0.123040 0.617116 -0.028748
-0.120230 0.617212 -0.028830
-0.117377 0.617028 -0.028914
-0.114465 0.616456 -0.029002
-0.111608 0.616163 -0.029082
-0.108937 0.617002 -0.029142
-0.106203 0.617454 -0.029206
-0.103401 0.617449 -0.029274
-0.100335 0.615580 -0.029370
-0.097504 0.615248 -0.029439
-0.094787 0.615717 -0.029493
-0.092218 0.617333 -0.029528
-0.089471 0.617624 -0.029581
-0.086517 0.616188 -0.029658
-0.083808 0.616735 -0.029703
-0.081040 0.616773 -0.029754
-0.078313 0.617171 -0.029797
-0.075393 0.615694 -0.029867
-0.072669 0.616065 -0.029907
-0.069951 0.616518 -0.029944
-0.067179 0.616373 -0.029988
-0.064449 0.616700 -0.030024
-0.061658 0.616266 -0.030069
-0.058969 0.617135 -0.030094
-0.056280 0.618099 -0.030115
-0.053434 0.616756 -0.030169
-0.050637 0.616004 -0.030212
-0.047902 0.616209 -0.030239
-0.045162 0.616335 -0.030267
-0.042416 0.616337 -0.030295
-0.039646 0.615746 -0.030329
-0.036821 0.613490 -0.030386
-0.034268 0.618957 -0.030332
-0.031612 0.622536 -0.030305
-0.028840 0.622508 -0.030326
-0.026082 0.623168 -0.030336
-0.023294 0.622112 -0.030369
-0.020458 0.614898 -0.030485
-0.017711 0.612226 -0.030537
-0.014989 0.612959 -0.030540
-0.012259 0.614028 -0.030538
-0.009533 0.613540 -0.030556
-0.006789 0.614622 -0.030550
-0.004059 0.614466 -0.030560
-0.001278 0.616540 -0.030539
0.001484 0.617247 -0.030534
0.004236 0.617404 -0.030536
0.006941 0.616220 -0.030555
0.009742 0.617619 -0.030537
0.012567 0.619235 -0.030515
0.015375 0.620195 -0.030500
0.018042 0.618439 -0.030521
0.020712 0.616971 -0.030536
0.023534 0.618072 -0.030515
0.026221 0.617030 -0.030521
0.028962 0.616847 -0.030515
0.031761 0.617411 -0.030496
0.034777 0.620505 -0.030441
0.037527 0.620221 -0.030431
0.040190 0.618988 -0.030432
0.042861 0.617948 -0.030428
0.045688 0.618517 -0.030401
0.048437 0.618275 -0.030383
0.051031 0.616642 -0.030383
0.053838 0.616956 -0.030354
0.057017 0.620327 -0.030280
0.060096 0.622622 -0.030219
0.063436 0.626748 -0.030129
0.064709 0.615142 -0.030261
0.067461 0.614957 -0.030229
0.070217 0.614787 -0.030195
0.072953 0.614475 -0.030160
0.075761 0.614620 -0.030117
0.078505 0.614330 -0.030078
0.081128 0.613290 -0.030047
0.083088 0.608304 -0.030072
0.087291 0.616640 -0.029899
0.090239 0.617388 -0.029834
0.093270 0.618522 -0.029761
0.095873 0.617271 -0.029721
0.098300 0.615132 -0.029692
0.100614 0.612491 -0.029669
0.103037 0.610490 -0.029633
0.105627 0.609367 -0.029581
0.108368 0.608988 -0.029515
0.111506 0.610449 -0.029417
0.115504 0.615733 -0.029255
0.118728 0.617303 -0.029148
0.120596 0.612857 -0.029134
0.123639 0.613587 -0.029034
0.126503 0.613504 -0.028944
0.127925 0.607477 -0.028949
0.133170 0.617029 -0.028691
0.136395 0.618213 -0.028568
0.138321 0.614287 -0.028529
0.139747 0.608570 -0.028519
0.142958 0.609687 -0.028387
0.146930 0.613513 -0.028203
0.150398 0.615353 -0.028049
0.153214 0.614786 -0.027934
0.155934 0.613871 -0.027823
0.158299 0.611741 -0.027730
0.161236 0.611561 -0.027597
0.164360 0.611962 -0.027449
0.168228 0.614725 -0.027252
0.172569 0.618866 -0.027022
0.175259 0.617659 -0.026893
0.175582 0.609143 -0.026906
0.180420 0.614571 -0.026636
0.184724 0.618196 -0.026397
0.185603 0.611585 -0.026366
0.188910 0.612176 -0.026182
0.191815 0.611564 -0.026020
0.194784 0.611112 -0.025851
0.197657 0.610373 -0.025686
0.200741 0.610192 -0.025505
0.202772 0.607147 -0.025387
0.209871 0.617603 -0.024956
0.213490 0.618625 -0.024737
0.214806 0.613649 -0.024657
0.217567 0.612454 -0.024488
0.220754 0.612332 -0.024291
0.224147 0.612698 -0.024082
0.227885 0.613870 -0.023852
0.232350 0.616741 -0.023578
0.234270 0.613468 -0.023460
0.237353 0.612992 -0.023273
0.239762 0.610956 -0.023129
0.242674 0.610110 -0.022958
0.244606 0.607069 -0.022849
0.250041 0.611909 -0.022531
0.252689 0.610497 -0.022387
0.255633 0.609770 -0.022231
0.260398 0.612984 -0.021970
0.263363 0.612315 -0.021826
0.264382 0.607597 -0.021808
0.266669 0.605643 -0.021720
0.270926 0.607803 -0.021523
0.273717 0.606975 -0.021424
0.276372 0.605929 -0.021344
0.280977 0.608820 -0.021159
0.284430 0.609435 -0.021054
0.287271 0.608898 -0.020998
0.288656 0.605621 -0.021039
0.289754 0.601924 -0.021109
0.291530 0.599635 -0.021152
0.298216 0.606634 -0.020928
0.302655 0.609404 -0.020848
0.305914 0.610026 -0.020850
0.306940 0.606647 -0.020989
0.309483 0.606132 -0.021058
-0.345998 0.612079 -0.020803
-0.341504 0.609039 -0.020847
-0.339736 0.610966 -0.020756
-0.337350 0.611872 -0.020713
-0.332981 0.609202 -0.020795
-0.330334 0.609767 -0.020796
-0.327099 0.609302 -0.020844
-0.324403 0.609922 -0.020875
-0.321268 0.609774 -0.020945
-0.318356 0.610117 -0.021016
-0.315865 0.611350 -0.021076
-0.312578 0.611086 -0.021194
-0.309275 0.610834 -0.021326
-0.306015 0.610710 -0.021467
-0.303094 0.611319 -0.021598
-0.300697 0.613060 -0.021709
-0.297595 0.613400 -0.021871
-0.294326 0.613420 -0.022052
-0.290797 0.612906 -0.022256
-0.287457 0.612806 -0.022456
-0.284284 0.613081 -0.022653
-0.280367 0.611718 -0.022900
-0.278054 0.613936 -0.023056
-0.275132 0.614822 -0.023253
-0.271151 0.613276 -0.023516
-0.268164 0.614009 -0.023723
-0.264996 0.614319 -0.023943
-0.261751 0.614436 -0.024169
-0.258438 0.614370 -0.024400
-0.254942 0.613830 -0.024642
-0.251698 0.613879 -0.024869
-0.248848 0.614901 -0.025074
-0.244786 0.612805 -0.025347
-0.241719 0.613215 -0.025562
-0.238819 0.614045 -0.025766
-0.235985 0.615042 -0.025963
-0.232921 0.615406 -0.026173
-0.229260 0.614091 -0.026414
-0.226076 0.614037 -0.026625
-0.223013 0.614289 -0.026827
-0.219722 0.613848 -0.027038
-0.216423 0.613332 -0.027248
-0.213471 0.613794 -0.027434
-0.210468 0.614072 -0.027620
-0.207184 0.613457 -0.027819
-0.204333 0.614133 -0.027990
-0.201179 0.613829 -0.028174
-0.198279 0.614293 -0.028341
-0.195323 0.614551 -0.028508
-0.192137 0.614005 -0.028684
-0.189308 0.614616 -0.028837
-0.186013 0.613596 -0.029012
-0.183528 0.615351 -0.029138
-0.180567 0.615426 -0.029288
-0.177543 0.615233 -0.029438
-0.174613 0.615344 -0.029580
-0.171792 0.615833 -0.029712
-0.168962 0.616269 -0.029841
-0.165793 0.615350 -0.029986
-0.162846 0.615249 -0.030116
-0.160151 0.616139 -0.030228
-0.157225 0.616066 -0.030350
-0.154264 0.615807 -0.030471
-0.151362 0.615754 -0.030586
-0.148536 0.616006 -0.030693
-0.145623 0.615841 -0.030803
-0.142771 0.615920 -0.030906
-0.139921 0.615974 -0.031007
-0.137232 0.616787 -0.031095
-0.134418 0.616983 -0.031187
-0.131401 0.616120 -0.031290
-0.128330 0.614898 -0.031395
-0.125818 0.616591 -0.031461
-0.123065 0.617006 -0.031539
-0.120259 0.617121 -0.031619
-0.117266 0.616126 -0.031710
-0.114274 0.615053 -0.031798
-0.111648 0.616142 -0.031859
-0.108960 0.616872 -0.031922
-0.106211 0.617219 -0.031987
-0.103313 0.616568 -0.032061
-0.100426 0.615918 -0.032132
-0.097594 0.615596 -0.032197
-0.094880 0.616102 -0.032252
-0.092238 0.617175 -0.032298
-0.089269 0.615690 -0.032370
-0.086476 0.615528 -0.032425
-0.083764 0.616026 -0.032472
-0.081110 0.617059 -0.032511
-0.078442 0.618038 -0.032549
-0.075671 0.618064 -0.032595
-0.072785 0.616890 -0.032651
-0.070089 0.617631 -0.032687
-0.067301 0.617384 -0.032730
-0.064485 0.616750 -0.032776
-0.061704 0.616450 -0.032817
-0.058948 0.616443 -0.032853
-0.056236 0.617046 -0.032882
-0.053477 0.616979 -0.032915
-0.050677 0.616209 -0.032954
-0.047921 0.616073 -0.032986
-0.045163 0.615871 -0.033016
-0.042459 0.616753 -0.033035
-0.039675 0.615885 -0.033069
-0.036825 0.613035 -0.033120
-0.034263 0.618168 -0.033095
-0.031575 0.620496 -0.033095
-0.028848 0.622040 -0.033101
-0.026094 0.622887 -0.033112
-0.023339 0.624170 -0.033118
-0.020487 0.616391 -0.033206
-0.017740 0.615618 -0.033229
-0.015001 0.615201 -0.033246
-0.012269 0.614088 -0.033268
-0.009543 0.613494 -0.033285
-0.006827 0.612498 -0.033304
-0.004129 0.610969 -0.033326
-0.001352 0.613548 -0.033309
0.001435 0.615622 -0.033296
0.004149 0.614800 -0.033308
0.006866 0.614242 -0.033316
0.009662 0.615705 -0.033304
0.012545 0.618757 -0.033277
0.015326 0.619213 -0.033271
0.018146 0.620276 -0.033259
0.020789 0.618211 -0.033274
0.023438 0.616505 -0.033284
0.026300 0.618094 -0.033263
0.029101 0.618654 -0.033249
0.031790 0.617677 -0.033248
0.034496 0.617006 -0.033243
0.037373 0.618345 -0.033217
0.040160 0.618546 -0.033201
0.042855 0.617770 -0.033191
0.045689 0.618398 -0.033167
0.048278 0.616656 -0.033164
0.050887 0.615207 -0.033156
0.053702 0.615649 -0.033128
0.056921 0.619402 -0.033068
0.060280 0.623972 -0.032997
0.063263 0.625282 -0.032955
0.064709 0.615013 -0.033022
0.067503 0.615131 -0.032988
0.070218 0.614666 -0.032957
0.072975 0.614491 -0.032922
0.075718 0.614215 -0.032885
0.078423 0.613686 -0.032849
0.081104 0.613018 -0.032812
0.082834 0.606664 -0.032830
0.086840 0.613890 -0.032709
0.091222 0.622841 -0.032567
0.093697 0.620763 -0.032534
0.096440 0.620211 -0.032483
0.099184 0.619658 -0.032429
0.100670 0.612671 -0.032442
0.103137 0.610885 -0.032397
0.105836 0.610288 -0.032337
0.108742 0.610675 -0.032263
0.111125 0.608578 -0.032214
0.115557 0.615882 -0.032057
0.117701 0.612634 -0.032015
0.120495 0.612332 -0.031937
0.123988 0.615002 -0.031821
0.126629 0.613956 -0.031744
0.129010 0.611856 -0.031678
0.131502 0.610251 -0.031602
0.135132 0.613164 -0.031468
0.138174 0.613655 -0.031360
0.140597 0.611745 -0.031278
0.143141 0.610317 -0.031188
0.147177 0.614365 -0.031023
0.149896 0.613502 -0.030917
0.153341 0.615194 -0.030774
0.155843 0.613518 -0.030672
0.158873 0.613662 -0.030541
0.162005 0.614104 -0.030403
0.165473 0.615604 -0.030245
0.168793 0.616531 -0.030091
0.172412 0.618347 -0.029920
0.174129 0.614095 -0.029834
0.176745 0.612717 -0.029703
0.179263 0.611043 -0.029573
0.187337 0.625999 -0.029178
0.185468 0.611178 -0.029248
0.188487 0.610942 -0.029085
0.191983 0.612039 -0.028897
0.194759 0.611036 -0.028739
0.197848 0.610897 -0.028564
0.199581 0.607017 -0.028452
0.203620 0.609423 -0.028226
0.208507 0.613974 -0.027957
0.213102 0.617601 -0.027700
0.215689 0.615910 -0.027538
0.217467 0.612181 -0.027414
0.221396 0.613918 -0.027185
0.224661 0.613940 -0.026987
0.228086 0.614324 -0.026781
0.231737 0.615220 -0.026564
0.235058 0.615285 -0.026364
0.237924 0.614266 -0.026188
0.240018 0.611470 -0.026051
0.242114 0.608740 -0.025918
0.245202 0.608310 -0.025738
0.248816 0.609057 -0.025536
0.252109 0.609081 -0.025354
0.258093 0.614962 -0.025042
0.260668 0.613386 -0.024907
0.262729 0.610769 -0.024804
0.265745 0.610235 -0.024661
0.267484 0.607089 -0.024590
0.270336 0.606321 -0.024472
0.271219 0.601611 -0.024461
0.275004 0.602863 -0.024316
0.279433 0.605404 -0.024150
0.284600 0.609387 -0.023960
0.282505 0.599225 -0.024139
0.285351 0.598826 -0.024087
0.292756 0.607174 -0.023827
0.297508 0.610414 -0.023712
0.300233 0.609871 -0.023707
0.303026 0.609528 -0.023714
0.305483 0.608645 -0.023750
0.307303 0.606689 -0.023830
0.311376 0.608895 -0.023820
-0.345374 0.610233 -0.023703
-0.342547 0.610209 -0.023663
-0.339524 0.609905 -0.023646
-0.335827 0.608437 -0.023675
-0.334386 0.611178 -0.023613
-0.330241 0.609002 -0.023693
-0.327751 0.609970 -0.023709
-0.324221 0.609044 -0.023788
-0.321674 0.610052 -0.023835
-0.318446 0.609818 -0.023927
-0.315889 0.610952 -0.024000
-0.313533 0.612560 -0.024076
-0.309124 0.610144 -0.024264
-0.306475 0.611279 -0.024377
-0.303591 0.611999 -0.024512
-0.300744 0.612846 -0.024656
-0.298323 0.614636 -0.024788
-0.294213 0.612915 -0.025011
-0.291244 0.613620 -0.025186
-0.287884 0.613508 -0.025387
-0.284361 0.613046 -0.025602
-0.280761 0.612407 -0.025826
-0.277857 0.613319 -0.026020
-0.274954 0.614255 -0.026219
-0.271528 0.614001 -0.026446
-0.268508 0.614679 -0.026656
-0.265214 0.614709 -0.026881
-0.261860 0.614582 -0.027110
-0.258614 0.614690 -0.027335
-0.255102 0.614122 -0.027572
-0.251979 0.614486 -0.027791
-0.247977 0.612600 -0.028049
-0.245248 0.613907 -0.028248
-0.241724 0.613142 -0.028481
-0.238706 0.613661 -0.028690
-0.235785 0.614421 -0.028893
-0.232209 0.613382 -0.029122
-0.229270 0.614035 -0.029321
-0.225937 0.613564 -0.029534
-0.223110 0.614477 -0.029722
-0.219443 0.612954 -0.029943
-0.216515 0.613512 -0.030130
-0.213456 0.613655 -0.030318
-0.210538 0.614188 -0.030498
-0.207490 0.614298 -0.030679
-0.204289 0.613893 -0.030864
-0.201117 0.613524 -0.031043
-0.198421 0.614641 -0.031200
-0.195622 0.615417 -0.031357
-0.192020 0.613492 -0.031543
-0.189080 0.613714 -0.031699
-0.186364 0.614677 -0.031843
-0.183460 0.614974 -0.031990
-0.180643 0.615554 -0.032131
-0.177707 0.615683 -0.032273
-0.174768 0.615763 -0.032411
-0.171937 0.616221 -0.032542
-0.168939 0.616014 -0.032676
-0.165842 0.615373 -0.032811
-0.162785 0.614827 -0.032941
-0.159812 0.614569 -0.033064
-0.157076 0.615256 -0.033175
-0.154310 0.615809 -0.033284
-0.151463 0.615997 -0.033394
-0.148585 0.616018 -0.033501
-0.145749 0.616204 -0.033604
-0.142744 0.615574 -0.033711
-0.139929 0.615789 -0.033807
-0.137203 0.616417 -0.033898
-0.134269 0.616005 -0.033993
-0.131489 0.616325 -0.034081
-0.128753 0.616865 -0.034163
-0.125714 0.615777 -0.034256
-0.123179 0.617374 -0.034325
-0.119983 0.615300 -0.034419
-0.116990 0.614255 -0.034503
-0.114514 0.616212 -0.034563
-0.111751 0.616491 -0.034632
-0.109024 0.616989 -0.034698
-0.106237 0.617097 -0.034764
-0.103433 0.617075 -0.034829
-0.100585 0.616717 -0.034894
-0.097731 0.616264 -0.034957
-0.095010 0.616750 -0.035012
-0.092197 0.616530 -0.035069
-0.089329 0.615835 -0.035128
-0.086509 0.615463 -0.035182
-0.083784 0.615853 -0.035230
-0.081148 0.617052 -0.035272
-0.078494 0.618166 -0.035312
-0.075851 0.619463 -0.035350
-0.072853 0.617219 -0.035406
-0.070153 0.617940 -0.035444
-0.067414 0.618275 -0.035482
-0.064534 0.616926 -0.035527
-0.061744 0.616545 -0.035566
-0.059013 0.616894 -0.035600
-0.056278 0.617212 -0.035632
-0.053481 0.616590 -0.035667
-0.050742 0.616829 -0.035697
-0.047942 0.615970 -0.035731
-0.045214 0.616365 -0.035757
-0.042426 0.615517 -0.035788
-0.039628 0.614209 -0.035819
-0.036832 0.612611 -0.035851
-0.034287 0.618266 -0.035846
-0.031575 0.619798 -0.035860
-0.028814 0.619800 -0.035880
-0.026112 0.622902 -0.035884
-0.023336 0.622831 -0.035902
-0.020502 0.616404 -0.035948
-0.017756 0.616178 -0.035964
-0.015013 0.615613 -0.035981
-0.012273 0.615599 -0.035993
-0.009561 0.612469 -0.036018
-0.006824 0.613298 -0.036024
-0.004095 0.613251 -0.036033
-0.001326 0.614944 -0.036032
0.001450 0.616308 -0.036032
0.004164 0.615360 -0.036041
0.006882 0.614712 -0.036048
0.009709 0.616852 -0.036040
0.012549 0.618832 -0.036032
0.015419 0.621009 -0.036022
0.018208 0.621358 -0.036018
0.020845 0.619070 -0.036025
0.023507 0.617496 -0.036027
0.026353 0.618781 -0.036015
0.029141 0.619086 -0.036006
0.031816 0.617908 -0.036002
0.034495 0.616881 -0.035997
0.037233 0.616621 -0.035986
0.039923 0.615848 -0.035975
0.042652 0.615538 -0.035962
0.045472 0.616134 -0.035942
0.048159 0.615398 -0.035927
0.050645 0.612890 -0.035919
0.053829 0.616613 -0.035879
0.056828 0.618485 -0.035846
0.059976 0.621386 -0.035806
0.063318 0.625561 -0.035758
0.064794 0.615505 -0.035778
0.067457 0.614661 -0.035751
0.070235 0.614646 -0.035718
0.072986 0.614428 -0.035684
0.075683 0.613848 -0.035649
0.078364 0.613171 -0.035613
0.081086 0.612771 -0.035574
0.083833 0.612515 -0.035531
0.087398 0.617011 -0.035460
0.090484 0.618526 -0.035403
0.092831 0.615855 -0.035366
0.096619 0.621044 -0.035283
0.098924 0.618171 -0.035243
0.100800 0.613211 -0.035213
0.103384 0.612002 -0.035159
0.106212 0.612007 -0.035095
0.108994 0.611762 -0.035029
0.111088 0.608299 -0.034982
0.114493 0.610928 -0.034892
0.117698 0.612523 -0.034806
0.120714 0.613190 -0.034723
0.125051 0.619448 -0.034598
0.127111 0.615886 -0.034537
0.129377 0.613277 -0.034467
0.132193 0.612947 -0.034378
0.134907 0.612197 -0.034288
0.137870 0.612403 -0.034188
0.140895 0.612805 -0.034083
0.144427 0.615043 -0.033960
0.147068 0.613903 -0.033859
0.150218 0.614599 -0.033740
0.153036 0.614062 -0.033628
0.156163 0.614576 -0.033503
0.159584 0.616039 -0.033365
0.163045 0.617547 -0.033223
0.166700 0.619605 -0.033070
0.169762 0.619635 -0.032933
0.172253 0.617805 -0.032809
0.175016 0.616847 -0.032674
0.176530 0.612025 -0.032576
0.182568 0.621057 -0.032328
0.186184 0.622525 -0.032155
0.185674 0.611764 -0.032113
0.188542 0.611081 -0.031959
0.191459 0.610523 -0.031799
0.194432 0.610100 -0.031635
0.197857 0.610902 -0.031452
0.200557 0.609666 -0.031291
0.202678 0.606869 -0.031148
0.208859 0.614889 -0.030861
0.212965 0.617219 -0.030643
0.216012 0.616720 -0.030460
0.217205 0.611488 -0.030343
0.218472 0.606552 -0.030223
0.221782 0.606779 -0.030028
0.224945 0.606612 -0.029838
0.227574 0.605141 -0.029667
0.234164 0.613100 -0.029349
0.237255 0.612626 -0.029162
0.239430 0.610028 -0.029011
0.241932 0.608229 -0.028850
0.245349 0.608533 -0.028657
0.248293 0.607770 -0.028486
0.253534 0.612079 -0.028229
0.257257 0.612987 -0.028036
0.260760 0.613406 -0.027856
0.262868 0.610868 -0.027738
0.265519 0.609543 -0.027606
0.268832 0.609644 -0.027456
0.267492 0.600226 -0.027499
0.269683 0.598210 -0.027411
0.273870 0.600273 -0.027253
0.277831 0.601885 -0.027116
0.278362 0.596773 -0.027125
0.280996 0.595899 -0.027062
0.284105 0.596008 -0.026994
0.290487 0.602397 -0.026810
0.295739 0.606590 -0.026685
0.299481 0.607947 -0.026633
0.304419 0.611552 -0.026550
0.304424 0.606126 -0.026669
0.307200 0.605896 -0.026697
0.308893 0.603792 -0.026779
-0.345476 0.609696 -0.026568
-0.342349 0.609163 -0.026545
-0.339448 0.609104 -0.026529
-0.336768 0.609521 -0.026519
-0.333744 0.609385 -0.026536
-0.331567 0.610893 -0.026536
-0.326757 0.607550 -0.026651
-0.324839 0.609697 -0.026669
-0.321907 0.610005 -0.026740
-0.318884 0.610203 -0.026828
-0.315434 0.609625 -0.026946
-0.313434 0.611954 -0.027019
-0.309196 0.609908 -0.027191
-0.306485 0.610945 -0.027315
-0.303687 0.611866 -0.027453
-0.300980 0.613027 -0.027597
-0.297763 0.613180 -0.027770
-0.294465 0.613186 -0.027954
-0.290602 0.612001 -0.028167
-0.288346 0.614284 -0.028325
-0.284239 0.612571 -0.028559
-0.281241 0.613283 -0.028756
-0.278322 0.614191 -0.028955
-0.274664 0.613432 -0.029185
-0.271541 0.613880 -0.029397
-0.268348 0.614163 -0.029615
-0.265147 0.614421 -0.029834
-0.261997 0.614787 -0.030052
-0.258634 0.614623 -0.030278
-0.255154 0.614139 -0.030508
-0.251972 0.614362 -0.030727
-0.248750 0.614458 -0.030946
-0.245341 0.614046 -0.031170
-0.241895 0.613492 -0.031393
-0.238536 0.613116 -0.031611
-0.235204 0.612767 -0.031826
-0.232273 0.613462 -0.032026
-0.229469 0.614488 -0.032219
-0.225987 0.613605 -0.032430
-0.223028 0.614146 -0.032622
-0.219864 0.614070 -0.032817
-0.216505 0.613378 -0.033014
-0.213639 0.614093 -0.033194
-0.210711 0.614603 -0.033372
-0.207742 0.614959 -0.033547
-0.204519 0.614492 -0.033726
-0.201312 0.614023 -0.033901
-0.198465 0.614656 -0.034062
-0.195702 0.615548 -0.034218
-0.192102 0.613632 -0.034391
-0.189464 0.614879 -0.034537
-0.186429 0.614758 -0.034688
-0.183609 0.615347 -0.034831
-0.180742 0.615754 -0.034972
-0.177786 0.615807 -0.035111
-0.174734 0.615472 -0.035249
-0.171639 0.614922 -0.035384
-0.168690 0.614875 -0.035512
-0.165744 0.614802 -0.035637
-0.162944 0.615276 -0.035756
-0.159823 0.614419 -0.035878
-0.157213 0.615628 -0.035986
-0.154381 0.615903 -0.036096
-0.151517 0.616018 -0.036203
-0.148817 0.616834 -0.036305
-0.145760 0.616026 -0.036410
-0.142750 0.615373 -0.036511
-0.139959 0.615696 -0.036605
-0.137029 0.615325 -0.036699
-0.134323 0.616026 -0.036786
-0.131559 0.616431 -0.036872
-0.128787 0.616785 -0.036955
-0.125996 0.617023 -0.037036
-0.122962 0.615912 -0.037118
-0.120594 0.618471 -0.037188
-0.117482 0.616825 -0.037267
-0.114658 0.616778 -0.037338
-0.111868 0.616915 -0.037408
-0.109026 0.616701 -0.037475
-0.106285 0.617103 -0.037539
-0.103510 0.617279 -0.037602
-0.100673 0.617006 -0.037663
-0.097831 0.616656 -0.037722
-0.095008 0.616402 -0.037779
-0.092283 0.616858 -0.037833
-0.089459 0.616533 -0.037886
-0.086507 0.615094 -0.037939
-0.083827 0.615865 -0.037986
-0.081188 0.617048 -0.038032
-0.078554 0.618358 -0.038076
-0.075636 0.616979 -0.038122
-0.072857 0.616869 -0.038164
-0.070158 0.617600 -0.038204
-0.067394 0.617639 -0.038243
-0.064578 0.617044 -0.038281
-0.061761 0.616340 -0.038317
-0.059033 0.616730 -0.038351
-0.056285 0.616860 -0.038384
-0.053600 0.617963 -0.038415
-0.050744 0.616382 -0.038446
-0.048027 0.617010 -0.038474
-0.045269 0.616916 -0.038502
-0.042466 0.615822 -0.038528
-0.039680 0.614891 -0.038553
-0.036894 0.613673 -0.038577
-0.034393 0.620866 -0.038598
-0.031640 0.621393 -0.038619
-0.028835 0.619869 -0.038639
-0.026101 0.621388 -0.038657
-0.023426 0.628022 -0.038674
-0.020526 0.617400 -0.038691
-0.017768 0.615783 -0.038706
-0.015026 0.616163 -0.038719
-0.012284 0.615500 -0.038731
-0.009565 0.613051 -0.038742
-0.006833 0.613219 -0.038752
-0.004053 0.615896 -0.038761
-0.001220 0.619820 -0.038769
0.001591 0.621603 -0.038776
0.004224 0.617308 -0.038780
0.006955 0.616749 -0.038784
0.009737 0.617532 -0.038786
0.012558 0.619002 -0.038788
0.015371 0.620017 -0.038788
0.018169 0.620583 -0.038787
0.020873 0.619464 -0.038784
0.023652 0.619646 -0.038780
0.026407 0.619448 -0.038774
0.029133 0.618867 -0.038767
0.031853 0.618259 -0.038759
0.034608 0.618113 -0.038749
0.037315 0.617424 -0.038738
0.039848 0.614904 -0.038725
0.042586 0.614714 -0.038711
0.045365 0.614929 -0.038696
0.048168 0.615335 -0.038678
0.051365 0.619234 -0.038659
0.054349 0.620963 -0.038638
0.057035 0.620053 -0.038616
0.059540 0.617740 -0.038592
0.063288 0.625173 -0.038564
0.064745 0.614988 -0.038539
0.067494 0.614768 -0.038509
0.070213 0.614341 -0.038478
0.073034 0.614596 -0.038444
0.075777 0.614313 -0.038408
0.078564 0.614292 -0.038371
0.081124 0.612852 -0.038332
0.083878 0.612635 -0.038290
0.087486 0.617379 -0.038242
0.090497 0.618452 -0.038194
0.093094 0.617164 -0.038146
0.096425 0.619861 -0.038092
0.099004 0.618452 -0.038039
0.100958 0.613891 -0.037988
0.103650 0.613200 -0.037930
0.106466 0.613118 -0.037868
0.108452 0.609057 -0.037810
0.111818 0.611576 -0.037740
0.115203 0.614044 -0.037666
0.118122 0.614297 -0.037592
0.121242 0.615384 -0.037514
0.124187 0.615648 -0.037434
0.127766 0.618524 -0.037345
0.130184 0.616488 -0.037264
0.132902 0.615702 -0.037177
0.135571 0.614726 -0.037088
0.137699 0.611655 -0.037001
0.141646 0.615571 -0.036891
0.143646 0.612050 -0.036800
0.147183 0.614246 -0.036687
0.150207 0.614486 -0.036577
0.152769 0.613051 -0.036469
0.155902 0.613605 -0.036350
0.159319 0.615071 -0.036224
0.162853 0.616843 -0.036092
0.166283 0.618175 -0.035957
0.169162 0.617638 -0.035827
0.172273 0.617820 -0.035689
0.175068 0.616963 -0.035553
0.178573 0.618286 -0.035402
0.181356 0.617336 -0.035259
0.184540 0.617574 -0.035105
0.185824 0.612172 -0.034983
0.188744 0.611636 -0.034828
0.191586 0.610854 -0.034672
0.193883 0.608525 -0.034523
0.197394 0.609590 -0.034347
0.200418 0.609257 -0.034178
0.202676 0.606835 -0.034023
0.206586 0.608828 -0.033829
0.212608 0.616254 -0.033585
0.216547 0.618064 -0.033384
0.218415 0.614526 -0.033228
0.219161 0.608240 -0.033100
0.222269 0.607937 -0.032914
0.225126 0.607003 -0.032734
0.227699 0.605384 -0.032561
0.230782 0.604996 -0.032375
0.235742 0.609001 -0.032141
0.238707 0.608267 -0.031960
0.241064 0.606149 -0.031797
0.243290 0.603778 -0.031640
0.248834 0.608851 -0.031395
0.252497 0.609657 -0.031205
0.255667 0.609372 -0.031033
0.259053 0.609564 -0.030860
0.262154 0.609156 -0.030701
0.265718 0.609745 -0.030535
0.267777 0.607219 -0.030421
0.272144 0.609501 -0.030248
0.272435 0.603505 -0.030203
0.272483 0.597187 -0.030177
0.276825 0.599555 -0.030033
0.280786 0.601169 -0.029912
0.281039 0.595597 -0.029912
0.284439 0.596236 -0.029832
0.289880 0.600798 -0.029703
0.292863 0.600697 -0.029661
0.300180 0.608741 -0.029506
0.305916 0.613776 -0.029412
0.305128 0.606849 -0.029521
0.306980 0.604903 -0.029568
0.311759 0.608325 -0.029547
-0.344100 0.606544 -0.029478
-0.342042 0.607932 -0.029430
-0.339431 0.608420 -0.029411
-0.336169 0.607802 -0.029426
-0.333990 0.609240 -0.029424
-0.329860 0.607149 -0.029494
-0.327250 0.607938 -0.029534
-0.325183 0.609839 -0.029572
-0.322455 0.610572 -0.029643
-0.319461 0.610865 -0.029735
-0.315446 0.609222 -0.029870
-0.312609 0.609922 -0.029982
-0.311098 0.613333 -0.030068
-0.306580 0.610786 -0.030252
-0.303724 0.611613 -0.030398
-0.300736 0.612219 -0.030557
-0.297771 0.612914 -0.030724
-0.293710 0.611326 -0.030930
-0.291121 0.612871 -0.031102
-0.287159 0.611486 -0.031317
-0.285212 0.614498 -0.031484
-0.281348 0.613328 -0.031707
-0.278287 0.613932 -0.031912
-0.274772 0.613511 -0.032132
-0.271432 0.613471 -0.032350
-0.267991 0.613183 -0.032572
-0.265158 0.614308 -0.032781
-0.262294 0.615368 -0.032991
-0.258029 0.613025 -0.033234
-0.254961 0.613545 -0.033448
-0.251882 0.614023 -0.033662
-0.248488 0.613683 -0.033882
-0.245128 0.613390 -0.034098
-0.241478 0.612296 -0.034318
-0.238491 0.612892 -0.034523
-0.235558 0.613611 -0.034725
-0.232337 0.613528 -0.034929
-0.229425 0.614260 -0.035124
-0.225951 0.613396 -0.035326
-0.223210 0.614552 -0.035513
-0.219706 0.613499 -0.035708
-0.216648 0.613682 -0.035893
-0.213650 0.614004 -0.036074
-0.210757 0.614617 -0.036249
-0.207788 0.614973 -0.036422
-0.204653 0.614780 -0.036593
-0.201534 0.614591 -0.036760
-0.198394 0.614287 -0.036924
-0.195132 0.613528 -0.037084
-0.192391 0.614447 -0.037236
-0.189554 0.615030 -0.037386
-0.186679 0.615461 -0.037531
-0.183786 0.615804 -0.037674
-0.180777 0.615707 -0.037814
-0.177673 0.615220 -0.037950
-0.174731 0.615280 -0.038082
-0.171513 0.614258 -0.038211
-0.168432 0.613688 -0.038336
-0.165746 0.614612 -0.038456
-0.163057 0.615524 -0.038574
-0.160535 0.617120 -0.038688
-0.157424 0.616293 -0.038799
-0.154474 0.616077 -0.038907
-0.151635 0.616304 -0.039012
-0.148763 0.616361 -0.039114
-0.146086 0.617268 -0.039213
-0.142873 0.615701 -0.039308
-0.140054 0.615897 -0.039401
-0.137101 0.615420 -0.039490
-0.134383 0.616062 -0.039578
-0.131716 0.616964 -0.039664
-0.128808 0.616620 -0.039745
-0.125883 0.616140 -0.039824
-0.123148 0.616651 -0.039901
-0.120433 0.617273 -0.039977
-0.117575 0.617074 -0.040049
-0.114765 0.617118 -0.040119
-0.111938 0.617036 -0.040186
-0.109144 0.617132 -0.040251
-0.106340 0.617138 -0.040314
-0.103562 0.617297 -0.040376
-0.100595 0.616131 -0.040431
-0.097765 0.615850 -0.040487
-0.095007 0.616048 -0.040543
-0.092195 0.615828 -0.040595
-0.089254 0.614536 -0.040642
-0.086564 0.615201 -0.040693
-0.083894 0.616075 -0.040744
-0.081181 0.616607 -0.040791
-0.078461 0.617093 -0.040837
-0.075654 0.616763 -0.040879
-0.072868 0.616582 -0.040919
-0.070126 0.616840 -0.040959
-0.067388 0.617151 -0.040999
-0.064606 0.616943 -0.041034
-0.061709 0.615236 -0.041062
-0.058961 0.615315 -0.041096
-0.056345 0.617256 -0.041136
-0.053636 0.618035 -0.041170
-0.050842 0.617515 -0.041198
-0.048130 0.618346 -0.041229
-0.045326 0.617500 -0.041252
-0.042520 0.616436 -0.041274
-0.039732 0.615535 -0.041294
-0.036881 0.612713 -0.041304
-0.034408 0.620664 -0.041361
-0.031690 0.622449 -0.041390
-0.028894 0.621577 -0.041406
-0.026124 0.621674 -0.041425
-0.023331 0.620172 -0.041435
-0.020552 0.618572 -0.041444
-0.017784 0.616241 -0.041448
-0.015038 0.615905 -0.041460
-0.012301 0.614235 -0.041464
-0.009572 0.613331 -0.041471
-0.006830 0.614017 -0.041484
-0.004054 0.616219 -0.041503
-0.001199 0.620995 -0.041534
0.001612 0.622503 -0.041547
0.004251 0.618224 -0.041532
0.006939 0.616339 -0.041528
0.009668 0.615860 -0.041528
0.012480 0.617255 -0.041537
0.015320 0.618950 -0.041545
0.018236 0.621714 -0.041558
0.020962 0.620862 -0.041551
0.023702 0.620324 -0.041545
0.026381 0.618962 -0.041534
0.029026 0.617294 -0.041520
0.031991 0.619892 -0.041525
0.034744 0.619620 -0.041515
0.037312 0.617253 -0.041494
0.040058 0.617032 -0.041481
0.042663 0.615352 -0.041460
0.045676 0.617835 -0.041457
0.048747 0.620625 -0.041454
0.051702 0.622117 -0.041442
0.054439 0.621576 -0.041421
0.057259 0.621750 -0.041400
0.060320 0.623826 -0.041386
0.063102 0.623567 -0.041360
0.064798 0.615212 -0.041297
0.067434 0.614171 -0.041265
0.070263 0.614524 -0.041236
0.073020 0.614337 -0.041204
0.075929 0.615139 -0.041173
0.078641 0.614622 -0.041135
0.081218 0.613276 -0.041092
0.083842 0.612260 -0.041048
0.087438 0.616939 -0.041024
0.090486 0.618235 -0.040984
0.093572 0.619650 -0.040942
0.096602 0.620661 -0.040897
0.099138 0.619008 -0.040839
0.101050 0.614212 -0.040767
0.103825 0.613932 -0.040710
0.106530 0.613290 -0.040649
0.108754 0.610359 -0.040578
0.111727 0.611022 -0.040516
0.115152 0.613684 -0.040457
0.118462 0.615688 -0.040392
0.120891 0.613731 -0.040314
0.124072 0.615037 -0.040241
0.127633 0.617849 -0.040169
0.130718 0.618563 -0.040088
0.133029 0.616105 -0.039997
0.135560 0.614574 -0.039905
0.138601 0.615043 -0.039814
0.139234 0.606315 -0.039703
0.143988 0.613232 -0.039617
0.147056 0.613692 -0.039515
0.150014 0.613707 -0.039410
0.152655 0.612565 -0.039299
0.155045 0.610555 -0.039185
0.159046 0.614065 -0.039071
0.162738 0.616387 -0.038952
0.165984 0.617121 -0.038828
0.168662 0.615954 -0.038699
0.171739 0.616057 -0.038567
0.175003 0.616701 -0.038431
0.178135 0.616880 -0.038291
0.181731 0.618423 -0.038146
0.184549 0.617551 -0.037999
0.186434 0.613918 -0.037853
0.188630 0.611259 -0.037703
0.191549 0.610705 -0.037547
0.194920 0.611401 -0.037385
0.198223 0.611846 -0.037219
0.200658 0.609872 -0.037057
0.203025 0.607733 -0.036893
0.206398 0.608287 -0.036718
0.211845 0.614215 -0.036520
0.217249 0.619828 -0.036317
0.218426 0.614506 -0.036156
0.219724 0.609601 -0.035993
0.222588 0.608672 -0.035813
0.225334 0.607449 -0.035633
0.227907 0.605817 -0.035455
0.231985 0.607780 -0.035257
0.235456 0.608248 -0.035067
0.238311 0.607258 -0.034886
0.240440 0.604621 -0.034719
0.244101 0.605493 -0.034530
0.248055 0.606987 -0.034338
0.252278 0.609032 -0.034144
0.255460 0.608764 -0.033972
0.258791 0.608825 -0.033801
0.261260 0.607066 -0.033652
0.265439 0.608945 -0.033478
0.270255 0.612118 -0.033298
0.273205 0.611417 -0.033162
0.273786 0.605962 -0.033080
0.274611 0.601148 -0.033005
0.279539 0.604606 -0.032858
0.281825 0.602850 -0.032775
0.283372 0.599744 -0.032719
0.286590 0.599960 -0.032641
0.291025 0.602537 -0.032552
0.298181 0.610237 -0.032420
0.302717 0.612969 -0.032356
0.306791 0.614859 -0.032315
0.305340 0.606683 -0.032398
0.307881 0.605956 -0.032416
0.310865 0.606107 -0.032440
-0.343623 0.605005 -0.032349
-0.342293 0.607714 -0.032300
-0.339418 0.607756 -0.032295
-0.336658 0.608081 -0.032303
