ply
format ascii 1.0
comment ---
element vertex 1706
property float x
property float y
property float z
element face 0
property list uchar uint vertex_indices
end_header
0.164104 0.605166 -0.057653
0.166296 0.605685 -0.057733
0.168430 0.606507 -0.057778
0.170779 0.606174 -0.057942
0.173151 0.605671 -0.058121
0.173987 0.613928 -0.057372
0.174564 0.624138 -0.056417
0.178673 0.613496 -0.057657
0.181854 0.607986 -0.058350
0.184759 0.603893 -0.058889
0.186732 0.605704 -0.058807
0.190254 0.596998 -0.059819
0.192682 0.595431 -0.060083
0.193759 0.603616 -0.059330
0.195653 0.606166 -0.059162
0.197801 0.606886 -0.059181
0.200109 0.606336 -0.059329
0.202305 0.606666 -0.059384
0.204563 0.606450 -0.059492
0.206817 0.606228 -0.059599
0.208952 0.607102 -0.059590
0.209423 0.624789 -0.057859
0.212023 0.621705 -0.058253
0.215405 0.609608 -0.059564
0.217992 0.605471 -0.060057
0.220372 0.603397 -0.060337
0.222699 0.601750 -0.060571
0.226145 0.584240 -0.062412
0.227990 0.588195 -0.062071
0.229336 0.600711 -0.060862
0.231455 0.601818 -0.060808
0.233583 0.602925 -0.060752
0.235895 0.600428 -0.061057
0.238019 0.601664 -0.060984
0.239406 0.621880 -0.058999
0.241959 0.613902 -0.059850
0.244250 0.612120 -0.060075
0.246497 0.611421 -0.060189
0.248689 0.613034 -0.060069
0.250930 0.612460 -0.060167
0.253298 0.600754 -0.061376
0.255470 0.601070 -0.061380
0.257633 0.606297 -0.060890
0.259834 0.606495 -0.060901
0.262037 0.606713 -0.060908
0.264232 0.606073 -0.060999
0.266432 0.606112 -0.061020
0.268644 0.606699 -0.060985
0.270847 0.606671 -0.061008
0.273066 0.607189 -0.060975
0.275217 0.605566 -0.061154
0.277421 0.605660 -0.061158
0.279675 0.606890 -0.061048
0.281891 0.607053 -0.061042
0.284148 0.607963 -0.060960
0.285880 0.599514 -0.061806
0.288380 0.604747 -0.061289
0.290545 0.604184 -0.061346
0.292705 0.603600 -0.061403
0.295078 0.605881 -0.061172
0.297757 0.611703 -0.060587
0.300458 0.617121 -0.060040
0.301792 0.606672 -0.061069
0.304266 0.609358 -0.060789
0.306470 0.609021 -0.060807
0.308734 0.609283 -0.060763
0.308123 0.582879 -0.063373
0.311294 0.592198 -0.062422
0.315101 0.606177 -0.061002
0.317278 0.605710 -0.061021
0.319765 0.607692 -0.060791
0.321926 0.607026 -0.060824
0.324075 0.606302 -0.060860
0.326382 0.606714 -0.060779
0.328450 0.605440 -0.060864
0.331883 0.613309 -0.060029
0.335949 0.610026 -0.060258
0.337614 0.606247 -0.060583
0.339844 0.605996 -0.060551
0.341897 0.604714 -0.060619
0.340490 0.584097 -0.062638
0.342115 0.581064 -0.062880
0.347024 0.595619 -0.061339
0.350865 0.603883 -0.060429
0.353042 0.603305 -0.060411
0.355255 0.602904 -0.060372
0.357605 0.603155 -0.060263
0.362898 0.617233 -0.058738
0.366707 0.623820 -0.057971
0.367903 0.618310 -0.058438
0.369628 0.615338 -0.058643
0.371594 0.613505 -0.058729
0.373168 0.610058 -0.058978
0.372675 0.598166 -0.060098
0.375080 0.598480 -0.059956
0.378530 0.602908 -0.059382
0.381556 0.605482 -0.058997
0.384081 0.606010 -0.058820
0.386623 0.606555 -0.058638
0.388859 0.605925 -0.058575
0.390759 0.604073 -0.058639
0.392854 0.602953 -0.058623
0.395880 0.605091 -0.058260
0.397716 0.603049 -0.058337
0.400647 0.604741 -0.058016
0.403160 0.604965 -0.057847
0.405529 0.604688 -0.057730
0.407753 0.603931 -0.057663
0.410087 0.603524 -0.057557
0.412674 0.603893 -0.057366
0.415189 0.604009 -0.057201
0.424004 0.623029 -0.054985
0.423969 0.615268 -0.055670
0.423571 0.606671 -0.056452
0.425653 0.605431 -0.056435
0.426511 0.600759 -0.056797
0.427092 0.595443 -0.057234
0.426062 0.585850 -0.058149
0.435252 0.604178 -0.055982
0.437449 0.603333 -0.055935
0.439942 0.603292 -0.055804
0.443007 0.604737 -0.055511
0.445813 0.605490 -0.055301
0.447991 0.604643 -0.055276
0.450848 0.605523 -0.055065
0.457036 0.608417 -0.054536
0.456865 0.602009 -0.055172
0.458978 0.601192 -0.055187
0.460836 0.599827 -0.055275
0.459844 0.591930 -0.056114
0.459381 0.585458 -0.056804
0.469141 0.602279 -0.054864
0.474072 0.607966 -0.054199
0.475979 0.606883 -0.054315
0.476935 0.603786 -0.054674
0.479358 0.603976 -0.054673
0.484173 0.609329 -0.054101
0.493870 0.624964 -0.052379
0.488879 0.609526 -0.054192
0.486374 0.599606 -0.055392
0.489179 0.600854 -0.055342
0.489931 0.597944 -0.055776
0.490282 0.594332 -0.056301
0.489491 0.588551 -0.057081
0.497961 0.601298 -0.055801
0.500524 0.602259 -0.055856
0.502676 0.602455 -0.056010
0.505139 0.603304 -0.056105
-0.006732 0.601140 -0.049692
-0.007245 0.605834 -0.048984
-0.006292 0.607995 -0.048606
-0.006463 0.612300 -0.047973
-0.004430 0.612663 -0.047848
0.001832 0.605218 -0.048720
0.003619 0.606092 -0.048563
0.005545 0.606769 -0.048446
0.012365 0.598156 -0.049514
0.021414 0.585129 -0.051153
0.014906 0.602202 -0.049020
0.016225 0.604259 -0.048792
0.018467 0.604568 -0.048799
0.019897 0.606559 -0.048611
0.022882 0.605480 -0.048823
0.025797 0.604561 -0.049029
0.028349 0.604412 -0.049152
0.030291 0.605574 -0.049126
0.032028 0.607228 -0.049052
0.034822 0.606687 -0.049264
0.037675 0.606034 -0.049501
0.040726 0.604955 -0.049802
0.044266 0.602790 -0.050246
0.046817 0.602810 -0.050429
0.047850 0.606292 -0.050198
0.050482 0.606199 -0.050414
0.052634 0.607228 -0.050501
0.051476 0.616097 -0.049647
0.054355 0.615554 -0.049940
0.058553 0.611806 -0.050623
0.063362 0.606459 -0.051498
0.068468 0.600224 -0.052477
0.071820 0.598230 -0.052949
0.073708 0.599908 -0.052988
0.073274 0.607637 -0.052320
0.075875 0.607600 -0.052568
0.078185 0.608319 -0.052730
0.080916 0.607906 -0.053023
0.084146 0.606092 -0.053476
0.086645 0.606235 -0.053703
0.086840 0.612868 -0.053185
0.083574 0.629603 -0.051520
0.093172 0.609377 -0.054064
0.095947 0.608668 -0.054381
0.099109 0.606746 -0.054831
0.105170 0.595893 -0.056277
0.108649 0.592666 -0.056859
0.107958 0.602440 -0.055991
0.109927 0.603993 -0.056038
0.111610 0.606498 -0.055978
0.114391 0.605424 -0.056310
0.115578 0.609650 -0.056058
0.114495 0.621771 -0.054946
0.118740 0.615713 -0.055812
0.122797 0.610072 -0.056624
0.125549 0.608911 -0.056945
0.129265 0.604128 -0.057650
0.132912 0.599394 -0.058343
0.136110 0.596168 -0.058867
0.136760 0.602710 -0.058349
0.138313 0.605893 -0.058187
0.140550 0.606401 -0.058305
0.142739 0.607104 -0.058400
0.145441 0.605636 -0.058718
0.147220 0.608055 -0.058626
0.149789 0.607074 -0.058886
0.152430 0.605695 -0.059183
0.154813 0.605413 -0.059362
0.157214 0.605005 -0.059550
0.159512 0.605046 -0.059689
0.161915 0.604544 -0.059879
0.164018 0.605503 -0.059917
0.166307 0.605523 -0.060048
0.169164 0.602505 -0.060484
0.171242 0.603542 -0.060504
0.173372 0.604311 -0.060549
0.175025 0.607835 -0.060313
0.175914 0.616033 -0.059606
0.179532 0.608128 -0.060516
0.181852 0.607837 -0.060657
0.184701 0.604098 -0.061139
0.187067 0.603303 -0.061323
0.190357 0.596103 -0.062141
0.192659 0.595397 -0.062309
0.193753 0.603451 -0.061606
0.195707 0.605537 -0.061494
0.197716 0.607319 -0.061410
0.199923 0.607603 -0.061472
0.202289 0.606534 -0.061664
0.204557 0.606228 -0.061779
0.206764 0.606425 -0.061841
0.208788 0.608380 -0.061730
0.209354 0.625148 -0.060170
0.212704 0.614173 -0.061318
0.214920 0.614626 -0.061348
0.218024 0.604715 -0.062382
0.220305 0.603827 -0.062536
0.222412 0.605091 -0.062480
0.224795 0.602634 -0.062781
0.227154 0.600173 -0.063080
0.229163 0.602945 -0.062871
0.230985 0.609361 -0.062310
0.233191 0.609651 -0.062337
0.235658 0.604612 -0.062876
0.238176 0.597337 -0.063625
0.240558 0.591779 -0.064207
0.242286 0.603532 -0.063126
0.244371 0.607025 -0.062836
0.246551 0.608002 -0.062786
0.248764 0.607844 -0.062842
0.251088 0.600788 -0.063555
0.253203 0.605921 -0.063102
0.255410 0.604773 -0.063247
0.257602 0.605512 -0.063209
0.259797 0.604926 -0.063296
0.262001 0.606413 -0.063184
0.264198 0.606070 -0.063244
0.266403 0.606368 -0.063241
0.268609 0.606614 -0.063240
0.270814 0.606690 -0.063254
0.272966 0.604943 -0.063439
0.275128 0.603950 -0.063550
0.277393 0.605833 -0.063387
0.279600 0.605942 -0.063389
0.282183 0.613882 -0.062647
0.285201 0.628697 -0.061252
0.286866 0.617397 -0.062329
0.288640 0.609520 -0.063080
0.290896 0.610009 -0.063036
0.293083 0.609426 -0.063091
0.295316 0.609508 -0.063081
0.297636 0.610645 -0.062969
0.299756 0.609279 -0.063091
0.301983 0.609226 -0.063087
0.304016 0.607094 -0.063277
0.306462 0.609329 -0.063051
0.308463 0.607037 -0.063252
0.308235 0.584256 -0.065396
0.311938 0.598257 -0.064045
0.314579 0.602074 -0.063659
0.317144 0.604939 -0.063360
0.319535 0.606205 -0.063210
0.321874 0.606955 -0.063107
0.324096 0.606773 -0.063089
0.326257 0.606137 -0.063112
0.328196 0.603997 -0.063276
0.332020 0.614527 -0.062227
0.335610 0.608198 -0.062736
0.337597 0.606441 -0.062852
0.339685 0.605349 -0.062901
0.342039 0.605822 -0.062797
0.344385 0.606205 -0.062699
0.345336 0.598920 -0.063336
0.348944 0.606112 -0.062575
0.350775 0.603703 -0.062737
0.353090 0.603832 -0.062650
0.355160 0.602718 -0.062681
0.357190 0.601434 -0.062725
0.358207 0.595405 -0.063228
0.361975 0.602297 -0.062470
0.364887 0.605000 -0.062115
0.367352 0.605585 -0.061963
0.369762 0.605879 -0.061836
0.372077 0.605731 -0.061749
0.374326 0.605284 -0.061688
0.376377 0.604023 -0.061703
0.379381 0.606576 -0.061339
0.381565 0.605796 -0.061301
0.384086 0.606312 -0.061130
0.386355 0.605828 -0.061056
0.388785 0.605928 -0.060920
0.391016 0.605279 -0.060857
0.393002 0.603749 -0.060879
0.394976 0.602206 -0.060900
0.398333 0.605433 -0.060437
0.400622 0.604920 -0.060349
0.403452 0.606192 -0.060077
0.405527 0.604933 -0.060061
0.407228 0.602498 -0.060163
0.409831 0.602957 -0.059968
0.412482 0.603529 -0.059760
0.415872 0.606320 -0.059320
0.423845 0.622776 -0.057464
0.424935 0.618337 -0.057766
0.422287 0.603126 -0.059194
0.424844 0.603293 -0.059025
0.426540 0.601011 -0.059113
0.427032 0.595429 -0.059551
0.427672 0.590404 -0.059935
0.434900 0.603346 -0.058425
0.437115 0.602546 -0.058367
0.440166 0.603967 -0.058078
0.442744 0.604122 -0.057927
0.445361 0.604376 -0.057770
0.447933 0.604517 -0.057632
0.451281 0.606599 -0.057291
0.458811 0.612674 -0.056422
0.459171 0.607456 -0.056891
0.460466 0.604607 -0.057115
0.460893 0.599820 -0.057560
0.461236 0.594983 -0.058022
0.459857 0.586353 -0.058908
0.468942 0.601599 -0.057212
0.471771 0.602559 -0.057079
0.474657 0.603665 -0.056944
0.477026 0.603660 -0.056943
0.479109 0.603079 -0.057017
0.488247 0.617650 -0.055459
0.494363 0.625569 -0.054639
0.492082 0.615782 -0.055758
0.490583 0.607863 -0.056686
0.489493 0.600991 -0.057513
0.490838 0.599257 -0.057797
0.490583 0.594382 -0.058433
0.491096 0.591185 -0.058900
0.498387 0.601523 -0.057927
0.501389 0.603314 -0.057888
0.503863 0.604098 -0.057971
0.505161 0.602652 -0.058305
-0.009537 0.605355 -0.051338
-0.006723 0.604126 -0.051373
-0.006011 0.606735 -0.050961
-0.006111 0.610923 -0.050372
-0.005832 0.614534 -0.049866
-0.001386 0.610522 -0.050297
0.002817 0.606944 -0.050693
0.004851 0.607457 -0.050609
0.010900 0.600365 -0.051461
0.016319 0.594403 -0.052193
0.016275 0.599001 -0.051661
0.017161 0.601908 -0.051349
0.017549 0.605907 -0.050921
0.020280 0.605334 -0.051061
0.023163 0.604482 -0.051249
0.025005 0.605785 -0.051192
0.026878 0.607086 -0.051150
0.029438 0.607015 -0.051286
0.032562 0.605782 -0.051573
0.034902 0.606225 -0.051672
0.037252 0.606685 -0.051780
0.040119 0.606046 -0.052030
0.043057 0.605255 -0.052307
0.045633 0.605274 -0.052497
0.047740 0.606371 -0.052569
0.050035 0.607077 -0.052696
0.052419 0.607598 -0.052851
0.051526 0.615862 -0.052114
0.054407 0.615333 -0.052407
0.058488 0.611883 -0.053039
0.062869 0.607601 -0.053767
0.066732 0.604486 -0.054360
0.072221 0.597180 -0.055429
0.074225 0.598560 -0.055510
0.073280 0.607601 -0.054732
0.075745 0.607929 -0.054939
0.078930 0.606329 -0.055362
0.081415 0.606559 -0.055580
0.083556 0.607714 -0.055695
0.086308 0.607184 -0.055995
0.086635 0.613462 -0.055547
0.083417 0.630069 -0.053978
0.092086 0.612557 -0.056125
0.095701 0.609413 -0.056701
0.098905 0.607377 -0.057151
0.103506 0.600988 -0.058063
0.108450 0.593298 -0.059104
0.108249 0.601540 -0.058444
0.110044 0.603630 -0.058439
0.112167 0.604695 -0.058539
0.114407 0.605378 -0.058677
0.116788 0.605579 -0.058863
0.115953 0.616778 -0.057901
0.117822 0.618912 -0.057884
0.122615 0.610714 -0.058930
0.124825 0.611518 -0.059041
0.127266 0.611471 -0.059235
0.131340 0.605272 -0.060053
0.134945 0.600595 -0.060708
0.136088 0.605297 -0.060406
0.138270 0.606029 -0.060504
0.140387 0.607022 -0.060573
0.143439 0.604160 -0.061025
0.145535 0.605187 -0.061083
0.148121 0.604116 -0.061347
0.150461 0.604050 -0.061507
0.152090 0.607150 -0.061350
0.154577 0.606420 -0.061569
0.156731 0.607191 -0.061637
0.158854 0.608120 -0.061686
0.160712 0.610369 -0.061604
0.159884 0.626242 -0.060193
0.166168 0.606123 -0.062282
0.168212 0.607425 -0.062283
0.170395 0.608012 -0.062350
0.172918 0.606707 -0.062597
0.174529 0.610530 -0.062348
0.176442 0.612765 -0.062249
0.178598 0.613623 -0.062280
0.182255 0.605143 -0.063200
0.184526 0.605037 -0.063316
0.187026 0.603381 -0.063576
0.190914 0.592095 -0.064745
0.192793 0.594239 -0.064637
0.193795 0.602917 -0.063912
0.195567 0.606357 -0.063680
0.197657 0.607539 -0.063659
0.200103 0.605880 -0.063903
0.202312 0.606068 -0.063970
0.204512 0.606334 -0.064028
0.206782 0.605953 -0.064144
0.208534 0.610498 -0.063799
0.209041 0.627955 -0.062253
0.211532 0.626170 -0.062496
0.215150 0.611702 -0.063910
0.218071 0.603780 -0.064713
0.220171 0.605069 -0.064660
0.222258 0.606663 -0.064578
0.224479 0.606565 -0.064650
0.226852 0.604185 -0.064929
0.229114 0.603194 -0.065079
0.231252 0.604164 -0.065046
0.233319 0.606611 -0.064876
0.235393 0.609362 -0.064677
0.238168 0.596768 -0.065879
0.240589 0.590164 -0.066529
0.242329 0.601348 -0.065554
0.244359 0.606296 -0.065148
0.246535 0.607305 -0.065099
0.248739 0.607401 -0.065131
0.250953 0.606959 -0.065210
0.253171 0.605803 -0.065352
0.255371 0.605541 -0.065411
0.257570 0.604726 -0.065518
0.259767 0.606590 -0.065380
0.261963 0.605741 -0.065486
0.264157 0.605358 -0.065548
0.266364 0.606040 -0.065512
0.268576 0.606617 -0.065483
0.270746 0.605308 -0.065623
0.272909 0.604126 -0.065749
0.275273 0.609174 -0.065311
0.277315 0.604667 -0.065733
0.279571 0.606055 -0.065621
0.282155 0.614004 -0.064916
0.285211 0.629570 -0.063523
0.286773 0.616372 -0.064720
0.288644 0.610151 -0.065285
0.290809 0.609206 -0.065374
0.293021 0.609036 -0.065390
0.295275 0.609433 -0.065353
0.297443 0.608677 -0.065417
0.299621 0.608107 -0.065463
0.301917 0.608886 -0.065385
0.304349 0.611026 -0.065181
0.306484 0.609923 -0.065268
0.308674 0.609434 -0.065297
0.308166 0.583948 -0.067579
0.311391 0.593727 -0.066677
0.314720 0.603602 -0.065763
0.317075 0.604694 -0.065640
0.319481 0.606092 -0.065486
0.321745 0.606281 -0.065439
0.324021 0.606520 -0.065384
0.326210 0.606103 -0.065386
0.328626 0.607247 -0.065244
0.332218 0.616142 -0.064395
0.335771 0.609492 -0.064907
0.337527 0.606294 -0.065148
0.339486 0.604449 -0.065263
0.341826 0.604873 -0.065169
0.344175 0.605302 -0.065071
0.346627 0.606240 -0.064923
0.348374 0.603352 -0.065122
0.350995 0.605116 -0.064892
0.353477 0.606067 -0.064733
0.356394 0.609090 -0.064379
0.356889 0.600249 -0.065117
0.356227 0.586326 -0.066324
0.361826 0.601883 -0.064800
0.364974 0.605663 -0.064361
0.367368 0.605929 -0.064245
0.369739 0.606051 -0.064138
0.371958 0.605498 -0.064091
0.374227 0.605146 -0.064021
0.377008 0.606855 -0.063755
0.379163 0.605979 -0.063728
0.381824 0.607078 -0.063512
0.383688 0.605057 -0.063586
0.386368 0.606145 -0.063364
0.388573 0.605415 -0.063310
0.390974 0.605392 -0.063187
0.393403 0.605437 -0.063053
0.395532 0.604407 -0.063020
0.398397 0.605909 -0.062741
0.401135 0.606906 -0.062507
0.406511 0.616588 -0.061429
0.407988 0.613206 -0.061611
0.407915 0.604938 -0.062269
0.408708 0.599649 -0.062639
0.411075 0.599391 -0.062517
0.414803 0.603276 -0.061987
0.423815 0.622906 -0.059900
0.424446 0.617100 -0.060317
0.422625 0.604303 -0.061431
0.423645 0.600034 -0.061704
0.425410 0.597984 -0.061758
0.426764 0.594834 -0.061925
0.427749 0.590754 -0.062189
0.434593 0.602644 -0.060848
0.437269 0.603068 -0.060661
0.440431 0.604756 -0.060349
0.442956 0.604743 -0.060213
0.445374 0.604460 -0.060109
0.447919 0.604512 -0.059977
0.450444 0.604518 -0.059855
0.460859 0.617604 -0.058286
0.461996 0.614163 -0.058539
0.464144 0.613222 -0.058545
0.460460 0.598684 -0.059968
0.461499 0.595439 -0.060235
0.461542 0.590024 -0.060739
0.468165 0.599630 -0.059694
0.471435 0.601565 -0.059458
0.474283 0.602564 -0.059331
0.476743 0.602734 -0.059303
0.478772 0.602012 -0.059381
0.490078 0.621182 -0.057403
0.494668 0.625795 -0.056956
0.493126 0.617526 -0.057861
0.491756 0.609830 -0.058720
0.493406 0.608537 -0.058929
0.492403 0.601925 -0.059701
0.493574 0.599870 -0.060014
0.495310 0.599037 -0.060216
0.499950 0.604017 -0.059833
0.501961 0.603807 -0.059999
0.503723 0.603172 -0.060222
0.505620 0.602862 -0.060424
0.511941 0.611076 -0.059776
-0.010391 0.602360 -0.053986
-0.007929 0.601720 -0.053943
-0.006536 0.603040 -0.053687
-0.005273 0.604668 -0.053410
-0.003892 0.606160 -0.053163
-0.005576 0.613368 -0.052266
0.005023 0.597966 -0.054014
0.001703 0.608395 -0.052772
0.005030 0.606510 -0.052979
0.011044 0.599517 -0.053797
0.015402 0.595628 -0.054268
0.016724 0.597612 -0.054071
0.017156 0.601426 -0.053677
0.017596 0.605345 -0.053287
0.020290 0.604875 -0.053421
0.022707 0.604995 -0.053501
0.024646 0.606136 -0.053477
0.026406 0.607707 -0.053418
0.028841 0.607934 -0.053527
0.031999 0.606670 -0.053819
0.034228 0.607390 -0.053896
0.036771 0.607473 -0.054056
0.039677 0.606786 -0.054314
0.042665 0.605921 -0.054602
0.044972 0.606574 -0.054725
0.047380 0.607028 -0.054880
0.049962 0.607101 -0.055085
0.052018 0.608406 -0.055159
0.052590 0.613247 -0.054847
0.053860 0.616545 -0.054714
0.058796 0.611059 -0.055556
0.062560 0.608296 -0.056097
0.066689 0.604541 -0.056746
0.071763 0.598293 -0.057663
0.074518 0.597782 -0.057956
0.073165 0.607876 -0.057109
0.076103 0.606975 -0.057450
0.078464 0.607562 -0.057630
0.081042 0.607562 -0.057872
0.083382 0.608193 -0.058047
0.085708 0.608857 -0.058218
0.086366 0.614230 -0.057895
0.083211 0.630669 -0.056424
0.091979 0.612880 -0.058510
0.095277 0.610679 -0.058970
0.098661 0.608123 -0.059462
0.102897 0.602857 -0.060225
0.108635 0.600330 -0.060916
0.110362 0.602619 -0.060897
0.112204 0.604579 -0.060909
0.114556 0.604887 -0.061085
0.116713 0.605828 -0.061194
0.120452 0.601354 -0.061836
0.122383 0.602995 -0.061868
0.123385 0.607964 -0.061571
0.126287 0.606215 -0.061930
0.128134 0.608252 -0.061916
0.131243 0.605602 -0.062355
0.133427 0.606358 -0.062458
0.135795 0.606397 -0.062627
0.138073 0.606761 -0.062761
0.140417 0.606846 -0.062919
0.142904 0.606313 -0.063131
0.145395 0.605711 -0.063347
0.148172 0.603823 -0.063680
0.150389 0.604288 -0.063786
0.151723 0.608717 -0.063516
0.154115 0.608448 -0.063686
0.156579 0.607803 -0.063887
0.158917 0.607710 -0.064034
0.157827 0.624456 -0.062613
0.159618 0.627457 -0.062471
0.165165 0.611176 -0.064107
0.168121 0.607771 -0.064546
0.170262 0.608587 -0.064592
0.172517 0.608791 -0.064692
0.174931 0.608063 -0.064875
0.176826 0.610327 -0.064781
0.178744 0.612561 -0.064689
0.181289 0.610985 -0.064940
0.184171 0.607120 -0.065394
0.186506 0.606621 -0.065540
0.189770 0.599706 -0.066261
0.193581 0.588449 -0.067367
0.193861 0.602200 -0.066224
0.195927 0.603390 -0.066208
0.197702 0.606923 -0.065980
0.200103 0.605603 -0.066184
0.202194 0.606785 -0.066162
0.204463 0.606469 -0.066272
0.206699 0.606409 -0.066356
0.208984 0.605850 -0.066482
0.209317 0.624815 -0.064883
0.211586 0.625230 -0.064922
0.215414 0.608382 -0.066476
0.217930 0.605023 -0.066839
0.220107 0.605428 -0.066869
0.222157 0.607526 -0.066750
0.224261 0.609120 -0.066672
0.226436 0.609857 -0.066668
0.229066 0.603418 -0.067287
0.231229 0.603978 -0.067294
0.233315 0.606041 -0.067168
0.235462 0.607250 -0.067115
0.238098 0.597604 -0.068001
0.240499 0.591628 -0.068566
0.242289 0.601513 -0.067756
0.244316 0.606595 -0.067360
0.246512 0.606872 -0.067379
0.248703 0.607509 -0.067364
0.250920 0.606921 -0.067454
0.253134 0.606112 -0.067560
0.255315 0.608611 -0.067380
0.257536 0.605283 -0.067699
0.259735 0.607206 -0.067565
0.261928 0.605384 -0.067751
0.264130 0.605859 -0.067738
0.266331 0.606031 -0.067749
0.268538 0.606399 -0.067741
0.270758 0.607115 -0.067701
0.272923 0.605742 -0.067839
0.275158 0.606749 -0.067770
0.277428 0.608435 -0.067642
0.279618 0.607886 -0.067704
0.281906 0.609495 -0.067578
0.286519 0.612497 -0.067340
0.288586 0.609742 -0.067581
0.290755 0.608897 -0.067658
0.292926 0.608171 -0.067722
0.295159 0.608326 -0.067708
0.297256 0.606759 -0.067839
0.299462 0.606626 -0.067846
0.301728 0.607155 -0.067794
0.304150 0.609270 -0.067604
0.306514 0.610586 -0.067481
0.308537 0.608445 -0.067650
0.308454 0.586939 -0.069473
0.311272 0.592983 -0.068938
0.314752 0.604181 -0.067959
0.317184 0.605890 -0.067790
0.319547 0.606904 -0.067677
0.321711 0.606312 -0.067699
0.323921 0.606070 -0.067689
0.326180 0.606170 -0.067647
0.328834 0.608963 -0.067370
0.332279 0.616829 -0.066654
0.337288 0.634313 -0.065105
0.337412 0.620068 -0.066286
0.337357 0.605523 -0.067493
0.339254 0.603335 -0.067631
0.341556 0.603577 -0.067557
0.344106 0.605172 -0.067363
0.346228 0.604318 -0.067377
0.348699 0.605342 -0.067226
0.351178 0.606326 -0.067074
0.354025 0.609102 -0.066763
0.356049 0.607646 -0.066817
0.357175 0.601890 -0.067245
0.357091 0.590654 -0.068152
0.361172 0.599117 -0.067329
0.365143 0.606684 -0.066578
0.367428 0.606452 -0.066509
0.369562 0.605544 -0.066497
0.371893 0.605481 -0.066406
0.374184 0.605225 -0.066330
0.377071 0.607371 -0.066036
0.379151 0.606188 -0.066035
0.381833 0.607373 -0.065819
0.384257 0.607493 -0.065695
0.386326 0.606244 -0.065690
0.388574 0.605675 -0.065621
0.390664 0.604522 -0.065603
0.393055 0.604451 -0.065483
0.395315 0.603899 -0.065404
0.398826 0.607634 -0.064931
0.400799 0.606019 -0.064943
0.406610 0.617165 -0.063782
0.410825 0.622707 -0.063127
0.409716 0.610952 -0.064066
0.411042 0.607243 -0.064263
0.413796 0.608061 -0.064039
0.415171 0.604618 -0.064211
0.419317 0.609593 -0.063595
0.421666 0.609073 -0.063492
0.423185 0.606128 -0.063617
0.423381 0.599457 -0.064096
0.424771 0.596345 -0.064242
0.426170 0.593336 -0.064380
0.427784 0.590992 -0.064458
0.435532 0.605315 -0.062941
0.437622 0.604123 -0.062909
0.440512 0.605067 -0.062676
0.443298 0.605709 -0.062474
0.445622 0.605155 -0.062392
0.447492 0.603470 -0.062426
0.450918 0.605716 -0.062082
0.463333 0.623581 -0.060099
0.461914 0.613906 -0.060942
0.460756 0.605113 -0.061711
0.460267 0.598122 -0.062315
0.460315 0.592566 -0.062788
0.459846 0.585987 -0.063375
0.468352 0.599855 -0.061948
0.470959 0.600275 -0.061863
0.474189 0.602096 -0.061652
0.476948 0.602892 -0.061555
0.479737 0.603776 -0.061462
0.480259 0.599845 -0.061860
0.482821 0.600353 -0.061831
0.485924 0.602031 -0.061701
0.488392 0.602411 -0.061713
0.491271 0.603678 -0.061652
0.492397 0.601411 -0.061954
0.494140 0.600483 -0.062138
0.496468 0.600793 -0.062214
0.500582 0.604681 -0.061953
0.502496 0.604245 -0.062131
0.503772 0.602633 -0.062437
0.505641 0.602245 -0.062637
0.508082 0.603011 -0.062738
-0.009276 0.599618 -0.056463
-0.007830 0.600790 -0.056226
-0.005756 0.600908 -0.056119
-0.004260 0.602125 -0.055905
-0.004612 0.606779 -0.055322
-0.005921 0.613324 -0.054542
-0.003710 0.613514 -0.054486
0.000348 0.610309 -0.054825
0.003818 0.608206 -0.055057
0.011223 0.598621 -0.056140
0.015906 0.594136 -0.056668
0.015805 0.598897 -0.056180
0.016505 0.602228 -0.055867
0.017840 0.604412 -0.055697
0.019757 0.605519 -0.055662
0.022401 0.605221 -0.055798
0.024942 0.605162 -0.055920
0.027525 0.605053 -0.056061
0.029479 0.606286 -0.056067
0.031464 0.607512 -0.056086
0.033924 0.607776 -0.056222
0.037080 0.606566 -0.056530
0.039462 0.607041 -0.056664
0.042252 0.606641 -0.056901
0.044752 0.606895 -0.057076
0.047025 0.607679 -0.057202
0.050001 0.606876 -0.057504
0.051656 0.609132 -0.057486
0.052479 0.613405 -0.057261
0.053477 0.617373 -0.057076
0.059153 0.610123 -0.058077
0.062998 0.607163 -0.058625
0.066791 0.604238 -0.059169
0.071377 0.599228 -0.059927
0.074397 0.598060 -0.060285
0.072984 0.608324 -0.059471
0.075540 0.608436 -0.059703
0.078256 0.608107 -0.059978
0.080836 0.608114 -0.060219
0.083785 0.607086 -0.060562
0.086109 0.607744 -0.060733
0.086045 0.615138 -0.060233
0.083649 0.629419 -0.059056
0.090116 0.618307 -0.060392
0.095169 0.611003 -0.061341
0.098206 0.609494 -0.061715
0.100555 0.610003 -0.061888
0.105817 0.601472 -0.062933
0.105839 0.609139 -0.062407
0.110136 0.603338 -0.063175
0.112919 0.602242 -0.063485
0.115547 0.601595 -0.063748
0.117916 0.601763 -0.063931
0.122184 0.595401 -0.064723
0.122027 0.604216 -0.064085
0.123630 0.607064 -0.064007
0.125757 0.608095 -0.064096
0.128792 0.605791 -0.064491
0.131150 0.605911 -0.064657
0.133430 0.606301 -0.064794
0.135575 0.607197 -0.064881
0.138037 0.606845 -0.065080
0.140341 0.607089 -0.065220
0.142391 0.608360 -0.065263
0.144832 0.608008 -0.065451
0.146811 0.609599 -0.065460
0.149914 0.606288 -0.065905
0.152591 0.604718 -0.066189
0.154092 0.608449 -0.065998
0.156809 0.606611 -0.066299
0.158943 0.607465 -0.066358
0.159975 0.613752 -0.065935
0.159952 0.625637 -0.065022
0.165053 0.611616 -0.066379
0.167479 0.611021 -0.066554
0.170237 0.608569 -0.066887
0.172859 0.606718 -0.067164
0.175155 0.606606 -0.067286
0.177252 0.607637 -0.067308
0.179154 0.609883 -0.067222
0.181257 0.610982 -0.067232
0.183505 0.611190 -0.067317
0.186335 0.607537 -0.067729
0.191242 0.589419 -0.069371
0.193397 0.589519 -0.069453
0.193629 0.603652 -0.068342
0.195667 0.605097 -0.068308
0.198004 0.604281 -0.068463
0.200012 0.606064 -0.068397
0.202064 0.607588 -0.068350
0.204374 0.606948 -0.068484
0.206638 0.606641 -0.068587
0.208823 0.607058 -0.068628
0.209330 0.624318 -0.067259
0.211737 0.623247 -0.067422
0.215512 0.606915 -0.068853
0.218028 0.603470 -0.069206
0.220024 0.606023 -0.069059
0.222139 0.607300 -0.069015
0.224376 0.607029 -0.069099
0.226682 0.605680 -0.069269
0.228711 0.608526 -0.069091
0.230907 0.608913 -0.069115
0.233134 0.608787 -0.069178
0.235522 0.605309 -0.069515
0.238224 0.593979 -0.070494
0.240529 0.590029 -0.070864
0.242222 0.602453 -0.069891
0.244373 0.603608 -0.069840
0.246484 0.606668 -0.069632
0.248661 0.607927 -0.069570
0.250892 0.606597 -0.069717
0.253090 0.606985 -0.069722
0.255295 0.606847 -0.069768
0.257493 0.608654 -0.069654
0.259703 0.607918 -0.069745
0.261907 0.607185 -0.069834
0.264091 0.605307 -0.070014
0.266308 0.606597 -0.069935
0.268525 0.607341 -0.069899
0.270721 0.606919 -0.069955
0.272918 0.606655 -0.069997
0.275132 0.606932 -0.069993
0.277344 0.607082 -0.069998
0.279616 0.608586 -0.069891
0.282021 0.612565 -0.069582
0.286483 0.612433 -0.069613
0.288728 0.612577 -0.069608
0.290931 0.612037 -0.069657
0.293072 0.610692 -0.069768
0.295176 0.608988 -0.069906
0.297291 0.607603 -0.070017
0.299285 0.604918 -0.070230
0.301531 0.605310 -0.070193
0.303811 0.606013 -0.070128
0.306137 0.607089 -0.070032
0.308633 0.609701 -0.069808
0.307935 0.582414 -0.071999
0.311330 0.593790 -0.071063
0.314872 0.605502 -0.070097
0.317140 0.605818 -0.070050
0.319500 0.606819 -0.069944
0.321797 0.607244 -0.069883
0.323904 0.606217 -0.069937
0.326172 0.606377 -0.069893
0.328500 0.606920 -0.069814
0.331390 0.611161 -0.069432
0.335685 0.609482 -0.069486
0.337494 0.606607 -0.069675
0.339249 0.603552 -0.069876
0.341551 0.603798 -0.069805
0.344290 0.606453 -0.069533
0.347073 0.609184 -0.069252
0.348920 0.606763 -0.069390
0.351009 0.605695 -0.069415
0.353353 0.605938 -0.069328
0.354655 0.600990 -0.069667
0.356636 0.599523 -0.069716
0.355554 0.583633 -0.070958
0.361114 0.599092 -0.069598
0.364985 0.606216 -0.068924
0.367532 0.607159 -0.068759
0.369634 0.606104 -0.068757
0.371863 0.605601 -0.068706
0.374389 0.606321 -0.068549
0.377074 0.607632 -0.068339
0.379410 0.607469 -0.068249
0.382002 0.608282 -0.068073
0.384018 0.606825 -0.068086
0.386435 0.606901 -0.067966
0.388599 0.606010 -0.067924
0.390746 0.605062 -0.067885
0.392970 0.604391 -0.067820
0.395386 0.604386 -0.067694
0.397552 0.603495 -0.067642
0.400517 0.605304 -0.067353
0.405666 0.614274 -0.066438
0.409665 0.619160 -0.065871
0.411034 0.615413 -0.066054
0.412068 0.610706 -0.066322
0.413225 0.606506 -0.066545
0.417204 0.611046 -0.065997
0.418578 0.607577 -0.066154
0.420716 0.606458 -0.066104
0.422984 0.605732 -0.066018
0.424413 0.602598 -0.066148
0.424995 0.597145 -0.066488
0.426513 0.594447 -0.066584
0.428413 0.592862 -0.066581
0.435651 0.605770 -0.065262
0.438059 0.605408 -0.065148
0.440593 0.605381 -0.065006
0.443178 0.605483 -0.064856
0.445710 0.605446 -0.064721
0.447889 0.604519 -0.064674
0.451302 0.606698 -0.064344
0.457055 0.608310 -0.063955
0.458265 0.605110 -0.064145
0.460773 0.605081 -0.064047
0.462633 0.603559 -0.064098
0.464183 0.601380 -0.064221
0.465971 0.599824 -0.064296
0.468959 0.601044 -0.064120
0.475615 0.610450 -0.063182
0.477934 0.610116 -0.063175
0.477846 0.604577 -0.063672
0.477890 0.599486 -0.064140
0.475288 0.588903 -0.065140
0.483666 0.601775 -0.063937
0.486168 0.602147 -0.063929
0.490216 0.605762 -0.063629
0.491133 0.602940 -0.063951
0.493534 0.603237 -0.063993
0.496909 0.605541 -0.063860
0.498862 0.605023 -0.064008
0.501936 0.606783 -0.063956
0.504722 0.608005 -0.063969
0.506307 0.606931 -0.064210
0.506121 0.602527 -0.064772
0.507698 0.601612 -0.065023
-0.009303 0.595264 -0.059210
-0.009974 0.600090 -0.058586
-0.008070 0.600480 -0.058446
-0.005319 0.599413 -0.058475
-0.003044 0.599238 -0.058424
-0.002031 0.601410 -0.058137
-0.006473 0.613674 -0.056787
-0.004018 0.613449 -0.056785
-0.002169 0.614403 -0.056674
0.004279 0.606761 -0.057497
0.009454 0.601449 -0.058087
0.014414 0.596494 -0.058653
0.017820 0.594505 -0.058916
0.015987 0.602782 -0.058100
0.017805 0.604048 -0.058047
0.019877 0.604871 -0.058056
0.022762 0.604110 -0.058246
0.025482 0.603707 -0.058412
0.027808 0.604142 -0.058501
0.029418 0.606112 -0.058442
0.031645 0.606852 -0.058525
0.035943 0.603212 -0.059076
0.037558 0.605304 -0.059037
0.039909 0.605857 -0.059170
0.042712 0.605437 -0.059411
0.044725 0.606789 -0.059477
0.047023 0.607537 -0.059614
0.049376 0.608184 -0.059767
0.052418 0.607246 -0.060087
0.052112 0.614172 -0.059616
0.052501 0.619618 -0.059305
0.059100 0.610182 -0.060490
0.062364 0.608656 -0.060881
0.066082 0.605952 -0.061389
0.070934 0.600303 -0.062186
0.074352 0.598143 -0.062635
0.072993 0.608276 -0.061884
0.075237 0.609213 -0.062035
0.078033 0.608686 -0.062327
0.081451 0.606442 -0.062781
0.083979 0.606547 -0.063008
0.085627 0.609081 -0.063002
0.086294 0.614431 -0.062730
0.083686 0.629309 -0.061565
0.090314 0.617727 -0.062887
0.094948 0.611652 -0.063682
0.098400 0.608905 -0.064160
0.102172 0.605065 -0.064733
0.102044 0.613157 -0.064205
0.106431 0.607262 -0.064957
0.109364 0.605797 -0.065298
0.112837 0.602494 -0.065800
0.115811 0.600699 -0.066160
0.119103 0.597743 -0.066619
0.121657 0.597180 -0.066858
0.122085 0.603978 -0.066440
0.123498 0.607497 -0.066312
0.125818 0.607833 -0.066464
0.128536 0.606684 -0.066743
0.131104 0.606029 -0.066974
0.133276 0.606826 -0.067074
0.135510 0.607384 -0.067192
0.137982 0.606991 -0.067389
0.140429 0.606654 -0.067577
0.142535 0.607679 -0.067644
0.145106 0.606763 -0.067875
0.147407 0.606935 -0.068008
0.149132 0.609620 -0.067926
0.152532 0.604872 -0.068469
0.154733 0.605390 -0.068563
0.157065 0.605287 -0.068706
0.159062 0.606759 -0.068714
0.159115 0.617843 -0.067919
0.160613 0.622155 -0.067689
0.164555 0.614029 -0.068488
0.167442 0.611052 -0.068854
0.169709 0.611265 -0.068954
0.172209 0.610165 -0.069159
0.175074 0.606884 -0.069539
0.177454 0.606254 -0.069698
0.179519 0.607469 -0.069704
0.181793 0.607431 -0.069809
0.183717 0.609612 -0.069732
0.185911 0.610115 -0.069789
0.191001 0.590837 -0.071438
0.193024 0.591913 -0.071440
0.193474 0.604524 -0.070516
0.195797 0.603848 -0.070657
0.197721 0.606222 -0.070552
0.199690 0.608392 -0.070462
0.202089 0.607069 -0.070647
0.204419 0.606225 -0.070793
0.206603 0.606636 -0.070836
0.208738 0.607519 -0.070840
0.209032 0.626927 -0.069381
0.212386 0.616022 -0.070313
0.215205 0.609895 -0.070863
0.217662 0.607306 -0.071132
0.219917 0.606891 -0.071228
0.222064 0.607810 -0.071218
0.224416 0.605973 -0.071422
0.226514 0.607644 -0.071349
0.228494 0.611405 -0.071113
0.230593 0.613703 -0.070989
0.232906 0.612383 -0.071145
0.235256 0.610030 -0.071378
0.238229 0.593100 -0.072737
0.240486 0.590256 -0.073003
0.242184 0.602573 -0.072096
0.244378 0.602302 -0.072160
0.246501 0.604705 -0.072016
0.248654 0.606669 -0.071905
0.250857 0.606711 -0.071940
0.253070 0.605853 -0.072042
0.255264 0.606522 -0.072025
0.257464 0.607382 -0.071993
0.259671 0.607927 -0.071982
0.261874 0.607118 -0.072074
0.264062 0.605552 -0.072221
0.266288 0.607364 -0.072109
0.268501 0.607736 -0.072105
0.270702 0.607430 -0.072150
0.272904 0.607245 -0.072185
0.275108 0.607164 -0.072210
0.277362 0.608375 -0.072135
0.279640 0.609861 -0.072037
0.281945 0.611623 -0.071917
0.285249 0.632211 -0.070362
0.286917 0.620611 -0.071254
0.288929 0.616356 -0.071586
0.291169 0.616118 -0.071610
0.293367 0.615304 -0.071676
0.295451 0.613053 -0.071848
0.297424 0.609657 -0.072107
0.299460 0.607353 -0.072279
0.301499 0.605298 -0.072431
0.303829 0.606538 -0.072330
0.306113 0.607173 -0.072273
0.308505 0.608772 -0.072141
0.307977 0.583090 -0.074083
0.311417 0.594848 -0.073173
0.314039 0.598656 -0.072865
0.317152 0.606187 -0.072271
0.319465 0.606810 -0.072201
0.321823 0.607703 -0.072108
0.324049 0.607538 -0.072094
0.326022 0.605562 -0.072215
0.328390 0.606408 -0.072118
0.331918 0.614931 -0.071430
0.336722 0.631176 -0.070146
0.336431 0.614410 -0.071390
0.337747 0.608392 -0.071808
0.339860 0.607411 -0.071838
0.342018 0.606722 -0.071842
0.344204 0.606199 -0.071830
0.346652 0.607112 -0.071705
0.348745 0.606059 -0.071728
0.350591 0.603751 -0.071847
0.352770 0.603210 -0.071825
0.355107 0.603453 -0.071739
0.355215 0.592879 -0.072494
0.355593 0.584034 -0.073113
0.361675 0.601910 -0.071641
0.364359 0.603619 -0.071428
0.367575 0.607578 -0.071033
0.369894 0.607460 -0.070956
0.371614 0.604778 -0.071077
0.374496 0.606998 -0.070808
0.376800 0.606749 -0.070731
0.379295 0.607244 -0.070591
0.381088 0.604943 -0.070670
0.384074 0.607275 -0.070377
0.386258 0.606472 -0.070330
0.388679 0.606543 -0.070211
0.390865 0.605728 -0.070159
0.393201 0.605446 -0.070061
0.395424 0.604753 -0.069994
0.397647 0.604051 -0.069925
0.401232 0.607947 -0.069477
0.405347 0.613443 -0.068893
0.409720 0.619569 -0.068250
0.411688 0.617738 -0.068260
0.411483 0.609078 -0.068834
0.414485 0.610638 -0.068560
0.416655 0.609575 -0.068502
0.418676 0.608073 -0.068480
0.420185 0.605080 -0.068583
0.422222 0.603694 -0.068551
0.424175 0.602093 -0.068538
0.425435 0.598557 -0.068689
0.427190 0.596489 -0.068718
0.429070 0.594811 -0.068715
0.434564 0.602960 -0.067868
0.438156 0.605787 -0.067478
0.440446 0.605099 -0.067392
0.443453 0.606285 -0.067147
0.445587 0.605200 -0.067102
0.448544 0.606227 -0.066877
0.452397 0.609460 -0.066462
0.456666 0.607355 -0.066401
0.457160 0.602425 -0.066725
0.460427 0.604202 -0.066463
0.464022 0.606721 -0.066142
0.466126 0.605756 -0.066140
0.468381 0.605186 -0.066113
0.470618 0.604619 -0.066096
0.474364 0.607459 -0.065785
0.477925 0.609864 -0.065524
0.478097 0.604866 -0.065938
0.475787 0.594669 -0.066833
0.478166 0.594733 -0.066819
0.484839 0.603903 -0.066002
0.487604 0.604769 -0.065943
0.489861 0.604618 -0.065990
0.490576 0.601362 -0.066329
0.494681 0.605097 -0.066056
0.496262 0.603742 -0.066252
0.501394 0.609535 -0.065825
0.502272 0.606892 -0.066165
0.505878 0.609682 -0.066036
0.504936 0.603668 -0.066701
0.506447 0.602527 -0.066946
0.509088 0.603611 -0.067009
-0.012460 0.600012 -0.060885
-0.009975 0.599350 -0.060848
-0.008571 0.600645 -0.060626
-0.007134 0.601955 -0.060417
-0.002395 0.597396 -0.060821
-0.000217 0.597462 -0.060768
0.000527 0.600208 -0.060457
-0.003507 0.611885 -0.059248
0.002159 0.605739 -0.059876
0.005113 0.604633 -0.060004
0.007093 0.605410 -0.059955
0.009186 0.606031 -0.059937
0.011788 0.605727 -0.060029
0.015422 0.603444 -0.060337
0.017403 0.604423 -0.060327
0.020053 0.604128 -0.060460
0.022721 0.603829 -0.060608
0.025587 0.603155 -0.060805
0.028630 0.602132 -0.061050
0.029094 0.606500 -0.060766
0.032886 0.603969 -0.061184
0.035277 0.604395 -0.061317
0.037850 0.604458 -0.061496
0.040758 0.603806 -0.061753
0.043944 0.602535 -0.062079
0.044727 0.606628 -0.061886
0.046763 0.607988 -0.061969
0.049812 0.607061 -0.062281
0.052401 0.607180 -0.062496
0.052020 0.614295 -0.062043
0.050702 0.623828 -0.061369
0.058916 0.610556 -0.062874
0.062033 0.609410 -0.063222
0.064922 0.608784 -0.063521
0.070036 0.602525 -0.064347
0.073746 0.599658 -0.064852
0.073454 0.607053 -0.064404
0.075396 0.608771 -0.064485
0.077143 0.611039 -0.064516
0.080777 0.608249 -0.065009
0.083150 0.608807 -0.065193
0.085130 0.610451 -0.065279
0.086847 0.612860 -0.065295
0.083367 0.630213 -0.063979
0.091872 0.613184 -0.065723
0.095800 0.609121 -0.066305
0.098136 0.609685 -0.066475
0.101548 0.606952 -0.066930
0.104120 0.606707 -0.067162
0.105002 0.611743 -0.066935
0.108051 0.609977 -0.067293
0.111954 0.605341 -0.067891
0.115596 0.601381 -0.068424
0.118805 0.598711 -0.068841
0.123964 0.589237 -0.069826
0.121935 0.604459 -0.068727
0.123487 0.607485 -0.068655
0.125748 0.608029 -0.068788
0.128561 0.606533 -0.069086
0.130888 0.606770 -0.069237
0.133168 0.607168 -0.069370
0.135574 0.607058 -0.069542
0.137939 0.607078 -0.069700
0.140299 0.607090 -0.069855
0.142853 0.606270 -0.070073
0.145103 0.606670 -0.070190
0.147430 0.606726 -0.070330
0.150418 0.603853 -0.070702
0.152562 0.604613 -0.070779
0.154574 0.605987 -0.070804
0.156853 0.606147 -0.070923
0.159120 0.606339 -0.071036
0.159065 0.617937 -0.070251
0.160521 0.622453 -0.070023
0.165138 0.610852 -0.071052
0.167560 0.610257 -0.071216
0.169547 0.611960 -0.071198
0.172053 0.610843 -0.071397
0.174834 0.608064 -0.071720
0.177425 0.606220 -0.071967
0.179974 0.604504 -0.072201
0.182022 0.605781 -0.072203
0.183860 0.608461 -0.072096
0.186486 0.606063 -0.072374
0.190640 0.593060 -0.073453
0.192855 0.592853 -0.073556
0.193538 0.603787 -0.072816
0.195639 0.604761 -0.072828
0.197726 0.605893 -0.072826
0.199808 0.607121 -0.072814
0.201971 0.607750 -0.072846
0.204347 0.606530 -0.073014
0.206638 0.605971 -0.073130
0.208624 0.608253 -0.073033
0.208993 0.626924 -0.071719
0.212112 0.618502 -0.072414
0.215001 0.611738 -0.072982
0.217569 0.607956 -0.073326
0.219735 0.608667 -0.073336
0.222219 0.605297 -0.073645
0.224069 0.610275 -0.073339
0.225887 0.616390 -0.072948
0.228163 0.616097 -0.073026
0.230432 0.615848 -0.073098
0.232479 0.619677 -0.072872
0.234714 0.620348 -0.072874
0.237376 0.611531 -0.073565
0.240538 0.588093 -0.075314
0.242245 0.599851 -0.074505
0.244327 0.602862 -0.074329
0.246483 0.604085 -0.074281
0.248634 0.605987 -0.074183
0.250850 0.605127 -0.074283
0.253042 0.605432 -0.074298
0.255238 0.605716 -0.074312
0.257431 0.607452 -0.074220
0.259639 0.608191 -0.074198
0.261842 0.607116 -0.074305
0.264045 0.606971 -0.074343
0.266240 0.606322 -0.074416
0.268451 0.606767 -0.074408
0.270693 0.608323 -0.074320
0.272887 0.607729 -0.074383
0.275065 0.606779 -0.074471
0.277320 0.608061 -0.074397
0.279573 0.609029 -0.074343
0.281824 0.609722 -0.074308
0.285226 0.632365 -0.072702
0.287087 0.624148 -0.073300
0.289048 0.618789 -0.073692
0.291340 0.619173 -0.073671
0.293489 0.617458 -0.073798
0.295715 0.616960 -0.073837
0.298015 0.617428 -0.073804
0.299721 0.610796 -0.074276
0.301909 0.610239 -0.074313
0.303888 0.607488 -0.074504
0.306202 0.608381 -0.074433
0.308454 0.608576 -0.074409
0.308063 0.584159 -0.076142
0.311318 0.594237 -0.075408
0.315027 0.607369 -0.074454
0.317199 0.606830 -0.074474
0.319382 0.606404 -0.074483
0.321834 0.608035 -0.074343
0.323960 0.607121 -0.074383
0.326330 0.607994 -0.074292
0.328405 0.606748 -0.074351
0.331854 0.614737 -0.073744
0.336819 0.632039 -0.072462
0.336375 0.614280 -0.073701
0.338449 0.612900 -0.073759
0.340074 0.608905 -0.074003
0.342153 0.607721 -0.074042
0.344314 0.607037 -0.074042
0.346673 0.607444 -0.073960
0.348978 0.607521 -0.073899
0.351097 0.606593 -0.073908
0.353575 0.607513 -0.073779
0.356043 0.608307 -0.073657
0.354931 0.591714 -0.074803
0.356353 0.587835 -0.075019
0.361530 0.601453 -0.073947
0.365047 0.606945 -0.073466
0.367634 0.608059 -0.073303
0.369968 0.607999 -0.073224
0.372234 0.607627 -0.073164
0.374232 0.606124 -0.073185
0.376522 0.605841 -0.073112
0.377939 0.602054 -0.073298
0.381261 0.605840 -0.072914
0.383770 0.606330 -0.072773
0.386040 0.605872 -0.072700
0.387870 0.603774 -0.072748
0.391256 0.607369 -0.072361
0.393055 0.605149 -0.072413
0.395314 0.604589 -0.072335
0.397478 0.603690 -0.072280
0.399906 0.603686 -0.072154
0.404848 0.612004 -0.071383
0.412615 0.629246 -0.069913
0.410911 0.615460 -0.070842
0.412967 0.613978 -0.070817
0.414753 0.611676 -0.070855
0.417556 0.612533 -0.070643
0.418577 0.607972 -0.070856
0.419471 0.603151 -0.071091
0.421870 0.602848 -0.070968
0.424033 0.601858 -0.070900
0.425931 0.600125 -0.070891
0.426773 0.595478 -0.071117
0.429066 0.594941 -0.071014
0.435452 0.605499 -0.070013
0.437875 0.605156 -0.069893
0.440914 0.606438 -0.069643
0.443253 0.605857 -0.069547
0.445685 0.605528 -0.069434
0.448793 0.606914 -0.069182
0.452612 0.610036 -0.068791
0.456780 0.607628 -0.068739
0.457703 0.603701 -0.068951
0.459767 0.602589 -0.068935
0.463187 0.604692 -0.068658
0.467097 0.607896 -0.068296
0.469069 0.606628 -0.068319
0.470527 0.604257 -0.068446
0.473465 0.605270 -0.068297
0.476901 0.607393 -0.068065
0.478022 0.604461 -0.068274
0.474477 0.591578 -0.069340
0.480095 0.598548 -0.068733
0.484997 0.603906 -0.068276
0.487372 0.603923 -0.068286
0.489905 0.604316 -0.068277
0.492212 0.604289 -0.068318
0.494281 0.603833 -0.068410
0.496479 0.603699 -0.068488
0.499577 0.605411 -0.068425
0.503555 0.608880 -0.068228
0.503215 0.603915 -0.068755
0.504941 0.603091 -0.068947
0.506104 0.601258 -0.069236
0.510004 0.604719 -0.069097
-0.006757 0.589340 -0.064106
-0.010937 0.600312 -0.062949
-0.007248 0.597598 -0.063131
-0.002429 0.592880 -0.063523
-0.002275 0.596522 -0.063117
-0.003121 0.602093 -0.062537
0.001510 0.597796 -0.062934
0.001737 0.601604 -0.062556
0.002870 0.603845 -0.062345
0.004304 0.605613 -0.062197
0.006741 0.605563 -0.062241
0.008429 0.606995 -0.062155
0.006780 0.614959 -0.061451
0.010121 0.613377 -0.061690
0.014252 0.610242 -0.062092
0.018471 0.606907 -0.062526
0.021517 0.605906 -0.062746
0.023127 0.607847 -0.062697
0.024157 0.611057 -0.062540
0.026660 0.611299 -0.062679
0.030018 0.609765 -0.062997
0.033559 0.607830 -0.063362
0.036784 0.606550 -0.063673
0.041227 0.602594 -0.064242
0.046262 0.597243 -0.064944
0.044251 0.607542 -0.064196
0.046684 0.608033 -0.064369
0.049888 0.606766 -0.064709
0.052170 0.607611 -0.064859
0.052557 0.612937 -0.064606
0.050325 0.624645 -0.063783
0.058751 0.610887 -0.065266
0.061857 0.609781 -0.065604
0.064920 0.608740 -0.065937
0.070370 0.601640 -0.066804
0.073365 0.600596 -0.067132
0.073480 0.606954 -0.066811
0.075578 0.608269 -0.066934
0.078016 0.608690 -0.067134
0.080485 0.609016 -0.067341
0.083274 0.608449 -0.067622
0.085339 0.609853 -0.067733
0.087026 0.612337 -0.067751
0.093576 0.608203 -0.068548
0.095716 0.609351 -0.068671
0.098134 0.609669 -0.068860
0.101156 0.608123 -0.069200
0.104108 0.606716 -0.069524
0.105439 0.610337 -0.069433
0.107489 0.611742 -0.069521
0.110606 0.609692 -0.069885
0.114469 0.605071 -0.070450
0.118652 0.599180 -0.071109
0.123507 0.590753 -0.071961
0.122033 0.604061 -0.071085
0.123539 0.607239 -0.071012
0.126189 0.606372 -0.071254
0.128495 0.606705 -0.071398
0.130600 0.607773 -0.071482
0.133528 0.605712 -0.071805
0.135683 0.606547 -0.071900
0.137909 0.607105 -0.072013
0.140950 0.604355 -0.072375
0.142993 0.605584 -0.072430
0.145103 0.606558 -0.072501
0.147634 0.605728 -0.072706
0.149998 0.605571 -0.072856
0.152776 0.603519 -0.073145
0.154656 0.605473 -0.073130
0.156964 0.605476 -0.073259
0.159181 0.605891 -0.073354
0.158977 0.618203 -0.072568
0.161265 0.618530 -0.072667
0.165670 0.607930 -0.073563
0.168077 0.607333 -0.073721
0.169898 0.609863 -0.073648
0.172408 0.608663 -0.073845
0.174829 0.607884 -0.074007
0.177680 0.604505 -0.074354
0.180083 0.603618 -0.074518
0.181989 0.605753 -0.074462
0.183855 0.608245 -0.074379
0.186217 0.607597 -0.074519
0.190437 0.594192 -0.075564
0.192219 0.597072 -0.075445
0.193449 0.604154 -0.075028
0.195352 0.606636 -0.074936
0.197722 0.605616 -0.075090
0.199817 0.606732 -0.075090
0.201930 0.607764 -0.075095
0.204340 0.606251 -0.075277
0.206512 0.606766 -0.075314
0.208593 0.608171 -0.075287
0.209112 0.625332 -0.074163
0.211748 0.621918 -0.074470
0.214944 0.611941 -0.075228
0.217602 0.607130 -0.075625
0.220137 0.603259 -0.075953
0.222379 0.602724 -0.076050
0.224850 0.598925 -0.076368
0.227026 0.598959 -0.076421
0.228739 0.606332 -0.075970
0.230983 0.605751 -0.076062
0.233208 0.605398 -0.076137
0.235338 0.606877 -0.076086
0.237530 0.607259 -0.076107
0.239475 0.613922 -0.075700
0.242028 0.605039 -0.076348
0.244252 0.604189 -0.076448
0.246409 0.605591 -0.076394
0.248602 0.605925 -0.076411
0.250735 0.609920 -0.076179
0.253133 0.595312 -0.077201
0.255255 0.599207 -0.076972
0.257420 0.600647 -0.076908
0.259605 0.607446 -0.076481
0.261816 0.607986 -0.076474
0.264016 0.607135 -0.076560
0.266213 0.606568 -0.076624
0.268433 0.607413 -0.076592
0.270645 0.607620 -0.076602
0.272818 0.606374 -0.076706
0.275023 0.606414 -0.076723
0.277244 0.606868 -0.076711
0.279415 0.606028 -0.076784
0.281762 0.609038 -0.076597
0.283925 0.607977 -0.076681
0.286094 0.607156 -0.076747
0.288313 0.607278 -0.076748
0.290546 0.607563 -0.076736
0.292776 0.607754 -0.076729
0.295026 0.608179 -0.076705
0.298274 0.621049 -0.075848
0.300383 0.618981 -0.075986
0.301910 0.610566 -0.076545
0.304042 0.609438 -0.076616
0.306314 0.609814 -0.076585
0.308439 0.608705 -0.076651
0.308763 0.590922 -0.077828
0.311287 0.594209 -0.077596
0.315090 0.608157 -0.076650
0.317215 0.607208 -0.076696
0.319311 0.606074 -0.076753
0.321506 0.605757 -0.076753
0.324017 0.607772 -0.076594
0.325895 0.605108 -0.076746
0.328379 0.606780 -0.076605
0.331750 0.614261 -0.076072
0.336866 0.632566 -0.074806
0.336455 0.614998 -0.075951
0.338104 0.611004 -0.076180
0.340008 0.608716 -0.076293
0.342132 0.607803 -0.076310
0.344705 0.609437 -0.076152
0.346943 0.609129 -0.076123
0.349366 0.609791 -0.076024
0.351692 0.609893 -0.075961
0.353840 0.609060 -0.075959
0.356032 0.608452 -0.075938
0.356689 0.600421 -0.076422
0.355917 0.585966 -0.077346
0.360905 0.598764 -0.076398
0.365371 0.608617 -0.075647
0.367678 0.608459 -0.075580
0.369809 0.607519 -0.075563
0.371832 0.606127 -0.075576
0.374276 0.606513 -0.075461
0.376861 0.607427 -0.075306
0.378905 0.606117 -0.075303
0.381070 0.605300 -0.075263
0.383317 0.604801 -0.075197
0.385494 0.604025 -0.075148
0.387220 0.601581 -0.075214
0.389810 0.602329 -0.075050
0.392185 0.602257 -0.074942
0.394627 0.602392 -0.074816
0.397151 0.602773 -0.074668
0.399788 0.603493 -0.074493
0.404138 0.609855 -0.073907
0.410309 0.613731 -0.073360
0.412144 0.611579 -0.073379
0.416196 0.616365 -0.072889
0.418410 0.615344 -0.072820
0.418206 0.607042 -0.073289
0.420576 0.606609 -0.073177
0.422394 0.604556 -0.073184
0.425239 0.605495 -0.072968
0.427253 0.604031 -0.072930
0.426775 0.595634 -0.073416
0.428663 0.593974 -0.073397
0.435341 0.605329 -0.072388
0.438069 0.605797 -0.072205
0.440732 0.606067 -0.072039
0.443037 0.605389 -0.071947
0.445216 0.604404 -0.071882
0.449082 0.607704 -0.071488
0.452094 0.608788 -0.071268
0.457722 0.609919 -0.070923
0.458419 0.605398 -0.071159
0.459437 0.601765 -0.071333
0.463266 0.604811 -0.070988
0.466945 0.607455 -0.070682
0.468552 0.605332 -0.070762
0.470008 0.602944 -0.070873
0.473289 0.604708 -0.070664
0.476673 0.606689 -0.070448
0.476985 0.601974 -0.070779
0.474537 0.591457 -0.071587
0.478078 0.593967 -0.071364
0.484055 0.601603 -0.070743
0.487281 0.603387 -0.070603
0.490797 0.605781 -0.070429
0.493162 0.605825 -0.070456
0.495332 0.605526 -0.070525
0.497258 0.604797 -0.070642
0.499071 0.603913 -0.070785
0.500806 0.602947 -0.070949
0.503530 0.603984 -0.070967
0.505310 0.603234 -0.071141
0.506747 0.601898 -0.071374
0.508269 0.600802 -0.071601
-0.006289 0.587807 -0.066397
-0.009506 0.597092 -0.065456
-0.008701 0.599475 -0.065163
-0.005557 0.597789 -0.065261
-0.004906 0.600604 -0.064956
0.000210 0.595435 -0.065406
0.004768 0.591250 -0.065781
0.002128 0.600308 -0.064942
0.002283 0.604386 -0.064581
0.003956 0.605740 -0.064488
0.006072 0.606331 -0.064480
0.008160 0.607034 -0.064477
