ply
format ascii 1.0
comment ---
element vertex 1685
property float x
property float y
property float z
element face 0
property list uchar uint vertex_indices
end_header
0.106490 0.912849 -0.586042
0.109506 0.913600 -0.586439
0.112571 0.913637 -0.586450
0.115600 0.914293 -0.586796
0.118655 0.914526 -0.586915
0.121748 0.913930 -0.586587
0.124827 0.913462 -0.586330
0.127762 0.916838 -0.588145
0.130861 0.915946 -0.587661
0.133932 0.915679 -0.587514
0.136983 0.916203 -0.587795
0.140033 0.917102 -0.588279
0.143105 0.916459 -0.587932
0.146166 0.916512 -0.587962
0.149227 0.917627 -0.588565
0.152288 0.916926 -0.588190
0.155350 0.917088 -0.588281
0.158434 0.918507 -0.589052
0.161504 0.918614 -0.589116
0.164584 0.919093 -0.589382
0.167641 0.918711 -0.589185
0.170675 0.917824 -0.588716
0.173677 0.916436 -0.587979
0.176804 0.917896 -0.588779
0.179897 0.918445 -0.589090
0.182981 0.918725 -0.589256
0.186058 0.918827 -0.589329
0.189096 0.918357 -0.589094
0.192133 0.917902 -0.588868
0.195233 0.918284 -0.589096
0.198358 0.918896 -0.589449
0.201450 0.919041 -0.589553
0.204417 0.917840 -0.588932
0.207580 0.918679 -0.589413
0.210458 0.916733 -0.588393
0.213502 0.916424 -0.588258
0.216585 0.916451 -0.588307
0.219591 0.915811 -0.587997
0.222609 0.915288 -0.587754
0.225788 0.915992 -0.588174
0.228844 0.915709 -0.588063
0.231607 0.913369 -0.586844
0.234730 0.913590 -0.587009
0.237843 0.913689 -0.587112
0.240802 0.912773 -0.586668
0.243502 0.910310 -0.585390
0.246233 0.908150 -0.584278
0.249365 0.908358 -0.584448
0.252492 0.908495 -0.584583
0.255665 0.908822 -0.584822
0.257614 0.902707 -0.581579
0.261079 0.904576 -0.582659
0.264589 0.906522 -0.583782
0.267746 0.906623 -0.583910
0.270173 0.903257 -0.582164
0.272858 0.901194 -0.581125
0.276428 0.903121 -0.582250
0.279411 0.902366 -0.581925
0.282245 0.900961 -0.581250
0.285317 0.900565 -0.581124
0.288482 0.900514 -0.581189
0.291227 0.898757 -0.580331
0.294787 0.900185 -0.581204
0.297781 0.899356 -0.580855
0.301149 0.899905 -0.581257
0.305307 0.903255 -0.583183
0.308316 0.902330 -0.582791
0.312171 0.904346 -0.583999
0.315303 0.903765 -0.583799
0.318208 0.902404 -0.583176
0.321627 0.902736 -0.583477
0.325305 0.903853 -0.584208
0.327879 0.901389 -0.582990
0.330998 0.900673 -0.582726
0.335201 0.903251 -0.584260
0.338543 0.903124 -0.584321
0.341045 0.900495 -0.583017
0.344688 0.901229 -0.583549
0.348401 0.902112 -0.584164
0.352490 0.903992 -0.585324
0.354567 0.900261 -0.583417
0.357767 0.899677 -0.583229
0.360193 0.897041 -0.581917
0.364139 0.898469 -0.582826
0.367348 0.897950 -0.582668
0.370082 0.896251 -0.581860
0.374606 0.899092 -0.583537
0.378779 0.901004 -0.584701
0.381984 0.900538 -0.584556
0.385069 0.899828 -0.584273
0.387418 0.897444 -0.583064
0.391142 0.898370 -0.583665
0.393982 0.897296 -0.583159
0.396711 0.896058 -0.582557
0.402711 0.902235 -0.586017
0.404779 0.899642 -0.584652
0.407496 0.898609 -0.584133
0.409145 0.895380 -0.582397
0.410466 0.891617 -0.580356
-0.721463 1.344896 -0.846713
-0.721372 1.353307 -0.851360
-0.717892 1.357967 -0.853853
-0.712840 1.360938 -0.855363
-0.707114 1.363248 -0.856474
-0.702088 1.366540 -0.858116
-0.697862 1.370955 -0.860369
-0.692903 1.374618 -0.862174
-0.686720 1.376886 -0.863169
-0.680683 1.379434 -0.864303
-0.675681 1.383394 -0.866216
-0.671939 1.389086 -0.869089
-0.665722 1.391700 -0.870210
-0.659085 1.393829 -0.871044
-0.653451 1.397334 -0.872642
-0.647507 1.400490 -0.874033
-0.641508 1.403623 -0.875402
-0.635935 1.407382 -0.877115
-0.630570 1.411475 -0.879010
-0.625590 1.416157 -0.881229
-0.620545 1.420800 -0.883423
-0.615107 1.424931 -0.885325
-0.608963 1.428073 -0.886672
-0.601794 1.429721 -0.887182
-0.595230 1.432231 -0.888176
-0.590232 1.437064 -0.890470
-0.586599 1.443990 -0.893934
-0.581473 1.448710 -0.896167
-0.576442 1.453600 -0.898497
-0.568865 1.454538 -0.898626
-0.567601 1.465389 -0.904285
-0.567544 1.478329 -0.911106
-0.577119 1.507054 -0.926711
-0.584617 1.532955 -0.940734
-0.589153 1.554465 -0.952307
-0.583587 1.559462 -0.954700
-0.578076 1.564568 -0.957160
-0.572071 1.568850 -0.959167
-0.566458 1.573814 -0.961559
-0.559456 1.576357 -0.962615
-0.552915 1.579681 -0.964110
-0.546478 1.583174 -0.965705
-0.541949 1.590126 -0.969223
-0.534925 1.592554 -0.970242
-0.527984 1.595100 -0.971333
-0.521460 1.598401 -0.972849
-0.514632 1.601106 -0.974042
-0.507484 1.603168 -0.974887
-0.499138 1.602839 -0.974419
-0.489715 1.600273 -0.972724
-0.476076 1.589079 -0.966278
-0.462062 1.576741 -0.959214
-0.450794 1.569662 -0.955060
-0.445409 1.574606 -0.957543
-0.444562 1.589209 -0.965351
-0.440587 1.597407 -0.969634
-0.432149 1.596040 -0.968654
-0.424222 1.595683 -0.968237
-0.422982 1.610178 -0.975998
-0.407452 1.610179 -0.975585
-0.401160 1.613497 -0.977211
-0.394066 1.614942 -0.977813
-0.382506 1.605654 -0.972523
-0.372283 1.599273 -0.968838
-0.061360 0.891555 -0.579681
-0.058112 0.891571 -0.579626
-0.055683 0.893806 -0.580790
-0.051771 0.891951 -0.579712
-0.049376 0.894309 -0.580945
-0.046897 0.896476 -0.582076
-0.043865 0.897069 -0.582345
-0.040542 0.896791 -0.582138
-0.036834 0.895311 -0.581276
-0.033384 0.894547 -0.580807
-0.030507 0.895531 -0.581296
-0.026660 0.893425 -0.580095
-0.024220 0.895799 -0.581348
-0.021161 0.896185 -0.581514
-0.018552 0.898084 -0.582509
-0.015697 0.899182 -0.583067
-0.011875 0.896906 -0.581780
-0.008703 0.896843 -0.581705
-0.005348 0.896083 -0.581251
-0.002570 0.897425 -0.581946
-0.000033 0.899719 -0.583164
0.003307 0.898960 -0.582712
0.006225 0.899829 -0.583152
0.009052 0.901079 -0.583801
0.012137 0.901293 -0.583884
0.015398 0.900745 -0.583553
0.018925 0.898986 -0.582560
0.021238 0.902544 -0.584473
0.024240 0.903100 -0.584747
0.027350 0.903156 -0.584748
0.030557 0.902720 -0.584482
0.033848 0.901823 -0.583964
0.036922 0.901962 -0.584014
0.040003 0.902042 -0.584031
0.042929 0.902943 -0.584498
0.046251 0.901674 -0.583781
0.049199 0.902443 -0.584176
0.052115 0.903425 -0.584689
0.055184 0.903519 -0.584718
0.058266 0.903502 -0.584686
0.061308 0.903725 -0.584787
0.064305 0.904245 -0.585050
0.067232 0.905268 -0.585588
0.070306 0.905267 -0.585568
0.073150 0.906992 -0.586491
0.076150 0.907598 -0.586804
0.079308 0.906918 -0.586415
0.082323 0.907390 -0.586656
0.085504 0.906360 -0.586078
0.088386 0.908065 -0.586992
0.091267 0.909915 -0.587986
0.094300 0.910331 -0.588199
0.097527 0.908578 -0.587230
0.100649 0.907819 -0.586803
0.103660 0.908340 -0.587075
0.106703 0.908477 -0.587138
0.109641 0.910139 -0.588034
0.112688 0.910286 -0.588104
0.115710 0.910862 -0.588409
0.118765 0.910862 -0.588401
0.121844 0.910289 -0.588081
0.124891 0.910313 -0.588088
0.127965 0.909531 -0.587655
0.130954 0.911179 -0.588549
0.133976 0.912145 -0.589072
0.136997 0.913606 -0.589865
0.140058 0.913240 -0.589664
0.143119 0.912350 -0.589178
0.146166 0.912253 -0.589125
0.149212 0.913432 -0.589769
0.152270 0.914687 -0.590455
0.155297 0.912247 -0.589128
0.158324 0.911411 -0.588677
0.161411 0.913672 -0.589916
0.164506 0.915345 -0.590835
0.167590 0.916179 -0.591297
0.170547 0.913445 -0.589817
0.173597 0.913517 -0.589867
0.176619 0.912992 -0.589593
0.179781 0.915163 -0.590790
0.182783 0.914210 -0.590286
0.185778 0.913312 -0.589813
0.188720 0.911764 -0.588987
0.191919 0.913840 -0.590140
0.195113 0.915571 -0.591105
0.198217 0.916015 -0.591371
0.201236 0.915444 -0.591084
0.204273 0.915086 -0.590916
0.207258 0.914244 -0.590485
0.210284 0.913833 -0.590292
0.213309 0.913425 -0.590102
0.216330 0.912984 -0.589896
0.219243 0.911679 -0.589220
0.222251 0.911185 -0.588989
0.225267 0.910768 -0.588802
0.228144 0.909338 -0.588064
0.231215 0.909328 -0.588104
0.234163 0.908461 -0.587678
0.237433 0.909701 -0.588405
0.240287 0.908215 -0.587645
0.243194 0.907108 -0.587095
0.245899 0.904852 -0.585918
0.248692 0.903190 -0.585069
0.251746 0.903024 -0.585040
0.254829 0.902987 -0.585085
0.257250 0.899461 -0.583222
0.260236 0.898946 -0.583010
0.263925 0.901879 -0.584687
0.266484 0.899193 -0.583292
0.269198 0.897329 -0.582349
0.272236 0.896984 -0.582241
0.275375 0.897062 -0.582367
0.278405 0.896613 -0.582207
0.281532 0.896554 -0.582263
0.284650 0.896411 -0.582277
0.287728 0.896067 -0.582183
0.290859 0.895901 -0.582190
0.293807 0.894986 -0.581788
0.296933 0.894739 -0.581756
0.300020 0.894312 -0.581628
0.303444 0.895074 -0.582156
0.308351 0.901024 -0.585539
0.308812 0.891224 -0.580266
0.314022 0.897957 -0.584087
0.317253 0.897772 -0.584106
0.319305 0.893681 -0.581977
0.323307 0.895977 -0.583366
0.326483 0.895539 -0.583252
0.330410 0.897408 -0.584412
0.333365 0.896217 -0.583886
0.336475 0.895496 -0.583621
0.340588 0.897715 -0.584979
0.343531 0.896451 -0.584416
0.345582 0.892676 -0.582466
0.349018 0.892871 -0.582708
0.351094 0.889312 -0.580875
0.354037 0.888195 -0.580389
0.358269 0.890530 -0.581812
0.361888 0.891187 -0.582305
0.365274 0.891226 -0.582455
0.368129 0.889929 -0.581860
0.370883 0.888432 -0.581151
0.376155 0.893191 -0.583905
0.379688 0.893626 -0.584258
0.382320 0.891932 -0.583423
0.385250 0.891027 -0.583021
0.389184 0.892529 -0.583946
0.392761 0.893222 -0.584415
0.392559 0.885414 -0.580154
0.399256 0.893273 -0.584586
0.403782 0.896222 -0.586282
0.404360 0.890582 -0.583194
0.407272 0.890180 -0.583007
0.410952 0.891507 -0.583769
-0.723664 1.344958 -0.854085
-0.720109 1.349289 -0.856450
-0.717958 1.355463 -0.859843
-0.712272 1.357643 -0.860919
-0.706293 1.359610 -0.861844
-0.701285 1.362880 -0.863491
-0.698442 1.368940 -0.866712
-0.693380 1.372450 -0.868448
-0.687265 1.374778 -0.869484
-0.680877 1.376865 -0.870362
-0.676209 1.381222 -0.872519
-0.671924 1.386191 -0.875007
-0.665593 1.388634 -0.876036
-0.659309 1.391204 -0.877123
-0.653462 1.394409 -0.878560
-0.647532 1.397567 -0.879958
-0.641020 1.399990 -0.880929
-0.635255 1.403463 -0.882489
-0.630174 1.407924 -0.884605
-0.624689 1.411878 -0.886426
-0.618943 1.415507 -0.888057
-0.614211 1.420608 -0.890522
-0.609274 1.425468 -0.892846
-0.600985 1.425488 -0.892425
-0.593488 1.426607 -0.892630
-0.587907 1.430535 -0.894427
-0.584664 1.437994 -0.898223
-0.577871 1.440137 -0.899013
-0.573514 1.445998 -0.901907
-0.568405 1.450736 -0.904170
-0.562660 1.454494 -0.905882
-0.561111 1.464940 -0.911369
-0.562011 1.479487 -0.919166
-0.589256 1.551328 -0.958806
-0.584407 1.557523 -0.961886
-0.579738 1.564068 -0.965169
-0.574193 1.569171 -0.967646
-0.567736 1.572717 -0.969254
-0.561788 1.577139 -0.971361
-0.554790 1.579706 -0.972433
-0.548628 1.583736 -0.974334
-0.542982 1.588702 -0.976765
-0.536512 1.592176 -0.978368
-0.529713 1.595030 -0.979629
-0.522941 1.597906 -0.980911
-0.516078 1.600587 -0.982090
-0.509491 1.603773 -0.983559
-0.502469 1.606095 -0.984553
-0.492494 1.602540 -0.982271
-0.482920 1.599605 -0.980346
-0.469276 1.588240 -0.973725
-0.454091 1.573321 -0.965135
-0.448591 1.578115 -0.967550
-0.446458 1.590062 -0.973956
-0.438106 1.588938 -0.973083
-0.432675 1.594037 -0.975683
-0.427739 1.600282 -0.978926
-0.424590 1.610602 -0.984442
-0.417563 1.612367 -0.985200
-0.410376 1.613741 -0.985747
-0.405476 1.620387 -0.989232
-0.399042 1.623534 -0.990774
-0.384161 1.606511 -0.981112
-0.373473 1.599087 -0.976794
-0.372269 1.614706 -0.985285
-0.119440 1.033417 -0.662001
-0.056797 0.886697 -0.580441
-0.053320 0.886005 -0.579992
-0.050081 0.885926 -0.579884
-0.047744 0.888365 -0.581173
-0.045638 0.891526 -0.582864
-0.042799 0.892624 -0.583414
-0.038646 0.889830 -0.581808
-0.035826 0.890942 -0.582368
-0.032782 0.891380 -0.582557
-0.029086 0.889766 -0.581610
-0.025892 0.889669 -0.581505
-0.022882 0.890144 -0.581718
-0.020254 0.891874 -0.582627
-0.016728 0.890619 -0.581885
-0.014117 0.892439 -0.582847
-0.011183 0.893173 -0.583208
-0.007968 0.892907 -0.583018
-0.004757 0.892626 -0.582820
-0.001987 0.893950 -0.583511
0.000897 0.894872 -0.583981
0.003881 0.895425 -0.584248
0.006652 0.896825 -0.584983
0.009541 0.897786 -0.585478
0.012638 0.897901 -0.585505
0.015866 0.897446 -0.585218
0.019076 0.897025 -0.584951
0.022117 0.897312 -0.585077
0.025456 0.896228 -0.584445
0.028142 0.898126 -0.585462
0.031350 0.897590 -0.585135
0.034149 0.899027 -0.585899
0.037503 0.897694 -0.585134
0.040217 0.899610 -0.586164
0.043424 0.898964 -0.585779
0.046551 0.898697 -0.585605
0.049569 0.899011 -0.585752
0.052370 0.900599 -0.586603
0.055358 0.901132 -0.586873
0.058615 0.899980 -0.586212
0.061649 0.900170 -0.586294
0.064463 0.901842 -0.587194
0.067487 0.902138 -0.587335
0.070432 0.903011 -0.587795
0.073527 0.902786 -0.587651
0.076401 0.904259 -0.588444
0.079493 0.904039 -0.588303
0.082641 0.903277 -0.587864
0.085779 0.902503 -0.587419
0.088947 0.901335 -0.586757
0.091584 0.905348 -0.588954
0.094581 0.905955 -0.589273
0.097712 0.905097 -0.588785
0.100877 0.903689 -0.587994
0.103882 0.904091 -0.588202
0.106797 0.905752 -0.589105
0.109860 0.905447 -0.588925
0.112845 0.906295 -0.589381
0.115826 0.907334 -0.589944
0.118847 0.907777 -0.590178
0.121931 0.906893 -0.589682
0.124993 0.906269 -0.589330
0.128022 0.906343 -0.589364
0.131091 0.905014 -0.588626
0.134051 0.907442 -0.589959
0.137059 0.908668 -0.590631
0.140097 0.908551 -0.590563
0.143134 0.908252 -0.590397
0.146164 0.908689 -0.590636
0.149197 0.908595 -0.590585
0.152224 0.907902 -0.590204
0.155246 0.907575 -0.590026
0.158290 0.908696 -0.590648
0.161276 0.906742 -0.589576
0.164323 0.907760 -0.590144
0.167313 0.906736 -0.589587
0.170449 0.909801 -0.591285
0.173457 0.909190 -0.590959
0.176454 0.908466 -0.590572
0.179631 0.911222 -0.592105
0.182703 0.911689 -0.592377
0.185582 0.909077 -0.590954
0.188550 0.908121 -0.590445
0.191582 0.908130 -0.590470
0.194619 0.908186 -0.590522
0.197676 0.908436 -0.590683
0.200825 0.909651 -0.591379
0.203989 0.910865 -0.592075
0.207024 0.910654 -0.591988
0.210126 0.911064 -0.592246
0.213118 0.910424 -0.591926
0.215992 0.908810 -0.591070
0.218869 0.907324 -0.590288
0.221916 0.907261 -0.590292
0.224659 0.904887 -0.589023
0.227691 0.904748 -0.588990
0.230765 0.904871 -0.589104
0.233650 0.903688 -0.588499
0.236706 0.903659 -0.588534
0.239597 0.902558 -0.587978
0.242261 0.900124 -0.586689
0.245459 0.900923 -0.587189
0.248235 0.899245 -0.586322
0.251205 0.898690 -0.586079
0.254299 0.898791 -0.586200
0.257046 0.897040 -0.585301
0.259700 0.894875 -0.584175
0.262396 0.892987 -0.583204
0.265554 0.893367 -0.583490
0.268586 0.893095 -0.583420
0.271516 0.892325 -0.583075
0.274607 0.892265 -0.583128
0.277731 0.892302 -0.583236
0.280918 0.892558 -0.583470
0.283905 0.891934 -0.583218
0.287178 0.892439 -0.583596
0.290377 0.892587 -0.583779
0.292942 0.890239 -0.582579
0.295335 0.887292 -0.581049
0.299586 0.891284 -0.583375
0.302112 0.888828 -0.582123
0.305190 0.888382 -0.581990
0.308299 0.888018 -0.581905
0.311397 0.887585 -0.581784
0.316326 0.893230 -0.585048
0.318881 0.890854 -0.583852
0.322199 0.890976 -0.584048
0.325421 0.890748 -0.584051
0.327549 0.887113 -0.582157
0.330474 0.885991 -0.581665
0.334261 0.887449 -0.582612
0.337892 0.888366 -0.583260
0.340665 0.886759 -0.582499
0.344665 0.888653 -0.583694
0.347531 0.887307 -0.583079
0.350203 0.885463 -0.582184
0.353044 0.884119 -0.581568
0.355985 0.883080 -0.581119
0.360270 0.885574 -0.582646
0.362853 0.883629 -0.581686
0.366356 0.884076 -0.582061
0.369561 0.883787 -0.582021
0.371620 0.880717 -0.580416
0.374775 0.880413 -0.580356
0.379177 0.883123 -0.581981
0.383593 0.885833 -0.583601
0.387088 0.886382 -0.584000
0.389154 0.883705 -0.582579
0.391915 0.882726 -0.582104
0.395866 0.884492 -0.583160
0.398838 0.884130 -0.583011
0.401783 0.883798 -0.582869
0.404812 0.883738 -0.582867
0.408110 0.884336 -0.583225
-0.719711 1.337895 -0.857351
-0.719940 1.346560 -0.862266
-0.717894 1.352809 -0.865747
-0.712879 1.355749 -0.867276
-0.705699 1.356251 -0.867362
-0.700643 1.359420 -0.868969
-0.697692 1.365298 -0.872122
-0.693592 1.369949 -0.874537
-0.688635 1.373689 -0.876400
-0.682776 1.376428 -0.877660
-0.677342 1.379805 -0.879270
-0.669894 1.380710 -0.879431
-0.663676 1.383250 -0.880521
-0.658504 1.387225 -0.882426
-0.653259 1.391191 -0.884311
-0.646336 1.393003 -0.884940
-0.640002 1.395633 -0.886032
-0.634897 1.399975 -0.888101
-0.628829 1.403053 -0.889435
-0.623128 1.406674 -0.891076
-0.617364 1.410241 -0.892681
-0.611137 1.413178 -0.893919
-0.605340 1.416742 -0.895517
-0.598606 1.418961 -0.896341
-0.592775 1.422490 -0.897917
-0.588230 1.427937 -0.900593
-0.583112 1.432572 -0.902804
-0.577454 1.436413 -0.904562
-0.571831 1.440313 -0.906356
-0.566030 1.443941 -0.907998
-0.561665 1.449825 -0.910932
-0.559639 1.459475 -0.916017
-0.559454 1.472220 -0.922868
-0.558167 1.483377 -0.928812
-0.588964 1.547520 -0.964930
-0.586828 1.558223 -0.970599
-0.581271 1.563313 -0.973076
-0.575180 1.567514 -0.975053
-0.569596 1.572590 -0.977535
-0.563236 1.576332 -0.979265
-0.556896 1.580098 -0.981016
-0.550091 1.583026 -0.982297
-0.543773 1.586807 -0.984071
-0.537307 1.590312 -0.985695
-0.531109 1.594302 -0.987601
-0.525257 1.598945 -0.989883
-0.518662 1.602196 -0.991384
-0.510532 1.602476 -0.991213
-0.503359 1.604538 -0.992057
-0.496360 1.606903 -0.993080
-0.484124 1.598764 -0.988178
-0.467952 1.582350 -0.978616
-0.457022 1.576179 -0.974850
-0.450846 1.579645 -0.976531
-0.446442 1.586852 -0.980327
-0.436503 1.582353 -0.977529
-0.435503 1.596989 -0.985524
-0.430039 1.602156 -0.988184
-0.426417 1.611478 -0.993191
-0.417678 1.609449 -0.991811
-0.411767 1.613749 -0.993999
-0.403856 1.613457 -0.993610
-0.387189 1.610606 -0.991576
-0.375932 1.601938 -0.986499
-0.376712 1.641632 -1.008404
-0.055876 0.882892 -0.581813
-0.052101 0.881354 -0.580880
-0.048598 0.880489 -0.580327
-0.046082 0.882356 -0.581308
-0.043098 0.882918 -0.581558
-0.040133 0.883526 -0.581836
-0.037107 0.883948 -0.582012
-0.034362 0.885208 -0.582659
-0.031116 0.884950 -0.582457
-0.028369 0.886216 -0.583109
-0.025423 0.886869 -0.583420
-0.021844 0.885473 -0.582585
-0.018209 0.883816 -0.581607
-0.016196 0.887528 -0.583634
-0.013019 0.887368 -0.583495
-0.010165 0.888306 -0.583972
-0.007231 0.888977 -0.584301
-0.004411 0.890064 -0.584864
-0.001394 0.890441 -0.585030
0.001683 0.890586 -0.585069
0.004759 0.890719 -0.585101
0.007451 0.892353 -0.585973
0.010102 0.894203 -0.586968
0.013023 0.894999 -0.587373
0.016298 0.894308 -0.586949
0.019654 0.893206 -0.586297
0.022784 0.893038 -0.586167
0.025650 0.894036 -0.586690
0.028524 0.895030 -0.587211
0.031386 0.896110 -0.587780
0.034621 0.895386 -0.587344
0.037730 0.895236 -0.587228
0.040798 0.895268 -0.587216
0.043759 0.895852 -0.587512
0.046924 0.895318 -0.587185
0.049873 0.895961 -0.587515
0.052839 0.896522 -0.587801
0.056083 0.895402 -0.587149
0.059139 0.895362 -0.587100
0.061957 0.896843 -0.587901
0.064978 0.897041 -0.587987
0.067877 0.898072 -0.588538
0.070663 0.899991 -0.589585
0.073695 0.900169 -0.589662
0.076917 0.898838 -0.588897
0.079749 0.900568 -0.589841
0.082710 0.901322 -0.590242
0.085964 0.899474 -0.589191
0.089044 0.899053 -0.588938
0.091895 0.900849 -0.589920
0.094866 0.901551 -0.590294
0.097989 0.900591 -0.589742
0.101029 0.900471 -0.589660
0.104066 0.900333 -0.589568
0.107064 0.900685 -0.589750
0.110004 0.901893 -0.590409
0.112955 0.903095 -0.591067
0.115953 0.903658 -0.591369
0.118924 0.904793 -0.591990
0.122007 0.903751 -0.591400
0.125069 0.902903 -0.590918
0.128102 0.902524 -0.590699
0.131122 0.902402 -0.590624
0.134144 0.902070 -0.590433
0.137128 0.903385 -0.591160
0.140145 0.903304 -0.591111
0.143142 0.905018 -0.592064
0.146164 0.905006 -0.592055
0.149185 0.905259 -0.592196
0.152196 0.903900 -0.591439
0.155217 0.904586 -0.591823
0.158206 0.903015 -0.590950
0.161233 0.903954 -0.591478
0.164255 0.904335 -0.591696
0.167238 0.903419 -0.591193
0.170260 0.903773 -0.591399
0.173324 0.905023 -0.592105
0.176363 0.905466 -0.592364
0.179310 0.904107 -0.591620
0.182501 0.907100 -0.593303
0.185483 0.906340 -0.592896
0.188427 0.905138 -0.592244
0.191372 0.904109 -0.591690
0.194292 0.902868 -0.591020
0.197334 0.903198 -0.591227
0.200611 0.906031 -0.592832
0.203698 0.906560 -0.593154
0.206563 0.904828 -0.592218
0.209525 0.904144 -0.591868
0.212574 0.904268 -0.591971
0.215619 0.904318 -0.592034
0.218666 0.904352 -0.592091
0.221485 0.902577 -0.591141
0.224462 0.902085 -0.590908
0.227398 0.901301 -0.590515
0.229992 0.898174 -0.588817
0.232789 0.896596 -0.587985
0.235710 0.895885 -0.587640
0.238703 0.895630 -0.587551
0.241628 0.894947 -0.587227
0.244732 0.895314 -0.587491
0.247779 0.895293 -0.587541
0.250505 0.893475 -0.586590
0.253536 0.893342 -0.586583
0.256568 0.893181 -0.586564
0.259202 0.890987 -0.585410
0.261956 0.889451 -0.584626
0.264247 0.885741 -0.582629
0.267816 0.888124 -0.584044
0.271034 0.888744 -0.584475
0.274088 0.888571 -0.584466
0.277054 0.887976 -0.584224
0.279953 0.887085 -0.583818
0.282917 0.886452 -0.583560
0.285702 0.885085 -0.582893
0.289252 0.886739 -0.583924
0.292021 0.885271 -0.583207
0.294436 0.882489 -0.581754
0.297492 0.882137 -0.581668
0.300900 0.883024 -0.582280
0.304450 0.884334 -0.583134
0.307136 0.882554 -0.582254
0.310259 0.882283 -0.582224
0.314398 0.885362 -0.584082
0.317702 0.885555 -0.584320
0.321371 0.886873 -0.585192
0.323616 0.883626 -0.583497
0.326387 0.882086 -0.582764
0.329599 0.881901 -0.582795
0.333535 0.883846 -0.584030
0.336830 0.883821 -0.584155
0.339919 0.883179 -0.583931
0.342124 0.880044 -0.582300
0.345919 0.881405 -0.583208
0.348945 0.880609 -0.582897
0.351681 0.879052 -0.582153
0.354759 0.878443 -0.581943
0.358521 0.879632 -0.582749
0.361773 0.879483 -0.582795
0.365001 0.879292 -0.582813
0.367865 0.878218 -0.582327
0.369863 0.875084 -0.580667
0.373750 0.876622 -0.581650
0.377060 0.876782 -0.581845
0.379845 0.875749 -0.581357
0.382784 0.875152 -0.581107
0.387602 0.878909 -0.583322
0.390977 0.879382 -0.583663
0.394096 0.879342 -0.583702
0.397465 0.879924 -0.584085
0.398611 0.875751 -0.581755
0.402474 0.877580 -0.582824
0.404606 0.875791 -0.581825
-0.725349 1.341929 -0.867078
-0.719464 1.343480 -0.867871
-0.717420 1.349679 -0.871367
-0.713794 1.354220 -0.873857
-0.707040 1.355208 -0.874229
-0.700906 1.357055 -0.875078
-0.696815 1.361507 -0.877430
-0.691721 1.364887 -0.879127
-0.687641 1.369658 -0.881614
-0.682674 1.373470 -0.883516
-0.675285 1.374345 -0.883673
-0.668723 1.376333 -0.884464
-0.663700 1.380373 -0.886440
-0.658627 1.384450 -0.888419
-0.652923 1.387790 -0.889953
-0.645465 1.388869 -0.890153
-0.638536 1.390671 -0.890765
-0.633437 1.394979 -0.892830
-0.627521 1.398231 -0.894271
-0.619845 1.399077 -0.894305
-0.614954 1.403806 -0.896595
-0.609274 1.407473 -0.898263
-0.603081 1.410430 -0.899515
-0.597331 1.414034 -0.901142
-0.592197 1.418558 -0.903301
-0.587262 1.423407 -0.905650
-0.581654 1.427283 -0.907434
-0.575384 1.430168 -0.908646
-0.568721 1.432435 -0.909505
-0.563489 1.436890 -0.911632
-0.559448 1.443228 -0.914851
-0.558561 1.454626 -0.920995
-0.557864 1.466505 -0.927414
-0.559134 1.481761 -0.935780
-0.585973 1.539259 -0.968488
-0.587710 1.556321 -0.977873
-0.582187 1.561484 -0.980406
-0.576566 1.566505 -0.982863
-0.570795 1.571285 -0.985188
-0.564788 1.575669 -0.987292
-0.558108 1.578874 -0.988725
-0.551382 1.581973 -0.990105
-0.544682 1.585096 -0.991507
-0.538219 1.588632 -0.993153
-0.532802 1.594091 -0.995909
-0.526953 1.598779 -0.998229
-0.519338 1.600139 -0.998650
-0.512263 1.602475 -0.999639
-0.504692 1.603813 -1.000065
-0.497849 1.606525 -1.001284
-0.480933 1.589121 -0.991017
-0.465330 1.573830 -0.981975
-0.456794 1.572518 -0.980928
-0.452984 1.580887 -0.985414
-0.445850 1.582410 -0.985999
-0.439482 1.585523 -0.987499
-0.437018 1.597061 -0.993806
-0.432744 1.604873 -0.997993
-0.427583 1.610853 -1.001141
-0.417975 1.606921 -0.998650
-0.411368 1.609643 -0.999955
-0.402244 1.606545 -0.997954
-0.392359 1.601501 -0.994855
-0.386637 1.606137 -0.997267
-0.375508 1.597790 -0.992304
-0.372326 1.608582 -0.998227
-0.377776 1.641073 -1.016480
-0.121357 1.035018 -0.671830
-0.115629 1.030820 -0.669346
-0.051188 0.877545 -0.582205
-0.047458 0.876020 -0.581268
-0.044543 0.876711 -0.581590
-0.041810 0.877919 -0.582207
-0.039084 0.879162 -0.582845
-0.036248 0.880094 -0.583309
-0.033341 0.880823 -0.583659
-0.030193 0.880815 -0.583593
-0.026798 0.880008 -0.583076
-0.024432 0.882415 -0.584382
-0.020784 0.880745 -0.583380
-0.017952 0.881674 -0.583850
-0.014834 0.881653 -0.583785
-0.012298 0.883598 -0.584834
-0.009089 0.883253 -0.584588
-0.006355 0.884558 -0.585276
-0.003100 0.884000 -0.584912
-0.000301 0.885088 -0.585481
0.002595 0.885831 -0.585855
0.005229 0.887600 -0.586810
0.007993 0.888906 -0.587505
0.010633 0.890753 -0.588506
0.013495 0.891739 -0.589021
0.016783 0.890950 -0.588535
0.020025 0.890300 -0.588127
0.023163 0.890050 -0.587948
0.025941 0.891412 -0.588680
0.028640 0.893185 -0.589644
0.031683 0.893378 -0.589717
0.034729 0.893549 -0.589779
0.037709 0.894034 -0.590019
0.040793 0.893989 -0.589960
0.044557 0.890270 -0.587828
0.047376 0.891518 -0.588502
0.050073 0.893511 -0.589596
0.053173 0.893245 -0.589416
0.056412 0.892091 -0.588736
0.059472 0.891958 -0.588632
0.062374 0.892817 -0.589089
0.065329 0.893352 -0.589364
0.068196 0.894520 -0.589997
0.071110 0.895409 -0.590473
0.074054 0.896114 -0.590846
0.076962 0.897145 -0.591404
0.080214 0.895401 -0.590398
0.083166 0.896042 -0.590737
0.086182 0.896154 -0.590778
0.089216 0.896063 -0.590706
0.092262 0.895812 -0.590545
0.095267 0.895945 -0.590601
0.098256 0.896227 -0.590742
0.101190 0.897173 -0.591258
0.104169 0.897631 -0.591499
0.107202 0.897390 -0.591348
0.110189 0.897741 -0.591530
0.113179 0.898085 -0.591710
0.116225 0.897439 -0.591333
0.119093 0.900072 -0.592805
0.122139 0.899429 -0.592431
0.125177 0.898771 -0.592050
0.128166 0.899210 -0.592288
0.131179 0.898946 -0.592131
0.134180 0.899013 -0.592162
0.137199 0.898084 -0.591633
0.140194 0.898043 -0.591604
0.143156 0.901327 -0.593450
0.146161 0.902347 -0.594022
0.149171 0.899839 -0.592608
0.152177 0.900991 -0.593257
0.155169 0.899933 -0.592662
0.158174 0.900351 -0.592900
0.161147 0.899154 -0.592229
0.164173 0.900358 -0.592913
0.167159 0.899956 -0.592693
0.170146 0.899691 -0.592552
0.173176 0.900461 -0.592995
0.176166 0.900247 -0.592887
0.179220 0.901256 -0.593468
0.182244 0.901558 -0.593652
0.185277 0.901934 -0.593881
0.188286 0.901892 -0.593875
0.191191 0.900445 -0.593080
0.194113 0.899388 -0.592506
0.197094 0.899125 -0.592381
0.200090 0.899035 -0.592356
0.203335 0.901507 -0.593777
0.206383 0.901760 -0.593949
0.209028 0.898202 -0.591975
0.212022 0.898046 -0.591921
0.215024 0.897945 -0.591901
0.217901 0.896809 -0.591298
0.221070 0.898006 -0.592014
0.224102 0.898056 -0.592086
0.227056 0.897501 -0.591818
0.229363 0.892482 -0.589034
0.232539 0.893579 -0.589704
0.235411 0.892602 -0.589205
0.237894 0.889243 -0.587364
0.240921 0.889331 -0.587471
0.244141 0.890501 -0.588193
0.247096 0.890061 -0.588008
0.249883 0.888688 -0.587298
0.252837 0.888240 -0.587114
0.255724 0.887431 -0.586729
0.258731 0.887226 -0.586688
0.261473 0.885696 -0.585900
0.264149 0.883885 -0.584957
0.266981 0.882849 -0.584454
0.270632 0.885518 -0.586051
0.273115 0.882867 -0.584640
0.276030 0.882155 -0.584330
0.278945 0.881431 -0.584016
0.281908 0.880889 -0.583808
0.285083 0.881177 -0.584073
0.287803 0.879626 -0.583299
0.290740 0.878926 -0.583010
0.293680 0.878221 -0.582722
0.296426 0.876788 -0.582022
0.299693 0.877244 -0.582398
0.303137 0.878262 -0.583096
0.306821 0.880023 -0.584221
0.309353 0.877773 -0.583068
0.312448 0.877438 -0.583006
0.316022 0.878632 -0.583816
0.318741 0.877013 -0.583028
0.322108 0.877448 -0.583411
0.325374 0.877520 -0.583589
0.328381 0.876775 -0.583304
0.331725 0.877025 -0.583586
0.334756 0.876329 -0.583330
0.337759 0.875550 -0.583027
0.341525 0.876926 -0.583954
0.344154 0.875092 -0.583047
0.347240 0.874548 -0.582877
0.350242 0.873788 -0.582581
0.354216 0.875613 -0.583762
0.357248 0.874937 -0.583509
0.360469 0.874774 -0.583548
0.363148 0.873265 -0.582811
0.365063 0.869927 -0.581020
0.368644 0.870779 -0.581625
0.371226 0.869233 -0.580850
0.376083 0.873164 -0.583208
0.378517 0.871362 -0.582272
0.381005 0.869786 -0.581456
0.383028 0.867250 -0.580079
0.385950 0.866860 -0.579924
0.389683 0.868347 -0.580838
0.392760 0.868432 -0.580936
0.397718 0.872664 -0.583405
0.400364 0.871934 -0.583011
0.404282 0.873998 -0.584211
-0.729059 1.343719 -0.875562
-0.720875 1.342599 -0.874775
-0.716789 1.346374 -0.876872
-0.713461 1.351216 -0.879574
-0.707951 1.353648 -0.880810
-0.700704 1.354131 -0.880857
-0.695365 1.357026 -0.882312
-0.689203 1.359047 -0.883220
-0.681725 1.359548 -0.883199
-0.676265 1.362639 -0.884694
-0.672015 1.367366 -0.887138
-0.668551 1.373228 -0.890232
-0.662901 1.376430 -0.891729
-0.658082 1.380797 -0.893898
-0.651618 1.383109 -0.894834
-0.644741 1.384924 -0.895463
-0.637355 1.386089 -0.895697
-0.632487 1.390670 -0.897940
-0.626123 1.393280 -0.899010
-0.616720 1.391711 -0.897609
-0.610381 1.394352 -0.898687
-0.607115 1.401347 -0.902325
-0.601517 1.405113 -0.904057
-0.595414 1.408174 -0.905372
-0.589775 1.411918 -0.907088
-0.583211 1.414311 -0.908011
-0.576469 1.416421 -0.908770
-0.570844 1.420191 -0.910505
-0.565265 1.424037 -0.912287
-0.559916 1.428245 -0.914284
-0.556659 1.435735 -0.918203
-0.555540 1.446694 -0.924152
-0.553617 1.456533 -0.929444
-0.560493 1.480751 -0.943129
-0.561995 1.496645 -0.951949
-0.586863 1.551523 -0.983486
-0.585004 1.562809 -0.989601
-0.578897 1.567061 -0.991622
-0.573446 1.572440 -0.994306
-0.565937 1.574272 -0.994935
-0.559358 1.577682 -0.996489
-0.552835 1.581175 -0.998098
-0.546126 1.584319 -0.999513
-0.539365 1.587346 -1.000868
-0.534152 1.593206 -1.003874
-0.527667 1.596739 -1.005537
-0.521148 1.600200 -1.007166
-0.514598 1.603592 -1.008762
-0.507042 1.605025 -1.009234
-0.500134 1.607674 -1.010416
-0.483448 1.590844 -1.000347
-0.470013 1.580041 -0.993779
-0.460823 1.577533 -0.992014
-0.454167 1.580114 -0.993198
-0.454519 1.597369 -1.002855
-0.443628 1.591121 -0.998956
-0.441109 1.602642 -1.005313
-0.434640 1.605776 -1.006839
-0.431935 1.617242 -1.013171
-0.423192 1.615405 -1.011845
-0.416873 1.618948 -1.013625
-0.405143 1.610038 -1.008243
-0.391471 1.596256 -1.000069
-0.381678 1.591203 -0.996927
-0.376486 1.597005 -1.000035
-0.373407 1.608068 -1.006170
-0.368729 1.615424 -1.010178
-0.110166 1.014732 -0.664585
-0.051400 0.876803 -0.585260
-0.046659 0.872499 -0.582714
-0.043343 0.872029 -0.582371
-0.040563 0.873048 -0.582883
-0.038033 0.874800 -0.583817
-0.035522 0.876644 -0.584806
-0.031778 0.874822 -0.583696
-0.028368 0.873929 -0.583120
-0.025948 0.876064 -0.584279
-0.022971 0.876486 -0.584459
-0.020161 0.877437 -0.584944
-0.017458 0.878750 -0.585637
-0.014592 0.879545 -0.586035
-0.011481 0.879512 -0.585961
-0.008536 0.880032 -0.586204
-0.005392 0.879839 -0.586041
-0.002620 0.880968 -0.586635
0.000255 0.881737 -0.587025
0.002963 0.883147 -0.587782
0.005835 0.883960 -0.588199
0.008918 0.883956 -0.588151
0.011714 0.885089 -0.588752
0.014362 0.886858 -0.589719
0.017503 0.886608 -0.589533
0.020491 0.886980 -0.589702
0.023569 0.886953 -0.589646
0.026713 0.886599 -0.589404
0.029606 0.887378 -0.589810
0.032360 0.888834 -0.590602
0.035275 0.889560 -0.590979
0.038343 0.889529 -0.590925
0.042183 0.885460 -0.588567
0.045105 0.886040 -0.588864
0.047968 0.886953 -0.589352
0.050815 0.887987 -0.589908
0.053845 0.887996 -0.589882
0.056783 0.888536 -0.590159
0.059765 0.888815 -0.590287
0.062735 0.889161 -0.590455
0.065660 0.889810 -0.590797
0.068549 0.890733 -0.591295
0.071525 0.891075 -0.591463
0.074614 0.890566 -0.591146
0.077683 0.890137 -0.590876
0.080383 0.892672 -0.592296
0.083369 0.892963 -0.592438
0.086380 0.893021 -0.592448
0.089472 0.892294 -0.592011
0.092432 0.892769 -0.592260
0.095445 0.892709 -0.592206
0.098651 0.890443 -0.590895
0.101415 0.893117 -0.592400
0.104394 0.893396 -0.592540
0.107408 0.893195 -0.592409
0.110396 0.893296 -0.592450
0.113351 0.893922 -0.592791
0.116392 0.893108 -0.592313
0.119393 0.892860 -0.592158
0.122295 0.894632 -0.593156
0.125235 0.895876 -0.593852
0.128224 0.896084 -0.593960
0.131256 0.894904 -0.593279
0.134240 0.895007 -0.593330
0.137224 0.895162 -0.593411
0.140232 0.893670 -0.592556
0.143191 0.895457 -0.593569
0.146177 0.895172 -0.593403
0.149161 0.896158 -0.593962
0.152147 0.896198 -0.593984
0.155124 0.895460 -0.593564
0.158089 0.894489 -0.593013
0.161086 0.895441 -0.593559
0.164022 0.893834 -0.592648
0.166993 0.893821 -0.592647
0.170055 0.896163 -0.593988
0.173005 0.895359 -0.593540
0.175979 0.895236 -0.593481
0.178978 0.895570 -0.593684
0.181996 0.896147 -0.594027
0.185073 0.897535 -0.594834
0.188077 0.897643 -0.594913
0.191035 0.897104 -0.594626
0.193917 0.895685 -0.593840
0.196828 0.894754 -0.593334
0.199566 0.892002 -0.591792
0.202570 0.892288 -0.591982
0.205667 0.893428 -0.592662
0.208664 0.893487 -0.592728
0.211683 0.893716 -0.592892
0.214700 0.893874 -0.593019
0.217702 0.893857 -0.593049
0.220726 0.893985 -0.593164
0.223729 0.893915 -0.593168
0.226518 0.892285 -0.592285
0.229469 0.891858 -0.592090
0.232126 0.889465 -0.590777
0.235200 0.889880 -0.591068
0.237804 0.887313 -0.589660
0.240214 0.883715 -0.587665
0.243433 0.885005 -0.588464
0.246387 0.884682 -0.588344
0.249342 0.884345 -0.588219
0.252135 0.883124 -0.587593
0.254969 0.882143 -0.587106
0.258354 0.883934 -0.588206
0.261334 0.883608 -0.588100
0.263786 0.880754 -0.586551
0.266396 0.878733 -0.585481
0.269561 0.879269 -0.585876
0.272615 0.879246 -0.585955
0.275497 0.878443 -0.585591
0.278070 0.876337 -0.584484
0.280651 0.874317 -0.583428
0.284147 0.875999 -0.584496
0.287321 0.876302 -0.584777
0.289811 0.873935 -0.583531
0.292313 0.871667 -0.582344
0.295283 0.871162 -0.582171
0.298784 0.872539 -0.583081
0.301754 0.871952 -0.582867
0.305476 0.873933 -0.584131
0.307954 0.871600 -0.582919
0.311063 0.871400 -0.582935
0.313837 0.870082 -0.582310
0.317239 0.870777 -0.582845
0.319917 0.869146 -0.582044
0.322588 0.867519 -0.581246
0.327627 0.873051 -0.584575
0.330873 0.873055 -0.584720
0.333943 0.872520 -0.584555
0.336699 0.871081 -0.583869
0.339194 0.868942 -0.582778
0.342657 0.869531 -0.583261
0.345319 0.867913 -0.582468
0.348647 0.868119 -0.582727
0.351661 0.867492 -0.582502
0.354921 0.867525 -0.582657
0.357639 0.866186 -0.582013
0.360642 0.865616 -0.581810
0.363540 0.864822 -0.581472
0.366753 0.864845 -0.581602
0.370096 0.865212 -0.581926
0.373047 0.864682 -0.581722
0.377918 0.868687 -0.584141
0.378331 0.862380 -0.580568
0.381590 0.862757 -0.580864
0.384569 0.862560 -0.580817
0.387687 0.862744 -0.580981
0.391004 0.863433 -0.581427
0.394538 0.864649 -0.582168
0.397886 0.865524 -0.582698
0.398772 0.861275 -0.580239
-0.727705 1.339681 -0.880589
-0.721635 1.340966 -0.881246
-0.717815 1.345014 -0.883537
-0.712471 1.347446 -0.884821
-0.706647 1.349455 -0.885820
-0.698841 1.349222 -0.885436
-0.692552 1.350908 -0.886181
-0.685120 1.351310 -0.886126
-0.678139 1.352349 -0.886428
-0.672745 1.355444 -0.887942
-0.669561 1.361430 -0.891170
-0.665302 1.366215 -0.893652
-0.660665 1.370644 -0.895899
-0.649982 1.367360 -0.893501
-0.648860 1.376529 -0.898555
-0.639516 1.375027 -0.897199
-0.635524 1.380636 -0.900089
-0.631055 1.385707 -0.902643
-0.623932 1.387245 -0.903077
-0.614501 1.385605 -0.901606
-0.608396 1.388526 -0.902855
-0.604563 1.394670 -0.906019
-0.600223 1.400177 -0.908798
-0.593286 1.402007 -0.909385
-0.585664 1.402821 -0.909368
-0.580071 1.406574 -0.911100
-0.573482 1.408858 -0.911960
-0.564616 1.407689 -0.910774
-0.562893 1.417299 -0.915985
-0.553246 1.414840 -0.914044
-0.549011 1.420676 -0.917022
-0.549995 1.434790 -0.924899
-0.547157 1.443050 -0.929310
-0.556017 1.470291 -0.944933
-0.557841 1.486592 -0.954087
-0.585897 1.546516 -0.988962
-0.585084 1.559512 -0.996142
-0.579958 1.565425 -0.999151
-0.574031 1.570009 -1.001383
-0.567822 1.574113 -1.003340
-0.560924 1.577009 -1.004593
-0.554787 1.581223 -1.006630
-0.547767 1.583857 -1.007746
-0.540720 1.586406 -1.008821
-0.534364 1.590193 -1.010630
-0.528653 1.595178 -1.013150
-0.522661 1.599660 -1.015381
-0.515956 1.602798 -1.016833
-0.509234 1.605887 -1.018265
-0.501891 1.607744 -1.018983
-0.491923 1.604349 -1.016639
-0.477056 1.590925 -1.008445
-0.468369 1.589647 -1.007363
-0.464193 1.597553 -1.011653
-0.458339 1.602075 -1.013972
-0.450230 1.601857 -1.013533
-0.443001 1.603437 -1.014151
-0.437696 1.609164 -1.017193
-0.429678 1.608983 -1.016798
-0.411775 1.622065 -1.023591
-0.397176 1.606383 -1.014205
-0.383550 1.592477 -1.005865
-0.383908 1.611662 -1.016779
-0.103372 0.995208 -0.657646
-0.101517 1.000699 -0.660728
-0.046452 0.870618 -0.585085
-0.041268 0.864909 -0.581697
-0.039532 0.868805 -0.583880
-0.037281 0.871315 -0.585261
-0.034279 0.871671 -0.585395
-0.030187 0.868752 -0.583634
-0.027210 0.869103 -0.583769
-0.024978 0.871753 -0.585237
-0.022315 0.873114 -0.585960
-0.019431 0.873788 -0.586287
-0.016761 0.875168 -0.587024
-0.014236 0.877059 -0.588057
-0.010338 0.874323 -0.586416
-0.007455 0.874982 -0.586740
-0.004723 0.876179 -0.587377
-0.001727 0.876447 -0.587477
0.000528 0.879434 -0.589151
0.003789 0.878736 -0.588695
0.006989 0.878224 -0.588349
0.009610 0.879938 -0.589290
0.012223 0.881741 -0.590283
0.014603 0.884567 -0.591868
0.017647 0.884701 -0.591900
0.021237 0.882462 -0.590562
0.024307 0.882393 -0.590478
0.027265 0.882804 -0.590672
0.030432 0.882238 -0.590304
0.033820 0.880566 -0.589298
0.036027 0.884572 -0.591570
0.039078 0.884521 -0.591502
0.042491 0.882568 -0.590338
0.045517 0.882543 -0.590286
0.048329 0.883672 -0.590902
0.051284 0.884029 -0.591073
0.054354 0.883716 -0.590858
0.057135 0.885103 -0.591625
0.060065 0.885634 -0.591899
0.063235 0.884620 -0.591283
0.066023 0.886064 -0.592084
0.068892 0.887030 -0.592611
0.071807 0.887717 -0.592978
0.074893 0.887142 -0.592618
0.077857 0.887450 -0.592768
0.081109 0.885398 -0.591559
0.083935 0.886777 -0.592328
0.086772 0.888159 -0.593100
0.089817 0.887685 -0.592803
0.092816 0.887592 -0.592726
0.095875 0.886834 -0.592267
0.098710 0.888437 -0.593169
0.101703 0.888344 -0.593095
0.104552 0.890024 -0.594043
0.107575 0.889544 -0.593748
0.110559 0.889529 -0.593722
0.113506 0.890047 -0.594004
0.116477 0.890216 -0.594085
0.119484 0.889691 -0.593768
0.122446 0.889950 -0.593904
0.125298 0.892882 -0.595579
0.128385 0.890140 -0.593989
0.131337 0.890724 -0.594316
0.134280 0.891874 -0.594968
0.137264 0.891536 -0.594765
0.140263 0.889776 -0.593746
0.143239 0.888433 -0.592967
0.146191 0.888862 -0.593210
0.149149 0.890941 -0.594404
0.152119 0.891494 -0.594720
0.155070 0.890059 -0.593894
0.158052 0.891384 -0.594658
0.160997 0.890415 -0.594103
0.163895 0.888147 -0.592803
0.166859 0.888626 -0.593084
0.169870 0.890173 -0.593982
0.172861 0.890864 -0.594389
0.175792 0.890196 -0.594015
0.178805 0.891153 -0.594579
0.181794 0.891515 -0.594801
0.184680 0.890218 -0.594071
0.187813 0.892606 -0.595464
0.190857 0.893459 -0.595975
0.193666 0.891287 -0.594747
0.196608 0.890900 -0.594548
0.199455 0.889490 -0.593762
0.202408 0.889303 -0.593683
0.205377 0.889262 -0.593690
0.208177 0.887637 -0.592786
0.211104 0.887247 -0.592596
0.214359 0.889639 -0.594012
0.217455 0.890512 -0.594555
0.220253 0.888961 -0.593704
0.223111 0.887958 -0.593171
0.226210 0.888712 -0.593653
0.229211 0.888701 -0.593696
0.232215 0.888676 -0.593735
0.234685 0.885196 -0.591784
0.237282 0.882701 -0.590403
0.239943 0.880712 -0.589316
0.242669 0.879188 -0.588500
0.245351 0.877467 -0.587573
0.248590 0.878843 -0.588437
0.251466 0.878178 -0.588125
0.253861 0.875041 -0.586389
0.257298 0.877239 -0.587737
0.260428 0.877783 -0.588133
0.263049 0.875846 -0.587098
0.265797 0.874546 -0.586435
0.268982 0.875237 -0.586925
0.271572 0.873241 -0.585865
0.275025 0.874986 -0.586973
0.277541 0.872691 -0.585745
0.279883 0.869745 -0.584143
0.282732 0.868914 -0.583769
0.285933 0.869443 -0.584185
0.288692 0.868220 -0.583590
0.291517 0.867249 -0.583144
0.294669 0.867474 -0.583393
0.297705 0.867229 -0.583373
0.301165 0.868436 -0.584200
0.303652 0.866210 -0.583036
0.306526 0.865337 -0.582660
0.310049 0.866596 -0.583525
0.313082 0.866184 -0.583422
0.315965 0.865274 -0.583031
0.319065 0.865038 -0.583034
0.322004 0.864286 -0.582738
0.324881 0.863344 -0.582332
0.327825 0.862605 -0.582046
0.331346 0.863538 -0.582735
0.335075 0.865012 -0.583740
0.337702 0.863331 -0.582904
0.340932 0.863352 -0.583061
0.344045 0.863047 -0.583026
0.347417 0.863433 -0.583394
0.350677 0.863517 -0.583583
0.353270 0.861879 -0.582761
0.356520 0.861972 -0.582948
0.359467 0.861321 -0.582694
0.362433 0.860755 -0.582486
0.365555 0.860614 -0.582520
0.368430 0.859921 -0.582223
0.370544 0.857490 -0.580900
0.373318 0.856707 -0.580535
0.376601 0.857168 -0.580889
0.379719 0.857300 -0.581042
0.382367 0.856440 -0.580602
0.386177 0.858235 -0.581710
0.389352 0.858678 -0.582013
0.391821 0.857665 -0.581448
0.394917 0.858095 -0.581719
0.400587 0.864017 -0.585203
-0.721907 1.330571 -0.882492
-0.721453 1.338247 -0.887065
-0.716525 1.340957 -0.888571
-0.709972 1.341915 -0.888975
-0.702919 1.342403 -0.889059
-0.696017 1.343177 -0.889289
-0.688425 1.343224 -0.889045
-0.681698 1.344408 -0.889465
-0.676586 1.347672 -0.891126
-0.671046 1.350531 -0.892514
-0.666613 1.354891 -0.894789
-0.661853 1.358968 -0.896869
-0.657014 1.363061 -0.898936
-0.652389 1.367541 -0.901218
-0.645114 1.368672 -0.901450
-0.636841 1.368519 -0.900890
-0.631681 1.372507 -0.902826
-0.627233 1.377527 -0.905375
-0.621626 1.381058 -0.907011
-0.613605 1.381321 -0.906663
-0.607304 1.383943 -0.907736
-0.602877 1.389214 -0.910402
-0.597759 1.393572 -0.912512
-0.590626 1.395077 -0.912900
-0.583128 1.396028 -0.912954
-0.576100 1.397624 -0.913398
-0.569721 1.400152 -0.914405
-0.562320 1.401130 -0.914483
-0.553763 1.400297 -0.913480
-0.549357 1.405746 -0.916249
-0.548443 1.416666 -0.922296
-0.545735 1.424935 -0.926754
-0.547498 1.440421 -0.935529
-0.548798 1.455436 -0.944017
-0.555589 1.479653 -0.957996
-0.585734 1.557141 -1.003245
-0.579629 1.561413 -1.005295
-0.574532 1.567405 -1.008377
-0.569168 1.572983 -1.011218
-0.563099 1.577361 -1.013353
-0.556378 1.580593 -1.014812
-0.549723 1.583921 -1.016338
-0.542214 1.585683 -1.016942
-0.535471 1.588797 -1.018358
-0.529704 1.593703 -1.020845
-0.523031 1.596932 -1.022346
-0.517256 1.601856 -1.024858
-0.511007 1.605896 -1.026854
-0.503767 1.608008 -1.027717
-0.494976 1.607010 -1.026750
-0.480085 1.593668 -1.018496
-0.471230 1.592144 -1.017241
-0.463968 1.593769 -1.017857
-0.456876 1.595706 -1.018665
-0.447981 1.593799 -1.017212
-0.450252 1.615668 -1.029792
-0.436792 1.603904 -1.022542
-0.424861 1.595097 -1.017048
-0.414637 1.589775 -1.013620
-0.414378 1.606767 -1.023341
-0.414441 1.624898 -1.033733
-0.403583 1.618061 -1.029433
-0.396591 1.620073 -1.030349
-0.388397 1.619191 -1.029569
-0.377384 1.630379 -1.035643
-0.370616 1.632959 -1.036916
-0.367977 1.646040 -1.044362
-0.096002 0.984371 -0.655467
-0.046504 0.869442 -0.587863
-0.039898 0.859782 -0.582117
-0.037672 0.862216 -0.583465
-0.035703 0.865447 -0.585281
-0.032400 0.864847 -0.584854
-0.029355 0.864968 -0.584851
-0.026554 0.865814 -0.585275
-0.023858 0.866988 -0.585892
-0.021400 0.868931 -0.586961
-0.018312 0.868898 -0.586875
-0.015988 0.871341 -0.588239
-0.012512 0.870013 -0.587399
-0.009567 0.870412 -0.587571
-0.006802 0.871430 -0.588105
-0.003838 0.871756 -0.588237
-0.001101 0.872896 -0.588846
0.002004 0.872705 -0.588679
0.004865 0.873400 -0.589030
0.007548 0.874785 -0.589786
0.010454 0.875334 -0.590054
0.013513 0.875268 -0.589964
0.015629 0.879052 -0.592124
0.019126 0.877182 -0.590983
0.021864 0.878468 -0.591687
0.024931 0.878349 -0.591571
0.028009 0.878144 -0.591406
0.031034 0.878155 -0.591368
0.034229 0.877332 -0.590845
0.037073 0.878161 -0.591286
0.039597 0.880616 -0.592677
0.042737 0.880007 -0.592282
0.045878 0.879331 -0.591849
0.048869 0.879415 -0.591859
0.052181 0.877667 -0.590803
0.055265 0.877110 -0.590443
0.057670 0.880582 -0.592431
0.061019 0.878385 -0.591116
0.063753 0.879972 -0.592008
0.066698 0.880242 -0.592133
0.069518 0.881378 -0.592763
0.072281 0.882984 -0.593667
0.075432 0.881778 -0.592934
0.078417 0.881748 -0.592888
0.081353 0.882088 -0.593058
0.084210 0.883099 -0.593619
0.087169 0.883265 -0.593689
0.090127 0.883432 -0.593761
0.093081 0.883627 -0.593850
0.096075 0.883398 -0.593693
0.099001 0.883849 -0.593933
0.101926 0.884353 -0.594204
0.104773 0.885864 -0.595062
0.107854 0.884396 -0.594188
0.110843 0.883995 -0.593936
0.113861 0.883042 -0.593363
0.116664 0.885585 -0.594826
0.119599 0.886090 -0.595105
0.122552 0.886282 -0.595202
0.125543 0.885543 -0.594758
0.128456 0.886697 -0.595417
0.131394 0.887391 -0.595809
0.134411 0.885213 -0.594532
0.137322 0.887041 -0.595587
0.140358 0.881684 -0.592463
0.143266 0.883698 -0.593628
0.146192 0.886128 -0.595037
0.149140 0.886574 -0.595293
0.152081 0.885185 -0.594483
0.155031 0.885903 -0.594900
0.157966 0.885321 -0.594562
0.160914 0.885617 -0.594737
0.163837 0.884934 -0.594343
0.166755 0.884292 -0.593975
0.169739 0.885541 -0.594709
0.172701 0.885990 -0.594979
0.175626 0.885579 -0.594751
0.178647 0.886982 -0.595579
0.181609 0.887136 -0.595683
0.184547 0.886884 -0.595553
0.187436 0.885951 -0.595028
0.190426 0.886468 -0.595349
0.193279 0.885198 -0.594633
0.196152 0.884302 -0.594136
0.199351 0.887024 -0.595747
0.202185 0.885674 -0.594989
0.205029 0.884532 -0.594356
0.207915 0.883859 -0.593997
0.210882 0.883936 -0.594078
0.213939 0.884743 -0.594586
0.216863 0.884362 -0.594405
0.219966 0.885375 -0.595038
0.222828 0.884476 -0.594561
0.225577 0.882811 -0.593639
0.228401 0.881753 -0.593074
0.231308 0.881280 -0.592852
0.234096 0.880039 -0.592185
0.236777 0.878188 -0.591165
0.239584 0.877174 -0.590637
0.242196 0.875050 -0.589463
0.244698 0.872407 -0.587989
0.247352 0.870705 -0.587067
0.250358 0.870920 -0.587266
0.253172 0.870095 -0.586861
0.256458 0.871626 -0.587835
0.259289 0.870829 -0.587453
0.262182 0.870322 -0.587244
0.264958 0.869257 -0.586712
0.267718 0.868133 -0.586148
0.270797 0.868412 -0.586407
0.274086 0.869531 -0.587162
0.276907 0.868603 -0.586722
0.279546 0.866929 -0.585849
0.282323 0.865841 -0.585322
0.285034 0.864497 -0.584647
0.287900 0.863755 -0.584329
0.290906 0.863524 -0.584313
0.293935 0.863342 -0.584329
0.297257 0.864169 -0.584939
0.300131 0.863358 -0.584592
0.302343 0.860268 -0.582909
0.305551 0.860603 -0.583240
0.308553 0.860209 -0.583144
0.312359 0.862385 -0.584563
0.315005 0.860771 -0.583755
0.318188 0.860852 -0.583945
0.321383 0.860934 -0.584139
0.323983 0.859202 -0.583265
0.327255 0.859479 -0.583575
0.329914 0.857954 -0.582823
0.332711 0.856852 -0.582320
0.336765 0.859281 -0.583901
0.340055 0.859516 -0.584186
0.342734 0.858087 -0.583488
0.344820 0.855125 -0.581880
0.347765 0.854505 -0.581653
0.351762 0.856617 -0.583038
0.355578 0.858215 -0.584117
0.358571 0.857730 -0.583958
0.361298 0.856627 -0.583428
0.364139 0.855864 -0.583092
0.366699 0.854486 -0.582385
0.369259 0.853188 -0.581716
0.372431 0.853396 -0.581932
0.375070 0.852428 -0.581441
0.377859 0.851885 -0.581191
0.380890 0.851959 -0.581297
0.383525 0.851229 -0.580914
0.387318 0.853109 -0.582069
0.390332 0.853349 -0.582238
0.393352 0.853679 -0.582448
0.395574 0.852412 -0.581696
-0.727000 1.333950 -0.892013
-0.717056 1.330684 -0.889883
-0.713234 1.334592 -0.892154
-0.705865 1.334523 -0.891932
-0.700569 1.337008 -0.893255
-0.692895 1.336802 -0.892884
-0.688122 1.340172 -0.894690
-0.681192 1.341070 -0.894940
-0.675873 1.344036 -0.896437
-0.669035 1.345245 -0.896824
-0.663292 1.347903 -0.898079
-0.659761 1.353453 -0.901088
-0.655841 1.358657 -0.903861
-0.650308 1.361919 -0.905418
-0.642873 1.362794 -0.905490
-0.635623 1.363939 -0.905714
-0.629216 1.366228 -0.906626
-0.623713 1.369771 -0.908294
-0.617563 1.372496 -0.909450
-0.612987 1.377411 -0.911936
-0.604604 1.377126 -0.911236
-0.599449 1.381317 -0.913265
-0.594075 1.385245 -0.915129
-0.587638 1.387685 -0.916082
-0.579412 1.387530 -0.915453
-0.572383 1.389063 -0.915855
-0.566496 1.392254 -0.917266
-0.559598 1.393934 -0.917761
-0.553577 1.396904 -0.919043
-0.545330 1.396456 -0.918255
-0.543461 1.405801 -0.923410
-0.541270 1.414776 -0.928338
-0.539894 1.425169 -0.934124
-0.544714 1.445657 -0.946013
-0.553394 1.472805 -0.961915
-0.555012 1.488905 -0.971133
-0.584799 1.552105 -1.008762
-0.581300 1.560743 -1.013454
-0.575646 1.565819 -1.016003
-0.571231 1.573050 -1.019857
-0.564134 1.575682 -1.020949
-0.557696 1.579440 -1.022727
-0.550961 1.582659 -1.024189
-0.544356 1.586094 -1.025789
-0.538350 1.590611 -1.028048
-0.530116 1.591013 -1.027846
-0.524708 1.596629 -1.030779
-0.520726 1.605001 -1.035372
-0.514408 1.608995 -1.037347
-0.507475 1.611799 -1.038619
-0.499008 1.611552 -1.038073
-0.484203 1.598535 -1.029904
-0.473149 1.592682 -1.026033
-0.459885 1.582051 -1.019321
-0.447431 1.572733 -1.013409
