ply
format ascii 1.0
comment ---
element vertex 1687
property float x
property float y
property float z
element face 0
property list uchar uint vertex_indices
end_header
-0.190819 1.812919 -0.440348
-0.184243 1.816802 -0.443263
-0.177347 1.821516 -0.446512
-0.170323 1.826418 -0.449846
-0.163708 1.829862 -0.452612
-0.157209 1.832799 -0.455182
-0.146150 1.849025 -0.463066
-0.139640 1.851492 -0.465478
-0.133369 1.853150 -0.467568
-0.125919 1.858016 -0.470954
-0.118682 1.862086 -0.474030
-0.111125 1.866852 -0.477397
-0.100982 1.878356 -0.483523
-0.093690 1.881928 -0.486433
-0.086182 1.885898 -0.489515
-0.076967 1.894079 -0.494341
-0.070913 1.893963 -0.495760
-0.059096 1.908172 -0.503116
-0.049968 1.915302 -0.507565
-0.042416 1.918351 -0.510331
-0.032297 1.927395 -0.515614
-0.022359 1.935699 -0.520611
-0.014113 1.939774 -0.523848
-0.006870 1.941371 -0.526051
0.001039 1.944369 -0.528851
0.008345 1.945872 -0.531025
0.021452 1.960073 -0.538622
0.029801 1.963471 -0.541635
0.038487 1.967437 -0.544902
0.047067 1.971007 -0.548012
0.056094 1.975354 -0.551468
0.066400 1.982169 -0.556008
0.074512 1.984255 -0.558513
0.081238 1.983418 -0.559750
0.084545 1.975707 -0.557980
0.090264 1.972863 -0.558327
0.105494 1.988531 -0.566823
0.119530 2.001455 -0.574153
0.126532 2.000626 -0.575427
0.135358 2.003168 -0.578201
0.146226 2.009361 -0.582614
0.154229 2.010079 -0.584599
0.161769 2.009864 -0.586172
0.171715 2.013890 -0.589657
0.179206 2.013394 -0.591117
0.185311 2.010406 -0.591450
0.192383 2.009080 -0.592535
0.198652 2.006332 -0.592974
0.203744 2.001575 -0.592491
0.207975 1.995404 -0.591351
0.212022 1.988988 -0.590087
0.219063 1.987535 -0.591099
0.224853 1.984010 -0.591155
0.228996 1.977849 -0.589981
0.233742 1.972697 -0.589265
0.239764 1.969577 -0.589490
0.245079 1.965351 -0.589193
0.248488 1.958216 -0.587523
0.252983 1.952801 -0.586648
0.256243 1.945572 -0.584906
0.260334 1.939651 -0.583769
0.264570 1.933990 -0.582746
0.269292 1.929077 -0.582068
0.273519 1.923478 -0.581054
0.275378 1.914548 -0.578428
0.279505 1.908920 -0.577375
0.284125 1.904017 -0.576662
0.288371 1.898623 -0.575702
0.292856 1.893589 -0.574907
0.296082 1.886881 -0.573286
0.301292 1.882884 -0.572980
0.305422 1.877464 -0.571968
0.309435 1.871920 -0.570886
0.313527 1.866515 -0.569862
0.318275 1.861984 -0.569262
0.322384 1.856653 -0.568256
0.326941 1.851916 -0.567537
0.330068 1.845415 -0.565927
0.333726 1.839621 -0.564657
0.337421 1.833909 -0.563418
0.340732 1.827768 -0.561951
0.345239 1.823101 -0.561219
0.349961 1.818704 -0.560616
0.354246 1.813801 -0.559747
0.358168 1.808494 -0.558663
0.362785 1.804011 -0.557992
0.360637 1.791837 -0.553350
0.362416 1.784247 -0.551044
0.370306 1.783547 -0.552294
0.378949 1.783612 -0.553947
0.375557 1.770425 -0.548690
0.379681 1.765560 -0.547754
0.389401 1.766713 -0.549970
0.397303 1.765829 -0.551124
0.405090 1.764759 -0.552184
0.398431 1.748574 -0.545229
0.404032 1.745270 -0.545081
0.407456 1.739722 -0.543732
0.404405 1.727648 -0.538874
0.404303 1.718676 -0.535649
0.406346 1.711924 -0.533597
0.412579 1.709334 -0.533780
0.419641 1.707515 -0.534381
0.424143 1.703180 -0.533612
0.426497 1.696792 -0.531715
0.430179 1.691695 -0.530510
0.434444 1.687155 -0.529601
0.437832 1.681802 -0.528235
0.442883 1.677989 -0.527710
0.445732 1.672160 -0.526060
0.448457 1.666243 -0.524347
0.451500 1.660632 -0.522793
0.453377 1.654011 -0.520660
0.455024 1.647227 -0.518418
0.460395 1.643703 -0.518002
0.464205 1.638818 -0.516811
0.468198 1.634090 -0.515700
0.472652 1.629747 -0.514800
0.476128 1.624582 -0.513423
0.475520 1.616061 -0.510107
0.478924 1.610882 -0.508696
0.483221 1.606429 -0.507696
0.487648 1.602071 -0.506744
0.489157 1.595395 -0.504436
0.491950 1.589760 -0.502722
0.495684 1.584867 -0.501433
0.499349 1.579923 -0.500106
0.501621 1.573922 -0.498149
0.504582 1.568461 -0.496500
0.505865 1.561764 -0.494108
0.508227 1.555899 -0.492200
0.510689 1.550129 -0.490339
0.513348 1.544521 -0.488567
0.517173 1.539765 -0.487302
0.521402 1.535296 -0.486208
0.522017 1.528297 -0.483575
0.524630 1.522731 -0.481805
0.529823 1.518956 -0.481127
0.533421 1.514088 -0.479780
0.535928 1.508500 -0.477990
0.538331 1.502873 -0.476172
0.539921 1.496745 -0.474039
0.543385 1.491881 -0.472692
0.547632 1.487544 -0.471678
0.550594 1.482404 -0.470164
0.551969 1.476299 -0.468043
0.555147 1.471376 -0.466671
0.558573 1.466644 -0.465424
0.562118 1.462023 -0.464255
0.566392 1.457881 -0.463403
0.568382 1.452407 -0.461700
0.572194 1.448076 -0.460742
0.577956 1.444931 -0.460569
0.579523 1.439382 -0.458838
0.580607 1.433633 -0.456979
0.586998 1.430984 -0.457171
0.588399 1.425559 -0.455540
0.588818 1.419674 -0.453604
0.594477 1.416775 -0.453672
0.598284 1.412910 -0.453107
0.601993 1.409058 -0.452562
0.603511 1.404102 -0.451276
0.606524 1.400032 -0.450599
0.610791 1.396697 -0.450435
0.613556 1.392648 -0.449789
0.614707 1.387849 -0.448626
0.614750 1.382582 -0.447133
0.627566 1.383875 -0.450252
-0.464717 1.681632 -0.333432
-0.463519 1.633657 -0.318187
-0.460597 1.631090 -0.317819
-0.457333 1.634905 -0.319580
-0.454190 1.634817 -0.320094
-0.450905 1.636336 -0.321173
-0.447575 1.637525 -0.322180
-0.444112 1.639819 -0.323589
-0.440600 1.641793 -0.324930
-0.437076 1.642989 -0.326050
-0.433441 1.644844 -0.327426
-0.429779 1.646226 -0.328681
-0.425837 1.650187 -0.330838
-0.422023 1.651805 -0.332245
-0.418113 1.653803 -0.333816
-0.414109 1.656128 -0.335532
-0.409986 1.658985 -0.337464
-0.405739 1.662375 -0.339611
-0.401230 1.667464 -0.342376
-0.397189 1.667838 -0.343556
-0.392882 1.670079 -0.345404
-0.388536 1.672189 -0.347235
-0.384263 1.673358 -0.348763
-0.379529 1.677615 -0.351392
-0.374979 1.680080 -0.353421
-0.369914 1.685733 -0.356594
-0.365220 1.688400 -0.358740
-0.360582 1.690393 -0.360668
-0.355892 1.692457 -0.362636
-0.351014 1.695410 -0.364938
-0.345888 1.699537 -0.367678
-0.340288 1.706031 -0.371290
-0.335335 1.708494 -0.373467
-0.329819 1.713774 -0.376680
-0.324704 1.716598 -0.379015
-0.319113 1.721633 -0.382171
-0.314167 1.723151 -0.384050
-0.308544 1.727811 -0.387094
-0.302164 1.735765 -0.391374
-0.296516 1.739913 -0.394260
-0.291546 1.740764 -0.395926
-0.284675 1.749900 -0.400700
-0.279365 1.751861 -0.402798
-0.274044 1.753737 -0.404867
-0.268688 1.755636 -0.406947
-0.261711 1.763944 -0.411472
-0.256280 1.765763 -0.413536
-0.250093 1.770393 -0.416682
-0.243557 1.776115 -0.420258
-0.237124 1.781187 -0.423596
-0.231032 1.784780 -0.426371
-0.225011 1.787939 -0.428984
-0.217073 1.797664 -0.434168
-0.211364 1.799308 -0.436207
-0.205147 1.802567 -0.438882
-0.198784 1.806151 -0.441692
-0.191365 1.813006 -0.445806
-0.184911 1.816484 -0.448591
-0.177316 1.823395 -0.452754
-0.171007 1.826036 -0.455223
-0.164514 1.829102 -0.457866
-0.157950 1.832230 -0.460540
-0.149495 1.840783 -0.465417
-0.140845 1.849581 -0.470415
-0.134612 1.851140 -0.472483
-0.127484 1.855116 -0.475542
-0.118634 1.863684 -0.480496
-0.109271 1.873338 -0.485918
-0.102930 1.874522 -0.487865
-0.093914 1.882696 -0.492711
-0.087084 1.884867 -0.495083
-0.078629 1.891097 -0.499152
-0.071665 1.893309 -0.501556
-0.059893 1.907405 -0.508957
-0.052424 1.910447 -0.511738
-0.045273 1.912569 -0.514138
-0.036472 1.918519 -0.518167
-0.025855 1.928532 -0.523942
-0.018140 1.931448 -0.526715
-0.007933 1.939948 -0.531888
0.001348 1.946054 -0.536057
0.009108 1.948526 -0.538677
0.019534 1.956755 -0.543795
0.027868 1.960140 -0.546835
0.037977 1.967190 -0.551481
0.046163 1.969902 -0.554254
0.054895 1.973618 -0.557477
0.063922 1.977781 -0.560909
0.073385 1.982662 -0.564672
0.079685 1.980956 -0.565538
0.084771 1.976795 -0.565313
0.089109 1.971186 -0.564436
0.108957 1.995850 -0.577058
0.117311 1.997728 -0.579551
0.126381 2.000848 -0.582611
0.134789 2.002573 -0.585054
0.143127 2.004050 -0.587395
0.152992 2.008219 -0.590964
0.160271 2.007524 -0.592338
0.167557 2.006778 -0.593691
0.176048 2.008107 -0.595996
0.182780 2.006247 -0.596846
0.188482 2.002568 -0.596858
0.194650 1.999689 -0.597235
0.198983 1.993693 -0.596164
0.202281 1.986018 -0.594301
0.207908 1.982291 -0.594262
0.215452 1.981705 -0.595688
0.221542 1.978701 -0.595983
0.226250 1.973472 -0.595228
0.231540 1.969201 -0.594916
0.237674 1.966265 -0.595230
0.243624 1.963028 -0.595399
0.249013 1.958925 -0.595151
0.253616 1.953638 -0.594332
0.257266 1.946957 -0.592834
0.261408 1.941068 -0.591706
0.266382 1.936449 -0.591178
0.270801 1.931042 -0.590261
0.274203 1.924208 -0.588643
0.278781 1.919113 -0.587857
0.281609 1.911582 -0.585872
0.283523 1.902855 -0.583285
0.287999 1.897765 -0.582466
0.290149 1.889527 -0.580086
0.296145 1.886575 -0.580303
0.300519 1.881438 -0.579433
0.305004 1.876475 -0.578641
0.307656 1.869136 -0.576653
0.312138 1.864240 -0.575874
0.317263 1.860190 -0.575512
0.322167 1.855864 -0.575004
0.325879 1.850047 -0.573736
0.329011 1.843547 -0.572111
0.333076 1.838250 -0.571083
0.336775 1.832533 -0.569831
0.340657 1.827072 -0.568700
0.344653 1.821779 -0.567644
0.349103 1.817047 -0.566868
0.352432 1.811019 -0.565412
0.356520 1.805910 -0.564422
0.363551 1.804203 -0.565194
0.358591 1.788811 -0.558816
0.362068 1.783144 -0.557493
0.365490 1.777448 -0.556142
0.375152 1.778673 -0.558432
0.379249 1.773708 -0.557457
0.374875 1.759589 -0.551610
0.382200 1.758206 -0.552509
0.387702 1.754834 -0.552347
0.390198 1.748285 -0.550478
0.396235 1.745468 -0.550601
0.406216 1.746688 -0.552902
0.411862 1.743375 -0.552760
0.402941 1.725318 -0.544602
0.403035 1.716551 -0.541453
0.402640 1.707385 -0.538061
0.413783 1.709638 -0.540912
0.418912 1.705915 -0.540489
0.422732 1.700920 -0.539357
0.427249 1.696599 -0.538589
0.429515 1.690149 -0.536630
0.433233 1.685095 -0.535434
0.436281 1.679429 -0.533885
0.439980 1.674381 -0.532672
0.444265 1.669875 -0.531753
0.447954 1.664829 -0.530521
0.450071 1.658392 -0.528489
0.450559 1.650553 -0.525645
0.454577 1.645856 -0.524574
0.459846 1.642238 -0.524114
0.463744 1.637425 -0.522962
0.467511 1.632503 -0.521738
0.472973 1.629003 -0.521328
0.476876 1.624181 -0.520148
0.475857 1.615313 -0.516599
0.481502 1.611947 -0.516246
0.483467 1.605587 -0.514132
0.488916 1.602033 -0.513658
0.488579 1.593883 -0.510464
0.491329 1.588212 -0.508719
0.496150 1.584158 -0.507927
0.498388 1.578108 -0.505938
0.501135 1.572467 -0.504184
0.503226 1.566347 -0.502131
0.506884 1.561418 -0.500786
0.508551 1.555026 -0.498549
0.508979 1.547764 -0.495769
0.511569 1.542109 -0.493957
0.518423 1.539513 -0.494012
0.520217 1.533304 -0.491850
0.524958 1.529184 -0.490969
0.524510 1.521470 -0.487861
0.529142 1.517295 -0.486940
0.533349 1.512827 -0.485838
0.534314 1.506192 -0.483378
0.536940 1.500707 -0.481634
0.540536 1.495887 -0.480307
0.543617 1.490751 -0.478781
0.546788 1.485698 -0.477309
0.548908 1.480007 -0.475430
0.552287 1.475152 -0.474088
0.556127 1.470613 -0.472953
0.558664 1.465302 -0.471324
0.560823 1.459808 -0.469578
0.566912 1.456738 -0.469420
0.566966 1.450078 -0.466920
0.570253 1.445414 -0.465732
0.574449 1.441331 -0.464937
0.577232 1.436475 -0.463638
0.580189 1.431781 -0.462454
0.584335 1.427824 -0.461773
0.588736 1.424062 -0.461236
0.589645 1.418416 -0.459433
0.593226 1.414332 -0.458696
0.598408 1.411184 -0.458610
0.601555 1.406992 -0.457820
0.609125 1.405232 -0.458724
0.611308 1.400659 -0.457693
0.610598 1.394661 -0.455667
0.612438 1.390100 -0.454644
0.615912 1.386468 -0.454278
0.619488 1.382963 -0.454010
0.620989 1.378487 -0.453054
-0.466861 1.657359 -0.329147
-0.464918 1.628245 -0.319964
-0.461731 1.631768 -0.321632
-0.458552 1.633389 -0.322705
-0.455275 1.635646 -0.324026
-0.452038 1.635885 -0.324710
-0.448733 1.636322 -0.325495
-0.445365 1.636879 -0.326356
-0.441816 1.639296 -0.327880
-0.438235 1.641143 -0.329249
-0.434562 1.643341 -0.330774
-0.430671 1.647421 -0.332977
-0.426823 1.649985 -0.334703
-0.423120 1.650124 -0.335638
-0.419319 1.650812 -0.336792
-0.415201 1.654248 -0.338923
-0.411186 1.655951 -0.340492
-0.406977 1.658951 -0.342541
-0.402277 1.665774 -0.345952
-0.398104 1.667186 -0.347516
-0.393920 1.668290 -0.348999
-0.389444 1.671386 -0.351205
-0.385105 1.672965 -0.352903
-0.380854 1.673566 -0.354277
-0.375386 1.682622 -0.358675
-0.370599 1.686200 -0.361157
-0.365964 1.688377 -0.363160
-0.361621 1.688391 -0.364401
-0.356703 1.691871 -0.366905
-0.351428 1.697188 -0.370095
-0.346371 1.700808 -0.372688
-0.341435 1.703435 -0.374935
-0.335988 1.708667 -0.378152
-0.331026 1.710918 -0.380288
-0.325224 1.717389 -0.383996
-0.319658 1.722252 -0.387128
-0.314690 1.723824 -0.389048
-0.309009 1.728721 -0.392218
-0.303816 1.731016 -0.394425
-0.297744 1.737221 -0.398113
-0.291623 1.743305 -0.401773
-0.285844 1.747555 -0.404751
-0.280056 1.751610 -0.407665
-0.274868 1.752906 -0.409531
-0.269427 1.755153 -0.411765
-0.262383 1.763737 -0.416450
-0.256777 1.766233 -0.418796
-0.250300 1.771965 -0.422406
-0.244697 1.774101 -0.424624
-0.238842 1.777048 -0.427164
-0.231089 1.786775 -0.432376
-0.224602 1.791550 -0.435656
-0.217816 1.797154 -0.439276
-0.212219 1.798404 -0.441176
-0.206510 1.799944 -0.443192
-0.199590 1.805410 -0.446782
-0.193182 1.808967 -0.449617
-0.185757 1.815621 -0.453708
-0.179109 1.819545 -0.456709
-0.172229 1.824009 -0.459939
-0.165766 1.827000 -0.462577
-0.157911 1.834025 -0.466871
-0.151314 1.837052 -0.469541
-0.141881 1.848177 -0.475553
-0.135135 1.851209 -0.478249
-0.128664 1.853314 -0.480567
-0.122850 1.853480 -0.482082
-0.110914 1.870307 -0.490551
-0.103498 1.874411 -0.493737
-0.095437 1.880041 -0.497574
-0.087677 1.884663 -0.501001
-0.080259 1.888209 -0.503984
-0.072358 1.892820 -0.507429
-0.062209 1.902858 -0.513196
-0.054937 1.905457 -0.515814
-0.046587 1.910540 -0.519503
-0.037423 1.917372 -0.523959
-0.029823 1.920252 -0.526729
-0.017368 1.934313 -0.534346
-0.009120 1.938250 -0.537608
-0.001663 1.940217 -0.540024
0.007800 1.946558 -0.544357
0.018047 1.954398 -0.549367
0.029140 1.963812 -0.555093
0.036126 1.964065 -0.556806
0.044196 1.966545 -0.559507
0.054846 1.974307 -0.564562
0.064090 1.978888 -0.568225
0.071145 1.978798 -0.569817
0.079480 1.981227 -0.572541
0.084534 1.976967 -0.572268
0.090130 1.973808 -0.572483
0.107099 1.992814 -0.582718
0.113653 1.991237 -0.583672
0.120872 1.990885 -0.585183
0.131392 1.996669 -0.589499
0.143113 2.004472 -0.594760
0.150131 2.003383 -0.595962
0.157114 2.002176 -0.597112
0.164749 2.002089 -0.598782
0.172251 2.001691 -0.600311
0.178922 1.999767 -0.601135
0.185036 1.996843 -0.601493
0.191312 1.994185 -0.601972
0.196557 1.989763 -0.601620
0.200364 1.982954 -0.600137
0.205575 1.978543 -0.599773
0.211890 1.975957 -0.600267
0.218379 1.973634 -0.600885
0.223490 1.969075 -0.600435
0.228737 1.964753 -0.600092
0.234476 1.961218 -0.600120
0.240749 1.958509 -0.600542
0.246340 1.954733 -0.600447
0.251638 1.950516 -0.600134
0.255305 1.943865 -0.598631
0.260102 1.938953 -0.597963
0.265301 1.934658 -0.597590
0.269785 1.929336 -0.596706
0.274573 1.924484 -0.596044
0.279052 1.919218 -0.595170
0.283863 1.914448 -0.594532
0.288156 1.908980 -0.593540
0.290992 1.901539 -0.591555
0.295252 1.896114 -0.590562
0.297465 1.887961 -0.588191
0.300644 1.881188 -0.586495
0.304910 1.875912 -0.585541
0.307627 1.868639 -0.583567
0.311265 1.862629 -0.582218
0.316475 1.858678 -0.581908
0.320631 1.853392 -0.580909
0.321389 1.843865 -0.577725
0.326869 1.840324 -0.577598
0.331262 1.835439 -0.576774
0.335858 1.830820 -0.576078
0.339917 1.825567 -0.575046
0.344238 1.820652 -0.574180
0.347295 1.814262 -0.572534
0.351163 1.808870 -0.571398
0.355376 1.803904 -0.570476
0.359920 1.799338 -0.569756
0.366839 1.797481 -0.570464
0.367529 1.788571 -0.567424
0.365289 1.776490 -0.562671
0.370161 1.772413 -0.562166
0.372467 1.765532 -0.560150
0.375373 1.759355 -0.558497
0.381632 1.756808 -0.558791
0.386241 1.752481 -0.558119
0.388739 1.745938 -0.556236
0.391179 1.739381 -0.554329
0.398768 1.738171 -0.555334
0.407286 1.737849 -0.556832
0.401054 1.722554 -0.550084
0.402522 1.715171 -0.547665
0.403486 1.707349 -0.544983
0.412660 1.707647 -0.546800
0.418037 1.704164 -0.546516
0.423439 1.700688 -0.546232
0.423218 1.691839 -0.542921
0.429274 1.688993 -0.542974
0.431816 1.682833 -0.541149
0.435475 1.677737 -0.539914
0.438481 1.672054 -0.538333
0.443355 1.668084 -0.537721
0.446492 1.662543 -0.536201
0.448735 1.656225 -0.534221
0.450930 1.649895 -0.532220
0.454483 1.644781 -0.530908
0.459332 1.640792 -0.530242
0.463369 1.636095 -0.529156
0.465889 1.630113 -0.527309
0.472562 1.627631 -0.527506
0.476239 1.622618 -0.526212
0.478496 1.616441 -0.524220
0.480422 1.610022 -0.522069
0.483709 1.604727 -0.520575
0.488137 1.600349 -0.519619
0.489659 1.593668 -0.517275
0.491386 1.587182 -0.515034
0.494165 1.581541 -0.513288
0.497363 1.576234 -0.511735
0.503003 1.572783 -0.511304
0.503833 1.565697 -0.508651
0.506034 1.559673 -0.506634
0.509228 1.554400 -0.505068
0.510793 1.547953 -0.502769
0.513642 1.542461 -0.501051
0.517628 1.537793 -0.499838
0.521573 1.533095 -0.498604
0.522065 1.525990 -0.495857
0.525395 1.520893 -0.494361
0.530191 1.516809 -0.493502
0.534307 1.512256 -0.492348
0.536205 1.506224 -0.490252
0.537536 1.499853 -0.487933
0.541724 1.495398 -0.486836
0.544186 1.489833 -0.485028
0.545311 1.483446 -0.482684
0.549328 1.478946 -0.481562
0.553533 1.474584 -0.480533
0.556766 1.469636 -0.479127
0.558556 1.463837 -0.477164
0.559119 1.457348 -0.474743
0.560902 1.451669 -0.472856
0.566343 1.448227 -0.472462
0.568895 1.443104 -0.470954
0.571804 1.438247 -0.469630
0.574871 1.433539 -0.468412
0.580133 1.430141 -0.468092
0.583002 1.425429 -0.466888
0.587340 1.421603 -0.466299
0.588747 1.416209 -0.464641
0.593245 1.412595 -0.464218
0.596929 1.408597 -0.463539
0.601658 1.405226 -0.463308
0.606544 1.401996 -0.463190
0.608900 1.397494 -0.462185
0.611649 1.393282 -0.461389
0.614158 1.389029 -0.460567
0.614373 1.383688 -0.458965
0.623257 1.382844 -0.460608
0.624562 1.378224 -0.459532
-0.466949 1.690899 -0.344084
-0.465984 1.631150 -0.324517
-0.463105 1.626657 -0.323526
-0.459718 1.632891 -0.326185
-0.456476 1.634113 -0.327191
-0.453178 1.635199 -0.328187
-0.449869 1.635406 -0.328922
-0.446439 1.636675 -0.330053
-0.442846 1.639482 -0.331746
-0.439356 1.639740 -0.332606
-0.435690 1.641656 -0.334069
-0.431645 1.647564 -0.336944
-0.427939 1.648174 -0.338033
-0.424209 1.648462 -0.339043
-0.420173 1.651562 -0.341062
-0.416174 1.653544 -0.342727
-0.412031 1.656362 -0.344717
-0.407778 1.659601 -0.346889
-0.403628 1.661288 -0.348545
-0.399208 1.664879 -0.350903
-0.394794 1.667852 -0.353073
-0.390331 1.670740 -0.355240
-0.386079 1.671552 -0.356691
-0.381734 1.672793 -0.358314
-0.377234 1.674868 -0.360257
-0.371600 1.684508 -0.364959
-0.366881 1.687216 -0.367180
-0.362412 1.688000 -0.368717
-0.357686 1.690224 -0.370794
-0.352141 1.697188 -0.374628
-0.347315 1.699396 -0.376733
-0.342695 1.700201 -0.378330
-0.336928 1.707278 -0.382269
-0.332060 1.709013 -0.384235
-0.325916 1.717316 -0.388674
-0.320509 1.721332 -0.391523
-0.315449 1.723353 -0.393631
-0.310058 1.726831 -0.396299
-0.304261 1.732017 -0.399628
-0.298355 1.737407 -0.403049
-0.292938 1.740284 -0.405520
-0.287408 1.743483 -0.408121
-0.281760 1.747004 -0.410854
-0.275418 1.753265 -0.414660
-0.270100 1.754971 -0.416705
-0.263156 1.763155 -0.421289
-0.257727 1.764940 -0.423378
-0.251096 1.771284 -0.427268
-0.245278 1.774236 -0.429830
-0.239617 1.776442 -0.432101
-0.232365 1.784344 -0.436647
-0.226889 1.785523 -0.438521
-0.219771 1.792401 -0.442684
-0.213645 1.795548 -0.445360
-0.207885 1.797296 -0.447474
-0.199653 1.807176 -0.452893
-0.193980 1.808280 -0.454761
-0.187201 1.812857 -0.458049
-0.180322 1.817544 -0.461393
-0.172438 1.825151 -0.465949
-0.165802 1.828636 -0.468821
-0.158675 1.833434 -0.472244
-0.151808 1.837255 -0.475273
-0.144026 1.843565 -0.479349
-0.135390 1.852068 -0.484359
-0.129747 1.851805 -0.485708
-0.120765 1.860772 -0.490946
-0.112883 1.866400 -0.494795
-0.105086 1.871571 -0.498464
-0.097236 1.876671 -0.502117
-0.089777 1.880537 -0.505256
-0.080470 1.888992 -0.510372
-0.073565 1.891042 -0.512757
-0.063253 1.901501 -0.518776
-0.054575 1.907569 -0.522923
-0.047178 1.910286 -0.525633
-0.036962 1.919626 -0.531235
-0.029241 1.922741 -0.534144
-0.019412 1.930627 -0.539154
-0.010298 1.936584 -0.543339
-0.003682 1.936638 -0.544937
0.006646 1.944947 -0.550192
0.017447 1.954015 -0.555808
0.026635 1.959252 -0.559746
0.034844 1.962175 -0.562666
0.042778 1.964364 -0.565267
0.052134 1.969413 -0.569164
0.061692 1.974684 -0.573178
0.069457 1.976073 -0.575454
0.080388 1.983761 -0.580596
0.086957 1.982467 -0.581673
0.094958 1.983958 -0.584023
0.104330 1.988009 -0.587553
0.111346 1.987349 -0.588934
0.118530 1.986948 -0.590437
0.131460 1.997284 -0.596910
0.138671 1.996674 -0.598338
0.144810 1.994032 -0.598823
0.151870 1.993044 -0.600078
0.160800 1.995357 -0.602882
0.168216 1.994853 -0.604374
0.173763 1.991008 -0.604295
0.179787 1.987999 -0.604606
0.187759 1.988315 -0.606491
0.194793 1.986957 -0.607587
0.197502 1.978311 -0.605206
0.202738 1.973963 -0.604863
0.209838 1.972683 -0.605988
0.215709 1.969363 -0.606132
0.221073 1.965229 -0.605879
0.226437 1.961105 -0.605625
0.231882 1.957119 -0.605433
0.237305 1.953107 -0.605223
0.242806 1.949223 -0.605070
0.246886 1.943188 -0.603857
0.250693 1.936797 -0.602456
0.255715 1.932267 -0.601963
0.261475 1.928836 -0.602007
0.267177 1.925317 -0.602004
0.271525 1.919847 -0.601025
0.276980 1.915988 -0.600842
0.282784 1.912623 -0.600903
0.285569 1.905046 -0.598839
0.289952 1.899749 -0.597911
0.293996 1.894023 -0.596756
0.298853 1.889433 -0.596168
0.303253 1.884248 -0.595271
0.307251 1.878562 -0.594106
0.311382 1.873085 -0.593040
0.313322 1.864807 -0.590521
0.316374 1.858042 -0.588764
0.320182 1.852297 -0.587521
0.322654 1.844910 -0.585413
0.325111 1.837575 -0.583317
0.329111 1.832209 -0.582234
0.333145 1.826914 -0.581178
0.339946 1.824983 -0.581884
0.342761 1.818253 -0.580056
0.345960 1.812032 -0.578483
0.349790 1.806593 -0.577313
0.353434 1.800969 -0.576034
0.357451 1.795803 -0.574989
0.363225 1.792656 -0.575018
0.369957 1.790569 -0.575616
0.369906 1.780888 -0.572110
0.367489 1.768710 -0.567224
0.372055 1.764312 -0.566536
0.378857 1.762338 -0.567164
0.382894 1.757361 -0.566150
0.388732 1.754309 -0.566184
0.390977 1.747464 -0.564123
0.391375 1.738750 -0.561012
0.399184 1.737750 -0.562160
0.400761 1.730335 -0.559741
0.402129 1.722770 -0.557219
0.403405 1.715177 -0.554662
0.405650 1.708606 -0.552660
0.411888 1.705989 -0.552875
0.418482 1.703684 -0.553266
0.422705 1.699059 -0.552338
0.425592 1.693167 -0.550680
0.427407 1.686293 -0.548446
0.431954 1.682012 -0.547685
0.435858 1.677132 -0.546571
0.439443 1.671967 -0.545283
0.442414 1.666256 -0.543668
0.443096 1.658514 -0.540859
0.451315 1.657524 -0.541972
0.452514 1.650290 -0.539432
0.455926 1.645032 -0.538036
0.459224 1.639686 -0.536576
0.462870 1.634647 -0.535289
0.464360 1.627791 -0.532911
0.469932 1.624391 -0.532578
0.475297 1.620790 -0.532122
0.476699 1.613914 -0.529696
0.479637 1.608326 -0.528030
0.484491 1.604289 -0.527290
0.487922 1.599103 -0.525849
0.490560 1.593298 -0.524021
0.492888 1.587267 -0.522044
0.496462 1.582220 -0.520658
0.500420 1.577467 -0.519445
0.501581 1.570595 -0.516917
0.504260 1.564899 -0.515102
0.504432 1.557361 -0.512130
0.508018 1.552379 -0.510738
0.511351 1.547215 -0.509227
0.513589 1.541272 -0.507217
0.517081 1.536241 -0.505775
0.520424 1.531111 -0.504266
0.523616 1.525885 -0.502689
0.526617 1.520537 -0.501031
0.530222 1.515617 -0.499642
0.532839 1.510038 -0.497826
0.535092 1.504240 -0.495863
0.538428 1.499186 -0.494379
0.540817 1.493531 -0.492500
0.543540 1.488124 -0.490781
0.546958 1.483191 -0.489371
0.550247 1.478198 -0.487922
0.554685 1.473951 -0.486971
0.560389 1.470503 -0.486557
0.560018 1.463333 -0.483665
0.557647 1.455034 -0.480004
0.560545 1.450008 -0.478535
0.564672 1.445757 -0.477596
0.570477 1.442526 -0.477360
0.570103 1.435722 -0.474693
0.575435 1.432295 -0.474342
0.577095 1.426810 -0.472581
0.581085 1.422713 -0.471786
0.585369 1.418833 -0.471151
0.588910 1.414595 -0.470277
0.590749 1.409492 -0.468800
0.596544 1.406613 -0.468900
0.600639 1.402867 -0.468399
0.604310 1.398961 -0.467793
0.607693 1.394975 -0.467137
0.611666 1.391371 -0.466763
0.613385 1.386678 -0.465605
0.613881 1.381456 -0.464058
0.620941 1.379650 -0.465016
0.631334 1.379553 -0.467256
-0.469173 1.662221 -0.338182
-0.466722 1.643161 -0.332221
-0.464294 1.625682 -0.326810
-0.461148 1.626288 -0.327596
-0.457672 1.632534 -0.330350
-0.454331 1.634178 -0.331568
-0.450927 1.635766 -0.332803
-0.447455 1.637384 -0.334087
-0.443953 1.638430 -0.335210
-0.440286 1.641011 -0.336901
-0.436643 1.642272 -0.338172
-0.432830 1.644950 -0.339973
-0.429029 1.646602 -0.341452
-0.425127 1.648724 -0.343130
-0.421101 1.651505 -0.345076
-0.417128 1.653024 -0.346611
-0.412755 1.657984 -0.349397
-0.408708 1.659029 -0.350827
-0.404562 1.660542 -0.352451
-0.400046 1.664868 -0.355111
-0.395553 1.668386 -0.357512
-0.391106 1.671002 -0.359616
-0.386667 1.673138 -0.361570
-0.382343 1.674052 -0.363101
-0.377394 1.679237 -0.366211
-0.373144 1.679027 -0.367368
-0.368037 1.684458 -0.370615
-0.362733 1.690696 -0.374186
-0.358151 1.691862 -0.375900
-0.353327 1.694330 -0.378110
-0.348273 1.697918 -0.380752
-0.343404 1.700149 -0.382900
-0.337533 1.707778 -0.387097
-0.332863 1.708380 -0.388655
-0.327109 1.714621 -0.392364
-0.321328 1.720612 -0.395997
-0.316304 1.722435 -0.398050
-0.311151 1.724744 -0.400295
-0.305552 1.729016 -0.403306
-0.299481 1.735233 -0.407082
-0.293814 1.739275 -0.410029
-0.288081 1.743379 -0.413010
-0.282349 1.747249 -0.415909
-0.276143 1.752919 -0.419526
-0.270352 1.756573 -0.422360
-0.264931 1.758531 -0.424528
-0.258373 1.764884 -0.428450
-0.251957 1.770385 -0.432047
-0.246048 1.773684 -0.434773
-0.240216 1.776524 -0.437320
-0.233795 1.781371 -0.440684
-0.227828 1.784353 -0.443302
-0.221508 1.788430 -0.446370
-0.215429 1.791474 -0.449025
-0.206531 1.803954 -0.455556
-0.200662 1.805819 -0.457750
-0.194826 1.807460 -0.459855
-0.188135 1.811754 -0.463061
-0.180785 1.817942 -0.467064
-0.173615 1.823308 -0.470739
-0.167507 1.825191 -0.472969
-0.160112 1.830840 -0.476783
-0.151650 1.839413 -0.481845
-0.144656 1.843377 -0.484979
-0.136439 1.850675 -0.489537
-0.130388 1.851565 -0.491386
-0.122568 1.857292 -0.495303
-0.112636 1.868574 -0.501615
-0.105349 1.872320 -0.504718
-0.098600 1.874464 -0.507139
-0.088452 1.885388 -0.513366
-0.081346 1.888079 -0.516049
-0.074086 1.891024 -0.518848
-0.066786 1.893921 -0.521636
-0.057697 1.901094 -0.526307
-0.048959 1.907148 -0.530507
-0.037340 1.919890 -0.537676
-0.031701 1.918043 -0.538423
-0.018573 1.933684 -0.546934
-0.011516 1.934840 -0.549035
-0.004290 1.936279 -0.551268
0.004649 1.941454 -0.555182
0.014485 1.948411 -0.559915
0.023507 1.953338 -0.563754
0.032356 1.957691 -0.567349
0.041709 1.962936 -0.571364
0.050658 1.967124 -0.574916
0.057832 1.967448 -0.576717
0.067486 1.972773 -0.580815
0.076734 1.977072 -0.584461
0.085226 1.979676 -0.587340
0.092293 1.979329 -0.588865
0.099758 1.979690 -0.590722
0.109247 1.983867 -0.594361
0.116686 1.983963 -0.596111
0.125592 1.986742 -0.599123
0.133324 1.987194 -0.601054
0.140064 1.985738 -0.602093
0.147210 1.984973 -0.603459
0.155344 1.985923 -0.605641
0.163933 1.987577 -0.608169
0.169786 1.984321 -0.608361
0.175322 1.980513 -0.608286
0.181524 1.977852 -0.608756
0.187073 1.974067 -0.608683
0.193411 1.971611 -0.609248
0.199868 1.969328 -0.609896
0.206449 1.967220 -0.610628
0.212539 1.964287 -0.610958
0.217404 1.959377 -0.610319
0.224374 1.957830 -0.611322
0.229564 1.953451 -0.610933
0.234621 1.948881 -0.610443
0.239125 1.943486 -0.609537
0.243737 1.938292 -0.608722
0.247172 1.931366 -0.607034
0.251544 1.925900 -0.606062
0.257086 1.922189 -0.605962
0.263667 1.919986 -0.606617
0.268709 1.915543 -0.606142
0.273743 1.911102 -0.605661
0.276754 1.903831 -0.603734
0.282267 1.900115 -0.603606
0.285970 1.893907 -0.602197
0.291627 1.890412 -0.602171
0.297397 1.887064 -0.602216
0.301925 1.882048 -0.601397
0.306912 1.877663 -0.600896
0.310968 1.872072 -0.599763
0.314816 1.866248 -0.598497
0.317342 1.858770 -0.596354
0.323489 1.855957 -0.596644
0.329349 1.852762 -0.596732
0.329200 1.842087 -0.592864
0.333041 1.836454 -0.591642
0.336103 1.829908 -0.589923
0.338208 1.822261 -0.587603
0.342886 1.817759 -0.586948
0.345759 1.811135 -0.585147
0.347722 1.803499 -0.582785
0.351882 1.798479 -0.581820
0.355841 1.793250 -0.580733
0.357766 1.785734 -0.578391
0.363573 1.782651 -0.578452
0.363725 1.773257 -0.575052
0.368010 1.768520 -0.574187
0.378755 1.770842 -0.577209
0.376878 1.759406 -0.572633
0.386336 1.760234 -0.574835
0.393255 1.758274 -0.575496
0.397898 1.744678 -0.571395
0.395743 1.733351 -0.566772
0.399728 1.728414 -0.565723
0.401959 1.721720 -0.563669
0.399376 1.710268 -0.558895
0.405140 1.707205 -0.558871
0.412985 1.706153 -0.559997
0.417371 1.701684 -0.559165
0.420738 1.696238 -0.557763
0.423809 1.690530 -0.556197
0.427941 1.685844 -0.555213
0.432583 1.681637 -0.554498
0.435505 1.675836 -0.552846
0.438826 1.670424 -0.551409
0.441785 1.664700 -0.549777
0.443030 1.657463 -0.547239
0.447889 1.653480 -0.546610
0.452320 1.649108 -0.545745
0.455520 1.643659 -0.544230
0.458204 1.637780 -0.542446
0.463883 1.634475 -0.542195
0.465167 1.627432 -0.539689
0.467882 1.621629 -0.537915
0.472256 1.617216 -0.536973
0.475148 1.611580 -0.535279
0.479997 1.607545 -0.534553
0.484025 1.602835 -0.533407
0.487197 1.597440 -0.531833
0.489854 1.591648 -0.530003
0.493391 1.586558 -0.528597
0.496560 1.581186 -0.527008
0.499661 1.575771 -0.525382
0.503045 1.570578 -0.523886
0.506617 1.565530 -0.522473
0.503644 1.555643 -0.517995
0.507824 1.551093 -0.516873
0.511108 1.545885 -0.515329
0.512949 1.539650 -0.513121
0.516335 1.534539 -0.511623
0.520217 1.529782 -0.510348
0.523283 1.524458 -0.508703
0.526549 1.519283 -0.507149
0.529485 1.513894 -0.505451
0.531565 1.507946 -0.503382
0.534223 1.502414 -0.501579
0.536706 1.496788 -0.499710
0.540481 1.492033 -0.498413
0.544313 1.487326 -0.497148
0.547979 1.482526 -0.495823
0.550998 1.477336 -0.494237
0.555660 1.473201 -0.493362
0.561978 1.470100 -0.493194
0.563636 1.464142 -0.491096
0.567500 1.459574 -0.489944
0.559988 1.448228 -0.484148
0.564424 1.444135 -0.483313
0.569222 1.440283 -0.482654
0.575533 1.437338 -0.482636
0.575970 1.431036 -0.480289
0.578494 1.426008 -0.478831
0.581108 1.421097 -0.477458
0.585026 1.416978 -0.476650
0.588184 1.412498 -0.475593
0.589933 1.407318 -0.474040
0.594929 1.403973 -0.473808
0.600722 1.401105 -0.473933
0.604187 1.397055 -0.473214
0.608210 1.393369 -0.472766
0.608651 1.387898 -0.471014
0.607691 1.381815 -0.468802
0.613029 1.379049 -0.469041
0.616079 1.375192 -0.468476
0.617201 1.370456 -0.467251
-0.471221 1.636394 -0.333034
-0.467860 1.644667 -0.336432
-0.465115 1.634057 -0.333344
-0.462281 1.626148 -0.331212
-0.458850 1.631178 -0.333597
-0.455467 1.633386 -0.335043
-0.452011 1.635624 -0.336537
-0.448480 1.637917 -0.338089
-0.444978 1.638619 -0.339122
-0.441393 1.639688 -0.340319
-0.437715 1.641227 -0.341717
-0.433956 1.642999 -0.343233
-0.430091 1.645315 -0.344978
-0.426037 1.649067 -0.347270
-0.422091 1.650738 -0.348857
-0.418090 1.652394 -0.350469
-0.413866 1.655735 -0.352719
-0.409625 1.658562 -0.354817
-0.405277 1.661805 -0.357096
-0.401360 1.660664 -0.357810
-0.396354 1.668577 -0.361848
-0.391910 1.671046 -0.363931
-0.387558 1.672392 -0.365623
-0.383130 1.674006 -0.367434
-0.378539 1.676519 -0.369596
-0.374055 1.677949 -0.371375
-0.368635 1.685481 -0.375449
-0.363781 1.688692 -0.377933
-0.358619 1.693532 -0.381048
-0.353805 1.695828 -0.383222
-0.348992 1.697890 -0.385319
-0.344045 1.700520 -0.387644
-0.338617 1.705632 -0.390930
-0.333456 1.708926 -0.393535
-0.327948 1.713824 -0.396770
-0.322527 1.717954 -0.399724
-0.316854 1.723081 -0.403078
-0.311341 1.727116 -0.406021
-0.306254 1.728856 -0.408076
-0.301110 1.730732 -0.410188
-0.294296 1.740097 -0.415262
-0.288910 1.742618 -0.417649
-0.282306 1.750285 -0.422087
-0.276841 1.752718 -0.424457
-0.271645 1.753886 -0.426323
-0.265249 1.759850 -0.430120
-0.258859 1.765501 -0.433805
-0.253491 1.766885 -0.435773
-0.246976 1.772559 -0.439488
-0.240583 1.777511 -0.442921
-0.234194 1.782207 -0.446261
-0.228516 1.784119 -0.448466
-0.222298 1.787822 -0.451413
-0.216005 1.791606 -0.454401
-0.209002 1.797624 -0.458325
-0.202094 1.803064 -0.462022
-0.196167 1.805036 -0.464281
-0.189219 1.810189 -0.467879
-0.181179 1.818585 -0.472856
-0.174580 1.822145 -0.475809
-0.168534 1.823838 -0.477979
-0.159948 1.833094 -0.483370
-0.153242 1.836409 -0.486249
-0.147037 1.838100 -0.488439
-0.137759 1.848519 -0.494386
-0.130974 1.851499 -0.497151
-0.125283 1.851281 -0.498540
-0.114090 1.866108 -0.506461
-0.106927 1.869540 -0.509457
-0.099416 1.873733 -0.512797
-0.090540 1.881320 -0.517636
-0.082384 1.886765 -0.521554
-0.075200 1.889515 -0.524298
-0.067061 1.894518 -0.528048
-0.060678 1.894971 -0.529791
-0.047793 1.911208 -0.538572
-0.039721 1.915348 -0.541990
-0.033724 1.914388 -0.543134
-0.019855 1.931803 -0.552545
-0.012477 1.933698 -0.555002
-0.004900 1.935928 -0.557617
0.006199 1.945938 -0.563776
0.013845 1.947961 -0.566326
0.020313 1.947281 -0.567648
0.031356 1.956428 -0.573478
0.038672 1.957322 -0.575540
0.048475 1.963354 -0.579979
0.056684 1.965847 -0.582801
0.065172 1.968778 -0.585837
0.073473 1.971180 -0.588639
0.082031 1.973962 -0.591630
0.090418 1.976264 -0.594408
0.098537 1.977911 -0.596889
0.105726 1.977647 -0.598479
0.114822 1.980946 -0.601758
0.121787 1.980079 -0.603074
0.128349 1.978406 -0.604010
0.135603 1.977966 -0.605535
0.142726 1.977222 -0.606919
0.150807 1.978137 -0.609103
0.159090 1.979309 -0.611421
0.166426 1.978718 -0.612895
0.171218 1.973653 -0.612202
0.176266 1.969062 -0.611732
0.182349 1.966251 -0.612123
0.187187 1.961340 -0.611483
0.192655 1.957505 -0.611364
0.202340 1.960581 -0.614647
0.207775 1.956630 -0.614471
0.212703 1.951875 -0.613892
0.215451 1.943694 -0.611601
0.227018 1.949426 -0.616236
0.230399 1.942276 -0.614445
0.235566 1.937937 -0.614053
0.240648 1.933487 -0.613598
0.244804 1.927664 -0.612443
0.249418 1.922567 -0.611645
0.254914 1.918795 -0.611513
0.260083 1.914550 -0.611135
0.265564 1.910765 -0.610987
0.270122 1.905670 -0.610162
0.275514 1.901776 -0.609948
0.278063 1.893930 -0.607687
0.282827 1.889219 -0.607033
0.288459 1.885711 -0.606998
0.292762 1.880405 -0.606022
0.295469 1.873001 -0.603938
0.301272 1.869760 -0.604024
0.307236 1.866717 -0.604213
0.311714 1.861737 -0.603375
0.317568 1.858541 -0.603477
0.319825 1.850773 -0.601142
0.324855 1.846563 -0.600689
0.329636 1.842050 -0.600068
0.333210 1.836065 -0.598650
0.338540 1.832260 -0.598394
0.343392 1.827874 -0.597821
0.346863 1.821851 -0.596352
0.350207 1.815718 -0.594812
0.354934 1.811245 -0.594165
0.354882 1.801251 -0.590485
0.357199 1.794089 -0.588336
0.356874 1.783993 -0.584551
0.358089 1.775747 -0.581762
0.363058 1.771756 -0.581316
0.367997 1.767732 -0.580846
0.368982 1.759397 -0.577960
0.372408 1.753780 -0.576577
0.377531 1.750005 -0.576220
0.381005 1.744477 -0.574868
0.385232 1.739766 -0.573967
0.392577 1.738298 -0.574902
0.397210 1.733991 -0.574221
0.397015 1.724775 -0.570723
0.402787 1.721663 -0.570706
0.397264 1.707268 -0.564183
0.403806 1.704979 -0.564615
0.412046 1.704313 -0.565989
0.415378 1.698820 -0.564561
0.418567 1.693213 -0.563055
0.422258 1.688105 -0.561829
0.426996 1.683993 -0.561178
0.432089 1.680203 -0.560712
0.436655 1.675914 -0.559946
0.438524 1.669157 -0.557706
0.441832 1.663743 -0.556250
0.445034 1.658250 -0.554735
0.447390 1.652023 -0.552768
0.451487 1.647354 -0.551725
0.455738 1.642817 -0.550755
0.459563 1.637910 -0.549552
0.461773 1.631631 -0.547504
0.467792 1.628590 -0.547422
0.468364 1.620970 -0.544528
0.470663 1.614831 -0.542527
0.475893 1.611114 -0.542009
0.480336 1.606736 -0.541078
0.483602 1.601404 -0.539546
0.486603 1.595869 -0.537878
0.489676 1.590402 -0.536243
0.491897 1.584283 -0.534186
0.495630 1.579350 -0.532866
0.498745 1.573945 -0.531239
0.501576 1.568335 -0.529472
0.504876 1.563086 -0.527927
0.503198 1.554167 -0.524019
0.510161 1.551644 -0.524203
0.513571 1.546501 -0.522701
0.513290 1.538721 -0.519481
0.516209 1.533267 -0.517756
0.520108 1.528511 -0.516481
0.523263 1.523238 -0.514863
0.527265 1.518557 -0.513630
0.529003 1.512338 -0.511376
0.531398 1.506593 -0.509429
0.534424 1.501292 -0.507770
0.537794 1.496234 -0.506271
0.542345 1.491960 -0.505296
0.546376 1.487350 -0.504099
0.548200 1.481344 -0.501956
0.551473 1.476293 -0.500457
0.556624 1.472438 -0.499777
0.562695 1.469152 -0.499495
0.566071 1.464216 -0.498086
0.573125 1.461532 -0.498242
0.568847 1.452070 -0.493691
0.580336 1.452059 -0.495730
0.579298 1.444666 -0.492613
0.574324 1.435100 -0.487947
0.577330 1.430249 -0.486600
0.579496 1.424981 -0.484959
0.582966 1.420512 -0.483891
0.585130 1.415377 -0.482349
0.588470 1.410962 -0.481329
0.593942 1.407770 -0.481204
0.597536 1.403612 -0.480386
0.602294 1.400141 -0.480078
0.604669 1.395473 -0.478897
0.605361 1.390013 -0.477126
0.609662 1.386518 -0.476816
0.608830 1.380469 -0.474595
0.611241 1.376180 -0.473688
0.616776 1.373543 -0.474034
0.623291 1.371451 -0.474807
-0.472956 1.618442 -0.330430
-0.468738 1.653987 -0.343413
-0.465970 1.642102 -0.339862
-0.463426 1.625640 -0.334721
-0.460074 1.628660 -0.336446
-0.456619 1.632180 -0.338387
-0.453124 1.634890 -0.340083
-0.449660 1.635757 -0.341165
-0.446035 1.638249 -0.342860
-0.442455 1.638953 -0.343956
-0.438790 1.640067 -0.345233
-0.434964 1.642554 -0.347037
-0.431087 1.644811 -0.348795
-0.427053 1.648148 -0.350979
-0.423128 1.649420 -0.352450
-0.419161 1.650578 -0.353911
-0.414677 1.656498 -0.357138
-0.410569 1.657843 -0.358728
-0.406471 1.658649 -0.360147
-0.402121 1.661333 -0.362282
-0.397537 1.665532 -0.365005
-0.392809 1.670340 -0.367983
-0.388701 1.669668 -0.368947
-0.384180 1.671990 -0.371044
-0.379542 1.674834 -0.373357
-0.374170 1.682505 -0.377512
-0.369434 1.685184 -0.379807
-0.364960 1.685831 -0.381346
-0.359591 1.692033 -0.385016
-0.354830 1.693998 -0.387086
-0.350303 1.694351 -0.388547
-0.344527 1.701859 -0.392777
-0.339644 1.703825 -0.394883
-0.333975 1.709925 -0.398608
-0.329141 1.711172 -0.400454
-0.323276 1.717654 -0.404360
-0.317116 1.725233 -0.408718
-0.312389 1.725312 -0.410131
-0.306861 1.729192 -0.413053
-0.302052 1.729461 -0.414545
-0.295057 1.739684 -0.420020
-0.289648 1.742294 -0.422465
-0.284043 1.745602 -0.425197
-0.277598 1.752305 -0.429310
-0.272567 1.752767 -0.430906
-0.265618 1.761009 -0.435671
-0.259905 1.763918 -0.438276
-0.253695 1.768609 -0.441618
-0.247446 1.773218 -0.444937
-0.241724 1.775620 -0.447354
-0.234698 1.782693 -0.451713
-0.228863 1.785145 -0.454165
-0.222513 1.789283 -0.457325
-0.215567 1.795298 -0.461283
-0.210006 1.796313 -0.463150
-0.203822 1.799335 -0.465865
-0.196876 1.804714 -0.469585
-0.189073 1.812629 -0.474397
-0.182830 1.815257 -0.476972
-0.176594 1.817724 -0.479485
-0.168475 1.825849 -0.484433
-0.161307 1.830774 -0.488024
-0.154994 1.832943 -0.490434
-0.146065 1.842641 -0.496118
-0.138962 1.846717 -0.499379
-0.132418 1.849024 -0.501878
-0.125100 1.853361 -0.505273
-0.116019 1.862352 -0.510726
-0.109122 1.865102 -0.513450
-0.102250 1.867639 -0.516088
-0.092923 1.876490 -0.521537
-0.084820 1.881851 -0.525457
-0.076555 1.887405 -0.529479
-0.067957 1.893574 -0.533793
-0.060152 1.897539 -0.537134
-0.048888 1.909772 -0.544220
-0.041893 1.911320 -0.546503
-0.035005 1.912503 -0.548626
-0.024141 1.922898 -0.554953
-0.014709 1.929635 -0.559639
-0.006901 1.932419 -0.562534
0.000956 1.935170 -0.565424
0.009705 1.939756 -0.569171
0.017669 1.942432 -0.572050
0.027954 1.949984 -0.577206
0.037689 1.956094 -0.581714
0.046167 1.959328 -0.584899
0.056104 1.965438 -0.589447
0.062223 1.963482 -0.590222
0.066494 1.957756 -0.589216
0.079286 1.969153 -0.596303
0.089754 1.975600 -0.601078
0.096466 1.974479 -0.602271
0.103964 1.974822 -0.604167
0.108224 1.968911 -0.603070
0.117131 1.971815 -0.606200
0.122142 1.967324 -0.605777
0.130690 1.969364 -0.608506
0.138450 1.969848 -0.610492
0.144421 1.967031 -0.610878
0.153661 1.970003 -0.614089
0.161239 1.969912 -0.615815
0.165122 1.963339 -0.614362
0.171044 1.960335 -0.614655
0.176955 1.957301 -0.614930
0.182565 1.953752 -0.614947
0.190349 1.953807 -0.616754
0.195970 1.950239 -0.616760
0.201715 1.946874 -0.616863
0.206793 1.942437 -0.616425
0.214276 1.941829 -0.617910
0.218392 1.935882 -0.616701
0.225506 1.934631 -0.617863
0.231296 1.931301 -0.617971
0.236317 1.926798 -0.617478
0.242404 1.923913 -0.617807
0.247446 1.919461 -0.617329
0.252311 1.914768 -0.616722
0.256422 1.909001 -0.615552
0.260839 1.903718 -0.614622
0.267451 1.901587 -0.615323
0.272258 1.896885 -0.614684
0.276766 1.891787 -0.613831
0.280361 1.885462 -0.612324
0.285188 1.880869 -0.611718
0.289384 1.875442 -0.610664
0.292189 1.868193 -0.608634
0.297289 1.864046 -0.608239
0.301638 1.858925 -0.607318
0.306004 1.853853 -0.606415
0.312548 1.851593 -0.607015
0.317505 1.847291 -0.606515
0.322352 1.842861 -0.605940
0.327290 1.838554 -0.605426
0.331915 1.833870 -0.604700
0.336901 1.829642 -0.604216
0.343071 1.826844 -0.604510
0.345414 1.819463 -0.602283
0.350457 1.815334 -0.601833
0.352126 1.807269 -0.599199
0.358442 1.804657 -0.599573
0.361937 1.798788 -0.598133
0.363661 1.790947 -0.595578
0.364640 1.782347 -0.592578
0.363195 1.771142 -0.588089
0.367425 1.766321 -0.587173
0.367413 1.756894 -0.583639
0.371040 1.751497 -0.582369
0.375545 1.747061 -0.581638
0.380259 1.742853 -0.581029
0.383968 1.737594 -0.579811
0.389320 1.734057 -0.579575
0.389593 1.725297 -0.576314
0.395967 1.722823 -0.576677
0.400660 1.718623 -0.576036
0.398980 1.708074 -0.571679
0.407028 1.707240 -0.572985
0.411111 1.702466 -0.571981
0.414876 1.697392 -0.570792
0.417857 1.691580 -0.569155
0.421723 1.686635 -0.568021
0.425922 1.682011 -0.567069
0.431438 1.678614 -0.566843
0.435831 1.674160 -0.565979
0.438982 1.668572 -0.564425
0.441622 1.662542 -0.562592
0.445221 1.657397 -0.561282
0.448108 1.651632 -0.559583
0.450826 1.645740 -0.557795
0.454731 1.640900 -0.556639
0.458643 1.636067 -0.555479
0.461790 1.630586 -0.553909
0.466456 1.626397 -0.553130
0.468982 1.620411 -0.551227
0.470695 1.613777 -0.548905
0.475264 1.609511 -0.548052
0.481608 1.606666 -0.548088
0.484314 1.600868 -0.546261
0.486686 1.594823 -0.544264
0.489200 1.588910 -0.542338
0.491390 1.582764 -0.540252
0.494536 1.577376 -0.538638
0.498062 1.572285 -0.537206
0.500462 1.566348 -0.535219
0.502805 1.560387 -0.533206
0.508394 1.556839 -0.532751
0.510391 1.550641 -0.530565
0.512977 1.544892 -0.528663
0.515747 1.539291 -0.526848
0.517773 1.533178 -0.524685
0.520089 1.527292 -0.522663
0.523889 1.522455 -0.521330
0.528048 1.517865 -0.520159
0.529845 1.511669 -0.517908
0.531248 1.505242 -0.515490
0.535046 1.500440 -0.514163
0.539794 1.496269 -0.513263
0.542826 1.490976 -0.511601
0.545696 1.485600 -0.509877
0.548257 1.480051 -0.508032
0.554536 1.476871 -0.507822
0.557229 1.471444 -0.506060
0.556652 1.464038 -0.502916
0.566502 1.463061 -0.504265
0.579796 1.464103 -0.507064
0.583277 1.459205 -0.505699
0.572827 1.446135 -0.498527
0.592748 1.450988 -0.504106
0.578083 1.435731 -0.495321
0.588281 1.434932 -0.496894
0.588927 1.428710 -0.494568
0.586820 1.421038 -0.491179
0.595868 1.419654 -0.492375
0.605391 1.418526 -0.493786
0.601239 1.409992 -0.489750
0.600958 1.403684 -0.487341
0.598157 1.396151 -0.484006
0.605512 1.394084 -0.484754
0.605932 1.388449 -0.482827
0.604206 1.381816 -0.480132
0.612226 1.380273 -0.481305
0.616001 1.376623 -0.480880
0.618716 1.372519 -0.480108
0.620346 1.367964 -0.478984
-0.472482 1.676314 -0.354490
-0.469623 1.663820 -0.350684
-0.466693 1.654339 -0.347965
-0.464611 1.624056 -0.337866
-0.461365 1.624433 -0.338686
-0.457873 1.628743 -0.340947
-0.454409 1.630794 -0.342440
-0.450794 1.634266 -0.344482
-0.447186 1.636275 -0.346038
-0.443516 1.638197 -0.347600
-0.439722 1.640920 -0.349489
-0.435916 1.642841 -0.351124
-0.432002 1.645314 -0.352996
-0.428156 1.646157 -0.354306
-0.424357 1.645877 -0.355233
-0.420185 1.649227 -0.357525
-0.415814 1.653918 -0.360345
-0.411472 1.657521 -0.362798
-0.407366 1.658250 -0.364212
-0.403115 1.659931 -0.366004
-0.398669 1.662891 -0.368299
-0.393989 1.667317 -0.371172
-0.389299 1.671263 -0.373892
-0.384805 1.673230 -0.375885
-0.380385 1.674335 -0.377567
-0.375592 1.677870 -0.380193
-0.370998 1.679659 -0.382169
-0.365613 1.686461 -0.386090
-0.360578 1.690462 -0.388955
-0.355814 1.692438 -0.391050
-0.351182 1.693416 -0.392766
-0.345633 1.699606 -0.396531
-0.340617 1.702347 -0.398960
-0.334819 1.709177 -0.403014
-0.329914 1.710792 -0.405022
-0.323943 1.717817 -0.409189
-0.318259 1.722967 -0.412628
-0.312878 1.726304 -0.415354
-0.307265 1.730546 -0.418454
-0.301220 1.736565 -0.422283
-0.296000 1.738468 -0.424459
-0.289958 1.743928 -0.428087
-0.284519 1.746450 -0.430528
-0.278188 1.752638 -0.434477
-0.272965 1.753875 -0.436404
-0.267215 1.757174 -0.439184
-0.260595 1.763783 -0.443343
-0.255021 1.765970 -0.445678
-0.248651 1.771088 -0.449241
-0.243076 1.772960 -0.451455
-0.236024 1.780176 -0.455920
-0.229919 1.783634 -0.458816
-0.223461 1.788174 -0.462178
-0.217050 1.792334 -0.465389
-0.210607 1.796404 -0.468571
-0.203104 1.803844 -0.473205
-0.196504 1.807988 -0.476442
-0.189580 1.812987 -0.480058
-0.183976 1.813555 -0.481770
-0.177784 1.815894 -0.484249
-0.170781 1.820602 -0.487765
-0.162627 1.828591 -0.492726
-0.156302 1.830809 -0.495179
-0.147853 1.839131 -0.500322
-0.140215 1.844790 -0.504313
-0.131927 1.852058 -0.509031
-0.126015 1.852403 -0.510695
-0.118034 1.858369 -0.514864
-0.111094 1.861276 -0.517683
-0.102647 1.868056 -0.522247
-0.094208 1.874552 -0.526702
-0.086920 1.877812 -0.529717
-0.078246 1.884452 -0.534272
-0.067491 1.896072 -0.541109
-0.061423 1.895674 -0.542504
-0.052191 1.902952 -0.547409
-0.044398 1.906496 -0.550623
-0.034067 1.915905 -0.556548
-0.026478 1.918560 -0.559385
-0.016454 1.926704 -0.564773
-0.008182 1.930563 -0.568198
-0.000730 1.932400 -0.570694
0.010879 1.943351 -0.577459
0.019600 1.947613 -0.581122
0.027806 1.950577 -0.584190
0.034680 1.950550 -0.585860
0.044177 1.955976 -0.590114
0.051084 1.955801 -0.591729
0.057475 1.954497 -0.592809
0.067207 1.959925 -0.597107
0.076430 1.964126 -0.600838
0.084927 1.966708 -0.603807
0.094432 1.971122 -0.607674
0.096217 1.960453 -0.604259
0.104302 1.961977 -0.606737
0.112051 1.962753 -0.608861
0.118480 1.960978 -0.609746
0.125248 1.959790 -0.610920
0.132371 1.959199 -0.612390
0.139945 1.959355 -0.614233
0.149688 1.963277 -0.617946
0.155192 1.959596 -0.617904
0.159732 1.954251 -0.617030
0.166555 1.952863 -0.618122
0.173067 1.950901 -0.618929
0.179949 1.949525 -0.620032
0.186271 1.947176 -0.620647
0.191891 1.943649 -0.620667
0.195938 1.937579 -0.619392
0.200486 1.932366 -0.618543
0.208002 1.931889 -0.620102
0.216325 1.932610 -0.622281
0.220474 1.926772 -0.621101
0.225925 1.922977 -0.620963
0.232422 1.920772 -0.621643
0.236642 1.915123 -0.620538
0.243327 1.913173 -0.621347
0.247295 1.907201 -0.620059
0.252065 1.902442 -0.619395
0.255841 1.896280 -0.617987
0.259704 1.890293 -0.616659
0.266908 1.889050 -0.617828
0.272475 1.885479 -0.617767
0.278241 1.882180 -0.617848
0.282164 1.876361 -0.616581
0.286619 1.871302 -0.615710
0.290943 1.866096 -0.614752
0.294029 1.859286 -0.612920
0.298235 1.854000 -0.611897
0.303187 1.849709 -0.611406
0.309730 1.847463 -0.612022
0.314918 1.843469 -0.611685
0.318425 1.837371 -0.610191
0.324784 1.834856 -0.610654
0.328530 1.829105 -0.609333
0.332494 1.823657 -0.608167
0.336852 1.818713 -0.607273
0.339786 1.812094 -0.605436
0.344412 1.807523 -0.604730
0.350851 1.805079 -0.605209
0.355078 1.800051 -0.604235
0.359708 1.795501 -0.603523
0.361491 1.787738 -0.600983
0.363197 1.779964 -0.598417
0.365183 1.772573 -0.596051
0.366159 1.764138 -0.593069
0.374651 1.763968 -0.594810
0.382007 1.762495 -0.595810
0.383713 1.754942 -0.593301
0.382913 1.744810 -0.589276
0.387950 1.740898 -0.588842
0.384122 1.727804 -0.583040
0.389969 1.724801 -0.583110
0.395816 1.721774 -0.583165
0.396853 1.713889 -0.580352
0.399730 1.707904 -0.578642
0.404797 1.704111 -0.578222
0.409878 1.700320 -0.577799
0.414365 1.695945 -0.577021
0.418060 1.690811 -0.575781
0.420434 1.684440 -0.573786
0.425877 1.680984 -0.573538
0.430026 1.676306 -0.572545
0.434469 1.671901 -0.571710
0.438088 1.666743 -0.570409
0.441558 1.661462 -0.569022
0.444474 1.655699 -0.567327
0.447497 1.650052 -0.565692
0.450176 1.644123 -0.563870
0.453469 1.638751 -0.562380
0.456105 1.632827 -0.560536
0.460692 1.628582 -0.559730
0.465065 1.624147 -0.558798
0.468468 1.618896 -0.557346
0.470454 1.612486 -0.555149
0.475960 1.608977 -0.554782
