ply
format ascii 1.0
comment ---
element vertex 1649
property float x
property float y
property float z
element face 0
property list uchar uint vertex_indices
end_header
-0.129816 1.239887 -0.575009
-0.128677 1.237217 -0.574157
-0.126896 1.234697 -0.574144
-0.124522 1.232303 -0.574897
-0.122850 1.229742 -0.574733
-0.121256 1.227162 -0.574468
-0.118305 1.224851 -0.575934
-0.117630 1.222080 -0.574489
-0.116513 1.219404 -0.573611
-0.114375 1.216919 -0.574024
-0.111553 1.214545 -0.575287
-0.109487 1.212033 -0.575590
-0.108809 1.209301 -0.574160
-0.106110 1.206892 -0.575239
-0.104546 1.204313 -0.574906
-0.103171 1.201718 -0.574339
-0.101741 1.199145 -0.573840
-0.100299 1.196588 -0.573355
-0.099119 1.194018 -0.572553
-0.097029 1.191569 -0.572850
-0.094405 1.189188 -0.573782
-0.092500 1.186745 -0.573842
-0.090712 1.184309 -0.573758
-0.088740 1.181911 -0.573891
-0.086459 1.179559 -0.574384
-0.085224 1.177149 -0.573641
-0.084032 1.174771 -0.572855
-0.082973 1.172419 -0.571917
-0.082075 1.170097 -0.570799
-0.077932 1.167980 -0.573433
-0.075597 1.165789 -0.573968
-0.073200 1.163628 -0.574568
-0.071704 1.161463 -0.574139
-0.070880 1.159317 -0.572952
-0.071069 1.157189 -0.570633
-0.070598 1.155131 -0.569079
-0.068821 1.153142 -0.569001
-0.066864 1.151192 -0.569128
-0.063402 1.149288 -0.570928
-0.067803 1.147380 -0.564024
-0.498352 1.589291 -0.512414
-0.496669 1.592555 -0.517706
-0.495002 1.593625 -0.520855
-0.493317 1.593851 -0.523191
-0.491556 1.594641 -0.526127
-0.489746 1.595286 -0.528948
-0.487889 1.595791 -0.531660
-0.485946 1.596815 -0.534937
-0.483994 1.597054 -0.537441
-0.481841 1.599449 -0.542209
-0.479829 1.598897 -0.543957
-0.477669 1.599664 -0.547108
-0.475472 1.600150 -0.549996
-0.473246 1.600319 -0.552582
-0.470846 1.601813 -0.556602
-0.468536 1.601703 -0.558951
-0.466032 1.603002 -0.562838
-0.463400 1.604909 -0.567419
-0.460857 1.605416 -0.570528
-0.458284 1.605726 -0.573453
-0.455587 1.606636 -0.577063
-0.452917 1.606905 -0.580002
-0.450164 1.607443 -0.583266
-0.447411 1.607626 -0.586165
-0.444689 1.607313 -0.588534
-0.443001 1.600027 -0.583077
-0.441059 1.594662 -0.579730
-0.438590 1.592646 -0.580149
-0.436018 1.591177 -0.581193
-0.433600 1.588767 -0.581158
-0.431080 1.586905 -0.581750
-0.428619 1.584701 -0.581944
-0.426122 1.582673 -0.582338
-0.423531 1.581105 -0.583269
-0.420808 1.580126 -0.584899
-0.418269 1.578250 -0.585473
-0.415645 1.576748 -0.586493
-0.413177 1.574562 -0.586695
-0.410615 1.572791 -0.587393
-0.408074 1.570942 -0.587995
-0.405475 1.569332 -0.588889
-0.403197 1.566489 -0.588273
-0.400883 1.563854 -0.587897
-0.398561 1.561303 -0.587616
-0.396117 1.559239 -0.587932
-0.393893 1.556444 -0.587327
-0.391148 1.555470 -0.589007
-0.388564 1.553943 -0.589996
-0.386187 1.551757 -0.590149
-0.383789 1.549670 -0.590425
-0.381487 1.547317 -0.590354
-0.379127 1.545181 -0.590559
-0.376683 1.543319 -0.591117
-0.374459 1.540847 -0.590874
-0.372449 1.537822 -0.589894
-0.370512 1.534661 -0.588715
-0.368325 1.532240 -0.588507
-0.366072 1.530032 -0.588578
-0.363722 1.528101 -0.589018
-0.361951 1.524731 -0.587503
-0.360105 1.521619 -0.586317
-0.358234 1.518631 -0.585284
-0.355816 1.516993 -0.586103
-0.353872 1.514256 -0.585398
-0.351710 1.512059 -0.585437
-0.349697 1.509552 -0.585036
-0.347577 1.507314 -0.585008
-0.345599 1.504793 -0.584571
-0.343451 1.502662 -0.584688
-0.341438 1.500269 -0.584423
-0.339482 1.497785 -0.584019
-0.337385 1.495611 -0.584062
-0.335629 1.492783 -0.583139
-0.333406 1.490896 -0.583597
-0.331740 1.487959 -0.582492
-0.329515 1.486101 -0.582989
-0.326939 1.484888 -0.584467
-0.324662 1.483118 -0.585114
-0.323753 1.478937 -0.582076
-0.321072 1.477905 -0.583850
-0.318547 1.476580 -0.585190
-0.316811 1.473917 -0.584457
-0.315554 1.470494 -0.582517
-0.312682 1.469735 -0.584767
-0.310844 1.467294 -0.584365
-0.309074 1.464764 -0.583813
-0.307288 1.462279 -0.583326
-0.305696 1.459520 -0.582384
-0.303540 1.457628 -0.582850
-0.301521 1.455534 -0.582987
-0.299396 1.453596 -0.583387
-0.297476 1.451369 -0.583304
-0.295468 1.449273 -0.583443
-0.293235 1.447489 -0.584112
-0.291262 1.445348 -0.584181
-0.289704 1.442659 -0.583307
-0.288101 1.440052 -0.582560
-0.285940 1.438182 -0.583091
-0.284409 1.435509 -0.582216
-0.283320 1.432306 -0.580385
-0.281501 1.430035 -0.580196
-0.278610 1.429069 -0.582353
-0.276293 1.427386 -0.583244
-0.274581 1.424984 -0.582831
-0.273392 1.421988 -0.581320
-0.271142 1.420227 -0.582078
-0.269012 1.418321 -0.582580
-0.267142 1.416125 -0.582541
-0.265725 1.413441 -0.581573
-0.262874 1.412305 -0.583563
-0.261986 1.409079 -0.581541
-0.260371 1.406639 -0.581022
-0.258700 1.404267 -0.580627
-0.256744 1.402187 -0.580810
-0.254610 1.400283 -0.581348
-0.252659 1.398195 -0.581525
-0.250925 1.395897 -0.581281
-0.248980 1.393803 -0.581454
-0.247437 1.391336 -0.580858
-0.245739 1.389020 -0.580571
-0.243486 1.387207 -0.581342
-0.242078 1.384638 -0.580520
-0.240112 1.382566 -0.580755
-0.238429 1.380249 -0.580466
-0.237298 1.377472 -0.579168
-0.235276 1.375452 -0.579522
-0.234069 1.372763 -0.578393
-0.231716 1.371008 -0.579353
-0.230299 1.368501 -0.578626
-0.228320 1.366440 -0.578911
-0.226727 1.364080 -0.578515
-0.224606 1.362120 -0.579055
-0.222008 1.360504 -0.580426
-0.221036 1.357688 -0.578959
-0.218946 1.355689 -0.579443
-0.218334 1.352643 -0.577387
-0.215295 1.351300 -0.579500
-0.213160 1.349313 -0.580057
-0.211633 1.346910 -0.579585
-0.210407 1.344314 -0.578619
-0.209050 1.341812 -0.577885
-0.207307 1.339563 -0.577800
-0.205446 1.337386 -0.577915
-0.203739 1.335109 -0.577777
-0.201934 1.332891 -0.577804
-0.200438 1.330486 -0.577332
-0.198648 1.328254 -0.577340
-0.196283 1.326347 -0.578272
-0.194231 1.324248 -0.578696
-0.193132 1.321616 -0.577611
-0.191508 1.319276 -0.577364
-0.189772 1.316994 -0.577299
-0.187469 1.315003 -0.578117
-0.185190 1.312985 -0.578891
-0.183560 1.310627 -0.578660
-0.182454 1.308009 -0.577630
-0.181200 1.305469 -0.576837
-0.179555 1.303118 -0.576648
-0.178196 1.300630 -0.576029
-0.176924 1.298105 -0.575288
-0.174470 1.296107 -0.576317
-0.172435 1.293907 -0.576716
-0.170495 1.291655 -0.576970
-0.169275 1.289092 -0.576165
-0.167247 1.286862 -0.576549
-0.165212 1.284622 -0.576940
-0.163112 1.282394 -0.577421
-0.162029 1.279765 -0.576434
-0.160557 1.277284 -0.576013
-0.158610 1.274973 -0.576274
-0.156450 1.272727 -0.576832
-0.154704 1.270321 -0.576800
-0.153022 1.267885 -0.576678
-0.150897 1.265588 -0.577175
-0.149424 1.263065 -0.576761
-0.148186 1.260465 -0.576024
-0.145855 1.258199 -0.576796
-0.144220 1.255707 -0.576606
-0.142731 1.253166 -0.576218
-0.140185 1.250918 -0.577263
-0.138346 1.248456 -0.577345
-0.137270 1.245781 -0.576396
-0.136549 1.243017 -0.574980
-0.134318 1.240639 -0.575583
-0.132705 1.238097 -0.575360
-0.131522 1.235448 -0.574568
-0.130224 1.232828 -0.573932
-0.128319 1.230342 -0.574091
-0.126044 1.227926 -0.574724
-0.124613 1.225326 -0.574257
-0.122098 1.222941 -0.575187
-0.121105 1.220252 -0.574152
-0.119993 1.217595 -0.573273
-0.117700 1.215153 -0.573899
-0.114246 1.212900 -0.575982
-0.112922 1.210281 -0.575362
-0.111733 1.207650 -0.574571
-0.109191 1.205232 -0.575472
-0.107148 1.202739 -0.575741
-0.105732 1.200166 -0.575226
-0.104066 1.197640 -0.575020
-0.102809 1.195078 -0.574310
-0.101575 1.192533 -0.573573
-0.099944 1.190053 -0.573321
-0.096737 1.187750 -0.574971
-0.094643 1.185343 -0.575264
-0.093017 1.182912 -0.574990
-0.090045 1.180616 -0.576321
-0.088712 1.178205 -0.575689
-0.087827 1.175794 -0.574531
-0.087202 1.173404 -0.573075
-0.085888 1.171097 -0.572437
-0.083948 1.168858 -0.572534
-0.081960 1.166652 -0.572685
-0.079536 1.164495 -0.573338
-0.076615 1.162384 -0.574558
-0.073477 1.160303 -0.576018
-0.071905 1.158201 -0.575677
-0.072189 1.156093 -0.573229
-0.071017 1.154068 -0.572453
-0.069758 1.152085 -0.571784
-0.070575 1.150124 -0.568791
-0.070698 1.148225 -0.566603
-0.073429 1.146374 -0.561530
-0.499438 1.589804 -0.516113
-0.497785 1.592827 -0.521207
-0.496159 1.593323 -0.523805
-0.494504 1.593284 -0.525891
-0.492788 1.593522 -0.528285
-0.491002 1.594191 -0.531151
-0.489113 1.595770 -0.534985
-0.487244 1.595875 -0.537339
-0.485315 1.596121 -0.539866
-0.483383 1.595601 -0.541623
-0.481188 1.598171 -0.546643
-0.479101 1.598276 -0.549117
-0.476907 1.599072 -0.552352
-0.474692 1.599412 -0.555135
-0.472431 1.599655 -0.557844
-0.470027 1.600847 -0.561603
-0.467596 1.601691 -0.565023
-0.465095 1.602634 -0.568586
-0.462547 1.603464 -0.572062
-0.459932 1.604387 -0.575674
-0.457272 1.605196 -0.579195
-0.454595 1.605710 -0.582422
-0.451832 1.606493 -0.585981
-0.449179 1.606101 -0.588254
-0.446726 1.604055 -0.588681
-0.445755 1.592039 -0.577807
-0.442975 1.592281 -0.580780
-0.440566 1.590000 -0.580889
-0.438045 1.588347 -0.581716
-0.435617 1.586084 -0.581838
-0.433157 1.583980 -0.582141
-0.430623 1.582246 -0.582873
-0.428117 1.580332 -0.583393
-0.425650 1.578211 -0.583668
-0.423059 1.576684 -0.584643
-0.420428 1.575315 -0.585812
-0.418246 1.571892 -0.584515
-0.415424 1.571359 -0.586691
-0.412928 1.569371 -0.587115
-0.410689 1.566340 -0.586259
-0.407863 1.565738 -0.588375
-0.405342 1.563890 -0.588965
-0.402990 1.561419 -0.588780
-0.400662 1.558908 -0.588535
-0.398389 1.556249 -0.588095
-0.396054 1.553869 -0.587995
-0.393659 1.551737 -0.588203
-0.390962 1.550642 -0.589732
-0.388276 1.549490 -0.591200
-0.385938 1.547226 -0.591239
-0.383521 1.545243 -0.591637
-0.381126 1.543215 -0.591976
-0.378992 1.540446 -0.591338
-0.376670 1.538275 -0.591478
-0.374273 1.536347 -0.591938
-0.371956 1.534217 -0.592127
-0.370140 1.530763 -0.590530
-0.367910 1.528484 -0.590501
-0.365666 1.526273 -0.590559
-0.363429 1.524074 -0.590630
-0.361705 1.520626 -0.588976
-0.359911 1.517428 -0.587642
-0.357859 1.514906 -0.587234
-0.355530 1.513071 -0.587781
-0.353702 1.510096 -0.586720
-0.351674 1.507624 -0.586357
-0.349992 1.504423 -0.584944
-0.348309 1.501283 -0.583597
-0.345900 1.499736 -0.584538
-0.343883 1.497372 -0.584296
-0.341761 1.495246 -0.584398
-0.339667 1.493080 -0.584440
-0.337605 1.490867 -0.584408
-0.335480 1.488794 -0.584585
-0.333322 1.486795 -0.584871
-0.331431 1.484307 -0.584419
-0.329294 1.482295 -0.584684
-0.327188 1.480234 -0.584876
-0.325703 1.477085 -0.583388
-0.323988 1.474381 -0.582570
-0.321774 1.472560 -0.583121
-0.319768 1.470391 -0.583129
-0.318342 1.467272 -0.581630
-0.316373 1.465079 -0.581587
-0.314038 1.463482 -0.582501
-0.311855 1.461637 -0.583025
-0.310069 1.459177 -0.582552
-0.308319 1.456681 -0.582013
-0.306168 1.454803 -0.582485
-0.304619 1.452040 -0.581492
-0.302175 1.450597 -0.582697
-0.299776 1.449075 -0.583783
-0.298238 1.446334 -0.582813
-0.295417 1.445385 -0.584896
-0.293348 1.443383 -0.585195
-0.291968 1.440463 -0.583901
-0.290011 1.438331 -0.583967
-0.288553 1.435558 -0.582904
-0.286830 1.433146 -0.582466
-0.285330 1.430468 -0.581545
-0.283417 1.428320 -0.581567
-0.281153 1.426600 -0.582369
-0.278601 1.425215 -0.583795
-0.277151 1.422515 -0.582817
-0.275956 1.419542 -0.581316
-0.273800 1.417690 -0.581894
-0.271638 1.415838 -0.582483
-0.270183 1.413201 -0.581585
-0.268133 1.411227 -0.581949
-0.266753 1.408534 -0.580926
-0.264740 1.406526 -0.581225
-0.262802 1.404437 -0.581372
-0.261218 1.401988 -0.580809
-0.259315 1.399870 -0.580900
-0.256834 1.398322 -0.582146
-0.254947 1.396181 -0.582206
-0.253583 1.393539 -0.581241
-0.251439 1.391647 -0.581816
-0.249570 1.389493 -0.581857
-0.248114 1.386964 -0.581106
-0.246752 1.384363 -0.580194
-0.244387 1.382660 -0.581199
-0.243294 1.379838 -0.579798
-0.242044 1.377173 -0.578716
-0.239002 1.376030 -0.580984
-0.237433 1.373634 -0.580504
-0.235813 1.371289 -0.580130
-0.233879 1.369199 -0.580336
-0.232331 1.366801 -0.579844
-0.230944 1.364286 -0.579073
-0.229080 1.362144 -0.579169
-0.227390 1.359869 -0.578957
-0.225910 1.357442 -0.578382
-0.223996 1.355336 -0.578578
-0.222383 1.353012 -0.578250
-0.219977 1.351246 -0.579303
-0.218968 1.348501 -0.577941
-0.216652 1.346659 -0.578836
-0.214597 1.344629 -0.579280
-0.212653 1.342517 -0.579531
-0.211010 1.340206 -0.579278
-0.209721 1.337672 -0.578439
-0.208299 1.335228 -0.577833
-0.206628 1.332942 -0.577649
-0.204689 1.330816 -0.577909
-0.202875 1.328609 -0.577963
-0.201226 1.326303 -0.577752
-0.199582 1.323993 -0.577539
-0.197999 1.321647 -0.577230
-0.196147 1.319448 -0.577357
-0.194342 1.317218 -0.577411
-0.192621 1.314939 -0.577333
-0.190785 1.312715 -0.577438
-0.188982 1.310468 -0.577492
-0.187179 1.308215 -0.577547
-0.186443 1.305434 -0.575955
-0.184160 1.303409 -0.576757
-0.182867 1.300903 -0.576040
-0.180883 1.298717 -0.576382
-0.179183 1.296393 -0.576292
-0.177754 1.293944 -0.575795
-0.174940 1.292093 -0.577377
-0.173733 1.289535 -0.576552
-0.171811 1.287277 -0.576794
-0.170679 1.284687 -0.575872
-0.169144 1.282261 -0.575549
-0.166702 1.280183 -0.576551
-0.165112 1.277762 -0.576307
-0.163155 1.275472 -0.576596
-0.161301 1.273132 -0.576734
-0.159681 1.270700 -0.576535
-0.157589 1.268424 -0.577009
-0.155999 1.265965 -0.576767
-0.153823 1.263692 -0.577351
-0.152428 1.261154 -0.576835
-0.151420 1.258492 -0.575783
-0.149147 1.256217 -0.576494
-0.146951 1.253903 -0.577092
-0.145305 1.251415 -0.576924
-0.144397 1.248713 -0.575748
-0.141170 1.246646 -0.577736
-0.140700 1.243822 -0.575970
-0.138936 1.241340 -0.575962
-0.137608 1.238742 -0.575365
-0.135542 1.236321 -0.575757
-0.134174 1.233727 -0.575215
-0.132890 1.231113 -0.574563
-0.131141 1.228601 -0.574525
-0.129281 1.226108 -0.574630
-0.127480 1.223598 -0.574653
-0.125318 1.221153 -0.575140
-0.123645 1.218609 -0.574987
-0.123516 1.215788 -0.572843
-0.121732 1.213275 -0.572835
-0.118697 1.210970 -0.574417
-0.115480 1.208678 -0.576211
-0.114317 1.206059 -0.575388
-0.112327 1.203573 -0.575608
-0.110854 1.201021 -0.575176
-0.109247 1.198498 -0.574907
-0.108227 1.195916 -0.573909
-0.105307 1.193579 -0.575262
-0.104033 1.191058 -0.574573
-0.102812 1.188555 -0.573822
-0.100987 1.186135 -0.573810
-0.098552 1.183790 -0.574533
-0.096629 1.181415 -0.574628
-0.095211 1.179021 -0.574111
-0.091343 1.176836 -0.576528
-0.092161 1.174336 -0.573337
-0.090675 1.172036 -0.572905
-0.089114 1.169774 -0.572564
-0.087178 1.167563 -0.572665
-0.085198 1.165384 -0.572815
-0.083038 1.163243 -0.573173
-0.078778 1.161206 -0.575967
-0.079044 1.159041 -0.573503
-0.077551 1.156976 -0.573088
-0.074324 1.154985 -0.574665
-0.072035 1.153001 -0.575160
-0.071154 1.151032 -0.574051
-0.073781 1.149082 -0.568984
-0.072373 1.147217 -0.568511
-0.066680 1.145386 -0.572856
-0.498879 1.593669 -0.525304
-0.497307 1.593047 -0.526791
-0.495726 1.591555 -0.527410
-0.494013 1.592332 -0.530371
-0.492242 1.593199 -0.533458
-0.490384 1.594678 -0.537216
-0.488530 1.594967 -0.539776
-0.486692 1.594049 -0.541103
-0.484626 1.596098 -0.545567
-0.482621 1.596203 -0.548024
-0.480445 1.597960 -0.552265
-0.478346 1.597821 -0.554525
-0.476160 1.598125 -0.557287
-0.473922 1.598404 -0.560050
-0.471624 1.598754 -0.562920
-0.469136 1.600516 -0.567358
-0.466761 1.600488 -0.569880
-0.464391 1.599944 -0.571860
-0.461621 1.602595 -0.577394
-0.458957 1.603692 -0.581255
-0.456265 1.604537 -0.584871
-0.453738 1.603676 -0.586605
-0.451149 1.603017 -0.588581
-0.449914 1.592490 -0.579364
-0.447512 1.590499 -0.579791
-0.445295 1.587200 -0.578716
-0.442734 1.586080 -0.580140
-0.440094 1.585308 -0.581975
-0.437532 1.583930 -0.583117
-0.435197 1.581200 -0.582679
-0.432458 1.580669 -0.584822
-0.430118 1.577927 -0.584360
-0.427693 1.575650 -0.584439
-0.425156 1.573930 -0.585180
-0.422692 1.571843 -0.585480
-0.420513 1.568461 -0.584205
-0.417883 1.567173 -0.585461
-0.415323 1.565552 -0.586315
-0.412846 1.563581 -0.586739
-0.410099 1.562715 -0.588530
-0.407458 1.561393 -0.589766
-0.405181 1.558655 -0.589233
-0.402791 1.556403 -0.589300
-0.400496 1.553841 -0.588968
-0.398147 1.551527 -0.588941
-0.395717 1.549530 -0.589314
-0.393239 1.547721 -0.589926
-0.390662 1.546255 -0.590982
-0.388365 1.543892 -0.590876
-0.386014 1.541739 -0.591038
-0.383305 1.540712 -0.592680
-0.380985 1.538504 -0.592770
-0.378951 1.535494 -0.591784
-0.376427 1.533952 -0.592752
-0.374131 1.531776 -0.592869
-0.372045 1.529056 -0.592245
-0.370535 1.524853 -0.589583
-0.367723 1.524161 -0.591707
-0.365496 1.521940 -0.591739
-0.363857 1.518277 -0.589764
-0.361781 1.515769 -0.589374
-0.359848 1.512957 -0.588549
-0.357674 1.510761 -0.588581
-0.355571 1.508424 -0.588410
-0.353562 1.505905 -0.587971
-0.351984 1.502463 -0.586193
-0.350075 1.499810 -0.585534
-0.347996 1.497559 -0.585451
-0.345858 1.495452 -0.585575
-0.343931 1.492929 -0.585083
-0.341843 1.490761 -0.585111
-0.339612 1.488894 -0.585586
-0.337438 1.486921 -0.585906
-0.335210 1.485061 -0.586398
-0.333766 1.481732 -0.584653
-0.331809 1.479405 -0.584422
-0.329413 1.477892 -0.585444
-0.327798 1.474980 -0.584300
-0.325882 1.472632 -0.584023
-0.323921 1.470380 -0.583893
-0.322030 1.468026 -0.583598
-0.320272 1.465468 -0.582969
-0.318382 1.463149 -0.582716
-0.316352 1.461070 -0.582847
-0.314127 1.459307 -0.583495
-0.312157 1.457144 -0.583493
-0.310470 1.454558 -0.582791
-0.309026 1.451630 -0.581508
-0.306719 1.450008 -0.582398
-0.304592 1.448117 -0.582845
-0.302785 1.445767 -0.582516
-0.300591 1.443975 -0.583138
-0.298827 1.441583 -0.582733
-0.296713 1.439680 -0.583173
-0.294780 1.437534 -0.583192
-0.292788 1.435470 -0.583359
-0.291248 1.432823 -0.582489
-0.289293 1.430727 -0.582593
-0.287217 1.428786 -0.582980
-0.285521 1.426373 -0.582514
-0.283184 1.424751 -0.583492
-0.281282 1.422596 -0.583501
-0.279217 1.420638 -0.583877
-0.277273 1.418536 -0.583989
-0.276390 1.415228 -0.581820
-0.274246 1.413373 -0.582391
-0.273201 1.410299 -0.580627
-0.270989 1.408525 -0.581356
-0.269170 1.406321 -0.581258
-0.267147 1.404335 -0.581591
-0.265416 1.402045 -0.581324
-0.263864 1.399578 -0.580702
-0.261968 1.397468 -0.580792
-0.259686 1.395741 -0.581665
-0.257531 1.393877 -0.582276
-0.255763 1.391636 -0.582116
-0.254539 1.388886 -0.580892
-0.251838 1.387525 -0.582581
-0.250004 1.385348 -0.582566
-0.248222 1.383126 -0.582455
-0.247058 1.380361 -0.581167
-0.245689 1.377794 -0.580291
-0.243770 1.375709 -0.580471
-0.241726 1.373728 -0.580889
-0.239365 1.372002 -0.581896
-0.237399 1.369941 -0.582162
-0.236421 1.367085 -0.580610
-0.234759 1.364789 -0.580334
-0.233073 1.362514 -0.580107
-0.231383 1.360245 -0.579895
-0.229775 1.357917 -0.579543
-0.228223 1.355552 -0.579100
-0.226725 1.353152 -0.578570
-0.224424 1.351329 -0.579461
-0.222526 1.349212 -0.579643
-0.220434 1.347223 -0.580161
-0.219244 1.344615 -0.579117
-0.217716 1.342243 -0.578671
-0.215468 1.340346 -0.579460
-0.214476 1.337629 -0.578114
-0.214183 1.334485 -0.575606
-0.210839 1.333265 -0.578246
-0.208914 1.331143 -0.578494
-0.207066 1.328967 -0.578614
-0.205302 1.326737 -0.578595
-0.203533 1.324507 -0.578588
-0.201955 1.322165 -0.578272
-0.200449 1.319783 -0.577845
-0.198545 1.317618 -0.578065
-0.197395 1.315043 -0.577079
-0.196255 1.312470 -0.576089
-0.193891 1.310537 -0.577051
-0.192305 1.308192 -0.576777
-0.190791 1.305810 -0.576397
-0.189150 1.303489 -0.576219
-0.187778 1.301035 -0.575628
-0.185138 1.299176 -0.576998
-0.183364 1.296898 -0.577029
-0.182091 1.294388 -0.576295
-0.179654 1.292392 -0.577336
-0.178614 1.289775 -0.576259
-0.176089 1.287789 -0.577423
-0.174647 1.285336 -0.576959
-0.173254 1.282862 -0.576427
-0.171818 1.280403 -0.575964
-0.169919 1.278120 -0.576186
-0.168141 1.275781 -0.576230
-0.165824 1.273632 -0.577057
-0.164422 1.271136 -0.576552
-0.162511 1.268816 -0.576784
-0.161188 1.266283 -0.576169
-0.158986 1.264043 -0.576815
-0.157510 1.261550 -0.576422
-0.155416 1.259249 -0.576906
-0.153983 1.256730 -0.576453
-0.152825 1.254124 -0.575619
-0.150384 1.251894 -0.576578
-0.148934 1.249363 -0.576152
-0.148594 1.246522 -0.574198
-0.146190 1.244249 -0.575094
-0.143946 1.241916 -0.575759
-0.141743 1.239556 -0.576359
-0.141373 1.236734 -0.574471
-0.139791 1.234215 -0.574231
-0.137021 1.231963 -0.575581
-0.135481 1.229417 -0.575275
-0.133727 1.226916 -0.575250
-0.132137 1.224376 -0.575007
-0.130997 1.221745 -0.574170
-0.128631 1.219356 -0.574941
-0.127884 1.216658 -0.573591
-0.125939 1.214186 -0.573803
-0.124074 1.211698 -0.573906
-0.122116 1.209226 -0.574121
-0.120339 1.206725 -0.574098
-0.116355 1.204557 -0.576882
-0.116467 1.201785 -0.574443
-0.113554 1.199454 -0.575838
-0.112061 1.196935 -0.575432
-0.110241 1.194472 -0.575433
-0.108155 1.192050 -0.575760
-0.106676 1.189575 -0.575328
-0.105388 1.187101 -0.574660
-0.103600 1.184698 -0.574607
-0.101281 1.182363 -0.575199
-0.099080 1.180034 -0.575639
-0.098850 1.177572 -0.573684
-0.097724 1.175217 -0.572822
-0.095129 1.172992 -0.573730
-0.093494 1.170728 -0.573480
-0.091805 1.168499 -0.573293
-0.090142 1.166300 -0.573076
-0.087783 1.164164 -0.573682
-0.085427 1.162054 -0.574278
-0.084373 1.159930 -0.573344
-0.082976 1.157856 -0.572819
-0.079756 1.155863 -0.574414
-0.077426 1.153874 -0.574969
-0.075105 1.151916 -0.575510
-0.075780 1.149961 -0.572616
-0.073822 1.148075 -0.572754
-0.073160 1.146223 -0.571420
-0.077105 1.144429 -0.564890
-0.500030 1.592445 -0.527322
-0.498482 1.591676 -0.528667
-0.496854 1.592031 -0.531189
-0.495203 1.591699 -0.533031
-0.493461 1.592432 -0.536002
-0.491624 1.594032 -0.539913
-0.489855 1.593069 -0.541179
-0.488028 1.592408 -0.542780
-0.486004 1.594304 -0.547109
-0.483952 1.595564 -0.550809
-0.481790 1.597538 -0.555312
-0.479730 1.597152 -0.557325
-0.477703 1.595723 -0.558233
-0.475525 1.595678 -0.560655
-0.473157 1.597201 -0.564816
-0.470772 1.598208 -0.568452
-0.468400 1.598454 -0.571286
-0.465840 1.600021 -0.575613
-0.463362 1.600221 -0.578460
-0.460625 1.602255 -0.583389
-0.458004 1.602735 -0.586616
-0.455529 1.601635 -0.588086
-0.453515 1.596788 -0.585301
-0.451697 1.590608 -0.580958
-0.449588 1.586690 -0.579165
-0.447143 1.585069 -0.580004
-0.444624 1.583805 -0.581261
-0.442068 1.582638 -0.582639
-0.439762 1.579864 -0.582138
-0.437250 1.578277 -0.583026
-0.434498 1.577949 -0.585413
-0.432200 1.575051 -0.584749
-0.429813 1.572655 -0.584673
-0.427478 1.570016 -0.584295
-0.425020 1.568007 -0.584671
-0.422450 1.566516 -0.585676
-0.420003 1.564441 -0.585969
-0.417748 1.561542 -0.585239
-0.415401 1.559104 -0.585065
-0.412395 1.559418 -0.588318
-0.409974 1.557280 -0.588522
-0.407965 1.553564 -0.586728
-0.405361 1.552217 -0.587915
-0.402793 1.550725 -0.588924
-0.400277 1.549045 -0.589695
-0.397834 1.547120 -0.590152
-0.395299 1.545526 -0.591036
-0.392891 1.543518 -0.591385
-0.390507 1.541456 -0.591660
-0.388140 1.539369 -0.591900
-0.386082 1.536360 -0.590910
-0.383879 1.533858 -0.590582
-0.381233 1.532708 -0.592060
-0.378995 1.530366 -0.591939
-0.376535 1.528689 -0.592717
-0.374550 1.525714 -0.591722
-0.372017 1.524276 -0.592825
-0.370209 1.520926 -0.591290
-0.368243 1.518063 -0.590410
-0.365702 1.516701 -0.591620
-0.364428 1.512206 -0.588422
-0.361886 1.510896 -0.589698
-0.359682 1.508773 -0.589827
-0.357443 1.506755 -0.590104
-0.355369 1.504379 -0.589862
-0.353302 1.502015 -0.589633
-0.351745 1.498561 -0.587803
-0.349767 1.496080 -0.587380
-0.347897 1.493406 -0.586662
-0.345841 1.491152 -0.586558
-0.343794 1.488901 -0.586454
-0.341680 1.486805 -0.586580
-0.339508 1.484836 -0.586898
-0.338099 1.481409 -0.584991
-0.336131 1.479097 -0.584770
-0.333839 1.477407 -0.585508
-0.331915 1.475044 -0.585205
-0.330378 1.472009 -0.583843
-0.327990 1.470513 -0.584890
-0.325497 1.469188 -0.586222
-0.324275 1.465689 -0.584090
-0.322299 1.463505 -0.584047
-0.320444 1.461135 -0.583700
-0.318520 1.458893 -0.583556
-0.316740 1.456435 -0.583056
-0.314635 1.454504 -0.583418
-0.312395 1.452782 -0.584135
-0.310567 1.450432 -0.583805
-0.308823 1.447973 -0.583286
-0.307053 1.445571 -0.582856
-0.305278 1.443192 -0.582457
-0.303267 1.441160 -0.582653
-0.301135 1.439298 -0.583148
-0.299363 1.436942 -0.582784
-0.297349 1.434924 -0.583010
-0.295731 1.432385 -0.582314
-0.293933 1.430099 -0.582059
-0.291830 1.428211 -0.582521
-0.289908 1.426094 -0.582573
-0.288193 1.423723 -0.582160
-0.285793 1.422198 -0.583307
-0.284538 1.419287 -0.581886
-0.282591 1.417219 -0.582029
-0.279374 1.416626 -0.584970
-0.277549 1.414398 -0.584835
-0.276459 1.411349 -0.583121
-0.275097 1.408634 -0.582026
-0.273218 1.406501 -0.582053
-0.271032 1.404699 -0.582738
-0.269683 1.402008 -0.581664
-0.268273 1.399399 -0.580739
-0.266547 1.397128 -0.580486
-0.264756 1.394930 -0.580376
-0.262949 1.392751 -0.580308
-0.260960 1.390751 -0.580612
-0.258910 1.388807 -0.581041
-0.257473 1.386280 -0.580249
-0.255246 1.384499 -0.581036
-0.252082 1.383561 -0.583654
-0.250747 1.380943 -0.582676
-0.249314 1.378427 -0.581907
-0.247778 1.376014 -0.581353
-0.245836 1.373955 -0.581584
-0.243785 1.371984 -0.582024
-0.242572 1.369315 -0.580884
-0.241142 1.366837 -0.580168
-0.238814 1.365089 -0.581137
-0.236988 1.362931 -0.581170
-0.235240 1.360712 -0.581063
-0.233511 1.358479 -0.580928
-0.231985 1.356095 -0.580429
-0.230978 1.353334 -0.579007
-0.229112 1.351214 -0.579143
-0.226667 1.349502 -0.580310
-0.224766 1.347392 -0.580503
-0.223773 1.344653 -0.579106
-0.221730 1.342641 -0.579560
-0.219819 1.340534 -0.579783
-0.218418 1.338087 -0.579127
-0.217462 1.335361 -0.577721
-0.216115 1.332898 -0.576999
-0.213352 1.331317 -0.578684
-0.211062 1.329425 -0.579558
-0.209265 1.327223 -0.579600
-0.207806 1.324819 -0.579081
-0.206743 1.322189 -0.577917
-0.204565 1.320201 -0.578599
-0.202293 1.318253 -0.579432
-0.202611 1.314878 -0.576048
-0.200237 1.312981 -0.577053
-0.198532 1.310716 -0.576975
-0.196804 1.308458 -0.576937
-0.194822 1.306324 -0.577303
-0.193118 1.304043 -0.577228
-0.191776 1.301581 -0.576588
-0.189850 1.299399 -0.576867
-0.188000 1.297173 -0.577028
-0.186070 1.294975 -0.577312
-0.184113 1.292779 -0.577635
-0.183191 1.290119 -0.576372
-0.181507 1.287794 -0.576283
-0.179318 1.285675 -0.576961
-0.177068 1.283566 -0.577723
-0.175867 1.281019 -0.576907
-0.174193 1.278661 -0.576805
-0.172342 1.276363 -0.576965
-0.170185 1.274170 -0.577578
-0.169167 1.271545 -0.576510
-0.167205 1.269262 -0.576833
-0.165646 1.266826 -0.576565
-0.164216 1.264341 -0.576113
-0.162899 1.261816 -0.575503
-0.160207 1.259733 -0.576866
-0.158412 1.257344 -0.576937
-0.157033 1.254818 -0.576416
-0.155872 1.252224 -0.575591
-0.154787 1.249609 -0.574666
-0.152996 1.247196 -0.574734
-0.150252 1.245034 -0.576125
-0.149025 1.242446 -0.575401
-0.147587 1.239913 -0.574971
-0.145217 1.237609 -0.575821
-0.143990 1.235013 -0.575100
-0.142812 1.232407 -0.574317
-0.140076 1.230156 -0.575643
-0.139393 1.227436 -0.574191
-0.137838 1.224911 -0.573917
-0.136671 1.222307 -0.573125
-0.133604 1.220081 -0.574855
-0.133274 1.217317 -0.572953
-0.130739 1.214972 -0.573961
-0.128741 1.212523 -0.574253
-0.126240 1.210155 -0.575192
-0.124568 1.207647 -0.575043
-0.123279 1.205086 -0.574396
-0.120661 1.202730 -0.575457
-0.117977 1.200379 -0.576587
-0.117083 1.197788 -0.575425
-0.114639 1.195413 -0.576230
-0.112378 1.193020 -0.576794
-0.110764 1.190562 -0.576535
-0.109199 1.188116 -0.576212
-0.107644 1.185690 -0.575875
-0.106162 1.183279 -0.575446
-0.103581 1.180987 -0.576371
-0.101763 1.178648 -0.576348
-0.100634 1.176280 -0.575480
-0.100450 1.173883 -0.573467
-0.097469 1.171704 -0.574854
-0.095846 1.169464 -0.574591
-0.094445 1.167244 -0.574061
-0.092193 1.165098 -0.574551
-0.089563 1.162994 -0.575485
-0.087775 1.160884 -0.575412
-0.086658 1.158787 -0.574548
-0.085417 1.156733 -0.573838
-0.083033 1.154743 -0.574471
-0.080348 1.152787 -0.575450
-0.079673 1.150834 -0.574092
-0.080034 1.148919 -0.571552
-0.078465 1.147062 -0.571254
-0.076312 1.145241 -0.571630
-0.072376 1.143441 -0.574039
-0.499580 1.592514 -0.532818
-0.498040 1.590660 -0.533076
-0.496392 1.590849 -0.535471
-0.494650 1.592165 -0.539073
-0.492903 1.592275 -0.541449
-0.491152 1.591426 -0.542839
-0.489336 1.591034 -0.544732
-0.487336 1.593024 -0.549191
-0.485326 1.594085 -0.552701
-0.483324 1.594108 -0.555130
-0.481271 1.594121 -0.557575
-0.479129 1.594641 -0.560599
-0.476940 1.595029 -0.563511
-0.474649 1.595988 -0.567080
-0.472400 1.595794 -0.569413
-0.469994 1.596745 -0.573041
-0.467410 1.598874 -0.578022
-0.464947 1.599172 -0.580998
-0.462345 1.600260 -0.584893
-0.459776 1.600541 -0.587911
-0.457402 1.598824 -0.588679
-0.455486 1.593328 -0.585118
-0.453779 1.586421 -0.579888
-0.451450 1.584250 -0.580085
-0.449031 1.582600 -0.580885
-0.446476 1.581711 -0.582582
-0.444179 1.579032 -0.582181
-0.441882 1.576333 -0.581747
-0.439470 1.574303 -0.582097
-0.436737 1.574043 -0.584563
-0.434318 1.571921 -0.584808
-0.431907 1.569739 -0.584976
-0.429526 1.567403 -0.584950
-0.427112 1.565239 -0.585128
-0.424442 1.564296 -0.586803
-0.421910 1.562652 -0.587621
-0.419811 1.559072 -0.586033
-0.417353 1.557142 -0.586483
-0.414926 1.555094 -0.586781
-0.412556 1.552834 -0.586809
-0.409963 1.551490 -0.587995
-0.407716 1.548801 -0.587466
-0.405127 1.547447 -0.588641
-0.402706 1.545472 -0.589020
-0.400116 1.544121 -0.590209
-0.397627 1.542408 -0.590930
-0.395740 1.538688 -0.589011
-0.392824 1.538446 -0.591669
-0.389644 1.538987 -0.595393
-0.388737 1.532345 -0.589537
-0.386097 1.531221 -0.591037
-0.383597 1.529665 -0.591965
-0.381306 1.527505 -0.592076
-0.379053 1.525267 -0.592074
-0.376378 1.524233 -0.593729
-0.374426 1.521217 -0.592649
-0.372575 1.517997 -0.591267
-0.370084 1.516511 -0.592297
-0.368391 1.512995 -0.590470
-0.366492 1.510075 -0.589462
-0.364063 1.508501 -0.590361
-0.361528 1.507183 -0.591636
-0.359378 1.504953 -0.591604
-0.357125 1.502982 -0.591946
-0.355103 1.500507 -0.591549
-0.353301 1.497578 -0.590475
-0.351908 1.493817 -0.588149
-0.349845 1.491555 -0.588029
-0.347790 1.489301 -0.587918
-0.345772 1.486991 -0.587716
-0.343687 1.484841 -0.587754
-0.341840 1.482237 -0.587094
-0.340478 1.478727 -0.585028
-0.338397 1.476648 -0.585152
-0.336441 1.474346 -0.584927
-0.335223 1.470715 -0.582609
-0.332375 1.470079 -0.584996
-0.330399 1.467865 -0.584900
-0.328581 1.465389 -0.584383
-0.326739 1.462979 -0.583961
-0.324700 1.460918 -0.584102
-0.323470 1.457533 -0.582076
-0.321121 1.456014 -0.583095
-0.319018 1.454091 -0.583458
-0.316694 1.452516 -0.584405
-0.314442 1.450820 -0.585162
-0.312476 1.448686 -0.585185
-0.311052 1.445754 -0.583848
-0.309335 1.443284 -0.583284
-0.307426 1.441108 -0.583222
-0.305565 1.438874 -0.583057
-0.303672 1.436694 -0.582983
-0.301520 1.434876 -0.583549
-0.299681 1.432632 -0.583364
-0.297858 1.430376 -0.583155
-0.295950 1.428241 -0.583162
-0.293945 1.426235 -0.583405
-0.292656 1.423326 -0.581992
-0.290666 1.421318 -0.582225
-0.288804 1.419153 -0.582171
-0.286745 1.417231 -0.582573
-0.284580 1.415430 -0.583213
-0.282825 1.413146 -0.582941
-0.281356 1.410544 -0.582050
-0.278847 1.409129 -0.583454
-0.276741 1.407249 -0.583971
-0.275891 1.403994 -0.581783
-0.272987 1.402979 -0.584021
-0.271606 1.400326 -0.583007
-0.270646 1.397253 -0.581128
-0.268892 1.395023 -0.580941
-0.267010 1.392926 -0.581027
-0.265121 1.390837 -0.581134
-0.263357 1.388626 -0.580990
-0.261452 1.386555 -0.581139
-0.258807 1.385180 -0.582781
-0.258325 1.381775 -0.580085
-0.256711 1.379445 -0.579678
-0.254369 1.377774 -0.580713
-0.252404 1.375757 -0.581003
-0.250440 1.373734 -0.581292
-0.248159 1.371979 -0.582194
-0.246185 1.369953 -0.582498
-0.244957 1.367305 -0.581385
-0.243581 1.364794 -0.580571
-0.241390 1.362945 -0.581301
-0.239308 1.361001 -0.581824
-0.237596 1.358762 -0.581658
-0.235846 1.356553 -0.581568
-0.234830 1.353795 -0.580141
-0.233376 1.351379 -0.579533
-0.231422 1.349330 -0.579839
-0.229143 1.347507 -0.580726
-0.227358 1.345325 -0.580725
-0.226008 1.342843 -0.579958
-0.223643 1.341054 -0.580991
-0.221817 1.338892 -0.581072
-0.220459 1.336420 -0.580338
-0.219180 1.333906 -0.579484
-0.217651 1.331557 -0.579070
-0.215567 1.329553 -0.579613
-0.213620 1.327456 -0.579918
-0.213534 1.324242 -0.577082
-0.211152 1.322406 -0.578136
-0.209021 1.320407 -0.578759
-0.207109 1.318274 -0.579016
-0.205449 1.315993 -0.578856
-0.204106 1.313538 -0.578180
-0.202765 1.311086 -0.577511
-0.200783 1.308973 -0.577891
-0.199105 1.306694 -0.577778
-0.196907 1.304673 -0.578504
-0.195596 1.302200 -0.577807
-0.193832 1.299949 -0.577839
-0.192309 1.297577 -0.577492
-0.190668 1.295259 -0.577335
-0.188628 1.293118 -0.577802
-0.187041 1.290762 -0.577563
-0.185619 1.288332 -0.577075
-0.184030 1.285972 -0.576847
-0.182198 1.283708 -0.576995
-0.180455 1.281400 -0.577006
-0.178738 1.279073 -0.576978
-0.176568 1.276917 -0.577633
-0.174705 1.274627 -0.577820
-0.174153 1.271840 -0.576057
-0.172083 1.269617 -0.576557
-0.170135 1.267337 -0.576874
-0.168233 1.265029 -0.577119
-0.166777 1.262559 -0.576711
-0.165566 1.260005 -0.575949
-0.163511 1.257722 -0.576415
-0.161246 1.255491 -0.577174
-0.160336 1.252831 -0.575989
-0.158713 1.250388 -0.575828
-0.156953 1.247977 -0.575861
-0.155256 1.245540 -0.575803
-0.153477 1.243119 -0.575859
-0.151856 1.240647 -0.575690
-0.149919 1.238250 -0.575960
-0.149867 1.235379 -0.573620
-0.146794 1.233249 -0.575453
-0.145575 1.230664 -0.574728
-0.143992 1.228163 -0.574504
-0.142274 1.225688 -0.574460
-0.140929 1.223132 -0.573910
-0.139555 1.220585 -0.573399
-0.137639 1.218146 -0.573614
-0.135748 1.215698 -0.573789
-0.134052 1.213213 -0.573700
-0.131843 1.210817 -0.574282
-0.129332 1.208466 -0.575253
-0.127095 1.206064 -0.575850
-0.125398 1.203580 -0.575734
-0.124668 1.200966 -0.574363
-0.120739 1.198807 -0.577121
-0.118928 1.196355 -0.577132
-0.117121 1.193914 -0.577133
-0.115524 1.191461 -0.576862
-0.113575 1.189064 -0.577032
-0.111876 1.186655 -0.576882
-0.110251 1.184258 -0.576636
-0.108046 1.181935 -0.577111
-0.107037 1.179529 -0.576092
-0.104702 1.177258 -0.576717
-0.103656 1.174913 -0.575747
-0.102879 1.172585 -0.574451
-0.100365 1.170400 -0.575284
-0.098098 1.168221 -0.575807
-0.096788 1.166021 -0.575164
-0.094854 1.163884 -0.575277
-0.092087 1.161809 -0.576388
-0.090315 1.159723 -0.576299
-0.089603 1.157641 -0.574951
-0.088280 1.155618 -0.574338
-0.086633 1.153639 -0.574111
-0.084735 1.151699 -0.574183
-0.083768 1.149783 -0.573168
-0.082013 1.147913 -0.573081
-0.081212 1.146077 -0.571891
-0.079133 1.144278 -0.572188
-0.076819 1.142509 -0.572756
-0.500779 1.589485 -0.532978
-0.499209 1.589386 -0.535060
-0.497574 1.589883 -0.537793
-0.495860 1.591124 -0.541342
-0.494146 1.590984 -0.543468
-0.492414 1.590228 -0.544965
-0.490607 1.590096 -0.547148
-0.488712 1.590712 -0.550160
-0.486753 1.591462 -0.553351
-0.484764 1.591784 -0.556112
-0.482753 1.591638 -0.558394
-0.480510 1.594009 -0.563459
-0.478390 1.593825 -0.565762
-0.476171 1.594252 -0.568767
-0.473927 1.594332 -0.571416
-0.471551 1.595275 -0.575058
-0.469026 1.597146 -0.579780
-0.466512 1.598232 -0.583663
-0.464004 1.598692 -0.586872
-0.461677 1.597079 -0.587744
-0.459456 1.594337 -0.587323
-0.458034 1.585061 -0.579347
-0.455599 1.584040 -0.580867
-0.453184 1.582647 -0.581964
-0.450908 1.580102 -0.581717
-0.448566 1.577946 -0.581920
-0.446176 1.576028 -0.582401
-0.443877 1.573457 -0.582101
-0.441596 1.570765 -0.581648
-0.439231 1.568559 -0.581768
-0.436536 1.568155 -0.584068
-0.433963 1.566961 -0.585422
-0.431753 1.563815 -0.584392
-0.429314 1.561877 -0.584832
-0.426642 1.561052 -0.586648
-0.424130 1.559398 -0.587444
-0.421629 1.557681 -0.588163
-0.419344 1.555007 -0.587675
-0.416797 1.553501 -0.588656
-0.414449 1.551158 -0.588573
-0.412477 1.547343 -0.586596
-0.409916 1.545946 -0.587705
-0.407600 1.543611 -0.587605
-0.405306 1.541234 -0.587442
-0.402615 1.540322 -0.589190
-0.400146 1.538603 -0.589888
-0.398174 1.535208 -0.588365
-0.395491 1.534261 -0.590083
-0.393342 1.531562 -0.589465
-0.390860 1.529970 -0.590328
-0.388252 1.528772 -0.591729
-0.385816 1.527046 -0.592421
-0.383544 1.524848 -0.592467
-0.381246 1.522756 -0.592655
-0.378768 1.521196 -0.593579
-0.376843 1.518122 -0.592393
-0.375002 1.514895 -0.590972
-0.372517 1.513427 -0.592019
-0.369569 1.513143 -0.594760
-0.367756 1.509957 -0.593373
-0.366051 1.506573 -0.591682
-0.363779 1.504629 -0.592052
-0.361419 1.502907 -0.592747
-0.359280 1.500680 -0.592707
-0.356991 1.498817 -0.593198
-0.355810 1.494500 -0.590049
-0.353693 1.492330 -0.590065
-0.351661 1.489995 -0.589832
-0.349679 1.487581 -0.589472
-0.347865 1.484851 -0.588624
-0.345900 1.482465 -0.588289
-0.343870 1.480233 -0.588185
-0.342377 1.476976 -0.586487
-0.340577 1.474362 -0.585768
-0.338406 1.472472 -0.586179
-0.337160 1.468888 -0.583907
-0.335152 1.466745 -0.583904
-0.332798 1.465229 -0.584906
-0.331106 1.462551 -0.584040
-0.329562 1.459650 -0.582798
-0.327065 1.458390 -0.584227
-0.325237 1.456004 -0.583818
-0.323417 1.453626 -0.583414
-0.321100 1.452060 -0.584363
-0.318779 1.450489 -0.585316
-0.316732 1.448487 -0.585549
-0.315128 1.445816 -0.584643
-0.313407 1.443346 -0.584068
-0.311520 1.441139 -0.583941
-0.309504 1.439128 -0.584155
-0.307617 1.436937 -0.584054
-0.305561 1.434990 -0.584384
-0.303650 1.432845 -0.584366
-0.301760 1.430679 -0.584308
-0.299861 1.428531 -0.584283
-0.297847 1.426540 -0.584545
-0.297096 1.422927 -0.581827
-0.295322 1.420660 -0.581562
-0.293004 1.419078 -0.582575
-0.291073 1.417011 -0.582691
-0.288959 1.415165 -0.583229
-0.286779 1.413393 -0.583918
-0.285731 1.410295 -0.582061
-0.284078 1.407925 -0.581590
-0.282461 1.405525 -0.581055
-0.280131 1.403927 -0.582098
-0.278530 1.401521 -0.581548
-0.276902 1.399155 -0.581072
-0.274915 1.397179 -0.581380
-0.273098 1.395023 -0.581328
-0.271136 1.393018 -0.581588
-0.269077 1.391110 -0.582055
-0.267516 1.388703 -0.581487
-0.265515 1.386734 -0.581840
-0.263520 1.384757 -0.582183
-0.262245 1.382096 -0.581062
-0.260909 1.379510 -0.580086
-0.258640 1.377790 -0.580998
-0.256518 1.375926 -0.581610
-0.255471 1.373104 -0.580097
-0.253331 1.371255 -0.580753
-0.251365 1.369248 -0.581067
-0.249532 1.367124 -0.581122
-0.247916 1.364820 -0.580765
-0.245983 1.362779 -0.581023
-0.243812 1.360924 -0.581732
-0.242290 1.358548 -0.581215
-0.240669 1.356256 -0.580895
-0.239377 1.353717 -0.579972
-0.237766 1.351428 -0.579653
-0.235812 1.349394 -0.579970
-0.233718 1.347456 -0.580544
-0.231686 1.345464 -0.581001
-0.230011 1.343215 -0.580813
-0.228273 1.341010 -0.580746
-0.226191 1.339036 -0.581292
-0.224547 1.336762 -0.581063
-0.223372 1.334184 -0.580016
-0.220965 1.332404 -0.581135
-0.218801 1.330454 -0.581821
-0.217215 1.328136 -0.581505
-0.216167 1.325493 -0.580276
-0.215113 1.322866 -0.579073
-0.213787 1.320409 -0.578348
-0.211898 1.318281 -0.578583
-0.209527 1.316416 -0.579622
-0.207769 1.314196 -0.579634
-0.206600 1.311653 -0.578672
-0.205046 1.309321 -0.578357
-0.203347 1.307064 -0.578285
-0.201678 1.304788 -0.578168
-0.201817 1.301602 -0.575127
-0.197718 1.300530 -0.578942
-0.196201 1.298162 -0.578584
-0.194828 1.295725 -0.578003
-0.193372 1.293328 -0.577561
-0.191577 1.291082 -0.577659
-0.189742 1.288847 -0.577820
-0.188241 1.286459 -0.577459
-0.186710 1.284081 -0.577151
-0.184927 1.281805 -0.577236
-0.183444 1.279398 -0.576859
-0.181464 1.277185 -0.577245
-0.179120 1.275102 -0.578179
-0.177930 1.272563 -0.577363
-0.176789 1.270008 -0.576481
-0.174395 1.267907 -0.577481
-0.173049 1.265418 -0.576912
-0.171206 1.263098 -0.577083
-0.169708 1.260652 -0.576744
-0.167385 1.258471 -0.577618
-0.165933 1.255995 -0.577211
-0.164993 1.253357 -0.576065
-0.162929 1.251063 -0.576551
-0.161754 1.248495 -0.575754
-0.159249 1.246306 -0.576862
-0.157773 1.243813 -0.576497
-0.156396 1.241289 -0.575991
-0.154233 1.238969 -0.576596
-0.153904 1.236173 -0.574621
-0.152232 1.233720 -0.574536
-0.150209 1.231345 -0.574936
-0.148002 1.229002 -0.575583
-0.146533 1.226483 -0.575205
-0.144835 1.224014 -0.575141
-0.143645 1.221438 -0.574381
-0.141872 1.218982 -0.574415
-0.139926 1.216557 -0.574677
-0.138166 1.214095 -0.574684
-0.136465 1.211622 -0.574606
-0.134054 1.209270 -0.575467
-0.132011 1.206853 -0.575829
-0.130528 1.204350 -0.575445
-0.128354 1.201958 -0.575966
-0.126997 1.199454 -0.575410
-0.125544 1.196976 -0.574977
-0.122348 1.194731 -0.576798
-0.119924 1.192388 -0.577603
-0.117939 1.190001 -0.577833
-0.116283 1.187591 -0.577636
-0.114793 1.185184 -0.577226
-0.113359 1.182795 -0.576742
-0.111044 1.180506 -0.577367
-0.109463 1.178174 -0.577063
-0.108248 1.175841 -0.576300
-0.107036 1.173540 -0.575537
-0.105028 1.171321 -0.575762
-0.103216 1.169116 -0.575740
-0.100992 1.166961 -0.576219
-0.099317 1.164806 -0.576022
-0.097857 1.162675 -0.575565
-0.095684 1.160604 -0.575971
-0.094159 1.158541 -0.575594
-0.092873 1.156508 -0.574933
-0.092125 1.154502 -0.573637
-0.090958 1.152546 -0.572849
-0.088935 1.150640 -0.573081
-0.086004 1.148770 -0.574382
-0.084682 1.146921 -0.573786
-0.083305 1.145109 -0.573263
-0.081682 1.143333 -0.573034
-0.500368 1.588034 -0.536956
-0.498743 1.588943 -0.540143
-0.497077 1.589527 -0.543020
-0.495373 1.589768 -0.545564
-0.493626 1.589865 -0.547985
-0.491816 1.590248 -0.550741
-0.490008 1.589566 -0.552375
-0.488182 1.588419 -0.553523
-0.486145 1.590114 -0.557793
-0.484075 1.591304 -0.561554
-0.481986 1.591875 -0.564671
-0.479838 1.592481 -0.567860
-0.477650 1.592867 -0.570838
-0.475481 1.592373 -0.572859
-0.473113 1.593608 -0.576849
-0.470689 1.594769 -0.580798
-0.468115 1.596815 -0.585793
-0.465742 1.596255 -0.587854
-0.463284 1.596078 -0.590374
-0.462262 1.583070 -0.578068
-0.459742 1.583261 -0.580985
-0.457409 1.581610 -0.581774
-0.454930 1.580885 -0.583656
-0.452503 1.579537 -0.584815
-0.450610 1.574347 -0.581415
-0.448124 1.573238 -0.582849
-0.445805 1.570917 -0.582836
-0.443525 1.568314 -0.582476
-0.441123 1.566418 -0.582963
-0.438677 1.564721 -0.583693
-0.436186 1.563209 -0.584650
-0.433793 1.561126 -0.584906
-0.431306 1.559507 -0.585733
-0.428939 1.557268 -0.585787
-0.426253 1.556547 -0.587742
-0.424012 1.553703 -0.587029
-0.421252 1.553230 -0.589312
-0.418902 1.550899 -0.589242
-0.416761 1.547728 -0.588084
-0.414225 1.546246 -0.589086
-0.412108 1.543098 -0.587930
-0.409721 1.541070 -0.588215
-0.407281 1.539265 -0.588791
-0.404886 1.537306 -0.589162
-0.402589 1.535025 -0.589104
-0.400563 1.531847 -0.587840
-0.398146 1.530066 -0.588432
-0.395555 1.528868 -0.589814
-0.392898 1.527863 -0.591468
-0.390650 1.525565 -0.591367
-0.388185 1.523965 -0.592219
-0.385957 1.521664 -0.592108
-0.383649 1.519635 -0.592366
-0.381283 1.517793 -0.592886
-0.379150 1.515320 -0.592518
-0.376994 1.512954 -0.592293
-0.375107 1.509913 -0.591098
-0.372680 1.508333 -0.591979
-0.370532 1.506050 -0.591853
-0.368360 1.503856 -0.591850
-0.366381 1.501222 -0.591201
-0.363961 1.499679 -0.592144
-0.362096 1.496839 -0.591177
-0.360120 1.494304 -0.590648
-0.357497 1.493254 -0.592333
-0.355577 1.490638 -0.591676
-0.353406 1.488598 -0.591883
-0.351839 1.485302 -0.590170
-0.350097 1.482429 -0.589085
-0.347946 1.480430 -0.589333
-0.345984 1.478067 -0.589017
-0.344214 1.475353 -0.588142
-0.342445 1.472674 -0.587312
-0.340447 1.470461 -0.587207
-0.338272 1.468592 -0.587649
-0.336955 1.465169 -0.585595
-0.335033 1.462884 -0.585355
-0.333089 1.460657 -0.585205
-0.331289 1.458197 -0.584668
-0.329294 1.456089 -0.584706
-0.327182 1.454187 -0.585084
-0.325121 1.452202 -0.585329
-0.323242 1.449934 -0.585098
-0.321680 1.447178 -0.584033
-0.319803 1.444941 -0.583843
-0.317711 1.443046 -0.584237
-0.315993 1.440590 -0.583663
-0.313979 1.438589 -0.583876
-0.312045 1.436477 -0.583896
-0.309546 1.435176 -0.585355
-0.307660 1.432996 -0.585264
-0.305747 1.430863 -0.585256
-0.303914 1.428626 -0.585061
-0.302061 1.426426 -0.584930
-0.301699 1.422282 -0.581216
-0.299405 1.420697 -0.582197
-0.296903 1.419364 -0.583663
-0.295400 1.416765 -0.582769
-0.293454 1.414730 -0.582930
-0.291550 1.412645 -0.582999
-0.290101 1.410024 -0.582038
-0.288342 1.407785 -0.581803
-0.286461 1.405692 -0.581854
-0.284675 1.403495 -0.581700
-0.283093 1.401078 -0.581107
-0.280978 1.399255 -0.581701
-0.279089 1.397183 -0.581801
-0.277503 1.394791 -0.581251
-0.277127 1.391150 -0.578116
-0.274607 1.389758 -0.579607
-0.272744 1.387681 -0.579691
-0.269910 1.386568 -0.581820
-0.267870 1.384649 -0.582268
-0.266038 1.382525 -0.582285
-0.264396 1.380223 -0.581918
-0.263267 1.377452 -0.580519
-0.260936 1.375800 -0.581575
-0.259299 1.373510 -0.581229
-0.257438 1.371423 -0.581339
-0.255855 1.369094 -0.580903
-0.254148 1.366876 -0.580720
-0.252230 1.364840 -0.580959
-0.251180 1.362083 -0.579515
-0.249940 1.359499 -0.578460
-0.248584 1.357023 -0.577647
-0.245406 1.355990 -0.580313
-0.243972 1.353571 -0.579654
-0.242232 1.351394 -0.579583
-0.240256 1.349392 -0.579956
-0.238664 1.347102 -0.579618
-0.236301 1.345372 -0.580707
-0.234439 1.343270 -0.580869
-0.232618 1.341135 -0.580959
-0.230969 1.338880 -0.580741
-0.229525 1.336487 -0.580161
-0.227884 1.334231 -0.579944
-0.226018 1.332120 -0.580130
-0.223897 1.330167 -0.580769
-0.220730 1.328858 -0.583232
-0.219345 1.326419 -0.582569
-0.218950 1.323386 -0.580205
-0.217258 1.321149 -0.580101
-0.215770 1.318791 -0.579653
-0.214251 1.316453 -0.579265
-0.212502 1.314244 -0.579272
-0.210454 1.312196 -0.579784
-0.209030 1.309800 -0.579253
-0.207545 1.307438 -0.578828
-0.205867 1.305178 -0.578732
-0.204859 1.302572 -0.577538
-0.201817 1.300990 -0.579679
-0.200352 1.298606 -0.579239
-0.198630 1.296344 -0.579219
-0.197254 1.293915 -0.578647
-0.196201 1.291338 -0.577566
-0.194302 1.289149 -0.577842
-0.192339 1.286977 -0.578217
-0.190609 1.284695 -0.578224
-0.189229 1.282258 -0.577685
-0.187653 1.279901 -0.577457
-0.186195 1.277493 -0.577049
-0.184579 1.275144 -0.576891
-0.182564 1.272943 -0.577343
-0.180446 1.270768 -0.577949
-0.179383 1.268191 -0.576951
-0.178014 1.265727 -0.576423
-0.174486 1.264016 -0.579138
-0.173377 1.261441 -0.578216
-0.172190 1.258896 -0.577420
-0.169991 1.256678 -0.578124
-0.168432 1.254243 -0.577881
-0.167203 1.251701 -0.577156
-0.166224 1.249086 -0.576073
-0.164092 1.246809 -0.576668
-0.162709 1.244307 -0.576177
-0.160905 1.241918 -0.576292
-0.159499 1.239415 -0.575836
-0.157946 1.236948 -0.575592
-0.156254 1.234512 -0.575543
-0.155109 1.231939 -0.574721
-0.152903 1.229617 -0.575390
-0.150799 1.227258 -0.575906
-0.149091 1.224804 -0.575866
-0.147852 1.222249 -0.575174
-0.147297 1.219560 -0.573548
-0.145141 1.217198 -0.574120
-0.142300 1.214956 -0.575612
-0.140614 1.212491 -0.575522
-0.138938 1.210027 -0.575415
-0.136342 1.207717 -0.576538
-0.134607 1.205263 -0.576496
-0.133024 1.202792 -0.576247
-0.131344 1.200343 -0.576124
-0.129715 1.197897 -0.575929
-0.126734 1.195637 -0.577500
-0.125153 1.193200 -0.577228
-0.122542 1.190897 -0.578289
-0.120305 1.188558 -0.578851
-0.118720 1.186162 -0.578565
-0.117407 1.183760 -0.577927
-0.115586 1.181429 -0.577938
-0.113949 1.179103 -0.577711
-0.112108 1.176817 -0.577739
-0.111004 1.174503 -0.576835
-0.109436 1.172252 -0.576516
-0.107872 1.170031 -0.576192
-0.106086 1.167851 -0.576143
-0.104298 1.165701 -0.576093
-0.102306 1.163590 -0.576293
-0.101507 1.161462 -0.575029
-0.099737 1.159407 -0.574958
-0.097495 1.157398 -0.575458
-0.095925 1.155402 -0.575141
-0.094485 1.153438 -0.574673
-0.093284 1.151508 -0.573922
-0.091392 1.149622 -0.574001
-0.089114 1.147770 -0.574539
-0.087674 1.145947 -0.574085
-0.086174 1.144161 -0.573707
-0.084662 1.142408 -0.573350
-0.499905 1.587838 -0.542319
-0.498288 1.587652 -0.544392
-0.496614 1.587810 -0.546861
-0.494850 1.588984 -0.550455
-0.493077 1.589065 -0.552904
-0.491292 1.588386 -0.554551
-0.489420 1.588523 -0.557113
-0.487502 1.588580 -0.559616
-0.485467 1.589692 -0.563314
-0.483430 1.589940 -0.566090
-0.481328 1.590344 -0.569070
-0.479223 1.590059 -0.571307
-0.476966 1.591064 -0.575024
-0.474569 1.593001 -0.579839
-0.472227 1.593559 -0.583129
-0.469812 1.594290 -0.586649
-0.467397 1.594442 -0.589538
-0.466347 1.581331 -0.577070
-0.464107 1.579689 -0.577840
-0.461500 1.580933 -0.581997
-0.459272 1.578624 -0.582007
-0.457207 1.574932 -0.580374
-0.454623 1.575082 -0.583296
-0.452564 1.571217 -0.581433
-0.450164 1.569711 -0.582386
-0.447680 1.568623 -0.583850
-0.445343 1.566476 -0.584032
-0.443075 1.563858 -0.583635
-0.440618 1.562330 -0.584566
-0.438194 1.560548 -0.585188
-0.435833 1.558376 -0.585323
-0.433438 1.556376 -0.585668
-0.430932 1.554910 -0.586680
-0.428658 1.552285 -0.586231
-0.426304 1.550068 -0.586288
-0.423690 1.549046 -0.587867
-0.420961 1.548473 -0.590035
-0.418762 1.545573 -0.589209
-0.416291 1.543859 -0.589908
-0.414011 1.541381 -0.589609
-0.411645 1.539283 -0.589800
-0.409243 1.537345 -0.590199
-0.406849 1.535399 -0.590583
-0.404679 1.532668 -0.589916
-0.402458 1.530179 -0.589559
-0.400031 1.528434 -0.590201
-0.397496 1.527062 -0.591351
-0.395547 1.523790 -0.589906
-0.393124 1.522099 -0.590617
-0.390669 1.520513 -0.591476
-0.388512 1.518040 -0.591102
-0.385887 1.516978 -0.592699
