ply
format ascii 1.0
comment ---
element vertex 1678
property float x
property float y
property float z
element face 0
property list uchar uint vertex_indices
end_header
-0.557550 1.589619 -0.937194
-0.549438 1.593048 -0.939011
-0.540936 1.595297 -0.940157
-0.532407 1.597446 -0.941250
-0.523209 1.597448 -0.941117
-0.513715 1.596394 -0.940382
-0.502397 1.589188 -0.936123
-0.489006 1.574635 -0.927655
-0.481850 1.580813 -0.931087
-0.487068 1.630417 -0.959432
-0.480112 1.638503 -0.963963
-0.459203 1.596039 -0.939509
-0.452533 1.604637 -0.944344
-0.447902 1.621255 -0.953781
-0.435488 1.608336 -0.946287
-0.427942 1.614061 -0.949486
-0.417378 1.607735 -0.945781
-0.409712 1.613060 -0.948759
-0.407388 1.680778 -0.987427
-0.394971 1.666917 -0.979418
-0.380064 1.640929 -0.964464
-0.371026 1.641007 -0.964451
-0.362125 1.641678 -0.964781
-0.353842 1.645373 -0.966846
-0.352746 1.685665 -0.989880
-0.344809 1.692507 -0.993753
-0.331368 1.670127 -0.980890
-0.323782 1.678726 -0.985775
-0.317325 1.694246 -0.994627
-0.307474 1.690721 -0.992572
-0.297098 1.683705 -0.988521
-0.288599 1.687969 -0.990934
-0.279621 1.689358 -0.991701
-0.268897 1.679006 -0.985748
-0.131250 1.008813 -0.601873
-0.124777 0.999242 -0.596387
-0.118729 0.992874 -0.592737
-0.115178 1.012293 -0.603853
-0.108813 1.002313 -0.598136
-0.103395 1.002388 -0.598177
-0.098112 1.004192 -0.599210
-0.092846 1.006448 -0.600502
-0.086816 0.997687 -0.595487
-0.080935 0.989760 -0.590950
-0.075660 0.991055 -0.591695
-0.070259 0.990146 -0.591177
-0.064919 0.990302 -0.591272
-0.059355 0.984925 -0.588198
-0.051732 0.918825 -0.550354
-0.046716 0.916998 -0.549314
-0.041825 0.919488 -0.550746
-0.036886 0.920797 -0.551504
-0.031911 0.920446 -0.551311
-0.026955 0.921913 -0.552160
-0.021990 0.925986 -0.554502
-0.016983 0.929758 -0.556672
-0.011956 0.930968 -0.557376
-0.006934 0.930831 -0.557310
-0.001927 0.929938 -0.556810
0.003136 0.931795 -0.557887
0.008211 0.933344 -0.558788
0.013137 0.930147 -0.556972
0.017749 0.920015 -0.551183
0.022393 0.912927 -0.547139
0.027278 0.912051 -0.546654
0.032307 0.913874 -0.547715
0.037331 0.915298 -0.548549
0.042425 0.917500 -0.549829
0.047542 0.919684 -0.551100
0.052536 0.919980 -0.551290
0.057533 0.920242 -0.551462
0.062534 0.920504 -0.551634
0.067606 0.921470 -0.552210
0.072798 0.923514 -0.553406
0.077838 0.923881 -0.553642
0.083288 0.927919 -0.555982
0.088284 0.927622 -0.555839
0.093294 0.927448 -0.555769
0.098408 0.928081 -0.556161
0.103574 0.929045 -0.556745
0.108800 0.930336 -0.557517
0.114083 0.931907 -0.558452
0.119449 0.933898 -0.559628
0.124464 0.933429 -0.559395
0.129566 0.933519 -0.559485
0.134810 0.934433 -0.560049
0.140087 0.935453 -0.560674
0.145113 0.934954 -0.560431
0.150475 0.936306 -0.561251
0.155922 0.938009 -0.562274
0.161187 0.938627 -0.562676
0.166432 0.939077 -0.562984
0.171721 0.939687 -0.563385
0.177019 0.940275 -0.563776
0.182080 0.939679 -0.563490
0.187309 0.939848 -0.563645
0.192697 0.940676 -0.564180
0.198429 0.942921 -0.565531
0.203845 0.943678 -0.566030
0.209083 0.943619 -0.566063
0.214280 0.943356 -0.565981
0.219245 0.942138 -0.565354
0.224510 0.942092 -0.565402
0.234331 0.959302 -0.575367
0.240274 0.961329 -0.576613
0.244271 0.956139 -0.573714
0.249557 0.955706 -0.573552
0.255861 0.958799 -0.575420
0.262662 0.963427 -0.578174
0.268930 0.966028 -0.579766
0.274393 0.965821 -0.579747
0.278945 0.962611 -0.578004
0.283434 0.959259 -0.576182
0.289304 0.960286 -0.576883
0.296256 0.964538 -0.579444
0.303821 0.970426 -0.582952
0.309704 0.971066 -0.583443
0.338028 1.019518 -0.611614
0.344811 1.021656 -0.612987
0.352258 1.025494 -0.615345
0.365050 1.043705 -0.625994
0.370289 1.041002 -0.624593
0.377567 1.043690 -0.626305
0.381486 1.037489 -0.622894
0.385757 1.032301 -0.620070
0.394017 1.037245 -0.623099
0.398337 1.032185 -0.620356
0.407837 1.039856 -0.624972
0.413676 1.038405 -0.624324
0.419716 1.037395 -0.623934
0.425664 1.036116 -0.623394
0.431793 1.035211 -0.623074
0.436229 1.030405 -0.620501
0.442921 1.030705 -0.620887
0.449666 1.031038 -0.621296
0.453719 1.025419 -0.618262
0.458890 1.022280 -0.616667
0.466925 1.025214 -0.618595
0.475554 1.029234 -0.621158
0.477022 1.018319 -0.615062
0.486166 1.023231 -0.618150
0.495017 1.027356 -0.620786
0.496228 1.016188 -0.614544
0.505266 1.020545 -0.617319
0.511776 1.019855 -0.617165
0.520216 1.022810 -0.619131
0.526250 1.021124 -0.618398
0.533754 1.022170 -0.619254
0.541482 1.023567 -0.620314
0.547205 1.021279 -0.619226
0.554295 1.021473 -0.619581
0.564317 1.026838 -0.622946
0.567004 1.019270 -0.618766
0.569666 1.011850 -0.614663
0.576968 1.012534 -0.615281
0.584196 1.013109 -0.615827
0.599717 1.027538 -0.624456
0.606388 1.027110 -0.624400
0.613568 1.027587 -0.624861
0.627085 1.038352 -0.631324
0.618048 1.012977 -0.616643
0.623423 1.010988 -0.615618
0.642264 1.030200 -0.626981
0.641594 1.018938 -0.620501
-0.931568 1.346062 -0.818085
-0.927003 1.352025 -0.821527
-0.918795 1.352777 -0.821871
-0.909985 1.352787 -0.821754
-0.863914 1.295573 -0.787887
-0.852572 1.291343 -0.785235
-0.848664 1.298831 -0.789468
-0.842856 1.303566 -0.792059
-0.837070 1.308533 -0.794768
-0.828177 1.308643 -0.794602
-0.823253 1.315338 -0.798297
-0.817374 1.320652 -0.801165
-0.811883 1.326779 -0.804497
-0.805603 1.331732 -0.807128
-0.798679 1.335707 -0.809175
-0.790271 1.337192 -0.809750
-0.783307 1.341244 -0.811827
-0.775668 1.344167 -0.813236
-0.768945 1.348781 -0.815633
-0.761342 1.351855 -0.817123
-0.753649 1.354787 -0.818528
-0.747320 1.360288 -0.821437
-0.740976 1.365832 -0.824371
-0.734449 1.371092 -0.827138
-0.726693 1.374008 -0.828533
-0.719741 1.378502 -0.830854
-0.712881 1.383203 -0.833299
-0.705551 1.386981 -0.835205
-0.697811 1.389917 -0.836624
-0.690708 1.394153 -0.838806
-0.684880 1.401094 -0.842572
-0.678887 1.407765 -0.846184
-0.671529 1.411548 -0.848113
-0.662900 1.412524 -0.848410
-0.654712 1.414399 -0.849237
-0.648522 1.420743 -0.852676
-0.641521 1.425290 -0.855072
-0.634812 1.430537 -0.857882
-0.627020 1.433260 -0.859226
-0.619480 1.436558 -0.860911
-0.611933 1.439824 -0.862583
-0.604975 1.444532 -0.865101
-0.596947 1.446585 -0.866079
-0.592283 1.457177 -0.872031
-0.609181 1.548097 -0.924499
-0.604949 1.561650 -0.932175
-0.599014 1.570903 -0.937355
-0.592096 1.577628 -0.941070
-0.584991 1.583944 -0.944553
-0.577085 1.588073 -0.946771
-0.566319 1.583926 -0.944187
-0.559465 1.591092 -0.948180
-0.551003 1.593569 -0.949456
-0.541700 1.593457 -0.949234
-0.533652 1.597153 -0.951229
-0.524849 1.598489 -0.951860
-0.513962 1.593042 -0.948560
-0.500223 1.577907 -0.939646
-0.487154 1.564349 -0.931656
-0.481870 1.576801 -0.938757
-0.484623 1.617689 -0.962352
-0.473101 1.609345 -0.957401
-0.454066 1.573291 -0.936389
-0.449127 1.587902 -0.944758
-0.443609 1.600861 -0.952172
-0.434942 1.602124 -0.952810
-0.425135 1.598856 -0.950827
-0.419091 1.610575 -0.957533
-0.413553 1.624853 -0.965725
-0.417187 1.678548 -0.996757
-0.408817 1.682723 -0.999099
-0.394391 1.660136 -0.985942
-0.381801 1.644701 -0.976933
-0.376888 1.664250 -0.988193
-0.364709 1.649938 -0.979843
-0.359444 1.668823 -0.990723
-0.352766 1.681540 -0.998034
-0.337568 1.650582 -0.980056
-0.332023 1.669458 -0.990939
-0.325010 1.681306 -0.997755
-0.310152 1.702229 -1.009788
-0.288519 1.683259 -0.998735
-0.270988 1.688901 -1.001942
-0.155449 1.115486 -0.669924
-0.147378 1.098196 -0.659906
-0.131126 1.005161 -0.606048
-0.124999 0.998846 -0.602386
-0.117976 0.982823 -0.593106
-0.112646 0.982900 -0.593147
-0.107607 0.986228 -0.595070
-0.102744 0.992058 -0.598442
-0.097502 0.993831 -0.599466
-0.091794 0.989425 -0.596915
-0.085735 0.979079 -0.590928
-0.080644 0.982530 -0.592927
-0.075270 0.981603 -0.592392
-0.069976 0.982027 -0.592641
-0.064615 0.981051 -0.592080
-0.059082 0.975526 -0.588886
-0.051800 0.918281 -0.555758
-0.046794 0.917078 -0.555068
-0.041819 0.916594 -0.554794
-0.036876 0.917509 -0.555331
-0.031917 0.917897 -0.555563
-0.026971 0.920364 -0.557000
-0.022002 0.924278 -0.559275
-0.016991 0.928428 -0.561688
-0.011961 0.929397 -0.562259
-0.006954 0.927916 -0.561414
-0.001958 0.926669 -0.560704
0.003092 0.928189 -0.561598
0.008146 0.929299 -0.562254
0.013067 0.926239 -0.560497
0.017779 0.918823 -0.556219
0.022367 0.910427 -0.551374
0.027401 0.912484 -0.552582
0.032391 0.913370 -0.553112
0.037472 0.915548 -0.554392
0.042481 0.916296 -0.554844
0.047641 0.918998 -0.556430
0.052658 0.919476 -0.556728
0.057572 0.918638 -0.556264
0.062642 0.919629 -0.556862
0.067755 0.920953 -0.557652
0.072824 0.921667 -0.558091
0.077991 0.923224 -0.559019
0.083325 0.926114 -0.560721
0.088449 0.926903 -0.561207
0.093458 0.926654 -0.561092
0.098545 0.927013 -0.561331
0.103592 0.927018 -0.561367
0.108877 0.928719 -0.562386
0.114167 0.930308 -0.563342
0.119475 0.931879 -0.564289
0.124643 0.932393 -0.564625
0.129757 0.932512 -0.564734
0.135065 0.933766 -0.565502
0.140223 0.934035 -0.565701
0.145386 0.934282 -0.565889
0.150666 0.935127 -0.566425
0.156140 0.936933 -0.567521
0.161409 0.937534 -0.567920
0.166827 0.938820 -0.568718
0.172210 0.939833 -0.569360
0.177070 0.938247 -0.568496
0.182254 0.938218 -0.568538
0.187430 0.938115 -0.568539
0.192951 0.939511 -0.569412
0.198429 0.940618 -0.570120
0.203854 0.941404 -0.570644
0.209188 0.941735 -0.570907
0.214518 0.941995 -0.571131
0.219885 0.942343 -0.571409
0.225065 0.941906 -0.571234
0.233770 0.954794 -0.578801
0.238493 0.952330 -0.577454
0.243817 0.952101 -0.577410
0.249837 0.954309 -0.578784
0.254362 0.951158 -0.577047
0.261776 0.957967 -0.581102
0.267924 0.960210 -0.582508
0.272926 0.958540 -0.581642
0.277377 0.955094 -0.579747
0.283794 0.957954 -0.581523
0.289183 0.957452 -0.581346
0.296158 0.961760 -0.583973
0.303233 0.966160 -0.586658
0.311478 0.973803 -0.591237
0.320247 0.982645 -0.596520
0.332235 1.000320 -0.606955
0.342219 1.011712 -0.613738
0.349450 1.015053 -0.615838
0.354979 1.013586 -0.615139
0.362137 1.016452 -0.616973
0.369472 1.019619 -0.618987
0.377678 1.024870 -0.622223
0.384560 1.026504 -0.623354
0.386410 1.015366 -0.617035
0.395508 1.022424 -0.621343
0.400946 1.020269 -0.620276
0.407188 1.020033 -0.620335
0.416496 1.026975 -0.624596
0.420629 1.021572 -0.621644
0.425890 1.018837 -0.620256
0.434230 1.023072 -0.622952
0.436639 1.013867 -0.617785
0.442209 1.011798 -0.616798
0.448757 1.011835 -0.617049
0.454654 1.010400 -0.616441
0.463033 1.014170 -0.618889
0.470066 1.014961 -0.619595
0.475147 1.011649 -0.617897
0.478362 1.004574 -0.613992
0.485013 1.004494 -0.614195
0.491380 1.003795 -0.614036
0.498714 1.004941 -0.614963
0.507962 1.009684 -0.618008
0.515231 1.010500 -0.618745
0.519680 1.005968 -0.616336
0.528498 1.009598 -0.618729
0.535844 1.010420 -0.619469
0.541212 1.007627 -0.618077
0.547904 1.007249 -0.618105
0.556031 1.009403 -0.619620
0.559668 1.003691 -0.616491
0.566129 1.002987 -0.616309
0.572467 1.002112 -0.616018
0.577672 0.999385 -0.614625
0.582866 0.996746 -0.613272
0.597720 1.010097 -0.621359
0.602448 1.006759 -0.619572
0.606125 1.001876 -0.616856
0.608245 0.994703 -0.612769
0.617417 0.998882 -0.615383
0.635099 1.016355 -0.625850
0.642170 1.017208 -0.626466
-0.944091 1.361075 -0.836365
-0.929509 1.352229 -0.831012
-0.923253 1.355918 -0.833112
-0.914479 1.356017 -0.833044
-0.891543 1.334522 -0.820076
-0.854813 1.291324 -0.794153
-0.847233 1.293044 -0.794992
-0.844245 1.302186 -0.800234
-0.837342 1.305348 -0.801894
-0.830337 1.308499 -0.803529
-0.823585 1.312203 -0.805478
-0.817483 1.317121 -0.808135
-0.811808 1.322909 -0.811295
-0.805581 1.327922 -0.813982
-0.798823 1.332158 -0.816197
-0.791832 1.336093 -0.818223
-0.783760 1.338211 -0.819163
-0.776125 1.341136 -0.820577
-0.768478 1.344079 -0.821997
-0.761354 1.348005 -0.823997
-0.755124 1.353629 -0.827001
-0.748451 1.358506 -0.829560
-0.741758 1.363402 -0.832130
-0.734055 1.366413 -0.833582
-0.726612 1.369923 -0.835332
-0.720616 1.376288 -0.838773
-0.714692 1.382876 -0.842347
-0.706883 1.385729 -0.843714
-0.698938 1.388280 -0.844907
-0.692039 1.392970 -0.847368
-0.685181 1.397768 -0.849897
-0.678414 1.402784 -0.852558
-0.671153 1.406761 -0.854611
-0.662639 1.407986 -0.855045
-0.655830 1.412932 -0.857680
-0.648744 1.417279 -0.859967
-0.641580 1.421458 -0.862161
-0.634647 1.426183 -0.864682
-0.627505 1.430439 -0.866932
-0.618959 1.431346 -0.867216
-0.611736 1.435384 -0.869350
-0.604626 1.439708 -0.871659
-0.596590 1.441734 -0.872621
-0.589888 1.447108 -0.875559
-0.605910 1.511285 -0.913084
-0.608024 1.540863 -0.930256
-0.602887 1.551928 -0.936544
-0.599210 1.567201 -0.945309
-0.592350 1.574092 -0.949152
-0.585287 1.580530 -0.952735
-0.577186 1.584119 -0.954650
-0.568473 1.585949 -0.955538
-0.560647 1.590350 -0.957942
-0.552639 1.594255 -0.960061
-0.543626 1.595125 -0.960404
-0.534729 1.596291 -0.960927
-0.525799 1.597291 -0.961358
-0.516676 1.597610 -0.961396
-0.504333 1.587275 -0.955192
-0.491344 1.574286 -0.947439
-0.486741 1.589310 -0.956117
-0.480604 1.599505 -0.961969
-0.461344 1.563449 -0.940713
-0.453593 1.567509 -0.942979
-0.459549 1.622337 -0.975001
-0.450604 1.623153 -0.975372
-0.437246 1.606895 -0.965744
-0.430479 1.652367 -0.992192
-0.424345 1.665215 -0.999627
-0.411602 1.650687 -0.991032
-0.402450 1.650912 -0.991082
-0.394560 1.656664 -0.994373
-0.391229 1.683337 -1.009917
-0.369634 1.669311 -1.001568
-0.361590 1.675143 -1.004920
-0.353933 1.683184 -1.009568
-0.333994 1.675785 -1.005128
-0.326572 1.685678 -1.010870
-0.307352 1.681547 -1.008363
-0.280045 1.683665 -1.009490
-0.261125 1.680072 -1.007327
-0.155347 1.111844 -0.674781
-0.148118 1.101803 -0.668895
-0.118123 0.981815 -0.598672
-0.112253 0.976254 -0.595412
-0.106897 0.975753 -0.595115
-0.101531 0.975048 -0.594700
-0.096243 0.975214 -0.594794
-0.090741 0.972441 -0.593171
-0.085194 0.968544 -0.590890
-0.079793 0.966276 -0.589564
-0.074368 0.963140 -0.587731
-0.069291 0.966095 -0.589462
-0.064301 0.971603 -0.592687
-0.058414 0.956405 -0.583800
-0.052001 0.921526 -0.563400
-0.046843 0.916171 -0.560272
-0.041850 0.915221 -0.559723
-0.036881 0.914981 -0.559589
-0.031905 0.913987 -0.559016
-0.026956 0.914938 -0.559581
-0.022022 0.925180 -0.565582
-0.017000 0.927146 -0.566743
-0.011959 0.928795 -0.567719
-0.006944 0.927253 -0.566828
-0.001928 0.926638 -0.566481
0.003081 0.925985 -0.566112
0.008131 0.926937 -0.566683
0.013083 0.924790 -0.565442
0.017870 0.919142 -0.562153
0.022496 0.911282 -0.557569
0.027441 0.911285 -0.557588
0.032539 0.913979 -0.559183
0.037618 0.915887 -0.560318
0.042663 0.916955 -0.560964
0.047696 0.917683 -0.561411
0.052675 0.917620 -0.561396
0.057697 0.918040 -0.561664
0.062751 0.918758 -0.562109
0.067899 0.920365 -0.563075
0.072962 0.920928 -0.563431
0.078119 0.922307 -0.564265
0.083325 0.923975 -0.565270
0.088491 0.925112 -0.565966
0.093521 0.925010 -0.565938
0.098595 0.925234 -0.566101
0.103837 0.926686 -0.566985
0.108897 0.926682 -0.567018
0.114112 0.927733 -0.567670
0.119376 0.929007 -0.568455
0.124596 0.929882 -0.569008
0.129875 0.931034 -0.569724
0.135114 0.931838 -0.570238
0.140299 0.932248 -0.570524
0.145400 0.932119 -0.570495
0.150831 0.933786 -0.571521
0.156283 0.935436 -0.572539
0.161723 0.936898 -0.573448
0.167225 0.938557 -0.574476
0.172350 0.938236 -0.574345
0.177502 0.938025 -0.574281
0.182572 0.937408 -0.573980
0.187862 0.937779 -0.574262
0.193100 0.937864 -0.574378
0.198574 0.938928 -0.575071
0.203939 0.939435 -0.575440
0.209381 0.940201 -0.575963
0.214781 0.940715 -0.576342
0.220073 0.940734 -0.576433
0.225632 0.941741 -0.577107
0.231479 0.943746 -0.578370
0.237037 0.944552 -0.578932
0.242627 0.945389 -0.579516
0.248025 0.945462 -0.579654
0.253556 0.945943 -0.580036
0.259088 0.946354 -0.580380
0.265656 0.950168 -0.582727
0.270155 0.946984 -0.580965
0.276408 0.949518 -0.582568
0.282249 0.950600 -0.583322
0.288656 0.953341 -0.585056
0.294596 0.954501 -0.585864
0.302135 0.960353 -0.589438
0.309506 0.965450 -0.592573
0.317932 0.973364 -0.597372
0.327103 0.983072 -0.603234
0.338318 0.998117 -0.612249
0.346485 1.004199 -0.615990
0.353249 1.006208 -0.617339
0.356388 0.998408 -0.612910
0.361993 0.997259 -0.612405
0.368681 0.998870 -0.613533
0.375001 0.999419 -0.614040
0.378859 0.993709 -0.610857
0.386981 0.998615 -0.613946
0.398466 1.011476 -0.621741
0.402629 1.006341 -0.618913
0.405718 0.998743 -0.614632
0.412323 0.999465 -0.615273
0.418638 0.999421 -0.615466
0.422672 0.994150 -0.612570
0.432475 1.001796 -0.617324
0.438137 1.000059 -0.616530
0.444487 0.999785 -0.616606
0.450976 0.999739 -0.616821
0.460443 1.005889 -0.620715
0.464189 0.999920 -0.617427
0.468853 0.995924 -0.615311
0.473812 0.992563 -0.613572
0.479916 0.991511 -0.613207
0.486356 0.991087 -0.613216
0.494782 0.994478 -0.615495
0.497154 0.986121 -0.610790
0.501233 0.981162 -0.608104
0.508391 0.982041 -0.608890
0.520368 0.991760 -0.614940
0.527766 0.992863 -0.615860
0.533710 0.991301 -0.615191
0.542973 0.995666 -0.618051
0.545166 0.987501 -0.613434
0.557277 0.996754 -0.619203
0.562946 0.994752 -0.618249
0.569587 0.994469 -0.618314
0.573084 0.988956 -0.615243
0.578400 0.986627 -0.614064
0.591602 0.997334 -0.620667
0.597240 0.995607 -0.619824
0.597394 0.985195 -0.613770
0.604431 0.986014 -0.614420
0.614042 0.990957 -0.617522
0.624926 0.997885 -0.621797
0.630812 0.997092 -0.621432
-0.930833 1.338013 -0.831921
-0.933316 1.354347 -0.841704
-0.924918 1.354831 -0.841893
-0.916968 1.356169 -0.842571
-0.906213 1.353391 -0.840741
-0.860482 1.296583 -0.806303
-0.851694 1.296473 -0.806043
-0.842905 1.296469 -0.805828
-0.836779 1.300817 -0.808216
-0.830271 1.304729 -0.810322
-0.823626 1.308573 -0.812371
-0.817217 1.312953 -0.814726
-0.812254 1.319892 -0.818607
-0.806876 1.326319 -0.822166
-0.798239 1.327342 -0.822463
-0.792184 1.332862 -0.825455
-0.785237 1.336944 -0.827574
-0.776603 1.338115 -0.827938
-0.768899 1.340951 -0.829298
-0.762400 1.346010 -0.831988
-0.757139 1.353422 -0.836086
-0.750303 1.358030 -0.838499
-0.741902 1.359732 -0.839169
-0.734162 1.362667 -0.840579
-0.727158 1.367026 -0.842843
-0.721756 1.374559 -0.847009
-0.715624 1.380748 -0.850370
-0.707553 1.383096 -0.851437
-0.699183 1.384798 -0.852121
-0.691755 1.388394 -0.853942
-0.685571 1.394594 -0.857324
-0.677637 1.397133 -0.858523
-0.669751 1.399736 -0.859766
-0.662685 1.404095 -0.862062
-0.655347 1.407863 -0.864011
-0.648468 1.412660 -0.866580
-0.640984 1.416100 -0.868345
-0.634048 1.420796 -0.870865
-0.626482 1.424033 -0.872521
-0.618038 1.425158 -0.872927
-0.610987 1.429577 -0.875301
-0.604390 1.435139 -0.878360
-0.597565 1.440190 -0.881121
-0.590126 1.443726 -0.882987
-0.601206 1.495008 -0.913249
-0.602422 1.521975 -0.929049
-0.597115 1.532337 -0.934980
-0.596809 1.556445 -0.949082
-0.592241 1.569522 -0.956633
-0.585517 1.576898 -0.960802
-0.577070 1.579518 -0.962153
-0.568888 1.582882 -0.963951
-0.561451 1.588447 -0.967063
-0.554078 1.594296 -0.970349
-0.544986 1.595012 -0.970595
-0.535834 1.595468 -0.970693
-0.529919 1.606055 -0.976806
-0.519103 1.601184 -0.973758
-0.507766 1.594328 -0.969539
-0.497266 1.589907 -0.966772
-0.489164 1.593384 -0.968693
-0.481093 1.597012 -0.970708
-0.468005 1.582939 -0.962239
-0.464662 1.636971 -0.994006
-0.453896 1.631337 -0.990553
-0.443092 1.625224 -0.986822
-0.435068 1.629696 -0.989365
-0.428750 1.641152 -0.996048
-0.421243 1.648164 -1.000103
-0.410516 1.641871 -0.996285
-0.388287 1.624703 -0.985953
-0.386685 1.658451 -1.005849
-0.378331 1.662496 -1.008167
-0.368228 1.658348 -1.005641
-0.364203 1.683675 -1.020560
-0.356452 1.691589 -1.025178
-0.346514 1.688559 -1.023324
-0.336382 1.684259 -1.020722
-0.326408 1.680501 -1.018445
-0.313452 1.659568 -1.006012
-0.305433 1.666080 -1.009817
-0.299986 1.688490 -1.023029
-0.291529 1.693580 -1.025998
-0.280120 1.679898 -1.017868
-0.271187 1.681744 -1.018924
-0.257510 1.650683 -1.000522
-0.246729 1.705489 -1.032877
-0.138437 1.065905 -0.654592
-0.130857 1.049247 -0.644732
-0.111201 0.962672 -0.593526
-0.105934 0.962488 -0.593411
-0.100415 0.959267 -0.591502
-0.095800 0.967076 -0.596117
-0.090177 0.962224 -0.593245
-0.084731 0.959188 -0.591449
-0.079556 0.959965 -0.591908
-0.074205 0.957753 -0.590601
-0.068972 0.957345 -0.590361
-0.063813 0.958414 -0.590996
-0.058460 0.954969 -0.588962
-0.052304 0.927620 -0.572796
-0.047071 0.921291 -0.569058
-0.041998 0.918682 -0.567522
-0.036983 0.917618 -0.566900
-0.031993 0.917505 -0.566840
-0.027018 0.919139 -0.567815
-0.022027 0.921155 -0.569016
-0.017006 0.926457 -0.572162
-0.011954 0.928547 -0.573408
-0.006884 0.930226 -0.574414
-0.001894 0.926740 -0.572364
0.003111 0.925408 -0.571590
0.008136 0.925227 -0.571497
0.013082 0.922834 -0.570097
0.017932 0.918710 -0.567675
0.022568 0.910878 -0.563059
0.027502 0.910478 -0.562840
0.032561 0.912356 -0.563969
0.037627 0.913985 -0.564952
0.042663 0.914890 -0.565508
0.047639 0.914830 -0.565494
0.052707 0.915931 -0.566168
0.057755 0.916630 -0.566606
0.062872 0.918000 -0.567441
0.067935 0.918623 -0.567836
0.073075 0.919926 -0.568634
0.078180 0.920740 -0.569144
0.083306 0.921648 -0.569711
0.088386 0.922046 -0.569977
0.093444 0.922202 -0.570102
0.098572 0.922880 -0.570538
0.103803 0.924246 -0.571382
0.109003 0.925257 -0.572017
0.114139 0.925713 -0.572325
0.119332 0.926498 -0.572830
0.124651 0.928011 -0.573767
0.129922 0.929094 -0.574453
0.135076 0.929369 -0.574660
0.140158 0.929176 -0.574593
0.145413 0.929942 -0.575096
0.150776 0.931222 -0.575905
0.156239 0.932929 -0.576970
0.161763 0.934821 -0.578146
0.167039 0.935326 -0.578503
0.172263 0.935513 -0.578674
0.177981 0.938009 -0.580215
0.183141 0.937741 -0.580121
0.188330 0.937587 -0.580097
0.193580 0.937664 -0.580212
0.198825 0.937680 -0.580294
0.204190 0.938156 -0.580652
0.209712 0.939213 -0.581357
0.214590 0.937590 -0.580475
0.220040 0.938241 -0.580944
0.225473 0.938755 -0.581336
0.230715 0.938483 -0.581265
0.235919 0.938032 -0.581091
0.241174 0.937732 -0.581009
0.246372 0.937196 -0.580791
0.252167 0.938699 -0.581786
0.257538 0.938649 -0.581863
0.262241 0.936317 -0.580589
0.269700 0.943046 -0.584702
0.275259 0.943364 -0.585009
0.280070 0.941249 -0.583875
0.286425 0.943938 -0.585600
0.292942 0.946966 -0.587532
0.299702 0.950554 -0.589803
0.307033 0.955634 -0.592966
0.316775 0.967449 -0.600144
0.324832 0.974010 -0.604202
0.333779 0.982775 -0.609580
0.344123 0.995027 -0.617043
0.346858 0.986231 -0.611973
0.353009 0.986735 -0.612448
0.358520 0.985474 -0.611876
0.364964 0.986586 -0.612725
0.369992 0.983995 -0.611369
0.376461 0.985009 -0.612170
0.385375 0.991936 -0.616505
0.386217 0.979009 -0.608993
0.394815 0.984913 -0.612730
0.401671 0.986467 -0.613875
0.407010 0.984381 -0.612850
0.414378 0.986915 -0.614592
0.416967 0.978535 -0.609811
0.425381 0.983249 -0.612868
0.434553 0.989417 -0.616803
0.439671 0.986586 -0.615355
0.446560 0.987528 -0.616172
0.453425 0.988322 -0.616904
0.459247 0.986865 -0.616291
0.464128 0.983456 -0.614509
0.470784 0.983649 -0.614891
0.476144 0.981199 -0.613690
0.481123 0.978005 -0.612042
0.486335 0.975291 -0.610683
0.493200 0.975759 -0.611237
0.500102 0.976240 -0.611800
0.506791 0.976273 -0.612094
0.513770 0.976806 -0.612688
0.519457 0.974950 -0.611840
0.528785 0.979659 -0.614947
0.535598 0.979783 -0.615287
0.547096 0.988109 -0.620571
0.550643 0.982480 -0.617430
0.553458 0.975745 -0.613611
0.561429 0.977913 -0.615159
0.567751 0.977310 -0.615023
0.572539 0.974233 -0.613380
0.577846 0.972126 -0.612311
0.588139 0.978196 -0.616175
0.593442 0.976228 -0.615161
0.601173 0.978233 -0.616537
0.612004 0.985152 -0.620872
0.622339 0.991266 -0.624704
0.631775 0.995993 -0.627677
-0.950308 1.363154 -0.856632
-0.935616 1.354202 -0.851092
-0.926467 1.353554 -0.850594
-0.916290 1.351508 -0.849214
-0.911531 1.357850 -0.852927
-0.862226 1.295731 -0.814847
-0.853338 1.295463 -0.814485
-0.844120 1.294782 -0.813850
-0.837792 1.298791 -0.816054
-0.831845 1.303587 -0.818717
-0.824372 1.306079 -0.819958
-0.817828 1.310217 -0.822185
-0.813325 1.317893 -0.826551
-0.807463 1.323492 -0.829637
-0.800369 1.327142 -0.831526
-0.792579 1.329683 -0.832730
-0.785744 1.333948 -0.834973
-0.777617 1.336013 -0.835872
-0.770820 1.340482 -0.838227
-0.764666 1.346190 -0.841328
-0.757700 1.350501 -0.843578
-0.749769 1.353071 -0.844769
-0.743043 1.357910 -0.847336
-0.735739 1.361698 -0.849265
-0.727698 1.364083 -0.850345
-0.722939 1.372872 -0.855304
-0.714888 1.375272 -0.856397
-0.706562 1.377088 -0.857140
-0.699073 1.380560 -0.858889
-0.691264 1.383361 -0.860237
-0.684915 1.389196 -0.863423
-0.677575 1.392977 -0.865372
-0.670099 1.396465 -0.867150
-0.662912 1.400569 -0.869305
-0.656120 1.405552 -0.871996
-0.648026 1.407643 -0.872948
-0.641109 1.412361 -0.875491
-0.634630 1.418117 -0.878665
-0.626737 1.420610 -0.879879
-0.618532 1.422321 -0.880630
-0.611201 1.426083 -0.882623
-0.604805 1.432143 -0.886004
-0.597678 1.436455 -0.888339
-0.589811 1.438914 -0.889567
-0.591685 1.466386 -0.905838
-0.595470 1.499611 -0.925565
-0.592894 1.516914 -0.935723
-0.591788 1.538631 -0.948535
-0.593779 1.569441 -0.966809
-0.585273 1.571912 -0.968068
-0.577732 1.577093 -0.970961
-0.569697 1.580919 -0.973046
-0.562031 1.585849 -0.975800
-0.554661 1.591732 -0.979133
-0.546260 1.594588 -0.980655
-0.537043 1.594924 -0.980674
-0.529142 1.599312 -0.983128
-0.520923 1.602748 -0.985018
-0.509612 1.596114 -0.980878
-0.499861 1.594326 -0.979650
-0.490430 1.593460 -0.978981
-0.482295 1.596954 -0.980930
-0.471426 1.590846 -0.977133
-0.461127 1.586455 -0.974371
-0.447877 1.570943 -0.964958
-0.452420 1.621520 -0.995118
-0.443376 1.622069 -0.995329
-0.431322 1.610756 -0.988445
-0.417335 1.627849 -0.998466
-0.409770 1.634484 -1.002337
-0.397497 1.621114 -0.994245
-0.383524 1.639897 -1.005308
-0.377615 1.654902 -1.014203
-0.365657 1.686457 -1.032925
-0.357657 1.693303 -1.036949
-0.343302 1.667653 -1.021544
-0.333917 1.666849 -1.021002
-0.316659 1.673446 -1.024833
-0.300765 1.634624 -1.001573
-0.299037 1.678474 -1.027739
-0.286061 1.713932 -1.048848
-0.264720 1.696510 -1.038358
-0.248945 1.717786 -1.051010
-0.104933 0.948852 -0.591350
-0.099466 0.945521 -0.589354
-0.093857 0.939898 -0.585989
-0.089051 0.944372 -0.588660
-0.084193 0.948763 -0.591282
-0.078464 0.939958 -0.586019
-0.073529 0.943363 -0.588054
-0.068475 0.945151 -0.589123
-0.063532 0.949761 -0.591880
-0.057998 0.941042 -0.586673
-0.052284 0.924489 -0.576785
-0.047084 0.919122 -0.573582
-0.042092 0.919885 -0.574044
-0.037060 0.918915 -0.573471
-0.032057 0.919253 -0.573680
-0.027033 0.917471 -0.572623
-0.022042 0.920378 -0.574370
-0.017026 0.920683 -0.574562
-0.011989 0.923251 -0.576108
-0.006955 0.923537 -0.576291
-0.001912 0.924097 -0.576638
0.003120 0.923963 -0.576572
0.008143 0.923581 -0.576357
0.013090 0.921140 -0.574914
0.017865 0.915084 -0.571311
0.022624 0.910105 -0.568352
0.027524 0.908906 -0.567653
0.032534 0.909848 -0.568235
0.037581 0.911200 -0.569064
0.042624 0.912252 -0.569714
0.047658 0.913005 -0.570186
0.052666 0.913311 -0.570392
0.057745 0.914405 -0.571071
0.062774 0.914786 -0.571325
0.067963 0.916787 -0.572548
0.073074 0.917771 -0.573165
0.078160 0.918401 -0.573571
0.083246 0.918938 -0.573923
0.088350 0.919563 -0.574329
0.093403 0.919690 -0.574439
0.098643 0.921243 -0.575403
0.103807 0.922076 -0.575938
0.109012 0.923111 -0.576596
0.114136 0.923476 -0.576855
0.119462 0.925144 -0.577894
0.124825 0.926902 -0.578990
0.130135 0.928182 -0.579802
0.135188 0.927793 -0.579616
0.140348 0.928027 -0.579806
0.145546 0.928428 -0.580097
0.151074 0.930584 -0.581441
0.156301 0.930979 -0.581734
0.161440 0.930861 -0.581721
0.166677 0.931206 -0.581988
0.172596 0.934829 -0.584221
0.177452 0.933165 -0.583289
0.182941 0.934488 -0.584149
0.188288 0.935059 -0.584562
0.193602 0.935418 -0.584850
0.198931 0.935785 -0.585146
0.204187 0.935785 -0.585225
0.209456 0.935797 -0.585314
0.214724 0.935759 -0.585376
0.218743 0.930771 -0.582473
0.224087 0.931048 -0.582729
0.229391 0.931109 -0.582860
0.235008 0.932276 -0.583658
0.239996 0.931078 -0.583039
0.244778 0.929150 -0.581986
0.249813 0.928122 -0.581477
0.255209 0.928310 -0.581701
0.261063 0.929958 -0.582806
0.266651 0.930623 -0.583325
0.272641 0.932499 -0.584575
0.278548 0.933986 -0.585596
0.284759 0.936300 -0.587120
0.291539 0.940201 -0.589601
0.297798 0.942351 -0.591036
0.305620 0.948949 -0.595151
0.316122 0.962983 -0.603748
0.323492 0.967604 -0.606688
0.329218 0.967422 -0.606744
0.335150 0.967744 -0.607108
0.344485 0.977162 -0.612956
0.350410 0.977158 -0.613136
0.357491 0.980104 -0.615099
0.361866 0.975926 -0.612773
0.367788 0.975720 -0.612847
0.372665 0.972838 -0.611311
0.377539 0.969963 -0.609785
0.383810 0.970478 -0.610309
0.389540 0.969613 -0.610005
0.394518 0.966932 -0.608609
0.403909 0.974459 -0.613387
0.408780 0.971390 -0.611768
0.414278 0.969742 -0.611011
0.419851 0.968234 -0.610344
0.428976 0.974444 -0.614354
0.434527 0.972717 -0.613564
0.435169 0.960544 -0.606447
0.445754 0.969450 -0.612108
0.448133 0.961099 -0.607312
0.454223 0.960469 -0.607199
0.466883 0.972996 -0.615077
0.473355 0.972857 -0.615272
0.478098 0.969281 -0.613380
0.482573 0.965228 -0.611199
0.487429 0.961958 -0.609492
0.492309 0.958772 -0.607836
0.506776 0.973449 -0.617052
0.510905 0.968754 -0.614476
0.510785 0.956450 -0.607259
0.520593 0.962203 -0.611040
0.525984 0.959999 -0.609967
0.531574 0.958193 -0.609131
0.537329 0.956724 -0.608493
0.550162 0.967384 -0.615254
0.557017 0.967742 -0.615718
0.560936 0.963234 -0.613196
0.566116 0.960955 -0.612024
0.574880 0.964627 -0.614479
0.581252 0.964428 -0.614552
0.586116 0.961905 -0.613188
0.597763 0.970234 -0.618451
0.607829 0.976019 -0.622140
0.619118 0.983685 -0.626965
0.637077 1.001537 -0.638013
-0.936076 1.338749 -0.851146
-0.940311 1.357583 -0.862705
-0.929136 1.353940 -0.860353
-0.920092 1.353607 -0.860015
-0.912163 1.355125 -0.860792
-0.861703 1.291372 -0.821265
-0.854955 1.294391 -0.822925
-0.846223 1.294473 -0.822749
-0.842094 1.301970 -0.827124
-0.836306 1.307057 -0.829991
-0.825903 1.304839 -0.828336
-0.819192 1.308696 -0.830409
-0.814397 1.315873 -0.834508
-0.808094 1.320716 -0.837156
-0.800626 1.323716 -0.838656
-0.793353 1.327131 -0.840401
-0.785972 1.330436 -0.842070
-0.777989 1.332746 -0.843119
-0.770144 1.335333 -0.844333
-0.763734 1.340540 -0.847150
-0.756859 1.344981 -0.849493
-0.749954 1.349424 -0.851835
-0.742753 1.353361 -0.853864
-0.736753 1.359614 -0.857312
-0.727503 1.359689 -0.856976
-0.720133 1.363354 -0.858841
-0.713617 1.368715 -0.861746
-0.705846 1.371612 -0.863146
-0.698202 1.374747 -0.864696
-0.692303 1.381459 -0.868435
-0.684821 1.384948 -0.870210
-0.678147 1.390136 -0.873027
-0.671020 1.394388 -0.875277
-0.664083 1.399066 -0.877792
-0.656362 1.402032 -0.879269
-0.648447 1.404535 -0.880471
-0.641485 1.409161 -0.882973
-0.635642 1.416394 -0.887069
-0.628575 1.420860 -0.889486
-0.619829 1.421357 -0.889493
-0.612187 1.424416 -0.891067
-0.605149 1.428936 -0.893537
-0.597283 1.431425 -0.894778
-0.589983 1.435307 -0.896873
-0.588873 1.455071 -0.908627
-0.585756 1.470127 -0.917522
-0.584635 1.490839 -0.929854
-0.581549 1.506829 -0.939321
-0.591160 1.557942 -0.970113
-0.585849 1.569182 -0.976698
-0.578562 1.575104 -0.980061
-0.570868 1.579954 -0.982780
-0.562917 1.584110 -0.985085
-0.555147 1.588843 -0.987746
-0.546806 1.591913 -0.989405
-0.538043 1.593687 -0.990286
-0.529368 1.595706 -0.991322
-0.521156 1.599177 -0.993245
-0.515903 1.612321 -1.001033
-0.503515 1.602186 -0.994727
-0.495059 1.604870 -0.996191
-0.483954 1.598425 -0.992134
-0.470089 1.581909 -0.981989
-0.460111 1.578599 -0.979845
-0.456027 1.596683 -0.990655
-0.452126 1.616139 -1.002299
-0.434434 1.618697 -1.003601
-0.422902 1.609193 -0.997737
-0.421028 1.638703 -1.015477
-0.412794 1.642884 -1.017899
-0.395138 1.606770 -0.995961
-0.383910 1.637378 -1.014282
-0.377084 1.648156 -1.020711
-0.368929 1.653131 -1.023636
-0.339790 1.645263 -1.018659
-0.329335 1.687893 -1.044290
-0.318473 1.679365 -1.039077
-0.310266 1.685667 -1.042829
-0.291039 1.741554 -1.076442
-0.267786 1.713387 -1.059343
-0.257518 1.707321 -1.055641
-0.249625 1.718487 -1.062352
-0.239416 1.712468 -1.058684
-0.230658 1.717698 -1.061815
-0.219215 1.700438 -1.051364
-0.115694 1.004886 -0.631230
-0.108619 0.987440 -0.620685
-0.099159 0.939430 -0.591685
-0.093618 0.934418 -0.588653
-0.088373 0.932674 -0.587596
-0.083148 0.930927 -0.586538
-0.078110 0.931821 -0.587076
-0.072942 0.930596 -0.586336
-0.067856 0.930655 -0.586372
-0.062638 0.927863 -0.584687
-0.057812 0.933903 -0.588337
-0.052135 0.917707 -0.578559
-0.047103 0.917171 -0.578240
-0.042091 0.917135 -0.578223
-0.037055 0.915835 -0.577444
-0.032046 0.915381 -0.577177
-0.027052 0.916243 -0.577706
-0.022048 0.916375 -0.577795
-0.017040 0.917409 -0.578429
-0.012024 0.917991 -0.578791
-0.006993 0.919240 -0.579558
-0.001964 0.919692 -0.579843
0.003037 0.918758 -0.579293
0.008073 0.919347 -0.579663
0.013042 0.917823 -0.578759
0.017826 0.912161 -0.575355
0.022628 0.908205 -0.572983
0.027548 0.907341 -0.572480
0.032544 0.907983 -0.572887
0.037591 0.909293 -0.573700
0.042677 0.910950 -0.574722
0.047774 0.912500 -0.575682
0.052807 0.912998 -0.576007
0.057688 0.911608 -0.575192
0.062779 0.912708 -0.575884
0.067866 0.913618 -0.576462
0.073139 0.916259 -0.578087
0.078182 0.916437 -0.578225
0.083288 0.917141 -0.578683
0.088396 0.917767 -0.579095
0.093580 0.918937 -0.579838
0.098810 0.920344 -0.580725
0.104128 0.922272 -0.581929
0.109175 0.922064 -0.581843
0.114368 0.922858 -0.582365
0.119535 0.923394 -0.582733
0.124881 0.925014 -0.583758
0.130050 0.925395 -0.584036
0.135238 0.925829 -0.584348
0.140210 0.924951 -0.583869
0.145584 0.926363 -0.584777
0.151070 0.928271 -0.585987
0.156220 0.928248 -0.586032
0.161190 0.927264 -0.585497
0.166310 0.927051 -0.585431
0.171744 0.928346 -0.586280
0.177059 0.928970 -0.586726
0.182318 0.929264 -0.586975
0.187301 0.928262 -0.586442
0.192493 0.928182 -0.586470
0.198333 0.930853 -0.588167
0.203601 0.930956 -0.588311
0.208651 0.930120 -0.587890
0.213436 0.928216 -0.586825
0.218185 0.926206 -0.585699
0.223012 0.924542 -0.584784
0.228532 0.925493 -0.585459
0.233677 0.924984 -0.585252
0.239024 0.925172 -0.585472
0.243904 0.923657 -0.584661
0.248824 0.922289 -0.583944
0.254154 0.922307 -0.584071
0.259909 0.923686 -0.585028
0.265313 0.923815 -0.585231
0.270853 0.924315 -0.585663
0.277154 0.927131 -0.587507
0.282975 0.928308 -0.588360
0.289205 0.930621 -0.589908
0.296519 0.936021 -0.593338
0.301596 0.934630 -0.592645
0.312845 0.950968 -0.602739
0.320340 0.956077 -0.606012
0.327455 0.959895 -0.608507
0.330426 0.952191 -0.603995
0.336820 0.953875 -0.605201
0.343871 0.957173 -0.607397
0.348426 0.953795 -0.605532
0.356555 0.959614 -0.609276
0.363902 0.963206 -0.611671
0.370299 0.964253 -0.612520
0.374115 0.958876 -0.609456
0.380378 0.959487 -0.610050
0.387254 0.961462 -0.611483
0.392144 0.958653 -0.610000
0.395900 0.953239 -0.606929
0.402048 0.953340 -0.607233
0.410252 0.957971 -0.610313
0.417363 0.959980 -0.611796
0.422136 0.956771 -0.610091
0.428347 0.956667 -0.610291
0.431556 0.950139 -0.606560
0.436683 0.947725 -0.605351
0.444841 0.951552 -0.607973
0.452530 0.954256 -0.609911
0.457111 0.950598 -0.607949
0.461093 0.945794 -0.605284
0.467086 0.944986 -0.605074
0.476976 0.951653 -0.609460
0.480179 0.945389 -0.605898
0.485540 0.943293 -0.604898
0.492408 0.944008 -0.605626
0.498224 0.942753 -0.605140
0.507976 0.948618 -0.609038
0.513144 0.946143 -0.607795
0.521650 0.949605 -0.610208
0.527910 0.949074 -0.610153
0.533468 0.947357 -0.609358
0.538969 0.945603 -0.608532
0.547831 0.949571 -0.611231
0.554006 0.949019 -0.611127
0.559458 0.947341 -0.610314
0.569296 0.952890 -0.613959
0.573359 0.949098 -0.611809
0.574237 0.940395 -0.606603
0.588916 0.953698 -0.615003
0.602828 0.965631 -0.622541
0.607459 0.963105 -0.621105
0.620739 0.973963 -0.627941
-0.945697 1.349327 -0.867216
-0.938688 1.351610 -0.868573
-0.931738 1.354206 -0.870092
-0.923372 1.354891 -0.870388
-0.907716 1.344677 -0.863850
-0.879150 1.314591 -0.844884
-0.853036 1.287818 -0.827969
-0.848202 1.293943 -0.831558
-0.842768 1.299355 -0.834679
-0.834488 1.300419 -0.835066
-0.827002 1.302873 -0.836299
-0.818554 1.303870 -0.836607
-0.813368 1.310344 -0.840309
-0.807643 1.316105 -0.843550
-0.799312 1.317606 -0.844127
-0.792861 1.322379 -0.846727
-0.785721 1.326072 -0.848645
-0.777998 1.328815 -0.849965
-0.770825 1.332583 -0.851915
-0.763421 1.335992 -0.853637
-0.756785 1.340844 -0.856249
-0.749270 1.344142 -0.857895
-0.743143 1.350062 -0.861163
-0.735497 1.353186 -0.862699
-0.727182 1.355029 -0.863441
-0.720721 1.360448 -0.866400
-0.713938 1.365287 -0.869001
-0.705855 1.367565 -0.870020
-0.699683 1.373679 -0.873415
-0.692392 1.377563 -0.875436
-0.686342 1.384035 -0.879058
-0.678515 1.386827 -0.880413
-0.671779 1.391925 -0.883197
-0.663578 1.393876 -0.884045
-0.655532 1.396113 -0.885076
-0.648593 1.400776 -0.887610
-0.640813 1.403553 -0.888988
-0.635196 1.411273 -0.893417
-0.629239 1.418314 -0.897433
-0.620599 1.419096 -0.897602
-0.612128 1.420194 -0.897976
-0.605587 1.425927 -0.901206
-0.598159 1.429521 -0.903129
-0.591085 1.434009 -0.905608
-0.585391 1.442056 -0.910280
-0.581141 1.453997 -0.917349
-0.576773 1.465902 -0.924400
-0.570224 1.472236 -0.928036
-0.586799 1.567447 -0.985963
-0.579593 1.573642 -0.989519
-0.572673 1.580755 -0.993645
-0.566087 1.588983 -0.998460
-0.556531 1.588580 -0.997992
-0.547575 1.589870 -0.998568
-0.540153 1.595818 -1.002007
-0.531071 1.596686 -1.002339
-0.522970 1.600615 -1.004553
-0.521793 1.627085 -1.020575
-0.508488 1.614321 -1.012581
-0.493419 1.595006 -1.000587
-0.483174 1.591443 -0.998244
-0.466606 1.565438 -0.982177
-0.458839 1.569817 -0.984708
-0.455978 1.626231 -1.018931
-0.448103 1.631548 -1.022048
-0.438434 1.630019 -1.020983
-0.432742 1.644202 -1.029531
-0.425408 1.652262 -1.034338
-0.414101 1.644020 -1.029187
-0.400796 1.626755 -1.018528
-0.387945 1.610554 -1.008527
-0.380363 1.658966 -1.037917
-0.369492 1.651482 -1.033255
-0.366893 1.683727 -1.052867
-0.352111 1.656837 -1.036362
-0.342721 1.656049 -1.035805
-0.335178 1.664914 -1.041148
-0.331357 1.694537 -1.059169
-0.322997 1.700436 -1.062706
-0.303534 1.696788 -1.060359
-0.298740 1.725273 -1.077696
-0.291635 1.740886 -1.087176
-0.282549 1.744415 -1.089282
-0.232337 1.726933 -1.078419
-0.222087 1.720519 -1.074475
-0.116749 1.013333 -0.642805
-0.109524 0.994918 -0.631558
-0.099641 0.942676 -0.599668
-0.093482 0.930263 -0.592087
-0.087581 0.919483 -0.585504
-0.082590 0.920287 -0.585990
-0.077587 0.921017 -0.586433
-0.072618 0.922465 -0.587315
-0.067475 0.920810 -0.586305
-0.062368 0.919543 -0.585532
-0.057190 0.916145 -0.583461
-0.052095 0.914039 -0.582178
-0.047036 0.912330 -0.581139
-0.042032 0.912072 -0.580986
-0.037011 0.910752 -0.580186
-0.032012 0.909869 -0.579654
-0.027044 0.911665 -0.580758
-0.022055 0.912765 -0.581439
-0.017058 0.912452 -0.581257
-0.012050 0.913871 -0.582134
-0.007045 0.913996 -0.582222
-0.002091 0.911325 -0.580605
0.002951 0.913425 -0.581900
0.007993 0.914762 -0.582731
0.012966 0.913713 -0.582107
0.017789 0.909267 -0.579410
0.022662 0.906933 -0.578004
0.027596 0.906254 -0.577608
0.032610 0.907073 -0.578128
0.037694 0.908858 -0.579239
0.042739 0.909761 -0.579813
0.047832 0.911169 -0.580697
0.052891 0.911936 -0.581190
0.057867 0.911594 -0.581007
0.062793 0.910716 -0.580499
0.067936 0.912203 -0.581436
0.073107 0.913769 -0.582423
0.078265 0.915041 -0.583232
0.083378 0.915758 -0.583703
0.088474 0.916238 -0.584032
0.093587 0.916791 -0.584406
0.098947 0.919197 -0.585914
0.104092 0.919771 -0.586305
0.109172 0.919805 -0.586367
0.114221 0.919598 -0.586285
0.119421 0.920377 -0.586807
0.124442 0.919928 -0.586579
0.129771 0.921391 -0.587524
0.134881 0.921410 -0.587586
0.140046 0.921721 -0.587831
0.145225 0.922056 -0.588091
0.150419 0.922415 -0.588369
0.155796 0.923695 -0.589213
0.160771 0.922795 -0.588726
0.165889 0.922625 -0.588687
0.171201 0.923372 -0.589213
0.176449 0.923741 -0.589509
0.181103 0.921310 -0.588096
0.186365 0.921699 -0.588411
0.191033 0.919419 -0.587095
0.197058 0.923021 -0.589382
0.202449 0.923760 -0.589920
0.207599 0.923435 -0.589810
0.212508 0.922123 -0.589099
0.217450 0.920946 -0.588473
0.222173 0.918940 -0.587343
0.227534 0.919359 -0.587702
0.232879 0.919653 -0.587988
0.237946 0.918888 -0.587629
0.242996 0.918043 -0.587225
0.247340 0.914750 -0.585323
0.252975 0.915889 -0.586143
0.258775 0.917483 -0.587246
0.264018 0.917148 -0.587170
0.268869 0.915520 -0.586305
0.274797 0.917270 -0.587517
0.280381 0.917836 -0.588008
0.286512 0.919981 -0.589473
0.293423 0.924303 -0.592282
0.301224 0.931009 -0.596562
0.309502 0.938792 -0.601511
0.315933 0.941042 -0.603066
0.321850 0.941725 -0.603663
0.327023 0.940292 -0.602963
0.333137 0.941360 -0.603809
0.340373 0.945288 -0.606420
0.345771 0.944246 -0.605978
0.352381 0.946263 -0.607426
0.357803 0.945155 -0.606955
0.364129 0.946252 -0.607848
0.369416 0.944705 -0.607117
0.374634 0.942965 -0.606272
0.381523 0.945161 -0.607861
0.385462 0.940334 -0.605120
0.392089 0.941754 -0.606242
0.398550 0.942683 -0.607066
0.405209 0.943956 -0.608109
0.410674 0.942490 -0.607464
0.417854 0.944715 -0.609108
0.422044 0.940408 -0.606714
0.425497 0.934594 -0.603389
0.433669 0.938696 -0.606210
0.439947 0.938731 -0.606515
0.447007 0.940287 -0.607768
0.452997 0.939602 -0.607635
0.458824 0.938556 -0.607280
0.465877 0.939870 -0.608393
0.471240 0.937854 -0.607438
0.476702 0.936034 -0.606605
0.482062 0.934029 -0.605655
0.489751 0.936346 -0.607395
0.495746 0.935485 -0.607154
0.500799 0.932929 -0.605854
0.508064 0.934359 -0.607035
0.514741 0.934716 -0.607541
0.523154 0.938083 -0.609920
0.528601 0.936290 -0.609073
0.533673 0.933926 -0.607858
0.544889 0.941950 -0.613124
0.550241 0.940109 -0.612216
0.553746 0.935331 -0.609456
0.559608 0.934541 -0.609176
0.565918 0.934556 -0.609383
0.569591 0.930463 -0.607003
0.573436 0.926814 -0.604881
0.594674 0.950379 -0.619786
0.597177 0.944740 -0.616380
0.600861 0.941123 -0.614219
-0.952493 1.355717 -0.880838
-0.939009 1.348515 -0.876223
-0.933116 1.352635 -0.878726
-0.925741 1.354782 -0.879951
-0.916690 1.354597 -0.879671
-0.888662 1.325516 -0.861123
-0.857683 1.291409 -0.839384
-0.850505 1.293897 -0.840717
-0.841424 1.293538 -0.840230
-0.833239 1.294699 -0.840679
-0.824856 1.295645 -0.840972
-0.818577 1.300117 -0.843468
-0.812181 1.304552 -0.845921
-0.805883 1.309294 -0.848551
-0.798070 1.311612 -0.849641
-0.790899 1.315100 -0.851454
-0.784348 1.319746 -0.853985
-0.783889 1.335173 -0.863279
-0.771737 1.330213 -0.859756
-0.764218 1.333419 -0.861358
-0.756714 1.336691 -0.862996
-0.749887 1.341242 -0.865434
-0.742923 1.345595 -0.867745
-0.735319 1.348782 -0.869325
-0.727632 1.351821 -0.870812
-0.722566 1.359945 -0.875482
-0.714770 1.362831 -0.876877
-0.707128 1.366008 -0.878456
-0.700071 1.370359 -0.880773
-0.692328 1.373322 -0.882227
-0.684462 1.376011 -0.883514
-0.677047 1.379619 -0.885381
-0.673474 1.391420 -0.892365
-0.663209 1.388959 -0.890458
-0.654695 1.390161 -0.890842
-0.645300 1.389323 -0.889964
-0.640502 1.398739 -0.895481
-0.633850 1.404064 -0.898455
-0.626826 1.408569 -0.900925
-0.618161 1.409220 -0.901005
-0.611565 1.414736 -0.904118
-0.604911 1.420167 -0.907185
-0.597272 1.423219 -0.908781
-0.590787 1.429153 -0.912174
-0.585116 1.437236 -0.916908
-0.578835 1.443884 -0.920757
-0.571588 1.448097 -0.923101
-0.571787 1.472251 -0.937824
-0.560670 1.466337 -0.933897
-0.578701 1.540663 -0.979736
-0.582364 1.577020 -1.002020
-0.574934 1.582803 -1.005355
-0.567451 1.588525 -1.008658
-0.560154 1.594892 -1.012368
-0.551184 1.596341 -1.013038
-0.540656 1.592957 -1.010725
-0.533259 1.599125 -1.014332
-0.524486 1.601046 -1.015318
-0.517615 1.609102 -1.020107
-0.497738 1.605209 -1.017328
-0.481845 1.582563 -1.003148
-0.473439 1.585132 -1.004571
-0.460749 1.572407 -0.996546
-0.456218 1.588836 -1.006550
-0.460517 1.638781 -1.037272
-0.451161 1.638823 -1.037154
-0.440116 1.632206 -1.032927
-0.432638 1.639405 -1.037244
-0.425753 1.649270 -1.043211
-0.417236 1.652720 -1.045221
-0.403083 1.632206 -1.032436
-0.395076 1.637479 -1.035583
-0.392682 1.668104 -1.054388
-0.382744 1.665547 -1.052708
-0.372115 1.659519 -1.048891
-0.363943 1.665005 -1.052187
-0.356270 1.673216 -1.057168
-0.346337 1.670246 -1.055253
-0.338562 1.678418 -1.060219
-0.333634 1.702490 -1.074999
-0.313884 1.697854 -1.072002
-0.305228 1.702495 -1.074803
-0.299188 1.723553 -1.087736
-0.289692 1.723935 -1.087916
-0.280789 1.728215 -1.090504
-0.199311 1.679779 -1.060336
-0.116361 1.006630 -0.645180
-0.109478 0.991804 -0.636027
-0.102584 0.974913 -0.625601
-0.087469 0.915537 -0.588974
-0.082192 0.912026 -0.586804
-0.077131 0.911316 -0.586363
-0.072185 0.912448 -0.587059
-0.067205 0.913128 -0.587477
-0.062170 0.912771 -0.587256
-0.056913 0.906881 -0.583626
-0.051876 0.905309 -0.582659
-0.046940 0.906532 -0.583416
-0.041929 0.905215 -0.582608
-0.036952 0.904841 -0.582384
-0.031988 0.905149 -0.582579
-0.027019 0.905137 -0.582580
-0.022053 0.906244 -0.583271
-0.017076 0.907221 -0.583883
-0.012102 0.906549 -0.583480
-0.007123 0.906776 -0.583632
-0.002156 0.906200 -0.583289
0.002838 0.907001 -0.583797
0.007898 0.909695 -0.585474
0.012832 0.907980 -0.584432
0.017768 0.906761 -0.583698
0.022713 0.906008 -0.583252
0.027646 0.905175 -0.582758
0.032663 0.905926 -0.583241
0.037717 0.907139 -0.584012
0.042743 0.907713 -0.584389
0.047660 0.906720 -0.583801
0.052754 0.908069 -0.584659
0.057770 0.908303 -0.584831
0.062732 0.907891 -0.584605
0.067784 0.908441 -0.584975
0.072920 0.909743 -0.585810
0.078091 0.911213 -0.586750
0.083250 0.912412 -0.587525
0.088272 0.912312 -0.587499
0.093340 0.912562 -0.587692
0.098460 0.913175 -0.588110
0.103512 0.913202 -0.588169
0.108537 0.913007 -0.588092
0.113552 0.912731 -0.587967
0.118761 0.913732 -0.588632
0.124003 0.914847 -0.589370
0.129118 0.915071 -0.589561
0.134505 0.916878 -0.590730
0.139602 0.916852 -0.590770
0.144631 0.916421 -0.590563
0.149822 0.916862 -0.590895
0.154830 0.916272 -0.590595
0.159994 0.916486 -0.590793
0.165284 0.917276 -0.591349
0.170448 0.917381 -0.591486
0.175461 0.916729 -0.591156
0.180732 0.917258 -0.591560
0.185427 0.915135 -0.590327
0.190924 0.916583 -0.591306
0.195887 0.915646 -0.590812
0.201180 0.916082 -0.591171
0.205105 0.910881 -0.588046
0.211261 0.914760 -0.590541
0.216096 0.913275 -0.589722
0.221240 0.912983 -0.589644
0.226331 0.912461 -0.589427
0.231597 0.912552 -0.589594
0.236721 0.912080 -0.589416
0.241453 0.910204 -0.588371
0.246235 0.908523 -0.587452
0.251058 0.906990 -0.586627
0.256733 0.908280 -0.587558
0.262577 0.910017 -0.588769
0.267418 0.908437 -0.587929
0.272700 0.908241 -0.587951
0.278320 0.909025 -0.588586
0.284442 0.911238 -0.590113
0.291702 0.916683 -0.593654
0.299312 0.922896 -0.597677
0.307022 0.929120 -0.601716
0.313083 0.930433 -0.602710
0.318580 0.930076 -0.602671
0.324788 0.931600 -0.603808
0.331104 0.933295 -0.605057
0.336785 0.933198 -0.605197
0.342638 0.933478 -0.605578
0.348024 0.932486 -0.605173
0.353053 0.930559 -0.604191
0.357701 0.927678 -0.602619
0.363191 0.926861 -0.602338
0.369566 0.928120 -0.603358
0.376715 0.931094 -0.605454
0.382483 0.930695 -0.605453
0.385984 0.925038 -0.602173
0.395348 0.932721 -0.607230
0.401151 0.932178 -0.607156
0.403669 0.924367 -0.602542
0.411290 0.927751 -0.604933
0.417592 0.928156 -0.605466
0.423072 0.926751 -0.604870
0.428560 0.925335 -0.604271
0.436653 0.929227 -0.607004
0.442417 0.928247 -0.606687
0.445245 0.921384 -0.602680
0.451159 0.920716 -0.602561
0.458323 0.922438 -0.603946
0.467636 0.928184 -0.607862
0.473708 0.927612 -0.607810
0.478943 0.925455 -0.606760
0.482181 0.919641 -0.603406
0.489365 0.921127 -0.604643
0.493385 0.916875 -0.602262
0.500462 0.918138 -0.603353
0.506772 0.918024 -0.603570
0.511310 0.914848 -0.601847
0.522706 0.923501 -0.607584
0.528741 0.922904 -0.607474
0.536828 0.925786 -0.609551
0.539460 0.919624 -0.605900
0.549017 0.924975 -0.609514
0.555523 0.925334 -0.609957
0.562561 0.926610 -0.610965
0.564571 0.919977 -0.606949
0.566114 0.912840 -0.602592
0.574486 0.916534 -0.605074
0.583889 0.921842 -0.608560
0.591393 0.924272 -0.610202
-0.944880 1.341111 -0.881187
-0.939074 1.345047 -0.883641
-0.933030 1.348888 -0.885998
-0.926269 1.351904 -0.887794
-0.918181 1.353137 -0.888419
-0.909325 1.353378 -0.888379
-0.861470 1.293630 -0.850028
-0.852491 1.293329 -0.849595
-0.842508 1.291551 -0.848195
-0.832429 1.289680 -0.846712
-0.825116 1.292302 -0.848073
-0.818994 1.296993 -0.850731
-0.814005 1.303715 -0.854663
-0.808363 1.309548 -0.858010
-0.799725 1.310498 -0.858233
-0.791233 1.311737 -0.858627
-0.783777 1.314799 -0.860171
-0.778225 1.321255 -0.863860
-0.772435 1.327431 -0.867362
-0.764340 1.329604 -0.868315
