ply
format ascii 1.0
comment ---
element vertex 1671
property float x
property float y
property float z
element face 0
property list uchar uint vertex_indices
end_header
-0.525100 1.641806 -0.418087
-0.519859 1.654233 -0.421419
-0.511719 1.655905 -0.421674
-0.503833 1.658578 -0.422214
-0.496304 1.662728 -0.423175
-0.490246 1.673014 -0.425887
-0.483052 1.678918 -0.427347
-0.475608 1.683948 -0.428555
-0.467532 1.686372 -0.429020
-0.460859 1.695113 -0.431284
-0.452992 1.698735 -0.432088
-0.445590 1.704640 -0.433541
-0.438070 1.710202 -0.434895
-0.430267 1.714590 -0.435914
-0.423328 1.723488 -0.438213
-0.414961 1.725403 -0.438527
-0.406285 1.725723 -0.438387
-0.399049 1.733842 -0.440461
-0.391679 1.741603 -0.442431
-0.382844 1.741309 -0.442115
-0.374756 1.745360 -0.443031
-0.367301 1.753462 -0.445094
-0.359540 1.760077 -0.446734
-0.351702 1.766560 -0.448334
-0.344403 1.777026 -0.451060
-0.335577 1.777532 -0.450967
-0.327893 1.786228 -0.453188
-0.318941 1.786035 -0.452896
-0.310908 1.792878 -0.454591
-0.302692 1.798710 -0.455999
-0.294114 1.801920 -0.456666
-0.286114 1.810395 -0.458817
-0.278003 1.818532 -0.460870
-0.269759 1.826081 -0.462756
-0.261389 1.833030 -0.464471
-0.252825 1.838559 -0.465784
-0.244060 1.842372 -0.466613
-0.235466 1.848542 -0.468105
-0.226649 1.852591 -0.468998
-0.218274 1.862942 -0.471661
-0.209272 1.865710 -0.472192
-0.200366 1.870236 -0.473215
-0.191579 1.877356 -0.474966
-0.182502 1.880375 -0.475564
-0.173650 1.888260 -0.477526
-0.164595 1.893268 -0.478680
-0.155520 1.898795 -0.479977
-0.146303 1.901711 -0.480542
-0.137197 1.908904 -0.482304
-0.128061 1.917323 -0.484406
-0.118723 1.919971 -0.484893
-0.109381 1.923512 -0.485628
-0.100020 1.927930 -0.486608
-0.090628 1.933178 -0.487818
-0.081194 1.940405 -0.489579
-0.071695 1.947975 -0.491434
-0.062139 1.953854 -0.492815
-0.052519 1.960685 -0.494460
-0.042900 1.963861 -0.495085
-0.033282 1.965688 -0.495334
-0.023593 1.969691 -0.496187
-0.013803 1.975774 -0.497618
-0.003934 1.982471 -0.499218
0.005947 1.987955 -0.500479
0.015818 1.992113 -0.501369
0.025683 1.995390 -0.502014
0.035523 1.997670 -0.502382
0.045432 2.000737 -0.502967
0.055154 2.000489 -0.502632
0.065034 2.002529 -0.502930
0.075507 2.012215 -0.505345
0.085714 2.017385 -0.506507
0.095919 2.021910 -0.507490
0.105873 2.023112 -0.507551
0.115732 2.023148 -0.507290
0.126118 2.028474 -0.508489
0.136643 2.034597 -0.509907
0.146841 2.037122 -0.510330
0.156808 2.037342 -0.510116
0.167141 2.040597 -0.510737
0.177246 2.041671 -0.510757
0.187039 2.040171 -0.510066
0.196119 2.033341 -0.507908
0.204751 2.023669 -0.504969
0.213668 2.016587 -0.502744
0.222561 2.009729 -0.500582
0.231470 2.003339 -0.498550
0.240064 1.995252 -0.496053
0.248563 1.986988 -0.493508
0.257066 1.979140 -0.491079
0.265577 1.971697 -0.488762
0.273706 1.962408 -0.485941
0.281259 1.950352 -0.482363
0.289529 1.942677 -0.479987
0.298123 1.936995 -0.478157
0.306959 1.932722 -0.476714
0.314398 1.921617 -0.473402
0.322141 1.912404 -0.470610
0.328825 1.898504 -0.466539
0.337344 1.893621 -0.464932
0.345787 1.888496 -0.463259
0.354223 1.883449 -0.461608
0.360371 1.868607 -0.457287
0.367166 1.857015 -0.453855
0.374679 1.848758 -0.451332
0.382004 1.839952 -0.448661
0.387985 1.826035 -0.444601
0.395101 1.816962 -0.441861
0.399666 1.798371 -0.436536
0.407799 1.793734 -0.435003
0.416333 1.790612 -0.433881
0.422301 1.778221 -0.430245
0.428038 1.765335 -0.426477
0.433162 1.750650 -0.422224
0.439758 1.741383 -0.419440
0.442347 1.718873 -0.413075
0.450983 1.716940 -0.412279
0.456476 1.704763 -0.408713
0.459449 1.684846 -0.403059
0.464776 1.672834 -0.399543
0.469263 1.658509 -0.395406
0.475464 1.649717 -0.392763
0.480480 1.637557 -0.389214
0.485292 1.625069 -0.385579
0.488547 1.608370 -0.380813
0.492731 1.594722 -0.376872
0.503067 1.598580 -0.377639
0.504196 1.576885 -0.371539
0.510924 1.570925 -0.369670
0.515248 1.558639 -0.366104
0.518953 1.545010 -0.362181
0.524228 1.535775 -0.359439
0.530214 1.528565 -0.357242
0.529588 1.504859 -0.350632
0.535815 1.498798 -0.348749
0.542612 1.494269 -0.347277
0.546188 1.482076 -0.343759
0.551438 1.474200 -0.341399
0.557179 1.467698 -0.339408
0.562059 1.459401 -0.336942
0.567577 1.452822 -0.334937
0.570062 1.439620 -0.331172
0.575480 1.433365 -0.329263
0.582045 1.429883 -0.328094
0.585883 1.420656 -0.325402
0.591235 1.415028 -0.323673
0.596423 1.409319 -0.321926
0.600516 1.401594 -0.319650
0.603837 1.392601 -0.317043
-1.029241 1.302320 -0.343270
-1.024536 1.307742 -0.344689
-1.016886 1.309221 -0.344911
-1.009448 1.311144 -0.345266
-1.002451 1.313843 -0.345853
-0.995350 1.316534 -0.346436
-0.990157 1.322160 -0.347903
-0.984722 1.327604 -0.349313
-0.977932 1.331176 -0.350155
-0.971019 1.334671 -0.350973
-0.966113 1.341339 -0.352745
-0.957240 1.342014 -0.352711
-0.949825 1.344984 -0.353367
-0.944314 1.351017 -0.354944
-0.938609 1.356844 -0.356457
-0.931722 1.360851 -0.357422
-0.924530 1.364403 -0.358250
-0.916794 1.367079 -0.358814
-0.911707 1.374180 -0.360706
-0.904668 1.378069 -0.361633
-0.897032 1.380947 -0.362258
-0.892174 1.388611 -0.364315
-0.885290 1.392817 -0.365336
-0.879224 1.398471 -0.366791
-0.870652 1.399671 -0.366913
-0.863958 1.404197 -0.368030
-0.857891 1.409873 -0.369490
-0.851952 1.415810 -0.371027
-0.844132 1.418250 -0.371521
-0.836751 1.421468 -0.372247
-0.831252 1.428267 -0.374040
-0.824084 1.431868 -0.374880
-0.817367 1.436330 -0.375977
-0.809965 1.439421 -0.376665
-0.803648 1.444661 -0.377993
-0.797930 1.451136 -0.379687
-0.793077 1.459448 -0.381926
-0.784876 1.460843 -0.382110
-0.779043 1.467180 -0.383761
-0.769575 1.465759 -0.383112
-0.762757 1.469952 -0.384127
-0.756137 1.474576 -0.385270
-0.749373 1.478891 -0.386321
-0.743746 1.485777 -0.388133
-0.737652 1.491670 -0.389649
-0.730474 1.495098 -0.390436
-0.723695 1.499447 -0.391496
-0.717047 1.504125 -0.392652
-0.709945 1.507731 -0.393491
-0.702776 1.511171 -0.394281
-0.696815 1.517606 -0.395954
-0.689844 1.521580 -0.396901
-0.682561 1.524775 -0.397617
-0.674964 1.527152 -0.398093
-0.668942 1.533640 -0.399778
-0.662840 1.540012 -0.401428
-0.656834 1.546740 -0.403182
-0.650544 1.552801 -0.404738
-0.643507 1.556876 -0.405710
-0.636431 1.560876 -0.406660
-0.629420 1.565104 -0.407676
-0.622811 1.570548 -0.409048
-0.615948 1.575332 -0.410225
-0.609127 1.580314 -0.411460
-0.602619 1.586332 -0.412997
-0.595024 1.589092 -0.413579
-0.587458 1.591959 -0.414192
-0.581844 1.601115 -0.416644
-0.574435 1.604645 -0.417450
-0.567180 1.608734 -0.418418
-0.561122 1.616941 -0.420588
-0.553683 1.620618 -0.421434
-0.546729 1.626056 -0.422793
-0.540416 1.633916 -0.424857
-0.533190 1.638677 -0.426017
-0.526584 1.645848 -0.427877
-0.518949 1.649343 -0.428665
-0.511485 1.653568 -0.429665
-0.504032 1.657940 -0.430707
-0.497377 1.665626 -0.432712
-0.490843 1.674064 -0.434933
-0.483316 1.678644 -0.436032
-0.475018 1.680065 -0.436213
-0.468188 1.687895 -0.438253
-0.459954 1.689745 -0.438557
-0.452209 1.693850 -0.439515
-0.445560 1.703216 -0.441996
-0.437455 1.705995 -0.442567
-0.430641 1.715186 -0.444994
-0.423408 1.722673 -0.446925
-0.414970 1.724262 -0.447149
-0.406510 1.725760 -0.447346
-0.398158 1.727862 -0.447717
-0.390302 1.732796 -0.448907
-0.382547 1.738533 -0.450326
-0.374842 1.744840 -0.451909
-0.367416 1.753173 -0.454075
-0.359542 1.759143 -0.455558
-0.351774 1.766123 -0.457330
-0.342985 1.766642 -0.457239
-0.336356 1.782141 -0.461461
-0.327108 1.779830 -0.460555
-0.319073 1.786330 -0.462183
-0.311520 1.796989 -0.465005
-0.302872 1.799609 -0.465514
-0.294308 1.803071 -0.466265
-0.286931 1.817145 -0.470062
-0.278289 1.820837 -0.470876
-0.270063 1.828783 -0.472909
-0.261595 1.835001 -0.474445
-0.253134 1.841856 -0.476162
-0.244100 1.842989 -0.476238
-0.235269 1.846542 -0.477006
-0.226854 1.855645 -0.479363
-0.218094 1.861240 -0.480713
-0.209248 1.866284 -0.481905
-0.200147 1.868065 -0.482162
-0.191438 1.876492 -0.484318
-0.182472 1.881668 -0.485544
-0.173387 1.885335 -0.486338
-0.164536 1.894741 -0.488767
-0.155358 1.898252 -0.489514
-0.146192 1.902866 -0.490574
-0.137082 1.910527 -0.492501
-0.127860 1.916496 -0.493944
-0.118508 1.918840 -0.494355
-0.109120 1.920125 -0.494463
-0.099756 1.923957 -0.495295
-0.090370 1.929215 -0.496531
-0.080944 1.937234 -0.498551
-0.071455 1.941637 -0.499541
-0.061898 1.949949 -0.501640
-0.052292 1.956137 -0.503134
-0.042674 1.959741 -0.503894
-0.033022 1.963462 -0.504686
-0.023308 1.968294 -0.505792
-0.013555 1.972975 -0.506854
-0.003821 1.975953 -0.507432
0.006246 1.986374 -0.510115
0.016176 1.991679 -0.511349
0.026010 1.994131 -0.511774
0.035977 1.998565 -0.512759
0.045746 1.999036 -0.512624
0.055378 1.997342 -0.511878
0.065115 1.997369 -0.511617
0.076004 2.012740 -0.515683
0.086551 2.021952 -0.518008
0.096396 2.021801 -0.517693
0.106330 2.022647 -0.517659
0.116313 2.023879 -0.517733
0.126646 2.028486 -0.518756
0.137129 2.034078 -0.520054
0.147499 2.038072 -0.520901
0.157384 2.037425 -0.520443
0.167442 2.038227 -0.520392
0.177522 2.039090 -0.520358
0.187198 2.036672 -0.519403
0.196471 2.031339 -0.517630
0.205674 2.025808 -0.515804
0.213793 2.012983 -0.511935
0.222845 2.007251 -0.510055
0.231804 2.001194 -0.508085
0.240570 1.994209 -0.505857
0.249096 1.986073 -0.503308
0.257139 1.975439 -0.500063
0.265324 1.966146 -0.497195
0.273475 1.957084 -0.494393
0.281163 1.945867 -0.490991
0.289746 1.939936 -0.489066
0.298446 1.934820 -0.487369
0.306758 1.927882 -0.485165
0.314444 1.918076 -0.482163
0.321851 1.907280 -0.478888
0.329608 1.898536 -0.476186
0.337269 1.889639 -0.473443
0.345717 1.884583 -0.471768
0.354153 1.879573 -0.470107
0.359513 1.861386 -0.464788
0.367625 1.855478 -0.462880
0.375214 1.847530 -0.460407
0.382955 1.840404 -0.458163
0.389719 1.829557 -0.454889
0.395355 1.814622 -0.450486
0.401031 1.800298 -0.446254
0.408627 1.793575 -0.444128
0.415380 1.783882 -0.441181
0.419408 1.764606 -0.435589
0.425336 1.752621 -0.432014
0.432643 1.745728 -0.429846
0.439833 1.738542 -0.427598
0.446464 1.729610 -0.424870
0.450776 1.713228 -0.420090
0.455573 1.698842 -0.415864
0.460826 1.686264 -0.412138
0.464927 1.670378 -0.407505
0.470434 1.659214 -0.404173
0.475677 1.647489 -0.400689
0.480946 1.636100 -0.397300
0.482797 1.614954 -0.391235
0.490062 1.609951 -0.389603
0.496463 1.602547 -0.387313
0.498840 1.584035 -0.381982
0.505125 1.576727 -0.379722
0.511851 1.570739 -0.377825
0.516147 1.558367 -0.374183
0.520002 1.545121 -0.370305
0.525072 1.535338 -0.367376
0.526467 1.516403 -0.361952
0.530805 1.505355 -0.358685
0.537089 1.499402 -0.356810
0.542772 1.492119 -0.354574
0.546270 1.479757 -0.350958
0.551596 1.472072 -0.348618
0.557121 1.465073 -0.346468
0.562864 1.458790 -0.344515
0.567556 1.450313 -0.341969
0.572873 1.443521 -0.339884
0.577819 1.436148 -0.337645
0.582935 1.429420 -0.335585
0.587524 1.421820 -0.333293
0.590833 1.411771 -0.330341
0.596794 1.407724 -0.329020
0.602874 1.404172 -0.327836
0.608776 1.400494 -0.326623
-1.034086 1.307266 -0.352613
-1.024799 1.306329 -0.352089
-1.019423 1.311029 -0.353303
-1.011548 1.312366 -0.353475
-1.003787 1.313995 -0.353735
-0.996464 1.316383 -0.354226
-0.989532 1.319471 -0.354930
-0.985487 1.326968 -0.356988
-0.979492 1.331745 -0.358205
-0.973005 1.335914 -0.359233
-0.966473 1.340122 -0.360270
-0.957939 1.341334 -0.360387
-0.951052 1.345144 -0.361299
-0.945128 1.350544 -0.362698
-0.938680 1.355198 -0.363867
-0.931985 1.359522 -0.364932
-0.924870 1.363207 -0.365802
-0.919076 1.369100 -0.367346
-0.912325 1.373464 -0.368422
-0.905045 1.376960 -0.369232
-0.898466 1.381655 -0.370408
-0.893148 1.388551 -0.372255
-0.887354 1.394683 -0.373868
-0.877694 1.394029 -0.373412
-0.871851 1.400083 -0.375001
-0.864973 1.404303 -0.376031
-0.859422 1.410947 -0.377799
-0.852570 1.415228 -0.378847
-0.845304 1.418726 -0.379658
-0.838413 1.422904 -0.380675
-0.831778 1.427560 -0.381838
-0.825868 1.433621 -0.383427
-0.817845 1.435560 -0.383766
-0.810964 1.439705 -0.384774
-0.804160 1.443990 -0.385825
-0.798468 1.450533 -0.387559
-0.792678 1.456921 -0.389246
-0.786335 1.462197 -0.390596
-0.778455 1.464238 -0.390969
-0.770855 1.466818 -0.391505
-0.763498 1.469879 -0.392187
-0.756990 1.474775 -0.393422
-0.750285 1.479247 -0.394530
-0.743763 1.484142 -0.395765
-0.737578 1.489830 -0.397238
-0.730811 1.494211 -0.398318
-0.724350 1.499324 -0.399618
-0.717419 1.503352 -0.400591
-0.709725 1.505547 -0.401014
-0.703389 1.511023 -0.402422
-0.696581 1.515378 -0.403493
-0.690632 1.521921 -0.405220
-0.683108 1.524534 -0.405768
-0.676131 1.528541 -0.406734
-0.669388 1.533186 -0.407891
-0.663046 1.538940 -0.409379
-0.657014 1.545607 -0.411140
-0.650814 1.551926 -0.412796
-0.643859 1.556246 -0.413853
-0.636594 1.559737 -0.414662
-0.630232 1.565838 -0.416250
-0.623314 1.570425 -0.417386
-0.616074 1.574123 -0.418255
-0.609326 1.579334 -0.419576
-0.603070 1.586140 -0.421370
-0.596579 1.592359 -0.422989
-0.589191 1.595876 -0.423802
-0.581501 1.598467 -0.424340
-0.574108 1.602039 -0.425169
-0.566644 1.605425 -0.425942
-0.560400 1.612978 -0.427953
-0.553814 1.619558 -0.429674
-0.546907 1.625180 -0.431108
-0.539743 1.630021 -0.432311
-0.534624 1.642403 -0.435748
-0.527448 1.647578 -0.437047
-0.519344 1.649376 -0.437343
-0.511393 1.651772 -0.437817
-0.504435 1.658094 -0.439452
-0.497749 1.665698 -0.441466
-0.490770 1.672359 -0.443199
-0.482867 1.675380 -0.443855
-0.475607 1.681206 -0.445339
-0.467871 1.685157 -0.446268
-0.459505 1.686406 -0.446398
-0.452501 1.693871 -0.448363
-0.445328 1.700835 -0.450178
-0.437713 1.705957 -0.451449
-0.430259 1.712064 -0.453009
-0.422885 1.718813 -0.454756
-0.414891 1.722658 -0.455647
-0.406722 1.725715 -0.456306
-0.399460 1.733810 -0.458445
-0.391407 1.737875 -0.459398
-0.382938 1.739715 -0.459696
-0.375644 1.748559 -0.462051
-0.367354 1.751800 -0.462759
-0.359296 1.756641 -0.463937
-0.351470 1.763233 -0.465626
-0.343666 1.770351 -0.467468
-0.334861 1.770940 -0.467395
-0.327310 1.780523 -0.469957
-0.319459 1.788512 -0.472049
-0.311518 1.796336 -0.474092
-0.303273 1.802268 -0.475579
-0.294950 1.807966 -0.476995
-0.286549 1.813399 -0.478334
-0.278444 1.821945 -0.480580
-0.269934 1.827342 -0.481905
-0.261134 1.830283 -0.482512
-0.252401 1.834142 -0.483386
-0.243719 1.838908 -0.484524
-0.235322 1.847497 -0.486774
-0.226635 1.853409 -0.488243
-0.217996 1.860630 -0.490091
-0.209121 1.865389 -0.491221
-0.200267 1.871084 -0.492623
-0.191389 1.877165 -0.494135
-0.182344 1.881202 -0.495051
-0.173376 1.887397 -0.496594
-0.164287 1.892118 -0.497707
-0.155125 1.896003 -0.498576
-0.145932 1.899910 -0.499451
-0.136789 1.906450 -0.501089
-0.127654 1.915509 -0.503454
-0.118350 1.920481 -0.504634
-0.108878 1.917878 -0.503619
-0.099506 1.921231 -0.504328
-0.090119 1.926361 -0.505551
-0.080690 1.932815 -0.507156
-0.071199 1.940764 -0.509190
-0.061641 1.948033 -0.511027
-0.052051 1.952548 -0.512066
-0.042428 1.956702 -0.513000
-0.032703 1.963773 -0.514774
-0.022985 1.968193 -0.515782
-0.013315 1.969854 -0.515995
-0.003401 1.977832 -0.518026
0.006534 1.984478 -0.519671
0.016420 1.988742 -0.520630
0.026354 1.993164 -0.521632
0.036245 1.996069 -0.522198
0.045957 1.995595 -0.521791
0.055463 1.992051 -0.520504
0.065201 1.992274 -0.520298
0.076108 2.007984 -0.524536
0.086728 2.018206 -0.527196
0.096828 2.021126 -0.527760
0.106921 2.023626 -0.528203
0.116752 2.023066 -0.527768
0.126922 2.025928 -0.528313
0.137342 2.030886 -0.529458
0.147795 2.035661 -0.530547
0.157719 2.035340 -0.530179
0.167757 2.035949 -0.530077
0.177818 2.036640 -0.529998
0.187477 2.034086 -0.528991
0.196819 2.029274 -0.527341
0.205614 2.020776 -0.524641
0.214137 2.010883 -0.521546
0.223019 2.003996 -0.519309
0.232012 1.998190 -0.517381
0.240915 1.992094 -0.515372
0.249392 1.983661 -0.512700
0.257400 1.972836 -0.509349
0.265583 1.963544 -0.506436
0.273465 1.952985 -0.503165
0.281882 1.945830 -0.500864
0.290299 1.938956 -0.498644
0.298739 1.932453 -0.496530
0.306808 1.924291 -0.493947
0.314594 1.915021 -0.491052
0.321968 1.904094 -0.487690
0.330022 1.896787 -0.485354
0.338036 1.889510 -0.483029
0.345790 1.881278 -0.480435
0.353617 1.873617 -0.478003
0.359368 1.857218 -0.473104
0.367455 1.851249 -0.471155
0.376117 1.847783 -0.469913
0.382843 1.836502 -0.466466
0.388889 1.822859 -0.462355
0.396012 1.813808 -0.459542
0.401931 1.800399 -0.455502
0.409136 1.792181 -0.452927
0.414910 1.778895 -0.448927
0.421861 1.770204 -0.446223
0.425728 1.750823 -0.440514
0.432649 1.742588 -0.437942
0.439370 1.733834 -0.435226
0.446051 1.725123 -0.432524
0.452356 1.715348 -0.429524
0.454707 1.693014 -0.423003
0.461097 1.684121 -0.420256
0.465956 1.670624 -0.416221
0.471947 1.660914 -0.413248
0.476291 1.646430 -0.408942
0.475853 1.618101 -0.400766
0.483871 1.615251 -0.399720
0.490625 1.608744 -0.397652
0.497728 1.603320 -0.395888
0.499557 1.583264 -0.390041
0.506034 1.576471 -0.387898
0.511171 1.566168 -0.384777
0.517089 1.558164 -0.382300
0.520189 1.542931 -0.377811
0.526102 1.535336 -0.375452
0.528798 1.519712 -0.370860
0.532734 1.507594 -0.367249
0.538969 1.501467 -0.365304
0.543199 1.490589 -0.362042
0.546950 1.478843 -0.358543
0.551379 1.469023 -0.355581
0.557056 1.462403 -0.353509
0.562791 1.456116 -0.351532
0.569523 1.452312 -0.350244
0.573322 1.442058 -0.347174
0.578379 1.434933 -0.344973
0.583221 1.427604 -0.342718
0.586271 1.416670 -0.339471
0.591486 1.410760 -0.337616
0.597623 1.407080 -0.336380
0.604420 1.405019 -0.335593
0.612558 1.405945 -0.335632
-1.025046 1.292938 -0.355971
-1.025754 1.305872 -0.359798
-1.019778 1.309735 -0.360765
-1.013597 1.313494 -0.361694
-1.004862 1.313753 -0.361520
-0.997095 1.315513 -0.361813
-0.991297 1.320275 -0.363045
-0.986670 1.326931 -0.364867
-0.980969 1.332165 -0.366239
-0.974678 1.336652 -0.367374
-0.966430 1.338266 -0.367606
-0.959210 1.341513 -0.368348
-0.952237 1.345211 -0.369229
-0.945786 1.349800 -0.370387
-0.939065 1.354031 -0.371431
-0.931790 1.357426 -0.372213
-0.925710 1.362799 -0.373610
-0.918967 1.367142 -0.374686
-0.912233 1.371535 -0.375776
-0.905692 1.376279 -0.376976
-0.899263 1.381245 -0.378243
-0.894376 1.388898 -0.380345
-0.887088 1.392449 -0.381171
-0.879899 1.396160 -0.382048
-0.872282 1.399092 -0.382683
-0.866725 1.405712 -0.384462
-0.860321 1.410835 -0.385776
-0.853324 1.414870 -0.386754
-0.846020 1.418316 -0.387550
-0.839561 1.423332 -0.388832
-0.832791 1.427759 -0.389932
-0.825780 1.431708 -0.390885
-0.819090 1.436271 -0.392027
-0.811115 1.438273 -0.392381
-0.804563 1.443072 -0.393597
-0.798844 1.449569 -0.395338
-0.793111 1.456087 -0.397083
-0.786304 1.460408 -0.398153
-0.779180 1.464055 -0.399015
-0.771592 1.466684 -0.399566
-0.765050 1.471539 -0.400801
-0.757792 1.474833 -0.401557
-0.750926 1.478976 -0.402574
-0.744682 1.484519 -0.404020
-0.737983 1.489060 -0.405159
-0.731379 1.493836 -0.406371
-0.724713 1.498489 -0.407544
-0.718074 1.503228 -0.408744
-0.710989 1.506920 -0.409624
-0.704394 1.511808 -0.410869
-0.697735 1.516573 -0.412077
-0.690038 1.518766 -0.412499
-0.684197 1.525652 -0.414355
-0.677235 1.529743 -0.415356
-0.669910 1.532909 -0.416076
-0.666738 1.547114 -0.420160
-0.658430 1.547792 -0.420120
-0.650883 1.550483 -0.420695
-0.644033 1.555103 -0.421856
-0.637681 1.561185 -0.423462
-0.631209 1.567021 -0.424992
-0.623969 1.570723 -0.425874
-0.616297 1.573180 -0.426377
-0.609230 1.577455 -0.427432
-0.602902 1.584038 -0.429187
-0.596715 1.591198 -0.431115
-0.589031 1.593799 -0.431661
-0.581697 1.597533 -0.432550
-0.574627 1.602181 -0.433715
-0.567259 1.605924 -0.434606
-0.560176 1.610691 -0.435807
-0.554356 1.619895 -0.438348
-0.547076 1.624253 -0.439423
-0.539433 1.627411 -0.440135
-0.532899 1.634642 -0.442076
-0.527599 1.646646 -0.445455
-0.520307 1.651536 -0.446687
-0.511768 1.651758 -0.446510
-0.504506 1.656927 -0.447825
-0.498230 1.666196 -0.450373
-0.490097 1.668192 -0.450730
-0.483649 1.677245 -0.453210
-0.476244 1.682540 -0.454559
-0.467874 1.683804 -0.454694
-0.460505 1.689526 -0.456169
-0.452186 1.691111 -0.456400
-0.445866 1.702045 -0.459438
-0.437776 1.704982 -0.460073
-0.430319 1.711100 -0.461663
-0.422547 1.715884 -0.462851
-0.414625 1.720081 -0.463862
-0.407023 1.726131 -0.465427
-0.400080 1.736030 -0.468143
-0.391868 1.739335 -0.468884
-0.383529 1.742032 -0.469442
-0.375734 1.748046 -0.470992
-0.367480 1.751566 -0.471795
-0.359388 1.756254 -0.472946
-0.351592 1.763111 -0.474743
-0.343364 1.767457 -0.475790
-0.336096 1.778695 -0.478891
-0.328015 1.784832 -0.480469
-0.319786 1.790239 -0.481828
-0.310987 1.791589 -0.481978
-0.303424 1.802921 -0.485098
-0.294955 1.807522 -0.486213
-0.286623 1.813644 -0.487779
-0.278309 1.820400 -0.489533
-0.269702 1.824912 -0.490618
-0.261124 1.830078 -0.491897
-0.252256 1.832637 -0.492400
-0.243613 1.837891 -0.493703
-0.235137 1.845629 -0.495741
-0.226494 1.852138 -0.497412
-0.217553 1.855422 -0.498127
-0.208824 1.862090 -0.499843
-0.200101 1.869718 -0.501842
-0.190991 1.872079 -0.502280
-0.182320 1.882631 -0.505140
-0.173244 1.887067 -0.506190
-0.164058 1.889921 -0.506772
-0.154877 1.893402 -0.507538
-0.145804 1.900637 -0.509411
-0.136597 1.905672 -0.510634
-0.127414 1.913215 -0.512595
-0.118083 1.917021 -0.513452
-0.108703 1.919788 -0.514003
-0.099304 1.922718 -0.514601
-0.089905 1.929067 -0.516205
-0.080449 1.934892 -0.517653
-0.070939 1.941097 -0.519212
-0.061378 1.946766 -0.520611
-0.051764 1.952631 -0.522067
-0.042136 1.956253 -0.522862
-0.032387 1.963875 -0.524831
-0.022695 1.966829 -0.525428
-0.012948 1.970687 -0.526290
-0.003086 1.976755 -0.527799
0.006789 1.981765 -0.528996
0.016670 1.985896 -0.529935
0.026598 1.990194 -0.530921
0.036525 1.993770 -0.531696
0.046324 1.994680 -0.531690
0.055864 1.991534 -0.530498
0.065655 1.992352 -0.530465
0.076594 2.008269 -0.534841
0.086828 2.013476 -0.536087
0.097014 2.017513 -0.536991
0.107336 2.022594 -0.538197
0.117585 2.026349 -0.539016
0.127431 2.025673 -0.538543
0.137712 2.029173 -0.539287
0.147970 2.032106 -0.539864
0.158007 2.032804 -0.539791
0.168002 2.033044 -0.539584
0.177992 2.033160 -0.539341
0.187657 2.030686 -0.538345
0.196912 2.025259 -0.536493
0.205992 2.018889 -0.534369
0.214607 2.009630 -0.531407
0.223696 2.004101 -0.529531
0.232639 1.997895 -0.527459
0.240793 1.986994 -0.524028
0.249434 1.979655 -0.521632
0.257255 1.967773 -0.517923
0.266306 1.963599 -0.516446
0.274468 1.954553 -0.513562
0.282405 1.944669 -0.510438
0.290818 1.937747 -0.508171
0.298878 1.929249 -0.505452
0.306752 1.920125 -0.502554
0.314776 1.912085 -0.499970
0.322509 1.902923 -0.497065
0.330269 1.894205 -0.494290
0.337567 1.883652 -0.490989
0.345739 1.877384 -0.488924
0.353853 1.871023 -0.486833
0.360869 1.860097 -0.483430
0.368355 1.851495 -0.480698
0.374051 1.835750 -0.475915
0.381116 1.826052 -0.472873
0.388538 1.818033 -0.470315
0.396547 1.812477 -0.468466
0.402977 1.801008 -0.464922
0.409066 1.788582 -0.461105
0.415816 1.778909 -0.458081
0.419623 1.758907 -0.452100
0.426270 1.749510 -0.449160
0.432934 1.740380 -0.446298
0.439802 1.732133 -0.443690
0.445202 1.719149 -0.439730
0.452771 1.713591 -0.437895
0.458712 1.702849 -0.434580
0.460904 1.680469 -0.427945
0.467299 1.671795 -0.425226
0.471342 1.656078 -0.420501
0.476727 1.644792 -0.417041
0.482390 1.634572 -0.413888
0.484615 1.614538 -0.407943
0.491791 1.609227 -0.406193
0.496085 1.595831 -0.402144
0.501906 1.586987 -0.399391
0.507794 1.578497 -0.396741
0.511968 1.565548 -0.392826
0.516671 1.554305 -0.389399
0.520868 1.541989 -0.385670
0.527978 1.537475 -0.384156
0.532380 1.526148 -0.380711
0.534182 1.508578 -0.375502
0.540397 1.502363 -0.373511
0.546760 1.496657 -0.371665
0.547590 1.477800 -0.366103
0.552314 1.468679 -0.363297
0.556572 1.458725 -0.360259
0.566060 1.461129 -0.360711
0.569002 1.448605 -0.356952
0.573078 1.439010 -0.354022
0.577960 1.431521 -0.351689
0.582374 1.423282 -0.349147
0.587406 1.416686 -0.347071
0.593085 1.411755 -0.345466
0.598985 1.407544 -0.344066
0.603991 1.401709 -0.342212
0.608507 1.395162 -0.340160
-1.032991 1.302147 -0.366733
-1.026373 1.304932 -0.367372
-1.019925 1.308135 -0.368139
-1.014512 1.312988 -0.369428
-1.007236 1.315357 -0.369917
-0.997678 1.314554 -0.369387
-0.992393 1.320073 -0.370874
-0.987636 1.326550 -0.372662
-0.981489 1.331129 -0.373839
-0.975270 1.335733 -0.375019
-0.967717 1.338419 -0.375586
-0.960717 1.342028 -0.376443
-0.953987 1.346132 -0.377456
-0.947272 1.350334 -0.378498
-0.940995 1.355300 -0.379781
-0.935814 1.362103 -0.381646
-0.927197 1.363416 -0.381765
-0.919463 1.366157 -0.382337
-0.912890 1.370828 -0.383521
-0.905799 1.374661 -0.384439
-0.898785 1.378632 -0.385401
-0.892995 1.384720 -0.387031
-0.886990 1.390481 -0.388558
-0.880042 1.394620 -0.389572
-0.873506 1.399487 -0.390816
-0.867167 1.404722 -0.392176
-0.861263 1.410768 -0.393791
-0.854096 1.414513 -0.394682
-0.846570 1.417566 -0.395355
-0.839626 1.421679 -0.396363
-0.833489 1.427323 -0.397853
-0.826403 1.431148 -0.398771
-0.818941 1.434213 -0.399451
-0.812249 1.438766 -0.400600
-0.805804 1.443811 -0.401904
-0.799634 1.449424 -0.403386
-0.793107 1.454327 -0.404646
-0.786588 1.459252 -0.405913
-0.779580 1.463156 -0.406861
-0.772932 1.467814 -0.408045
-0.766122 1.472127 -0.409122
-0.759359 1.476544 -0.410232
-0.752258 1.480214 -0.411110
-0.745753 1.485211 -0.412402
-0.738935 1.489516 -0.413478
-0.732160 1.493930 -0.414589
-0.726515 1.501006 -0.416530
-0.719288 1.504409 -0.417326
-0.712577 1.509044 -0.418507
-0.706393 1.514992 -0.420096
-0.697909 1.515314 -0.419935
-0.690654 1.518631 -0.420707
-0.684663 1.525160 -0.422477
-0.677548 1.528879 -0.423374
-0.670754 1.533453 -0.424537
-0.665128 1.541169 -0.426673
-0.658870 1.547320 -0.428324
-0.651801 1.551342 -0.429315
-0.644554 1.554906 -0.430164
-0.638084 1.560680 -0.431697
-0.632147 1.568074 -0.433731
-0.624317 1.570110 -0.434107
-0.616604 1.572472 -0.434585
-0.609504 1.576667 -0.435629
-0.603281 1.583591 -0.437515
-0.596001 1.587391 -0.438436
-0.589118 1.592487 -0.439757
-0.582231 1.597669 -0.441104
-0.575056 1.602011 -0.442192
-0.567923 1.606570 -0.443346
-0.561006 1.611943 -0.444750
-0.554409 1.618538 -0.446529
-0.547336 1.623636 -0.447847
-0.540209 1.628657 -0.449140
-0.533502 1.635322 -0.450938
-0.527361 1.644267 -0.453434
-0.521300 1.653792 -0.456106
-0.512415 1.652773 -0.455544
-0.504438 1.655207 -0.456040
-0.498007 1.663857 -0.458441
-0.491315 1.671742 -0.460605
-0.484038 1.677456 -0.462104
-0.476515 1.682302 -0.463336
-0.469299 1.688639 -0.465023
-0.460632 1.688736 -0.464802
-0.453604 1.696244 -0.466845
-0.445738 1.700134 -0.467782
-0.437841 1.703999 -0.468710
-0.430888 1.712618 -0.471088
-0.422362 1.713710 -0.471170
-0.414407 1.717746 -0.472148
-0.407844 1.729284 -0.475411
-0.399256 1.730398 -0.475498
-0.391880 1.738278 -0.477643
-0.384174 1.744650 -0.479329
-0.376074 1.749006 -0.480399
-0.367739 1.752133 -0.481096
-0.359579 1.756488 -0.482165
-0.351501 1.761592 -0.483461
-0.343471 1.767297 -0.484937
-0.336175 1.778417 -0.488055
-0.327771 1.782307 -0.488979
-0.319235 1.785424 -0.489667
-0.311603 1.795714 -0.492527
-0.303437 1.802451 -0.494309
-0.294978 1.807214 -0.495493
-0.286456 1.811769 -0.496612
-0.278170 1.818813 -0.498483
-0.269649 1.824189 -0.499848
-0.261034 1.829080 -0.501065
-0.252268 1.832786 -0.501924
-0.243504 1.836845 -0.502888
-0.235054 1.844977 -0.505080
-0.226335 1.850647 -0.506528
-0.217506 1.855498 -0.507728
-0.208588 1.859651 -0.508716
-0.199662 1.864177 -0.509816
-0.190875 1.871642 -0.511799
-0.182179 1.881951 -0.514636
-0.173053 1.885589 -0.515464
-0.163852 1.888233 -0.515993
-0.154749 1.893732 -0.517380
-0.145573 1.898520 -0.518551
-0.136451 1.906372 -0.520641
-0.127149 1.910033 -0.521472
-0.117815 1.913577 -0.522267
-0.108449 1.916916 -0.523000
-0.099065 1.921128 -0.523994
-0.089672 1.929169 -0.526133
-0.080201 1.935082 -0.527634
-0.070681 1.940177 -0.528888
-0.061095 1.947792 -0.530895
-0.051497 1.950963 -0.531572
-0.041846 1.955594 -0.532684
-0.032142 1.960753 -0.533953
-0.022418 1.964917 -0.534924
-0.012627 1.970024 -0.536175
-0.002768 1.975692 -0.537592
0.007060 1.979362 -0.538413
0.016917 1.982948 -0.539208
0.026830 1.986960 -0.540129
0.036988 1.994657 -0.542146
0.046913 1.997343 -0.542670
0.056784 1.998823 -0.542835
0.066545 1.998532 -0.542474
0.076833 2.005236 -0.544191
0.087189 2.011961 -0.545913
0.097373 2.015885 -0.546801
0.107526 2.019029 -0.547458
0.118049 2.025693 -0.549157
0.128193 2.027891 -0.549532
0.138264 2.029156 -0.549629
0.148193 2.028960 -0.549294
0.158310 2.030371 -0.549435
0.168276 2.030344 -0.549150
0.178292 2.030671 -0.548970
0.187869 2.027509 -0.547759
0.197233 2.022928 -0.546130
0.206154 2.015402 -0.543632
0.215203 2.009205 -0.541529
0.224278 2.003516 -0.539577
0.233077 1.996317 -0.537182
0.241172 1.985030 -0.533584
0.249559 1.976132 -0.530693
0.258366 1.970159 -0.528666
0.266440 1.960201 -0.525467
0.274761 1.952086 -0.522814
0.283013 1.943937 -0.520152
0.291205 1.935799 -0.517496
0.299076 1.926315 -0.514447
0.306521 1.915046 -0.510876
0.314873 1.908700 -0.508753
0.322952 1.901235 -0.506304
0.330193 1.890072 -0.502771
0.337488 1.879554 -0.499431
0.345824 1.874069 -0.497569
0.354009 1.868046 -0.495549
0.361507 1.859213 -0.492710
0.369037 1.850773 -0.489986
0.376338 1.841616 -0.487056
0.381304 1.823308 -0.481453
0.389062 1.816627 -0.479251
0.396386 1.808409 -0.476602
0.403105 1.798087 -0.473342
0.409208 1.785737 -0.469491
0.415821 1.775586 -0.466285
0.423601 1.769862 -0.464373
0.426808 1.748137 -0.457798
0.432825 1.736767 -0.454245
0.439450 1.727730 -0.451375
0.447043 1.722103 -0.449498
0.451953 1.707760 -0.445087
0.454963 1.687667 -0.439009
0.461693 1.679886 -0.436512
0.465536 1.663263 -0.431449
0.471050 1.652168 -0.427996
0.476538 1.641234 -0.424591
0.482127 1.630828 -0.421342
0.486291 1.616494 -0.416956
0.492754 1.609077 -0.414578
0.495912 1.592466 -0.409539
0.502675 1.586264 -0.407516
0.504860 1.567644 -0.401902
0.510993 1.560118 -0.399501
0.517343 1.553305 -0.397307
0.523155 1.545208 -0.394743
0.527199 1.532726 -0.390916
0.532228 1.523044 -0.387899
0.535736 1.509782 -0.383851
0.541580 1.502615 -0.381563
0.546069 1.492323 -0.378377
0.548922 1.478379 -0.374142
0.554159 1.470449 -0.371640
0.560028 1.464221 -0.369631
0.564455 1.454861 -0.366722
0.570379 1.449192 -0.364876
0.574137 1.438866 -0.361694
0.578176 1.429496 -0.358789
0.583239 1.422691 -0.356623
0.589099 1.417879 -0.355030
0.594676 1.412701 -0.353334
0.599701 1.406617 -0.351380
0.603355 1.397960 -0.348691
0.603772 1.382982 -0.344195
-1.034772 1.302798 -0.374833
-1.027360 1.304495 -0.375123
-1.021614 1.308696 -0.376224
-1.015231 1.312186 -0.377085
-1.008436 1.315255 -0.377802
-0.999507 1.315384 -0.377557
-0.993001 1.319137 -0.378486
-0.987527 1.324557 -0.379952
-0.981866 1.329859 -0.381375
-0.975621 1.334427 -0.382554
-0.968354 1.337556 -0.383263
-0.961352 1.341171 -0.384125
-0.955949 1.347351 -0.385816
-0.949198 1.351530 -0.386856
-0.942526 1.355900 -0.387955
-0.935972 1.360520 -0.389133
-0.928482 1.363673 -0.389835
-0.921349 1.367429 -0.390731
-0.913950 1.370763 -0.391490
-0.906128 1.373389 -0.392021
-0.902433 1.383015 -0.394808
-0.894478 1.385449 -0.395276
-0.888139 1.390659 -0.396639
-0.881278 1.394976 -0.397713
-0.873900 1.398372 -0.398493
-0.868173 1.404719 -0.400221
-0.861933 1.410175 -0.401662
-0.854813 1.414026 -0.402589
-0.846950 1.416470 -0.403065
-0.840368 1.421280 -0.404302
-0.833816 1.426148 -0.405557
-0.827245 1.430982 -0.406802
-0.819956 1.434412 -0.407599
-0.813320 1.439104 -0.408801
-0.806596 1.443618 -0.409946
-0.799822 1.448026 -0.411058
-0.793181 1.452702 -0.412256
-0.786625 1.457557 -0.413513
-0.780464 1.463254 -0.415038
-0.773833 1.467975 -0.416253
-0.767374 1.473079 -0.417590
-0.761315 1.479077 -0.419212
-0.753995 1.482320 -0.419959
-0.746717 1.485635 -0.420730
-0.739456 1.488963 -0.421507
-0.732862 1.493816 -0.422767
-0.726501 1.499239 -0.424209
-0.720396 1.505311 -0.425857
-0.713653 1.509909 -0.427038
-0.706151 1.512685 -0.427643
-0.698912 1.516085 -0.428446
-0.691177 1.518240 -0.428857
-0.684592 1.523283 -0.430181
-0.678486 1.529607 -0.431910
-0.670510 1.531131 -0.432123
-0.665455 1.540353 -0.434766
-0.659198 1.546525 -0.436446
-0.652001 1.550218 -0.437344
-0.645192 1.555012 -0.438590
-0.638628 1.560554 -0.440071
-0.631340 1.564113 -0.440928
-0.624498 1.568991 -0.442199
-0.616854 1.571578 -0.442751
-0.610649 1.578475 -0.444657
-0.603390 1.582305 -0.445600
-0.596677 1.587875 -0.447088
-0.590067 1.593875 -0.448711
-0.582733 1.597682 -0.449646
-0.575277 1.601147 -0.450473
-0.567953 1.605098 -0.451453
-0.561284 1.611318 -0.453143
-0.554685 1.617930 -0.454954
-0.547368 1.622206 -0.456035
-0.540485 1.628110 -0.457623
-0.533499 1.633792 -0.459142
-0.527153 1.641987 -0.461444
-0.520009 1.647430 -0.462886
-0.512953 1.653355 -0.464477
-0.504798 1.655151 -0.464781
-0.498283 1.663507 -0.467128
-0.490702 1.667800 -0.468209
-0.483656 1.674438 -0.470019
-0.476470 1.680703 -0.471712
-0.468729 1.684771 -0.472721
-0.461629 1.691808 -0.474651
-0.453099 1.692595 -0.474639
-0.445489 1.697646 -0.475951
-0.438149 1.704169 -0.477719
-0.430552 1.709694 -0.479177
-0.422534 1.713324 -0.480046
-0.414699 1.718024 -0.481246
-0.406906 1.723131 -0.482571
-0.399230 1.729092 -0.484159
-0.391163 1.733141 -0.485155
-0.384023 1.742684 -0.487849
-0.376142 1.748345 -0.489341
-0.368264 1.754307 -0.490925
-0.359697 1.756251 -0.491266
-0.351480 1.760525 -0.492327
-0.343464 1.766366 -0.493870
-0.335225 1.771001 -0.495040
-0.326961 1.775712 -0.496233
-0.319500 1.786689 -0.499356
-0.311758 1.796265 -0.502044
-0.303392 1.801508 -0.503396
-0.294718 1.804541 -0.504067
-0.286217 1.809267 -0.505258
-0.278513 1.821622 -0.508793
-0.269423 1.821812 -0.508588
-0.260687 1.825492 -0.509454
-0.251813 1.828005 -0.509961
-0.243386 1.835688 -0.512055
-0.234832 1.842681 -0.513935
-0.226297 1.850668 -0.516118
-0.217345 1.854048 -0.516888
-0.208377 1.857567 -0.517699
-0.199439 1.861953 -0.518775
-0.190547 1.867707 -0.520269
-0.181906 1.878898 -0.523424
-0.172839 1.883670 -0.524615
-0.163669 1.887050 -0.525379
-0.154488 1.890821 -0.526261
-0.145329 1.896062 -0.527592
-0.136126 1.901354 -0.528937
-0.126864 1.906099 -0.530115
-0.117549 1.910246 -0.531108
-0.108202 1.914587 -0.532161
-0.098824 1.919399 -0.533355
-0.089414 1.925770 -0.535024
-0.079947 1.932102 -0.536678
-0.070427 1.937278 -0.537980
-0.060854 1.943432 -0.539579
-0.051229 1.949265 -0.541078
-0.041571 1.953951 -0.542228
-0.031889 1.957873 -0.543144
-0.022121 1.963667 -0.544628
-0.012362 1.967551 -0.545531
-0.002523 1.972622 -0.546794
0.007316 1.976585 -0.547720
0.017131 1.979257 -0.548254
0.027332 1.988919 -0.550904
0.037378 1.994200 -0.552225
0.047208 1.995158 -0.552238
0.056852 1.993157 -0.551357
0.066945 1.997743 -0.552467
0.077184 2.003654 -0.553976
0.087290 2.007197 -0.554769
0.097353 2.009811 -0.555282
0.107552 2.013623 -0.556155
0.118142 2.021110 -0.558136
0.128662 2.027138 -0.559675
0.138798 2.028917 -0.559933
0.148592 2.027382 -0.559192
0.158634 2.028083 -0.559126
0.168645 2.028411 -0.558947
0.178572 2.027984 -0.558542
0.188312 2.026086 -0.557695
0.197580 2.020744 -0.555814
0.206481 2.013072 -0.553235
0.215283 2.005159 -0.550587
0.224325 1.999301 -0.548557
0.233336 1.993537 -0.546557
0.241676 1.983821 -0.543374
0.250148 1.975411 -0.540586
0.258329 1.965674 -0.537403
0.266762 1.957852 -0.534796
0.274762 1.947946 -0.531567
0.283006 1.939807 -0.528870
0.291442 1.933015 -0.526579
0.299711 1.925605 -0.524104
0.306585 1.911432 -0.519612
0.313838 1.899708 -0.515855
0.322765 1.896480 -0.514636
0.331561 1.892673 -0.513246
0.339651 1.885697 -0.510913
0.346484 1.873292 -0.506963
0.354315 1.865686 -0.504447
0.361087 1.853755 -0.500644
0.368057 1.843036 -0.497206
0.376319 1.837950 -0.495446
0.383340 1.827955 -0.492228
0.388888 1.812434 -0.487370
0.396173 1.804107 -0.484654
0.403128 1.794725 -0.481627
0.407706 1.776751 -0.476051
0.415143 1.769741 -0.473733
0.421864 1.760297 -0.470696
0.427833 1.748431 -0.466943
0.434543 1.739415 -0.464037
0.440099 1.726681 -0.460032
0.447502 1.720405 -0.457943
0.452763 1.707216 -0.453809
0.458094 1.694572 -0.449840
0.461538 1.676275 -0.444202
0.467085 1.664984 -0.440640
0.470621 1.647805 -0.435341
0.477083 1.639841 -0.432767
0.483305 1.631305 -0.430026
0.488321 1.619420 -0.426299
0.494658 1.611570 -0.423765
0.497777 1.594801 -0.418603
0.503348 1.585233 -0.415567
0.507049 1.570759 -0.411088
0.511019 1.557348 -0.406926
0.517447 1.550758 -0.404773
0.523873 1.544280 -0.402655
0.529205 1.535108 -0.399745
0.531250 1.517816 -0.394452
0.535990 1.507694 -0.391269
0.541931 1.500775 -0.389027
0.546601 1.490936 -0.385931
0.550470 1.479433 -0.382348
0.555446 1.470859 -0.379626
0.560358 1.462375 -0.376932
0.565045 1.453626 -0.374162
0.569714 1.445110 -0.371462
0.573608 1.435131 -0.368336
0.579804 1.430570 -0.366796
0.585263 1.424605 -0.364846
0.589221 1.415652 -0.362024
0.594449 1.409742 -0.360093
0.598557 1.401747 -0.357554
0.602689 1.394138 -0.355130
0.605787 1.384735 -0.352184
-1.033112 1.298683 -0.381382
-1.027991 1.303547 -0.382725
-1.021408 1.306573 -0.383449
-1.014799 1.309735 -0.384210
-1.008297 1.313215 -0.385069
-1.001138 1.315904 -0.385659
-0.994202 1.319049 -0.386394
-0.988833 1.324636 -0.387932
-0.982298 1.328650 -0.388943
-0.976030 1.333186 -0.390122
-0.968830 1.336423 -0.390867
-0.962090 1.340448 -0.391868
-0.955363 1.344578 -0.392900
-0.948537 1.348628 -0.393903
-0.942238 1.353579 -0.395200
-0.935634 1.358114 -0.396358
-0.928596 1.361998 -0.397299
-0.921767 1.366257 -0.398363
-0.915679 1.371777 -0.399840
-0.910409 1.378727 -0.401785
-0.903005 1.382130 -0.402564
-0.896040 1.386279 -0.403589
-0.888772 1.389907 -0.404443
-0.882175 1.394704 -0.405680
-0.874222 1.397101 -0.406132
-0.867945 1.402465 -0.407556
-0.861506 1.407554 -0.408890
-0.854654 1.411895 -0.409980
-0.847493 1.415650 -0.410880
-0.840849 1.420359 -0.412092
-0.835288 1.427133 -0.413977
-0.828041 1.430698 -0.414819
-0.820907 1.434454 -0.415723
-0.814035 1.438705 -0.416790
-0.806925 1.442468 -0.417700
-0.799776 1.446126 -0.418577
-0.792870 1.450260 -0.419610
-0.786797 1.456116 -0.421202
-0.781571 1.463792 -0.423384
-0.774945 1.468558 -0.424625
-0.768437 1.473590 -0.425951
-0.761846 1.478457 -0.427226
-0.755020 1.482818 -0.428338
-0.747652 1.485965 -0.429058
-0.739794 1.487969 -0.429411
-0.732986 1.492343 -0.430531
-0.726745 1.498054 -0.432082
-0.720766 1.504437 -0.433850
-0.713450 1.507677 -0.434606
-0.706850 1.512649 -0.435921
-0.699263 1.515221 -0.436465
-0.692250 1.519204 -0.437463
-0.686904 1.527435 -0.439827
-0.680615 1.533377 -0.441454
-0.672337 1.534201 -0.441440
-0.669060 1.548209 -0.445656
-0.659679 1.546122 -0.444709
-0.652811 1.550742 -0.445914
-0.645392 1.553885 -0.446646
-0.638894 1.559629 -0.448212
-0.633263 1.567939 -0.450598
-0.624116 1.566224 -0.449777
-0.618543 1.574905 -0.452282
-0.612033 1.580975 -0.453950
-0.605080 1.585815 -0.455226
-0.598382 1.591520 -0.456778
-0.591153 1.595671 -0.457834
-0.583473 1.598440 -0.458449
-0.575705 1.600944 -0.458981
-0.568254 1.604508 -0.459850
-0.563116 1.615911 -0.463214
-0.554844 1.616910 -0.463267
-0.547462 1.620978 -0.464296
-0.540283 1.625846 -0.465580
-0.533796 1.633333 -0.467694
-0.526711 1.638834 -0.469177
-0.519232 1.642998 -0.470236
-0.511921 1.647902 -0.471528
-0.502765 1.645715 -0.470573
-0.498540 1.663067 -0.475809
-0.490899 1.667153 -0.476840
-0.482456 1.668005 -0.476847
-0.475633 1.675725 -0.479028
-0.468058 1.680455 -0.480261
-0.461794 1.691164 -0.483384
-0.454002 1.695350 -0.484443
-0.445601 1.696837 -0.484650
-0.437980 1.702055 -0.486035
-0.430735 1.709305 -0.488060
-0.422869 1.713746 -0.489198
-0.414832 1.717479 -0.490111
-0.407214 1.723558 -0.491764
-0.399172 1.727609 -0.492777
-0.391619 1.734550 -0.494698
-0.383751 1.740017 -0.496154
-0.375966 1.746237 -0.497846
-0.368147 1.752567 -0.499572
-0.359936 1.756770 -0.500628
-0.351552 1.760055 -0.501395
-0.343295 1.764347 -0.502478
-0.335027 1.768789 -0.503607
-0.326948 1.774839 -0.505239
-0.320269 1.791692 -0.510254
-0.310745 1.787777 -0.508762
-0.303072 1.798353 -0.511807
-0.294560 1.802711 -0.512903
-0.285833 1.805494 -0.513507
-0.278000 1.816620 -0.516717
-0.269485 1.822190 -0.518190
-0.260317 1.821667 -0.517758
-0.251677 1.826589 -0.519027
-0.243233 1.834148 -0.521117
-0.234371 1.837565 -0.521913
-0.225613 1.842614 -0.523218
-0.217058 1.850929 -0.525539
-0.208165 1.855469 -0.526682
-0.199198 1.859457 -0.527654
-0.190466 1.867888 -0.530006
-0.181683 1.876753 -0.532491
-0.172547 1.880201 -0.533291
-0.163396 1.883927 -0.534176
-0.154274 1.889083 -0.535504
-0.145075 1.893333 -0.536551
-0.135850 1.897884 -0.537689
-0.126622 1.903826 -0.539259
-0.117304 1.907951 -0.540264
-0.107997 1.914889 -0.542139
-0.098586 1.918056 -0.542845
-0.089159 1.922871 -0.544061
-0.079691 1.928389 -0.545493
-0.070170 1.935165 -0.547314
-0.060605 1.939904 -0.548503
-0.050962 1.947323 -0.550519
-0.041296 1.952254 -0.551765
-0.031628 1.955324 -0.552436
-0.021915 1.959073 -0.553316
-0.012086 1.965358 -0.554977
-0.002285 1.969310 -0.555918
0.007545 1.973109 -0.556811
0.017508 1.979001 -0.558348
0.027501 1.984385 -0.559727
0.037564 1.990107 -0.561210
0.047285 1.989385 -0.560709
0.057157 1.991046 -0.560942
0.067164 1.994367 -0.561685
0.077486 2.001384 -0.563562
0.087497 2.003712 -0.563999
0.097634 2.007218 -0.564797
0.107703 2.009567 -0.565239
0.118080 2.014875 -0.566589
0.128437 2.019431 -0.567707
0.139065 2.026095 -0.569471
0.148984 2.025693 -0.569070
0.158973 2.025890 -0.568852
0.168998 2.026310 -0.568703
0.178925 2.025852 -0.568286
0.188461 2.022361 -0.566942
0.197840 2.017885 -0.565299
0.206814 2.010748 -0.562846
0.214938 1.998143 -0.558725
0.224209 1.993969 -0.557181
0.233365 1.989235 -0.555468
0.241680 1.979426 -0.552209
0.249422 1.966624 -0.548042
0.258461 1.962161 -0.546418
0.267287 1.956639 -0.544474
0.274804 1.944005 -0.540367
0.283109 1.936244 -0.537747
0.291239 1.927861 -0.534940
0.299361 1.919771 -0.532224
0.306986 1.909480 -0.528843
0.314689 1.899968 -0.525701
0.323033 1.893878 -0.523602
0.332017 1.890953 -0.522464
0.340477 1.885656 -0.520608
0.348652 1.879209 -0.518406
0.355225 1.865927 -0.514134
0.362110 1.854436 -0.510409
0.367948 1.838928 -0.505471
0.375664 1.831641 -0.503026
0.383514 1.825060 -0.500796
0.386315 1.798771 -0.492609
0.395440 1.797768 -0.492072
0.402208 1.787768 -0.488817
0.408646 1.776800 -0.485273
0.414718 1.764784 -0.481416
0.422079 1.757686 -0.479045
0.429949 1.752494 -0.477252
0.437175 1.745144 -0.474810
0.440342 1.724218 -0.468279
0.446636 1.714268 -0.465059
0.452769 1.704004 -0.461748
0.456734 1.687020 -0.456416
0.459661 1.667208 -0.450239
0.465666 1.657464 -0.447094
0.472028 1.648999 -0.444336
0.477357 1.637596 -0.440697
0.483789 1.629687 -0.438111
0.488565 1.617109 -0.434125
0.494237 1.607371 -0.430993
0.499149 1.595694 -0.427283
0.505442 1.588088 -0.424796
0.508276 1.571196 -0.419528
0.513343 1.560708 -0.416181
0.519123 1.552331 -0.413470
0.522467 1.537781 -0.408912
0.525441 1.522638 -0.404180
0.530434 1.512973 -0.401090
0.537356 1.508344 -0.399506
0.541413 1.496765 -0.395847
0.546490 1.487952 -0.393015
0.551029 1.478084 -0.389871
0.555497 1.468314 -0.386757
0.561067 1.461382 -0.384491
0.565525 1.452110 -0.381528
0.568676 1.440161 -0.377769
0.574655 1.434901 -0.376004
0.581092 1.430861 -0.374603
0.586617 1.425024 -0.372667
0.591543 1.418143 -0.370420
0.593563 1.405364 -0.366421
0.599480 1.401223 -0.364990
0.603451 1.393280 -0.362430
0.606770 1.384339 -0.359575
-1.042430 1.309699 -0.393031
-1.027537 1.301077 -0.389826
-1.020515 1.303475 -0.390345
-1.015340 1.308652 -0.391794
-1.009685 1.313346 -0.393071
-1.003003 1.316739 -0.393901
-0.997342 1.321768 -0.395275
-0.990573 1.325331 -0.396147
-0.984160 1.329548 -0.397233
-0.977082 1.332891 -0.398019
-0.970512 1.337101 -0.399092
-0.963546 1.340804 -0.399990
-0.955939 1.343590 -0.400577
-0.948241 1.346280 -0.401128
-0.941043 1.349798 -0.401955
-0.935099 1.355369 -0.403467
-0.930499 1.363199 -0.405733
-0.922790 1.366049 -0.406330
-0.916792 1.371737 -0.407875
-0.910318 1.376685 -0.409171
-0.902586 1.379533 -0.409766
-0.894049 1.380980 -0.409893
-0.886451 1.383998 -0.410546
-0.880935 1.390647 -0.412409
-0.874788 1.396233 -0.413918
-0.867002 1.398898 -0.414455
-0.861548 1.405763 -0.416390
-0.854798 1.410294 -0.417549
-0.847838 1.414433 -0.418579
-0.841605 1.419926 -0.420060
-0.835622 1.425914 -0.421705
-0.828942 1.430587 -0.422915
-0.821608 1.433980 -0.423703
-0.814195 1.437180 -0.424430
-0.807310 1.441403 -0.425495
-0.800079 1.444910 -0.426327
-0.793233 1.449181 -0.427411
-0.787952 1.456697 -0.429568
-0.782359 1.463630 -0.431532
-0.776955 1.471026 -0.433649
-0.768693 1.472332 -0.433762
-0.762025 1.477042 -0.434997
-0.754927 1.480810 -0.435923
-0.747794 1.484489 -0.436822
-0.741147 1.489261 -0.438081
-0.733730 1.492277 -0.438765
-0.727088 1.497080 -0.440037
-0.720786 1.502710 -0.441580
-0.714413 1.508222 -0.443085
-0.707113 1.511527 -0.443869
-0.699735 1.514634 -0.444589
-0.693323 1.520143 -0.446096
-0.687581 1.527410 -0.448177
-0.681195 1.533131 -0.449754
-0.675235 1.540035 -0.451716
-0.667659 1.542768 -0.452319
-0.662564 1.552156 -0.455091
-0.652754 1.548876 -0.453736
-0.646148 1.554277 -0.455210
-0.640556 1.562605 -0.457637
-0.633241 1.566188 -0.458520
-0.624978 1.567049 -0.458519
-0.619505 1.576066 -0.461169
-0.612782 1.581552 -0.462671
-0.605871 1.586563 -0.464019
-0.599083 1.592040 -0.465518
-0.592000 1.596695 -0.466750
-0.584332 1.599559 -0.467403
-0.576418 1.601646 -0.467804
-0.570499 1.610327 -0.470341
-0.562710 1.612949 -0.470915
-0.555573 1.617824 -0.472219
-0.547992 1.621257 -0.473057
-0.540634 1.625536 -0.474168
-0.534856 1.635623 -0.477155
-0.526829 1.637737 -0.477566
-0.519396 1.642094 -0.478702
-0.512433 1.648358 -0.480452
-0.505897 1.656478 -0.482799
-0.498803 1.662639 -0.484514
-0.490845 1.665471 -0.485156
-0.483354 1.670302 -0.486442
-0.475662 1.674425 -0.487499
-0.468286 1.680042 -0.489037
-0.461029 1.686375 -0.490803
-0.453962 1.693802 -0.492920
-0.445855 1.696679 -0.493575
-0.438418 1.702822 -0.495278
-0.431105 1.709819 -0.497253
-0.422982 1.713042 -0.498018
-0.415145 1.717845 -0.499289
-0.407332 1.722970 -0.500662
-0.399572 1.728598 -0.502195
-0.391643 1.733533 -0.503505
-0.383682 1.738507 -0.504827
-0.375823 1.744320 -0.506417
-0.368211 1.751920 -0.508576
-0.360014 1.756266 -0.509694
-0.351517 1.758881 -0.510260
-0.343820 1.766964 -0.512569
-0.335541 1.771509 -0.513748
-0.327557 1.778423 -0.515682
-0.319101 1.782270 -0.516637
-0.311006 1.789137 -0.518553
-0.302878 1.796205 -0.520531
-0.294359 1.800526 -0.521634
-0.285997 1.806505 -0.523264
-0.277669 1.813270 -0.525142
-0.269155 1.818812 -0.526629
-0.260392 1.822315 -0.527469
-0.251628 1.826098 -0.528397
-0.243058 1.832358 -0.530109
-0.234045 1.834040 -0.530369
-0.225590 1.842821 -0.532879
-0.216728 1.847222 -0.533999
-0.207998 1.854021 -0.535877
-0.199167 1.860188 -0.537554
-0.190452 1.869178 -0.540122
-0.181305 1.871800 -0.540675
-0.172336 1.878347 -0.542468
-0.163302 1.884731 -0.544208
-0.154088 1.888064 -0.544983
-0.144880 1.892295 -0.546042
-0.135681 1.897945 -0.547547
-0.126439 1.903838 -0.549127
-0.117094 1.907304 -0.549942
-0.107731 1.911399 -0.550954
-0.098359 1.917878 -0.552716
-0.088911 1.921294 -0.553512
-0.079440 1.928981 -0.555652
-0.069913 1.932801 -0.556574
-0.060339 1.938288 -0.558019
-0.050704 1.944676 -0.559746
-0.041026 1.950189 -0.561198
-0.031368 1.952648 -0.561689
-0.021711 1.954365 -0.561948
-0.011864 1.961439 -0.563887
-0.001994 1.967383 -0.565470
0.007900 1.972581 -0.566818
0.017797 1.976810 -0.567862
0.027779 1.981920 -0.569180
0.037663 1.984440 -0.569689
0.047610 1.987609 -0.570399
0.057380 1.987654 -0.570133
0.067659 1.994811 -0.572090
0.077770 1.998837 -0.573067
0.088020 2.004078 -0.574423
0.097996 2.005532 -0.574597
0.108263 2.009990 -0.575708
0.118486 2.013509 -0.576526
0.128808 2.017629 -0.577531
0.139409 2.023974 -0.579228
0.149673 2.026659 -0.579785
0.159628 2.026397 -0.579424
0.169490 2.025322 -0.578812
0.179187 2.022956 -0.577799
0.188648 2.018891 -0.576260
0.197992 2.014184 -0.574523
0.206744 2.005506 -0.571555
0.215036 1.994167 -0.567764
0.224218 1.989441 -0.566029
0.233467 1.985369 -0.564499
0.241529 1.974028 -0.560717
0.249834 1.964754 -0.557579
0.258797 1.959823 -0.555790
0.267744 1.954987 -0.554032
0.275236 1.942210 -0.549819
0.282869 1.930782 -0.546027
0.291285 1.924003 -0.543677
0.299111 1.914428 -0.540465
0.307393 1.907518 -0.538079
0.315519 1.900075 -0.535531
0.323793 1.893589 -0.533282
0.332237 1.888090 -0.531339
0.340996 1.884169 -0.529885
0.348544 1.874906 -0.526786
0.355550 1.863568 -0.523051
0.361654 1.848754 -0.518249
