ply
format ascii 1.0
comment ---
element vertex 1658
property float x
property float y
property float z
element face 0
property list uchar uint vertex_indices
end_header
0.016815 1.120393 -0.477199
0.016728 1.116510 -0.474604
0.019862 1.114473 -0.474644
0.023134 1.112491 -0.474782
0.026058 1.110294 -0.474626
0.030085 1.108679 -0.475339
0.030642 1.105169 -0.473280
0.033806 1.103054 -0.473287
0.038898 1.101924 -0.474791
0.044034 1.100769 -0.476299
0.051257 1.100626 -0.479393
0.059701 1.101020 -0.483379
0.048138 1.091443 -0.471996
0.053737 1.090408 -0.473790
0.057440 1.088414 -0.474119
0.065432 1.088428 -0.477657
0.068014 1.085840 -0.477101
0.069777 1.082871 -0.475934
0.073937 1.080999 -0.476544
0.078453 1.079265 -0.477401
0.084456 1.078162 -0.479328
0.090020 1.076830 -0.480909
0.092809 1.074281 -0.480467
0.092718 1.070527 -0.477962
0.091817 1.066482 -0.474907
0.097831 1.065324 -0.476795
0.106821 1.065342 -0.480765
0.106657 1.061672 -0.478274
0.107552 1.058473 -0.476557
0.113711 1.057351 -0.478522
0.123985 1.057783 -0.483317
0.132453 1.057488 -0.486835
0.151859 1.061200 -0.497800
0.161658 1.061284 -0.502144
-0.532067 1.569503 -0.549998
-0.528467 1.567035 -0.549857
-0.524892 1.566481 -0.551007
-0.521346 1.568830 -0.554119
-0.517734 1.571856 -0.557716
-0.514006 1.573467 -0.560391
-0.510217 1.575749 -0.563544
-0.506352 1.577863 -0.566610
-0.502417 1.579849 -0.569615
-0.498415 1.583634 -0.573871
-0.494347 1.584693 -0.576291
-0.490235 1.585392 -0.578481
-0.486102 1.584744 -0.579757
-0.482042 1.579750 -0.578036
-0.477895 1.578816 -0.579119
-0.473692 1.579102 -0.581057
-0.469494 1.578578 -0.582438
-0.465402 1.575363 -0.581939
-0.461087 1.576927 -0.584792
-0.456842 1.576616 -0.586336
-0.452615 1.575844 -0.587558
-0.448321 1.576004 -0.589445
-0.444329 1.571832 -0.588250
-0.440137 1.570669 -0.589191
-0.435770 1.571631 -0.591656
-0.431507 1.571225 -0.593146
-0.427325 1.569942 -0.594004
-0.423325 1.566929 -0.593608
-0.419349 1.563960 -0.593232
-0.415467 1.560407 -0.592420
-0.411364 1.559003 -0.593168
-0.407229 1.557933 -0.594159
-0.403019 1.557493 -0.595612
-0.399144 1.554580 -0.595240
-0.394755 1.555479 -0.597684
-0.390875 1.552824 -0.597493
-0.387008 1.550241 -0.597348
-0.382970 1.548876 -0.598106
-0.378742 1.548716 -0.599767
-0.374244 1.550098 -0.602595
-0.370652 1.546225 -0.601461
-0.366879 1.543542 -0.601216
-0.363008 1.541502 -0.601453
-0.359045 1.540006 -0.602101
-0.355277 1.537583 -0.602036
-0.351808 1.533798 -0.600920
-0.347419 1.534508 -0.603255
-0.343672 1.532183 -0.603253
-0.340137 1.528991 -0.602574
-0.336889 1.524664 -0.601000
-0.333545 1.520907 -0.599858
-0.330128 1.517589 -0.599047
-0.326939 1.513456 -0.597585
-0.323863 1.509019 -0.595871
-0.320500 1.505837 -0.595134
-0.317142 1.502725 -0.594444
-0.314040 1.498757 -0.593064
-0.310282 1.497253 -0.593641
-0.306116 1.497190 -0.595373
-0.302491 1.495214 -0.595574
-0.298407 1.494803 -0.597038
-0.295060 1.491928 -0.596513
-0.292509 1.486541 -0.593940
-0.286767 1.491385 -0.599688
-0.283738 1.487582 -0.598400
-0.279947 1.486176 -0.599068
-0.276615 1.483397 -0.598606
-0.273657 1.479568 -0.597272
-0.270833 1.475434 -0.595675
-0.268468 1.470100 -0.593067
-0.264432 1.469512 -0.594400
-0.260042 1.469847 -0.596514
-0.256897 1.466787 -0.595788
-0.253359 1.464801 -0.595961
-0.249436 1.463812 -0.596977
-0.245493 1.462845 -0.598018
-0.242123 1.460422 -0.597824
-0.238756 1.458011 -0.597639
-0.236324 1.453368 -0.595536
-0.232323 1.452526 -0.596690
-0.229321 1.449323 -0.595811
-0.226515 1.445711 -0.594572
-0.223351 1.442959 -0.594070
-0.219735 1.441235 -0.594463
-0.216767 1.438086 -0.593608
-0.213903 1.434748 -0.592582
-0.210259 1.433104 -0.593042
-0.207719 1.429147 -0.591457
-0.204772 1.426081 -0.590653
-0.200451 1.425830 -0.592351
-0.197864 1.422064 -0.590918
-0.195500 1.417912 -0.589127
-0.192190 1.415650 -0.589026
-0.186930 1.417120 -0.592300
-0.183460 1.415117 -0.592445
-0.181530 1.410254 -0.589986
-0.177644 1.409048 -0.590852
-0.174070 1.407253 -0.591185
-0.170882 1.404761 -0.590878
-0.168541 1.400796 -0.589207
-0.166368 1.396589 -0.587299
-0.162524 1.395288 -0.588084
-0.158445 1.394361 -0.589226
-0.155897 1.390859 -0.587959
-0.152964 1.388025 -0.587311
-0.150335 1.384716 -0.586212
-0.147005 1.382555 -0.586193
-0.144141 1.379662 -0.585477
-0.139748 1.379162 -0.587045
-0.136930 1.376204 -0.586266
-0.132892 1.375112 -0.587279
-0.129330 1.373281 -0.587587
-0.126022 1.371066 -0.587524
-0.123623 1.367528 -0.586171
-0.119984 1.365807 -0.586587
-0.117952 1.361793 -0.584753
-0.113796 1.360799 -0.585886
-0.110069 1.359182 -0.586412
-0.105629 1.358523 -0.587895
-0.102586 1.355942 -0.587471
-0.099879 1.352921 -0.586604
-0.097292 1.349761 -0.585591
-0.094755 1.346560 -0.584528
-0.090719 1.345305 -0.585435
-0.086926 1.343717 -0.586011
-0.084379 1.340555 -0.584979
-0.081394 1.337954 -0.584520
-0.077878 1.336012 -0.584736
-0.074488 1.333908 -0.584789
-0.071047 1.331863 -0.584904
-0.067128 1.330374 -0.585603
-0.062444 1.329756 -0.587226
-0.061443 1.324860 -0.584352
-0.061216 1.319145 -0.580588
-0.053947 1.321424 -0.585295
-0.049830 1.320093 -0.586190
-0.046229 1.318173 -0.586462
-0.043767 1.315007 -0.585396
-0.041856 1.311270 -0.583705
-0.037158 1.310515 -0.585244
-0.033604 1.308526 -0.585452
-0.030387 1.306178 -0.585270
-0.026550 1.304462 -0.585787
-0.023477 1.301958 -0.585438
-0.018689 1.301169 -0.586997
-0.015527 1.298735 -0.586736
-0.010841 1.297788 -0.588144
-0.001914 1.300897 -0.594144
-0.075602 1.215828 -0.504559
-0.080875 1.206428 -0.495916
-0.080482 1.202353 -0.493343
-0.079860 1.198528 -0.491038
-0.075900 1.197711 -0.492223
-0.073576 1.195425 -0.491702
-0.069998 1.194232 -0.492468
-0.065576 1.193740 -0.494076
-0.064878 1.190045 -0.491896
-0.061194 1.188891 -0.492737
-0.056223 1.188779 -0.494844
-0.052276 1.187778 -0.495906
-0.055062 1.181286 -0.490319
-0.056900 1.175650 -0.485725
-0.065873 1.164438 -0.474251
-0.065297 1.160909 -0.472136
-0.063039 1.158712 -0.471656
-0.059768 1.157288 -0.472141
-0.057168 1.155335 -0.471978
-0.052147 1.155183 -0.474089
-0.047187 1.154934 -0.476109
-0.044865 1.152710 -0.475644
-0.040584 1.151894 -0.476987
-0.037326 1.150311 -0.477367
-0.032983 1.149470 -0.478723
-0.028847 1.148446 -0.479867
-0.030359 1.143503 -0.475896
-0.027691 1.141456 -0.475710
-0.023124 1.140672 -0.477208
-0.021141 1.138131 -0.476391
-0.020693 1.134582 -0.474223
-0.014595 1.134712 -0.477013
-0.012421 1.132266 -0.476348
-0.004905 1.133186 -0.480296
-0.002584 1.130778 -0.479724
-0.003778 1.126198 -0.476147
-0.001597 1.123714 -0.475465
0.003836 1.123176 -0.477523
0.006800 1.121118 -0.477475
0.010071 1.119220 -0.477671
0.011508 1.116239 -0.476333
0.014689 1.114255 -0.476435
0.014725 1.110479 -0.473948
0.016072 1.107454 -0.472545
0.022698 1.107329 -0.475417
0.031885 1.108518 -0.480303
0.029587 1.103466 -0.475936
0.031701 1.100795 -0.475113
0.035573 1.099032 -0.475677
0.039860 1.097451 -0.476547
0.044766 1.096148 -0.477879
0.043802 1.091875 -0.474627
0.050273 1.091296 -0.477137
0.049306 1.087050 -0.473902
0.056506 1.086747 -0.476921
0.063856 1.086445 -0.480009
0.065686 1.083510 -0.478891
0.065615 1.079712 -0.476353
0.066126 1.076210 -0.474270
0.074992 1.076449 -0.478391
0.079258 1.074594 -0.479072
0.086307 1.073924 -0.481779
0.087695 1.070796 -0.480331
0.084710 1.065861 -0.475734
0.082451 1.061308 -0.471713
0.087342 1.059737 -0.472853
0.096885 1.060021 -0.477295
0.100186 1.057780 -0.477276
0.100344 1.054332 -0.475054
0.107372 1.053573 -0.477673
0.120909 1.055253 -0.484806
0.128420 1.054603 -0.487705
0.130088 1.051798 -0.486565
0.098431 1.037009 -0.462625
-0.533436 1.569329 -0.554431
-0.529818 1.566533 -0.554069
-0.526194 1.564651 -0.554332
-0.522706 1.568454 -0.558451
-0.519065 1.570248 -0.561244
-0.515354 1.572276 -0.564222
-0.511559 1.573726 -0.566832
-0.507698 1.575365 -0.569595
-0.503775 1.577399 -0.572652
-0.499788 1.581935 -0.577457
-0.495728 1.582535 -0.579575
-0.491658 1.579561 -0.579230
-0.487593 1.576057 -0.578515
-0.483465 1.575910 -0.580138
-0.479387 1.572775 -0.579677
-0.475241 1.572090 -0.580933
-0.471029 1.572757 -0.583148
-0.466875 1.571399 -0.583940
-0.462752 1.569329 -0.584228
-0.458498 1.569811 -0.586331
-0.454128 1.571883 -0.589577
-0.450101 1.568159 -0.588684
-0.446009 1.565788 -0.588752
-0.441766 1.565584 -0.590377
-0.437515 1.565393 -0.592015
-0.433194 1.565928 -0.594184
-0.429343 1.561308 -0.592604
-0.425164 1.560435 -0.593745
-0.421236 1.557222 -0.593170
-0.417086 1.556265 -0.594244
-0.413049 1.554396 -0.594643
-0.409015 1.552622 -0.595108
-0.405112 1.549945 -0.594898
-0.401114 1.548159 -0.595343
-0.396786 1.548818 -0.597613
-0.392772 1.547246 -0.598216
-0.388752 1.545782 -0.598898
-0.384688 1.544660 -0.599835
-0.380499 1.544343 -0.601382
-0.376298 1.544067 -0.602964
-0.373189 1.537552 -0.599789
-0.368997 1.537381 -0.601443
-0.365573 1.533072 -0.599925
-0.361291 1.533419 -0.601978
-0.357549 1.530982 -0.601887
-0.354141 1.527016 -0.600603
-0.350040 1.526499 -0.601990
-0.345455 1.528192 -0.605105
-0.342252 1.523547 -0.603272
-0.338768 1.520316 -0.602534
-0.335078 1.518078 -0.602568
-0.331526 1.515319 -0.602187
-0.328935 1.508761 -0.598784
-0.325678 1.505086 -0.597651
-0.322357 1.501777 -0.596798
-0.319635 1.496308 -0.594205
-0.315977 1.494470 -0.594510
-0.312411 1.492328 -0.594568
-0.310030 1.486050 -0.591278
-0.304668 1.490245 -0.596465
-0.301264 1.487608 -0.596118
-0.298921 1.481517 -0.592943
-0.295666 1.478564 -0.592318
-0.291803 1.477595 -0.593319
-0.287100 1.479215 -0.596460
-0.282960 1.478993 -0.598095
-0.280101 1.474897 -0.596519
-0.276111 1.474204 -0.597769
-0.273554 1.469357 -0.595549
-0.269954 1.467572 -0.595883
-0.266861 1.464382 -0.595034
-0.263101 1.463063 -0.595759
-0.259464 1.461396 -0.596193
-0.256525 1.457896 -0.595068
-0.252624 1.456935 -0.596103
-0.251084 1.449960 -0.591990
-0.246698 1.450251 -0.594095
-0.243445 1.447695 -0.593757
-0.239669 1.446421 -0.594526
-0.236239 1.444308 -0.594571
-0.233414 1.440790 -0.593390
-0.229463 1.439907 -0.594505
-0.227383 1.434766 -0.591890
-0.222390 1.436198 -0.595047
-0.219019 1.433977 -0.594995
-0.215562 1.431948 -0.595114
-0.212822 1.428398 -0.593878
-0.210167 1.424718 -0.592517
-0.207238 1.421649 -0.591694
-0.203766 1.419713 -0.591886
-0.201020 1.416326 -0.590767
-0.198121 1.413278 -0.589947
-0.194748 1.411178 -0.589984
-0.192162 1.407574 -0.588648
-0.189807 1.403581 -0.586946
-0.185571 1.403132 -0.588490
-0.180211 1.404696 -0.591905
-0.179093 1.398502 -0.588156
-0.176179 1.395617 -0.587458
-0.172753 1.393652 -0.587614
-0.169234 1.391845 -0.587918
-0.165731 1.390002 -0.588192
-0.162917 1.386990 -0.587364
-0.160223 1.383803 -0.586365
-0.156911 1.381655 -0.586347
-0.152248 1.381693 -0.588415
-0.150336 1.377285 -0.586240
-0.147015 1.375154 -0.586239
-0.143716 1.372989 -0.586205
-0.140907 1.370070 -0.585441
-0.137739 1.367716 -0.585221
-0.134788 1.365043 -0.584688
-0.132276 1.361735 -0.583529
-0.127314 1.362021 -0.585901
-0.125120 1.358268 -0.584299
-0.121480 1.356605 -0.584760
-0.117872 1.354884 -0.585167
-0.114279 1.353131 -0.585546
-0.108772 1.353978 -0.588542
-0.108412 1.347812 -0.584488
-0.104216 1.346850 -0.585673
-0.101347 1.344113 -0.585064
-0.099005 1.340702 -0.583763
-0.095761 1.338480 -0.583671
-0.092868 1.335811 -0.583119
-0.089273 1.334032 -0.583484
-0.084898 1.333205 -0.584842
-0.081364 1.331317 -0.585107
-0.077188 1.330195 -0.586177
-0.073604 1.328339 -0.586487
-0.071070 1.325237 -0.585484
-0.068268 1.322466 -0.584825
-0.066703 1.318283 -0.582660
-0.065051 1.314245 -0.580632
-0.060601 1.313388 -0.582006
-0.054260 1.314595 -0.585620
-0.049416 1.314077 -0.587401
-0.048832 1.308902 -0.584129
-0.044975 1.307297 -0.584734
-0.040448 1.306383 -0.586106
-0.037075 1.304228 -0.586124
-0.035930 1.299766 -0.583588
-0.034422 1.295722 -0.581498
-0.029402 1.295262 -0.583399
-0.025516 1.293624 -0.583998
-0.022202 1.291403 -0.583949
-0.016902 1.291114 -0.586092
-0.007872 1.294367 -0.592294
-0.052737 1.241255 -0.536330
-0.051556 1.237498 -0.534296
-0.049722 1.234376 -0.532984
-0.077496 1.204361 -0.500290
-0.078132 1.199367 -0.496614
-0.076615 1.196349 -0.495235
-0.076155 1.192422 -0.492772
-0.073792 1.190188 -0.492302
-0.070723 1.188559 -0.492556
-0.069196 1.185611 -0.491232
-0.066871 1.183347 -0.490728
-0.062816 1.182517 -0.491964
-0.058470 1.181891 -0.493470
-0.053827 1.181468 -0.495246
-0.055594 1.175875 -0.490672
-0.056737 1.170851 -0.486761
-0.055898 1.167437 -0.484823
-0.059823 1.160371 -0.478294
-0.061388 1.155215 -0.474110
-0.060442 1.152019 -0.472370
-0.055457 1.151854 -0.474481
-0.049819 1.152120 -0.477174
-0.047360 1.150008 -0.476846
-0.044416 1.148238 -0.476965
-0.040941 1.146830 -0.477568
-0.040382 1.143350 -0.475471
-0.036807 1.141985 -0.476149
-0.031282 1.141930 -0.478584
-0.030293 1.138744 -0.476882
-0.026683 1.137327 -0.477545
-0.024578 1.134887 -0.476847
-0.019852 1.134154 -0.478473
-0.019663 1.130449 -0.476069
-0.018995 1.127075 -0.474103
-0.014970 1.125831 -0.475076
-0.008797 1.125885 -0.477885
-0.008499 1.122266 -0.475594
-0.005598 1.120247 -0.475546
-0.002287 1.118454 -0.475836
0.003417 1.118051 -0.478133
0.006795 1.116229 -0.478437
0.010253 1.114429 -0.478792
0.012334 1.111820 -0.477987
0.011778 1.107725 -0.475003
0.011987 1.104086 -0.472668
0.017807 1.103532 -0.474927
0.027107 1.104793 -0.479968
0.030850 1.102990 -0.480458
0.029966 1.098730 -0.477221
0.032078 1.096056 -0.476396
0.034282 1.093425 -0.475641
0.037049 1.091070 -0.475327
0.039516 1.088553 -0.474770
0.044476 1.087248 -0.476147
0.049965 1.086155 -0.477905
0.050116 1.082476 -0.475528
0.058404 1.082640 -0.479389
0.057643 1.078538 -0.476319
0.060139 1.075961 -0.475736
0.063568 1.073803 -0.475854
0.060685 1.068841 -0.471251
0.067136 1.068021 -0.473624
0.079812 1.069828 -0.480561
0.076963 1.064946 -0.476021
0.078751 1.062074 -0.474916
0.081555 1.059643 -0.474561
0.084321 1.057208 -0.474185
0.094561 1.057768 -0.479178
0.094694 1.054291 -0.476911
0.098548 1.052307 -0.477317
0.113532 1.054576 -0.485582
0.119626 1.053400 -0.487529
0.125113 1.051996 -0.489046
0.121158 1.047161 -0.484006
0.099356 1.036030 -0.466707
-0.534442 1.561380 -0.553630
-0.531162 1.565673 -0.558055
-0.527546 1.564016 -0.558471
-0.524037 1.566961 -0.562041
-0.520397 1.568464 -0.564655
-0.516665 1.569182 -0.566756
-0.512914 1.572214 -0.570472
-0.509052 1.573167 -0.572780
-0.505138 1.574949 -0.575683
-0.501169 1.580238 -0.581048
-0.497127 1.575467 -0.579432
-0.493100 1.570457 -0.577640
-0.489042 1.569207 -0.578478
-0.484956 1.568412 -0.579640
-0.480843 1.567927 -0.581028
-0.476667 1.568824 -0.583403
-0.472509 1.568268 -0.584757
-0.468371 1.566873 -0.585517
-0.464222 1.565650 -0.586400
-0.460023 1.565314 -0.587922
-0.455860 1.564168 -0.588864
-0.451796 1.561473 -0.588687
-0.447600 1.560945 -0.590074
-0.443453 1.559693 -0.590936
-0.439117 1.560842 -0.593552
-0.435026 1.558911 -0.593920
-0.430920 1.557294 -0.594514
-0.427028 1.553608 -0.593579
-0.422980 1.551772 -0.593999
-0.418880 1.550538 -0.594862
-0.414773 1.549438 -0.595822
-0.410803 1.547264 -0.595979
-0.406833 1.545239 -0.596242
-0.402792 1.543872 -0.596994
-0.398727 1.542751 -0.597929
-0.394840 1.540453 -0.597972
-0.391222 1.536494 -0.596747
-0.386368 1.540691 -0.601724
-0.382428 1.538904 -0.602150
-0.379278 1.532510 -0.599039
-0.375392 1.530724 -0.599447
-0.371529 1.528884 -0.599811
-0.367936 1.525663 -0.599101
-0.363871 1.525049 -0.600407
-0.360071 1.523085 -0.600663
-0.356321 1.520944 -0.600777
-0.352514 1.519143 -0.601153
-0.348928 1.516368 -0.600761
-0.345602 1.512520 -0.599512
-0.341613 1.511727 -0.600673
-0.338246 1.508270 -0.599718
-0.333453 1.510868 -0.603584
-0.330763 1.504738 -0.600484
-0.327442 1.501353 -0.599565
-0.324256 1.497548 -0.598297
-0.320763 1.495024 -0.598053
-0.318112 1.489449 -0.595329
-0.315051 1.485544 -0.593943
-0.311807 1.482399 -0.593164
-0.308020 1.481205 -0.593977
-0.306127 1.473600 -0.589522
-0.302675 1.471415 -0.589505
-0.299238 1.469210 -0.589468
-0.293760 1.473525 -0.594842
-0.291683 1.467011 -0.591229
-0.287196 1.468051 -0.593904
-0.283546 1.466486 -0.594410
-0.280694 1.462575 -0.592943
-0.276292 1.463217 -0.595308
-0.272623 1.461700 -0.595859
-0.268901 1.460325 -0.596532
-0.265967 1.456787 -0.595364
-0.262683 1.454250 -0.595044
-0.260055 1.450017 -0.593263
-0.257303 1.446188 -0.591818
-0.254471 1.442634 -0.590599
-0.251359 1.439838 -0.590028
-0.245869 1.442913 -0.594563
-0.242102 1.441664 -0.595352
-0.239293 1.438119 -0.594132
-0.236773 1.433952 -0.592357
-0.233102 1.432507 -0.592970
-0.230089 1.429554 -0.592252
-0.226964 1.426885 -0.591781
-0.221110 1.430217 -0.596660
-0.218398 1.426607 -0.595358
-0.214905 1.424705 -0.595581
-0.212789 1.419920 -0.593205
-0.209769 1.417081 -0.592573
-0.206476 1.414820 -0.592462
-0.203381 1.412172 -0.591997
-0.201148 1.407842 -0.589989
-0.197793 1.405758 -0.590029
-0.195598 1.401455 -0.588025
-0.191867 1.400110 -0.588743
-0.189059 1.397034 -0.587858
-0.186039 1.394371 -0.587351
-0.181080 1.395227 -0.590133
-0.177705 1.393180 -0.590210
-0.175347 1.389347 -0.588606
-0.172033 1.387217 -0.588600
-0.169215 1.384240 -0.587789
-0.168482 1.377775 -0.583651
-0.164492 1.376838 -0.584768
-0.157833 1.380242 -0.590063
-0.155783 1.376049 -0.588075
-0.154620 1.370495 -0.584757
-0.149968 1.370522 -0.586834
-0.146682 1.368371 -0.586804
-0.143952 1.365367 -0.585939
-0.141242 1.362355 -0.585061
-0.138006 1.360151 -0.584974
-0.134835 1.357852 -0.584792
-0.131680 1.355532 -0.584589
-0.128182 1.353710 -0.584881
-0.124812 1.351698 -0.584987
-0.121340 1.349824 -0.585233
-0.118337 1.347293 -0.584819
-0.115831 1.344093 -0.583723
-0.112061 1.342622 -0.584380
-0.109456 1.339582 -0.583439
-0.105923 1.337783 -0.583765
-0.101651 1.336932 -0.585074
-0.098513 1.334594 -0.584854
-0.095029 1.332698 -0.585094
-0.092208 1.329964 -0.584461
-0.090146 1.326305 -0.582855
-0.087894 1.322912 -0.581517
-0.083956 1.321579 -0.582347
-0.081465 1.318501 -0.581333
-0.074684 1.320490 -0.585715
-0.072263 1.317310 -0.584600
-0.069571 1.314462 -0.583836
-0.067088 1.311390 -0.582824
-0.063983 1.309034 -0.582583
-0.059646 1.308044 -0.583830
-0.055144 1.307204 -0.585254
-0.053311 1.303442 -0.583481
-0.049739 1.301571 -0.583783
-0.045979 1.299889 -0.584300
-0.043052 1.297321 -0.583837
-0.039743 1.295151 -0.583819
-0.037442 1.291948 -0.582641
-0.035817 1.288083 -0.580709
-0.029711 1.288716 -0.583866
-0.025391 1.287519 -0.584971
-0.023840 1.283600 -0.582970
-0.016211 1.285560 -0.587721
-0.044145 1.253613 -0.553312
-0.047942 1.245027 -0.545722
-0.047609 1.240420 -0.542709
-0.048802 1.234464 -0.538089
-0.047378 1.230968 -0.536327
-0.077066 1.195217 -0.498532
-0.076890 1.191039 -0.495747
-0.075007 1.188385 -0.494772
-0.074789 1.184317 -0.492084
-0.073128 1.181512 -0.490908
-0.070518 1.179515 -0.490712
-0.065981 1.179104 -0.492466
-0.061453 1.178644 -0.494184
-0.059302 1.176223 -0.493495
-0.057355 1.173642 -0.492605
-0.054219 1.172004 -0.492897
-0.054161 1.167951 -0.490155
-0.054317 1.163774 -0.487234
-0.062764 1.153327 -0.476304
-0.062526 1.149604 -0.473873
-0.057915 1.149165 -0.475652
-0.052875 1.148996 -0.477810
-0.050266 1.147010 -0.477635
-0.047948 1.144805 -0.477181
-0.048376 1.140650 -0.474161
-0.045387 1.138927 -0.474340
-0.040457 1.138530 -0.476301
-0.035804 1.137894 -0.477974
-0.032164 1.136528 -0.478695
-0.029366 1.134573 -0.478637
-0.027247 1.132155 -0.477958
-0.026433 1.128883 -0.476110
-0.028182 1.123979 -0.471996
-0.026049 1.121597 -0.471353
-0.028236 1.116499 -0.466911
-0.018839 1.118638 -0.472629
-0.009198 1.120805 -0.478478
-0.006409 1.118713 -0.478335
-0.003659 1.116581 -0.478149
-0.001723 1.113954 -0.477259
0.003067 1.112981 -0.478787
0.003249 1.109318 -0.476405
0.008324 1.108447 -0.478134
0.008328 1.104692 -0.475610
0.009143 1.101408 -0.473775
0.014412 1.100560 -0.475613
0.020581 1.100141 -0.478152
0.022048 1.097168 -0.476828
0.020173 1.092451 -0.472806
0.022669 1.090038 -0.472330
0.031372 1.090767 -0.476804
0.032312 1.087509 -0.475052
0.035022 1.085136 -0.474704
0.039078 1.083408 -0.475406
0.042822 1.081501 -0.475845
0.045892 1.079249 -0.475745
0.045773 1.075497 -0.473179
0.048455 1.073064 -0.472781
0.053449 1.071674 -0.474138
0.058114 1.070102 -0.475225
0.060667 1.067574 -0.474702
0.063521 1.065180 -0.474405
0.071332 1.064903 -0.477796
0.072538 1.061787 -0.476258
0.069928 1.057117 -0.471930
0.082603 1.058766 -0.478832
0.088940 1.057756 -0.481049
0.085293 1.052765 -0.476022
0.089463 1.050920 -0.476680
0.098835 1.051082 -0.481060
0.111655 1.052499 -0.487855
0.116198 1.050745 -0.488731
0.116922 1.047601 -0.486923
0.117807 1.044575 -0.485263
0.117928 1.041337 -0.483105
-0.536021 1.565371 -0.560901
-0.532544 1.565554 -0.562562
-0.528819 1.561249 -0.561165
-0.525259 1.562255 -0.563425
-0.521708 1.565877 -0.567516
-0.517998 1.566964 -0.569885
-0.514186 1.566289 -0.571051
-0.510431 1.572427 -0.576980
-0.506519 1.574012 -0.579768
-0.502543 1.575583 -0.582567
-0.498509 1.575468 -0.584201
-0.494473 1.569494 -0.581710
-0.490488 1.561559 -0.577814
-0.486429 1.561242 -0.579307
-0.482268 1.564239 -0.583170
-0.478180 1.562564 -0.583715
-0.474151 1.558953 -0.582870
-0.469864 1.562423 -0.587116
-0.465763 1.560440 -0.587445
-0.461628 1.559240 -0.588338
-0.457556 1.556898 -0.588402
-0.453324 1.557327 -0.590483
-0.449258 1.555069 -0.590603
-0.445026 1.555283 -0.592534
-0.440974 1.553064 -0.592677
-0.436961 1.550582 -0.592620
-0.432822 1.549709 -0.593750
-0.428939 1.546218 -0.592931
-0.424764 1.545900 -0.594469
-0.420576 1.545673 -0.596077
-0.416762 1.542141 -0.595205
-0.412747 1.540575 -0.595802
-0.408617 1.540016 -0.597159
-0.404898 1.536337 -0.596149
-0.400964 1.534494 -0.596523
-0.396761 1.534629 -0.598405
-0.393317 1.529622 -0.596350
-0.389111 1.529864 -0.598312
-0.385060 1.529077 -0.599487
-0.381392 1.526009 -0.598897
-0.377599 1.523828 -0.598987
-0.373838 1.521565 -0.599007
-0.370068 1.519450 -0.599137
-0.366312 1.517348 -0.599273
-0.362434 1.515945 -0.599954
-0.358450 1.515092 -0.601069
-0.354852 1.512396 -0.600725
-0.351324 1.509468 -0.600192
-0.347632 1.507391 -0.600328
-0.343846 1.505787 -0.600839
-0.339831 1.505196 -0.602161
-0.336205 1.502951 -0.602157
-0.332300 1.501904 -0.603116
-0.329193 1.497671 -0.601495
-0.325791 1.494732 -0.600913
-0.322590 1.491107 -0.599764
-0.319332 1.487805 -0.598867
-0.316726 1.482228 -0.596095
-0.313537 1.478909 -0.595160
-0.310481 1.475214 -0.593906
-0.306665 1.474193 -0.594859
-0.304318 1.468277 -0.591742
-0.301933 1.462670 -0.588859
-0.298113 1.461805 -0.589927
-0.295027 1.458622 -0.589053
-0.291294 1.457486 -0.589896
-0.287272 1.457202 -0.591464
-0.282559 1.458903 -0.594727
-0.279061 1.456968 -0.594912
-0.274497 1.458068 -0.597691
-0.271355 1.455107 -0.597005
-0.267870 1.453127 -0.597156
-0.265671 1.447705 -0.594335
-0.262780 1.444238 -0.593187
-0.259948 1.440679 -0.591950
-0.256793 1.438002 -0.591474
-0.253522 1.435645 -0.591273
-0.250469 1.432770 -0.590616
-0.247306 1.430197 -0.590218
-0.243736 1.428615 -0.590694
-0.239850 1.427764 -0.591822
-0.236999 1.424497 -0.590805
-0.232110 1.425889 -0.593945
-0.229300 1.422541 -0.592854
-0.227839 1.416277 -0.589130
-0.223285 1.416829 -0.591538
-0.218632 1.417515 -0.594085
-0.216012 1.413860 -0.592698
-0.212734 1.411613 -0.592588
-0.209523 1.409238 -0.592359
-0.207189 1.405118 -0.590523
-0.204604 1.401556 -0.589188
-0.201517 1.399013 -0.588789
-0.197794 1.397701 -0.589532
-0.194715 1.395155 -0.589129
-0.192288 1.391410 -0.587599
-0.189010 1.389272 -0.587568
-0.185343 1.387840 -0.588205
-0.183476 1.383183 -0.585791
-0.179814 1.381752 -0.586427
-0.175068 1.382178 -0.588841
-0.172319 1.379124 -0.587939
-0.170406 1.374689 -0.585703
-0.167908 1.371289 -0.584448
-0.163975 1.370276 -0.585499
-0.160072 1.369185 -0.586482
-0.158294 1.364676 -0.584135
-0.154721 1.363056 -0.584603
-0.151711 1.360549 -0.584201
-0.147646 1.359668 -0.585404
-0.144041 1.358058 -0.585894
-0.140880 1.355773 -0.585716
-0.137439 1.353903 -0.585952
-0.135440 1.349928 -0.584079
-0.134377 1.344657 -0.580884
-0.130297 1.343742 -0.582073
-0.126238 1.342764 -0.583208
-0.123453 1.339997 -0.582528
-0.118794 1.339802 -0.584478
-0.117111 1.335548 -0.582271
-0.114135 1.333066 -0.581876
-0.109537 1.332722 -0.583696
-0.106108 1.330815 -0.583905
-0.102034 1.329728 -0.584974
-0.098782 1.327573 -0.584932
-0.097715 1.322686 -0.582011
-0.093733 1.321463 -0.582946
-0.090752 1.318994 -0.582565
-0.087767 1.316537 -0.582195
-0.084158 1.314827 -0.582626
-0.080009 1.313739 -0.583730
-0.076451 1.311937 -0.584075
-0.073828 1.309050 -0.583245
-0.069909 1.307648 -0.584030
-0.067072 1.305012 -0.583473
-0.064949 1.301595 -0.582053
-0.062393 1.298679 -0.581176
-0.056884 1.298966 -0.583851
-0.053738 1.296670 -0.583672
-0.049975 1.295024 -0.584221
-0.046697 1.292855 -0.584190
-0.044116 1.289965 -0.583346
-0.042752 1.285846 -0.581102
-0.039120 1.284051 -0.581492
-0.035020 1.282707 -0.582407
-0.031970 1.280308 -0.582117
-0.028413 1.278400 -0.582398
-0.028513 1.272968 -0.578588
-0.043953 1.253050 -0.557822
-0.048582 1.243679 -0.549241
-0.049149 1.238236 -0.545216
-0.049105 1.233424 -0.541904
-0.043549 1.233661 -0.544579
-0.040028 1.232017 -0.545033
-0.040027 1.227242 -0.541731
-0.074372 1.192496 -0.502166
-0.077322 1.185630 -0.496085
-0.076150 1.182392 -0.494379
-0.074804 1.179326 -0.492870
-0.073248 1.176454 -0.491593
-0.069549 1.175365 -0.492519
-0.066206 1.173958 -0.493066
-0.064690 1.171061 -0.491756
-0.061279 1.169686 -0.492358
-0.058020 1.168170 -0.492795
-0.053824 1.167364 -0.494147
-0.051244 1.165280 -0.493887
-0.051277 1.161204 -0.491068
-0.058138 1.152047 -0.481645
-0.058645 1.147759 -0.478467
-0.055347 1.146305 -0.478972
-0.053166 1.144020 -0.478399
-0.051960 1.141035 -0.476901
-0.050683 1.138114 -0.475481
-0.046800 1.137025 -0.476510
-0.044494 1.134815 -0.476051
-0.039739 1.134268 -0.477852
-0.037389 1.132054 -0.477414
-0.033332 1.130968 -0.478530
-0.031134 1.128624 -0.477937
-0.029499 1.125911 -0.476834
-0.032782 1.120047 -0.471325
-0.032213 1.116703 -0.469305
-0.027680 1.115854 -0.470811
-0.024980 1.113831 -0.470674
-0.015654 1.115830 -0.476327
-0.009155 1.116009 -0.479443
-0.004297 1.115140 -0.481090
-0.004558 1.111221 -0.478308
-0.007676 1.105677 -0.473106
-0.006291 1.102779 -0.471779
0.000635 1.103007 -0.475133
0.002863 1.100543 -0.474492
0.007096 1.099171 -0.475520
0.012519 1.098406 -0.477511
0.017662 1.097435 -0.479235
0.017269 1.093495 -0.476389
0.015956 1.089106 -0.472816
0.018514 1.086745 -0.472407
0.022789 1.085242 -0.473373
0.026970 1.083655 -0.474241
0.029776 1.081358 -0.473993
0.031178 1.078368 -0.472627
0.036999 1.077497 -0.474741
0.040824 1.075632 -0.475259
0.042353 1.072678 -0.473978
0.040695 1.068274 -0.470240
0.042901 1.065665 -0.469505
0.053695 1.066876 -0.475329
0.057314 1.064837 -0.475632
0.062581 1.063498 -0.477171
0.069154 1.062684 -0.479668
0.068988 1.059005 -0.477106
0.068675 1.055311 -0.474462
0.072800 1.053467 -0.475124
0.080760 1.053154 -0.478592
0.080110 1.049403 -0.475745
0.086600 1.048482 -0.478115
0.091560 1.046956 -0.479363
0.100042 1.046757 -0.483134
0.106554 1.045792 -0.485469
0.103128 1.041188 -0.480739
0.103977 1.038227 -0.479093
0.102262 1.034415 -0.475680
-0.536872 1.554806 -0.558226
-0.533630 1.558905 -0.562584
-0.530165 1.560226 -0.565055
-0.526614 1.561299 -0.567381
-0.523016 1.563123 -0.570252
-0.519303 1.563590 -0.572201
-0.515605 1.567485 -0.576574
-0.511819 1.571587 -0.581125
-0.507927 1.574622 -0.584958
-0.503946 1.576004 -0.587648
-0.499903 1.574545 -0.588341
-0.495840 1.572274 -0.588461
-0.491790 1.567377 -0.586705
-0.487761 1.562468 -0.584928
-0.483853 1.552923 -0.579802
-0.479779 1.552705 -0.581374
-0.475662 1.553156 -0.583438
-0.471468 1.554957 -0.586492
-0.467354 1.553962 -0.587524
-0.463314 1.551346 -0.587371
-0.459131 1.551618 -0.589332
-0.454897 1.552451 -0.591714
-0.450907 1.549263 -0.591134
-0.446802 1.548028 -0.591991
-0.442771 1.545898 -0.592183
-0.438686 1.544600 -0.592989
-0.434741 1.541806 -0.592674
-0.430743 1.539833 -0.592966
-0.426569 1.539765 -0.594689
-0.422677 1.536998 -0.594375
-0.418717 1.535057 -0.594679
-0.414513 1.535325 -0.596659
-0.410840 1.531240 -0.595322
-0.406921 1.529358 -0.595656
-0.402884 1.528470 -0.596749
-0.399009 1.526465 -0.596982
-0.395383 1.522886 -0.595993
-0.391523 1.521064 -0.596354
-0.387191 1.522283 -0.599079
-0.383200 1.521315 -0.600107
-0.379881 1.516445 -0.598079
-0.376297 1.513349 -0.597425
-0.372254 1.512915 -0.598862
-0.368373 1.511598 -0.599604
-0.364701 1.509243 -0.599522
-0.361275 1.505760 -0.598535
-0.358315 1.500178 -0.595860
-0.353361 1.504210 -0.600871
-0.349934 1.501003 -0.600087
-0.345778 1.501153 -0.602003
-0.342263 1.498470 -0.601633
-0.338186 1.498234 -0.603245
-0.335344 1.492888 -0.600699
-0.332196 1.488976 -0.599304
-0.328472 1.487445 -0.599850
-0.324177 1.488106 -0.602202
-0.320717 1.485565 -0.601921
-0.318621 1.478118 -0.597570
-0.315603 1.474223 -0.596140
-0.312370 1.471192 -0.595418
-0.309364 1.467456 -0.594100
-0.306714 1.462631 -0.591856
-0.302899 1.461754 -0.592919
-0.300812 1.455322 -0.589293
-0.297564 1.452732 -0.588899
-0.293891 1.451488 -0.589645
-0.289981 1.450946 -0.590994
-0.287373 1.446521 -0.589023
-0.283998 1.444422 -0.589038
-0.280521 1.442635 -0.589319
-0.277182 1.440465 -0.589270
-0.273091 1.440377 -0.591027
-0.269252 1.439550 -0.592152
-0.265553 1.438323 -0.592933
-0.262189 1.436208 -0.592939
-0.259145 1.433286 -0.592234
-0.255573 1.431731 -0.592731
-0.252727 1.428374 -0.591633
-0.250136 1.424453 -0.590024
-0.246648 1.422738 -0.590373
-0.242990 1.421417 -0.591077
-0.238660 1.421628 -0.593163
-0.235871 1.418274 -0.592047
-0.232360 1.416577 -0.592423
-0.229394 1.413676 -0.591707
-0.226656 1.410314 -0.590565
-0.223541 1.407796 -0.590187
-0.220075 1.406034 -0.590500
-0.216509 1.404470 -0.590999
-0.213403 1.401957 -0.590623
-0.210063 1.399927 -0.590693
-0.207036 1.397282 -0.590190
-0.203989 1.394696 -0.589738
-0.200467 1.393035 -0.590152
-0.197871 1.389614 -0.588910
-0.194801 1.387115 -0.588532
-0.191725 1.384640 -0.588174
-0.188722 1.382045 -0.587699
-0.186407 1.378239 -0.586063
-0.182701 1.376927 -0.586808
-0.179507 1.374705 -0.586683
-0.177108 1.371130 -0.585249
-0.174202 1.368450 -0.584673
-0.169262 1.369165 -0.587402
-0.166730 1.365858 -0.586217
-0.163948 1.362987 -0.585453
-0.160961 1.360464 -0.585025
-0.157989 1.357929 -0.584584
-0.155062 1.355334 -0.584079
-0.151980 1.352991 -0.583823
-0.147046 1.353451 -0.586373
-0.143491 1.351789 -0.586810
-0.141402 1.347953 -0.585057
-0.139993 1.343174 -0.582334
-0.136709 1.341152 -0.582395
-0.133002 1.339727 -0.583069
-0.129649 1.337788 -0.583222
-0.126768 1.335193 -0.582700
-0.123497 1.333140 -0.582736
-0.120488 1.330732 -0.582405
-0.117206 1.328692 -0.582456
-0.113120 1.327705 -0.583611
-0.109096 1.326607 -0.584660
-0.106725 1.323367 -0.583458
-0.104587 1.319858 -0.581961
-0.100982 1.318212 -0.582438
-0.097875 1.315940 -0.582250
-0.094197 1.314364 -0.582809
-0.091178 1.311980 -0.582503
-0.087812 1.310013 -0.582647
-0.085274 1.307066 -0.581730
-0.079356 1.308057 -0.585108
-0.077163 1.304702 -0.583749
-0.074200 1.302244 -0.583368
-0.071585 1.299401 -0.582561
-0.069070 1.296462 -0.581642
-0.065844 1.294315 -0.581601
-0.062221 1.292593 -0.582039
-0.058705 1.290743 -0.582339
-0.054653 1.289447 -0.583272
-0.050804 1.287915 -0.583948
-0.048204 1.285079 -0.583144
-0.045344 1.282518 -0.582652
-0.042488 1.279958 -0.582159
-0.038616 1.278412 -0.582839
-0.034644 1.276943 -0.583620
-0.032155 1.274014 -0.582704
-0.031612 1.269231 -0.579606
-0.048824 1.247686 -0.556697
-0.049944 1.241652 -0.551969
-0.048936 1.237673 -0.549648
-0.046478 1.235058 -0.548944
-0.043147 1.233238 -0.549194
-0.039761 1.231455 -0.549496
-0.038401 1.227869 -0.547616
-0.042140 1.219862 -0.540320
-0.074029 1.183435 -0.500331
-0.074407 1.178886 -0.496988
-0.073265 1.175657 -0.495262
-0.073736 1.171123 -0.491890
-0.072173 1.168297 -0.490641
-0.069912 1.166046 -0.490113
-0.067140 1.164200 -0.490102
-0.061898 1.164283 -0.492569
-0.056258 1.164618 -0.495394
-0.051797 1.163987 -0.497008
-0.052056 1.159741 -0.493943
-0.054656 1.153786 -0.488615
-0.055510 1.149206 -0.485048
-0.056024 1.144928 -0.481847
-0.055603 1.141369 -0.479577
-0.054233 1.138515 -0.478235
-0.052573 1.135875 -0.477178
-0.050088 1.133816 -0.476903
-0.047386 1.131896 -0.476827
-0.043062 1.131065 -0.478255
-0.039469 1.129704 -0.478981
-0.037538 1.127212 -0.478158
-0.033159 1.126321 -0.479576
-0.033729 1.122190 -0.476468
-0.033824 1.118399 -0.473816
-0.032059 1.115811 -0.472858
-0.030732 1.112951 -0.471510
-0.026121 1.112116 -0.473083
-0.022061 1.110902 -0.474141
-0.015154 1.111357 -0.477672
-0.011348 1.109897 -0.478446
-0.009797 1.107087 -0.477247
-0.009013 1.103835 -0.475388
-0.006734 1.101448 -0.474821
-0.005373 1.098535 -0.473468
0.000395 1.098069 -0.475848
0.003289 1.095970 -0.475770
0.010056 1.095941 -0.478918
0.012983 1.093794 -0.478827
0.012598 1.089890 -0.475988
0.011100 1.085438 -0.472257
0.016849 1.084733 -0.474473
0.020849 1.083090 -0.475233
0.022497 1.080246 -0.474074
0.022475 1.076588 -0.471579
0.027410 1.075347 -0.473053
0.032802 1.074282 -0.474863
0.036466 1.072360 -0.475279
0.038550 1.069687 -0.474443
0.037966 1.065800 -0.471531
0.040903 1.063531 -0.471370
0.046431 1.062401 -0.473199
0.052068 1.061280 -0.475084
0.056217 1.059482 -0.475809
0.062346 1.058507 -0.478021
0.065208 1.056133 -0.477747
0.067464 1.053517 -0.477022
0.072941 1.052219 -0.478702
0.077077 1.050368 -0.479374
0.082805 1.049141 -0.481212
0.084801 1.046458 -0.480306
0.085202 1.043203 -0.478258
0.080401 1.038054 -0.472479
0.082647 1.035617 -0.471843
0.086655 1.033857 -0.472488
0.094318 1.033424 -0.475743
0.104638 1.033913 -0.480863
-0.538428 1.557989 -0.564993
-0.535065 1.559746 -0.567765
-0.531620 1.561546 -0.570595
-0.527976 1.560342 -0.571348
-0.524314 1.560085 -0.572779
-0.520685 1.562923 -0.576411
-0.517012 1.567474 -0.581284
-0.513216 1.570768 -0.585301
-0.509331 1.573858 -0.589203
-0.505350 1.574879 -0.591656
-0.501309 1.574215 -0.592920
-0.497234 1.573457 -0.594125
-0.493140 1.571641 -0.594576
-0.489068 1.567052 -0.593022
-0.485137 1.556087 -0.586827
-0.481174 1.550313 -0.584371
-0.477103 1.549433 -0.585472
-0.473067 1.547273 -0.585638
-0.469000 1.545968 -0.586430
-0.464861 1.546144 -0.588315
-0.460670 1.546958 -0.590679
-0.456619 1.544988 -0.590986
-0.452585 1.542904 -0.591203
-0.448512 1.541566 -0.591974
-0.444363 1.541300 -0.593547
-0.440384 1.538872 -0.593497
-0.436605 1.534389 -0.591887
-0.432590 1.532920 -0.592544
-0.428295 1.534360 -0.595410
-0.424499 1.530827 -0.594494
-0.420519 1.529276 -0.595083
-0.416561 1.527628 -0.595594
-0.412611 1.526018 -0.596130
-0.408665 1.524480 -0.596720
-0.404665 1.523436 -0.597689
-0.400817 1.521344 -0.597843
-0.396999 1.519168 -0.597926
-0.393526 1.514855 -0.596331
-0.389706 1.513009 -0.596657
-0.385388 1.514289 -0.599443
-0.381728 1.511566 -0.599075
-0.378079 1.508914 -0.598756
-0.373990 1.508804 -0.600453
-0.370481 1.505571 -0.599663
-0.366629 1.504253 -0.600396
-0.363131 1.501199 -0.599733
-0.359924 1.496857 -0.598023
-0.356590 1.493311 -0.596941
-0.352402 1.493823 -0.599142
-0.348782 1.491724 -0.599226
-0.345424 1.488541 -0.598422
-0.342160 1.485076 -0.597376
-0.337995 1.485444 -0.599473
-0.334178 1.484336 -0.600362
-0.330805 1.481489 -0.599813
-0.328008 1.476507 -0.597486
-0.323832 1.476861 -0.599585
-0.320922 1.472514 -0.597766
-0.317468 1.470248 -0.597677
-0.314484 1.466378 -0.596235
-0.311016 1.464271 -0.596271
-0.308263 1.459804 -0.594304
-0.306020 1.453791 -0.591007
-0.302726 1.451336 -0.590721
-0.298887 1.450639 -0.591935
-0.295650 1.448053 -0.591534
-0.293212 1.443095 -0.589085
-0.289339 1.442518 -0.590403
-0.286548 1.438762 -0.588973
-0.283321 1.436325 -0.588680
-0.279785 1.434786 -0.589167
-0.275426 1.435502 -0.591632
-0.271733 1.434336 -0.592459
-0.268528 1.431858 -0.592132
-0.265070 1.430065 -0.592408
-0.261448 1.428691 -0.593059
-0.258509 1.425586 -0.592169
-0.255034 1.423854 -0.592500
-0.252799 1.419105 -0.590125
-0.249482 1.417035 -0.590146
-0.245756 1.415935 -0.591044
-0.243068 1.412413 -0.589750
-0.241056 1.407408 -0.587096
-0.239295 1.401942 -0.584002
-0.235607 1.400828 -0.584876
-0.227397 1.409485 -0.594749
-0.225231 1.404923 -0.592484
-0.223870 1.398755 -0.588712
-0.219957 1.397990 -0.589940
-0.217341 1.394547 -0.588677
-0.213964 1.392675 -0.588876
-0.210326 1.391314 -0.589558
-0.209264 1.384923 -0.585496
-0.203843 1.387017 -0.589445
-0.201293 1.383566 -0.588149
-0.198155 1.381253 -0.587930
-0.194769 1.379402 -0.588152
-0.192425 1.375662 -0.586560
-0.189067 1.373778 -0.586747
-0.185701 1.371901 -0.586944
-0.182692 1.369403 -0.586538
-0.179648 1.366976 -0.586199
-0.176222 1.365200 -0.586496
-0.174144 1.361178 -0.584585
-0.172012 1.357297 -0.582800
-0.166552 1.358847 -0.586386
-0.163472 1.356501 -0.586123
-0.160945 1.353292 -0.584996
-0.158171 1.350496 -0.584274
-0.155297 1.347871 -0.583721
-0.153535 1.343579 -0.581478
-0.146592 1.347074 -0.587123
-0.145006 1.342534 -0.584625
-0.142990 1.338682 -0.582810
-0.139656 1.336766 -0.582972
-0.136152 1.335084 -0.583377
-0.134455 1.330865 -0.581160
-0.129829 1.330741 -0.583183
-0.126276 1.329104 -0.583643
-0.123123 1.326916 -0.583532
-0.120417 1.324134 -0.582795
-0.115952 1.323677 -0.584510
-0.113285 1.320846 -0.583722
-0.110744 1.317871 -0.582774
-0.108100 1.315046 -0.581981
-0.104666 1.313222 -0.582257
-0.104113 1.307840 -0.578697
-0.098948 1.308149 -0.581278
-0.094844 1.307121 -0.582428
-0.092182 1.304352 -0.581685
-0.089331 1.301818 -0.581195
-0.085583 1.300331 -0.581858
-0.082328 1.298263 -0.581885
-0.079059 1.296205 -0.581925
-0.075288 1.294704 -0.582591
-0.073353 1.291157 -0.580968
-0.069011 1.290267 -0.582329
-0.065590 1.288351 -0.582543
-0.062060 1.286542 -0.582883
-0.058292 1.284972 -0.583502
-0.055464 1.282407 -0.582988
-0.053702 1.278752 -0.581214
-0.049897 1.277202 -0.581867
-0.046058 1.275668 -0.582547
-0.043425 1.272918 -0.581817
-0.041449 1.269534 -0.580336
-0.036036 1.269499 -0.582802
-0.036921 1.263385 -0.578080
-0.048434 1.247306 -0.561435
-0.049541 1.241273 -0.556670
-0.048344 1.237454 -0.554529
-0.046936 1.233861 -0.552646
-0.044757 1.230994 -0.551632
-0.041604 1.229005 -0.551686
-0.040421 1.225272 -0.549605
-0.041701 1.219426 -0.544899
-0.044215 1.212598 -0.538934
-0.043032 1.209018 -0.536964
-0.069555 1.177947 -0.502849
-0.071047 1.172535 -0.498357
-0.073723 1.166235 -0.492694
-0.072414 1.163225 -0.491190
-0.071638 1.159810 -0.489155
-0.069234 1.157697 -0.488790
-0.060885 1.160179 -0.494411
-0.056459 1.159549 -0.496028
-0.060945 1.152146 -0.488760
-0.056011 1.151894 -0.490882
-0.051767 1.151082 -0.492292
-0.053791 1.145666 -0.487565
-0.055501 1.140547 -0.483194
-0.054556 1.137382 -0.481427
-0.054318 1.133738 -0.478997
-0.054397 1.129902 -0.476288
-0.050550 1.128794 -0.477316
-0.044346 1.129249 -0.480539
-0.040631 1.127967 -0.481388
-0.038456 1.125638 -0.480789
-0.040305 1.120675 -0.476476
-0.036401 1.119482 -0.477481
-0.033405 1.117677 -0.477638
-0.034429 1.113324 -0.474140
-0.032375 1.110926 -0.473447
-0.030253 1.108564 -0.472812
-0.026384 1.107253 -0.473730
-0.024017 1.105010 -0.473296
-0.018477 1.104628 -0.475646
-0.013980 1.103579 -0.477046
-0.011920 1.101087 -0.476302
-0.010369 1.098300 -0.475116
-0.005323 1.097469 -0.476931
-0.005918 1.093473 -0.473902
-0.000769 1.092638 -0.475766
0.002059 1.090504 -0.475641
0.003759 1.087755 -0.474561
0.004959 1.084742 -0.473064
0.009077 1.083242 -0.473989
0.013582 1.081903 -0.475211
0.016837 1.079896 -0.475383
0.019252 1.077455 -0.474859
0.019112 1.073758 -0.472264
0.025654 1.073299 -0.475059
0.031191 1.072300 -0.477008
0.031724 1.068918 -0.474950
0.032082 1.065476 -0.472767
0.037795 1.064486 -0.474807
0.038881 1.061384 -0.473202
0.040919 1.058719 -0.472349
0.045575 1.057196 -0.473518
0.048970 1.055109 -0.473703
0.054863 1.054067 -0.475786
0.059389 1.052423 -0.476808
0.056722 1.047833 -0.472393
0.071221 1.050213 -0.480898
0.077886 1.049365 -0.483471
0.078812 1.046252 -0.481763
0.079242 1.042992 -0.479715
0.081678 1.040540 -0.479167
0.081700 1.037220 -0.476874
0.081326 1.033815 -0.474330
0.084794 1.031864 -0.474598
0.091550 1.031107 -0.477238
0.097107 1.029925 -0.479011
-0.539465 1.551450 -0.565011
-0.536242 1.555255 -0.569235
-0.532951 1.559836 -0.574042
-0.529322 1.558862 -0.574959
-0.525679 1.558929 -0.576630
-0.522064 1.561883 -0.580372
-0.518386 1.565734 -0.584785
-0.514584 1.568172 -0.588220
-0.510726 1.571820 -0.592551
-0.506752 1.572658 -0.594886
-0.502736 1.575846 -0.598939
-0.498646 1.575904 -0.600749
-0.494496 1.579735 -0.605316
-0.490401 1.572007 -0.601473
-0.486442 1.559531 -0.594125
-0.482459 1.552974 -0.591077
-0.478454 1.548962 -0.589883
-0.474432 1.546108 -0.589533
-0.470618 1.538300 -0.585500
-0.466693 1.534544 -0.584453
-0.462493 1.536675 -0.587792
-0.458201 1.539770 -0.591870
-0.454111 1.538846 -0.592946
-0.450149 1.536058 -0.592618
-0.446142 1.534159 -0.592953
-0.442035 1.533674 -0.594359
-0.438242 1.529489 -0.592947
-0.434254 1.527886 -0.593494
-0.430312 1.525930 -0.593766
-0.426330 1.524513 -0.594448
-0.422225 1.524308 -0.596064
-0.418336 1.522201 -0.596210
-0.414583 1.519114 -0.595590
-0.410895 1.515756 -0.594747
-0.406975 1.514395 -0.595454
-0.402951 1.513849 -0.596800
-0.399048 1.512469 -0.597490
-0.395111 1.511380 -0.598410
-0.391375 1.509039 -0.598338
-0.387596 1.507087 -0.598569
-0.384047 1.503865 -0.597782
-0.379951 1.503950 -0.599631
-0.376128 1.502464 -0.600226
-0.372394 1.500557 -0.600481
-0.368799 1.497989 -0.600198
-0.364842 1.497358 -0.601479
-0.361596 1.493234 -0.599922
-0.358309 1.489489 -0.598661
-0.354616 1.487776 -0.599050
-0.350638 1.487384 -0.600523
-0.347910 1.481496 -0.597473
-0.343949 1.481107 -0.598945
-0.340089 1.480267 -0.600049
-0.337069 1.476013 -0.598316
-0.333438 1.474323 -0.598709
-0.330461 1.470141 -0.597014
-0.326632 1.469296 -0.598109
-0.323108 1.467315 -0.598251
-0.319638 1.465170 -0.598252
-0.317081 1.459857 -0.595562
-0.313190 1.459297 -0.596899
-0.310421 1.454932 -0.594992
-0.307193 1.452201 -0.594470
-0.303883 1.449787 -0.594215
-0.300751 1.446849 -0.593504
-0.298102 1.442474 -0.591543
-0.295223 1.438912 -0.590273
-0.292032 1.436352 -0.589866
-0.288811 1.433920 -0.589568
-0.285536 1.431674 -0.589429
-0.282148 1.429768 -0.589588
-0.280103 1.424172 -0.586483
-0.275430 1.425826 -0.589790
-0.271650 1.424986 -0.590898
-0.268517 1.422432 -0.590480
-0.265808 1.418818 -0.589109
-0.262912 1.415739 -0.588209
-0.259097 1.414978 -0.589395
-0.255977 1.412493 -0.589026
-0.252584 1.410684 -0.589269
-0.248940 1.409463 -0.590050
-0.245919 1.406782 -0.589498
-0.243360 1.403074 -0.588000
-0.241237 1.398452 -0.585647
-0.238056 1.396246 -0.585513
-0.234150 1.395622 -0.586847
-0.230893 1.393575 -0.586864
-0.227515 1.391784 -0.587122
-0.223459 1.391392 -0.588694
-0.220632 1.388448 -0.587873
-0.218507 1.384125 -0.585741
-0.214607 1.383382 -0.586993
-0.211176 1.381687 -0.587347
-0.207894 1.379699 -0.587423
-0.205087 1.376811 -0.586637
-0.201992 1.374487 -0.586388
-0.197401 1.374917 -0.588802
-0.196065 1.369389 -0.585449
-0.192544 1.367856 -0.585965
-0.189583 1.365324 -0.585508
-0.185775 1.364274 -0.586503
-0.181962 1.363206 -0.587488
-0.181473 1.356506 -0.582908
-0.178483 1.354093 -0.582553
-0.175448 1.351762 -0.582276
-0.171784 1.350456 -0.583024
-0.167130 1.350708 -0.585344
-0.164774 1.347281 -0.583971
-0.161675 1.345044 -0.583794
-0.158261 1.343293 -0.584111
-0.155682 1.340271 -0.583132
-0.151949 1.338995 -0.583936
-0.149435 1.335902 -0.582878
-0.146490 1.333461 -0.582486
-0.142234 1.332910 -0.584051
-0.140118 1.329288 -0.582433
-0.137286 1.326704 -0.581887
-0.133759 1.325092 -0.582359
-0.130341 1.323319 -0.582665
-0.126470 1.322144 -0.583609
-0.124699 1.318157 -0.581572
-0.121446 1.316161 -0.581644
-0.117832 1.314627 -0.582214
-0.114612 1.312573 -0.582231
-0.110303 1.311891 -0.583732
-0.109582 1.306700 -0.580352
-0.106238 1.304813 -0.580546
-0.101001 1.305220 -0.583257
-0.098296 1.302523 -0.582578
-0.095646 1.299773 -0.581837
-0.092614 1.297483 -0.581602
-0.089515 1.295274 -0.581457
-0.085327 1.294309 -0.582704
-0.083132 1.291062 -0.581400
-0.080339 1.288507 -0.580868
-0.076705 1.286886 -0.581393
-0.073414 1.284877 -0.581483
-0.070044 1.282946 -0.581666
-0.066240 1.281469 -0.582375
-0.061057 1.281421 -0.584743
-0.058997 1.278077 -0.583314
-0.056818 1.274880 -0.582045
-0.054529 1.271814 -0.580921
-0.050791 1.270218 -0.581519
-0.047893 1.267771 -0.581122
-0.043848 1.266450 -0.582060
-0.040115 1.264801 -0.582621
-0.041134 1.258596 -0.577730
-0.050026 1.245049 -0.563949
-0.050111 1.239979 -0.560302
-0.048667 1.236383 -0.558416
-0.049047 1.231154 -0.554521
-0.046316 1.228793 -0.554116
-0.043745 1.226290 -0.553538
-0.045168 1.220278 -0.548603
-0.048072 1.213064 -0.542126
-0.043792 1.212132 -0.543464
-0.040707 1.210152 -0.543502
-0.038731 1.207233 -0.542357
-0.043045 1.199112 -0.534582
-0.070760 1.167824 -0.499439
-0.072427 1.162397 -0.494817
-0.070878 1.159585 -0.493555
-0.070274 1.156049 -0.491339
-0.067220 1.154432 -0.491632
-0.071281 1.147375 -0.484740
-0.067455 1.146371 -0.485832
-0.060851 1.147406 -0.489671
-0.058809 1.145004 -0.488941
-0.054406 1.144318 -0.490534
-0.052025 1.142140 -0.490124
-0.052296 1.138074 -0.487137
-0.055318 1.132121 -0.481524
-0.055514 1.128208 -0.478683
-0.051595 1.127145 -0.479791
-0.048553 1.125456 -0.480047
-0.042946 1.125458 -0.482706
-0.039406 1.124037 -0.483390
-0.042051 1.118564 -0.478304
-0.042383 1.114650 -0.475410
-0.035955 1.115059 -0.478751
-0.033457 1.112931 -0.478453
-0.035799 1.107797 -0.473757
-0.035269 1.104481 -0.471698
-0.033337 1.102028 -0.470910
-0.027368 1.101974 -0.473720
-0.023185 1.100803 -0.474903
-0.020666 1.098629 -0.474596
-0.018743 1.096101 -0.473760
-0.015863 1.094108 -0.473754
-0.012172 1.092547 -0.474440
-0.012673 1.088652 -0.471502
-0.010665 1.086147 -0.470731
-0.002786 1.086779 -0.474945
-0.001225 1.083984 -0.473763
0.001084 1.081579 -0.473209
0.005008 1.079994 -0.474000
0.007958 1.077883 -0.473961
0.011875 1.076237 -0.474709
0.011382 1.072390 -0.471820
0.016706 1.071397 -0.473697
0.021540 1.070121 -0.475143
0.026602 1.068912 -0.476746
0.028014 1.065966 -0.475398
0.027636 1.062210 -0.472630
0.024643 1.057310 -0.467817
0.031187 1.056717 -0.470557
0.037980 1.056178 -0.473453
0.041842 1.054320 -0.474030
0.043247 1.051405 -0.472696
0.045363 1.048808 -0.471920
0.049065 1.046876 -0.472363
0.056726 1.046545 -0.475811
0.057874 1.043563 -0.474296
0.064400 1.042729 -0.476844
0.068835 1.041057 -0.477805
0.073856 1.039608 -0.479196
0.074722 1.036597 -0.477508
0.079340 1.035020 -0.478606
0.080363 1.032143 -0.477075
0.083384 1.030033 -0.477026
0.085897 1.027776 -0.476625
0.090148 1.026164 -0.477496
-0.540503 1.545199 -0.565176
-0.537514 1.552722 -0.572062
-0.534171 1.555746 -0.575798
-0.530732 1.558735 -0.579542
-0.527085 1.558705 -0.581157
-0.523480 1.561762 -0.585006
-0.519804 1.565410 -0.589311
-0.515996 1.567372 -0.592430
-0.512132 1.570216 -0.596213
-0.508162 1.570747 -0.598341
-0.504147 1.572241 -0.601187
-0.500079 1.576819 -0.606310
-0.495934 1.578649 -0.609449
-0.491712 1.582682 -0.614230
-0.487460 1.583635 -0.616765
-0.483383 1.574183 -0.611598
-0.479658 1.554472 -0.598763
-0.475675 1.549045 -0.596501
-0.471647 1.545870 -0.595907
-0.467772 1.539599 -0.592978
-0.464061 1.531132 -0.588368
-0.460364 1.523925 -0.584676
-0.456347 1.523128 -0.585818
-0.451988 1.527439 -0.590848
-0.447872 1.527556 -0.592702
-0.443982 1.524642 -0.592241
-0.440207 1.520668 -0.590955
-0.436207 1.519615 -0.591906
-0.432187 1.518830 -0.593065
-0.428148 1.518250 -0.594384
-0.423963 1.519031 -0.596765
-0.420155 1.516351 -0.596451
-0.416480 1.512762 -0.595415
-0.412552 1.511485 -0.596185
-0.408732 1.509448 -0.596354
-0.404840 1.508069 -0.597038
-0.400700 1.508482 -0.599145
-0.396922 1.506398 -0.599270
-0.393090 1.504769 -0.599753
-0.389496 1.501738 -0.599109
-0.385930 1.498703 -0.598453
-0.382020 1.497830 -0.599533
-0.377889 1.498198 -0.601619
-0.374246 1.495852 -0.601509
-0.370918 1.491957 -0.600130
-0.367243 1.490012 -0.600334
-0.363485 1.488543 -0.600924
-0.360493 1.483440 -0.598522
-0.357329 1.479379 -0.596961
-0.353968 1.476378 -0.596263
-0.350142 1.475523 -0.597342
-0.346124 1.475485 -0.599107
-0.342582 1.473409 -0.599173
-0.339563 1.469257 -0.597494
-0.336207 1.466587 -0.597048
-0.333304 1.462238 -0.595178
-0.329654 1.460858 -0.595810
-0.326252 1.458567 -0.595669
-0.323073 1.455520 -0.594878
-0.319629 1.453485 -0.594947
-0.315959 1.452262 -0.595712
-0.312077 1.451745 -0.597089
-0.308657 1.449663 -0.597119
