ply
format ascii 1.0
comment ---
element vertex 1678
property float x
property float y
property float z
element face 0
property list uchar uint vertex_indices
end_header
0.468094 0.725054 -0.588000
0.475580 0.729224 -0.591281
0.483181 0.733582 -0.594677
0.485692 0.730581 -0.592314
0.484403 0.722278 -0.585792
-0.980987 1.337823 -1.079029
-0.962690 1.323559 -1.067978
-0.961468 1.333288 -1.075800
-0.953806 1.334235 -1.076631
-0.944170 1.332561 -1.075334
-0.836481 1.189174 -0.962128
-0.820004 1.176456 -0.952008
-0.801305 1.160369 -0.939180
-0.785242 1.148033 -0.929266
-0.767962 1.133753 -0.917775
-0.759740 1.133075 -0.916971
-0.758119 1.142650 -0.924204
-0.748602 1.140270 -0.921973
-0.740454 1.140090 -0.921436
-0.736880 1.147261 -0.926648
-0.729958 1.149297 -0.927781
-0.719204 1.145216 -0.924071
-0.712388 1.147574 -0.925396
-0.704530 1.148299 -0.925410
-0.695714 1.147462 -0.924175
-0.687564 1.147764 -0.923814
-0.680337 1.149682 -0.924702
-0.671876 1.149492 -0.923922
-0.663313 1.149110 -0.922980
-0.654751 1.148703 -0.922009
-0.648135 1.151801 -0.923771
-0.640812 1.153644 -0.924544
-0.632563 1.153767 -0.923970
-0.625711 1.156492 -0.925423
-0.619015 1.159535 -0.927123
-0.612159 1.162293 -0.928599
-0.604272 1.163029 -0.928502
-0.593426 1.157788 -0.923762
-0.585828 1.158920 -0.923987
-0.578615 1.160799 -0.924797
-0.571163 1.162153 -0.925206
-0.564942 1.166073 -0.927612
-0.558449 1.169436 -0.929593
-0.551280 1.171337 -0.930448
-0.543932 1.172807 -0.930979
-0.534630 1.169826 -0.928079
-0.527551 1.171747 -0.928981
-0.520677 1.174108 -0.930234
-0.512961 1.174464 -0.929949
-0.506935 1.178787 -0.932736
-0.501374 1.184288 -0.936440
-0.492945 1.182773 -0.934746
-0.485363 1.183242 -0.934595
-0.478144 1.184564 -0.935112
-0.471655 1.187733 -0.937063
-0.463510 1.186534 -0.935665
-0.456576 1.188462 -0.936683
-0.447111 1.183427 -0.932366
-0.439410 1.183043 -0.931635
-0.409757 1.140724 -0.898348
-0.402909 1.141762 -0.898758
-0.388324 1.140985 -0.897425
-0.381243 1.141107 -0.897166
-0.378890 1.156202 -0.908376
-0.375487 1.168417 -0.917384
-0.466778 1.525922 -1.190009
-0.449242 1.530070 -1.192387
-0.443655 1.614398 -1.255647
-0.425580 1.620132 -1.259312
-0.409310 1.593775 -1.238879
-0.406485 1.621811 -1.259931
-0.392641 1.646220 -1.277913
-0.370842 1.636282 -1.269763
-0.360221 1.632080 -1.266290
-0.344088 1.600664 -1.242112
-0.332839 1.640568 -1.271991
-0.316259 1.655952 -1.283233
-0.303822 1.697562 -1.314446
-0.295333 1.706623 -1.321129
-0.284169 1.699328 -1.315386
-0.272269 1.686547 -1.305482
-0.264701 1.702314 -1.317286
-0.256009 1.711303 -1.323942
-0.245794 1.709668 -1.322535
-0.235768 1.709279 -1.322081
-0.225693 1.708369 -1.321239
-0.216116 1.711563 -1.323523
-0.205369 1.704481 -1.318008
-0.195410 1.704029 -1.317537
-0.186230 1.711289 -1.322928
-0.178028 1.729827 -1.336886
-0.170262 1.755726 -1.356437
-0.157703 1.726734 -1.334326
-0.146956 1.717037 -1.326870
-0.137369 1.722168 -1.330675
-0.127514 1.723976 -1.331963
-0.117203 1.718323 -1.327596
-0.107271 1.718516 -1.327672
-0.097137 1.714399 -1.324483
-0.087218 1.714236 -1.324301
-0.077333 1.714897 -1.324749
-0.067679 1.723501 -1.331229
-0.057886 1.730379 -1.336406
-0.048083 1.740938 -1.344381
-0.037950 1.734726 -1.339638
-0.027830 1.719503 -1.328066
-0.017885 1.702793 -1.315371
-0.008022 1.709007 -1.320073
0.002092 1.731953 -1.337472
0.000720 0.771529 -0.608907
0.004762 0.757058 -0.597935
0.008782 0.746857 -0.590203
0.012943 0.743196 -0.587435
0.017086 0.740038 -0.585052
0.021116 0.735355 -0.581514
0.026568 0.756580 -0.597634
0.031116 0.759443 -0.599826
0.035281 0.756223 -0.597407
0.039534 0.754671 -0.596255
0.043808 0.753566 -0.595446
0.048212 0.754109 -0.595889
0.052720 0.755685 -0.597120
0.056916 0.753861 -0.595773
0.061114 0.752225 -0.594572
0.065610 0.753458 -0.595552
0.070241 0.755724 -0.597318
0.074816 0.757274 -0.598546
0.079012 0.755666 -0.597378
0.083559 0.756811 -0.598305
0.088457 0.760374 -0.601071
0.092831 0.759978 -0.600836
0.096996 0.758196 -0.599550
0.101174 0.756595 -0.598405
0.105484 0.755893 -0.597947
0.109792 0.755200 -0.597500
0.114501 0.756830 -0.598822
0.118977 0.757015 -0.599050
0.123896 0.759552 -0.601071
0.128360 0.759512 -0.601137
0.132496 0.757775 -0.599917
0.136701 0.756445 -0.599011
0.141267 0.756880 -0.599452
0.145535 0.755866 -0.598795
0.150840 0.759564 -0.601729
0.155192 0.758824 -0.601290
0.159540 0.758066 -0.600843
0.163230 0.754551 -0.598302
0.167495 0.753515 -0.597653
0.172015 0.753503 -0.597789
0.176430 0.753041 -0.597588
0.179803 0.748592 -0.594353
0.184070 0.747622 -0.593775
0.188409 0.746914 -0.593402
0.191699 0.742459 -0.590176
0.195973 0.741572 -0.589678
0.199676 0.738729 -0.587693
0.204357 0.739220 -0.588258
0.208730 0.738635 -0.588009
0.213466 0.739190 -0.588638
0.218036 0.739151 -0.588818
0.222524 0.738807 -0.588773
0.226725 0.737561 -0.588045
0.230660 0.735517 -0.586712
0.235513 0.736172 -0.587452
0.240730 0.737787 -0.588936
0.245904 0.739173 -0.590253
0.250945 0.740087 -0.591216
0.254023 0.735595 -0.588040
0.258320 0.734447 -0.587435
0.263128 0.734622 -0.587853
0.268447 0.736049 -0.589241
0.274172 0.738402 -0.591351
0.277723 0.735206 -0.589201
0.281927 0.733656 -0.588323
0.287407 0.735177 -0.589816
0.292549 0.735789 -0.590618
0.296671 0.733943 -0.589533
0.300410 0.731218 -0.587776
0.304592 0.729524 -0.586819
0.309480 0.729401 -0.587080
0.313830 0.728047 -0.586396
0.318050 0.726398 -0.585489
0.323146 0.726614 -0.586030
0.327507 0.725231 -0.585338
0.332056 0.724228 -0.584943
0.336626 0.723251 -0.584572
0.341352 0.722572 -0.584435
0.345401 0.720531 -0.583241
0.350002 0.719586 -0.582900
0.356654 0.722593 -0.585632
0.361261 0.721593 -0.585249
0.365429 0.719772 -0.584223
0.371653 0.721785 -0.586183
0.376846 0.721843 -0.586615
0.381335 0.720616 -0.586039
0.384884 0.717738 -0.584167
0.391919 0.721066 -0.587133
0.396438 0.719945 -0.586615
0.400860 0.718696 -0.585983
0.406316 0.719247 -0.586747
0.410174 0.717134 -0.585410
0.414350 0.715627 -0.584528
0.419598 0.715948 -0.585062
0.425754 0.717773 -0.586756
0.430815 0.717858 -0.587064
0.435796 0.717874 -0.587295
0.439960 0.716674 -0.586546
0.443786 0.715047 -0.585434
0.448588 0.715023 -0.585556
0.454225 0.716348 -0.586709
0.459308 0.716898 -0.587225
0.464765 0.718086 -0.588212
0.468570 0.716912 -0.587311
0.480342 0.727482 -0.595613
0.481934 0.723240 -0.592237
0.489235 0.727358 -0.595403
-0.959298 1.304592 -1.063044
-0.964529 1.322799 -1.077784
-0.963021 1.332047 -1.085327
-0.955672 1.333377 -1.086500
-0.946665 1.332553 -1.085892
-0.836586 1.186066 -0.969099
-0.819371 1.172243 -0.958016
-0.798349 1.152708 -0.942330
-0.779272 1.135821 -0.928709
-0.765321 1.126422 -0.921011
-0.755399 1.123067 -0.918084
-0.750274 1.127109 -0.921005
-0.742682 1.127531 -0.920999
-0.735150 1.128158 -0.921116
-0.728864 1.130863 -0.922846
-0.720635 1.130599 -0.922180
-0.712776 1.131002 -0.922010
-0.705828 1.132965 -0.923049
-0.699054 1.135315 -0.924365
-0.691244 1.136020 -0.924351
-0.684323 1.138282 -0.925547
-0.675797 1.137855 -0.924594
-0.667223 1.137341 -0.923556
-0.659188 1.137761 -0.923244
-0.651409 1.138641 -0.923283
-0.643144 1.138640 -0.922619
-0.636594 1.141760 -0.924410
-0.628938 1.142868 -0.924608
-0.621923 1.145173 -0.925745
-0.614995 1.147656 -0.927019
-0.608188 1.150386 -0.928487
-0.599908 1.150234 -0.927689
-0.590632 1.148023 -0.925279
-0.582033 1.147045 -0.923845
-0.574793 1.148753 -0.924525
-0.567754 1.150852 -0.925518
-0.561816 1.155256 -0.928322
-0.554893 1.157595 -0.929516
-0.547453 1.158792 -0.929824
-0.539781 1.159423 -0.929698
-0.531810 1.159311 -0.929004
-0.524550 1.160723 -0.929511
-0.517501 1.162577 -0.930373
-0.510256 1.163935 -0.930860
-0.503255 1.165826 -0.931772
-0.497476 1.170650 -0.934980
-0.490702 1.173083 -0.936335
-0.482945 1.173037 -0.935773
-0.476565 1.176405 -0.937879
-0.468362 1.175064 -0.936336
-0.455716 1.161862 -0.925599
-0.442078 1.145442 -0.912389
-0.427153 1.124835 -0.895957
-0.419547 1.123758 -0.894692
-0.409843 1.137101 -0.904202
-0.403129 1.138551 -0.904925
-0.378948 1.152539 -0.914252
-0.377836 1.172145 -0.929050
-0.464353 1.512724 -1.191270
-0.457463 1.521107 -1.197324
-0.452044 1.568740 -1.233261
-0.440881 1.598753 -1.255624
-0.412638 1.602116 -1.257138
-0.408812 1.626276 -1.275401
-0.403749 1.646328 -1.290504
-0.393240 1.643623 -1.288102
-0.380975 1.632828 -1.279491
-0.354094 1.598023 -1.252155
-0.338910 1.617258 -1.266411
-0.338047 1.662353 -1.300807
-0.317360 1.656896 -1.296130
-0.308438 1.661840 -1.299699
-0.301638 1.679522 -1.313054
-0.292468 1.683958 -1.316247
-0.282942 1.686392 -1.317911
-0.274132 1.693638 -1.323277
-0.264209 1.693787 -1.323202
-0.255182 1.700243 -1.327976
-0.245401 1.701585 -1.328834
-0.234879 1.697231 -1.325330
-0.225233 1.699501 -1.326915
-0.215212 1.698719 -1.326167
-0.204347 1.690211 -1.319503
-0.193911 1.684738 -1.315174
-0.184530 1.689147 -1.318429
-0.176020 1.703299 -1.329157
-0.167294 1.716806 -1.339397
-0.156702 1.709457 -1.333658
-0.146130 1.701159 -1.327200
-0.136799 1.709026 -1.333136
-0.127035 1.711532 -1.334970
-0.117271 1.714464 -1.337136
-0.107171 1.711626 -1.334888
-0.097027 1.707114 -1.331365
-0.086907 1.701802 -1.327234
-0.077041 1.701828 -1.327200
-0.067012 1.696306 -1.322922
-0.057434 1.706749 -1.330878
-0.047758 1.718423 -1.339783
-0.037781 1.716669 -1.338409
-0.027769 1.706482 -1.330582
-0.017875 1.695422 -1.322093
-0.008039 1.698776 -1.324650
0.001843 1.702831 -1.327749
0.011879 1.713303 -1.335768
0.021573 1.702975 -1.327864
0.004707 0.752719 -0.600101
0.008586 0.738747 -0.589407
0.012702 0.734805 -0.586398
0.016793 0.731308 -0.583733
0.021150 0.733768 -0.585632
0.025292 0.731930 -0.584243
0.030405 0.745831 -0.594912
0.034833 0.747398 -0.596136
0.039214 0.748070 -0.596679
0.043503 0.747468 -0.596247
0.047793 0.746938 -0.595875
0.052142 0.747092 -0.596028
0.056390 0.746169 -0.595361
0.060824 0.747114 -0.596127
0.065025 0.745808 -0.595172
0.069381 0.745949 -0.595328
0.073633 0.745182 -0.594793
0.078278 0.747554 -0.596667
0.082777 0.748597 -0.597526
0.087793 0.753233 -0.601144
0.092127 0.752759 -0.600847
0.096397 0.751862 -0.600230
0.100570 0.750382 -0.599170
0.104624 0.748242 -0.597606
0.108959 0.747887 -0.597416
0.113325 0.747704 -0.597362
0.118248 0.750592 -0.599669
0.122792 0.751219 -0.600246
0.127269 0.751427 -0.600505
0.131191 0.748783 -0.598580
0.135288 0.747112 -0.597405
0.140012 0.748487 -0.598575
0.144570 0.748982 -0.599074
0.149060 0.749102 -0.599289
0.154179 0.751939 -0.601599
0.158467 0.751035 -0.601039
0.162413 0.748705 -0.599387
0.166350 0.746415 -0.597770
0.170697 0.745819 -0.597462
0.174077 0.741457 -0.594261
0.178757 0.742177 -0.594977
0.182982 0.741139 -0.594344
0.186844 0.738784 -0.592703
0.190871 0.737069 -0.591561
0.194074 0.732525 -0.588243
0.199160 0.734518 -0.589969
0.203292 0.733208 -0.589157
0.207382 0.731766 -0.588248
0.211845 0.731523 -0.588270
0.216269 0.731120 -0.588176
0.218805 0.724879 -0.583579
0.225258 0.730629 -0.588253
0.229310 0.729012 -0.587241
0.233525 0.727877 -0.586608
0.239380 0.731400 -0.589587
0.244175 0.731779 -0.590142
0.248023 0.729489 -0.588638
0.252321 0.728437 -0.588099
0.256652 0.727453 -0.587619
0.261528 0.727872 -0.588235
0.266416 0.728249 -0.588827
0.270109 0.725544 -0.587034
0.275630 0.727407 -0.588796
0.279857 0.725997 -0.588022
0.284546 0.725682 -0.588107
0.289028 0.724834 -0.587783
0.294295 0.725785 -0.588868
0.297213 0.721267 -0.585698
0.303091 0.723513 -0.587807
0.308071 0.723639 -0.588270
0.311991 0.721392 -0.586886
0.315704 0.718712 -0.585167
0.319565 0.716376 -0.583721
0.324774 0.716881 -0.584501
0.330068 0.717502 -0.585375
0.334716 0.716747 -0.585177
0.339334 0.715910 -0.584917
0.343709 0.714579 -0.584269
0.348181 0.713438 -0.583772
0.353762 0.714429 -0.584949
0.358431 0.713634 -0.584722
0.363432 0.713458 -0.584980
0.368388 0.713184 -0.585157
0.371820 0.710124 -0.583135
0.378962 0.713808 -0.586421
0.383173 0.712189 -0.585519
0.386261 0.708642 -0.583085
0.392844 0.711242 -0.585493
0.397627 0.710715 -0.585420
0.402183 0.709837 -0.585054
0.407616 0.710471 -0.585868
0.411835 0.709121 -0.585095
0.415963 0.707693 -0.584241
0.422092 0.709570 -0.585983
0.426744 0.709104 -0.585847
0.431984 0.709634 -0.586478
0.436082 0.708438 -0.585713
0.440140 0.707276 -0.584948
0.445382 0.708023 -0.585670
0.450583 0.708774 -0.586367
0.454516 0.707699 -0.585584
0.458585 0.706935 -0.585018
0.462762 0.706438 -0.584632
0.471259 0.712333 -0.589292
0.476166 0.713045 -0.589803
0.479613 0.711758 -0.588695
-0.950286 1.289006 -1.060774
-0.965145 1.320362 -1.086268
-0.961775 1.326910 -1.091740
-0.955958 1.330308 -1.094617
-0.948706 1.331913 -1.095987
-0.814390 1.161745 -0.958940
-0.790652 1.138144 -0.939845
-0.776738 1.128773 -0.932158
-0.762565 1.118967 -0.924076
-0.753571 1.116916 -0.922189
-0.746218 1.117452 -0.922337
-0.738163 1.117030 -0.921671
-0.730507 1.117325 -0.921540
-0.723847 1.119294 -0.922713
-0.716263 1.119918 -0.922769
-0.708348 1.120095 -0.922431
-0.700923 1.121142 -0.922759
-0.694963 1.124689 -0.925061
-0.687955 1.126610 -0.926031
-0.680404 1.127691 -0.926303
-0.671579 1.126636 -0.924845
-0.664008 1.127743 -0.925100
-0.655709 1.127598 -0.924339
-0.647852 1.128230 -0.924186
-0.640633 1.130014 -0.924941
-0.633074 1.131197 -0.925208
-0.625545 1.132436 -0.925513
-0.617679 1.133034 -0.925303
-0.611187 1.136219 -0.927150
-0.604003 1.138105 -0.927960
-0.594717 1.135862 -0.925493
-0.585162 1.132958 -0.922507
-0.578699 1.136134 -0.924351
-0.571855 1.138550 -0.925595
-0.564896 1.140723 -0.926652
-0.557761 1.142508 -0.927408
-0.551542 1.146221 -0.929695
-0.544182 1.147487 -0.930055
-0.536630 1.148280 -0.930051
-0.529284 1.149469 -0.930369
-0.522091 1.150953 -0.930931
-0.514613 1.151734 -0.930949
-0.506637 1.151281 -0.930008
-0.499886 1.153636 -0.931288
-0.494316 1.158833 -0.934815
-0.487705 1.161548 -0.936398
-0.457924 1.124876 -0.906549
-0.445995 1.113119 -0.896830
-0.439566 1.115330 -0.898085
-0.433515 1.118539 -0.900133
-0.427236 1.121156 -0.901728
-0.427149 1.140936 -0.916769
-0.547128 1.556164 -1.240088
-0.542063 1.570498 -1.250738
-0.534406 1.577394 -1.255586
-0.387530 1.175788 -0.941144
-0.378931 1.171745 -0.937623
-0.456189 1.578430 -1.252618
-0.443023 1.565665 -1.242275
-0.409825 1.625217 -1.286734
-0.383219 1.637625 -1.295383
-0.364379 1.641398 -1.297707
-0.352644 1.632093 -1.290199
-0.343813 1.636634 -1.293449
-0.329689 1.665095 -1.315003
-0.318964 1.660514 -1.311203
-0.309958 1.665278 -1.314658
-0.299962 1.664491 -1.313819
-0.290498 1.666786 -1.315378
-0.281998 1.675246 -1.321723
-0.273046 1.681324 -1.326229
-0.264174 1.688354 -1.331480
-0.254171 1.687874 -1.330922
-0.243728 1.684021 -1.327760
-0.233890 1.684415 -1.327895
-0.224569 1.688957 -1.331251
-0.215082 1.692472 -1.333818
-0.203562 1.678073 -1.322526
-0.193207 1.673015 -1.318473
-0.183525 1.674017 -1.319119
-0.175059 1.687980 -1.329802
-0.165231 1.688305 -1.329937
-0.155867 1.694220 -1.334403
-0.145832 1.692212 -1.332747
-0.136129 1.694485 -1.334410
-0.126339 1.695754 -1.335303
-0.116681 1.699427 -1.338062
-0.106192 1.688227 -1.329323
-0.095312 1.665951 -1.312026
-0.085998 1.675000 -1.318962
-0.076599 1.684549 -1.326291
-0.067022 1.691772 -1.331827
-0.057121 1.688981 -1.329625
-0.047625 1.706375 -1.343038
-0.037609 1.698344 -1.336796
-0.027738 1.697812 -1.336359
-0.017869 1.692429 -1.332179
-0.008034 1.693200 -1.332762
0.001822 1.695018 -1.334161
0.011510 1.685402 -1.326727
0.021247 1.682928 -1.324820
0.008363 0.729885 -0.587949
0.012476 0.726833 -0.585600
0.016855 0.730389 -0.588363
0.020953 0.727639 -0.586253
0.025098 0.726259 -0.585205
0.029443 0.728275 -0.586786
0.034378 0.738480 -0.594703
0.038900 0.741545 -0.597102
0.043192 0.741293 -0.596938
0.047394 0.740012 -0.595982
0.051702 0.740013 -0.596021
0.056110 0.741005 -0.596830
0.060280 0.739566 -0.595760
0.064610 0.739711 -0.595920
0.068909 0.739543 -0.595841
0.072814 0.736132 -0.593256
0.077396 0.738305 -0.594995
0.082179 0.741767 -0.597737
0.086608 0.742367 -0.598266
0.090982 0.742507 -0.598444
0.095626 0.744394 -0.599978
0.099396 0.740534 -0.597066
0.103887 0.741356 -0.597784
0.108105 0.740462 -0.597177
0.112807 0.742366 -0.598742
0.116944 0.740985 -0.597766
0.121158 0.740070 -0.597155
0.126280 0.743895 -0.600223
0.130101 0.740893 -0.598004
0.134818 0.742414 -0.599296
0.139641 0.744316 -0.600889
0.144145 0.744601 -0.601233
0.148417 0.743785 -0.600728
0.152469 0.742009 -0.599484
0.156377 0.739671 -0.597807
0.161155 0.741028 -0.599004
0.165599 0.740920 -0.599071
0.167719 0.731576 -0.591966
0.172667 0.733562 -0.593669
0.176810 0.732369 -0.592908
0.181163 0.731962 -0.592764
0.184994 0.729643 -0.591137
0.189303 0.729069 -0.590875
0.192898 0.726004 -0.588680
0.196983 0.724676 -0.587842
0.201498 0.724783 -0.588128
0.205892 0.724445 -0.588074
0.210133 0.723585 -0.587619
0.214158 0.722032 -0.586631
0.218072 0.720150 -0.585393
0.222471 0.719744 -0.585313
0.227552 0.721315 -0.586783
0.232715 0.723008 -0.588358
0.236721 0.721304 -0.587286
0.241832 0.722690 -0.588637
0.246673 0.723232 -0.589338
0.250744 0.721628 -0.588366
0.255334 0.721398 -0.588477
0.259749 0.720666 -0.588202
0.264280 0.720199 -0.588143
0.267486 0.716361 -0.585446
0.272144 0.716184 -0.585628
0.278840 0.720915 -0.589671
0.283148 0.719723 -0.589072
0.287550 0.718736 -0.588641
0.291313 0.716241 -0.587031
0.295768 0.715350 -0.586688
0.300508 0.715075 -0.586835
0.306026 0.716476 -0.588311
0.309698 0.713760 -0.586546
0.314089 0.712618 -0.586027
0.318005 0.710455 -0.584706
0.321777 0.708009 -0.583163
0.327469 0.709537 -0.584766
0.332442 0.709519 -0.585150
0.336682 0.707998 -0.584347
0.341717 0.708051 -0.584791
0.346282 0.707154 -0.584482
0.350232 0.705074 -0.583234
0.354496 0.703617 -0.582477
0.361301 0.706915 -0.585496
0.364467 0.703414 -0.583106
0.369629 0.703615 -0.583655
0.374405 0.703113 -0.583637
0.378935 0.702186 -0.583272
0.383058 0.700576 -0.582351
0.390590 0.704898 -0.586153
0.394529 0.703006 -0.584982
0.399274 0.702540 -0.584935
0.404633 0.703136 -0.585719
0.409272 0.702569 -0.585557
0.412227 0.699320 -0.583226
0.417864 0.700504 -0.584422
0.422871 0.700715 -0.584815
0.427368 0.700181 -0.584588
0.432164 0.700189 -0.584768
0.435857 0.698573 -0.583618
0.440953 0.699203 -0.584242
0.446937 0.701243 -0.585966
0.451074 0.700570 -0.585484
0.454553 0.699029 -0.584275
0.460540 0.701281 -0.586078
0.465448 0.702025 -0.586638
0.471487 0.704479 -0.588538
0.478672 0.708625 -0.591763
-0.983422 1.331433 -1.105436
-0.967493 1.320359 -1.096731
-0.960643 1.321979 -1.098281
-0.957650 1.329256 -1.104368
-0.953044 1.334561 -1.108790
-0.801949 1.140513 -0.951007
-0.786901 1.129442 -0.941934
-0.771241 1.117399 -0.932021
-0.759529 1.111142 -0.926764
-0.749302 1.107128 -0.923283
-0.742671 1.108630 -0.924239
-0.733742 1.106744 -0.922396
-0.725544 1.106059 -0.921487
-0.719274 1.108492 -0.923068
-0.712105 1.109635 -0.923562
-0.704454 1.110110 -0.923477
-0.697268 1.111417 -0.924034
-0.691834 1.115701 -0.926969
-0.684482 1.116936 -0.927405
-0.676874 1.117806 -0.927521
-0.668306 1.117082 -0.926324
-0.659771 1.116412 -0.925155
-0.651913 1.116917 -0.924917
-0.645298 1.119640 -0.926454
-0.637967 1.121135 -0.926987
-0.628895 1.119470 -0.924966
-0.619458 1.117059 -0.922341
-0.612091 1.118422 -0.922749
-0.606550 1.123248 -0.925935
-0.598914 1.124124 -0.925944
-0.590233 1.122928 -0.924292
-0.582045 1.122613 -0.923351
-0.575450 1.125422 -0.924916
-0.569356 1.129264 -0.927311
-0.561787 1.130094 -0.927299
-0.554738 1.131961 -0.928124
-0.547745 1.133925 -0.929032
-0.540956 1.136303 -0.930279
-0.532876 1.135839 -0.929266
-0.526460 1.138978 -0.931137
-0.520047 1.142133 -0.933028
-0.512027 1.141603 -0.931996
-0.504029 1.141019 -0.930934
-0.485290 1.114846 -0.909547
-0.472978 1.103222 -0.899756
-0.464452 1.100404 -0.896978
-0.450984 1.103288 -0.898224
-0.445224 1.107177 -0.900802
-0.446966 1.130770 -0.918994
-0.570920 1.533975 -1.236348
-0.572856 1.567231 -1.262016
-0.564193 1.571242 -1.264576
-0.556369 1.577734 -1.269108
-0.548965 1.585600 -1.274737
-0.535321 1.574749 -1.265615
-0.390796 1.182075 -0.955094
-0.380583 1.173081 -0.947626
-0.372335 1.170082 -0.944896
-0.451828 1.592628 -1.275332
-0.431404 1.589221 -1.271844
-0.425390 1.603679 -1.282812
-0.420681 1.623977 -1.298370
-0.401138 1.624714 -1.298227
-0.385437 1.642203 -1.311268
-0.367016 1.648518 -1.315586
-0.357714 1.651375 -1.317524
-0.348179 1.653148 -1.318624
-0.336718 1.645068 -1.312018
-0.327580 1.648670 -1.314572
-0.319510 1.658264 -1.321826
-0.310457 1.662862 -1.325177
-0.299521 1.656692 -1.320110
-0.289485 1.655449 -1.318910
-0.280664 1.661648 -1.323541
-0.271337 1.664956 -1.325920
-0.262262 1.670151 -1.329781
-0.252879 1.673527 -1.332229
-0.242576 1.670333 -1.329548
-0.233140 1.673450 -1.331808
-0.224659 1.684501 -1.340280
-0.214330 1.680909 -1.337312
-0.203004 1.667969 -1.327048
-0.193278 1.668582 -1.327384
-0.184266 1.676310 -1.333288
-0.175063 1.682906 -1.338312
-0.164772 1.678007 -1.334364
-0.155160 1.680562 -1.336247
-0.145526 1.683136 -1.338151
-0.135602 1.681975 -1.337145
-0.125462 1.677203 -1.333327
-0.115488 1.674235 -1.330924
-0.105206 1.664762 -1.323449
-0.094921 1.652818 -1.314053
-0.085765 1.664488 -1.323100
-0.076869 1.687153 -1.340737
-0.066956 1.684675 -1.338752
-0.057165 1.685990 -1.339733
-0.047247 1.681051 -1.335839
-0.037420 1.678738 -1.334002
-0.027646 1.680100 -1.335039
-0.017858 1.683391 -1.337590
-0.008063 1.680492 -1.335314
0.001630 1.671248 -1.328093
0.011362 1.670827 -1.327764
0.021170 1.673984 -1.330236
0.030843 1.671020 -1.327935
0.040487 1.668201 -1.325755
0.016818 0.727277 -0.591306
0.020948 0.725251 -0.589742
0.024949 0.721395 -0.586751
0.029061 0.719964 -0.585658
0.033630 0.725362 -0.589898
0.038156 0.729321 -0.593019
0.042484 0.730222 -0.593755
0.046848 0.731405 -0.594715
0.051148 0.731709 -0.594992
0.055531 0.732804 -0.595890
0.059343 0.728269 -0.592393
0.063849 0.730483 -0.594172
0.068023 0.729594 -0.593531
0.072342 0.729941 -0.593858
0.076669 0.730291 -0.594191
0.081157 0.731792 -0.595428
0.085556 0.732488 -0.596040
0.089937 0.732980 -0.596496
0.094611 0.735334 -0.598412
0.098881 0.734908 -0.598159
0.103075 0.734018 -0.597548
0.107261 0.733109 -0.596925
0.111471 0.732366 -0.596436
0.114804 0.726797 -0.592177
0.119448 0.728552 -0.593651
0.124680 0.733207 -0.597401
0.129315 0.734548 -0.598562
0.133516 0.733656 -0.597980
0.139512 0.741284 -0.604075
0.143595 0.739637 -0.602913
0.147490 0.737197 -0.601134
0.150748 0.732062 -0.597248
0.155200 0.732234 -0.597526
0.159142 0.730237 -0.596108
0.162580 0.726259 -0.593142
0.166920 0.725991 -0.593091
0.171384 0.726171 -0.593397
0.175759 0.725961 -0.593404
0.179456 0.723221 -0.591429
0.183681 0.722460 -0.591014
0.187781 0.721244 -0.590249
0.191646 0.719226 -0.588858
0.196127 0.719320 -0.589135
0.200632 0.719444 -0.589441
0.205019 0.719135 -0.589413
0.209060 0.717688 -0.588498
0.213102 0.716252 -0.587596
0.217457 0.715775 -0.587457
0.221638 0.714745 -0.586890
0.225935 0.714044 -0.586588
0.230566 0.714278 -0.587032
0.235131 0.714266 -0.587289
0.240209 0.715626 -0.588637
0.244775 0.715484 -0.588808
0.248085 0.711928 -0.586288
0.253469 0.713905 -0.588149
0.258398 0.714583 -0.588991
0.261815 0.711330 -0.586730
0.265888 0.709774 -0.585818
0.270284 0.709009 -0.585540
0.274580 0.707972 -0.585053
0.278631 0.706332 -0.584094
0.283754 0.707203 -0.585135
0.288672 0.707520 -0.585744
0.293303 0.707121 -0.585791
0.297910 0.706631 -0.585772
0.302190 0.705381 -0.585154
0.308098 0.707655 -0.587349
0.310895 0.703155 -0.584150
0.316689 0.705061 -0.586063
0.321090 0.703970 -0.585590
0.324986 0.701833 -0.584284
0.329844 0.701660 -0.584549
0.334181 0.700416 -0.583959
0.338880 0.699882 -0.583938
0.342951 0.698117 -0.582930
0.347923 0.698090 -0.583313
0.352913 0.698076 -0.583705
0.357529 0.697347 -0.583520
0.362716 0.697669 -0.584174
0.367247 0.696786 -0.583854
0.371497 0.695420 -0.583137
0.375345 0.693380 -0.581867
0.381699 0.695760 -0.584145
0.386057 0.694662 -0.583610
0.390621 0.693961 -0.583380
0.395334 0.693551 -0.583368
0.401536 0.695650 -0.585366
0.406392 0.695533 -0.585555
0.411470 0.695823 -0.586052
0.415617 0.694666 -0.585357
0.420350 0.694519 -0.585454
0.424545 0.693594 -0.584896
0.428783 0.692825 -0.584436
0.433314 0.692594 -0.584384
0.438798 0.693894 -0.585543
0.442851 0.693099 -0.584974
0.447781 0.693710 -0.585515
0.451678 0.692878 -0.584853
0.457173 0.694489 -0.586140
0.461805 0.694917 -0.586437
0.466321 0.695269 -0.586638
0.469142 0.693303 -0.584931
-0.983993 1.329041 -1.114030
-0.972124 1.323534 -1.109840
-0.961756 1.320223 -1.107388
-0.963572 1.334176 -1.119048
-0.955469 1.334500 -1.119453
-0.801193 1.136290 -0.956741
-0.782483 1.119829 -0.943176
-0.768209 1.109729 -0.934783
-0.753443 1.098836 -0.925690
-0.744229 1.096197 -0.923326
-0.736452 1.095809 -0.922762
-0.729195 1.096327 -0.922896
-0.721926 1.096950 -0.923069
-0.715158 1.098470 -0.923937
-0.707767 1.099128 -0.924057
-0.700060 1.099377 -0.923803
-0.693243 1.101145 -0.924759
-0.687478 1.104744 -0.927179
-0.680921 1.107165 -0.928603
-0.670674 1.103476 -0.925006
-0.662405 1.103095 -0.924091
-0.655226 1.104604 -0.924698
-0.648493 1.106940 -0.925960
-0.642049 1.109850 -0.927672
-0.633543 1.109131 -0.926414
-0.623032 1.104733 -0.922154
-0.615206 1.105134 -0.921793
-0.607837 1.106367 -0.922103
-0.601109 1.108806 -0.923387
-0.596237 1.114826 -0.927571
-0.587609 1.113657 -0.925922
-0.580615 1.115621 -0.926814
-0.573379 1.117094 -0.927311
-0.566154 1.118565 -0.927809
-0.558448 1.119016 -0.927488
-0.551643 1.121288 -0.928643
-0.545366 1.124671 -0.930701
-0.535167 1.119630 -0.925974
-0.529030 1.123230 -0.928223
-0.522671 1.126363 -0.930103
-0.499343 1.091256 -0.901234
-0.490205 1.087447 -0.897571
-0.481998 1.085594 -0.895496
-0.475644 1.087976 -0.896834
-0.469821 1.091622 -0.899196
-0.465210 1.098259 -0.903964
-0.594325 1.511434 -1.232311
-0.594443 1.538093 -1.252942
-0.590791 1.555382 -1.266083
-0.583177 1.562268 -1.270921
-0.574109 1.565212 -1.272624
-0.565446 1.569298 -1.275254
-0.558412 1.578150 -1.281698
-0.550415 1.584366 -1.286052
-0.540861 1.586004 -1.286773
-0.524417 1.566380 -1.270581
-0.397563 1.199245 -0.977876
-0.382020 1.173659 -0.957120
-0.375708 1.177109 -0.959480
-0.472433 1.556877 -1.260470
-0.468465 1.611571 -1.302981
-0.457688 1.608612 -1.300184
-0.444562 1.596662 -1.290270
-0.427404 1.606215 -1.297025
-0.421721 1.622764 -1.309751
-0.411115 1.619873 -1.307078
-0.400966 1.618656 -1.305747
-0.390147 1.614388 -1.302012
-0.383734 1.629305 -1.313480
-0.374554 1.632363 -1.315568
-0.366481 1.640680 -1.321829
-0.357392 1.644491 -1.324533
-0.348328 1.648568 -1.327459
-0.337522 1.643896 -1.323475
-0.326750 1.639024 -1.319346
-0.318828 1.649258 -1.327169
-0.309387 1.651553 -1.328726
-0.299845 1.653330 -1.329884
-0.290421 1.655858 -1.331643
-0.281515 1.661737 -1.336060
-0.271058 1.657908 -1.332818
-0.261651 1.660783 -1.334878
-0.251235 1.656709 -1.331463
-0.242060 1.661329 -1.334919
-0.232863 1.666112 -1.338513
-0.223175 1.667329 -1.339299
-0.212336 1.658848 -1.332442
-0.202986 1.662656 -1.335290
-0.193194 1.662648 -1.335136
-0.184065 1.669164 -1.340135
-0.175885 1.686419 -1.353611
-0.165073 1.676270 -1.345481
-0.153697 1.657794 -1.330794
-0.144685 1.667102 -1.338024
-0.135335 1.673116 -1.342663
-0.125090 1.666443 -1.337307
-0.114715 1.656188 -1.329135
-0.104854 1.653193 -1.326694
-0.095333 1.656514 -1.329239
-0.086135 1.668380 -1.338525
-0.076153 1.662279 -1.333656
-0.066590 1.667627 -1.337819
-0.056740 1.663606 -1.334604
-0.046825 1.653426 -1.326542
-0.037127 1.650922 -1.324536
-0.027536 1.659871 -1.331562
-0.017839 1.665568 -1.336033
-0.008137 1.658889 -1.330757
0.001477 1.651282 -1.324758
0.011288 1.660756 -1.332224
0.021168 1.668389 -1.338247
0.030862 1.666257 -1.336581
0.040172 1.653614 -1.326640
0.050124 1.660594 -1.332169
0.020741 0.718953 -0.590152
0.024796 0.716443 -0.588195
0.028844 0.714267 -0.586504
0.032840 0.711680 -0.584493
0.036731 0.708081 -0.581687
0.042092 0.723076 -0.593541
0.046611 0.726360 -0.596167
0.050983 0.727614 -0.597197
0.054671 0.721774 -0.592636
0.058884 0.721574 -0.592526
0.063220 0.722478 -0.593291
0.067627 0.723869 -0.594442
0.071946 0.724379 -0.594904
0.076223 0.724492 -0.595055
0.080502 0.724570 -0.595183
0.084773 0.724556 -0.595242
0.088879 0.723383 -0.594391
0.093534 0.725886 -0.596445
0.098306 0.728901 -0.598908
0.102530 0.728326 -0.598541
0.106140 0.724141 -0.595329
0.110281 0.723225 -0.594701
0.114685 0.723779 -0.595239
0.119259 0.725174 -0.596446
0.122919 0.721723 -0.593830
0.128306 0.727091 -0.598186
0.132445 0.726041 -0.597477
0.137760 0.730572 -0.601185
0.141189 0.726149 -0.597819
0.145104 0.724097 -0.596332
0.149723 0.725173 -0.597325
0.154172 0.725439 -0.597682
0.157924 0.722767 -0.595720
0.161695 0.720258 -0.593892
0.166178 0.720632 -0.594352
0.170354 0.719762 -0.593834
0.173820 0.716229 -0.591210
0.177917 0.715120 -0.590513
0.182530 0.715868 -0.591295
0.186467 0.714167 -0.590140
0.190521 0.712893 -0.589331
0.195287 0.714020 -0.590433
0.199907 0.714570 -0.591085
0.203532 0.711842 -0.589141
0.206969 0.708578 -0.586776
0.211935 0.710131 -0.588247
0.215051 0.705950 -0.585164
0.219063 0.704552 -0.584301
0.223875 0.705492 -0.585306
0.228017 0.704423 -0.584719
0.232105 0.703191 -0.584010
0.237108 0.704480 -0.585317
0.241061 0.702817 -0.584279
0.246821 0.705988 -0.587106
0.251245 0.705485 -0.587009
0.254558 0.702078 -0.584599
0.259087 0.701820 -0.584712
0.264824 0.704528 -0.587206
0.269214 0.703788 -0.586950
0.273399 0.702524 -0.586280
0.277636 0.701369 -0.585706
0.281838 0.700116 -0.585058
0.286460 0.699814 -0.585180
0.290035 0.697098 -0.583370
0.292871 0.692766 -0.580264
0.300647 0.699370 -0.585955
0.305093 0.698521 -0.585662
0.309754 0.698107 -0.585723
0.313198 0.695102 -0.583701
0.319081 0.697193 -0.585789
0.322880 0.694928 -0.584368
0.326648 0.692625 -0.582916
0.331427 0.692358 -0.583109
0.335933 0.691532 -0.582851
0.340563 0.690937 -0.582779
0.345886 0.691652 -0.583765
0.351166 0.692245 -0.584651
0.354937 0.690009 -0.583241
0.358344 0.687158 -0.581321
0.364176 0.688745 -0.582999
0.368525 0.687649 -0.582489
0.373528 0.687734 -0.582928
0.379964 0.690313 -0.585386
0.383109 0.687202 -0.583200
0.388533 0.688047 -0.584219
0.391999 0.685625 -0.582559
0.397159 0.686093 -0.583235
0.404026 0.689378 -0.586192
0.409455 0.690314 -0.587212
0.413982 0.689840 -0.587056
0.418360 0.689200 -0.586740
0.422115 0.687665 -0.585664
0.425716 0.685993 -0.584449
0.433013 0.690084 -0.587918
0.436465 0.688349 -0.586592
0.440574 0.687719 -0.586139
0.445078 0.687773 -0.586214
0.448269 0.685985 -0.584750
0.452108 0.685268 -0.584130
0.457091 0.686312 -0.584918
0.461516 0.686634 -0.585083
0.470053 0.692885 -0.590064
-0.984862 1.327094 -1.122991
-0.970620 1.318261 -1.116036
-0.969710 1.328011 -1.124418
-0.967098 1.335735 -1.131060
-0.954343 1.329439 -1.126011
-0.943507 1.325959 -1.123230
-0.790936 1.118420 -0.951126
-0.776589 1.108138 -0.942578
-0.760432 1.095147 -0.931729
-0.739078 1.074334 -0.914344
-0.734570 1.078467 -0.917597
-0.731132 1.084431 -0.922317
-0.724079 1.085110 -0.922608
-0.717784 1.087088 -0.923927
-0.711901 1.089855 -0.925857
-0.701487 1.085616 -0.921944
-0.694076 1.086164 -0.921955
-0.688521 1.089804 -0.924487
-0.679604 1.088090 -0.922557
-0.672356 1.089155 -0.922894
-0.665047 1.090186 -0.923175
-0.657229 1.090413 -0.922765
-0.650783 1.093029 -0.924303
-0.644542 1.096083 -0.926179
-0.637557 1.097909 -0.927025
-0.629430 1.097737 -0.926212
-0.620871 1.096766 -0.924732
-0.613412 1.097767 -0.924862
-0.605745 1.098379 -0.924667
-0.597430 1.097750 -0.923449
-0.590481 1.099670 -0.924319
-0.585964 1.106309 -0.929048
-0.577867 1.106046 -0.928125
-0.571786 1.109734 -0.930435
-0.564216 1.110453 -0.930319
-0.556791 1.111420 -0.930412
-0.549443 1.112507 -0.930608
-0.536565 1.101861 -0.921251
-0.517707 1.077987 -0.901147
-0.507580 1.072320 -0.895893
-0.500344 1.072792 -0.895646
-0.494627 1.076604 -0.898125
-0.489201 1.081119 -0.901180
-0.485529 1.089757 -0.907586
-0.561277 1.349926 -1.115804
-0.563392 1.377926 -1.137773
-0.562425 1.398887 -1.154042
-0.600878 1.549571 -1.274368
-0.592583 1.554615 -1.277738
-0.584163 1.559375 -1.280893
-0.576058 1.565066 -1.284812
-0.567669 1.570039 -1.288167
-0.560030 1.577246 -1.293334
-0.551378 1.581621 -1.296234
-0.541552 1.582510 -1.296345
-0.528044 1.572023 -1.287326
-0.384434 1.177292 -0.969151
-0.374796 1.170068 -0.962952
-0.473177 1.554059 -1.270249
-0.465293 1.594831 -1.301989
-0.448703 1.606632 -1.310534
-0.440037 1.611377 -1.313899
-0.430305 1.612103 -1.314058
-0.411702 1.616875 -1.317073
-0.403226 1.622746 -1.321387
-0.392683 1.619948 -1.318780
-0.384043 1.625300 -1.322702
-0.375584 1.631671 -1.327448
-0.364432 1.625750 -1.322384
-0.354923 1.627271 -1.323279
-0.346778 1.635540 -1.329573
-0.338428 1.643179 -1.335373
-0.327773 1.639099 -1.331828
-0.316617 1.631944 -1.325841
-0.307432 1.635271 -1.328231
-0.298918 1.642647 -1.333860
-0.289985 1.647944 -1.337839
-0.279906 1.646401 -1.336374
-0.270190 1.647012 -1.336635
-0.260609 1.648492 -1.337598
-0.250906 1.649162 -1.337926
-0.241586 1.652612 -1.340478
-0.233064 1.662410 -1.348096
-0.221676 1.650064 -1.338080
-0.212036 1.651126 -1.338755
-0.202021 1.648903 -1.336823
-0.192093 1.647161 -1.335282
-0.182409 1.647567 -1.335461
-0.174552 1.667160 -1.350924
-0.165075 1.671103 -1.353933
-0.152992 1.644212 -1.332404
-0.143735 1.649676 -1.336641
-0.134564 1.657193 -1.342518
-0.124389 1.650642 -1.337206
-0.114287 1.643960 -1.331798
-0.104657 1.644500 -1.332144
-0.095205 1.648814 -1.335502
-0.085510 1.648490 -1.335176
-0.075775 1.646849 -1.333808
-0.066177 1.649025 -1.335485
-0.056371 1.643590 -1.331114
-0.046540 1.633332 -1.322913
-0.036922 1.630164 -1.320360
-0.027428 1.639817 -1.328013
-0.017824 1.652731 -1.338267
-0.008174 1.644597 -1.331785
0.001468 1.644522 -1.331719
0.011141 1.646350 -1.333175
0.020921 1.651866 -1.337572
0.030245 1.639105 -1.327436
0.040306 1.652086 -1.337786
0.049669 1.643900 -1.331303
0.059412 1.645975 -1.332991
0.024319 0.705907 -0.585161
0.028604 0.708203 -0.587013
0.032821 0.709122 -0.587774
0.036909 0.708164 -0.587043
0.040750 0.704290 -0.583995
0.045122 0.706985 -0.586179
0.050476 0.719849 -0.596459
0.054887 0.721631 -0.597924
0.058432 0.714949 -0.592655
0.062843 0.716753 -0.594144
0.067295 0.718700 -0.595752
0.071385 0.717478 -0.594840
0.075598 0.717298 -0.594762
0.079844 0.717340 -0.594863
0.083891 0.715940 -0.593821
0.088582 0.719010 -0.596344
0.093033 0.720240 -0.597406
0.097592 0.722021 -0.598911
0.101969 0.722537 -0.599413
0.106116 0.721631 -0.598786
0.110355 0.721274 -0.598601
0.114267 0.719108 -0.596979
0.117907 0.715606 -0.594294
0.121820 0.713687 -0.592877
0.126219 0.714268 -0.593459
0.131115 0.717189 -0.595914
0.135844 0.719122 -0.597586
0.139792 0.717333 -0.596293
0.144014 0.716818 -0.596022
0.148849 0.718949 -0.597871
0.153072 0.718346 -0.597541
0.156564 0.714723 -0.594803
0.160462 0.712865 -0.593481
0.164730 0.712505 -0.593362
0.168337 0.709588 -0.591204
0.172562 0.709070 -0.590970
0.176836 0.708714 -0.590873
0.181108 0.708318 -0.590750
0.185391 0.707935 -0.590643
0.189540 0.707063 -0.590152
0.193756 0.706404 -0.589839
0.198496 0.707442 -0.590892
0.202230 0.705158 -0.589289
0.206186 0.703615 -0.588286
0.209994 0.701625 -0.586931
0.213813 0.699697 -0.585631
0.217895 0.698572 -0.584984
0.221848 0.697061 -0.584033
0.226700 0.698128 -0.585163
0.231276 0.698328 -0.585603
0.235597 0.697767 -0.585439
0.239755 0.696728 -0.584897
0.245170 0.699022 -0.587049
0.249238 0.697659 -0.586262
0.253230 0.696090 -0.585316
0.256704 0.693215 -0.583321
0.262292 0.695635 -0.585610
0.268461 0.699345 -0.588952
0.272544 0.697861 -0.588103
0.275413 0.693499 -0.584931
0.280388 0.694129 -0.585806
0.285262 0.694455 -0.586442
0.288050 0.690010 -0.583215
0.292853 0.690132 -0.583697
0.296418 0.687490 -0.581939
0.304208 0.693993 -0.587619
0.308054 0.691876 -0.586299
0.310745 0.687361 -0.583029
0.314841 0.685833 -0.582191
0.319564 0.685582 -0.582396
0.324476 0.685683 -0.582889
0.328440 0.683872 -0.581824
0.333874 0.684945 -0.583113
0.338661 0.684720 -0.583341
0.343180 0.683968 -0.583136
0.347885 0.683564 -0.583212
0.352158 0.682361 -0.582628
0.356933 0.682092 -0.582803
0.361698 0.681807 -0.582958
0.366163 0.681000 -0.582673
0.368914 0.677217 -0.579933
0.374433 0.678326 -0.581199
0.381972 0.682875 -0.585281
0.384332 0.678600 -0.582088
0.388981 0.678273 -0.582127
0.394049 0.678680 -0.582750
0.400829 0.681907 -0.585677
0.406469 0.683274 -0.587050
0.411049 0.682978 -0.587027
0.414732 0.681335 -0.585867
0.419081 0.680832 -0.585620
0.422721 0.679317 -0.584508
0.426054 0.677441 -0.583068
0.432460 0.680321 -0.585526
0.438019 0.681962 -0.586930
0.441690 0.680862 -0.586037
0.444846 0.679119 -0.584581
0.448128 0.677684 -0.583346
0.451347 0.676278 -0.582104
0.456273 0.677429 -0.582940
0.465126 0.684217 -0.588399
-0.974816 1.310292 -1.119528
-0.973410 1.318947 -1.127168
-0.966354 1.320103 -1.128472
-0.961948 1.325177 -1.132991
-0.956461 1.329005 -1.136402
-0.947077 1.327545 -1.135319
-0.789409 1.113207 -0.955860
-0.771971 1.098377 -0.943443
-0.752015 1.079726 -0.927773
-0.736046 1.066743 -0.916799
-0.728361 1.066006 -0.916030
-0.724700 1.071452 -0.920388
-0.718739 1.073625 -0.921956
-0.711751 1.074374 -0.922285
-0.704184 1.074344 -0.921916
-0.696029 1.073482 -0.920811
-0.689323 1.074996 -0.921650
-0.682726 1.076800 -0.922693
-0.675573 1.077807 -0.923034
-0.669423 1.080551 -0.924791
-0.662350 1.081869 -0.925327
-0.654502 1.081945 -0.924800
-0.647285 1.083133 -0.925176
-0.640715 1.085492 -0.926504
-0.633384 1.086584 -0.926758
-0.626084 1.087761 -0.927066
-0.619452 1.090165 -0.928378
-0.611613 1.090409 -0.927887
-0.604021 1.091093 -0.927752
-0.594688 1.088494 -0.924891
-0.586842 1.088615 -0.924282
-0.582569 1.095592 -0.929341
-0.574953 1.096168 -0.929103
-0.566608 1.095261 -0.927641
-0.541944 1.061387 -0.898990
-0.532450 1.057464 -0.895076
-0.524344 1.056237 -0.893393
-0.511904 1.061517 -0.896415
-0.510051 1.073637 -0.905725
-0.511594 1.093535 -0.921416
-0.590754 1.371849 -1.146026
-0.582994 1.375575 -1.148335
-0.575257 1.379370 -1.150712
-0.568443 1.385496 -1.155005
-0.564713 1.399575 -1.165800
-0.602353 1.547805 -1.285283
-0.594100 1.553034 -1.288822
-0.586289 1.559533 -1.293408
-0.577391 1.563125 -1.295642
-0.569092 1.568424 -1.299279
-0.560624 1.573312 -1.302596
-0.551787 1.577179 -1.305097
-0.541110 1.575561 -1.303159
-0.525966 1.560107 -1.290007
-0.382566 1.167215 -0.970195
-0.374909 1.166344 -0.969078
-0.471059 1.541493 -1.272186
-0.455838 1.555914 -1.282887
-0.454496 1.586110 -1.306851
-0.449094 1.602580 -1.319712
-0.441476 1.611331 -1.326337
-0.430534 1.607520 -1.322817
-0.421002 1.609010 -1.323599
-0.411454 1.610411 -1.324322
-0.403539 1.618604 -1.330542
-0.393446 1.617790 -1.329501
-0.383139 1.615899 -1.327605
-0.372159 1.610763 -1.323105
-0.363487 1.615965 -1.326958
-0.353894 1.616974 -1.327440
-0.346045 1.626542 -1.334835
-0.338541 1.638360 -1.344051
-0.328144 1.635676 -1.341589
-0.316485 1.625902 -1.333427
-0.305701 1.620275 -1.328621
-0.297371 1.628363 -1.334871
-0.287232 1.626110 -1.332804
-0.277768 1.627797 -1.333919
-0.269017 1.634138 -1.338791
-0.260236 1.640695 -1.343844
-0.249817 1.636259 -1.340061
-0.240818 1.641726 -1.344254
-0.230906 1.640642 -1.343187
-0.220804 1.637849 -1.340756
-0.210264 1.631011 -1.335081
-0.200247 1.628010 -1.332501
-0.190653 1.628537 -1.332767
-0.180749 1.625989 -1.330570
-0.170797 1.622540 -1.327657
-0.161412 1.624897 -1.329419
-0.152294 1.630714 -1.333970
-0.142769 1.632095 -1.334963
-0.132916 1.629038 -1.332398
-0.123527 1.632420 -1.335015
-0.113885 1.632163 -1.334715
-0.104244 1.631790 -1.334330
-0.094549 1.630126 -1.332915
-0.085251 1.637336 -1.338636
-0.075636 1.638047 -1.339144
-0.065913 1.635373 -1.336940
-0.056237 1.633274 -1.335206
-0.046488 1.625817 -1.329176
-0.036845 1.619582 -1.324135
-0.027344 1.623537 -1.327285
-0.017807 1.637196 -1.338234
-0.008168 1.638894 -1.339586
0.001439 1.635923 -1.337195
0.010984 1.631290 -1.333476
0.020411 1.623844 -1.327507
0.029896 1.621449 -1.325601
0.039716 1.629525 -1.332110
0.049668 1.638451 -1.339309
0.059160 1.635131 -1.336683
0.068645 1.632362 -1.334506
0.028682 0.707135 -0.591483
0.032822 0.706843 -0.591279
0.036789 0.704282 -0.589255
0.040707 0.701479 -0.587040
0.044678 0.699625 -0.585591
0.049100 0.702800 -0.588186
0.053655 0.706910 -0.591536
0.058086 0.709342 -0.593542
0.062424 0.710661 -0.594657
0.066653 0.710890 -0.594901
0.070682 0.709437 -0.593796
0.074794 0.708731 -0.593296
0.079071 0.709275 -0.593804
0.083341 0.709693 -0.594216
0.087369 0.708404 -0.593260
0.091926 0.710636 -0.595139
0.096885 0.715197 -0.598897
0.101344 0.716362 -0.599928
0.105474 0.715487 -0.599323
0.108993 0.711186 -0.595964
0.113036 0.709994 -0.595112
0.117388 0.710475 -0.595613
0.121409 0.709195 -0.594699
0.125601 0.708804 -0.594507
0.130033 0.709560 -0.595244
0.134552 0.710637 -0.596245
0.138803 0.710396 -0.596190
0.142730 0.708690 -0.594960
0.146822 0.707751 -0.594352
0.151251 0.708233 -0.594897
0.155090 0.706232 -0.593445
0.159175 0.705269 -0.592836
0.163444 0.705029 -0.592816
0.166327 0.699471 -0.588507
0.171406 0.702308 -0.590985
0.175683 0.702048 -0.590968
0.179489 0.700083 -0.589579
0.183814 0.699960 -0.589686
0.188323 0.700428 -0.590278
0.192101 0.698386 -0.588845
0.195962 0.696655 -0.587670
0.200737 0.697871 -0.588890
0.205345 0.698466 -0.589614
0.208744 0.695268 -0.587271
0.213148 0.695176 -0.587452
0.217199 0.693992 -0.586756
0.221057 0.692241 -0.585605
0.224637 0.689710 -0.583828
0.229700 0.691373 -0.585466
0.233492 0.689429 -0.584179
0.240396 0.695903 -0.589749
0.243042 0.690804 -0.585910
0.247160 0.689665 -0.585301
0.250890 0.687516 -0.583876
0.255532 0.687685 -0.584347
0.259022 0.684941 -0.582449
0.264592 0.687305 -0.584727
0.270207 0.689647 -0.586997
0.273923 0.687381 -0.585510
0.278525 0.687192 -0.585727
0.280584 0.681149 -0.581158
0.287340 0.685808 -0.585357
0.290859 0.683108 -0.583534
0.293849 0.679287 -0.580795
0.298578 0.679271 -0.581180
0.307030 0.687088 -0.588006
0.308506 0.680090 -0.582663
0.312362 0.678144 -0.581474
0.317041 0.677883 -0.581672
0.321286 0.676730 -0.581137
0.326680 0.677837 -0.582465
0.330490 0.675810 -0.581208
0.335982 0.677034 -0.582632
0.340264 0.675920 -0.582122
0.345747 0.677055 -0.583468
0.350376 0.676578 -0.583476
0.353958 0.674208 -0.581908
0.358382 0.673405 -0.581628
0.362641 0.672333 -0.581114
0.367083 0.671616 -0.580883
0.370900 0.669855 -0.579770
0.376650 0.671445 -0.581425
0.382027 0.672397 -0.582535
0.386993 0.672675 -0.583067
0.392578 0.674003 -0.584452
0.398238 0.675465 -0.585928
0.402444 0.674612 -0.585453
0.406599 0.673752 -0.584947
0.411231 0.673723 -0.585105
0.416677 0.675024 -0.586345
0.420183 0.673389 -0.585108
0.423829 0.672077 -0.584109
0.428051 0.671738 -0.583891
0.431072 0.669698 -0.582222
0.436731 0.671680 -0.583876
0.441732 0.672753 -0.584739
0.445603 0.672260 -0.584264
0.448856 0.670982 -0.583100
0.453067 0.671184 -0.583138
0.455734 0.669300 -0.581404
-0.993022 1.332056 -1.148400
-0.976598 1.320205 -1.138830
-0.974696 1.328444 -1.146166
-0.968266 1.330699 -1.148382
-0.956238 1.325305 -1.144064
-0.951248 1.329998 -1.148208
-0.769791 1.092215 -0.947230
-0.747671 1.070353 -0.928716
-0.732735 1.058798 -0.918868
-0.728470 1.063037 -0.922325
-0.723109 1.065843 -0.924518
-0.716114 1.066345 -0.924713
-0.708021 1.065286 -0.923540
-0.699632 1.063852 -0.922006
-0.692609 1.064628 -0.922294
-0.685171 1.064854 -0.922076
-0.679131 1.067412 -0.923785
-0.672474 1.069100 -0.924722
-0.666936 1.072730 -0.927260
-0.660306 1.074680 -0.928349
-0.652939 1.075481 -0.928441
-0.645217 1.075727 -0.928040
-0.638445 1.077646 -0.929022
-0.631004 1.078456 -0.929051
-0.623306 1.078835 -0.928701
-0.615932 1.079803 -0.928830
-0.609165 1.081889 -0.929884
-0.600972 1.081380 -0.928752
-0.591260 1.077986 -0.925202
-0.578288 1.068280 -0.916376
-0.558239 1.044651 -0.895933
-0.550761 1.044822 -0.895382
-0.536438 1.046292 -0.895226
-0.531418 1.051330 -0.898735
-0.529786 1.063452 -0.908136
-0.621820 1.331276 -1.127575
-0.615786 1.338520 -1.132766
-0.612426 1.351947 -1.143084
-0.605986 1.358612 -1.147803
-0.599877 1.366159 -1.153260
-0.591088 1.367482 -1.153580
-0.583647 1.371990 -1.156544
-0.576569 1.377432 -1.160291
-0.569529 1.383038 -1.164184
-0.562900 1.389771 -1.169016
-0.601782 1.540589 -1.291791
-0.595158 1.550149 -1.298914
-0.587449 1.556974 -1.303799
-0.578303 1.559945 -1.305528
-0.569485 1.563827 -1.308022
-0.561381 1.569786 -1.312237
-0.551719 1.571285 -1.312805
-0.538825 1.563068 -1.305422
-0.526328 1.555619 -1.298693
-0.382587 1.163136 -0.976069
-0.381182 1.182504 -0.991501
-0.377139 1.193889 -1.000399
-0.472843 1.542094 -1.284797
-0.459662 1.563959 -1.301657
-0.451816 1.570949 -1.306880
-0.447912 1.592679 -1.324152
-0.437193 1.589622 -1.321192
-0.426721 1.587269 -1.318822
-0.421504 1.605487 -1.333251
-0.411986 1.607078 -1.334125
-0.402712 1.609660 -1.335819
-0.391846 1.605480 -1.332016
-0.378507 1.590135 -1.319131
-0.366265 1.578787 -1.309523
-0.360876 1.598452 -1.325188
-0.353138 1.607964 -1.332591
-0.343957 1.610868 -1.334624
-0.334286 1.611383 -1.334725
-0.325485 1.616379 -1.338483
-0.315273 1.613998 -1.336251
-0.305493 1.613779 -1.335789
-0.294733 1.607807 -1.330661
-0.284609 1.605113 -1.328211
-0.275612 1.609124 -1.331222
-0.267158 1.616847 -1.337257
-0.258470 1.623549 -1.342473
-0.249482 1.628630 -1.346379
-0.239342 1.625684 -1.343774
-0.229551 1.625046 -1.343055
-0.218937 1.617697 -1.336897
-0.208324 1.609540 -1.330094
-0.198346 1.606052 -1.327091
-0.189503 1.612645 -1.332280
-0.179856 1.612019 -1.331618
-0.170403 1.613271 -1.332489
-0.161012 1.615301 -1.333999
-0.151261 1.613236 -1.332196
-0.140867 1.602512 -1.323377
-0.131471 1.603826 -1.324332
-0.122386 1.610014 -1.329247
-0.113193 1.615547 -1.333638
-0.103776 1.618071 -1.335597
-0.094494 1.623945 -1.340280
-0.085035 1.627176 -1.342827
-0.075511 1.629609 -1.344734
-0.065610 1.620491 -1.337284
-0.055947 1.616575 -1.334060
-0.046385 1.615536 -1.333176
-0.036832 1.614103 -1.331980
-0.027305 1.613825 -1.331727
-0.017797 1.630067 -1.344873
-0.008156 1.634510 -1.348462
0.001406 1.626888 -1.342279
0.010768 1.612766 -1.330835
0.020255 1.611429 -1.329762
0.029664 1.607872 -1.326897
0.039431 1.615828 -1.333371
0.049555 1.630210 -1.345064
0.058743 1.620733 -1.337422
0.067924 1.613212 -1.331374
0.077107 1.607171 -1.326532
0.033041 0.707644 -0.597288
0.036742 0.701362 -0.592230
0.040382 0.695214 -0.587282
0.044373 0.693860 -0.586226
0.048463 0.693709 -0.586149
0.053035 0.698369 -0.589979
0.057886 0.705124 -0.595512
0.062154 0.705908 -0.596205
0.066186 0.704575 -0.595186
0.070218 0.703339 -0.594249
0.074264 0.702300 -0.593475
0.077942 0.698601 -0.590546
0.082443 0.701001 -0.592573
0.086778 0.702043 -0.593501
0.090854 0.701288 -0.592976
0.095187 0.702170 -0.593783
0.100536 0.709087 -0.599499
0.104166 0.705467 -0.596660
0.108099 0.703763 -0.595381
0.112658 0.705548 -0.596944
0.116728 0.704601 -0.596290
0.120911 0.704254 -0.596130
0.124969 0.703271 -0.595458
0.128594 0.700223 -0.593110
0.133309 0.702403 -0.595022
0.136548 0.697719 -0.591353
0.141201 0.699500 -0.592951
0.145870 0.701217 -0.594504
0.150094 0.700936 -0.594436
0.153527 0.697393 -0.591717
0.157843 0.697505 -0.591980
0.161413 0.694666 -0.589844
0.165127 0.692465 -0.588235
0.168949 0.690722 -0.587004
0.174047 0.693641 -0.589583
0.178119 0.692747 -0.589059
0.182107 0.691555 -0.588297
0.186701 0.692427 -0.589228
0.190876 0.691819 -0.588957
0.194444 0.689215 -0.587061
0.198833 0.689287 -0.587361
0.203277 0.689478 -0.587765
0.207662 0.689433 -0.587983
0.211854 0.688759 -0.587695
0.216673 0.689910 -0.588909
0.219775 0.685998 -0.585981
0.223447 0.683799 -0.584463
0.227463 0.682586 -0.583761
0.231239 0.680709 -0.582520
0.235449 0.680013 -0.582256
0.239987 0.680158 -0.582691
0.244862 0.681120 -0.583806
0.249511 0.681420 -0.584386
0.253186 0.679215 -0.582911
0.257999 0.679836 -0.583770
0.263891 0.683007 -0.586741
0.266968 0.679302 -0.584048
0.272537 0.681517 -0.586247
0.274914 0.676230 -0.582258
0.280275 0.677853 -0.583982
0.285010 0.677975 -0.584473
0.289595 0.677713 -0.584653
0.292991 0.674828 -0.582665
0.297337 0.674021 -0.582401
0.302275 0.674441 -0.583159
0.306366 0.673050 -0.582417
0.310871 0.672509 -0.582384
0.314691 0.670565 -0.581184
0.319446 0.670501 -0.581549
0.323961 0.669939 -0.581500
0.329241 0.670846 -0.582673
0.333367 0.669507 -0.581971
0.338169 0.669455 -0.582339
0.343469 0.670314 -0.583465
