ply
format ascii 1.0
comment ---
element vertex 1679
property float x
property float y
property float z
element face 0
property list uchar uint vertex_indices
end_header
-0.177779 1.728531 -1.331455
-0.166937 1.719275 -1.324356
-0.156440 1.712856 -1.319407
-0.146725 1.715703 -1.321465
-0.136657 1.713903 -1.320019
-0.127475 1.725474 -1.328680
-0.117448 1.724831 -1.328121
-0.108039 1.735696 -1.336259
-0.098465 1.745649 -1.343714
-0.088453 1.747666 -1.345181
-0.077845 1.733437 -1.334384
-0.067245 1.713842 -1.319542
-0.057404 1.716457 -1.321479
-0.047580 1.721683 -1.325392
-0.037692 1.726438 -1.328957
-0.027740 1.729699 -1.331398
-0.017752 1.732848 -1.333760
-0.007611 1.758978 -1.353482
0.002674 1.770529 -1.362200
0.000385 0.753749 -0.594427
0.004791 0.755476 -0.595736
0.009110 0.754054 -0.594671
0.013096 0.744624 -0.587562
0.017397 0.744506 -0.587486
0.021793 0.746253 -0.588821
0.026484 0.752787 -0.593775
0.031014 0.755535 -0.595872
0.035365 0.755194 -0.595639
0.039795 0.755930 -0.596222
0.044310 0.757603 -0.597516
0.048722 0.757816 -0.597710
0.053101 0.757627 -0.597603
0.057557 0.758228 -0.598096
0.061722 0.755906 -0.596385
0.066276 0.757374 -0.597539
0.070702 0.757556 -0.597725
0.075171 0.758044 -0.598146
0.079736 0.759217 -0.599088
0.084234 0.759745 -0.599546
0.088689 0.759892 -0.599719
0.092958 0.758707 -0.598888
0.097271 0.757878 -0.598331
0.101626 0.757349 -0.598004
0.106247 0.758471 -0.598930
0.110782 0.758967 -0.599386
0.115429 0.760041 -0.600284
0.120165 0.761504 -0.601481
0.124524 0.760807 -0.601047
0.129113 0.761321 -0.601534
0.133772 0.762123 -0.602244
0.137484 0.758173 -0.599360
0.141416 0.755465 -0.597421
0.146212 0.756889 -0.598616
0.151143 0.758813 -0.600195
0.155293 0.757149 -0.599060
0.160125 0.758458 -0.600184
0.164812 0.759054 -0.600773
0.168168 0.754141 -0.597190
0.172855 0.754728 -0.597782
0.177851 0.756449 -0.599241
0.180648 0.749681 -0.594263
0.184936 0.748717 -0.593695
0.189671 0.749374 -0.594363
0.193800 0.747803 -0.593346
0.197912 0.746193 -0.592304
0.200699 0.740081 -0.587845
0.205593 0.741214 -0.588900
0.210070 0.740884 -0.588849
0.215080 0.742231 -0.590080
0.218594 0.738770 -0.587659
0.222476 0.736523 -0.586168
0.228228 0.739970 -0.589020
0.232641 0.739261 -0.588714
0.237355 0.739401 -0.589062
0.241689 0.738396 -0.588545
0.246096 0.737577 -0.588176
0.251023 0.738169 -0.588891
0.254864 0.735737 -0.587305
0.260949 0.739320 -0.590322
0.265187 0.737880 -0.589508
0.269189 0.735824 -0.588230
0.273147 0.733668 -0.586881
0.278157 0.734150 -0.587559
0.282941 0.734005 -0.587764
0.288393 0.735419 -0.589173
0.293742 0.736487 -0.590324
0.298743 0.736649 -0.590790
0.302788 0.734551 -0.589526
0.305861 0.730257 -0.586579
0.312574 0.734165 -0.589944
0.315980 0.730629 -0.587590
0.320169 0.728840 -0.586585
0.325664 0.729842 -0.587734
0.330249 0.728849 -0.587350
0.334751 0.727664 -0.586823
0.339666 0.727312 -0.586942
0.344289 0.726338 -0.586583
0.346447 0.720452 -0.582427
0.350679 0.718754 -0.581508
0.355803 0.718794 -0.581934
0.362812 0.722395 -0.585120
0.367698 0.721880 -0.585116
0.372305 0.720838 -0.584701
0.378201 0.722169 -0.586123
0.383300 0.722011 -0.586385
0.386710 0.718835 -0.584293
0.390623 0.716625 -0.582942
0.396722 0.718281 -0.584588
0.402894 0.720031 -0.586299
0.408098 0.720113 -0.586698
0.412416 0.718731 -0.585940
0.416936 0.717749 -0.585477
0.423811 0.720684 -0.588053
0.428410 0.719913 -0.587717
0.431451 0.716713 -0.585460
0.436316 0.716532 -0.585538
0.442030 0.717750 -0.586686
0.447628 0.718833 -0.587702
0.451824 0.717817 -0.587050
0.459456 0.722122 -0.590534
0.463509 0.721046 -0.589776
0.468016 0.720758 -0.589606
0.474997 0.724219 -0.592340
0.480088 0.724953 -0.592906
0.482957 0.722557 -0.590991
0.488231 0.723757 -0.591860
-0.972942 1.322838 -1.074248
-0.965584 1.323675 -1.075146
-0.960044 1.327280 -1.078180
-0.954177 1.330680 -1.080991
-0.942572 1.326111 -1.077419
-0.810661 1.158606 -0.944455
-0.793957 1.145269 -0.933765
-0.780670 1.136901 -0.926968
-0.768339 1.129937 -0.921240
-0.764220 1.135438 -0.925348
-0.759662 1.140501 -0.929062
-0.748633 1.135743 -0.924949
-0.740522 1.135562 -0.924424
-0.734529 1.138831 -0.926591
-0.725348 1.137142 -0.924797
-0.716981 1.136805 -0.924042
-0.709734 1.138361 -0.924751
-0.701756 1.138789 -0.924541
-0.692742 1.137523 -0.922970
-0.684437 1.137461 -0.922328
-0.680033 1.144145 -0.926983
-0.670897 1.142738 -0.925244
-0.661820 1.141398 -0.923546
-0.654792 1.143683 -0.924688
-0.645392 1.141698 -0.922464
-0.636673 1.140886 -0.921157
-0.629545 1.142984 -0.922131
-0.622844 1.145900 -0.923742
-0.615683 1.147965 -0.924682
-0.608928 1.150817 -0.926238
-0.602462 1.154258 -0.928255
-0.593865 1.153469 -0.926965
-0.583809 1.149630 -0.923299
-0.576458 1.151163 -0.923838
-0.569602 1.153697 -0.925164
-0.563743 1.158333 -0.928135
-0.558582 1.164525 -0.932321
-0.551169 1.165902 -0.932765
-0.543315 1.166253 -0.932418
-0.531574 1.157783 -0.925227
-0.529737 1.171575 -0.935349
-0.520466 1.168463 -0.932347
-0.512717 1.168746 -0.931994
-0.506385 1.172334 -0.934217
-0.498959 1.173284 -0.934404
-0.490912 1.172633 -0.933364
-0.485585 1.178702 -0.937539
-0.479234 1.182265 -0.939783
-0.469751 1.177712 -0.935761
-0.460416 1.173299 -0.931866
-0.451274 1.169157 -0.928196
-0.423691 1.134232 -0.900350
-0.413943 1.127160 -0.894477
-0.401518 1.132769 -0.898001
-0.395205 1.135307 -0.899572
-0.392252 1.148129 -0.909070
-0.386961 1.154082 -0.913285
-0.382152 1.161724 -0.918807
-0.377766 1.170962 -0.925562
-0.376811 1.191856 -0.941281
-0.477588 1.557269 -1.221686
-0.471686 1.570036 -1.231067
-0.462691 1.572350 -1.232431
-0.449961 1.561209 -1.223481
-0.439298 1.557079 -1.219928
-0.432878 1.568651 -1.228434
-0.431720 1.600963 -1.252850
-0.407055 1.619154 -1.265758
-0.399711 1.629377 -1.273265
-0.377616 1.617993 -1.263935
-0.371091 1.632522 -1.274766
-0.366678 1.657787 -1.293819
-0.355201 1.650002 -1.287589
-0.342258 1.634304 -1.275319
-0.329887 1.620523 -1.264530
-0.319445 1.668794 -1.300964
-0.307539 1.657166 -1.291851
-0.292098 1.682256 -1.310599
-0.284735 1.698349 -1.322693
-0.274696 1.698004 -1.322236
-0.264324 1.695269 -1.319962
-0.254634 1.697086 -1.321174
-0.244965 1.699145 -1.322577
-0.235386 1.702010 -1.324604
-0.225257 1.700594 -1.323370
-0.214780 1.695980 -1.319703
-0.205850 1.704740 -1.326251
-0.197673 1.721556 -1.338952
-0.187132 1.716474 -1.334950
-0.176493 1.709642 -1.329621
-0.166692 1.711379 -1.330836
-0.156447 1.707882 -1.328065
-0.146612 1.709151 -1.328937
-0.136628 1.708433 -1.328300
-0.126891 1.711353 -1.330444
-0.116998 1.712110 -1.330945
-0.107208 1.714909 -1.333009
-0.097698 1.724278 -1.340089
-0.087865 1.728366 -1.343148
-0.077260 1.711945 -1.330575
-0.067211 1.707768 -1.327345
-0.057260 1.705583 -1.325639
-0.047506 1.712735 -1.331059
-0.037567 1.711549 -1.330127
-0.027692 1.718037 -1.335052
-0.017742 1.722649 -1.338553
-0.007739 1.727287 -1.342079
0.002301 1.730376 -1.344430
0.012412 1.735532 -1.348364
0.004690 0.749568 -0.596715
0.008977 0.747818 -0.595390
0.013068 0.741647 -0.590697
0.016920 0.731783 -0.583191
0.021396 0.736260 -0.586622
0.026212 0.745738 -0.593867
0.030706 0.748351 -0.595883
0.035051 0.748326 -0.595889
0.039461 0.749150 -0.596547
0.043733 0.748124 -0.595796
0.048013 0.747293 -0.595197
0.052797 0.752022 -0.598841
0.056934 0.749540 -0.596988
0.061225 0.748804 -0.596471
0.065681 0.749631 -0.597149
0.070218 0.751036 -0.598271
0.074762 0.752343 -0.599322
0.079226 0.752869 -0.599782
0.083870 0.754668 -0.601216
0.088003 0.752606 -0.599707
0.092282 0.751688 -0.599075
0.096285 0.748983 -0.597081
0.100665 0.748853 -0.597058
0.105358 0.750632 -0.598497
0.109344 0.748042 -0.596602
0.114061 0.749804 -0.598036
0.119099 0.753197 -0.600720
0.123900 0.755061 -0.602242
0.127361 0.749786 -0.598313
0.132355 0.752550 -0.600532
0.136330 0.750105 -0.598773
0.140847 0.750353 -0.599078
0.145437 0.750883 -0.599604
0.149382 0.748434 -0.597856
0.153756 0.747964 -0.597626
0.158942 0.750953 -0.600049
0.162998 0.749032 -0.598720
0.167083 0.747281 -0.597526
0.171376 0.746402 -0.597005
0.175496 0.744846 -0.595971
0.179014 0.741032 -0.593211
0.184035 0.742921 -0.594827
0.187656 0.739603 -0.592458
0.191696 0.737871 -0.591310
0.195227 0.734397 -0.588831
0.199245 0.732679 -0.587704
0.203839 0.732901 -0.588073
0.207320 0.729435 -0.585616
0.212737 0.732246 -0.587987
0.217112 0.731631 -0.587734
0.221458 0.730898 -0.587396
0.226518 0.732297 -0.588705
0.231404 0.733076 -0.589546
0.235654 0.731928 -0.588910
0.240291 0.731869 -0.589121
0.244359 0.730166 -0.588071
0.248856 0.729647 -0.587942
0.254056 0.730995 -0.589260
0.258499 0.730229 -0.588955
0.263558 0.731042 -0.589877
0.267432 0.728727 -0.588391
0.272280 0.728892 -0.588828
0.277120 0.728975 -0.589209
0.281296 0.727378 -0.588298
0.285833 0.726642 -0.588060
0.291708 0.729042 -0.590259
0.295505 0.726468 -0.588611
0.301023 0.727867 -0.590051
0.303850 0.723088 -0.586702
0.309720 0.725171 -0.588687
0.314228 0.724152 -0.588269
0.318789 0.723226 -0.587928
0.322464 0.720393 -0.586107
0.328316 0.722159 -0.587870
0.331761 0.718853 -0.585687
0.336614 0.718463 -0.585778
0.340346 0.715793 -0.584093
0.345009 0.715001 -0.583874
0.349422 0.713707 -0.583263
0.354019 0.712773 -0.582932
0.359242 0.713022 -0.583527
0.365074 0.714382 -0.584991
0.369642 0.713350 -0.584577
0.373914 0.711788 -0.583742
0.380659 0.714713 -0.586423
0.383839 0.711217 -0.584055
0.388613 0.710612 -0.583947
0.394928 0.712699 -0.585946
0.399941 0.712521 -0.586152
0.405728 0.713676 -0.587393
0.409331 0.711179 -0.585742
0.414474 0.711320 -0.586152
0.420682 0.713235 -0.587942
0.426291 0.714189 -0.588953
0.430029 0.712186 -0.587609
0.433788 0.710321 -0.586348
0.438341 0.709801 -0.586124
0.443416 0.710173 -0.586577
0.448583 0.710753 -0.587167
0.451064 0.707336 -0.584568
0.461047 0.715322 -0.590956
0.462992 0.711308 -0.587823
0.468144 0.712182 -0.588525
0.473498 0.713431 -0.589493
0.478356 0.714042 -0.589923
0.489179 0.723286 -0.597146
-0.971960 1.318279 -1.080998
-0.967289 1.322767 -1.084857
-0.961647 1.326165 -1.087784
-0.953449 1.326196 -1.087951
-0.940287 1.319327 -1.082528
-0.806511 1.149352 -0.946298
-0.792314 1.139609 -0.938402
-0.777675 1.129166 -0.929896
-0.763497 1.119344 -0.921840
-0.754154 1.116774 -0.919547
-0.750612 1.123153 -0.924374
-0.742138 1.122151 -0.923247
-0.734930 1.123214 -0.923729
-0.728258 1.125245 -0.924946
-0.719884 1.124683 -0.924052
-0.712178 1.125265 -0.924038
-0.705028 1.126835 -0.924780
-0.698295 1.129187 -0.926115
-0.689608 1.128362 -0.924889
-0.680465 1.126775 -0.923034
-0.670829 1.124322 -0.920471
-0.663588 1.125988 -0.921170
-0.658287 1.131118 -0.924607
-0.649546 1.130230 -0.923245
-0.640271 1.128335 -0.921075
-0.632698 1.129485 -0.921316
-0.626062 1.132374 -0.922928
-0.619153 1.134789 -0.924159
-0.610594 1.134069 -0.922905
-0.603117 1.135373 -0.923253
-0.598812 1.142882 -0.928505
-0.589261 1.140092 -0.925619
-0.581209 1.140181 -0.925014
-0.573737 1.141388 -0.925296
-0.566353 1.142735 -0.925696
-0.559510 1.145185 -0.926969
-0.553506 1.149421 -0.929656
-0.546782 1.152135 -0.931151
-0.537666 1.149562 -0.928500
-0.529440 1.148816 -0.927297
-0.523921 1.154117 -0.930851
-0.516733 1.155637 -0.931447
-0.509934 1.158023 -0.932733
-0.502760 1.159498 -0.933316
-0.495431 1.160552 -0.933579
-0.489078 1.163952 -0.935691
-0.481598 1.164547 -0.935620
-0.469584 1.153520 -0.926481
-0.442273 1.121384 -0.900404
-0.434982 1.121401 -0.899951
-0.419618 1.118999 -0.897184
-0.416380 1.130168 -0.905454
-0.384094 1.163968 -0.929362
-0.379978 1.174189 -0.936936
-0.380432 1.199824 -0.956478
-0.476712 1.549141 -1.227137
-0.465402 1.576691 -1.247635
-0.450269 1.557187 -1.232103
-0.432576 1.562400 -1.235357
-0.432958 1.600522 -1.264500
-0.425553 1.609719 -1.271249
-0.418698 1.621482 -1.279993
-0.406861 1.613148 -1.273197
-0.379092 1.619439 -1.277091
-0.355358 1.645559 -1.296397
-0.345287 1.644325 -1.295171
-0.333582 1.634498 -1.287321
-0.325753 1.644579 -1.294853
-0.322210 1.678781 -1.321009
-0.309825 1.664995 -1.310133
-0.299596 1.662832 -1.308239
-0.292245 1.677951 -1.319686
-0.282165 1.676885 -1.318656
-0.273113 1.682397 -1.322707
-0.264955 1.694369 -1.331747
-0.255529 1.698256 -1.334560
-0.244663 1.691720 -1.329345
-0.234366 1.688922 -1.327022
-0.223596 1.681934 -1.321478
-0.213685 1.681495 -1.320989
-0.203574 1.679144 -1.319036
-0.194377 1.685121 -1.323507
-0.184888 1.688798 -1.326212
-0.175353 1.692362 -1.328836
-0.165850 1.696687 -1.332054
-0.156006 1.697396 -1.332494
-0.146455 1.701984 -1.335927
-0.136073 1.695481 -1.330826
-0.126613 1.701969 -1.335737
-0.116428 1.697356 -1.332105
-0.106637 1.699083 -1.333362
-0.097195 1.708534 -1.340571
-0.087485 1.714108 -1.344802
-0.077126 1.703165 -1.336324
-0.066516 1.679482 -1.318048
-0.057303 1.702447 -1.335684
-0.047512 1.708231 -1.340102
-0.037569 1.707061 -1.339173
-0.027646 1.706675 -1.338854
-0.017727 1.704056 -1.336823
-0.007857 1.697801 -1.331998
0.002006 1.697588 -1.331831
0.012025 1.706788 -1.338915
0.022186 1.717545 -1.347204
0.008855 0.741923 -0.596319
0.012771 0.731908 -0.588622
0.016796 0.726817 -0.584719
0.020972 0.725758 -0.583922
0.025390 0.729122 -0.586531
0.029935 0.733837 -0.590185
0.034748 0.741635 -0.596214
0.039187 0.743190 -0.597442
0.043493 0.742841 -0.597206
0.047655 0.740853 -0.595712
0.051917 0.740165 -0.595220
0.056409 0.741884 -0.596587
0.060720 0.741640 -0.596445
0.065072 0.741765 -0.596590
0.069465 0.742208 -0.596983
0.073554 0.740071 -0.595393
0.077843 0.739676 -0.595148
0.082552 0.742433 -0.597336
0.087283 0.745086 -0.599447
0.091577 0.744480 -0.599052
0.095591 0.742040 -0.597245
0.100263 0.743937 -0.598786
0.104208 0.741201 -0.596760
0.108594 0.741238 -0.596875
0.113128 0.742089 -0.597623
0.117983 0.744624 -0.599673
0.121736 0.741055 -0.597021
0.126540 0.743134 -0.598729
0.131061 0.743619 -0.599213
0.135465 0.743471 -0.599213
0.139657 0.742283 -0.598416
0.143003 0.737210 -0.594622
0.148152 0.740485 -0.597281
0.152186 0.738660 -0.596005
0.156841 0.739544 -0.596828
0.161954 0.742246 -0.599062
0.166287 0.741606 -0.598719
0.170398 0.740076 -0.597693
0.174293 0.737738 -0.596046
0.178895 0.738134 -0.596522
0.181739 0.731973 -0.591927
0.187042 0.734925 -0.594392
0.190423 0.730909 -0.591468
0.194048 0.727859 -0.589298
0.198718 0.728432 -0.589940
0.203289 0.728604 -0.590278
0.206403 0.723981 -0.586905
0.209826 0.720481 -0.584406
0.215938 0.725467 -0.588501
0.220365 0.725046 -0.588407
0.224418 0.723469 -0.587421
0.228008 0.720531 -0.585385
0.234126 0.724969 -0.589089
0.239005 0.725670 -0.589897
0.242484 0.722383 -0.587609
0.246799 0.721450 -0.587160
0.251788 0.722312 -0.588117
0.256692 0.722867 -0.588842
0.261405 0.722847 -0.589128
0.265607 0.721467 -0.588361
0.269330 0.718868 -0.586648
0.273015 0.716205 -0.584890
0.278577 0.718146 -0.586738
0.283580 0.718629 -0.587454
0.288736 0.719403 -0.588407
0.292987 0.717994 -0.587657
0.297082 0.716220 -0.586628
0.302156 0.716648 -0.587331
0.305748 0.713726 -0.585411
0.309546 0.711290 -0.583877
0.313684 0.709608 -0.582938
0.318831 0.710065 -0.583685
0.325434 0.713502 -0.586783
0.329166 0.710885 -0.585121
0.333870 0.710273 -0.585040
0.338344 0.709179 -0.584580
0.342304 0.707062 -0.583314
0.346406 0.705249 -0.582287
0.352224 0.706746 -0.583874
0.358106 0.708297 -0.585505
0.362618 0.707227 -0.585059
0.367282 0.706447 -0.584840
0.372431 0.706558 -0.585320
0.377029 0.705669 -0.585000
0.381005 0.703698 -0.583813
0.384734 0.701351 -0.582316
0.390824 0.703150 -0.584100
0.397232 0.705465 -0.586282
0.402322 0.705523 -0.586657
0.407242 0.705327 -0.586813
0.412021 0.704939 -0.586797
0.418128 0.706764 -0.588524
0.423624 0.707613 -0.589453
0.428299 0.707193 -0.589347
0.431421 0.704399 -0.587321
0.435026 0.702484 -0.585970
0.437891 0.699542 -0.583769
0.442687 0.699683 -0.584001
0.447894 0.700525 -0.584764
0.452070 0.699895 -0.584320
0.459461 0.704128 -0.587730
0.463435 0.703362 -0.587115
0.467658 0.703071 -0.586848
0.472547 0.703842 -0.587397
0.479135 0.707127 -0.589921
-0.976711 1.321658 -1.094134
-0.967813 1.320244 -1.093288
-0.961730 1.322946 -1.095708
-0.953850 1.323348 -1.096206
-0.955212 1.337121 -1.107463
-0.786710 1.128186 -0.938326
-0.768270 1.111997 -0.925108
-0.755268 1.103754 -0.918272
-0.746786 1.102300 -0.916881
-0.742974 1.108065 -0.921282
-0.736675 1.110234 -0.922728
-0.729819 1.111690 -0.923553
-0.722417 1.112416 -0.923745
-0.715810 1.114513 -0.925006
-0.708943 1.116318 -0.925995
-0.701244 1.116875 -0.925941
-0.693041 1.116671 -0.925243
-0.685265 1.117222 -0.925127
-0.675968 1.115251 -0.922954
-0.667324 1.114374 -0.921643
-0.659829 1.115483 -0.921909
-0.652441 1.116814 -0.922338
-0.645241 1.118513 -0.923045
-0.637477 1.119225 -0.922949
-0.629156 1.118918 -0.922027
-0.621527 1.119854 -0.922095
-0.615479 1.123747 -0.924523
-0.608120 1.125207 -0.925000
-0.597955 1.121245 -0.921142
-0.591706 1.124778 -0.923274
-0.585267 1.127973 -0.925136
-0.578424 1.130378 -0.926369
-0.570355 1.130281 -0.925611
-0.562651 1.130861 -0.925401
-0.556612 1.134882 -0.927933
-0.550260 1.138274 -0.929971
-0.542761 1.139203 -0.930058
-0.534833 1.139127 -0.929357
-0.528562 1.142664 -0.931532
-0.520877 1.143012 -0.931188
-0.514316 1.145872 -0.932845
-0.507392 1.147881 -0.933838
-0.499285 1.147053 -0.932597
-0.489163 1.141233 -0.927424
-0.468994 1.110460 -0.902557
-0.461423 1.110022 -0.901682
-0.452703 1.106562 -0.898435
-0.439947 1.111309 -0.901187
-0.436176 1.120641 -0.908060
-0.561824 1.564409 -1.255118
-0.554864 1.573317 -1.261531
-0.548409 1.583947 -1.269308
-0.538427 1.584161 -1.268916
-0.516811 1.548252 -1.240195
-0.387945 1.172171 -0.944694
-0.380994 1.173486 -0.945348
-0.375334 1.179015 -0.949314
-0.453068 1.562029 -1.247692
-0.419326 1.618719 -1.290043
-0.408732 1.615608 -1.287251
-0.398494 1.613750 -1.285452
-0.388596 1.613175 -1.284666
-0.360819 1.619686 -1.288808
-0.356169 1.644240 -1.307667
-0.346748 1.646385 -1.309055
-0.337135 1.647579 -1.309712
-0.327987 1.651229 -1.312294
-0.319600 1.659203 -1.318254
-0.310429 1.663183 -1.321111
-0.300343 1.662000 -1.319955
-0.291415 1.667672 -1.324147
-0.280909 1.663756 -1.320881
-0.270490 1.660022 -1.317767
-0.261602 1.666316 -1.322471
-0.254155 1.683268 -1.335477
-0.243931 1.681083 -1.333594
-0.234067 1.681406 -1.333672
-0.223237 1.673859 -1.327636
-0.213730 1.676725 -1.329710
-0.203992 1.677759 -1.330366
-0.193579 1.672445 -1.326093
-0.184461 1.679379 -1.331354
-0.174466 1.677797 -1.329998
-0.164474 1.675954 -1.328448
-0.155044 1.680590 -1.331942
-0.145508 1.684487 -1.334869
-0.135765 1.686021 -1.335966
-0.125786 1.684106 -1.334388
-0.116268 1.689563 -1.338547
-0.106476 1.690967 -1.339564
-0.096374 1.686113 -1.335722
-0.086938 1.695860 -1.343235
-0.076978 1.694002 -1.341736
-0.066435 1.671828 -1.324456
-0.056634 1.669694 -1.322756
-0.047359 1.694957 -1.342352
-0.037429 1.691014 -1.339259
-0.027549 1.687540 -1.336538
-0.017713 1.686817 -1.335960
-0.007889 1.685216 -1.334706
0.001949 1.686671 -1.335834
0.011884 1.692889 -1.340669
0.021822 1.695977 -1.343078
0.031357 1.683538 -1.333430
0.012779 0.729825 -0.592392
0.016759 0.723737 -0.587677
0.020886 0.721838 -0.586220
0.025251 0.724432 -0.588258
0.029273 0.721122 -0.585710
0.033815 0.725846 -0.589409
0.038804 0.735764 -0.597149
0.043120 0.735922 -0.597306
0.047298 0.734422 -0.596177
0.051614 0.734584 -0.596344
0.055946 0.734868 -0.596609
0.060153 0.733884 -0.595891
0.064398 0.733328 -0.595510
0.068726 0.733510 -0.595706
0.073021 0.733375 -0.595660
0.077339 0.733411 -0.595749
0.081877 0.735053 -0.597092
0.086542 0.737434 -0.599014
0.090953 0.737839 -0.599403
0.095341 0.738036 -0.599634
0.099709 0.738060 -0.599735
0.104062 0.737954 -0.599738
0.108092 0.735910 -0.598237
0.112390 0.735503 -0.598015
0.115630 0.729243 -0.593238
0.120983 0.734650 -0.597553
0.125104 0.733297 -0.596607
0.129914 0.735454 -0.598401
0.134127 0.734534 -0.597802
0.138480 0.734291 -0.597736
0.142568 0.732804 -0.596705
0.146764 0.731839 -0.596085
0.151194 0.731908 -0.596278
0.155724 0.732359 -0.596774
0.160559 0.734011 -0.598213
0.164335 0.731254 -0.596217
0.168266 0.729200 -0.594774
0.172268 0.727470 -0.593590
0.176631 0.727139 -0.593504
0.180254 0.724049 -0.591268
0.185187 0.725771 -0.592800
0.189457 0.725035 -0.592416
0.192813 0.721133 -0.589561
0.197033 0.720264 -0.589086
0.201645 0.720677 -0.589620
0.205316 0.717977 -0.587723
0.209437 0.716765 -0.586997
0.212905 0.713517 -0.584682
0.218092 0.715595 -0.586550
0.222826 0.716182 -0.587256
0.227258 0.715811 -0.587218
0.231576 0.715069 -0.586896
0.236404 0.715749 -0.587699
0.240946 0.715554 -0.587823
0.245239 0.714632 -0.587382
0.250006 0.714959 -0.587932
0.255070 0.716007 -0.589057
0.259735 0.715928 -0.589304
0.263683 0.713968 -0.588075
0.267609 0.711961 -0.586817
0.271761 0.710522 -0.586012
0.275822 0.708855 -0.585033
0.280061 0.707611 -0.584396
0.286239 0.710912 -0.587357
0.291243 0.711337 -0.588055
0.295135 0.709162 -0.586701
0.299512 0.708091 -0.586227
0.304036 0.707322 -0.585997
0.307882 0.705053 -0.584583
0.311748 0.702846 -0.583221
0.317047 0.703680 -0.584278
0.322729 0.705244 -0.585921
0.328304 0.706499 -0.587323
0.331035 0.701927 -0.584091
0.335045 0.699995 -0.582960
0.340019 0.699978 -0.583355
0.344666 0.699294 -0.583218
0.349302 0.698582 -0.583057
0.354560 0.699035 -0.583824
0.360748 0.701189 -0.585949
0.364134 0.698126 -0.583899
0.368698 0.697267 -0.583603
0.374889 0.699336 -0.585645
0.378797 0.697321 -0.584406
0.382684 0.695327 -0.583171
0.387784 0.695485 -0.583650
0.393819 0.697247 -0.585403
0.399882 0.699038 -0.587166
0.405412 0.699935 -0.588194
0.406709 0.693902 -0.583627
0.412702 0.695670 -0.585315
0.419413 0.698600 -0.587917
0.425664 0.700793 -0.589902
0.428789 0.698097 -0.587923
0.431462 0.694825 -0.585452
0.436271 0.694978 -0.585711
0.440045 0.693631 -0.584733
0.444201 0.692969 -0.584277
0.449672 0.694368 -0.585452
0.453965 0.694092 -0.585243
0.459233 0.695340 -0.586234
0.462905 0.694348 -0.585384
0.468201 0.695807 -0.586478
0.478604 0.704615 -0.593466
-0.983868 1.328353 -1.110067
-0.969093 1.318807 -1.102602
-0.960269 1.317608 -1.101890
-0.961430 1.330651 -1.112752
-0.950206 1.326513 -1.109512
-0.925903 1.303729 -1.090965
-0.801994 1.136509 -0.954291
-0.778435 1.112935 -0.934978
-0.759521 1.095905 -0.920965
-0.749182 1.091457 -0.917185
-0.743720 1.094395 -0.919391
-0.736685 1.095126 -0.919746
-0.732938 1.101046 -0.924291
-0.724550 1.099991 -0.923094
-0.717200 1.100644 -0.923250
-0.712174 1.105097 -0.926464
-0.706018 1.107918 -0.928306
-0.696312 1.105101 -0.925520
-0.688921 1.106089 -0.925801
-0.680961 1.106205 -0.925342
-0.672103 1.104850 -0.923661
-0.664302 1.105294 -0.923421
-0.657005 1.106641 -0.923892
-0.649300 1.107320 -0.923802
-0.642018 1.108766 -0.924319
-0.634457 1.109740 -0.924439
-0.626463 1.109935 -0.923917
-0.618653 1.110449 -0.923647
-0.612337 1.113738 -0.925614
-0.603256 1.111836 -0.923380
-0.595595 1.112563 -0.923270
-0.588343 1.114055 -0.923776
-0.581799 1.116932 -0.925399
-0.575087 1.119492 -0.926767
-0.567240 1.119747 -0.926283
-0.559732 1.120638 -0.926317
-0.553400 1.123945 -0.928297
-0.546964 1.127051 -0.930121
-0.539347 1.127618 -0.929915
-0.533776 1.132603 -0.933259
-0.526710 1.134331 -0.933999
-0.518011 1.132334 -0.931766
-0.505108 1.120539 -0.921710
-0.485951 1.093699 -0.899651
-0.477862 1.092124 -0.897817
-0.465551 1.098010 -0.901401
-0.461044 1.105066 -0.906487
-0.455734 1.110241 -0.910081
-0.587668 1.519956 -1.234515
-0.580117 1.526406 -1.238984
-0.580742 1.555512 -1.261471
-0.572890 1.561757 -1.265793
-0.565376 1.569078 -1.270981
-0.557742 1.576202 -1.276026
-0.550101 1.583455 -1.281184
-0.539951 1.583280 -1.280465
-0.527818 1.576862 -1.274817
-0.392309 1.181869 -0.961410
-0.381464 1.170971 -0.952386
-0.373580 1.169245 -0.950640
-0.454753 1.562788 -1.260222
-0.448027 1.573506 -1.268256
-0.446538 1.604151 -1.292035
-0.422889 1.588712 -1.279037
-0.399872 1.614265 -1.298074
-0.391822 1.621849 -1.303702
-0.383149 1.626978 -1.307404
-0.370602 1.614624 -1.297343
-0.361457 1.617437 -1.299245
-0.354769 1.632183 -1.310555
-0.347930 1.646967 -1.321900
-0.337653 1.644952 -1.320028
-0.328862 1.650578 -1.324182
-0.318921 1.650206 -1.323626
-0.307423 1.640939 -1.316082
-0.298774 1.647571 -1.321056
-0.289412 1.650290 -1.322962
-0.280273 1.654522 -1.326066
-0.270117 1.652370 -1.324160
-0.260248 1.651910 -1.323594
-0.249958 1.648358 -1.320608
-0.241643 1.658973 -1.328762
-0.232348 1.662925 -1.331689
-0.222325 1.661298 -1.330241
-0.213000 1.665347 -1.333259
-0.203316 1.666534 -1.334038
-0.194294 1.674021 -1.339772
-0.184079 1.670406 -1.336796
-0.174127 1.669049 -1.335601
-0.163872 1.664015 -1.331528
-0.153840 1.660887 -1.328959
-0.144202 1.662334 -1.329988
-0.134463 1.662529 -1.330043
-0.125025 1.667302 -1.333696
-0.115726 1.675287 -1.339878
-0.105729 1.671863 -1.337113
-0.095777 1.668482 -1.334389
-0.085980 1.667779 -1.333774
-0.076410 1.673090 -1.337884
-0.066497 1.668955 -1.334591
-0.056645 1.665246 -1.331638
-0.046923 1.666188 -1.332341
-0.037277 1.674014 -1.338450
-0.027472 1.671569 -1.336510
-0.017699 1.670662 -1.335782
-0.007930 1.670970 -1.336015
0.001939 1.679994 -1.343090
0.011763 1.680114 -1.343188
0.021726 1.686251 -1.348014
0.031235 1.673884 -1.338331
0.040165 1.648842 -1.318711
0.016942 0.725417 -0.594362
0.021126 0.724186 -0.593417
0.025301 0.723013 -0.592519
0.029249 0.718475 -0.588985
0.032935 0.710894 -0.583065
0.037862 0.720946 -0.590984
0.042523 0.726248 -0.595181
0.046918 0.727748 -0.596397
0.050991 0.725565 -0.594726
0.055188 0.724876 -0.594231
0.059627 0.726545 -0.595591
0.063910 0.726597 -0.595685
0.067914 0.724219 -0.593874
0.072548 0.727183 -0.596262
0.076987 0.728332 -0.597228
0.081284 0.728286 -0.597260
0.085462 0.727367 -0.596610
0.089655 0.726591 -0.596077
0.094773 0.731933 -0.600354
0.098768 0.729727 -0.598705
0.103580 0.732634 -0.601079
0.107743 0.731481 -0.600267
0.111244 0.726602 -0.596529
0.115115 0.724044 -0.594620
0.119620 0.724994 -0.595474
0.124010 0.725256 -0.595792
0.128132 0.724120 -0.595015
0.132416 0.723804 -0.594887
0.136952 0.724658 -0.595686
0.141580 0.725849 -0.596756
0.145867 0.725410 -0.596548
0.150074 0.724608 -0.596060
0.154441 0.724482 -0.596109
0.158507 0.723078 -0.595158
0.163229 0.724345 -0.596317
0.167100 0.722159 -0.594759
0.171697 0.722825 -0.595457
0.175702 0.721189 -0.594345
0.179326 0.718189 -0.592162
0.183854 0.718516 -0.592611
0.188266 0.718378 -0.592699
0.192055 0.716055 -0.591069
0.195970 0.714208 -0.589819
0.199896 0.712426 -0.588628
0.203802 0.710601 -0.587408
0.207524 0.708218 -0.585752
0.212404 0.709474 -0.586984
0.216346 0.707772 -0.585881
0.221323 0.709177 -0.587246
0.226127 0.709968 -0.588134
0.230140 0.708408 -0.587165
0.234201 0.706985 -0.586311
0.238311 0.705694 -0.585569
0.242664 0.705059 -0.585355
0.247992 0.707002 -0.587198
0.253179 0.708452 -0.588659
0.256482 0.704927 -0.586170
0.261712 0.706366 -0.587637
0.265916 0.705137 -0.586990
0.270126 0.703908 -0.586348
0.274341 0.702676 -0.585711
0.279019 0.702533 -0.585950
0.283704 0.702356 -0.586169
0.288128 0.701530 -0.585876
0.291682 0.698704 -0.583990
0.295536 0.696581 -0.582671
0.301317 0.698716 -0.584765
0.305575 0.697435 -0.584130
0.310760 0.698123 -0.585077
0.315247 0.697278 -0.584801
0.319969 0.696900 -0.584903
0.323781 0.694633 -0.583490
0.328933 0.695089 -0.584267
0.332990 0.693321 -0.583256
0.337934 0.693309 -0.583659
0.343561 0.694584 -0.585099
0.347371 0.692338 -0.583699
0.351714 0.691133 -0.583135
0.357039 0.691762 -0.584047
0.361318 0.690451 -0.583386
0.365246 0.688530 -0.582224
0.369811 0.687793 -0.582010
0.375198 0.688524 -0.582975
0.380048 0.688313 -0.583165
0.385445 0.689062 -0.584121
0.389960 0.688318 -0.583851
0.397222 0.692220 -0.587336
0.400640 0.689701 -0.585590
0.404795 0.688488 -0.584883
0.409610 0.688416 -0.585080
0.414172 0.687994 -0.584971
0.420610 0.690608 -0.587305
0.425268 0.690444 -0.587354
0.428833 0.688662 -0.586056
0.432831 0.687655 -0.585362
0.439338 0.690553 -0.587817
0.442604 0.688611 -0.586299
0.445326 0.685985 -0.584192
0.450102 0.686524 -0.584632
0.454700 0.686888 -0.584896
0.459122 0.687086 -0.584993
0.464401 0.688605 -0.586132
0.471096 0.692211 -0.588939
-0.981152 1.321510 -1.114978
-0.967395 1.313286 -1.108560
-0.965045 1.321014 -1.115237
-0.961233 1.327011 -1.120424
-0.949866 1.322595 -1.116954
-0.938295 1.318000 -1.113268
-0.789900 1.115962 -0.946530
-0.775778 1.105971 -0.938263
-0.759760 1.093142 -0.927603
-0.750684 1.090520 -0.925316
-0.738910 1.083927 -0.919702
-0.730893 1.083025 -0.918736
-0.723762 1.083581 -0.918925
-0.719075 1.088047 -0.922292
-0.713350 1.091089 -0.924439
-0.707182 1.093591 -0.926098
-0.700240 1.094994 -0.926811
-0.690468 1.091917 -0.923801
-0.683945 1.094163 -0.925136
-0.676751 1.095404 -0.925613
-0.669241 1.096187 -0.925686
-0.661652 1.096890 -0.925666
-0.653770 1.097130 -0.925244
-0.646384 1.098258 -0.925530
-0.638729 1.098943 -0.925436
-0.631360 1.100153 -0.925757
-0.623742 1.100931 -0.925712
-0.616310 1.102051 -0.925938
-0.607152 1.099957 -0.923531
-0.599968 1.101496 -0.924087
-0.592498 1.102488 -0.924193
-0.585509 1.104393 -0.925041
-0.578737 1.106724 -0.926235
-0.571783 1.108699 -0.927140
-0.565259 1.111538 -0.928749
-0.557450 1.111749 -0.928226
-0.550623 1.113942 -0.929318
-0.544382 1.117366 -0.931414
-0.532782 1.109290 -0.924197
-0.504160 1.080129 -0.899293
-0.496696 1.080150 -0.898689
-0.485334 1.088221 -0.903999
-0.478527 1.089663 -0.904572
-0.595640 1.509235 -1.238593
-0.598379 1.542890 -1.264939
-0.593141 1.556086 -1.274844
-0.584582 1.560502 -1.277709
-0.575949 1.564753 -1.280455
-0.567466 1.569464 -1.283586
-0.559671 1.576231 -1.288377
-0.551239 1.581248 -1.291780
-0.541083 1.581139 -1.291092
-0.529984 1.578012 -1.288007
-0.382645 1.170690 -0.961246
-0.377586 1.178286 -0.966922
-0.475233 1.561066 -1.271820
-0.468460 1.571418 -1.279605
-0.448647 1.606581 -1.306289
-0.440782 1.614390 -1.312082
-0.429555 1.609368 -1.307662
-0.420289 1.611833 -1.309221
-0.409048 1.606229 -1.304368
-0.404437 1.628078 -1.321387
-0.396658 1.637325 -1.328379
-0.386653 1.637121 -1.327860
-0.374618 1.627583 -1.319930
-0.365937 1.633091 -1.323981
-0.356904 1.637128 -1.326872
-0.347523 1.639592 -1.328524
-0.336993 1.636250 -1.325572
-0.327118 1.636055 -1.325134
-0.317692 1.638201 -1.326566
-0.308287 1.640524 -1.328148
-0.297013 1.632043 -1.321162
-0.288189 1.637641 -1.325366
-0.279593 1.644995 -1.330972
-0.270298 1.648294 -1.333368
-0.259135 1.639152 -1.325902
-0.248296 1.631446 -1.319587
-0.237963 1.626703 -1.315632
-0.230315 1.642074 -1.327641
-0.220885 1.644491 -1.329383
-0.211803 1.650015 -1.333596
-0.202252 1.651865 -1.334904
-0.192931 1.656002 -1.338034
-0.183238 1.656851 -1.338565
-0.173990 1.662419 -1.342843
-0.163144 1.650669 -1.333405
-0.152331 1.637555 -1.322896
-0.142529 1.635497 -1.321156
-0.133319 1.641338 -1.325682
-0.124139 1.648607 -1.331347
-0.114725 1.653306 -1.334983
-0.105317 1.659075 -1.339472
-0.095181 1.650895 -1.332919
-0.085162 1.643140 -1.326712
-0.075519 1.643248 -1.326739
-0.066155 1.652573 -1.334074
-0.056378 1.649275 -1.331418
-0.046643 1.646074 -1.328845
-0.037083 1.653779 -1.334918
-0.027400 1.656216 -1.336824
-0.017686 1.655868 -1.336532
-0.008014 1.648303 -1.330533
0.001731 1.655342 -1.336104
0.011565 1.662788 -1.342005
0.021467 1.669331 -1.347198
0.030982 1.659606 -1.339516
0.040199 1.644496 -1.327577
0.049930 1.646491 -1.329189
0.060064 1.656660 -1.337283
0.024795 0.711974 -0.589180
0.028579 0.705672 -0.584215
0.032521 0.702690 -0.581883
0.036958 0.706683 -0.585079
0.041828 0.715391 -0.592014
0.046434 0.719891 -0.595619
0.050553 0.718552 -0.594603
0.054821 0.718855 -0.594891
0.058994 0.718189 -0.594414
0.063075 0.716741 -0.593321
0.067752 0.720508 -0.596365
0.071612 0.717225 -0.593826
0.076490 0.722129 -0.597780
0.080884 0.722973 -0.598520
0.084396 0.717436 -0.594204
0.089249 0.721475 -0.597486
0.093600 0.721865 -0.597879
0.097438 0.718960 -0.595662
0.101815 0.719509 -0.596189
0.106161 0.719805 -0.596521
0.110101 0.717743 -0.594985
0.114476 0.718164 -0.595425
0.118752 0.718000 -0.595405
0.122916 0.717236 -0.594914
0.127216 0.717155 -0.594969
0.131909 0.718949 -0.596521
0.135910 0.717341 -0.595374
0.140259 0.717377 -0.595539
0.144578 0.717243 -0.595574
0.148933 0.717227 -0.595709
0.153253 0.717022 -0.595700
0.157439 0.716236 -0.595234
0.161508 0.714975 -0.594395
0.165559 0.713663 -0.593522
0.170250 0.714815 -0.594617
0.173789 0.711564 -0.592210
0.176852 0.706671 -0.588501
0.181968 0.709294 -0.590787
0.186147 0.708480 -0.590340
0.191032 0.710070 -0.591818
0.193747 0.704267 -0.587404
0.197984 0.703657 -0.587139
0.202053 0.702483 -0.586431
0.206444 0.702322 -0.586538
0.210584 0.701338 -0.585996
0.215233 0.701890 -0.586688
0.219672 0.701742 -0.586830
0.223745 0.700481 -0.586087
0.227153 0.697311 -0.583822
0.232628 0.700015 -0.586270
0.237351 0.700495 -0.586945
0.241658 0.699775 -0.586665
0.245979 0.699063 -0.586401
0.251008 0.700177 -0.587609
0.256063 0.701268 -0.588808
0.258501 0.695640 -0.584614
0.263152 0.695657 -0.584965
0.268363 0.696990 -0.586382
0.273086 0.697050 -0.586784
0.277575 0.696501 -0.586702
0.282233 0.696310 -0.586915
0.286408 0.694965 -0.586204
0.289943 0.692163 -0.584323
0.294157 0.690906 -0.583693
0.298984 0.690983 -0.584147
0.303678 0.690725 -0.584335
0.306585 0.686625 -0.581417
0.313353 0.690694 -0.585119
0.317200 0.688568 -0.583806
0.323884 0.692241 -0.587200
0.327030 0.688672 -0.584719
0.330481 0.685772 -0.582778
0.335148 0.685294 -0.582804
0.339971 0.685101 -0.583062
0.344357 0.684061 -0.582627
0.349740 0.684897 -0.583718
0.354520 0.684582 -0.583866
0.359321 0.684302 -0.584036
0.363711 0.683287 -0.583599
0.367963 0.682052 -0.582970
0.371066 0.678840 -0.580713
0.377321 0.681178 -0.582983
0.383287 0.682980 -0.584804
0.387164 0.681236 -0.583703
0.391857 0.680924 -0.583757
0.397388 0.682038 -0.584962
0.402430 0.682372 -0.585506
0.405335 0.679302 -0.583233
0.409788 0.678822 -0.583060
0.416259 0.681595 -0.585536
0.421777 0.682887 -0.586768
0.425559 0.681544 -0.585805
0.429927 0.681200 -0.585634
0.435766 0.683167 -0.587332
0.441681 0.685293 -0.589131
0.443123 0.680833 -0.585479
0.446175 0.678913 -0.583885
0.450777 0.679377 -0.584220
0.454349 0.678443 -0.583371
0.462197 0.683735 -0.587610
0.463221 0.679361 -0.583867
-0.975612 1.310866 -1.116649
-0.968445 1.311607 -1.117666
-0.960626 1.311647 -1.118035
-0.962192 1.325035 -1.129463
-0.953845 1.324831 -1.129501
-0.942240 1.320164 -1.125752
-0.775294 1.102218 -0.944151
-0.760617 1.091316 -0.935016
-0.749617 1.085792 -0.930312
-0.736556 1.077208 -0.923007
-0.725665 1.071856 -0.918348
-0.718765 1.072615 -0.918731
-0.715057 1.078432 -0.923280
-0.708413 1.079896 -0.924157
-0.700916 1.080144 -0.923979
-0.691812 1.077919 -0.921703
-0.685992 1.081024 -0.923822
-0.679683 1.083473 -0.925358
-0.674119 1.087272 -0.927980
-0.666548 1.087852 -0.927898
-0.658494 1.087663 -0.927151
-0.650974 1.088418 -0.927164
-0.643237 1.088832 -0.926872
-0.635163 1.088673 -0.926087
-0.627470 1.089190 -0.925846
-0.621230 1.092337 -0.927766
-0.612754 1.091457 -0.926346
-0.604631 1.091184 -0.925422
-0.596716 1.091261 -0.924781
-0.588908 1.091506 -0.924275
-0.582309 1.094051 -0.925660
-0.575977 1.097141 -0.927491
-0.569933 1.100836 -0.929816
-0.562345 1.101459 -0.929620
-0.548859 1.089951 -0.919475
-0.533851 1.074867 -0.906420
-0.520078 1.061868 -0.895099
-0.502423 1.072230 -0.901627
-0.500295 1.084166 -0.910741
-0.577878 1.340651 -1.117189
-0.577590 1.362024 -1.133867
-0.571539 1.369773 -1.139457
-0.569752 1.388379 -1.153880
-0.566430 1.403589 -1.165542
-0.603355 1.550419 -1.283331
-0.595154 1.555849 -1.287016
-0.586810 1.560957 -1.290453
-0.578164 1.565287 -1.293275
-0.569273 1.568959 -1.295578
-0.560576 1.573209 -1.298364
-0.552006 1.577873 -1.301500
-0.541528 1.576867 -1.300066
-0.529395 1.570628 -1.294423
-0.385354 1.175218 -0.974058
-0.378822 1.178189 -0.976045
-0.461090 1.574565 -1.293871
-0.453196 1.581524 -1.299007
-0.440963 1.609582 -1.320691
-0.432361 1.614814 -1.324466
-0.419878 1.604747 -1.315949
-0.409789 1.603845 -1.314819
-0.401553 1.610545 -1.319815
-0.397475 1.635358 -1.339375
-0.386002 1.628796 -1.333734
-0.375711 1.627129 -1.332039
-0.366588 1.630715 -1.334576
-0.356748 1.630980 -1.334458
-0.346980 1.631517 -1.334571
-0.336068 1.626172 -1.329976
-0.326337 1.626602 -1.330027
-0.316856 1.628327 -1.331129
-0.307678 1.631775 -1.333622
-0.298300 1.634221 -1.335321
-0.288454 1.633940 -1.334846
-0.279242 1.637504 -1.337461
-0.268949 1.634259 -1.334631
-0.258861 1.632051 -1.332643
-0.247238 1.618799 -1.321820
-0.237439 1.617675 -1.320721
-0.228336 1.621692 -1.323749
-0.218884 1.623210 -1.324784
-0.209048 1.621577 -1.323305
-0.199725 1.624229 -1.325265
-0.190970 1.632419 -1.331665
-0.181824 1.637616 -1.335678
-0.172192 1.638273 -1.336065
-0.162058 1.633304 -1.331959
-0.151144 1.618160 -1.319725
-0.141762 1.620467 -1.321457
-0.132537 1.625276 -1.325199
-0.123150 1.628385 -1.327588
-0.113390 1.625777 -1.325412
-0.104091 1.631118 -1.329602
-0.094581 1.633259 -1.331239
-0.084665 1.626251 -1.325568
-0.074811 1.618586 -1.319380
-0.065487 1.625403 -1.324779
-0.056088 1.632378 -1.330310
-0.046420 1.629090 -1.327643
-0.036908 1.635032 -1.332362
-0.027340 1.642953 -1.338671
-0.017670 1.636995 -1.333892
-0.008073 1.630336 -1.328559
0.001534 1.631735 -1.329676
0.011289 1.640886 -1.336996
0.021063 1.646076 -1.341158
0.030665 1.643136 -1.338827
0.040360 1.643815 -1.339398
0.049836 1.638831 -1.335449
0.059412 1.637226 -1.334208
0.028603 0.703769 -0.588008
0.032657 0.702362 -0.586914
0.036406 0.697124 -0.582760
0.040395 0.695553 -0.581542
0.044937 0.700476 -0.585521
0.049951 0.709793 -0.593018
0.054484 0.713142 -0.595747
0.058669 0.712789 -0.595517
0.062798 0.711933 -0.594890
0.066911 0.710993 -0.594199
0.070840 0.708631 -0.592373
0.075076 0.708824 -0.592597
0.079302 0.708903 -0.592732
0.083664 0.709901 -0.593608
0.087983 0.710494 -0.594164
0.092119 0.709817 -0.593708
0.096468 0.710490 -0.594337
0.101219 0.713527 -0.596865
0.105346 0.712661 -0.596270
0.109386 0.711328 -0.595307
0.113688 0.711473 -0.595533
0.118093 0.712128 -0.596172
0.122142 0.710871 -0.595283
0.125774 0.707579 -0.592768
0.129654 0.705640 -0.591342
0.134917 0.710269 -0.595190
0.139348 0.710802 -0.595758
0.142713 0.706534 -0.592478
0.146660 0.704962 -0.591367
0.152021 0.709390 -0.595082
0.156438 0.709678 -0.595477
0.160176 0.707187 -0.593646
0.163241 0.702143 -0.589766
0.167959 0.703603 -0.591122
0.171910 0.702094 -0.590097
0.175613 0.699699 -0.588364
0.180307 0.700901 -0.589532
0.185327 0.703141 -0.591544
0.189125 0.701069 -0.590091
0.193639 0.701427 -0.590602
0.196777 0.697221 -0.587441
0.200950 0.696453 -0.587057
0.205366 0.696431 -0.587282
0.209291 0.694848 -0.586256
0.213256 0.693397 -0.585342
0.219397 0.698399 -0.589648
0.221725 0.692074 -0.584810
0.225245 0.689334 -0.582875
0.230079 0.690323 -0.583963
0.234559 0.690253 -0.584202
0.239401 0.691108 -0.585199
0.245075 0.694091 -0.587929
0.248842 0.691940 -0.586507
0.252679 0.689989 -0.585252
0.257350 0.690155 -0.585724
0.262347 0.691069 -0.586811
0.266688 0.690301 -0.586540
0.270397 0.687986 -0.585016
0.274091 0.685659 -0.583489
0.278522 0.685067 -0.583378
0.283402 0.685471 -0.584087
0.287641 0.684366 -0.583573
0.292192 0.683939 -0.583615
0.297204 0.684485 -0.584459
0.301451 0.683321 -0.583911
0.305796 0.682355 -0.583529
0.310354 0.681820 -0.583502
0.314442 0.680291 -0.582665
0.318741 0.679198 -0.582184
0.324171 0.680362 -0.583557
0.328597 0.679481 -0.583254
0.333656 0.679827 -0.583957
0.338447 0.679625 -0.584208
0.342762 0.678505 -0.583701
0.347568 0.678316 -0.583957
0.352218 0.677831 -0.583962
0.356940 0.677484 -0.584075
0.362657 0.678925 -0.585653
0.365308 0.674909 -0.582717
0.368689 0.672277 -0.580909
0.373470 0.672140 -0.581149
0.380089 0.675161 -0.583985
0.385230 0.675645 -0.584707
0.389672 0.674988 -0.584467
0.394160 0.674461 -0.584313
0.398285 0.673399 -0.583693
0.402465 0.672502 -0.583186
0.407383 0.672853 -0.583688
0.413950 0.675850 -0.586361
0.419425 0.677152 -0.587599
0.423073 0.675687 -0.586511
0.426632 0.674194 -0.585369
0.432048 0.675612 -0.586613
0.437945 0.677803 -0.588468
0.439605 0.673775 -0.585124
0.444566 0.674750 -0.585903
0.448323 0.674052 -0.585259
0.452979 0.674753 -0.585745
0.455775 0.672887 -0.584065
0.467759 0.684140 -0.593245
-0.983384 1.318463 -1.133515
-0.969888 1.310507 -1.127265
-0.964959 1.314490 -1.130988
-0.962405 1.322054 -1.137660
-0.953719 1.321291 -1.137262
-0.948244 1.325273 -1.140790
-0.775234 1.099120 -0.950564
-0.756468 1.082192 -0.936294
-0.746624 1.078260 -0.932909
-0.734055 1.070320 -0.926100
-0.722252 1.063502 -0.920186
-0.716520 1.065916 -0.921990
-0.711333 1.069334 -0.924590
-0.704402 1.070219 -0.925011
-0.695620 1.068310 -0.923041
-0.686157 1.065366 -0.920161
-0.680713 1.068906 -0.922687
-0.676950 1.075338 -0.927600
-0.670886 1.078194 -0.929475
-0.663892 1.079620 -0.930117
-0.655866 1.079381 -0.929334
-0.648216 1.079811 -0.929087
-0.640180 1.079606 -0.928286
-0.631628 1.078506 -0.926718
-0.624950 1.080713 -0.927896
-0.618246 1.082924 -0.929061
-0.610964 1.084129 -0.929372
-0.602924 1.083944 -0.928515
-0.593794 1.081681 -0.925922
-0.585896 1.081663 -0.925194
-0.579475 1.084448 -0.926795
-0.553640 1.049316 -0.896897
-0.544857 1.046933 -0.894228
-0.536556 1.045395 -0.892264
-0.526268 1.055067 -0.898914
-0.523132 1.064241 -0.905827
-0.605208 1.335111 -1.125827
-0.601227 1.347198 -1.135002
-0.596484 1.357786 -1.142943
-0.587612 1.358783 -1.142997
-0.579481 1.361497 -1.144479
-0.572702 1.367517 -1.148690
-0.570807 1.385847 -1.163015
-0.566099 1.397536 -1.171891
-0.604273 1.547122 -1.293078
-0.596038 1.552502 -1.296743
-0.588220 1.559093 -1.301413
-0.579453 1.563163 -1.304034
-0.570099 1.565599 -1.305334
-0.560987 1.568702 -1.307196
-0.552460 1.573521 -1.310475
-0.540346 1.567664 -1.305053
-0.529292 1.564695 -1.302010
-0.387231 1.177008 -0.984787
-0.379528 1.176310 -0.983793
-0.378053 1.196113 -0.999509
-0.476849 1.555655 -1.291820
-0.465692 1.585330 -1.314950
-0.457157 1.590335 -1.318530
-0.447782 1.592363 -1.319703
-0.437862 1.592318 -1.319205
-0.429148 1.596833 -1.322427
-0.417870 1.591299 -1.317500
-0.409304 1.596410 -1.321233
-0.400525 1.600794 -1.324387
-0.392083 1.606749 -1.328829
-0.384481 1.616620 -1.336456
-0.375776 1.621955 -1.340415
-0.366573 1.625184 -1.342677
-0.356534 1.624507 -1.341786
-0.345433 1.618471 -1.336565
-0.335290 1.616828 -1.334918
-0.324726 1.612787 -1.331342
-0.315147 1.613716 -1.331803
-0.305582 1.614695 -1.332315
-0.296996 1.621319 -1.337407
-0.288080 1.626351 -1.341219
-0.277555 1.621677 -1.337190
-0.268333 1.624966 -1.339612
-0.258279 1.622843 -1.337668
-0.248930 1.625397 -1.339516
-0.238008 1.616604 -1.332200
-0.228165 1.615163 -1.330838
-0.217821 1.609498 -1.326073
-0.208206 1.609307 -1.325741
-0.198938 1.612081 -1.327815
-0.190708 1.624764 -1.337901
-0.181310 1.627326 -1.339819
-0.171384 1.624588 -1.337465
-0.160933 1.615539 -1.330023
-0.150794 1.608849 -1.324495
-0.141514 1.612153 -1.327047
-0.132423 1.618556 -1.332108
-0.122982 1.620710 -1.333746
-0.112553 1.606685 -1.322331
-0.103306 1.611442 -1.326087
-0.093992 1.615903 -1.329611
-0.084361 1.613974 -1.327984
-0.074680 1.609954 -1.324679
-0.065264 1.613046 -1.327120
-0.055830 1.616812 -1.330113
-0.046266 1.615868 -1.329312
-0.036766 1.618969 -1.331783
-0.027267 1.627616 -1.338737
-0.017664 1.632362 -1.342550
-0.008068 1.624979 -1.336583
0.001505 1.623362 -1.335277
0.011095 1.623852 -1.335679
0.020733 1.626142 -1.337540
0.030334 1.626189 -1.337599
0.039989 1.627702 -1.338849
0.049400 1.622714 -1.334860
0.058409 1.610298 -1.324884
0.068580 1.622794 -1.335021
0.029278 0.711996 -0.599989
0.032782 0.701859 -0.591840
0.036413 0.694949 -0.586299
0.040289 0.691989 -0.583948
0.044312 0.691077 -0.583255
0.048299 0.689874 -0.582330
0.053896 0.704917 -0.594528
0.058305 0.707013 -0.596277
0.062696 0.708682 -0.597684
0.066523 0.705365 -0.595068
0.070378 0.702560 -0.592870
0.074483 0.701911 -0.592416
0.078871 0.703384 -0.593682
0.083043 0.703165 -0.593585
0.087260 0.703238 -0.593728
0.091717 0.704840 -0.595111
0.095877 0.704425 -0.594870
0.100193 0.704946 -0.595389
0.104632 0.706114 -0.596437
0.108771 0.705478 -0.596031
0.113071 0.705726 -0.596344
0.117394 0.706040 -0.596717
0.121397 0.704663 -0.595725
0.125224 0.702460 -0.594071
0.129136 0.700752 -0.592821
0.132997 0.698869 -0.591434
0.137410 0.699558 -0.592137
0.141801 0.700075 -0.592707
0.145669 0.698273 -0.591402
0.150332 0.699859 -0.592849
0.154832 0.700652 -0.593662
0.158928 0.699757 -0.593110
0.163198 0.699535 -0.593112
0.166905 0.697138 -0.591353
0.170910 0.695917 -0.590556
0.174892 0.694623 -0.589704
0.178745 0.692882 -0.588496
0.183170 0.693156 -0.588932
0.188658 0.696988 -0.592271
0.192566 0.695355 -0.591171
0.195710 0.691247 -0.588063
0.199895 0.690582 -0.587764
0.204274 0.690502 -0.587949
0.208121 0.688744 -0.586773
0.211974 0.687021 -0.585633
0.216401 0.687009 -0.585896
0.220792 0.686841 -0.586038
0.224876 0.685755 -0.585439
0.229022 0.684830 -0.584980
0.233075 0.683633 -0.584304
0.236553 0.680875 -0.582359
0.241023 0.680786 -0.582605
0.246012 0.681999 -0.583924
0.250865 0.682770 -0.584891
0.256312 0.684955 -0.587026
0.261090 0.685362 -0.587713
0.264981 0.683547 -0.586583
0.269043 0.682147 -0.585799
0.272729 0.679857 -0.584291
0.276903 0.678716 -0.583732
0.281443 0.678398 -0.583857
0.286650 0.679537 -0.585187
0.291095 0.678909 -0.585069
0.295043 0.677171 -0.584040
0.298537 0.674467 -0.582217
0.304322 0.676640 -0.584424
0.308987 0.676375 -0.584622
0.312954 0.674651 -0.583615
0.317115 0.673332 -0.582944
0.322001 0.673459 -0.583471
0.326562 0.672916 -0.583443
0.329296 0.668823 -0.580467
0.335639 0.671712 -0.583284
0.340328 0.671388 -0.583430
0.343595 0.668416 -0.581368
0.347930 0.667471 -0.580984
0.353122 0.668097 -0.581900
0.359229 0.670341 -0.584157
0.362849 0.668148 -0.582704
0.367224 0.667336 -0.582388
0.372218 0.667625 -0.582978
0.376906 0.667410 -0.583131
0.381380 0.666871 -0.582994
0.387039 0.668345 -0.584521
0.391753 0.668275 -0.584737
0.394859 0.665650 -0.582789
0.398098 0.663350 -0.581087
0.403133 0.664001 -0.581831
0.411193 0.669442 -0.586564
0.417509 0.672132 -0.588964
0.419555 0.668288 -0.585854
0.423476 0.667448 -0.585233
0.428748 0.668736 -0.586364
0.433173 0.668823 -0.586456
0.437279 0.668526 -0.586193
0.439992 0.666289 -0.584269
0.447154 0.670626 -0.587826
0.449110 0.667510 -0.585099
0.457065 0.673077 -0.589619
0.452929 0.661590 -0.579811
-0.977715 1.307761 -1.135006
-0.974684 1.314041 -1.140812
-0.970147 1.318533 -1.145039
-0.961372 1.317379 -1.144407
-0.955183 1.320034 -1.146943
-0.949899 1.324211 -1.150705
-0.764528 1.080668 -0.943911
-0.750036 1.069805 -0.934684
-0.740168 1.065686 -0.931135
-0.729769 1.060831 -0.926908
-0.721211 1.058777 -0.925009
-0.712699 1.056873 -0.923189
-0.707059 1.059456 -0.925130
-0.700292 1.060456 -0.925678
-0.692171 1.059456 -0.924482
-0.683295 1.057327 -0.922287
-0.676965 1.059321 -0.923549
-0.672206 1.063989 -0.927037
-0.666976 1.068058 -0.929977
-0.659492 1.068534 -0.929839
-0.652684 1.070208 -0.930685
-0.644660 1.069888 -0.929815
-0.636687 1.069675 -0.929013
-0.628923 1.069842 -0.928511
-0.621115 1.069941 -0.927932
-0.616853 1.076407 -0.932706
-0.609535 1.077481 -0.932915
-0.592566 1.060784 -0.918157
-0.573575 1.039830 -0.899832
-0.561433 1.031234 -0.891915
-0.547576 1.033498 -0.892430
-0.543424 1.040094 -0.897266
-0.543740 1.055779 -0.909709
-0.638024 1.340498 -1.143824
-0.629582 1.342675 -1.144792
-0.621391 1.345381 -1.146211
-0.612577 1.346663 -1.146454
-0.607886 1.357350 -1.154534
-0.599375 1.359365 -1.155406
-0.590740 1.361040 -1.156010
-0.584489 1.368411 -1.161357
-0.577893 1.375073 -1.166123
-0.571818 1.383149 -1.172070
-0.565770 1.391457 -1.178218
-0.570062 1.426601 -1.206597
-0.597507 1.523606 -1.286148
-0.596023 1.546696 -1.304491
-0.588907 1.555187 -1.310764
-0.579104 1.556430 -1.311060
-0.567378 1.552176 -1.306836
-0.557413 1.552696 -1.306574
-0.550502 1.562052 -1.313618
-0.540697 1.563015 -1.313754
-0.527895 1.554785 -1.306333
-0.390302 1.182500 -0.998671
-0.381259 1.177692 -0.994272
-0.375985 1.185029 -0.999878
-0.481251 1.564961 -1.311783
-0.475382 1.578822 -1.322639
-0.466963 1.584215 -1.326545
-0.456795 1.583452 -1.325410
-0.445711 1.579170 -1.321404
-0.435963 1.579614 -1.321293
-0.425212 1.576104 -1.317956
-0.417087 1.582696 -1.322917
-0.407980 1.585540 -1.324818
-0.397836 1.584115 -1.323234
-0.389028 1.588216 -1.326192
-0.377351 1.579872 -1.318971
-0.369753 1.589328 -1.326339
-0.363856 1.607097 -1.340519
