ply
format ascii 1.0
comment ---
element vertex 1702
property float x
property float y
property float z
element face 0
property list uchar uint vertex_indices
end_header
0.348331 0.801677 -0.607986
0.351983 0.797417 -0.606413
0.354944 0.792004 -0.604004
0.361697 0.793154 -0.606342
0.369630 0.796209 -0.610081
0.373379 0.792143 -0.608661
0.377341 0.788465 -0.607523
0.380559 0.783601 -0.605518
0.385861 0.782149 -0.606010
0.391408 0.781059 -0.606779
0.395359 0.777424 -0.605681
0.400276 0.775313 -0.605711
0.407237 0.776327 -0.608063
0.412974 0.775397 -0.608991
0.418663 0.774355 -0.609847
0.424246 0.773113 -0.610567
0.426852 0.767476 -0.608006
0.430755 0.763780 -0.606896
0.437542 0.764235 -0.608915
0.444878 0.765391 -0.611482
0.447882 0.760391 -0.609411
0.453441 0.758974 -0.610058
0.456844 0.754571 -0.608443
0.461728 0.752204 -0.608383
0.468371 0.752175 -0.610124
0.468886 0.743967 -0.605601
0.470976 0.737935 -0.602738
0.479614 0.740442 -0.606467
0.479547 0.731680 -0.601495
0.491415 0.738154 -0.608347
0.502341 0.743236 -0.614167
0.505253 0.738205 -0.612125
0.508300 0.733378 -0.610241
0.514456 0.732349 -0.611347
0.518456 0.728684 -0.610391
0.524574 0.727534 -0.611434
0.531847 0.727690 -0.613533
0.545323 0.734965 -0.621334
0.546718 0.728134 -0.617920
0.546590 0.719640 -0.613162
0.549244 0.714375 -0.610987
0.554567 0.712110 -0.611234
0.557978 0.707709 -0.609767
0.561270 0.703193 -0.608211
0.568472 0.702899 -0.610105
0.572383 0.699025 -0.609095
0.579767 0.698808 -0.611100
0.586881 0.698231 -0.612837
0.590958 0.694450 -0.611952
0.598563 0.694262 -0.614060
0.601913 0.689696 -0.612551
0.608099 0.687973 -0.613426
0.614336 0.686248 -0.614323
0.618675 0.682618 -0.613635
0.621311 0.677329 -0.611554
0.624830 0.672908 -0.610211
0.628665 0.668791 -0.609134
0.635363 0.667353 -0.610358
0.641750 0.665569 -0.611310
0.647262 0.662932 -0.611548
0.647469 0.655454 -0.607603
0.650967 0.650999 -0.606272
0.656507 0.648362 -0.606533
0.659305 0.643289 -0.604669
0.665341 0.641050 -0.605299
0.676996 0.643597 -0.610186
0.673825 0.633416 -0.603796
0.680700 0.631811 -0.605023
0.686337 0.629132 -0.605301
0.694095 0.628177 -0.607139
0.699097 0.624926 -0.606916
0.700329 0.618640 -0.603929
0.704863 0.615049 -0.603372
0.709161 0.611282 -0.602644
0.717085 0.610358 -0.604521
0.727328 0.611184 -0.608023
0.729757 0.605982 -0.605934
0.733972 0.602190 -0.605124
0.740461 0.600130 -0.605911
0.746916 0.598051 -0.606661
0.755412 0.597473 -0.608808
0.761010 0.594785 -0.608935
0.767171 0.592534 -0.609441
0.771972 0.589350 -0.609016
0.780954 0.589151 -0.611419
0.798952 0.595207 -0.619844
0.801766 0.590715 -0.618040
0.808373 0.588898 -0.618775
0.808828 0.582985 -0.615447
0.811711 0.578824 -0.613753
0.821975 0.579642 -0.616894
0.826329 0.576603 -0.616174
0.825333 0.570183 -0.612020
0.837170 0.572163 -0.616143
0.841145 0.569139 -0.615218
0.847134 0.567483 -0.615588
0.857216 0.568462 -0.618542
0.865805 0.568547 -0.620538
-0.314787 1.643343 -0.993630
-0.170431 1.812113 -1.122702
-0.139691 1.750751 -1.090209
-0.098417 0.918070 -0.589954
-0.093448 0.908683 -0.585033
-0.088457 0.902032 -0.581785
-0.083586 0.894426 -0.577942
-0.078691 0.888739 -0.575275
-0.073656 0.886344 -0.574640
-0.068723 0.882794 -0.573292
-0.063663 0.881541 -0.573368
-0.058262 0.884823 -0.576265
-0.053752 0.876965 -0.572247
-0.048450 0.878988 -0.574377
-0.042979 0.882543 -0.577473
-0.038343 0.877321 -0.575100
-0.032880 0.880479 -0.577969
-0.027624 0.881426 -0.579467
-0.022756 0.878938 -0.578818
-0.017959 0.876060 -0.577927
-0.012592 0.877873 -0.579993
-0.007471 0.877657 -0.580791
-0.002352 0.877413 -0.581580
0.002516 0.875408 -0.581262
0.007600 0.874963 -0.581938
0.012851 0.875581 -0.583297
0.017888 0.874788 -0.583768
0.022755 0.872985 -0.583603
0.028178 0.874488 -0.585553
0.033354 0.874466 -0.586539
0.038716 0.875406 -0.588151
0.043558 0.873493 -0.587944
0.048511 0.872216 -0.588151
0.053420 0.870738 -0.588234
0.058498 0.870116 -0.588875
0.063868 0.870850 -0.590399
0.069377 0.872138 -0.592292
0.074538 0.871742 -0.593106
0.079595 0.870860 -0.593612
0.084558 0.869564 -0.593856
0.090032 0.870401 -0.595496
0.095007 0.869114 -0.595761
0.099340 0.865277 -0.594364
0.103801 0.862053 -0.593367
0.109092 0.862065 -0.594497
0.114498 0.862445 -0.595878
0.119162 0.860055 -0.595443
0.124231 0.859146 -0.595990
0.129827 0.860055 -0.597745
0.134683 0.858338 -0.597772
0.139217 0.855546 -0.597090
0.143966 0.853513 -0.596914
0.148892 0.852069 -0.597135
0.153320 0.849045 -0.596306
0.158318 0.847842 -0.596697
0.163796 0.848085 -0.598064
0.168583 0.846192 -0.598005
0.173441 0.844512 -0.598093
0.178060 0.842145 -0.597723
0.181767 0.837208 -0.595617
0.187867 0.839055 -0.598104
0.192130 0.835744 -0.597103
0.195171 0.829186 -0.593893
0.200360 0.828480 -0.594663
0.205996 0.828904 -0.596213
0.210739 0.826964 -0.596156
0.215518 0.825115 -0.596163
0.220546 0.823883 -0.596600
0.227077 0.826308 -0.599563
0.230938 0.822165 -0.598006
0.235293 0.819259 -0.597304
0.239672 0.816439 -0.596662
0.245272 0.816454 -0.597992
0.251690 0.818265 -0.600583
0.256177 0.815646 -0.600096
0.263387 0.819043 -0.603822
0.268539 0.817814 -0.604325
0.273586 0.816336 -0.604658
0.276543 0.810426 -0.601875
0.283099 0.812113 -0.604448
0.285608 0.805385 -0.601082
0.291834 0.806309 -0.603133
0.296482 0.803994 -0.602896
0.301632 0.802673 -0.603369
0.306217 0.800230 -0.603048
0.310367 0.796955 -0.602135
0.314306 0.793308 -0.600955
0.319881 0.792755 -0.602000
0.326046 0.793244 -0.603807
0.332943 0.794995 -0.606539
0.337400 0.792253 -0.606035
0.341657 0.789166 -0.605283
0.346351 0.786862 -0.605103
0.349332 0.781590 -0.602760
0.353778 0.778893 -0.602296
0.359162 0.777786 -0.603002
0.363734 0.775292 -0.602696
0.371314 0.777755 -0.606051
0.372939 0.770401 -0.602171
0.380082 0.772039 -0.604943
0.386016 0.771656 -0.606234
0.389843 0.767910 -0.605033
0.395496 0.767026 -0.605969
0.402104 0.767564 -0.607983
0.407399 0.766036 -0.608464
0.411460 0.762634 -0.607543
0.419621 0.765317 -0.611219
0.421463 0.758625 -0.607826
0.424599 0.753894 -0.605910
0.429333 0.751492 -0.605766
0.435866 0.751626 -0.607564
0.444511 0.754643 -0.611588
0.447980 0.750371 -0.610049
0.453157 0.748463 -0.610330
0.460698 0.749726 -0.613070
0.462653 0.743425 -0.609980
0.464266 0.736746 -0.606587
0.467849 0.732720 -0.605252
0.470622 0.727666 -0.603116
0.474199 0.723682 -0.601816
0.479303 0.721648 -0.602050
0.484837 0.720125 -0.602701
0.494093 0.723169 -0.606978
0.496549 0.717754 -0.604584
0.508977 0.724452 -0.611825
0.511886 0.719538 -0.609856
0.516211 0.716331 -0.609254
0.521528 0.714279 -0.609590
0.525504 0.710643 -0.608664
0.529663 0.707217 -0.607916
0.537659 0.708139 -0.610702
0.543852 0.706939 -0.611796
0.549324 0.704887 -0.612216
0.553560 0.701441 -0.611510
0.557639 0.697818 -0.610669
0.562376 0.694896 -0.610417
0.566066 0.690843 -0.609241
0.569741 0.686777 -0.608062
0.577731 0.687203 -0.610637
0.587005 0.688858 -0.614275
0.591342 0.685365 -0.613631
0.592649 0.678808 -0.610414
0.598354 0.676687 -0.610945
0.609639 0.680025 -0.616136
0.615331 0.677750 -0.616594
0.614828 0.669458 -0.611919
0.619527 0.666219 -0.611568
0.621886 0.660753 -0.609307
0.624968 0.655990 -0.607653
0.629538 0.652616 -0.607210
0.635865 0.650833 -0.608166
0.639786 0.646824 -0.607193
0.645574 0.644485 -0.607695
0.648580 0.639649 -0.606004
0.652950 0.636024 -0.605387
0.658251 0.633198 -0.605487
0.662697 0.629620 -0.604923
0.668455 0.627147 -0.605357
0.673908 0.624393 -0.605545
0.680884 0.622882 -0.606869
0.686512 0.620223 -0.607159
0.690709 0.616388 -0.606373
0.695329 0.612904 -0.605902
0.697752 0.607686 -0.603817
0.699173 0.601729 -0.601020
0.705294 0.599492 -0.601656
0.709437 0.595728 -0.600854
0.725748 0.601243 -0.608763
0.729113 0.596860 -0.607362
0.733236 0.593092 -0.606508
0.739663 0.591064 -0.607279
0.749744 0.591711 -0.610588
0.754656 0.588593 -0.610267
0.759554 0.585509 -0.609937
0.765862 0.583472 -0.610577
0.763912 0.575694 -0.605581
0.772624 0.575450 -0.607866
0.799115 0.587399 -0.622101
0.786909 0.572863 -0.610260
0.793940 0.571551 -0.611365
0.803619 0.572046 -0.614214
0.811016 0.571051 -0.615532
0.815989 0.568520 -0.615254
0.820154 0.565545 -0.614460
0.823535 0.562158 -0.613174
0.832266 0.562271 -0.615351
0.841360 0.562653 -0.617745
0.843741 0.558882 -0.615850
0.856493 0.561647 -0.620547
-0.214198 1.645722 -1.024922
-0.189852 1.732224 -1.082204
-0.089678 0.894376 -0.583002
-0.084731 0.888779 -0.580363
-0.079718 0.885489 -0.579157
-0.074737 0.882229 -0.577971
-0.069972 0.876226 -0.575070
-0.065028 0.873654 -0.574312
-0.060020 0.872251 -0.574291
-0.055206 0.868675 -0.572909
-0.050199 0.867717 -0.573174
-0.044854 0.870478 -0.575789
-0.039409 0.873915 -0.578843
-0.034402 0.872775 -0.579019
-0.029194 0.873555 -0.580417
-0.024159 0.872731 -0.580807
-0.019328 0.870288 -0.580175
-0.014312 0.869476 -0.580585
-0.008864 0.871973 -0.583110
-0.003867 0.870963 -0.583410
0.001116 0.869895 -0.583679
0.006043 0.868504 -0.583749
0.010932 0.866925 -0.583704
0.015979 0.866403 -0.584344
0.021245 0.867196 -0.585837
0.026362 0.867021 -0.586717
0.031592 0.867452 -0.587997
0.036715 0.867228 -0.588864
0.041702 0.866252 -0.589252
0.046580 0.864717 -0.589283
0.051566 0.863763 -0.589699
0.056630 0.863190 -0.590369
0.061953 0.863828 -0.591838
0.067101 0.863568 -0.592729
0.072985 0.866577 -0.595770
0.077679 0.864170 -0.595275
0.081962 0.860068 -0.593670
0.087568 0.861628 -0.595791
0.092172 0.858973 -0.595145
0.096491 0.855254 -0.593799
0.101646 0.854898 -0.594680
0.106886 0.854822 -0.595754
0.112333 0.855461 -0.597312
0.117379 0.854557 -0.597854
0.121859 0.851614 -0.597043
0.124893 0.843682 -0.592900
0.131713 0.848968 -0.597595
0.136614 0.847549 -0.597816
0.141637 0.846525 -0.598307
0.144848 0.839640 -0.594858
0.149804 0.838473 -0.595259
0.155563 0.839787 -0.597343
0.160859 0.839584 -0.598412
0.165162 0.836353 -0.597434
0.170761 0.836989 -0.599087
0.174610 0.832488 -0.597250
0.178488 0.828167 -0.595533
0.183273 0.826463 -0.595604
0.188447 0.825824 -0.596410
0.192295 0.821571 -0.594739
0.196533 0.818434 -0.593836
0.202444 0.819703 -0.595972
0.208002 0.819965 -0.597427
0.212507 0.817501 -0.597001
0.216032 0.812619 -0.594898
0.220043 0.809018 -0.593683
0.223198 0.803407 -0.591064
0.231514 0.810153 -0.597078
0.236036 0.807772 -0.596727
0.240612 0.805525 -0.596472
0.245545 0.804097 -0.596798
0.253055 0.808412 -0.601179
0.257673 0.806170 -0.600949
0.262322 0.804002 -0.600775
0.267490 0.802947 -0.601395
0.272993 0.802570 -0.602505
0.277271 0.799594 -0.601770
0.282165 0.797906 -0.601958
0.285182 0.792404 -0.599417
0.291893 0.794369 -0.602234
0.297144 0.793347 -0.602917
0.302051 0.791624 -0.603102
0.305989 0.788030 -0.601940
0.310714 0.785959 -0.601881
0.316482 0.785833 -0.603241
0.323102 0.787220 -0.605715
0.328322 0.785966 -0.606277
0.330337 0.778922 -0.602608
0.334831 0.776396 -0.602243
0.338881 0.773096 -0.601312
0.344909 0.773243 -0.602923
0.350737 0.772982 -0.604248
0.355829 0.771427 -0.604626
0.360630 0.769364 -0.604633
0.365009 0.766595 -0.604122
0.367161 0.760211 -0.600913
0.373464 0.760590 -0.602760
0.380173 0.761545 -0.605055
0.386014 0.761052 -0.606279
0.391775 0.760386 -0.607385
0.397332 0.759361 -0.608233
0.402322 0.757439 -0.608412
0.406698 0.754580 -0.607887
0.410085 0.750261 -0.606253
0.413377 0.745839 -0.604539
0.418597 0.744241 -0.604991
0.423767 0.742544 -0.605377
0.431628 0.744623 -0.608686
0.436186 0.741976 -0.608368
0.439890 0.738145 -0.607137
0.442917 0.733409 -0.605205
0.452782 0.737943 -0.610505
0.458176 0.736341 -0.611043
0.460627 0.730822 -0.608521
0.464264 0.726905 -0.607255
0.467655 0.722688 -0.605755
0.471172 0.718655 -0.604403
0.476591 0.717043 -0.604977
0.482558 0.716080 -0.606083
0.485777 0.711672 -0.604454
0.487214 0.705113 -0.601102
0.498057 0.709989 -0.606938
0.506060 0.711291 -0.609941
0.510911 0.708766 -0.609877
0.515546 0.705966 -0.609604
0.522105 0.705378 -0.611144
0.524770 0.700270 -0.609013
0.529216 0.697210 -0.608562
0.537165 0.698061 -0.611341
0.544961 0.698644 -0.613932
0.548934 0.694947 -0.613009
0.553484 0.691873 -0.612613
0.558146 0.688904 -0.612317
0.560749 0.683732 -0.610190
0.564759 0.680064 -0.609328
0.568961 0.676591 -0.608639
0.574545 0.674528 -0.609155
0.576560 0.668798 -0.606576
0.582743 0.667296 -0.607598
0.587452 0.664276 -0.607345
0.593307 0.662361 -0.608056
0.603564 0.664683 -0.612446
0.605708 0.659060 -0.610002
0.606076 0.651779 -0.606113
0.615373 0.652978 -0.609613
0.619794 0.649521 -0.609075
0.624780 0.646572 -0.608993
0.628638 0.642570 -0.607995
0.629600 0.635957 -0.604682
0.632413 0.631051 -0.602877
0.635264 0.626200 -0.601117
0.642394 0.625105 -0.602730
0.649604 0.624022 -0.604376
0.653442 0.620000 -0.603380
0.655059 0.614109 -0.600678
0.666914 0.616824 -0.605832
0.668126 0.610606 -0.602824
0.674115 0.608356 -0.603454
0.674495 0.601546 -0.599859
0.688394 0.605634 -0.606378
0.691068 0.600686 -0.604495
0.696224 0.597726 -0.604454
0.706238 0.598536 -0.607959
0.704133 0.589988 -0.602607
0.708691 0.586627 -0.602127
0.718544 0.587267 -0.605449
0.724253 0.584779 -0.605769
0.724011 0.577940 -0.601861
0.731984 0.577187 -0.603786
0.745818 0.580643 -0.609789
0.751313 0.578075 -0.609913
0.751457 0.571779 -0.606331
0.763717 0.574055 -0.611126
0.764758 0.568540 -0.608192
0.770128 0.566098 -0.608237
0.776678 0.564514 -0.609079
0.779266 0.560320 -0.607253
0.792960 0.563602 -0.612870
0.800664 0.562907 -0.614448
0.806476 0.561021 -0.614764
0.813840 0.560205 -0.616101
0.820790 0.559176 -0.617159
0.827961 0.558345 -0.618357
0.835021 0.557503 -0.619477
0.843805 0.557795 -0.621699
0.858422 0.561737 -0.627633
-0.261297 1.662939 -1.037719
-0.233433 1.640234 -1.028786
-0.225504 1.657001 -1.040634
-0.080618 0.884687 -0.584576
-0.075719 0.879865 -0.582390
-0.071072 0.871963 -0.578256
-0.066177 0.868796 -0.577109
-0.061288 0.866002 -0.576199
-0.056538 0.861852 -0.574431
-0.051619 0.860156 -0.574222
-0.046217 0.863849 -0.577448
-0.040879 0.866448 -0.579991
-0.035813 0.866128 -0.580683
-0.030887 0.864543 -0.580573
-0.025567 0.866510 -0.582744
-0.020550 0.865750 -0.583178
-0.015615 0.864381 -0.583227
-0.010507 0.864409 -0.584181
-0.005273 0.865321 -0.585714
-0.000436 0.863350 -0.585396
0.004290 0.860738 -0.584668
0.009179 0.859342 -0.584732
0.014120 0.858329 -0.585049
0.019572 0.860430 -0.587398
0.024821 0.861169 -0.588873
0.029933 0.861038 -0.589792
0.034812 0.859592 -0.589861
0.039590 0.857650 -0.589611
0.044679 0.857377 -0.590459
0.049666 0.856566 -0.590964
0.054318 0.854110 -0.590393
0.059113 0.852414 -0.590327
0.064553 0.853744 -0.592264
0.069899 0.854524 -0.593849
0.075455 0.856135 -0.595996
0.079726 0.852113 -0.594417
0.084543 0.850510 -0.594447
0.089409 0.849125 -0.594627
0.094424 0.848348 -0.595219
0.099468 0.847660 -0.595878
0.104873 0.848319 -0.597447
0.110146 0.848401 -0.598639
0.115304 0.848006 -0.599520
0.119221 0.843137 -0.597396
0.123803 0.840735 -0.596933
0.127064 0.833846 -0.593439
0.132870 0.835720 -0.595875
0.137944 0.835054 -0.596600
0.142665 0.833211 -0.596532
0.147454 0.831598 -0.596624
0.152445 0.830611 -0.597150
0.156948 0.828117 -0.596651
0.161983 0.827243 -0.597266
0.166453 0.824684 -0.596730
0.171675 0.824326 -0.597712
0.176361 0.822398 -0.597619
0.180701 0.819513 -0.596868
0.185216 0.817148 -0.596478
0.189381 0.813858 -0.595450
0.194241 0.812462 -0.595739
0.196748 0.804912 -0.591744
0.202511 0.805904 -0.593703
0.207405 0.804612 -0.594076
0.212579 0.803997 -0.594931
0.216704 0.800776 -0.593960
0.221763 0.799846 -0.594604
0.226683 0.798557 -0.595002
0.232373 0.799046 -0.596664
0.237103 0.797252 -0.596719
0.241825 0.795436 -0.596763
0.247798 0.796408 -0.598798
0.252595 0.794706 -0.598936
0.258289 0.794940 -0.600465
0.261722 0.790268 -0.598487
0.266618 0.788758 -0.598778
0.272000 0.788242 -0.599791
0.275392 0.783598 -0.597831
0.281500 0.784520 -0.599896
0.286502 0.783150 -0.600314
0.293199 0.785098 -0.603150
0.298406 0.784038 -0.603813
0.302830 0.781446 -0.603363
0.306044 0.776576 -0.601249
0.311669 0.776274 -0.602483
0.319445 0.779884 -0.606609
0.321126 0.772257 -0.602467
0.326470 0.771343 -0.603277
0.330560 0.768169 -0.602420
0.335640 0.766749 -0.602868
0.341281 0.766275 -0.604030
0.348034 0.767650 -0.606585
0.353170 0.766206 -0.607047
0.356334 0.761452 -0.605032
0.358268 0.754732 -0.601533
0.363085 0.752797 -0.601635
0.369274 0.753051 -0.603400
0.376519 0.754915 -0.606402
0.377187 0.746364 -0.601505
0.384344 0.748004 -0.604362
0.391615 0.749719 -0.607298
0.396473 0.747681 -0.607380
0.396264 0.738054 -0.601635
0.402036 0.737424 -0.602803
0.408524 0.737792 -0.604757
0.410634 0.731767 -0.601774
0.413572 0.727000 -0.599761
0.421273 0.728994 -0.603017
0.429633 0.731799 -0.606933
0.435294 0.730755 -0.607863
0.439021 0.727030 -0.606701
0.442412 0.722869 -0.605197
0.447405 0.720871 -0.605406
0.451593 0.717788 -0.604765
0.460066 0.720291 -0.608575
0.461933 0.714156 -0.605525
0.467042 0.712219 -0.605828
0.473231 0.711617 -0.607216
0.478364 0.709641 -0.607519
0.478439 0.701401 -0.602773
0.483499 0.699347 -0.603024
0.491521 0.700841 -0.606174
0.496486 0.698581 -0.606294
0.498831 0.693205 -0.603878
0.504928 0.692251 -0.605090
0.509823 0.689854 -0.605135
0.516763 0.689770 -0.607106
0.517231 0.682298 -0.602977
0.526395 0.684630 -0.606993
0.535151 0.686381 -0.610566
0.543652 0.687737 -0.613848
0.543897 0.680052 -0.609565
0.547486 0.676031 -0.608359
0.555063 0.676235 -0.610739
0.560126 0.673721 -0.610842
0.563264 0.669183 -0.609234
0.566504 0.664765 -0.607733
0.571849 0.662490 -0.608079
0.576908 0.659894 -0.608167
0.582600 0.657896 -0.608789
0.586731 0.654325 -0.608064
0.591631 0.651490 -0.607993
0.597557 0.649617 -0.608778
0.601894 0.646188 -0.608218
0.607080 0.643544 -0.608360
0.615435 0.643817 -0.611107
0.620036 0.640546 -0.610733
0.622491 0.635307 -0.608610
0.624066 0.629304 -0.605796
0.628554 0.625939 -0.605349
0.631434 0.621147 -0.603616
0.634178 0.616259 -0.601791
0.639473 0.613593 -0.601988
0.644670 0.610821 -0.602098
0.647882 0.606360 -0.600656
0.656805 0.606680 -0.603632
0.661251 0.603228 -0.603128
0.666392 0.600347 -0.603152
0.671280 0.597256 -0.602976
0.674893 0.593149 -0.601835
0.682041 0.591859 -0.603344
0.687211 0.588995 -0.603357
0.697731 0.590272 -0.607313
0.705056 0.589030 -0.608869
0.707622 0.584171 -0.606932
0.712516 0.581115 -0.606699
0.715733 0.576847 -0.605257
0.720173 0.573535 -0.604704
0.724754 0.570368 -0.604253
0.731226 0.568605 -0.605143
0.742830 0.570509 -0.609626
0.748517 0.568206 -0.609920
0.748358 0.561878 -0.606152
0.754692 0.560152 -0.606910
0.761476 0.558774 -0.607969
0.766470 0.556227 -0.607796
0.775206 0.556250 -0.610166
0.782669 0.555450 -0.611652
0.778263 0.546899 -0.605170
0.794712 0.552101 -0.612666
0.807009 0.554567 -0.617332
0.814836 0.554170 -0.619006
0.823989 0.554661 -0.621536
0.828439 0.552234 -0.620982
0.833909 0.550529 -0.621103
0.828641 0.542272 -0.614308
-0.227147 1.655520 -1.050180
-0.125347 1.780030 -1.145475
-0.076842 0.875209 -0.585354
-0.072096 0.868943 -0.582216
-0.067404 0.862873 -0.579198
-0.062527 0.860142 -0.578313
-0.057761 0.856381 -0.576769
-0.053049 0.852464 -0.575125
-0.047955 0.853142 -0.576436
-0.042383 0.858637 -0.580857
-0.037737 0.854525 -0.579101
-0.032497 0.856271 -0.581129
-0.027021 0.859893 -0.584383
-0.021970 0.859598 -0.585113
-0.017164 0.857355 -0.584588
-0.012419 0.854794 -0.583860
-0.007562 0.853235 -0.583787
-0.002394 0.853955 -0.585206
0.002552 0.853078 -0.585593
0.007483 0.852132 -0.585942
0.012913 0.854352 -0.588372
0.017898 0.853671 -0.588913
0.023086 0.854192 -0.590250
0.028202 0.854222 -0.591276
0.033147 0.853266 -0.591660
0.037910 0.851355 -0.591419
0.042689 0.849585 -0.591277
0.047304 0.847048 -0.590632
0.052101 0.845491 -0.590641
0.057103 0.844943 -0.591328
0.062079 0.844255 -0.591929
0.066941 0.843035 -0.592182
0.072456 0.844697 -0.594371
0.077296 0.843331 -0.594542
0.082412 0.843127 -0.595501
0.087309 0.841987 -0.595839
0.092255 0.841038 -0.596312
0.097567 0.841507 -0.597750
0.102435 0.840205 -0.598000
0.107350 0.839075 -0.598373
0.111990 0.836937 -0.598067
0.116620 0.834795 -0.597763
0.121050 0.831982 -0.597006
0.124989 0.827544 -0.595140
0.130027 0.826917 -0.595881
0.135723 0.828424 -0.598093
0.140801 0.827820 -0.598868
0.145332 0.825447 -0.598433
0.149611 0.822320 -0.597481
0.154426 0.820888 -0.597701
0.159075 0.818949 -0.597576
0.164290 0.818686 -0.598618
0.169412 0.818106 -0.599448
0.174252 0.816686 -0.599702
0.178856 0.814598 -0.599494
0.182515 0.809930 -0.597484
0.186698 0.806772 -0.596530
0.189401 0.799734 -0.592849
0.193307 0.796006 -0.591489
0.198831 0.796496 -0.593103
0.204621 0.797581 -0.595150
0.209280 0.795764 -0.595153
0.214879 0.796245 -0.596793
0.218924 0.792908 -0.595727
0.223679 0.791299 -0.595894
0.228767 0.790458 -0.596615
0.233421 0.788587 -0.596605
0.239246 0.789366 -0.598503
0.243719 0.787046 -0.598183
0.248984 0.786476 -0.599129
0.252877 0.782887 -0.597902
0.257906 0.781773 -0.598466
0.263024 0.780821 -0.599156
0.269024 0.781671 -0.601165
0.271835 0.775898 -0.598355
0.275587 0.772130 -0.597004
0.282152 0.774015 -0.599796
0.287053 0.772519 -0.600121
0.294106 0.775183 -0.603517
0.298766 0.773133 -0.603454
0.303126 0.770510 -0.602971
0.305894 0.764929 -0.600298
0.310329 0.762502 -0.599961
0.315447 0.761321 -0.600558
0.319566 0.758320 -0.599803
0.324824 0.757352 -0.600574
0.332882 0.761247 -0.605006
0.335487 0.755568 -0.602257
0.340482 0.754047 -0.602640
0.343524 0.749215 -0.600524
0.347734 0.746385 -0.599924
0.353171 0.745581 -0.600867
0.357797 0.743419 -0.600787
0.362323 0.741089 -0.600585
0.367734 0.740158 -0.601460
0.375356 0.742648 -0.604977
0.378835 0.738610 -0.603489
0.383423 0.736301 -0.603337
0.387787 0.733646 -0.602923
0.392438 0.731419 -0.602847
0.397114 0.729218 -0.602800
0.400799 0.725560 -0.601622
0.404709 0.722249 -0.600718
0.410245 0.721266 -0.601646
0.416702 0.721541 -0.603579
0.422945 0.721446 -0.605240
0.429377 0.721549 -0.607078
0.429290 0.712708 -0.601827
0.434295 0.710855 -0.602126
0.440695 0.710833 -0.603900
0.445084 0.708099 -0.603520
0.449261 0.705083 -0.602922
0.454670 0.703650 -0.603608
0.458744 0.700482 -0.602906
0.461787 0.696016 -0.601157
0.470539 0.698685 -0.605218
0.475580 0.696656 -0.605480
0.481726 0.695947 -0.606837
0.488248 0.695634 -0.608541
0.491934 0.691876 -0.607428
0.494537 0.686851 -0.605273
0.499531 0.684646 -0.605458
0.504990 0.682952 -0.606082
0.504478 0.674410 -0.601004
0.509835 0.672596 -0.601545
0.512193 0.667399 -0.599259
0.528666 0.677812 -0.610150
0.532090 0.673680 -0.608809
0.531508 0.665232 -0.603805
0.539972 0.666546 -0.607110
0.544639 0.663741 -0.606927
0.550215 0.661865 -0.607557
0.556780 0.660970 -0.609053
0.561926 0.658560 -0.609265
0.566226 0.655263 -0.608724
0.571795 0.653222 -0.609290
0.575364 0.649162 -0.608108
0.576749 0.642966 -0.605054
0.581702 0.640275 -0.605086
0.589772 0.640544 -0.607757
0.594091 0.637166 -0.607220
0.592664 0.628390 -0.601869
0.597443 0.625474 -0.601746
0.601749 0.622103 -0.601225
0.608461 0.620905 -0.602679
0.614602 0.619136 -0.603639
0.623665 0.619917 -0.606945
0.623646 0.612624 -0.602891
0.629344 0.610374 -0.603451
0.634168 0.607344 -0.603303
0.637219 0.602794 -0.601748
0.642988 0.600552 -0.602336
0.646822 0.596676 -0.601402
0.650403 0.592605 -0.600275
0.654538 0.589004 -0.599581
0.663098 0.588976 -0.602267
0.669654 0.587292 -0.603392
0.673442 0.583405 -0.602407
0.674805 0.577657 -0.599610
0.681170 0.575836 -0.600566
0.694506 0.579323 -0.606665
0.702997 0.579039 -0.609119
0.704603 0.573584 -0.606503
0.709665 0.570764 -0.606427
0.713323 0.566950 -0.605333
0.719787 0.565221 -0.606263
0.726630 0.563783 -0.607450
0.730276 0.560098 -0.606352
0.736005 0.557942 -0.606736
0.731026 0.548395 -0.599612
0.735911 0.545821 -0.599442
0.753935 0.552250 -0.608373
0.759829 0.550391 -0.608851
0.766619 0.549186 -0.609939
0.773354 0.547990 -0.610981
0.779418 0.546404 -0.611561
0.787111 0.545936 -0.613235
0.796669 0.546710 -0.616142
0.804705 0.546537 -0.618010
0.795353 0.535419 -0.608364
0.808281 0.538495 -0.613487
0.814050 0.537116 -0.613878
0.856291 0.558279 -0.638002
-0.203477 1.696631 -1.091339
-0.192563 1.653885 -1.066116
-0.073889 0.853834 -0.578381
-0.068942 0.852433 -0.578332
-0.063655 0.855791 -0.581363
-0.059013 0.850574 -0.578856
-0.054249 0.847432 -0.577690
-0.049514 0.844345 -0.576563
-0.044676 0.842651 -0.576342
-0.039601 0.843431 -0.577738
-0.034575 0.843654 -0.578780
-0.029214 0.846780 -0.581727
-0.024188 0.846765 -0.582633
-0.018900 0.848827 -0.584910
-0.014079 0.847100 -0.584711
-0.009273 0.845361 -0.584510
-0.004250 0.845268 -0.585398
0.000904 0.846034 -0.586862
0.006047 0.846629 -0.588223
0.011221 0.847344 -0.589674
0.016198 0.846769 -0.590281
0.020961 0.844926 -0.590053
0.026192 0.845832 -0.591660
0.031218 0.845498 -0.592452
0.036274 0.845307 -0.593347
0.040719 0.841899 -0.592100
0.045470 0.840185 -0.591990
0.050502 0.839903 -0.592846
0.055371 0.838804 -0.593162
0.060096 0.837044 -0.593039
0.065145 0.836787 -0.593936
0.070189 0.836475 -0.594804
0.074998 0.835112 -0.594970
0.079135 0.830945 -0.593239
0.085365 0.835491 -0.597429
0.089813 0.832646 -0.596608
0.094205 0.829655 -0.595689
0.099330 0.829544 -0.596741
0.103726 0.826658 -0.595902
0.108794 0.826297 -0.596797
0.114281 0.827391 -0.598701
0.118932 0.825455 -0.598530
0.122789 0.820817 -0.596500
0.127964 0.820741 -0.597622
0.133481 0.821735 -0.599493
0.137380 0.817405 -0.597682
0.142560 0.817242 -0.598766
0.146088 0.811890 -0.596244
0.151371 0.812035 -0.597554
0.156242 0.810880 -0.597966
0.160959 0.809257 -0.598055
0.165590 0.807384 -0.597975
0.169709 0.804067 -0.596881
0.175933 0.806678 -0.599970
0.180126 0.803570 -0.599034
0.183865 0.799283 -0.597264
0.187114 0.793781 -0.594628
0.191168 0.790502 -0.593567
0.195220 0.787266 -0.592536
0.199054 0.783525 -0.591145
0.207109 0.790337 -0.597307
0.211378 0.787614 -0.596660
0.215947 0.785640 -0.596553
0.220521 0.783680 -0.596461
0.225091 0.781712 -0.596366
0.230680 0.782089 -0.597973
0.233856 0.776928 -0.595575
0.238928 0.776096 -0.596318
0.242524 0.771981 -0.594677
0.247348 0.770591 -0.595023
0.253309 0.771614 -0.597142
0.257968 0.769807 -0.597199
0.262888 0.768533 -0.597653
0.267946 0.767520 -0.598307
0.272604 0.765670 -0.598350
0.276184 0.761662 -0.596800
0.281150 0.760431 -0.597309
0.286447 0.759817 -0.598285
0.293771 0.763041 -0.602133
0.297356 0.759060 -0.600619
0.301780 0.756688 -0.600308
0.305857 0.753682 -0.599525
0.310048 0.750903 -0.598915
0.315403 0.750221 -0.599891
0.320286 0.748664 -0.600215
0.325333 0.747374 -0.600750
0.329499 0.744538 -0.600116
0.334397 0.742959 -0.600445
0.338652 0.740281 -0.599941
0.344552 0.740341 -0.601540
0.349681 0.739076 -0.602136
0.352931 0.734733 -0.600369
0.356589 0.731090 -0.599141
0.364746 0.734595 -0.603451
0.369494 0.732624 -0.603537
0.367749 0.720607 -0.595808
0.375661 0.723557 -0.599733
0.382155 0.724238 -0.601909
0.387225 0.722718 -0.602378
0.391126 0.719448 -0.601479
0.395784 0.717295 -0.601466
0.400496 0.715205 -0.601510
0.405652 0.713732 -0.602055
0.410147 0.711300 -0.601848
0.417380 0.712667 -0.604681
0.422922 0.711613 -0.605603
0.426192 0.707428 -0.604025
0.429720 0.703619 -0.602750
0.433327 0.699934 -0.601579
0.439304 0.699380 -0.602947
0.445224 0.698696 -0.604230
0.450477 0.697103 -0.604790
0.454498 0.693910 -0.604057
0.456039 0.687604 -0.600776
0.461606 0.686369 -0.601660
0.471272 0.690129 -0.606686
0.474067 0.685385 -0.604712
0.477527 0.681472 -0.603430
0.484827 0.682136 -0.605968
0.488658 0.678635 -0.605051
0.492469 0.675112 -0.604125
0.496229 0.671534 -0.603159
0.500802 0.668883 -0.602984
0.504291 0.664993 -0.601772
0.507468 0.660764 -0.600276
0.510221 0.656083 -0.598401
0.515986 0.654708 -0.599357
0.518814 0.650119 -0.597573
0.531432 0.655984 -0.604812
0.535994 0.653152 -0.604586
0.541301 0.651075 -0.605032
0.548588 0.651006 -0.607248
0.552034 0.646937 -0.605993
0.557812 0.645226 -0.606819
0.564251 0.644131 -0.608209
0.569371 0.641671 -0.608417
0.571070 0.635840 -0.605644
0.576662 0.633813 -0.606261
0.583313 0.632757 -0.607768
0.585408 0.627333 -0.605371
0.588733 0.623092 -0.604038
0.591875 0.618691 -0.602561
0.595617 0.614850 -0.601597
0.599836 0.611442 -0.601032
0.603634 0.607650 -0.600121
0.611337 0.607317 -0.602405
0.612804 0.601449 -0.599588
0.622001 0.602327 -0.603034
0.621127 0.594478 -0.598356
0.627475 0.592846 -0.599481
0.631314 0.589072 -0.598599
0.642901 0.591735 -0.603808
0.640419 0.582730 -0.597958
0.646179 0.580542 -0.598569
0.655960 0.581565 -0.602265
0.661179 0.578885 -0.602411
0.663032 0.573562 -0.599987
0.667944 0.570678 -0.599900
0.676135 0.570328 -0.602273
0.685382 0.570745 -0.605398
0.686747 0.565183 -0.602628
0.692431 0.562919 -0.603074
0.699151 0.561436 -0.604269
0.704826 0.559198 -0.604685
0.707501 0.554822 -0.602919
0.717749 0.555929 -0.606624
0.725723 0.555397 -0.608654
0.725821 0.549362 -0.605058
0.728318 0.545111 -0.603200
0.732491 0.542099 -0.602543
0.741936 0.542737 -0.605577
0.753376 0.544720 -0.609963
0.760186 0.543600 -0.611104
0.766204 0.542004 -0.611690
0.771957 0.540292 -0.612093
0.778793 0.539344 -0.613231
0.787505 0.539653 -0.615628
0.790695 0.536480 -0.614297
0.795135 0.534192 -0.613822
0.805866 0.535920 -0.617535
0.809950 0.533541 -0.616827
0.810328 0.528969 -0.613702
-0.258775 1.679779 -1.081262
-0.119237 1.747252 -1.149305
-0.059843 0.850126 -0.584409
-0.055354 0.843570 -0.580994
-0.050600 0.840751 -0.580025
-0.046080 0.835781 -0.577645
-0.041570 0.831238 -0.575544
-0.036572 0.831707 -0.576745
-0.031721 0.830796 -0.577043
-0.025826 0.838767 -0.583220
-0.020948 0.837776 -0.583488
-0.015848 0.838552 -0.584934
-0.011321 0.834995 -0.583513
-0.006041 0.837034 -0.585816
-0.000795 0.838645 -0.587846
0.004388 0.839685 -0.589509
0.009071 0.837446 -0.588991
0.013720 0.835111 -0.588412
0.019015 0.836710 -0.590477
0.024230 0.837708 -0.592151
0.029403 0.838367 -0.593608
0.033184 0.831460 -0.589976
0.037970 0.830157 -0.590121
0.043470 0.832499 -0.592739
0.048737 0.833508 -0.594469
0.053713 0.833025 -0.595197
0.058286 0.830642 -0.594642
0.063207 0.829912 -0.595217
0.068561 0.831075 -0.597092
0.072341 0.825352 -0.594270
0.077045 0.823740 -0.594261
0.082508 0.825258 -0.596405
0.086949 0.822563 -0.595666
0.091873 0.821825 -0.596277
0.096960 0.821692 -0.597314
0.101724 0.820296 -0.597487
0.105828 0.816493 -0.595999
0.111615 0.818825 -0.598768
0.116634 0.818304 -0.599570
0.121457 0.817079 -0.599889
0.126106 0.815261 -0.599801
0.129643 0.809785 -0.597159
0.135123 0.810754 -0.599029
0.139402 0.807817 -0.598167
0.144136 0.806347 -0.598340
0.148730 0.804449 -0.598217
0.153688 0.803654 -0.598878
0.158186 0.801476 -0.598566
0.162886 0.799900 -0.598687
0.167390 0.797765 -0.598414
0.172063 0.796118 -0.598493
0.176713 0.794407 -0.598532
0.180577 0.790572 -0.597056
0.184754 0.787641 -0.596226
0.189234 0.785538 -0.595993
0.193370 0.782561 -0.595134
0.197767 0.780283 -0.594780
0.203494 0.781324 -0.596830
0.208421 0.780319 -0.597410
0.211183 0.774071 -0.594190
0.216801 0.774732 -0.595989
0.219486 0.768465 -0.592747
0.225082 0.769024 -0.594486
0.232102 0.772737 -0.598549
0.236016 0.769347 -0.597419
0.239260 0.764527 -0.595235
0.244701 0.764551 -0.596620
0.249132 0.762358 -0.596376
0.254090 0.761281 -0.596964
0.258882 0.759831 -0.597282
0.261780 0.754484 -0.594706
0.266384 0.752672 -0.594761
0.271736 0.752346 -0.595932
0.276901 0.751601 -0.596800
0.282310 0.751293 -0.598006
0.287535 0.750583 -0.598920
0.292446 0.749243 -0.599369
0.297509 0.748160 -0.600019
0.301484 0.745051 -0.599141
0.305254 0.741589 -0.597995
0.311258 0.742161 -0.599927
0.316004 0.740435 -0.600117
0.319247 0.736071 -0.598292
0.324516 0.735251 -0.599187
0.329352 0.733654 -0.599495
0.333963 0.731660 -0.599504
0.339038 0.730427 -0.600108
0.345645 0.731678 -0.602652
0.349847 0.728942 -0.602112
0.352711 0.724071 -0.599910
0.359090 0.724815 -0.602098
0.361855 0.719835 -0.599812
0.363758 0.713582 -0.596521
0.368806 0.712215 -0.597075
0.374943 0.712460 -0.598914
0.379110 0.709703 -0.598390
0.385587 0.710350 -0.600580
0.391096 0.709511 -0.601605
0.393636 0.704359 -0.599194
0.399747 0.704339 -0.600896
0.404417 0.702230 -0.600936
0.411620 0.703626 -0.603814
0.418607 0.704627 -0.606398
0.421709 0.700267 -0.604656
0.423801 0.694584 -0.601838
0.428178 0.691995 -0.601539
0.433803 0.691035 -0.602583
0.441059 0.692145 -0.605345
0.446260 0.690526 -0.605887
0.446707 0.682844 -0.601431
0.451756 0.681037 -0.601831
0.456470 0.678785 -0.601875
0.462658 0.678320 -0.603424
0.468707 0.677627 -0.604803
0.473143 0.674943 -0.604532
0.478287 0.673085 -0.604968
0.483758 0.671578 -0.605718
0.487701 0.668256 -0.604946
0.492537 0.665958 -0.605056
0.496363 0.662487 -0.604178
0.497749 0.656276 -0.600960
0.499482 0.650510 -0.598117
0.505079 0.649039 -0.598975
0.510347 0.647165 -0.599505
0.515202 0.644810 -0.599636
0.520336 0.642725 -0.600019
0.526337 0.641518 -0.601189
0.530725 0.638579 -0.600860
0.535998 0.636535 -0.601334
0.541777 0.634969 -0.602251
0.546604 0.632398 -0.602297
0.557046 0.635394 -0.607326
0.559994 0.630858 -0.605663
0.561823 0.625246 -0.603034
0.569032 0.624861 -0.605119
0.571485 0.619865 -0.603055
0.577412 0.618172 -0.603996
0.581070 0.614316 -0.602981
0.585905 0.611548 -0.602968
0.589153 0.607309 -0.601613
0.594441 0.604923 -0.601973
0.597372 0.600404 -0.600363
0.605181 0.600212 -0.602789
0.609271 0.596697 -0.602129
0.609297 0.589669 -0.598161
0.613768 0.586519 -0.597831
0.618216 0.583343 -0.597479
0.624348 0.581574 -0.598467
0.627844 0.577594 -0.597345
0.637028 0.578288 -0.600710
0.635873 0.570537 -0.595932
0.646527 0.572345 -0.600391
0.651112 0.569252 -0.600097
0.656248 0.566603 -0.600222
0.659716 0.562669 -0.599066
0.662990 0.558625 -0.597772
0.671185 0.558359 -0.600196
0.680941 0.559232 -0.603754
0.687139 0.557415 -0.604615
0.690234 0.553329 -0.603166
0.693140 0.549167 -0.601591
0.695911 0.544978 -0.599935
0.711367 0.549897 -0.607508
0.718031 0.548511 -0.608642
0.720317 0.544097 -0.606619
0.727105 0.542884 -0.607831
0.733149 0.541194 -0.608501
0.736520 0.537738 -0.607280
0.742256 0.535953 -0.607732
0.753488 0.537876 -0.612012
0.759244 0.536182 -0.612451
0.760947 0.531904 -0.610097
0.764207 0.528743 -0.608841
0.775188 0.530620 -0.612862
0.784199 0.531251 -0.615510
0.791281 0.530697 -0.616836
0.796715 0.529166 -0.617049
0.808455 0.531610 -0.621469
0.810381 0.528033 -0.619347
-0.046154 1.856838 -1.244289
-0.056145 0.843512 -0.586800
-0.051802 0.835908 -0.582651
-0.047141 0.832526 -0.581294
-0.042626 0.828035 -0.579203
-0.038176 0.823383 -0.577002
-0.033474 0.821430 -0.576599
-0.028163 0.824811 -0.579761
-0.022365 0.831799 -0.585351
-0.017555 0.830480 -0.585401
-0.012673 0.829773 -0.585867
-0.008017 0.827468 -0.585267
-0.002771 0.829361 -0.587496
0.002229 0.829444 -0.588519
0.007454 0.830923 -0.590493
0.012332 0.830118 -0.590935
0.017048 0.828369 -0.590746
0.021892 0.827428 -0.591109
0.026369 0.824461 -0.590103
0.031359 0.824398 -0.591077
0.036418 0.824653 -0.592278
0.041437 0.824641 -0.593306
0.046512 0.824860 -0.594502
0.051541 0.824798 -0.595515
0.056372 0.823765 -0.595871
0.061074 0.822154 -0.595836
0.065329 0.818591 -0.594462
0.069839 0.816258 -0.593938
0.074928 0.816424 -0.595147
0.079497 0.814392 -0.594842
0.084514 0.814200 -0.595820
0.088975 0.811782 -0.595258
0.095303 0.816570 -0.599723
0.098640 0.809891 -0.596202
0.103587 0.809348 -0.596966
0.108997 0.810430 -0.598878
0.114857 0.812990 -0.601840
0.119789 0.812198 -0.602462
0.122884 0.805191 -0.598708
0.126060 0.798676 -0.595292
0.131776 0.800579 -0.597828
0.137148 0.801262 -0.599513
0.141828 0.799706 -0.599618
0.146685 0.798690 -0.600114
0.150642 0.794957 -0.598678
0.155769 0.794745 -0.599759
0.160825 0.794278 -0.600667
0.165063 0.791447 -0.599886
0.169100 0.788093 -0.598731
0.173726 0.786416 -0.598784
0.177934 0.783606 -0.598024
0.182130 0.780804 -0.597272
0.186655 0.778893 -0.597168
0.191180 0.776988 -0.597073
0.196345 0.776702 -0.598162
0.201041 0.775203 -0.598374
0.204575 0.770852 -0.596506
0.207672 0.765526 -0.593918
0.212227 0.763764 -0.593943
0.215208 0.758321 -0.591262
0.220648 0.758643 -0.592831
0.228582 0.764547 -0.598543
0.232528 0.761318 -0.597510
0.236183 0.757487 -0.596031
0.241016 0.756263 -0.596493
0.245826 0.754967 -0.596908
0.250072 0.752463 -0.596426
0.254451 0.750250 -0.596164
0.259375 0.749157 -0.596749
0.263478 0.746377 -0.596071
0.268141 0.744734 -0.596253
0.272947 0.743357 -0.596644
0.277935 0.742314 -0.597294
0.281477 0.738476 -0.595827
0.285378 0.735361 -0.594909
0.292473 0.738215 -0.598558
0.296727 0.735718 -0.598128
0.301175 0.733581 -0.597978
0.304975 0.730278 -0.596936
0.308935 0.727288 -0.596136
0.313832 0.725949 -0.596616
0.319393 0.725729 -0.597974
0.324217 0.724203 -0.598329
0.329558 0.723525 -0.599354
0.333586 0.720624 -0.598653
0.337708 0.717893 -0.598087
0.343371 0.717661 -0.599491
0.348197 0.716039 -0.599813
0.354021 0.715971 -0.601374
0.357393 0.712019 -0.599870
0.360361 0.707478 -0.597899
0.365389 0.706122 -0.598463
0.369955 0.704042 -0.598460
0.373735 0.700782 -0.597519
0.378190 0.698527 -0.597389
0.382911 0.696651 -0.597573
0.390769 0.699261 -0.601393
0.394060 0.695264 -0.599887
0.397791 0.691913 -0.598908
0.403944 0.691935 -0.600683
0.410100 0.691897 -0.602428
0.412630 0.686879 -0.600110
0.418711 0.686669 -0.601744
0.423588 0.684802 -0.602031
0.428995 0.683605 -0.602884
0.434232 0.682148 -0.603539
0.438083 0.678882 -0.602701
0.442246 0.676014 -0.602203
0.446677 0.673477 -0.601991
0.452257 0.672351 -0.602977
0.457373 0.670610 -0.603462
0.463085 0.669561 -0.604548
0.467265 0.666627 -0.604054
0.471708 0.663998 -0.603830
0.476280 0.661504 -0.603734
0.480824 0.658959 -0.603607
0.485782 0.656871 -0.603886
0.489572 0.653429 -0.603013
0.491012 0.647353 -0.599866
0.495936 0.645198 -0.600119
0.501488 0.643701 -0.600964
0.506491 0.641566 -0.601271
0.511363 0.639258 -0.601444
0.515998 0.636671 -0.601386
0.520628 0.634057 -0.601320
0.525327 0.631491 -0.601311
0.528301 0.627129 -0.599716
0.531413 0.622923 -0.598264
0.535313 0.619519 -0.597537
0.549334 0.626169 -0.605891
0.547969 0.617466 -0.600418
0.551321 0.613458 -0.599186
0.557150 0.611838 -0.600141
0.563761 0.610916 -0.601757
0.568403 0.608079 -0.601636
0.574317 0.606407 -0.602605
0.578408 0.603013 -0.601996
0.581311 0.598529 -0.600378
0.586183 0.595837 -0.600434
0.596191 0.597700 -0.604784
0.599737 0.593751 -0.603691
0.594875 0.582484 -0.595654
0.601400 0.581202 -0.597066
0.606742 0.578867 -0.597486
0.611481 0.576003 -0.597404
0.617794 0.574444 -0.598582
0.622570 0.571585 -0.598508
0.625174 0.566952 -0.596701
0.629474 0.563726 -0.596249
0.633905 0.560617 -0.595898
0.643336 0.561470 -0.599443
0.649420 0.559639 -0.600343
0.650009 0.553553 -0.596995
0.654134 0.550259 -0.596388
0.659534 0.547960 -0.596752
0.666564 0.546897 -0.598339
0.676490 0.547972 -0.602075
0.680192 0.544439 -0.601117
0.684371 0.541306 -0.600520
0.689224 0.538707 -0.600424
0.691621 0.534406 -0.598527
0.702236 0.535968 -0.602638
0.717915 0.541025 -0.610365
0.718687 0.535710 -0.607270
0.727486 0.535989 -0.609955
0.730768 0.532547 -0.608685
0.736608 0.530902 -0.609241
0.747381 0.532582 -0.613261
0.754106 0.531597 -0.614408
0.754044 0.526240 -0.610828
0.758982 0.524239 -0.610749
0.767397 0.524533 -0.613064
0.775775 0.524837 -0.615335
0.780536 0.522902 -0.615127
0.788208 0.522856 -0.616896
0.792703 0.520892 -0.616518
0.806159 0.524499 -0.622142
-0.197830 1.652544 -1.097346
-0.173495 1.794450 -1.194540
-0.053788 0.822247 -0.579349
-0.048674 0.824320 -0.581621
-0.043606 0.825658 -0.583411
-0.039559 0.817135 -0.578582
-0.035131 0.812883 -0.576620
-0.030521 0.810574 -0.575967
-0.025392 0.812685 -0.578303
-0.019307 0.822048 -0.585556
-0.014277 0.822687 -0.586929
-0.009423 0.821978 -0.587397
-0.004848 0.819366 -0.586578
-0.000062 0.818309 -0.586822
0.005639 0.823144 -0.591091
0.010683 0.823543 -0.592349
0.015312 0.821405 -0.591883
0.019919 0.819237 -0.591401
0.024551 0.817304 -0.591084
0.029528 0.817309 -0.592105
0.034811 0.818873 -0.594210
0.039697 0.818281 -0.594840
0.044116 0.815368 -0.593874
0.048815 0.813911 -0.593920
0.054378 0.816525 -0.596795
0.059165 0.815417 -0.597100
0.063709 0.813238 -0.596667
0.067815 0.809227 -0.594960
0.072158 0.806361 -0.594053
0.077427 0.807388 -0.595874
0.081977 0.805427 -0.595611
0.086463 0.803250 -0.595203
0.090986 0.801264 -0.594932
0.095609 0.799684 -0.594952
0.100671 0.799727 -0.596125
0.105774 0.799863 -0.597374
0.111257 0.801275 -0.599538
0.116423 0.801481 -0.600858
0.119842 0.795729 -0.597948
0.124470 0.794147 -0.598006
0.128946 0.792082 -0.597724
0.133931 0.791653 -0.598618
0.138802 0.790829 -0.599238
0.142774 0.787230 -0.597870
0.147483 0.785919 -0.598150
0.153201 0.787573 -0.600578
0.157715 0.785627 -0.600416
0.162079 0.783264 -0.599956
0.166486 0.781048 -0.599606
0.170987 0.779107 -0.599460
0.175044 0.775976 -0.598449
0.178908 0.772384 -0.597102
0.183247 0.770089 -0.596706
0.187802 0.768369 -0.596735
0.193219 0.768825 -0.598370
0.198277 0.768314 -0.599304
0.201259 0.762687 -0.596465
0.205002 0.759009 -0.595063
0.208196 0.754085 -0.592735
0.212459 0.751752 -0.592329
0.217400 0.750992 -0.593099
0.224251 0.754524 -0.597087
0.229138 0.753512 -0.597693
0.232832 0.749849 -0.596316
0.235524 0.744065 -0.593342
0.241625 0.745670 -0.595933
0.246157 0.743870 -0.595966
0.252046 0.744881 -0.598136
0.256682 0.743241 -0.598307
0.260627 0.740195 -0.597414
0.264899 0.737829 -0.597041
0.269543 0.736198 -0.597234
0.273815 0.733835 -0.596872
0.277004 0.729408 -0.594927
0.281081 0.726716 -0.594316
0.286306 0.726174 -0.595368
0.292870 0.728045 -0.598301
0.297606 0.726499 -0.598601
0.301014 0.722561 -0.597046
0.305078 0.719824 -0.596427
0.310121 0.718804 -0.597155
0.313729 0.715284 -0.595933
0.318204 0.713267 -0.595892
0.322040 0.710169 -0.595005
0.328186 0.710918 -0.597162
0.333424 0.710104 -0.598099
0.338248 0.708582 -0.598484
0.342905 0.706770 -0.598648
0.347777 0.705281 -0.599079
0.352076 0.702877 -0.598786
0.356447 0.700578 -0.598585
0.361140 0.698766 -0.598782
0.366480 0.697908 -0.599759
0.370192 0.694591 -0.598759
0.373523 0.690730 -0.597320
0.379391 0.690580 -0.598904
0.384717 0.689592 -0.599822
0.387870 0.685485 -0.598199
0.392757 0.683840 -0.598599
0.398976 0.684013 -0.600509
0.405474 0.684501 -0.602700
0.408122 0.679702 -0.600533
0.411605 0.676063 -0.599328
0.418782 0.677328 -0.602216
0.421562 0.672748 -0.600242
0.426264 0.670689 -0.600384
0.432886 0.671066 -0.602587
0.437488 0.668811 -0.602594
0.442758 0.667373 -0.603306
0.446996 0.664623 -0.602918
0.451600 0.662310 -0.602915
0.457029 0.660977 -0.603761
0.462509 0.659662 -0.604642
0.466918 0.657038 -0.604415
0.470341 0.653246 -0.603191
0.475160 0.651080 -0.603382
0.479711 0.648580 -0.603298
0.482643 0.644229 -0.601613
0.487310 0.641840 -0.601648
0.491773 0.639202 -0.601479
0.498126 0.638615 -0.603133
0.502190 0.635485 -0.602563
0.505530 0.631572 -0.601308
0.510710 0.629614 -0.601803
0.514785 0.626464 -0.601249
0.518862 0.623305 -0.600698
0.522930 0.620126 -0.600141
0.526474 0.616407 -0.599106
0.528266 0.610932 -0.596481
0.533142 0.608555 -0.596678
0.542278 0.610327 -0.600693
0.545207 0.605960 -0.599107
0.551901 0.605220 -0.600872
0.557240 0.603129 -0.601413
0.559912 0.598501 -0.599608
0.565036 0.596169 -0.599949
0.569144 0.592877 -0.599403
0.574589 0.590791 -0.600000
0.581505 0.589993 -0.601833
0.588520 0.589225 -0.603719
0.587369 0.581221 -0.598715
0.590577 0.577104 -0.597405
0.595084 0.574121 -0.597180
0.600677 0.572056 -0.597845
0.605347 0.569190 -0.597738
0.609436 0.565836 -0.597152
0.617177 0.565496 -0.599515
0.621535 0.562348 -0.599127
0.623217 0.557055 -0.596603
0.630549 0.556321 -0.598578
0.638981 0.556417 -0.601386
0.643088 0.553092 -0.600771
0.644352 0.547603 -0.597949
0.649472 0.545131 -0.598134
0.655682 0.543499 -0.599146
0.657612 0.538675 -0.596877
0.663253 0.536667 -0.597444
0.672648 0.537424 -0.600827
0.674700 0.532837 -0.598669
0.679380 0.530212 -0.598489
0.682780 0.526727 -0.597363
0.688714 0.525088 -0.598110
0.700129 0.527292 -0.602852
0.703252 0.523755 -0.601515
0.707769 0.521248 -0.601201
0.721182 0.524806 -0.607276
0.731952 0.526549 -0.611396
0.739069 0.525866 -0.612878
0.745348 0.524672 -0.613756
0.750466 0.522776 -0.613813
0.754436 0.520208 -0.613074
0.761823 0.519902 -0.614716
0.768610 0.519260 -0.615931
0.770705 0.515726 -0.613922
0.776946 0.514872 -0.614769
0.784212 0.514709 -0.616309
0.783386 0.509640 -0.612382
-0.218305 1.664598 -1.112515
-0.209533 1.671296 -1.118639
0.015010 1.863508 -1.284932
0.029028 1.902709 -1.313304
-0.040861 0.811671 -0.580650
-0.036520 0.806755 -0.578210
-0.031725 0.806197 -0.578735
-0.026795 0.806769 -0.580038
-0.022937 0.798838 -0.575543
-0.017828 0.800961 -0.577918
-0.011793 0.809549 -0.584736
-0.006509 0.812223 -0.587523
-0.001800 0.810822 -0.587524
0.002413 0.806301 -0.585382
0.007987 0.810491 -0.589248
0.013403 0.813407 -0.592253
0.018222 0.812633 -0.592720
0.022866 0.810889 -0.592522
0.027395 0.808590 -0.591945
0.032505 0.809435 -0.593559
0.037007 0.807082 -0.592956
0.041959 0.807048 -0.593976
0.046661 0.805766 -0.594133
0.051360 0.804486 -0.594298
0.057024 0.807634 -0.597577
0.061747 0.806381 -0.597780
0.065860 0.802500 -0.596140
0.070579 0.801321 -0.596406
0.075205 0.799763 -0.596410
0.079660 0.797540 -0.595950
0.084435 0.796622 -0.596419
0.089127 0.795375 -0.596663
0.093617 0.793371 -0.596374
0.098236 0.791876 -0.596452
0.103912 0.794191 -0.599261
0.108619 0.792940 -0.599532
0.113572 0.792537 -0.600419
0.117324 0.788038 -0.598368
0.122351 0.787882 -0.599444
0.126746 0.785628 -0.599016
0.131014 0.783000 -0.598320
0.135695 0.781705 -0.598594
0.140272 0.780082 -0.598635
0.144558 0.777589 -0.598050
0.149539 0.777183 -0.598988
0.153859 0.774818 -0.598505
0.158782 0.774197 -0.599302
0.163466 0.772870 -0.599589
0.167004 0.768389 -0.597563
0.171704 0.767138 -0.597915
0.175908 0.764555 -0.597289
0.180228 0.762304 -0.596911
0.185122 0.761545 -0.597644
0.189625 0.759766 -0.597626
0.193350 0.756054 -0.596174
0.197525 0.753503 -0.595587
0.200927 0.749112 -0.593626
0.205603 0.747823 -0.593987
0.209892 0.745612 -0.593662
0.213224 0.741213 -0.591693
0.218388 0.741037 -0.592908
0.221641 0.736546 -0.590869
0.225461 0.733380 -0.589831
0.231719 0.735528 -0.592832
0.236836 0.735123 -0.593908
0.242325 0.735455 -0.595556
0.245497 0.730916 -0.593490
0.251625 0.732494 -0.596111
0.256283 0.731006 -0.596394
0.260631 0.728885 -0.596194
0.265789 0.728356 -0.597231
0.269346 0.724684 -0.595842
0.273476 0.722150 -0.595337
0.277490 0.719407 -0.594672
0.282441 0.718420 -0.595381
0.287620 0.717822 -0.596403
0.291003 0.713930 -0.594853
0.297575 0.715781 -0.597817
0.301437 0.712745 -0.596951
0.304337 0.708054 -0.594778
0.310987 0.709873 -0.597759
0.314550 0.706345 -0.596515
0.319272 0.704793 -0.596844
0.323782 0.702869 -0.596885
0.328239 0.700846 -0.596855
0.331948 0.697608 -0.595856
0.336875 0.696331 -0.596438
0.341689 0.694848 -0.596865
0.346342 0.693091 -0.597079
0.350617 0.690735 -0.596817
0.357477 0.692305 -0.599757
0.362604 0.691172 -0.600516
0.365892 0.687277 -0.599027
0.369758 0.684260 -0.598259
0.373520 0.681102 -0.597379
0.376674 0.677084 -0.595794
0.382216 0.676477 -0.597033
0.388305 0.676586 -0.598884
0.391912 0.673199 -0.597843
0.396067 0.670572 -0.597442
0.402257 0.670694 -0.599351
0.409274 0.671853 -0.602153
0.412721 0.668203 -0.600931
0.415578 0.663799 -0.599076
0.421339 0.663179 -0.600428
0.428566 0.664378 -0.603347
0.432634 0.661492 -0.602812
0.435263 0.656807 -0.600746
0.443202 0.658713 -0.604338
0.447204 0.655700 -0.603729
0.449025 0.650052 -0.600850
0.450740 0.644331 -0.597903
0.456800 0.643795 -0.599461
0.463993 0.644521 -0.602145
0.468287 0.641813 -0.601853
0.472221 0.638680 -0.601199
0.477023 0.636521 -0.601415
0.482192 0.634745 -0.601985
0.488262 0.633929 -0.603427
0.491635 0.630109 -0.602215
0.496953 0.628397 -0.602896
0.500332 0.624574 -0.601702
0.504499 0.621590 -0.601270
0.509328 0.619284 -0.601464
0.514524 0.617331 -0.601995
0.518857 0.614459 -0.601706
0.522951 0.611329 -0.601195
0.525858 0.607002 -0.599594
0.528741 0.602664 -0.597986
0.534644 0.601299 -0.599133
0.540489 0.599826 -0.600204
0.539475 0.591741 -0.595121
0.549239 0.593958 -0.599671
0.551515 0.589036 -0.597549
0.557779 0.587835 -0.598940
0.561847 0.584572 -0.598395
0.563575 0.579183 -0.595828
0.571753 0.579614 -0.598823
0.573962 0.574672 -0.596682
0.578510 0.571812 -0.596543
0.582788 0.568709 -0.596170
0.588827 0.567113 -0.597267
0.592554 0.563521 -0.596422
0.596663 0.560262 -0.595895
0.598607 0.555213 -0.593593
0.602615 0.551904 -0.592993
