ply
format ascii 1.0
comment ---
element vertex 1649
property float x
property float y
property float z
element face 0
property list uchar uint vertex_indices
end_header
-0.291013 1.337761 -0.579539
-0.287930 1.336077 -0.579752
-0.284204 1.335905 -0.581523
-0.281201 1.334012 -0.581528
-0.279049 1.330193 -0.579536
-0.275801 1.328890 -0.580149
-0.272689 1.327277 -0.580443
-0.268682 1.327587 -0.582758
-0.264952 1.327240 -0.584399
-0.262729 1.323706 -0.582682
-0.260608 1.320020 -0.580791
-0.257467 1.318453 -0.581144
-0.254280 1.316970 -0.581591
-0.251702 1.314286 -0.580752
-0.249075 1.311721 -0.580036
-0.246680 1.308741 -0.578865
-0.244121 1.306102 -0.578055
-0.241152 1.304242 -0.578090
-0.238088 1.302554 -0.578315
-0.235436 1.300127 -0.577729
-0.232517 1.298186 -0.577676
-0.230030 1.295498 -0.576795
-0.227405 1.293071 -0.576199
-0.224213 1.291613 -0.576681
-0.220964 1.290237 -0.577261
-0.219352 1.286174 -0.574819
-0.216674 1.283889 -0.574368
-0.213144 1.282966 -0.575463
-0.210711 1.280300 -0.574579
-0.207990 1.278099 -0.574222
-0.203388 1.278768 -0.577163
-0.201201 1.275744 -0.575865
-0.197306 1.275274 -0.577519
-0.194201 1.273614 -0.577803
-0.191524 1.271330 -0.577360
-0.188587 1.269424 -0.577360
-0.185797 1.267311 -0.577116
-0.182314 1.266158 -0.578010
-0.180893 1.262178 -0.575547
-0.177527 1.260863 -0.576251
-0.174263 1.259396 -0.576780
-0.171673 1.257034 -0.576235
-0.168327 1.255658 -0.576883
-0.165543 1.253549 -0.576646
-0.162752 1.251454 -0.576425
-0.159446 1.249998 -0.576990
-0.156754 1.247777 -0.576618
-0.154186 1.245412 -0.576066
-0.151723 1.242930 -0.575366
-0.147637 1.242371 -0.577067
-0.144756 1.240374 -0.576979
-0.141525 1.238777 -0.577398
-0.138432 1.237011 -0.577610
-0.135734 1.234797 -0.577256
-0.132280 1.233421 -0.577973
-0.130101 1.230636 -0.576889
-0.127256 1.228587 -0.576749
-0.123395 1.227615 -0.578010
-0.120525 1.225576 -0.577893
-0.117968 1.223210 -0.577351
-0.114900 1.221372 -0.577503
-0.111409 1.219954 -0.578219
-0.109188 1.217250 -0.577232
-0.106541 1.214978 -0.576820
-0.104628 1.211995 -0.575450
-0.101292 1.210400 -0.575948
-0.098610 1.208168 -0.575592
-0.096610 1.205297 -0.574366
-0.094122 1.202894 -0.573773
-0.090736 1.201316 -0.574319
-0.087683 1.199421 -0.574437
-0.085125 1.197075 -0.573935
-0.082446 1.194838 -0.573585
-0.079902 1.192480 -0.573070
-0.077498 1.190004 -0.572389
-0.073602 1.188798 -0.573517
-0.069550 1.187694 -0.574813
-0.065462 1.186589 -0.576129
-0.064144 1.183186 -0.574140
-0.061786 1.180648 -0.573398
-0.060369 1.177362 -0.571561
-0.059703 1.173505 -0.568870
-0.058753 1.169903 -0.566537
-0.056408 1.167402 -0.565829
-0.053995 1.164953 -0.565201
-0.052695 1.161669 -0.563318
-0.051144 1.158590 -0.561734
-0.049846 1.155340 -0.559881
-0.045896 1.154020 -0.560987
-0.044639 1.150752 -0.559105
-0.043719 1.147265 -0.556872
-0.044905 1.142339 -0.552370
-0.046743 1.137024 -0.547212
-0.046040 1.133499 -0.544841
-0.045853 1.129652 -0.541941
-0.047608 1.124558 -0.537011
-0.045386 1.122115 -0.536325
-0.041850 1.120512 -0.537014
-0.039018 1.118435 -0.536953
-0.038861 1.114670 -0.534119
-0.037689 1.111561 -0.532354
-0.031284 1.111648 -0.535943
-0.032089 1.107331 -0.532164
-0.031049 1.104149 -0.530281
-0.026960 1.102762 -0.531467
-0.023883 1.100755 -0.531621
-0.020797 1.098732 -0.531771
-0.019885 1.095469 -0.529770
-0.022028 1.090531 -0.524794
-0.022724 1.086441 -0.521273
-0.018890 1.084823 -0.522163
-0.015557 1.082907 -0.522549
-0.031168 1.071071 -0.504833
-0.040599 1.062678 -0.493184
-0.040864 1.059101 -0.490310
-0.043909 1.054162 -0.484854
-0.045398 1.050059 -0.480902
-0.053974 1.042563 -0.470422
-0.051951 1.040282 -0.469818
-0.047697 1.039046 -0.471254
-0.048955 1.035220 -0.467648
-0.048716 1.032120 -0.465430
-0.043358 1.031343 -0.467833
-0.040546 1.029393 -0.467925
-0.037975 1.027327 -0.467793
-0.035656 1.025147 -0.467433
-0.031550 1.023721 -0.468642
-0.029052 1.021604 -0.468427
-0.026160 1.019648 -0.468552
-0.022299 1.018080 -0.469509
-0.020527 1.015672 -0.468659
-0.018839 1.013249 -0.467746
-0.012715 1.012545 -0.470608
-0.010567 1.010309 -0.470083
-0.011531 1.006941 -0.466956
-0.009592 1.004690 -0.466289
-0.008275 1.002243 -0.465119
-0.006309 1.000061 -0.464503
-0.002906 0.998410 -0.465082
0.000750 0.996862 -0.465872
0.005938 0.995847 -0.467907
0.009113 0.994170 -0.468307
0.011261 0.992186 -0.467891
0.018615 0.991910 -0.471658
-0.562394 1.533197 -0.613347
-0.559551 1.538273 -0.619080
-0.556363 1.540404 -0.622519
-0.553013 1.541519 -0.625178
-0.549597 1.542848 -0.628030
-0.546181 1.545456 -0.631927
-0.542646 1.547564 -0.635452
-0.539112 1.551330 -0.640338
-0.535378 1.552881 -0.643467
-0.531497 1.552622 -0.645150
-0.527793 1.558740 -0.652030
-0.523913 1.562921 -0.657375
-0.519898 1.565360 -0.661328
-0.515796 1.566995 -0.664644
-0.511672 1.571394 -0.670256
-0.507450 1.574361 -0.674719
-0.503159 1.577416 -0.679281
-0.498808 1.578575 -0.682291
-0.494425 1.578715 -0.684466
-0.490081 1.574437 -0.682950
-0.485900 1.563808 -0.676084
-0.481598 1.561438 -0.676128
-0.477350 1.557708 -0.675017
-0.473312 1.549310 -0.669933
-0.468852 1.552125 -0.674353
-0.463960 1.562450 -0.685212
-0.458975 1.571987 -0.695461
-0.453699 1.584112 -0.707996
-0.448593 1.591507 -0.716528
-0.444711 1.581341 -0.709913
-0.440812 1.572757 -0.704620
-0.436127 1.574244 -0.708060
-0.430120 1.589555 -0.723599
-0.425273 1.591275 -0.727317
-0.420505 1.591967 -0.730149
-0.415699 1.592835 -0.733149
-0.410804 1.594300 -0.736693
-0.405719 1.597064 -0.741407
-0.401363 1.593917 -0.740879
-0.400434 1.428481 -0.604230
-0.397794 1.421905 -0.600066
-0.395616 1.413176 -0.593901
-0.392504 1.409980 -0.592774
-0.389329 1.407262 -0.592077
-0.386725 1.401803 -0.588837
-0.383848 1.397953 -0.587066
-0.381418 1.392172 -0.583484
-0.378565 1.388608 -0.581946
-0.375659 1.385426 -0.580752
-0.372008 1.385586 -0.582693
-0.367310 1.390082 -0.588739
-0.364072 1.388310 -0.588888
-0.361254 1.384897 -0.587475
-0.358141 1.382748 -0.587258
-0.355034 1.380622 -0.587059
-0.351856 1.378803 -0.587153
-0.348875 1.376308 -0.586594
-0.346115 1.373088 -0.585329
-0.343105 1.370820 -0.584978
-0.339610 1.370226 -0.586254
-0.336380 1.368727 -0.586654
-0.333279 1.366820 -0.586656
-0.330882 1.362720 -0.584498
-0.327822 1.360778 -0.584456
-0.324604 1.359332 -0.584905
-0.321164 1.358543 -0.586010
-0.318040 1.356809 -0.586179
-0.315820 1.352524 -0.583795
-0.312812 1.350535 -0.583700
-0.309620 1.349068 -0.584132
-0.306833 1.346516 -0.583467
-0.303489 1.345461 -0.584320
-0.300613 1.343180 -0.583928
-0.298226 1.339689 -0.582294
-0.295637 1.336767 -0.581233
-0.292952 1.334126 -0.580454
-0.290222 1.331626 -0.579815
-0.287109 1.330058 -0.580141
-0.284103 1.328237 -0.580205
-0.280752 1.327206 -0.581097
-0.278425 1.323866 -0.579570
-0.275455 1.321991 -0.579577
-0.272874 1.319281 -0.578700
-0.269723 1.317816 -0.579140
-0.266123 1.317277 -0.580573
-0.262724 1.316286 -0.581532
-0.259105 1.315714 -0.582950
-0.257410 1.311276 -0.580207
-0.254422 1.309453 -0.580277
-0.251328 1.307836 -0.580571
-0.248559 1.305595 -0.580188
-0.245681 1.303572 -0.580040
-0.242883 1.301407 -0.579737
-0.240451 1.298589 -0.578709
-0.238053 1.295739 -0.577640
-0.235182 1.293750 -0.577522
-0.232381 1.291646 -0.577274
-0.229569 1.289566 -0.577053
-0.226622 1.287721 -0.577095
-0.225280 1.283214 -0.574125
-0.222149 1.281707 -0.574542
-0.218900 1.280378 -0.575167
-0.215709 1.278940 -0.575674
-0.212897 1.276899 -0.575490
-0.210152 1.274757 -0.575191
-0.207077 1.273125 -0.575482
-0.204590 1.270603 -0.574739
-0.202586 1.267385 -0.573175
-0.200311 1.264598 -0.572106
-0.196917 1.263443 -0.572957
-0.192248 1.264076 -0.575937
-0.189553 1.261876 -0.575571
-0.186648 1.259976 -0.575560
-0.182437 1.259851 -0.577684
-0.179397 1.258105 -0.577872
-0.177196 1.255241 -0.576708
-0.174324 1.253279 -0.576634
-0.171106 1.251762 -0.577106
-0.168315 1.249690 -0.576902
-0.164970 1.248316 -0.577559
-0.162407 1.245956 -0.577002
-0.159678 1.243809 -0.576708
-0.157444 1.241067 -0.575669
-0.154352 1.239367 -0.575931
-0.150681 1.238340 -0.577049
-0.147639 1.236557 -0.577221
-0.144819 1.234513 -0.577064
-0.141052 1.233542 -0.578282
-0.138514 1.231169 -0.577711
-0.136928 1.227753 -0.575791
-0.134210 1.225604 -0.575500
-0.130904 1.224090 -0.576039
-0.125290 1.225012 -0.579781
-0.123308 1.222049 -0.578444
-0.120984 1.219462 -0.577595
-0.117908 1.217655 -0.577780
-0.116063 1.214597 -0.576298
-0.111693 1.214078 -0.578220
-0.109766 1.211115 -0.576862
-0.107166 1.208825 -0.576410
-0.104281 1.206811 -0.576335
-0.101272 1.204909 -0.576419
-0.098947 1.202361 -0.575617
-0.097205 1.199280 -0.574076
-0.093208 1.198280 -0.575423
-0.090051 1.196491 -0.575686
-0.087518 1.194135 -0.575160
-0.085976 1.190910 -0.573403
-0.082757 1.189163 -0.573741
-0.079657 1.187301 -0.573924
-0.076602 1.185389 -0.574046
-0.075646 1.181710 -0.571619
-0.068878 1.182865 -0.576213
-0.066381 1.180448 -0.575635
-0.064602 1.177453 -0.574211
-0.062770 1.174514 -0.572862
-0.062047 1.170716 -0.570228
-0.061224 1.167029 -0.567740
-0.059221 1.164278 -0.566643
-0.056527 1.162055 -0.566346
-0.055216 1.158794 -0.564473
-0.052955 1.156251 -0.563692
-0.049224 1.154780 -0.564569
-0.048687 1.150985 -0.561858
-0.047887 1.147408 -0.559468
-0.047362 1.143664 -0.556798
-0.045750 1.140701 -0.555346
-0.042870 1.138615 -0.555288
-0.044561 1.133433 -0.550275
-0.045443 1.128855 -0.546187
-0.046484 1.124224 -0.541974
-0.044652 1.121508 -0.540855
-0.044204 1.117908 -0.538282
-0.043831 1.114286 -0.535653
-0.042296 1.111414 -0.534260
-0.041399 1.108155 -0.532213
-0.038510 1.106120 -0.532234
-0.038062 1.102608 -0.529747
-0.033262 1.101685 -0.531705
-0.027602 1.101214 -0.534497
-0.029842 1.096147 -0.529315
-0.023577 1.095958 -0.532671
-0.019886 1.094261 -0.533423
-0.021738 1.089482 -0.528692
-0.019658 1.086894 -0.527861
-0.016970 1.084625 -0.527620
-0.012485 1.083289 -0.529110
-0.017798 1.076818 -0.521145
-0.029541 1.067160 -0.507117
-0.029929 1.063435 -0.504039
-0.045654 1.052113 -0.486496
-0.044360 1.049387 -0.485136
-0.044044 1.046195 -0.482870
-0.045869 1.042005 -0.478634
-0.051220 1.036215 -0.471186
-0.052479 1.032415 -0.467570
-0.049728 1.030478 -0.467644
-0.044142 1.029796 -0.470278
-0.039911 1.028467 -0.471652
-0.038736 1.025786 -0.470266
-0.038210 1.022841 -0.468312
-0.034983 1.021053 -0.468765
-0.032118 1.019106 -0.468890
-0.030794 1.016528 -0.467661
-0.026438 1.015180 -0.469080
-0.024383 1.012910 -0.468490
-0.022909 1.010428 -0.467407
-0.020478 1.008333 -0.467154
-0.018067 1.006244 -0.466889
-0.014331 1.004659 -0.467749
-0.015890 1.001161 -0.464150
-0.014263 0.998865 -0.463263
-0.010809 0.997242 -0.463910
-0.006511 0.995925 -0.465257
-0.001082 0.994998 -0.467528
0.005201 0.994355 -0.470487
0.008061 0.992580 -0.470639
0.006978 0.989564 -0.467610
0.012740 0.988798 -0.470142
-0.564043 1.535141 -0.619682
-0.560865 1.536060 -0.622158
-0.557639 1.537410 -0.624999
-0.554417 1.539933 -0.628805
-0.551164 1.543358 -0.633365
-0.547677 1.544706 -0.636281
-0.544123 1.546264 -0.639389
-0.540682 1.551387 -0.645416
-0.536971 1.553267 -0.648840
-0.533231 1.556267 -0.653204
-0.529345 1.557672 -0.656287
-0.525551 1.564014 -0.663452
-0.521479 1.564365 -0.665718
-0.517396 1.566470 -0.669448
-0.513240 1.568169 -0.672863
-0.509069 1.574117 -0.679840
-0.504776 1.575722 -0.683227
-0.500433 1.576301 -0.685771
-0.496066 1.575344 -0.687034
-0.491848 1.561950 -0.677796
-0.487562 1.559071 -0.677401
-0.483302 1.555580 -0.676479
-0.479127 1.550096 -0.673846
-0.474917 1.546810 -0.673069
-0.470326 1.552915 -0.680345
-0.465526 1.561484 -0.689787
-0.460365 1.574470 -0.703101
-0.455300 1.583112 -0.712731
-0.450809 1.581495 -0.713493
-0.446242 1.581040 -0.715267
-0.442649 1.568250 -0.706245
-0.437203 1.578829 -0.717690
-0.431297 1.592912 -0.732294
-0.426209 1.596770 -0.737945
-0.421646 1.595029 -0.738659
-0.418034 1.584776 -0.731793
-0.412630 1.590927 -0.739530
-0.407266 1.596063 -0.746403
-0.401621 1.602811 -0.754766
-0.389463 1.586816 -0.747246
-0.393539 1.409567 -0.597023
-0.390562 1.405743 -0.595293
-0.387646 1.401804 -0.593442
-0.384695 1.398226 -0.591912
-0.382347 1.391943 -0.587831
-0.379540 1.388095 -0.586014
-0.376666 1.384710 -0.584620
-0.373879 1.381081 -0.582983
-0.371564 1.375601 -0.579571
-0.368054 1.375275 -0.581058
-0.364850 1.373682 -0.581340
-0.360889 1.375071 -0.584490
-0.357056 1.375844 -0.587066
-0.353992 1.373665 -0.586800
-0.351298 1.370195 -0.585275
-0.348365 1.367675 -0.584666
-0.344568 1.368198 -0.587030
-0.341459 1.366315 -0.587046
-0.338709 1.363271 -0.585917
-0.335727 1.361053 -0.585596
-0.332680 1.359076 -0.585512
-0.329652 1.357067 -0.585395
-0.326517 1.355404 -0.585623
-0.323646 1.352971 -0.585079
-0.321048 1.349781 -0.583768
-0.317916 1.348182 -0.584057
-0.314896 1.346272 -0.584031
-0.311883 1.344361 -0.584004
-0.308768 1.342734 -0.584268
-0.306021 1.340144 -0.583545
-0.303135 1.337951 -0.583225
-0.300643 1.334780 -0.581894
-0.297793 1.332558 -0.581536
-0.294974 1.330281 -0.581119
-0.292733 1.326641 -0.579275
-0.289377 1.325701 -0.580248
-0.286053 1.324659 -0.581122
-0.284753 1.318989 -0.577115
-0.281749 1.317268 -0.577264
-0.278310 1.316503 -0.578432
-0.274908 1.315627 -0.579491
-0.271495 1.314747 -0.580554
-0.268212 1.313565 -0.581302
-0.266401 1.309340 -0.578766
-0.262873 1.308666 -0.580064
-0.259682 1.307287 -0.580606
-0.257001 1.304894 -0.580044
-0.254024 1.303093 -0.580127
-0.250405 1.302511 -0.581555
-0.247519 1.300520 -0.581437
-0.245734 1.296509 -0.579073
-0.243223 1.293879 -0.578233
-0.240314 1.291984 -0.578209
-0.237480 1.289959 -0.578041
-0.234437 1.288302 -0.578287
-0.231548 1.286375 -0.578230
-0.229365 1.283265 -0.576826
-0.227531 1.279612 -0.574792
-0.224442 1.278061 -0.575155
-0.221058 1.276975 -0.576057
-0.218159 1.275098 -0.576052
-0.215266 1.273211 -0.576037
-0.212471 1.271173 -0.575847
-0.209093 1.270025 -0.576699
-0.206324 1.267943 -0.576461
-0.204457 1.264534 -0.574654
-0.201931 1.262127 -0.574021
-0.199221 1.259999 -0.573717
-0.196017 1.258575 -0.574255
-0.192259 1.257914 -0.575716
-0.189159 1.256310 -0.576053
-0.186045 1.254717 -0.576407
-0.182170 1.254135 -0.577999
-0.179154 1.252379 -0.578169
-0.176579 1.250043 -0.577629
-0.174167 1.247505 -0.576838
-0.171688 1.245067 -0.576166
-0.168079 1.244060 -0.577272
-0.166265 1.240805 -0.575577
-0.162356 1.240144 -0.577130
-0.159425 1.238266 -0.577163
-0.156608 1.236251 -0.577025
-0.153388 1.234710 -0.577491
-0.150567 1.232692 -0.577355
-0.148343 1.229992 -0.576341
-0.145958 1.227490 -0.575577
-0.143510 1.225070 -0.574917
-0.140136 1.223679 -0.575596
-0.137122 1.221881 -0.575751
-0.133329 1.220911 -0.577002
-0.130540 1.218851 -0.576824
-0.127635 1.216909 -0.576807
-0.124368 1.215338 -0.577290
-0.122255 1.212576 -0.576180
-0.119059 1.210920 -0.576559
-0.116359 1.208760 -0.576260
-0.113504 1.206751 -0.576171
-0.109788 1.205574 -0.577226
-0.106748 1.203725 -0.577372
-0.104014 1.201577 -0.577110
-0.101854 1.198892 -0.576102
-0.100302 1.195657 -0.574320
-0.097698 1.193407 -0.573911
-0.093577 1.192520 -0.575436
-0.091415 1.189860 -0.574459
-0.088802 1.187605 -0.574058
-0.085675 1.185794 -0.574300
-0.082890 1.183679 -0.574111
-0.081050 1.180760 -0.572759
-0.077800 1.179031 -0.573142
-0.075590 1.176430 -0.572256
-0.072232 1.174770 -0.572759
-0.066947 1.174639 -0.575555
-0.065585 1.171339 -0.573649
-0.064360 1.167954 -0.571601
-0.063650 1.164193 -0.568972
-0.060603 1.162249 -0.569092
-0.058203 1.159805 -0.568457
-0.057564 1.156048 -0.565802
-0.054450 1.154143 -0.566000
-0.051442 1.152145 -0.566069
-0.049391 1.149447 -0.565051
-0.049693 1.145088 -0.561408
-0.049945 1.140810 -0.557861
-0.047684 1.138307 -0.557126
-0.040429 1.139201 -0.561876
-0.051595 1.127631 -0.546468
-0.045276 1.127885 -0.550196
-0.045620 1.123705 -0.546694
-0.045460 1.119890 -0.543765
-0.046627 1.115260 -0.539456
-0.047032 1.111164 -0.535997
-0.046081 1.107946 -0.533995
-0.044916 1.104875 -0.532234
-0.042446 1.102602 -0.531837
-0.036351 1.102479 -0.535172
-0.027558 1.103871 -0.541220
-0.031640 1.097690 -0.534078
-0.027468 1.096319 -0.535364
-0.026875 1.092894 -0.533025
-0.023899 1.090811 -0.533086
-0.022984 1.087579 -0.531087
-0.022069 1.084361 -0.529104
-0.016025 1.083886 -0.532165
-0.014979 1.080722 -0.530305
-0.025120 1.071783 -0.517611
-0.019015 1.071302 -0.520713
-0.013528 1.070446 -0.523176
-0.043559 1.048584 -0.489175
-0.043023 1.045487 -0.487092
-0.045638 1.040919 -0.482079
-0.042406 1.039136 -0.482550
-0.049726 1.032495 -0.473256
-0.049371 1.029449 -0.471115
-0.045714 1.027892 -0.472004
-0.042745 1.026011 -0.472253
-0.041038 1.023574 -0.471351
-0.040891 1.020484 -0.469055
-0.042126 1.016848 -0.465546
-0.036365 1.016129 -0.468278
-0.037067 1.012761 -0.465275
-0.034677 1.010666 -0.465015
-0.028629 1.010006 -0.467944
-0.027687 1.007347 -0.466413
-0.028529 1.004045 -0.463364
-0.024959 1.002436 -0.464130
-0.022059 1.000584 -0.464320
-0.018983 0.998809 -0.464660
-0.014960 0.997382 -0.465801
-0.010281 0.996189 -0.467486
-0.007967 0.994187 -0.467189
-0.005509 0.992265 -0.467024
-0.002254 0.990638 -0.467529
0.003904 0.989981 -0.470423
0.002168 0.986790 -0.466857
-0.012879 0.979482 -0.452534
-0.565991 1.540247 -0.628606
-0.562296 1.535255 -0.626366
-0.559053 1.536194 -0.628900
-0.555625 1.535742 -0.630330
-0.552556 1.541272 -0.636629
-0.549093 1.542667 -0.639605
-0.545524 1.543642 -0.642260
-0.542274 1.551634 -0.650682
-0.538520 1.552521 -0.653321
-0.534713 1.553742 -0.656253
-0.530895 1.556369 -0.660367
-0.527036 1.560158 -0.665472
-0.523052 1.562752 -0.669613
-0.518966 1.564193 -0.672816
-0.514821 1.565651 -0.676052
-0.510655 1.569955 -0.681699
-0.506389 1.572089 -0.685549
-0.502065 1.573480 -0.688791
-0.497689 1.575614 -0.692680
-0.493421 1.563507 -0.684459
-0.489174 1.556951 -0.680922
-0.484949 1.551873 -0.678625
-0.480717 1.548396 -0.677684
-0.476314 1.550454 -0.681508
-0.471732 1.555866 -0.688257
-0.466962 1.563584 -0.697047
-0.461845 1.575792 -0.709804
-0.457115 1.578750 -0.714548
-0.452767 1.575095 -0.713516
-0.448680 1.568260 -0.709671
-0.443807 1.572502 -0.715578
-0.438668 1.579189 -0.723685
-0.432915 1.591698 -0.737016
-0.427909 1.594699 -0.741947
-0.423475 1.591652 -0.741493
-0.419109 1.588228 -0.740692
-0.415140 1.581632 -0.737023
-0.409594 1.588703 -0.745677
-0.402627 1.606210 -0.763848
-0.396893 1.612734 -0.772142
-0.392885 1.606219 -0.768582
-0.389341 1.596998 -0.762514
-0.384090 1.405721 -0.603616
-0.382425 1.395836 -0.596112
-0.380204 1.389064 -0.591516
-0.377410 1.385212 -0.589671
-0.374493 1.382063 -0.588484
-0.372038 1.377064 -0.585511
-0.369572 1.372320 -0.582762
-0.367033 1.368070 -0.580470
-0.364443 1.364180 -0.578510
-0.361052 1.363495 -0.579657
-0.357134 1.364752 -0.582706
-0.353242 1.365799 -0.585571
-0.350351 1.363177 -0.584845
-0.347163 1.361651 -0.585195
-0.343876 1.360472 -0.585890
-0.340793 1.358613 -0.585914
-0.337705 1.356792 -0.585975
-0.334477 1.355435 -0.586501
-0.331546 1.353153 -0.586100
-0.328824 1.350277 -0.585097
-0.325827 1.348277 -0.584974
-0.323248 1.345083 -0.583636
-0.320570 1.342240 -0.582645
-0.317625 1.340197 -0.582467
-0.313996 1.340053 -0.584237
-0.311276 1.337410 -0.583445
-0.308255 1.335602 -0.583510
-0.305550 1.332988 -0.582740
-0.302788 1.330554 -0.582151
-0.300135 1.327882 -0.581309
-0.297631 1.324882 -0.580117
-0.294642 1.323098 -0.580198
-0.291670 1.321277 -0.580240
-0.289210 1.318277 -0.579032
-0.286621 1.315617 -0.578176
-0.283806 1.313495 -0.577891
-0.280976 1.311424 -0.577658
-0.277266 1.311268 -0.579489
-0.274516 1.309018 -0.579068
-0.272020 1.306254 -0.578087
-0.268907 1.304793 -0.578519
-0.266276 1.302347 -0.577877
-0.262387 1.302431 -0.580011
-0.259866 1.299772 -0.579137
-0.257071 1.297669 -0.578872
-0.252906 1.298182 -0.581515
-0.250252 1.295795 -0.580942
-0.248172 1.292368 -0.579199
-0.245503 1.290060 -0.578702
-0.242472 1.288413 -0.578949
-0.239554 1.286561 -0.578966
-0.236433 1.285063 -0.579389
-0.233503 1.283227 -0.579429
-0.231745 1.279419 -0.577205
-0.229322 1.276772 -0.576303
-0.226443 1.274892 -0.576282
-0.223593 1.272965 -0.576209
-0.221255 1.270229 -0.575191
-0.218735 1.267803 -0.574528
-0.214741 1.267663 -0.576554
-0.211703 1.266023 -0.576823
-0.208593 1.264483 -0.577216
-0.206336 1.261674 -0.576100
-0.204248 1.258642 -0.574708
-0.201573 1.256486 -0.574359
-0.198228 1.255286 -0.575164
-0.194656 1.254383 -0.576339
-0.192525 1.251466 -0.575070
-0.190504 1.248428 -0.573643
-0.187502 1.246735 -0.573860
-0.183865 1.245875 -0.575109
-0.180580 1.244527 -0.575766
-0.179183 1.240732 -0.573380
-0.174821 1.240753 -0.575753
-0.172243 1.238486 -0.575272
-0.168892 1.237182 -0.576006
-0.166815 1.234305 -0.574751
-0.164088 1.232235 -0.574517
-0.160617 1.231052 -0.575419
-0.156575 1.230518 -0.577168
-0.153729 1.228560 -0.577096
-0.152227 1.225063 -0.575025
-0.149038 1.223509 -0.575474
-0.145761 1.222040 -0.576042
-0.142594 1.220437 -0.576442
-0.139364 1.218889 -0.576923
-0.135932 1.217545 -0.577683
-0.132604 1.216073 -0.578283
-0.130443 1.213365 -0.577233
-0.127860 1.211107 -0.576784
-0.124751 1.209391 -0.577069
-0.122851 1.206447 -0.575687
-0.119068 1.205394 -0.576888
-0.117052 1.202580 -0.575681
-0.113394 1.201374 -0.576694
-0.110701 1.199221 -0.576403
-0.106513 1.198478 -0.578089
-0.104379 1.195784 -0.577053
-0.103268 1.192160 -0.574697
-0.100713 1.189884 -0.574239
-0.097331 1.188352 -0.574845
-0.094335 1.186458 -0.574948
-0.091609 1.184320 -0.574704
-0.088792 1.182257 -0.574574
-0.087180 1.179159 -0.572939
-0.084337 1.177119 -0.572847
-0.081207 1.175310 -0.573106
-0.078765 1.172923 -0.572516
-0.076382 1.170488 -0.571858
-0.073235 1.168668 -0.572126
-0.068932 1.167747 -0.573769
-0.066376 1.165423 -0.573306
-0.063864 1.163062 -0.572793
-0.060830 1.161098 -0.572894
-0.060109 1.157380 -0.570291
-0.059848 1.153352 -0.567185
-0.056776 1.151423 -0.567346
-0.052761 1.150161 -0.568577
-0.050923 1.147311 -0.567313
-0.050999 1.143120 -0.563901
-0.051815 1.138454 -0.559697
-0.052034 1.134252 -0.556204
-0.056374 1.127298 -0.548190
-0.052107 1.126217 -0.549730
-0.048738 1.124506 -0.550263
-0.047110 1.121635 -0.548892
-0.046906 1.117855 -0.545994
-0.047845 1.113380 -0.541900
-0.047155 1.109973 -0.539583
-0.048248 1.105485 -0.535400
-0.046011 1.103077 -0.534761
-0.042124 1.101653 -0.535845
-0.032344 1.103692 -0.543026
-0.027774 1.102553 -0.544732
-0.026602 1.099410 -0.542922
-0.025589 1.096185 -0.540961
-0.022887 1.093922 -0.540726
-0.025649 1.088621 -0.534981
-0.023781 1.085915 -0.533929
-0.023249 1.082490 -0.531551
-0.021570 1.079691 -0.530325
-0.021743 1.075925 -0.527282
-0.024174 1.071027 -0.522060
-0.019108 1.069993 -0.524170
-0.012912 1.069474 -0.527333
-0.011651 1.066460 -0.525714
-0.024691 1.056522 -0.510468
-0.028347 1.051282 -0.504287
-0.039541 1.042578 -0.491067
-0.039637 1.039200 -0.488391
-0.036907 1.037138 -0.488367
-0.045455 1.030004 -0.477897
-0.048534 1.025434 -0.472575
-0.046738 1.023055 -0.471766
-0.044906 1.020695 -0.470993
-0.045756 1.017212 -0.467799
-0.042611 1.015427 -0.468227
-0.041507 1.012802 -0.466821
-0.041583 1.009723 -0.464380
-0.040424 1.007169 -0.463054
-0.032708 1.007180 -0.467501
-0.030334 1.005096 -0.467232
-0.030535 1.002058 -0.464730
-0.026523 1.000621 -0.465895
-0.023041 0.998989 -0.466595
-0.020428 0.997054 -0.466550
-0.014738 0.996219 -0.469124
-0.011322 0.994585 -0.469756
-0.010984 0.991922 -0.467804
-0.010424 0.989386 -0.466069
-0.010255 0.986774 -0.464037
-0.009298 0.984474 -0.462691
-0.003938 0.983624 -0.464992
0.014061 0.986738 -0.477626
-0.566746 1.532108 -0.626922
-0.563808 1.535356 -0.631326
-0.560674 1.537473 -0.634844
-0.557346 1.538281 -0.637319
-0.553930 1.538952 -0.639703
-0.550483 1.540264 -0.642631
-0.547091 1.543694 -0.647326
-0.543760 1.549887 -0.654336
-0.539993 1.550213 -0.656528
-0.536236 1.552074 -0.660012
-0.532462 1.555321 -0.664674
-0.528553 1.557314 -0.668317
-0.524575 1.559352 -0.672019
-0.520538 1.561849 -0.676129
-0.516428 1.564239 -0.680174
-0.512257 1.567184 -0.684712
-0.508011 1.569566 -0.688798
-0.503713 1.575475 -0.695916
-0.499332 1.575444 -0.697990
-0.494979 1.569149 -0.694691
-0.490753 1.557579 -0.686818
-0.486519 1.551865 -0.683952
-0.482189 1.551440 -0.685650
-0.477838 1.551211 -0.687525
-0.473303 1.555360 -0.693230
-0.468566 1.562516 -0.701602
-0.463628 1.571635 -0.711748
-0.459070 1.571925 -0.714168
-0.454399 1.573730 -0.717938
-0.450162 1.568790 -0.715739
-0.445461 1.570649 -0.719575
-0.440280 1.577992 -0.728333
-0.434577 1.590129 -0.741442
-0.429819 1.590514 -0.744059
-0.425223 1.589131 -0.745091
-0.420659 1.587510 -0.745909
-0.416344 1.583782 -0.744813
-0.410283 1.595062 -0.757386
-0.403907 1.607663 -0.771247
-0.398483 1.611729 -0.777362
-0.393486 1.612242 -0.780242
-0.390396 1.599374 -0.770772
-0.384800 1.604207 -0.777645
-0.379451 1.606996 -0.782657
-0.373782 1.611460 -0.789262
-0.380983 1.389565 -0.596619
-0.378174 1.385683 -0.594734
-0.375714 1.380428 -0.591509
-0.372785 1.377416 -0.590432
-0.370183 1.373155 -0.588133
-0.367696 1.368593 -0.585524
-0.365341 1.363690 -0.582561
-0.362709 1.360048 -0.580815
-0.359899 1.357197 -0.579835
-0.356983 1.354816 -0.579312
-0.353708 1.353772 -0.580111
-0.349064 1.357495 -0.585664
-0.346429 1.354143 -0.584183
-0.343415 1.352147 -0.584052
-0.340231 1.350735 -0.584507
-0.336533 1.350962 -0.586620
-0.334499 1.345938 -0.583425
-0.331153 1.345067 -0.584432
-0.328716 1.341459 -0.582651
-0.325568 1.340022 -0.583082
-0.322564 1.338169 -0.583088
-0.319464 1.336602 -0.583390
-0.316449 1.334803 -0.583452
-0.313773 1.332102 -0.582579
-0.310623 1.330699 -0.583053
-0.307438 1.329382 -0.583620
-0.304652 1.327038 -0.583113
-0.302026 1.324323 -0.582211
-0.299331 1.321818 -0.581524
-0.296469 1.319749 -0.581296
-0.293695 1.317485 -0.580860
-0.291133 1.314751 -0.579917
-0.288421 1.312396 -0.579374
-0.285910 1.309616 -0.578369
-0.283241 1.307220 -0.577774
-0.281119 1.303664 -0.575912
-0.277364 1.303650 -0.577904
-0.274696 1.301303 -0.577355
-0.271872 1.299296 -0.577176
-0.267584 1.300270 -0.580289
-0.266499 1.294763 -0.576241
-0.263365 1.293399 -0.576774
-0.259361 1.293705 -0.579179
-0.256687 1.291416 -0.578691
-0.253253 1.290564 -0.579820
-0.251285 1.286983 -0.577871
-0.247686 1.286416 -0.579331
-0.245163 1.283888 -0.578568
-0.242463 1.281693 -0.578179
-0.238578 1.281564 -0.580165
-0.235615 1.279809 -0.580291
-0.233435 1.276734 -0.578889
-0.231276 1.273662 -0.577479
-0.228447 1.271718 -0.577377
-0.225851 1.269403 -0.576841
-0.224284 1.265468 -0.574392
-0.221362 1.263711 -0.574501
-0.218122 1.262444 -0.575194
-0.213877 1.262685 -0.577696
-0.210989 1.260833 -0.577711
-0.209405 1.257054 -0.575406
-0.206564 1.255160 -0.575363
-0.204201 1.252578 -0.574485
-0.201782 1.250095 -0.573723
-0.197782 1.249836 -0.575680
-0.195597 1.247031 -0.574523
-0.192627 1.245319 -0.574707
-0.189785 1.243427 -0.574673
-0.186904 1.241588 -0.574706
-0.184040 1.239724 -0.574709
-0.181377 1.237598 -0.574385
-0.178653 1.235556 -0.574167
-0.175152 1.234489 -0.575187
-0.172052 1.232903 -0.575556
-0.168417 1.231960 -0.576755
-0.166218 1.229260 -0.575705
-0.162835 1.227987 -0.576495
-0.160088 1.225948 -0.576299
-0.157401 1.223840 -0.576014
-0.153634 1.222971 -0.577354
-0.152245 1.219388 -0.575133
-0.149519 1.217335 -0.574921
-0.144754 1.217522 -0.577692
-0.142015 1.215455 -0.577477
-0.139366 1.213292 -0.577136
-0.136350 1.211519 -0.577322
-0.133501 1.209563 -0.577267
-0.130536 1.207724 -0.577373
-0.128770 1.204659 -0.575804
-0.126410 1.202214 -0.575078
-0.122851 1.200966 -0.576008
-0.120624 1.198393 -0.575108
-0.117317 1.196873 -0.575678
-0.113783 1.195555 -0.576543
-0.110985 1.193521 -0.576411
-0.108553 1.191144 -0.575794
-0.106094 1.188795 -0.575219
-0.103400 1.186663 -0.574955
-0.101248 1.184043 -0.573991
-0.098775 1.181716 -0.573448
-0.094248 1.181186 -0.575532
-0.091936 1.178701 -0.574776
-0.089711 1.176148 -0.573918
-0.086977 1.174027 -0.573702
-0.084564 1.171636 -0.573088
-0.081648 1.169659 -0.573098
-0.078470 1.167884 -0.573423
-0.075564 1.165877 -0.573409
-0.073562 1.163146 -0.572299
-0.069757 1.161829 -0.573360
-0.065096 1.161141 -0.575421
-0.063245 1.158276 -0.574126
-0.061964 1.154991 -0.572172
-0.060866 1.151592 -0.570025
-0.058848 1.148889 -0.568967
-0.055185 1.147375 -0.569810
-0.054251 1.143893 -0.567514
-0.054059 1.139913 -0.564398
-0.053847 1.135983 -0.561337
-0.054462 1.131522 -0.557382
-0.053580 1.128122 -0.555138
-0.051565 1.125499 -0.554170
-0.049901 1.122644 -0.552821
-0.048930 1.119347 -0.550724
-0.049127 1.115319 -0.547376
-0.048330 1.111956 -0.545134
-0.046838 1.109046 -0.543658
-0.043388 1.107348 -0.544279
-0.039998 1.105588 -0.544821
-0.037966 1.102988 -0.543915
-0.033427 1.101867 -0.545635
-0.029191 1.100525 -0.547010
-0.026717 1.098132 -0.546537
-0.025789 1.094853 -0.544470
-0.025398 1.091288 -0.541872
-0.024146 1.088218 -0.540167
-0.025869 1.083543 -0.535474
-0.024547 1.080549 -0.533878
-0.023472 1.077433 -0.532046
-0.022875 1.074078 -0.529751
-0.022143 1.070810 -0.527607
-0.018046 1.069255 -0.528770
-0.014576 1.067353 -0.529299
-0.011312 1.065325 -0.529611
-0.013169 1.060807 -0.524989
-0.016029 1.055868 -0.519455
-0.017583 1.051608 -0.515216
-0.036589 1.039367 -0.494548
-0.036466 1.036093 -0.492061
-0.036887 1.032602 -0.489088
-0.036811 1.029365 -0.486602
-0.039136 1.025119 -0.481926
-0.048239 1.018054 -0.471087
-0.047444 1.015285 -0.469384
-0.045987 1.012810 -0.468296
-0.043837 1.010630 -0.467840
-0.044024 1.007526 -0.465294
-0.041505 1.005521 -0.465183
-0.036736 1.004388 -0.467062
-0.032626 1.002985 -0.468339
-0.028413 1.001612 -0.469693
-0.024125 1.000259 -0.471100
-0.025787 0.996758 -0.467345
-0.021947 0.995275 -0.468371
-0.018429 0.993685 -0.469115
-0.016672 0.991504 -0.468359
-0.016381 0.988865 -0.466380
-0.016706 0.986074 -0.463913
-0.016026 0.983672 -0.462324
-0.013791 0.981822 -0.462059
-0.007746 0.981210 -0.464967
-0.000348 0.981019 -0.468976
-0.568104 1.530689 -0.630633
-0.565458 1.536922 -0.637514
-0.562276 1.538393 -0.640539
-0.558885 1.538324 -0.642319
-0.555447 1.538555 -0.644362
-0.552078 1.540791 -0.648082
-0.548884 1.547065 -0.655182
-0.545098 1.545658 -0.655928
-0.541592 1.550212 -0.661664
-0.537809 1.551340 -0.664563
-0.533992 1.553295 -0.668177
-0.530249 1.559052 -0.675022
-0.526245 1.560437 -0.678208
-0.522156 1.561025 -0.680735
-0.518049 1.563171 -0.684604
-0.513915 1.567638 -0.690479
-0.509690 1.571961 -0.696266
-0.505370 1.574468 -0.700523
-0.500990 1.575147 -0.703225
-0.496586 1.573737 -0.704129
-0.492261 1.565300 -0.698925
-0.488064 1.554074 -0.691249
-0.483761 1.551670 -0.691236
-0.479456 1.549599 -0.691510
-0.475194 1.546541 -0.690911
-0.470254 1.559819 -0.704738
-0.465422 1.567268 -0.713483
-0.460834 1.568383 -0.716644
-0.456131 1.570924 -0.721094
-0.451673 1.569182 -0.721731
-0.447169 1.568202 -0.723052
-0.441673 1.579715 -0.735637
-0.436679 1.583577 -0.741379
-0.431841 1.585128 -0.745057
-0.426917 1.587240 -0.749265
-0.422075 1.588232 -0.752472
-0.416998 1.591146 -0.757457
-0.411567 1.596692 -0.764890
-0.406202 1.601062 -0.771282
-0.401122 1.602723 -0.775205
-0.396462 1.601054 -0.776057
-0.390065 1.611691 -0.788376
-0.385213 1.610930 -0.790118
-0.380335 1.610324 -0.792012
-0.374798 1.613785 -0.797743
-0.368837 1.619439 -0.805580
-0.364563 1.614883 -0.803792
-0.375750 1.384074 -0.599682
-0.373410 1.378350 -0.595963
-0.370952 1.373377 -0.592952
-0.368326 1.369298 -0.590799
-0.365788 1.365025 -0.588439
-0.363759 1.358945 -0.584271
-0.361003 1.355859 -0.583049
-0.358234 1.352913 -0.581958
-0.355899 1.348492 -0.579381
-0.353193 1.345525 -0.578246
-0.349723 1.345252 -0.579819
-0.346052 1.345605 -0.582035
-0.342429 1.345730 -0.584036
-0.339787 1.342652 -0.582787
-0.337046 1.339960 -0.581923
-0.334248 1.337498 -0.581289
-0.330399 1.338228 -0.583937
-0.327516 1.336037 -0.583585
-0.325275 1.332032 -0.581350
-0.321348 1.332875 -0.584146
-0.318687 1.330135 -0.583217
-0.315922 1.327722 -0.582625
-0.312600 1.326821 -0.583620
-0.309281 1.325890 -0.584592
-0.306610 1.323279 -0.583789
-0.304376 1.319612 -0.581857
-0.301383 1.317890 -0.581988
-0.298243 1.316524 -0.582503
-0.295670 1.313805 -0.581565
-0.292643 1.312184 -0.581808
-0.290161 1.309314 -0.580698
-0.287842 1.306118 -0.579225
-0.285398 1.303252 -0.578102
-0.282458 1.301504 -0.578198
-0.279702 1.299365 -0.577864
-0.276336 1.298521 -0.578961
-0.274147 1.295217 -0.577337
-0.271869 1.292147 -0.575960
-0.268796 1.290710 -0.576401
-0.265560 1.289582 -0.577194
-0.262691 1.287727 -0.577173
-0.259216 1.287026 -0.578461
-0.256854 1.284207 -0.577350
-0.255436 1.279677 -0.574280
-0.251478 1.279848 -0.576574
-0.247694 1.279647 -0.578458
-0.245875 1.275936 -0.576304
-0.241825 1.276153 -0.578690
-0.239399 1.273535 -0.577794
-0.235732 1.273029 -0.579363
-0.233398 1.270272 -0.578302
-0.230857 1.267882 -0.577665
-0.228917 1.264539 -0.575896
-0.226466 1.262050 -0.575129
-0.223736 1.260017 -0.574901
-0.220130 1.259339 -0.576299
-0.217350 1.257372 -0.576156
-0.214903 1.254910 -0.575415
-0.211136 1.254413 -0.577057
-0.208818 1.251768 -0.576093
-0.207008 1.248414 -0.574253
-0.203919 1.246912 -0.574679
-0.200890 1.245315 -0.574993
-0.197452 1.244274 -0.576001
-0.194635 1.242365 -0.575938
-0.191775 1.240515 -0.575949
-0.189311 1.238138 -0.575300
-0.186448 1.236294 -0.575321
-0.183641 1.234376 -0.575249
-0.181473 1.231646 -0.574144
-0.177896 1.230702 -0.575320
-0.175021 1.228863 -0.575356
-0.171756 1.227497 -0.576008
-0.169023 1.225474 -0.575814
-0.166291 1.223453 -0.575624
-0.163278 1.221760 -0.575865
-0.159901 1.220482 -0.576659
-0.157078 1.218552 -0.576598
-0.154943 1.215846 -0.575508
-0.152340 1.213677 -0.575130
-0.150002 1.211221 -0.574365
-0.147870 1.208553 -0.573310
-0.144217 1.207528 -0.574478
-0.141157 1.205851 -0.574772
-0.137426 1.204862 -0.576018
-0.133967 1.203567 -0.576858
-0.131521 1.201222 -0.576258
-0.128632 1.199327 -0.576282
-0.126532 1.196646 -0.575212
-0.123674 1.194721 -0.575199
-0.120834 1.192773 -0.575158
-0.116315 1.192418 -0.577387
-0.113492 1.190423 -0.577304
-0.111733 1.187435 -0.575798
-0.109394 1.184999 -0.575079
-0.106048 1.183480 -0.575693
-0.103756 1.181001 -0.574917
-0.101258 1.178712 -0.574419
-0.097846 1.177218 -0.575098
-0.094817 1.175377 -0.575275
-0.092556 1.172870 -0.574471
-0.089991 1.170625 -0.574058
-0.087455 1.168354 -0.573610
-0.084704 1.166258 -0.573432
-0.082290 1.163883 -0.572836
-0.079951 1.161447 -0.572150
-0.076413 1.159958 -0.572929
-0.073826 1.157706 -0.572542
-0.070523 1.155998 -0.573014
-0.066715 1.154656 -0.574078
-0.064654 1.151977 -0.573052
-0.062625 1.149281 -0.571997
-0.059509 1.147381 -0.572220
-0.059518 1.143219 -0.568806
-0.058536 1.139801 -0.566574
-0.057619 1.136361 -0.564289
-0.056051 1.133393 -0.562768
-0.054199 1.130630 -0.561580
-0.051166 1.128666 -0.561728
-0.051448 1.124484 -0.558166
-0.051134 1.120733 -0.555302
-0.053015 1.115592 -0.550048
-0.050575 1.113276 -0.549584
-0.050667 1.109358 -0.546364
-0.046857 1.107898 -0.547393
-0.042248 1.106895 -0.549259
-0.039948 1.104451 -0.548628
-0.038205 1.101668 -0.547404
-0.035544 1.099427 -0.547155
-0.031063 1.098228 -0.548807
-0.028853 1.095687 -0.548063
-0.028583 1.092046 -0.545309
-0.028242 1.088469 -0.542652
-0.028817 1.084412 -0.539082
-0.028129 1.081075 -0.536828
-0.026105 1.078465 -0.535940
-0.024845 1.075450 -0.534287
-0.023823 1.072320 -0.532404
-0.022573 1.069316 -0.530760
-0.020610 1.066679 -0.529828
-0.016206 1.065245 -0.531290
-0.013296 1.063045 -0.531267
-0.014065 1.059065 -0.527673
-0.016131 1.054512 -0.522864
-0.015536 1.051254 -0.520648
-0.029272 1.041458 -0.504821
-0.033999 1.035946 -0.497689
-0.035022 1.032172 -0.494114
-0.038813 1.027234 -0.487987
-0.035676 1.025353 -0.488357
-0.036098 1.021956 -0.485432
-0.047543 1.014018 -0.472418
-0.046479 1.011380 -0.470963
-0.046457 1.008345 -0.468577
-0.045215 1.005826 -0.467315
-0.043055 1.003687 -0.466888
-0.039451 1.002111 -0.467753
-0.034417 1.001067 -0.469874
-0.029211 1.000067 -0.472124
-0.030239 0.996782 -0.468887
-0.029266 0.994272 -0.467434
-0.025014 0.992952 -0.468843
-0.020422 0.991752 -0.470535
-0.019497 0.989304 -0.469072
-0.020276 0.986332 -0.466181
-0.019657 0.983885 -0.464516
-0.017479 0.981993 -0.464194
-0.015858 0.979961 -0.463421
-0.012370 0.978556 -0.464227
0.006652 0.981965 -0.477945
-0.569654 1.531289 -0.636011
-0.566863 1.535702 -0.641456
-0.563667 1.536774 -0.644176
-0.560371 1.537643 -0.646748
-0.557051 1.539226 -0.649936
-0.553721 1.541846 -0.654011
-0.550353 1.545307 -0.658820
-0.546737 1.546401 -0.661671
-0.543134 1.549021 -0.665828
-0.539354 1.549953 -0.668584
-0.535619 1.553297 -0.673405
-0.531892 1.559036 -0.680294
-0.527886 1.560221 -0.683336
-0.523825 1.561602 -0.686564
-0.519710 1.563300 -0.690083
-0.515537 1.565264 -0.693850
-0.511334 1.569661 -0.699743
-0.507040 1.573486 -0.705174
-0.502663 1.574592 -0.708268
-0.498247 1.574672 -0.710481
-0.493830 1.572071 -0.710352
-0.489552 1.561362 -0.703083
-0.485303 1.554027 -0.698740
-0.481261 1.541793 -0.690024
-0.476774 1.546151 -0.695985
-0.472151 1.552140 -0.703433
-0.467174 1.563795 -0.715991
-0.462502 1.566728 -0.720801
-0.457701 1.570995 -0.726837
-0.453228 1.569221 -0.727451
-0.448371 1.572982 -0.733080
-0.443400 1.577460 -0.739391
-0.438339 1.582226 -0.746001
-0.433179 1.587311 -0.752942
-0.427938 1.592475 -0.759996
-0.423398 1.590071 -0.760119
-0.418256 1.593382 -0.765520
-0.412858 1.598475 -0.772605
-0.407989 1.598598 -0.775107
-0.403820 1.593127 -0.772400
-0.397247 1.606067 -0.786915
-0.391470 1.612077 -0.795010
-0.385805 1.616725 -0.801870
-0.381400 1.612663 -0.800532
-0.375497 1.618256 -0.808346
-0.369689 1.622773 -0.815184
-0.365492 1.617497 -0.812707
-0.353612 1.626688 -0.826686
-0.347662 1.630752 -0.833229
-0.370365 1.379365 -0.603512
-0.369050 1.369665 -0.595786
-0.366348 1.365965 -0.593982
-0.363636 1.362434 -0.592332
-0.361537 1.356701 -0.588461
-0.359095 1.352462 -0.586066
-0.356569 1.348677 -0.584112
-0.354222 1.344386 -0.581630
-0.351693 1.340861 -0.579910
-0.350614 1.332571 -0.573314
-0.346897 1.333258 -0.575865
-0.342701 1.335390 -0.579919
-0.339330 1.334786 -0.581179
-0.336459 1.332613 -0.580824
-0.332528 1.333656 -0.583808
-0.329564 1.331755 -0.583744
-0.326921 1.328947 -0.582730
-0.324866 1.324533 -0.580022
-0.321536 1.323763 -0.581136
-0.318549 1.322037 -0.581246
-0.315724 1.319890 -0.580911
-0.312627 1.318473 -0.581351
-0.309353 1.317508 -0.582279
-0.306262 1.316059 -0.582694
-0.304127 1.312248 -0.580567
-0.301363 1.310043 -0.580161
-0.297948 1.309404 -0.581455
-0.294153 1.309618 -0.583688
-0.290793 1.308769 -0.584776
-0.290343 1.301337 -0.578641
-0.287443 1.299528 -0.578660
-0.284597 1.297607 -0.578557
-0.281065 1.297160 -0.580091
-0.278508 1.294622 -0.579305
-0.277356 1.289205 -0.575289
-0.273781 1.288839 -0.576922
-0.271357 1.286126 -0.575919
-0.268271 1.284749 -0.576423
-0.265162 1.283403 -0.576968
-0.262424 1.281339 -0.576698
-0.259835 1.279005 -0.576116
-0.256960 1.277216 -0.576158
-0.253597 1.276316 -0.577231
-0.250543 1.274835 -0.577638
-0.248121 1.272232 -0.576741
-0.244981 1.270899 -0.577325
-0.241849 1.269538 -0.577882
-0.239055 1.267594 -0.577757
-0.236175 1.265797 -0.577806
-0.233285 1.264015 -0.577874
-0.231006 1.261247 -0.576766
-0.228580 1.258740 -0.575963
-0.225328 1.257545 -0.576735
-0.221885 1.256626 -0.577850
-0.219064 1.254733 -0.577793
-0.217146 1.251491 -0.576088
-0.214986 1.248642 -0.574853
-0.212610 1.246138 -0.574032
-0.210241 1.243640 -0.573214
-0.206565 1.243011 -0.574713
-0.202855 1.242392 -0.576240
-0.201083 1.239073 -0.574397
-0.196675 1.239370 -0.577093
-0.193830 1.237515 -0.577092
-0.191207 1.235364 -0.576718
-0.188705 1.233063 -0.576151
-0.186742 1.230078 -0.574704
-0.183628 1.228582 -0.575163
-0.180339 1.227292 -0.575897
-0.177756 1.225115 -0.575485
-0.175364 1.222710 -0.574776
-0.171414 1.222190 -0.576535
-0.168403 1.220517 -0.576795
-0.167109 1.216827 -0.574386
-0.164555 1.214638 -0.573956
-0.162285 1.212129 -0.573098
-0.156985 1.213043 -0.576836
-0.155400 1.209756 -0.574939
-0.152766 1.207653 -0.574633
-0.149946 1.205751 -0.574603
-0.146797 1.204198 -0.575055
-0.143217 1.203088 -0.576125
-0.140067 1.201504 -0.576556
-0.137446 1.199365 -0.576221
-0.133743 1.198324 -0.577425
-0.131533 1.195763 -0.576508
-0.128591 1.193936 -0.576625
-0.126189 1.191575 -0.575989
-0.123510 1.189486 -0.575741
-0.121345 1.186909 -0.574794
-0.119038 1.184474 -0.574050
-0.115682 1.183018 -0.574724
-0.112569 1.181322 -0.575063
-0.109163 1.179878 -0.575781
-0.106223 1.177999 -0.575872
-0.103834 1.175626 -0.575240
-0.100754 1.173856 -0.575508
-0.098260 1.171573 -0.575016
-0.095816 1.169246 -0.574462
-0.092719 1.167467 -0.574742
-0.089829 1.165503 -0.574751
-0.087232 1.163291 -0.574391
-0.085379 1.160476 -0.573105
-0.082754 1.158286 -0.572785
-0.079249 1.156783 -0.573545
-0.076515 1.154660 -0.573350
-0.073362 1.152850 -0.573659
-0.071297 1.150202 -0.572652
-0.069099 1.147658 -0.571811
-0.065658 1.146030 -0.572449
-0.062714 1.144020 -0.572488
-0.061828 1.140521 -0.570112
-0.061437 1.136697 -0.567186
-0.060189 1.133505 -0.565281
-0.057369 1.131412 -0.565196
-0.054376 1.129426 -0.565303
-0.053093 1.126275 -0.563465
-0.052076 1.122964 -0.561345
-0.052273 1.118877 -0.557886
-0.052210 1.114997 -0.554754
-0.054103 1.109906 -0.549493
-0.051178 1.107905 -0.549575
-0.047207 1.106533 -0.550787
-0.043482 1.104976 -0.551707
-0.040971 1.102657 -0.551301
-0.039566 1.099672 -0.549710
-0.037099 1.097315 -0.549256
-0.034459 1.095049 -0.548982
-0.031808 1.092775 -0.548713
-0.030824 1.089552 -0.546698
-0.030649 1.085894 -0.543861
-0.030849 1.082057 -0.540660
-0.029328 1.079177 -0.539251
-0.028382 1.075995 -0.537264
-0.026665 1.073229 -0.536071
-0.028774 1.068495 -0.531035
-0.024273 1.067169 -0.532655
-0.022808 1.064286 -0.531228
-0.022269 1.060954 -0.528896
-0.015916 1.060454 -0.532286
-0.014838 1.057374 -0.530479
-0.016904 1.052830 -0.525637
-0.017202 1.049161 -0.522546
-0.023493 1.042800 -0.513741
-0.032007 1.035563 -0.502915
-0.033016 1.031782 -0.499314
-0.033455 1.028293 -0.496283
-0.036739 1.023628 -0.490620
-0.036198 1.020646 -0.488574
-0.041375 1.015328 -0.481259
-0.041993 1.011966 -0.478215
-0.047149 1.006835 -0.471055
-0.048539 1.003288 -0.467395
-0.044544 1.001877 -0.468642
-0.042288 0.999794 -0.468311
-0.038353 0.998350 -0.469483
-0.034487 0.996876 -0.470581
-0.032530 0.994710 -0.469984
-0.030473 0.992604 -0.469484
-0.027449 0.990860 -0.469840
-0.022983 0.989628 -0.471449
-0.019385 0.988106 -0.472300
-0.021155 0.984816 -0.468536
-0.021168 0.982177 -0.466324
-0.018090 0.980589 -0.466775
-0.017925 0.978108 -0.464769
-0.017710 0.975700 -0.462838
-0.022032 0.971964 -0.457144
-0.571556 1.535388 -0.644328
-0.568136 1.533076 -0.644241
-0.564934 1.533794 -0.646685
-0.561730 1.535425 -0.649912
-0.558463 1.537368 -0.653425
-0.555184 1.540341 -0.657831
-0.551775 1.542859 -0.661882
-0.548274 1.545366 -0.665950
-0.544661 1.547516 -0.669741
-0.540907 1.548608 -0.672655
-0.537085 1.549760 -0.675638
-0.533388 1.555373 -0.682469
-0.529502 1.559022 -0.687650
-0.525457 1.560552 -0.691031
-0.521356 1.562374 -0.694685
-0.517235 1.566320 -0.700206
-0.513032 1.570614 -0.706063
-0.508715 1.571968 -0.709380
-0.504350 1.574025 -0.713331
-0.499934 1.573222 -0.714782
-0.495508 1.571328 -0.715273
-0.491145 1.564763 -0.711618
-0.486975 1.551311 -0.701803
-0.482768 1.544639 -0.697972
-0.478426 1.543995 -0.699510
-0.474041 1.544213 -0.701828
-0.469386 1.550092 -0.709261
-0.464315 1.562424 -0.722575
-0.459597 1.565647 -0.727703
-0.454849 1.568507 -0.732528
-0.450294 1.567889 -0.734201
-0.445461 1.570902 -0.739208
-0.440495 1.574944 -0.745190
-0.434879 1.585699 -0.757402
-0.430071 1.586318 -0.760303
-0.425089 1.588498 -0.764669
-0.420085 1.590532 -0.768922
-0.414723 1.595414 -0.775863
-0.409590 1.597769 -0.780473
-0.404557 1.599012 -0.784064
-0.398994 1.604070 -0.791277
-0.393471 1.608298 -0.797747
-0.388066 1.611250 -0.803044
-0.382117 1.617483 -0.811504
-0.376415 1.621562 -0.817953
-0.371030 1.623303 -0.822198
-0.363607 1.636808 -0.837806
-0.357454 1.642060 -0.845535
-0.353516 1.634755 -0.841127
-0.349999 1.625647 -0.834932
-0.343602 1.631749 -0.843551
-0.363879 1.364569 -0.599123
-0.361774 1.358723 -0.595116
-0.359869 1.352369 -0.590565
-0.357358 1.348466 -0.588477
-0.355093 1.343823 -0.585619
-0.352178 1.341586 -0.585207
-0.349994 1.336927 -0.582298
-0.347676 1.332865 -0.579985
-0.344903 1.330391 -0.579303
-0.342575 1.326567 -0.577210
-0.338903 1.326993 -0.579540
-0.336049 1.324876 -0.579222
-0.332258 1.325555 -0.581843
-0.329700 1.322584 -0.580629
-0.327309 1.319201 -0.578971
-0.323896 1.318732 -0.580399
-0.320469 1.318263 -0.581838
-0.317511 1.316503 -0.581905
-0.314904 1.313831 -0.580993
-0.312246 1.311338 -0.580266
-0.309296 1.309612 -0.580367
-0.306459 1.307615 -0.580173
-0.303774 1.305266 -0.579594
-0.300766 1.303711 -0.579882
-0.297163 1.303546 -0.581701
-0.293769 1.302851 -0.582950
-0.292356 1.297653 -0.579217
-0.289733 1.295260 -0.578578
-0.287144 1.292817 -0.577879
-0.284019 1.291550 -0.578493
-0.280923 1.290209 -0.579031
-0.278629 1.287194 -0.577681
-0.276401 1.284088 -0.576218
-0.273058 1.283262 -0.577342
-0.271141 1.279596 -0.575227
-0.268303 1.277779 -0.575221
-0.264727 1.277374 -0.576842
-0.261696 1.275902 -0.577243
-0.258676 1.274401 -0.577614
-0.255836 1.272565 -0.577598
-0.253321 1.270148 -0.576903
-0.249603 1.269874 -0.578724
-0.247045 1.267537 -0.578124
-0.244705 1.264844 -0.577099
-0.242178 1.262495 -0.576474
-0.238930 1.261357 -0.577296
-0.236314 1.259165 -0.576859
-0.233384 1.257491 -0.577044
-0.230634 1.255527 -0.576883
-0.226944 1.255037 -0.578513
-0.223945 1.253442 -0.578810
-0.222958 1.248782 -0.575349
-0.218915 1.248782 -0.577602
-0.217272 1.245183 -0.575422
-0.214390 1.243438 -0.575529
-0.211516 1.241677 -0.575620
-0.209463 1.238753 -0.574254
-0.206758 1.236767 -0.574059
-0.204482 1.234194 -0.573121
-0.201845 1.232128 -0.572823
-0.198813 1.230598 -0.573207
-0.195546 1.229367 -0.573980
-0.192072 1.228388 -0.575088
-0.190386 1.225087 -0.573202
-0.187506 1.223337 -0.573318
-0.183063 1.223534 -0.575982
-0.180458 1.221409 -0.575625
-0.178184 1.218887 -0.574743
-0.175410 1.216978 -0.574669
-0.172798 1.214878 -0.574342
-0.168872 1.214317 -0.576074
-0.166737 1.211653 -0.574998
-0.164388 1.209250 -0.574269
-0.162159 1.206724 -0.573368
-0.159395 1.204804 -0.573290
-0.155471 1.204151 -0.574950
-0.152263 1.202691 -0.575519
-0.149313 1.200940 -0.575695
-0.145237 1.200366 -0.577515
-0.142418 1.198450 -0.577480
-0.141148 1.194940 -0.575211
-0.137912 1.193458 -0.575787
-0.134473 1.192163 -0.576640
-0.131583 1.190306 -0.576704
-0.128816 1.188323 -0.576595
-0.126270 1.186124 -0.576177
-0.123611 1.184033 -0.575919
-0.120717 1.182161 -0.575983
-0.118028 1.180092 -0.575765
-0.115307 1.178049 -0.575591
-0.112870 1.175748 -0.575038
-0.110263 1.173599 -0.574714
-0.107763 1.171355 -0.574252
-0.104466 1.169802 -0.574834
-0.100852 1.168503 -0.575815
-0.098185 1.166379 -0.575559
-0.096424 1.163494 -0.574143
-0.092067 1.162763 -0.576041
-0.090167 1.159994 -0.574810
-0.088393 1.157134 -0.573432
-0.086619 1.154287 -0.572069
-0.082060 1.153632 -0.574161
-0.078914 1.151841 -0.574486
-0.076262 1.149657 -0.574199
-0.073358 1.147656 -0.574215
-0.072282 1.144286 -0.572027
-0.069412 1.142254 -0.572006
-0.065714 1.140811 -0.572962
-0.063644 1.138177 -0.571980
-0.063346 1.134295 -0.568929
-0.061757 1.131348 -0.567413
-0.059568 1.128823 -0.566604
-0.056602 1.126823 -0.566691
-0.053178 1.125113 -0.567291
-0.052637 1.121479 -0.564610
-0.053111 1.117211 -0.560810
-0.053985 1.112730 -0.556605
-0.053830 1.108950 -0.553589
-0.051824 1.106358 -0.552648
-0.048487 1.104584 -0.553172
-0.044910 1.102932 -0.553942
-0.042416 1.100603 -0.553520
-0.039976 1.098232 -0.553036
-0.038850 1.095084 -0.551141
-0.037313 1.092185 -0.549699
-0.035085 1.089683 -0.548995
-0.032516 1.087363 -0.548647
-0.029757 1.085136 -0.548493
-0.029076 1.081766 -0.546174
-0.029877 1.077621 -0.542345
-0.029162 1.074314 -0.540105
-0.030288 1.070068 -0.536006
-0.027896 1.067666 -0.535512
-0.025310 1.065352 -0.535206
-0.032045 1.058400 -0.525569
-0.023968 1.058816 -0.530769
-0.018641 1.057815 -0.533178
-0.016700 1.055158 -0.532220
-0.018436 1.050785 -0.527673
-0.038438 1.038077 -0.505435
-0.038717 1.034602 -0.502487
-0.021357 1.039008 -0.516492
-0.031266 1.031259 -0.504313
-0.033206 1.027113 -0.499827
-0.032694 1.024064 -0.497697
-0.036690 1.019162 -0.491361
-0.040987 1.014225 -0.484814
-0.039338 1.011778 -0.483845
-0.036036 1.010002 -0.484406
-0.041364 1.004853 -0.477056
-0.048472 0.999131 -0.468168
-0.044812 0.997602 -0.469127
