ply
format ascii 1.0
comment ---
element vertex 1658
property float x
property float y
property float z
element face 0
property list uchar uint vertex_indices
end_header
-0.216542 1.129195 -0.599201
-0.220333 1.120652 -0.587105
-0.218337 1.118346 -0.586088
-0.216133 1.116266 -0.585474
-0.214687 1.113423 -0.583475
-0.212860 1.110988 -0.582207
-0.210735 1.108860 -0.581499
-0.209172 1.106194 -0.579793
-0.207249 1.103894 -0.578758
-0.207204 1.099835 -0.574421
-0.205568 1.097313 -0.572943
-0.204480 1.094308 -0.570537
-0.201389 1.093138 -0.571619
-0.198560 1.091711 -0.572233
-0.196215 1.089846 -0.572018
-0.194517 1.087418 -0.570714
-0.192383 1.085374 -0.570159
-0.190078 1.083473 -0.569891
-0.187690 1.081638 -0.569763
-0.184269 1.080635 -0.571315
-0.182412 1.078349 -0.570315
-0.179293 1.077065 -0.571351
-0.177525 1.074708 -0.570219
-0.172192 1.075089 -0.574730
-0.171868 1.071615 -0.571321
-0.168943 1.070116 -0.572005
-0.166063 1.068563 -0.572605
-0.162306 1.067625 -0.574538
-0.159599 1.065904 -0.574841
-0.156558 1.064402 -0.575640
-0.154411 1.062262 -0.575083
-0.149745 1.061829 -0.578278
-0.147167 1.059946 -0.578339
-0.146083 1.057066 -0.576203
-0.143812 1.054974 -0.575820
-0.141049 1.053190 -0.576150
-0.139450 1.050657 -0.574798
-0.134786 1.050029 -0.577832
-0.132013 1.048196 -0.578138
-0.132199 1.044571 -0.574275
-0.130465 1.042119 -0.573140
-0.127309 1.040497 -0.573987
-0.124442 1.038686 -0.574418
-0.122317 1.036440 -0.573822
-0.119889 1.034357 -0.573639
-0.117602 1.032187 -0.573262
-0.115424 1.029952 -0.572737
-0.112721 1.027989 -0.572911
-0.109729 1.026162 -0.573458
-0.107236 1.024061 -0.573335
-0.105538 1.021553 -0.572168
-0.103742 1.019098 -0.571137
-0.101283 1.016967 -0.570967
-0.099145 1.014676 -0.570379
-0.094976 1.013333 -0.572377
-0.092805 1.011038 -0.571815
-0.090157 1.008959 -0.571853
-0.086462 1.007337 -0.573191
-0.084185 1.005074 -0.572744
-0.082011 1.002768 -0.572170
-0.079884 1.000446 -0.571538
-0.077558 0.998212 -0.571150
-0.074799 0.996159 -0.571286
-0.072294 0.994003 -0.571106
-0.071044 0.991361 -0.569425
-0.067386 0.989667 -0.570618
-0.063966 0.987875 -0.571511
-0.061950 0.985562 -0.570741
-0.059699 0.983352 -0.570251
-0.056615 0.981456 -0.570729
-0.054243 0.979320 -0.570380
-0.051940 0.977179 -0.569951
-0.049625 0.975064 -0.569541
-0.047262 0.972990 -0.569191
-0.045447 0.970763 -0.568227
-0.042638 0.968886 -0.568386
-0.040857 0.966711 -0.567402
-0.040164 0.964241 -0.565229
-0.039184 0.961908 -0.563400
-0.035818 0.960325 -0.564203
-0.030784 0.959246 -0.566814
-0.030090 0.956944 -0.564710
-0.033545 0.953541 -0.558177
-0.029971 0.952154 -0.559236
-0.033979 0.948758 -0.552230
-0.033385 0.946672 -0.550174
-0.034159 0.944287 -0.546709
-0.031168 0.942923 -0.547227
-0.022679 0.942965 -0.553470
-0.018472 0.941939 -0.555227
-0.020961 0.939320 -0.550080
-0.020679 0.937434 -0.547834
-0.001236 0.940072 -0.565151
-0.585077 1.412451 -0.675351
-0.582703 1.412276 -0.677359
-0.580788 1.415940 -0.683444
-0.578827 1.419950 -0.689935
-0.577754 1.431737 -0.704761
-0.583559 1.527140 -0.811866
-0.580879 1.532206 -0.820021
-0.577585 1.532743 -0.823324
-0.574154 1.532750 -0.826067
-0.570724 1.533535 -0.829665
-0.567621 1.538713 -0.838082
-0.564129 1.540949 -0.843318
-0.560643 1.544434 -0.849954
-0.556869 1.545641 -0.854107
-0.552951 1.546050 -0.857391
-0.549106 1.548693 -0.863172
-0.545258 1.552909 -0.870735
-0.541121 1.554011 -0.874849
-0.536997 1.556975 -0.881070
-0.532694 1.558097 -0.885243
-0.528322 1.559391 -0.889625
-0.523928 1.562416 -0.895992
-0.519407 1.564092 -0.900851
-0.514805 1.565525 -0.905452
-0.510217 1.573545 -0.917639
-0.505451 1.577559 -0.925279
-0.500586 1.578494 -0.929401
-0.495679 1.577083 -0.930813
-0.490739 1.576366 -0.933035
-0.485830 1.572470 -0.931544
-0.480826 1.572700 -0.934872
-0.475838 1.571240 -0.936224
-0.470645 1.574536 -0.943195
-0.465207 1.581427 -0.954467
-0.459669 1.587844 -0.965248
-0.454702 1.582887 -0.962520
-0.449871 1.576495 -0.958046
-0.444346 1.580255 -0.965740
-0.439262 1.577636 -0.965786
-0.434118 1.575831 -0.966814
-0.427899 1.585284 -0.981521
-0.422101 1.589093 -0.989450
-0.399258 1.640641 -1.062998
-0.393575 1.639003 -1.064586
-0.390308 1.619923 -1.044536
-0.386262 1.607923 -1.033160
-0.369270 1.642192 -1.083270
-0.362014 1.649472 -1.096190
-0.351985 1.671812 -1.128240
-0.344670 1.677341 -1.139201
-0.338510 1.676219 -1.141777
-0.335462 1.659305 -1.124191
-0.332916 1.641046 -1.104753
-0.328371 1.633346 -1.098765
-0.321307 1.637477 -1.108025
-0.296668 1.689146 -1.183292
-0.286029 1.678232 -1.177605
-0.262446 1.691008 -1.207631
-0.248038 1.693217 -1.219623
-0.239203 1.699499 -1.232652
-0.230598 1.704574 -1.244162
-0.205903 1.714141 -1.271560
-0.195796 1.722286 -1.287644
-0.189221 1.719747 -1.289164
-0.181018 1.721764 -1.296998
-0.174277 1.719540 -1.299019
-0.168066 1.715860 -1.299036
-0.162114 1.711531 -1.298151
-0.154487 1.711552 -1.303377
-0.147845 1.708964 -1.304974
-0.144069 1.699316 -1.296590
-0.138586 1.694045 -1.294368
-0.131467 1.692709 -1.297757
-0.121525 1.697806 -1.310410
-0.116122 1.692307 -1.307914
-0.110886 1.686529 -1.304998
-0.105199 1.681822 -1.303623
-0.097361 1.681745 -1.309001
-0.090255 1.680010 -1.312005
-0.084965 1.674493 -1.309473
-0.081572 1.665243 -1.301403
-0.076676 1.659167 -1.297986
-0.070512 1.655640 -1.298351
-0.064801 1.651253 -1.297439
-0.058287 1.648391 -1.298823
-0.051005 1.646911 -1.302321
-0.044519 1.643922 -1.303565
-0.039098 1.639027 -1.301919
-0.033478 1.634521 -1.300863
-0.026755 1.631924 -1.302751
-0.019197 1.630688 -1.306774
-0.011801 1.629099 -1.310296
-0.003970 1.628140 -1.314848
0.002175 1.624401 -1.315082
0.006823 1.618311 -1.311616
0.011997 1.613106 -1.309531
0.018161 1.609443 -1.309896
0.023667 1.604791 -1.308690
0.029125 1.600093 -1.307408
0.033205 1.593432 -1.302946
0.039401 1.589859 -1.303476
0.046377 1.587362 -1.305784
0.054311 1.586135 -1.310215
0.059839 1.581564 -1.309177
0.067057 1.579259 -1.311907
0.074389 1.577048 -1.314835
0.077967 1.569934 -1.309574
0.079929 1.560861 -1.300962
0.084513 1.555218 -1.298095
0.092385 1.553668 -1.302195
0.099413 1.551016 -1.304463
0.103822 1.545189 -1.301295
0.108665 1.539921 -1.299075
0.112382 1.533381 -1.294628
0.113978 1.524491 -1.286022
0.114799 1.514869 -1.276045
0.122107 1.512585 -1.278993
0.129742 1.510597 -1.282523
0.131764 1.502517 -1.275171
-0.214013 1.117801 -0.593897
-0.213075 1.114394 -0.590882
-0.213453 1.109720 -0.585495
-0.210570 1.108328 -0.586159
-0.209125 1.105527 -0.584205
-0.206499 1.103878 -0.584405
-0.206882 1.099395 -0.579244
-0.204313 1.097717 -0.579381
-0.202048 1.095752 -0.578980
-0.200860 1.092820 -0.576716
-0.198523 1.090932 -0.576466
-0.197188 1.088168 -0.574507
-0.195758 1.085508 -0.572739
-0.194920 1.082365 -0.570003
-0.193189 1.080001 -0.568798
-0.189818 1.078995 -0.570322
-0.187544 1.077069 -0.570019
-0.185217 1.075182 -0.569804
-0.181889 1.074077 -0.571208
-0.179485 1.072227 -0.571106
-0.178113 1.069584 -0.569362
-0.175664 1.067765 -0.569341
-0.173278 1.065890 -0.569218
-0.170099 1.064586 -0.570328
-0.164927 1.064687 -0.574493
-0.162314 1.062911 -0.574673
-0.159627 1.061174 -0.574959
-0.156664 1.059611 -0.575654
-0.154852 1.057251 -0.574608
-0.152363 1.055344 -0.574580
-0.148796 1.054133 -0.576142
-0.146473 1.052087 -0.575851
-0.144616 1.049738 -0.574881
-0.142544 1.047524 -0.574230
-0.140360 1.045377 -0.573745
-0.138080 1.043282 -0.573396
-0.135198 1.041540 -0.573901
-0.132906 1.039433 -0.573563
-0.130827 1.037194 -0.572926
-0.127736 1.035528 -0.573695
-0.125388 1.033424 -0.573424
-0.124619 1.030443 -0.570989
-0.119590 1.029788 -0.574373
-0.117473 1.027526 -0.573771
-0.115442 1.025216 -0.573055
-0.113409 1.022905 -0.572344
-0.111924 1.020316 -0.570911
-0.109326 1.018288 -0.570953
-0.107216 1.016010 -0.570349
-0.103367 1.014567 -0.572004
-0.101603 1.012108 -0.570941
-0.098858 1.010110 -0.571141
-0.095665 1.008307 -0.571902
-0.093161 1.006178 -0.571774
-0.090280 1.004211 -0.572115
-0.087180 1.002330 -0.572719
-0.084905 1.000087 -0.572284
-0.082771 0.997788 -0.571673
-0.081032 0.995334 -0.570580
-0.077806 0.993492 -0.571306
-0.076062 0.991058 -0.570223
-0.073849 0.988822 -0.569712
-0.070957 0.986855 -0.570013
-0.067205 0.985212 -0.571329
-0.065169 0.982934 -0.570597
-0.062438 0.980926 -0.570687
-0.059713 0.978926 -0.570766
-0.056710 0.977037 -0.571163
-0.055787 0.974453 -0.569155
-0.053948 0.972216 -0.568220
-0.050990 0.970374 -0.568571
-0.048573 0.968377 -0.568305
-0.045135 0.966727 -0.569192
-0.042958 0.964705 -0.568659
-0.041650 0.962453 -0.567167
-0.040855 0.960092 -0.565128
-0.038012 0.958378 -0.565369
-0.034107 0.956998 -0.566776
-0.031580 0.955248 -0.566671
-0.030673 0.953087 -0.564821
-0.033978 0.949837 -0.558463
-0.036203 0.946967 -0.553339
-0.038858 0.944065 -0.547820
-0.032693 0.943507 -0.551708
-0.026284 0.943012 -0.555820
-0.022804 0.941794 -0.556830
-0.019194 0.940635 -0.557974
-0.020593 0.938305 -0.553923
-0.028233 0.934575 -0.543485
-0.059887 0.925411 -0.508520
-0.586487 1.413965 -0.681817
-0.584348 1.415370 -0.685542
-0.581977 1.415601 -0.688036
-0.580115 1.420131 -0.695148
-0.577813 1.422029 -0.699476
-0.582131 1.529169 -0.822839
-0.579035 1.531131 -0.827729
-0.575782 1.532498 -0.831992
-0.572420 1.533675 -0.836067
-0.569217 1.537428 -0.842999
-0.565760 1.539632 -0.848255
-0.562259 1.542470 -0.854240
-0.558579 1.544383 -0.859223
-0.554709 1.545012 -0.862793
-0.550880 1.547377 -0.868322
-0.547014 1.550694 -0.874948
-0.542906 1.551660 -0.878950
-0.538621 1.550761 -0.880851
-0.534513 1.554870 -0.888449
-0.530236 1.557554 -0.894460
-0.525875 1.560506 -0.900805
-0.521405 1.562975 -0.906626
-0.516887 1.567253 -0.914562
-0.512214 1.568443 -0.918961
-0.507506 1.573167 -0.927486
-0.502679 1.574592 -0.932211
-0.497781 1.577450 -0.938633
-0.492874 1.573306 -0.936862
-0.487951 1.570816 -0.937018
-0.483083 1.565730 -0.934092
-0.478060 1.566741 -0.938374
-0.472996 1.567510 -0.942388
-0.466828 1.592332 -0.975176
-0.461329 1.596711 -0.983662
-0.457187 1.576012 -0.962008
-0.452161 1.572939 -0.961489
-0.446812 1.574571 -0.966665
-0.441575 1.574146 -0.969368
-0.435446 1.583867 -0.984474
-0.429588 1.588921 -0.993965
-0.423778 1.592533 -1.001745
-0.418371 1.591658 -1.004041
-0.412621 1.593686 -1.009946
-0.395337 1.641403 -1.076339
-0.362812 1.656607 -1.114344
-0.355897 1.660792 -1.123572
-0.348756 1.665736 -1.133840
-0.334777 1.640876 -1.113755
-0.323206 1.636852 -1.116486
-0.292379 1.686662 -1.194331
-0.286977 1.655260 -1.161387
-0.258613 1.686022 -1.215730
-0.250549 1.690069 -1.225761
-0.221866 1.714550 -1.273223
-0.211642 1.723682 -1.290641
-0.202472 1.729022 -1.302985
-0.198317 1.719109 -1.294348
-0.191256 1.717935 -1.297777
-0.184504 1.715808 -1.299914
-0.178317 1.712089 -1.299846
-0.172906 1.706312 -1.296891
-0.166737 1.702655 -1.296911
-0.158739 1.703731 -1.303647
-0.153125 1.698627 -1.301651
-0.147101 1.694616 -1.301206
-0.143120 1.685716 -1.293748
-0.135703 1.685163 -1.298267
-0.127256 1.686883 -1.306124
-0.120871 1.683731 -1.306971
-0.116053 1.677096 -1.302746
-0.109544 1.674270 -1.304080
-0.102360 1.672862 -1.307524
-0.094446 1.672902 -1.313149
-0.090749 1.664161 -1.305778
-0.085984 1.657768 -1.301858
-0.080073 1.653747 -1.301466
-0.074516 1.649061 -1.300077
-0.070077 1.642290 -1.295530
-0.062686 1.641148 -1.299509
-0.054835 1.640760 -1.304686
-0.048681 1.637203 -1.305055
-0.042724 1.633295 -1.304898
-0.036480 1.629893 -1.305531
-0.030621 1.625824 -1.305141
-0.025051 1.621283 -1.304018
-0.018869 1.617777 -1.304523
-0.010706 1.617473 -1.310099
-0.002963 1.616382 -1.314491
0.004073 1.614091 -1.317023
0.009077 1.608618 -1.314490
0.014816 1.604311 -1.313821
0.019272 1.598107 -1.310084
0.024142 1.592582 -1.307428
0.027627 1.585114 -1.301577
0.033603 1.581290 -1.301669
0.042890 1.582084 -1.309403
0.049992 1.579723 -1.311990
0.056050 1.575899 -1.312176
0.060882 1.570438 -1.309627
0.067700 1.567619 -1.311524
0.070818 1.559993 -1.305300
0.074218 1.552834 -1.299819
0.078244 1.546549 -1.295794
0.086440 1.545459 -1.300693
0.096625 1.546682 -1.309673
0.102953 1.543143 -1.310465
0.107448 1.537431 -1.307474
0.110173 1.529716 -1.300935
0.112285 1.521408 -1.293287
0.117210 1.516375 -1.291409
0.124176 1.513620 -1.293610
0.127313 1.506653 -1.288259
0.130381 1.499691 -1.282874
0.131117 1.490347 -1.273095
0.134618 1.484027 -1.268772
0.139806 1.479493 -1.267716
-0.207079 1.111039 -0.596991
-0.208436 1.105470 -0.589833
-0.207793 1.101906 -0.586415
-0.205642 1.099802 -0.585764
-0.204555 1.096720 -0.583229
-0.203086 1.094018 -0.581407
-0.200863 1.092012 -0.580936
-0.198724 1.089932 -0.580325
-0.196815 1.087654 -0.579326
-0.196234 1.084247 -0.576074
-0.194783 1.081615 -0.574346
-0.193081 1.079209 -0.573066
-0.190769 1.077314 -0.572822
-0.188977 1.074995 -0.571718
-0.187556 1.072389 -0.570021
-0.185358 1.070407 -0.569613
-0.182329 1.069063 -0.570549
-0.179922 1.067225 -0.570475
-0.178070 1.064963 -0.569512
-0.175758 1.063045 -0.569289
-0.173282 1.061239 -0.569323
-0.170054 1.059961 -0.570521
-0.167710 1.058034 -0.570335
-0.164137 1.056952 -0.572030
-0.160613 1.055803 -0.573623
-0.156902 1.054746 -0.575471
-0.154564 1.052745 -0.575228
-0.152676 1.050443 -0.574315
-0.149525 1.048953 -0.575277
-0.147009 1.047037 -0.575288
-0.145020 1.044782 -0.574527
-0.142371 1.042929 -0.574724
-0.139785 1.041024 -0.574825
-0.137720 1.038798 -0.574175
-0.134938 1.036986 -0.574543
-0.132773 1.034804 -0.574033
-0.130769 1.032525 -0.573297
-0.128459 1.030416 -0.572993
-0.126709 1.027991 -0.571911
-0.121913 1.027208 -0.575011
-0.120021 1.024837 -0.574112
-0.118196 1.022432 -0.573127
-0.116124 1.020155 -0.572480
-0.113936 1.017934 -0.571989
-0.111789 1.015690 -0.571444
-0.109340 1.013590 -0.571297
-0.106674 1.011585 -0.571427
-0.103573 1.009775 -0.572115
-0.101138 1.007642 -0.571926
-0.098425 1.005630 -0.572089
-0.095808 1.003567 -0.572120
-0.093369 1.001421 -0.571919
-0.091349 0.999094 -0.571187
-0.087915 0.997369 -0.572225
-0.085623 0.995158 -0.571825
-0.083561 0.992857 -0.571139
-0.081499 0.990567 -0.570456
-0.078882 0.988504 -0.570452
-0.076501 0.986356 -0.570157
-0.073104 0.984600 -0.571085
-0.070772 0.982447 -0.570722
-0.067899 0.980505 -0.571003
-0.065302 0.978472 -0.570951
-0.062960 0.976365 -0.570596
-0.060371 0.974362 -0.570532
-0.058833 0.972023 -0.569247
-0.056294 0.970049 -0.569132
-0.054168 0.967962 -0.568543
-0.050180 0.966495 -0.570086
-0.048278 0.964388 -0.569246
-0.046296 0.962340 -0.568508
-0.043682 0.960516 -0.568490
-0.041445 0.958610 -0.568053
-0.040650 0.956323 -0.566028
-0.040865 0.953801 -0.562919
-0.038981 0.951925 -0.562148
-0.036493 0.950253 -0.562051
-0.034627 0.948449 -0.561286
-0.036105 0.945807 -0.556934
-0.037992 0.943132 -0.552197
-0.032539 0.942396 -0.555346
-0.029027 0.941184 -0.556411
-0.025035 0.940116 -0.557981
-0.021150 0.939045 -0.559431
-0.021799 0.936924 -0.556143
-0.028180 0.933530 -0.546944
-0.585392 1.414248 -0.689280
-0.583468 1.417512 -0.695067
-0.581175 1.418691 -0.698639
-0.579000 1.421322 -0.703804
-0.583219 1.524940 -0.824332
-0.580194 1.527086 -0.829464
-0.577261 1.530966 -0.836536
-0.574219 1.534892 -0.843699
-0.570707 1.535206 -0.846889
-0.567305 1.537545 -0.852347
-0.563806 1.539916 -0.857868
-0.560217 1.542413 -0.863556
-0.556522 1.544822 -0.869173
-0.552646 1.546118 -0.873555
-0.548928 1.551077 -0.882114
-0.544746 1.550469 -0.884375
-0.540525 1.550291 -0.887129
-0.536403 1.553432 -0.893696
-0.532166 1.556288 -0.899967
-0.527844 1.559451 -0.906622
-0.523482 1.564517 -0.915516
-0.518902 1.565637 -0.919865
-0.514252 1.566777 -0.924254
-0.509527 1.567327 -0.927969
-0.504763 1.571309 -0.935733
-0.499901 1.572686 -0.940463
-0.494939 1.578717 -0.950726
-0.490064 1.570029 -0.943553
-0.485231 1.562828 -0.938091
-0.480191 1.565150 -0.943981
-0.475147 1.565626 -0.947685
-0.469441 1.581131 -0.969525
-0.464173 1.582397 -0.974282
-0.459479 1.572339 -0.965316
-0.453902 1.578254 -0.975741
-0.448042 1.586654 -0.989273
-0.444274 1.565609 -0.966759
-0.426657 1.584063 -0.999422
-0.415194 1.588760 -1.012068
-0.398250 1.635010 -1.077172
-0.390659 1.647466 -1.096602
-0.373962 1.637752 -1.095629
-0.370112 1.624260 -1.082161
-0.360629 1.644827 -1.112399
-0.354298 1.645807 -1.117576
-0.348221 1.645194 -1.120729
-0.342255 1.643915 -1.123043
-0.331112 1.637432 -1.122584
-0.322664 1.647648 -1.140057
-0.309484 1.678178 -1.184487
-0.294547 1.657894 -1.170436
-0.289546 1.651785 -1.166562
-0.262695 1.677296 -1.214255
-0.253780 1.684470 -1.228603
-0.234256 1.702866 -1.263216
-0.207099 1.719545 -1.301064
-0.200795 1.716106 -1.301345
-0.194506 1.712655 -1.301617
-0.186835 1.713144 -1.307441
-0.181795 1.706196 -1.302817
-0.176602 1.699843 -1.299003
-0.169969 1.697446 -1.300800
-0.162620 1.696873 -1.305228
-0.155446 1.695746 -1.308904
-0.151200 1.687297 -1.302060
-0.144995 1.683812 -1.302354
-0.137849 1.682568 -1.305919
-0.131151 1.680202 -1.307884
-0.125554 1.675302 -1.306154
-0.119539 1.671396 -1.305883
-0.113301 1.668000 -1.306373
-0.106458 1.665898 -1.308800
-0.101526 1.659744 -1.305204
-0.095871 1.655181 -1.303972
-0.089088 1.652934 -1.306227
-0.081286 1.652653 -1.311490
-0.078353 1.642808 -1.302262
-0.074102 1.635708 -1.297151
-0.066536 1.634933 -1.301713
-0.059137 1.633748 -1.305695
-0.053408 1.629470 -1.304929
-0.047124 1.626197 -1.305733
-0.040367 1.623732 -1.307816
-0.035264 1.618400 -1.305422
-0.030367 1.612778 -1.302559
-0.024026 1.609604 -1.303562
-0.016460 1.608396 -1.307721
-0.009798 1.605660 -1.309482
-0.001479 1.605483 -1.315394
0.004462 1.601522 -1.315249
0.009379 1.596013 -1.312598
0.013028 1.588668 -1.306930
0.017253 1.582281 -1.302789
0.022148 1.576939 -1.300345
0.029180 1.574674 -1.302994
0.036401 1.572616 -1.306031
0.045783 1.573463 -1.313983
0.051247 1.568865 -1.312851
0.057168 1.564891 -1.312779
0.062837 1.560585 -1.312153
0.066156 1.553260 -1.306362
0.069592 1.546184 -1.300952
0.074279 1.540760 -1.298360
0.083567 1.541027 -1.305664
0.089801 1.537465 -1.306361
0.099618 1.538149 -1.314559
0.103586 1.531828 -1.310459
0.105653 1.523374 -1.302531
0.110271 1.517949 -1.299955
0.116224 1.514052 -1.300120
0.121898 1.509835 -1.299727
0.125909 1.503811 -1.296052
0.129284 1.497157 -1.291200
0.133690 1.491658 -1.288440
0.139738 1.487896 -1.288890
0.144456 1.482757 -1.286797
0.144848 1.473286 -1.276560
0.153243 1.471900 -1.281502
0.152563 1.461560 -1.269500
0.149195 1.448811 -1.252757
-0.199823 1.104467 -0.600650
-0.205098 1.095437 -0.586571
-0.203974 1.092413 -0.584113
-0.202063 1.090123 -0.583084
-0.199155 1.088717 -0.583814
-0.197397 1.086299 -0.582537
-0.195937 1.083637 -0.580765
-0.193421 1.081881 -0.580824
-0.191004 1.080035 -0.580711
-0.190682 1.076473 -0.577077
-0.188427 1.074510 -0.576723
-0.188030 1.071072 -0.573296
-0.186347 1.068678 -0.572033
-0.184307 1.066568 -0.571366
-0.183214 1.063742 -0.569178
-0.180281 1.062308 -0.569970
-0.177916 1.060438 -0.569844
-0.175505 1.058593 -0.569790
-0.172979 1.056820 -0.569911
-0.169816 1.055483 -0.571020
-0.166944 1.053920 -0.571659
-0.163465 1.052750 -0.573215
-0.161106 1.050799 -0.573039
-0.159029 1.048654 -0.572435
-0.155542 1.047421 -0.573951
-0.152692 1.045750 -0.574493
-0.149492 1.044280 -0.575539
-0.146842 1.042445 -0.575758
-0.146023 1.039480 -0.573297
-0.142881 1.037929 -0.574230
-0.140074 1.036157 -0.574663
-0.137209 1.034401 -0.575168
-0.134819 1.032355 -0.574985
-0.132978 1.029992 -0.574026
-0.130359 1.028061 -0.574163
-0.128023 1.025962 -0.573897
-0.126163 1.023601 -0.572972
-0.124243 1.021273 -0.572135
-0.122364 1.018923 -0.571246
-0.118412 1.017628 -0.573168
-0.115830 1.015614 -0.573215
-0.113535 1.013449 -0.572872
-0.111385 1.011210 -0.572334
-0.108424 1.009353 -0.572865
-0.105527 1.007452 -0.573297
-0.104686 1.004599 -0.571044
-0.101479 1.002830 -0.571869
-0.099317 1.000585 -0.571335
-0.097842 0.998045 -0.569926
-0.094811 0.996181 -0.570499
-0.091956 0.994234 -0.570837
-0.088904 0.992364 -0.571412
-0.086134 0.990374 -0.571621
-0.083968 0.988145 -0.571076
-0.082017 0.985844 -0.570269
-0.079179 0.983895 -0.570548
-0.076459 0.981905 -0.570676
-0.073524 0.980002 -0.571058
-0.071743 0.977691 -0.570049
-0.069035 0.975731 -0.570153
-0.066082 0.973869 -0.570542
-0.064250 0.971638 -0.569605
-0.060857 0.969956 -0.570504
-0.059554 0.967601 -0.568962
-0.055683 0.966107 -0.570406
-0.053662 0.964040 -0.569707
-0.050919 0.962228 -0.569843
-0.049422 0.960064 -0.568564
-0.046534 0.958354 -0.568872
-0.043081 0.956835 -0.569815
-0.041906 0.954686 -0.568208
-0.041953 0.952241 -0.565268
-0.041145 0.950091 -0.563309
-0.038199 0.948571 -0.563724
-0.035990 0.946885 -0.563338
-0.034033 0.945171 -0.562689
-0.035588 0.942598 -0.558262
-0.037469 0.940015 -0.553542
-0.031911 0.939343 -0.556826
-0.026796 0.938572 -0.559614
-0.025643 0.936869 -0.558194
-0.023184 0.935517 -0.558172
-0.023796 0.933492 -0.554948
-0.584378 1.415322 -0.697706
-0.582384 1.418448 -0.703431
-0.580479 1.422904 -0.710644
-0.578215 1.425344 -0.715694
-0.583964 1.518106 -0.822905
-0.581935 1.528352 -0.837045
-0.578914 1.531171 -0.843017
-0.575629 1.532473 -0.847329
-0.572311 1.534325 -0.852277
-0.568825 1.535401 -0.856374
-0.565309 1.537115 -0.861209
-0.562034 1.542735 -0.870489
-0.558340 1.544806 -0.875787
-0.554515 1.546405 -0.880570
-0.550696 1.549395 -0.886965
-0.546654 1.550535 -0.891266
-0.542497 1.551092 -0.894910
-0.538316 1.552651 -0.899724
-0.534150 1.556352 -0.907043
-0.529883 1.560263 -0.914644
-0.525445 1.562341 -0.920140
-0.520924 1.564519 -0.925776
-0.516283 1.565039 -0.929486
-0.511590 1.566166 -0.933923
-0.506854 1.570279 -0.941921
-0.502010 1.571680 -0.946733
-0.497060 1.581098 -0.961142
-0.492196 1.568166 -0.948846
-0.487295 1.564347 -0.947414
-0.482147 1.570859 -0.958435
-0.476829 1.578742 -0.971184
-0.472951 1.545398 -0.933883
-0.445571 1.575867 -0.987310
-0.439897 1.580107 -0.995902
-0.434647 1.578498 -0.997259
-0.422005 1.596185 -1.026236
-0.415858 1.601327 -1.036211
-0.409137 1.610529 -1.051391
-0.400926 1.630487 -1.080330
-0.394642 1.633298 -1.087635
-0.385674 1.612841 -1.068935
-0.378096 1.624035 -1.087073
-0.358325 1.634137 -1.111718
-0.352541 1.632252 -1.113192
-0.347911 1.624323 -1.106750
-0.329488 1.654280 -1.154290
-0.320983 1.664133 -1.171534
-0.296108 1.658654 -1.181386
-0.253246 1.692101 -1.249611
-0.244128 1.675426 -1.236073
-0.231864 1.692453 -1.264507
-0.220167 1.706676 -1.289261
-0.212172 1.708679 -1.297090
-0.205609 1.706164 -1.298630
-0.198399 1.705520 -1.302835
-0.191437 1.704062 -1.305925
-0.185841 1.698740 -1.303542
-0.180916 1.691706 -1.298696
-0.174527 1.688742 -1.299665
-0.166486 1.690057 -1.306828
-0.160138 1.686888 -1.307558
-0.154128 1.682885 -1.307088
-0.147830 1.679616 -1.307696
-0.140844 1.677986 -1.310724
-0.135160 1.673264 -1.309227
-0.130174 1.667013 -1.305458
-0.123324 1.665042 -1.308034
-0.117020 1.661823 -1.308776
-0.111110 1.657755 -1.308259
-0.105256 1.653597 -1.307610
-0.100349 1.647521 -1.304059
-0.093966 1.644527 -1.305174
-0.086878 1.642910 -1.308412
-0.082839 1.635301 -1.302489
-0.076996 1.631285 -1.302063
-0.069603 1.630185 -1.306162
-0.063544 1.626547 -1.306357
-0.058561 1.620969 -1.303529
-0.052579 1.617233 -1.303578
-0.045641 1.615161 -1.306267
-0.040395 1.610144 -1.304318
-0.034964 1.605483 -1.302928
-0.028549 1.602479 -1.304191
-0.020893 1.601461 -1.308674
-0.015597 1.596590 -1.306977
-0.009511 1.592993 -1.307348
-0.002993 1.590054 -1.308808
0.003525 1.587086 -1.310246
0.006687 1.579089 -1.303408
0.011134 1.573110 -1.299863
0.018421 1.571292 -1.303233
0.024958 1.568341 -1.304750
0.032033 1.566110 -1.307509
0.037672 1.561853 -1.306878
0.044887 1.559731 -1.309891
0.052298 1.557809 -1.313292
0.058942 1.554817 -1.314901
0.062068 1.547266 -1.308652
0.065573 1.540303 -1.303374
0.074033 1.539603 -1.309011
0.077849 1.533100 -1.304517
0.085185 1.530922 -1.307639
0.091790 1.527810 -1.309153
0.098923 1.525285 -1.311750
0.103778 1.520080 -1.309573
0.107639 1.513778 -1.305402
0.111538 1.507580 -1.301390
0.115593 1.501610 -1.297769
0.120873 1.497019 -1.296662
0.126918 1.493252 -1.297090
0.134002 1.490560 -1.299549
0.139988 1.486680 -1.299830
0.142924 1.479675 -1.294239
0.147471 1.474365 -1.291820
0.152800 1.469855 -1.290922
0.161040 1.468181 -1.295490
0.156192 1.453864 -1.275679
0.157691 1.445840 -1.267890
0.160961 1.439570 -1.263466
-0.199586 1.087494 -0.587332
-0.198032 1.084888 -0.585678
-0.196477 1.082299 -0.584050
-0.194511 1.080072 -0.583155
-0.192159 1.078168 -0.582931
-0.190457 1.075731 -0.581607
-0.189437 1.072760 -0.579157
-0.187522 1.070520 -0.578234
-0.186377 1.067688 -0.576051
-0.185729 1.064497 -0.573082
-0.183617 1.062442 -0.572540
-0.182342 1.059765 -0.570652
-0.179553 1.058211 -0.571216
-0.177262 1.056281 -0.570977
-0.175141 1.054225 -0.570470
-0.172955 1.052211 -0.570067
-0.170308 1.050510 -0.570386
-0.166432 1.049625 -0.572594
-0.163272 1.048222 -0.573667
-0.161473 1.045903 -0.572649
-0.159581 1.043647 -0.571781
-0.155603 1.042717 -0.574053
-0.151673 1.041714 -0.576215
-0.149838 1.039384 -0.575242
-0.148259 1.036899 -0.573900
-0.146094 1.034771 -0.573429
-0.142422 1.033521 -0.575140
-0.139886 1.031582 -0.575189
-0.137401 1.029602 -0.575157
-0.135088 1.027516 -0.574878
-0.133094 1.025247 -0.574145
-0.129776 1.023690 -0.575269
-0.128137 1.021218 -0.574037
-0.126090 1.018964 -0.573379
-0.124290 1.016581 -0.572385
-0.122234 1.014331 -0.571746
-0.117945 1.013185 -0.574129
-0.115271 1.011214 -0.574304
-0.112881 1.009096 -0.574091
-0.111282 1.006602 -0.572824
-0.109465 1.004217 -0.571853
-0.107631 1.001845 -0.570910
-0.104378 1.000112 -0.571818
-0.101840 0.998051 -0.571785
-0.099929 0.995718 -0.570940
-0.097873 0.993453 -0.570283
-0.094698 0.991659 -0.571048
-0.092103 0.989621 -0.571066
-0.089503 0.987586 -0.571084
-0.086519 0.985705 -0.571573
-0.084099 0.983606 -0.571354
-0.083046 0.981001 -0.569453
-0.080483 0.978985 -0.569414
-0.076431 0.977520 -0.571181
-0.074205 0.975396 -0.570718
-0.072138 0.973235 -0.570067
-0.069369 0.971338 -0.570260
-0.066815 0.969384 -0.570191
-0.064502 0.967370 -0.569839
-0.062068 0.965419 -0.569633
-0.058547 0.963838 -0.570693
-0.055979 0.961973 -0.570638
-0.055310 0.959555 -0.568402
-0.053350 0.957573 -0.567670
-0.049094 0.956301 -0.569560
-0.048600 0.953956 -0.567178
-0.043730 0.952902 -0.569746
-0.040965 0.951272 -0.569938
-0.039093 0.949428 -0.569140
-0.038805 0.947201 -0.566605
-0.037772 0.945226 -0.564924
-0.036100 0.943465 -0.563968
-0.038865 0.940620 -0.558204
-0.038052 0.938750 -0.556381
-0.035607 0.937327 -0.556340
-0.031509 0.936337 -0.558078
-0.028018 0.935223 -0.559160
-0.026766 0.933616 -0.557870
-0.585233 1.412885 -0.700061
-0.583372 1.416703 -0.706595
-0.581343 1.419963 -0.712557
-0.579162 1.422742 -0.718025
-0.577131 1.427395 -0.725605
-0.583273 1.526234 -0.840900
-0.580268 1.528817 -0.846667
-0.577113 1.530939 -0.851946
-0.573817 1.532631 -0.856765
-0.570328 1.533297 -0.860445
-0.567094 1.537597 -0.868271
-0.563824 1.542847 -0.877225
-0.560039 1.543445 -0.880899
-0.556104 1.543143 -0.883550
-0.552368 1.546600 -0.890544
-0.548412 1.548384 -0.895635
-0.544281 1.548790 -0.899144
-0.540220 1.551829 -0.905735
-0.536113 1.556038 -0.913727
-0.531841 1.559107 -0.920420
-0.527436 1.561270 -0.926076
-0.522951 1.563705 -0.932080
-0.518335 1.564396 -0.936038
-0.513674 1.566330 -0.941491
-0.508971 1.571563 -0.950916
-0.504134 1.573618 -0.956577
-0.499224 1.573334 -0.959446
-0.494313 1.567978 -0.956189
-0.489486 1.558871 -0.948346
-0.483967 1.584824 -0.983127
-0.478982 1.578574 -0.978791
-0.464094 1.564220 -0.970963
-0.458470 1.572283 -0.984224
-0.447756 1.574630 -0.993805
-0.442719 1.570774 -0.992336
-0.430932 1.582551 -1.013943
-0.424684 1.590323 -1.027242
-0.417917 1.601649 -1.045151
-0.411585 1.607460 -1.056151
-0.405391 1.611210 -1.064590
-0.394453 1.606219 -1.065536
-0.389012 1.603640 -1.065905
-0.363858 1.649662 -1.137391
-0.356900 1.653781 -1.146833
-0.356023 1.623763 -1.111331
-0.350018 1.623237 -1.114602
-0.329497 1.663641 -1.176511
-0.321504 1.670699 -1.190228
-0.301772 1.670164 -1.202632
-0.278888 1.680722 -1.230566
-0.277171 1.661391 -1.208601
-0.262500 1.690185 -1.252930
-0.253090 1.698606 -1.269367
-0.251742 1.678722 -1.246542
-0.247044 1.670980 -1.240510
-0.235622 1.685378 -1.265503
-0.224112 1.699164 -1.289844
-0.216132 1.701215 -1.297787
-0.209295 1.699590 -1.300581
-0.202608 1.697465 -1.302692
-0.196646 1.693230 -1.301806
-0.190430 1.689770 -1.302034
-0.185366 1.683197 -1.297775
-0.179077 1.680052 -1.298461
-0.172187 1.678478 -1.301448
-0.165205 1.677071 -1.304713
-0.158554 1.674770 -1.306701
-0.151428 1.673589 -1.310367
-0.144428 1.672024 -1.313503
-0.139367 1.665868 -1.309843
-0.134161 1.660168 -1.306840
-0.128564 1.655442 -1.305281
-0.122839 1.651054 -1.304228
-0.116342 1.648366 -1.305749
-0.110739 1.643772 -1.304393
-0.105086 1.639329 -1.303264
-0.099374 1.635047 -1.302381
-0.092634 1.632836 -1.304695
-0.086059 1.630258 -1.306470
-0.080055 1.626556 -1.306522
-0.073543 1.623813 -1.308084
-0.067923 1.619398 -1.307043
-0.063731 1.612437 -1.301982
-0.056697 1.610637 -1.305071
-0.050347 1.607580 -1.306196
-0.043942 1.604597 -1.307461
-0.038126 1.600599 -1.307116
-0.031578 1.597821 -1.308751
-0.024610 1.595691 -1.311467
-0.020247 1.589353 -1.307347
-0.014666 1.585011 -1.306473
-0.008312 1.581877 -1.307598
-0.002154 1.578424 -1.308215
0.001487 1.571211 -1.302583
0.006498 1.566114 -1.300452
0.013039 1.563262 -1.302092
0.020955 1.562321 -1.306998
0.027929 1.559973 -1.309574
0.032698 1.554549 -1.306928
0.038454 1.550502 -1.306636
0.045319 1.547930 -1.308905
0.053034 1.546419 -1.313061
0.056698 1.539624 -1.308036
0.062390 1.535479 -1.307631
0.067255 1.530305 -1.305418
0.072809 1.526008 -1.304757
0.078683 1.522103 -1.304805
0.086154 1.520085 -1.308261
0.094106 1.518561 -1.312670
0.100576 1.515250 -1.313895
0.103907 1.508353 -1.308597
0.106744 1.500986 -1.302391
0.112639 1.497071 -1.302518
0.117686 1.492227 -1.300938
0.122976 1.487658 -1.299874
0.128077 1.482898 -1.298458
0.132635 1.477588 -1.296005
0.136437 1.471537 -1.292129
0.143157 1.468459 -1.293936
0.150340 1.465797 -1.296591
0.155783 1.461389 -1.295911
0.162229 1.457938 -1.297121
0.166010 1.451944 -1.293364
0.168987 1.445246 -1.288190
0.169780 1.436615 -1.279117
0.175046 1.432135 -1.278289
0.171146 1.419519 -1.261030
-0.192891 1.080518 -0.590197
-0.194056 1.075685 -0.583880
-0.191388 1.074039 -0.584208
-0.189239 1.071965 -0.583648
-0.187562 1.069521 -0.582301
-0.186252 1.066803 -0.580360
-0.184527 1.064420 -0.579135
-0.182838 1.062018 -0.577867
-0.182302 1.058773 -0.574737
-0.180718 1.056324 -0.573345
-0.177872 1.054788 -0.573995
-0.176293 1.052341 -0.572616
-0.174476 1.050069 -0.571630
-0.172422 1.047961 -0.571027
-0.171173 1.045310 -0.569174
-0.169611 1.042881 -0.567828
-0.166347 1.041569 -0.569110
-0.162923 1.040333 -0.570613
-0.159066 1.039339 -0.572743
-0.155976 1.037830 -0.573687
-0.155711 1.034569 -0.570401
-0.151241 1.033870 -0.573381
-0.148915 1.031853 -0.573163
-0.146104 1.030110 -0.573650
-0.144293 1.027776 -0.572675
-0.140730 1.026432 -0.574229
-0.137955 1.024620 -0.574631
-0.135578 1.022575 -0.574455
-0.133487 1.020368 -0.573872
-0.130392 1.018688 -0.574696
-0.127380 1.016944 -0.575388
-0.125348 1.014682 -0.574710
-0.123600 1.012277 -0.573644
-0.120839 1.010375 -0.573967
-0.117184 1.008894 -0.575490
-0.114716 1.006821 -0.575388
-0.112790 1.004490 -0.574556
-0.111194 1.002011 -0.573291
-0.108939 0.999840 -0.572904
-0.107540 0.997290 -0.571394
-0.104496 0.995469 -0.572038
-0.102156 0.993338 -0.571757
-0.100136 0.991075 -0.571061
-0.097957 0.988886 -0.570571
-0.095157 0.986954 -0.570870
-0.092953 0.984785 -0.570406
-0.089762 0.983010 -0.571180
-0.087556 0.980857 -0.570714
-0.085915 0.978505 -0.569548
-0.083857 0.976329 -0.568905
-0.080042 0.974803 -0.570414
-0.076387 0.973217 -0.571707
-0.074477 0.971026 -0.570873
-0.073090 0.968684 -0.569421
-0.068376 0.967484 -0.571953
-0.066300 0.965414 -0.571325
-0.064804 0.963187 -0.570019
-0.062566 0.961229 -0.569599
-0.059723 0.959487 -0.569890
-0.058291 0.957341 -0.568544
-0.056439 0.955361 -0.567699
-0.053862 0.953629 -0.567698
-0.049258 0.952505 -0.570006
-0.049025 0.950165 -0.567346
-0.044456 0.949074 -0.569599
-0.040668 0.947784 -0.570959
-0.039436 0.945837 -0.569465
-0.040166 0.943427 -0.565822
-0.039732 0.941378 -0.563508
-0.039204 0.939407 -0.561329
-0.039953 0.937172 -0.557791
-0.038099 0.935630 -0.557119
-0.033410 0.934802 -0.559515
-0.029214 0.933874 -0.561368
-0.025931 0.932755 -0.562238
-0.584354 1.415046 -0.709850
-0.582338 1.418146 -0.715691
-0.580265 1.421477 -0.721825
-0.577983 1.423881 -0.726961
-0.583456 1.514655 -0.834098
-0.581477 1.525409 -0.849115
-0.578500 1.528701 -0.855769
-0.575247 1.530407 -0.860654
-0.572105 1.534131 -0.867867
-0.568880 1.538175 -0.875488
-0.565493 1.541734 -0.882591
-0.561618 1.540867 -0.884620
-0.557778 1.541264 -0.888114
-0.554184 1.546029 -0.896700
-0.550115 1.545699 -0.899382
-0.546056 1.546622 -0.903536
-0.542107 1.550869 -0.911614
-0.538056 1.555450 -0.920128
-0.533793 1.557998 -0.926277
-0.529476 1.561625 -0.933738
-0.525005 1.563838 -0.939550
-0.520389 1.563951 -0.942870
-0.515741 1.565419 -0.947828
-0.511063 1.570090 -0.956669
-0.506243 1.571134 -0.961167
-0.501357 1.571836 -0.965266
-0.496457 1.564590 -0.959690
-0.491461 1.569119 -0.968470
-0.486261 1.578781 -0.983603
-0.481219 1.575634 -0.983046
-0.476752 1.554996 -0.960838
-0.471724 1.554662 -0.963664
-0.460046 1.582543 -1.005042
-0.455096 1.576125 -1.000396
-0.450893 1.559522 -0.982885
-0.445023 1.567952 -0.996875
-0.439235 1.573539 -1.007356
-0.426364 1.594730 -1.041325
-0.414537 1.599939 -1.055205
-0.409382 1.595304 -1.052866
-0.403092 1.600018 -1.062626
-0.391333 1.601542 -1.072037
-0.384040 1.611463 -1.088798
-0.372461 1.647799 -1.140431
-0.364010 1.661424 -1.162463
-0.349371 1.637079 -1.142467
-0.340316 1.651495 -1.165905
-0.333287 1.654595 -1.174299
-0.311672 1.664126 -1.200199
-0.304103 1.668151 -1.210132
-0.290903 1.667227 -1.217888
-0.281654 1.676920 -1.235857
-0.269852 1.669633 -1.235073
-0.259040 1.683572 -1.259283
-0.252003 1.683536 -1.264064
-0.246222 1.679136 -1.262734
-0.235319 1.691593 -1.285270
-0.227547 1.693278 -1.292681
-0.219797 1.694669 -1.299739
-0.212349 1.694936 -1.305251
-0.206913 1.689123 -1.302065
-0.201350 1.683823 -1.299601
-0.195347 1.679871 -1.299082
-0.189393 1.675838 -1.298447
-0.183354 1.672081 -1.298219
-0.175593 1.672860 -1.304665
-0.169682 1.668746 -1.303950
-0.164933 1.661777 -1.299004
-0.157343 1.661916 -1.304608
-0.150744 1.659544 -1.306515
-0.144604 1.656068 -1.306788
-0.138983 1.651417 -1.305300
-0.133030 1.647566 -1.305020
-0.127666 1.642448 -1.302818
-0.121015 1.640173 -1.304952
-0.115015 1.636482 -1.304940
-0.108998 1.632842 -1.305017
-0.103990 1.627167 -1.301947
-0.097354 1.624815 -1.304035
-0.090212 1.623407 -1.307630
-0.082410 1.623182 -1.313128
-0.077405 1.617590 -1.310210
-0.072639 1.611633 -1.306696
-0.067724 1.606033 -1.303728
-0.061389 1.603025 -1.304895
-0.054492 1.600977 -1.307630
-0.048060 1.598076 -1.309021
-0.041759 1.594928 -1.310036
-0.035314 1.591999 -1.311430
-0.028421 1.589770 -1.313999
-0.023502 1.584342 -1.311326
-0.017469 1.580714 -1.311624
-0.011680 1.576706 -1.311304
-0.006080 1.572419 -1.310525
-0.001618 1.566453 -1.306925
0.002343 1.559824 -1.302177
0.009197 1.557449 -1.304631
0.016583 1.555779 -1.308330
0.024254 1.554433 -1.312637
0.028556 1.548386 -1.308880
0.033237 1.542918 -1.306104
0.038746 1.538595 -1.305311
0.043699 1.533557 -1.303270
0.050996 1.531559 -1.306590
0.056646 1.527416 -1.306154
0.063378 1.524619 -1.308133
0.067378 1.518440 -1.304076
0.074506 1.516091 -1.306910
0.081504 1.513531 -1.309409
0.090121 1.512810 -1.315314
0.095548 1.508316 -1.314373
0.098816 1.501388 -1.308944
0.102078 1.494536 -1.303609
0.107846 1.490510 -1.303516
0.113548 1.486403 -1.303293
0.119106 1.482137 -1.302785
0.126034 1.479303 -1.305019
0.131459 1.474873 -1.304245
0.134905 1.468434 -1.299612
0.141454 1.465158 -1.301082
0.146443 1.460311 -1.299526
0.151650 1.455688 -1.298415
0.159015 1.453127 -1.301394
0.165931 1.450083 -1.303479
0.166716 1.441320 -1.294157
0.169128 1.434165 -1.287982
0.171692 1.427225 -1.282189
0.175370 1.421340 -1.278505
0.176240 1.413048 -1.269844
-0.189826 1.070532 -0.586841
-0.188328 1.067940 -0.585175
-0.186721 1.065446 -0.583714
-0.184797 1.063204 -0.582803
-0.183281 1.060661 -0.581228
-0.181044 1.058662 -0.580859
-0.180313 1.055566 -0.578037
-0.177320 1.054114 -0.578913
-0.176510 1.051107 -0.576269
-0.174764 1.048774 -0.575153
-0.172682 1.046674 -0.574579
-0.170609 1.044565 -0.573997
-0.169558 1.041780 -0.571827
-0.168236 1.039191 -0.570104
-0.165533 1.037494 -0.570521
-0.164249 1.034891 -0.568765
-0.163015 1.032269 -0.566955
-0.158525 1.031640 -0.570054
-0.155615 1.030015 -0.570750
-0.151987 1.028793 -0.572493
-0.149992 1.026592 -0.571806
-0.146214 1.025404 -0.573725
-0.143659 1.023496 -0.573840
-0.141017 1.021623 -0.574071
-0.138643 1.019593 -0.573911
-0.135934 1.017732 -0.574221
-0.132672 1.016147 -0.575302
-0.129759 1.014360 -0.575873
-0.126666 1.012647 -0.576679
-0.125207 1.010103 -0.575211
-0.122694 1.008083 -0.575200
-0.120182 1.006056 -0.575183
-0.116522 1.004562 -0.576715
-0.114665 1.002209 -0.575792
-0.112531 0.999987 -0.575245
-0.111211 0.997405 -0.573619
-0.109772 0.994890 -0.572162
-0.107478 0.992758 -0.571838
-0.104954 0.990726 -0.571813
-0.102585 0.988630 -0.571580
-0.099973 0.986636 -0.571657
-0.098004 0.984387 -0.570905
-0.095579 0.982329 -0.570737
-0.093016 0.980332 -0.570739
-0.090365 0.978374 -0.570846
-0.088699 0.976060 -0.569720
-0.086346 0.974018 -0.569455
-0.083527 0.972157 -0.569762
-0.079569 0.970705 -0.571456
-0.076714 0.968871 -0.571786
-0.075830 0.966388 -0.569726
-0.075065 0.963907 -0.567547
-0.068790 0.963251 -0.571973
-0.067105 0.961115 -0.570898
-0.065611 0.958955 -0.569609
-0.062870 0.957213 -0.569800
-0.060906 0.955263 -0.569083
-0.059137 0.953291 -0.568150
-0.055520 0.951888 -0.569362
-0.053466 0.950063 -0.568772
-0.050030 0.948657 -0.569768
-0.046783 0.947222 -0.570543
-0.044526 0.945548 -0.570199
-0.043168 0.943673 -0.568856
-0.039161 0.942526 -0.570489
-0.037855 0.940715 -0.569115
-0.038331 0.938507 -0.565799
-0.038584 0.936413 -0.562773
-0.036358 0.934971 -0.562490
-0.032379 0.933978 -0.564120
-0.028837 0.932905 -0.565270
-0.585786 1.416641 -0.716721
-0.583721 1.419251 -0.722082
-0.581563 1.421771 -0.727376
-0.579587 1.426320 -0.734987
-0.577100 1.427644 -0.739001
-0.582929 1.524304 -0.854156
-0.579971 1.527421 -0.860679
-0.576831 1.529822 -0.866416
-0.573605 1.532348 -0.872327
-0.570398 1.536106 -0.879692
-0.566999 1.539031 -0.886130
-0.563381 1.540658 -0.891090
-0.559618 1.541641 -0.895317
-0.555778 1.542736 -0.899692
-0.552196 1.548657 -0.909764
-0.548167 1.549874 -0.914335
-0.544153 1.552780 -0.920924
-0.539941 1.553920 -0.925443
-0.535673 1.555592 -0.930614
-0.531501 1.561635 -0.941045
-0.527053 1.563833 -0.946907
-0.522494 1.565273 -0.951880
-0.517854 1.566657 -0.956805
-0.513129 1.567439 -0.961016
-0.508382 1.572613 -0.970603
-0.503499 1.573417 -0.974891
-0.498566 1.569618 -0.973533
-0.493616 1.567701 -0.974473
-0.488703 1.562192 -0.970959
-0.483732 1.560513 -0.972166
-0.478789 1.557272 -0.971421
-0.473756 1.556587 -0.973860
-0.458325 1.557409 -0.984863
-0.453215 1.555969 -0.986390
-0.447507 1.562690 -0.998322
-0.440729 1.581309 -1.025557
-0.435487 1.578681 -1.025702
-0.429428 1.584864 -1.037197
-0.422264 1.600825 -1.061417
-0.412177 1.589215 -1.053665
-0.399940 1.595862 -1.069748
-0.393536 1.600413 -1.079493
-0.386650 1.607617 -1.092818
-0.360885 1.618523 -1.123081
-0.349589 1.646733 -1.165124
-0.342215 1.652014 -1.176481
-0.337677 1.642478 -1.167813
-0.333659 1.601495 -1.120312
-0.314287 1.660959 -1.206092
-0.307823 1.660209 -1.209530
-0.303226 1.651539 -1.202038
-0.287089 1.662687 -1.226629
-0.253868 1.682929 -1.274153
-0.245758 1.686282 -1.283859
-0.238653 1.686004 -1.288463
-0.230801 1.687994 -1.296365
-0.223242 1.688820 -1.302663
-0.216563 1.686794 -1.304894
-0.210764 1.682123 -1.303308
-0.205321 1.676514 -1.300349
-0.199125 1.673164 -1.300682
-0.193081 1.669417 -1.300442
-0.185603 1.669559 -1.305954
-0.178990 1.667287 -1.307939
-0.174528 1.659471 -1.301689
-0.169874 1.652352 -1.296435
-0.163349 1.649994 -1.298301
-0.154951 1.652092 -1.306920
-0.148924 1.648407 -1.306854
-0.142650 1.645310 -1.307692
-0.136895 1.641042 -1.306755
-0.130698 1.637790 -1.307381
-0.125115 1.633213 -1.305976
-0.119153 1.629488 -1.305890
-0.114002 1.624099 -1.303220
-0.108900 1.618690 -1.300504
-0.103313 1.614328 -1.299418
-0.095581 1.614185 -1.304997
-0.087467 1.614651 -1.311606
-0.080913 1.612036 -1.313375
-0.077339 1.603896 -1.306318
-0.070860 1.601182 -1.307940
-0.064477 1.598264 -1.309259
-0.059059 1.593642 -1.307831
-0.052287 1.591372 -1.310244
-0.045485 1.589105 -1.312696
-0.039144 1.586026 -1.313844
-0.033922 1.581109 -1.311969
-0.027807 1.577657 -1.312528
-0.022600 1.572773 -1.310706
-0.017085 1.568399 -1.309738
-0.010796 1.565220 -1.310792
-0.005102 1.561132 -1.310326
-0.000428 1.555558 -1.307329
0.007113 1.554169 -1.311504
0.014524 1.552510 -1.315272
0.020632 1.548966 -1.315819
0.023964 1.541607 -1.309728
0.029410 1.537207 -1.308779
0.034737 1.532662 -1.307578
0.041004 1.529357 -1.308581
0.047016 1.525705 -1.308990
0.051421 1.520012 -1.305760
0.057220 1.516101 -1.305724
0.064438 1.513917 -1.308841
0.069819 1.509464 -1.307867
0.075606 1.505500 -1.307801
0.084294 1.504910 -1.313978
0.090471 1.501326 -1.314689
0.094107 1.494855 -1.310035
0.099143 1.490009 -1.308398
0.105886 1.487045 -1.310321
0.111889 1.483245 -1.310698
0.118670 1.480252 -1.312645
0.122516 1.474154 -1.308661
0.130491 1.472352 -1.312973
0.135566 1.467534 -1.311484
0.139471 1.461562 -1.307736
0.141896 1.454184 -1.301189
0.146740 1.449231 -1.299403
0.152364 1.445034 -1.299130
0.157511 1.440380 -1.297963
0.161085 1.434278 -1.293873
0.165818 1.429276 -1.292001
0.170376 1.424130 -1.289837
0.176254 1.420163 -1.290112
0.180332 1.414614 -1.287128
0.183030 1.407912 -1.281717
0.185995 1.401497 -1.276865
0.191013 1.396835 -1.275709
0.189754 1.387050 -1.263590
-0.180611 1.065342 -0.593989
-0.183031 1.059809 -0.585771
-0.181800 1.057053 -0.583716
-0.179247 1.055269 -0.583861
-0.178388 1.052271 -0.581239
-0.175999 1.050369 -0.581129
-0.175069 1.047454 -0.578676
-0.173173 1.045217 -0.577792
-0.171044 1.043136 -0.577288
-0.169394 1.040738 -0.576035
-0.167684 1.038385 -0.574889
-0.166288 1.035837 -0.573269
-0.164919 1.033283 -0.571629
-0.164102 1.030401 -0.569164
-0.162813 1.027827 -0.567445
-0.160632 1.025794 -0.567085
-0.156290 1.025020 -0.569950
-0.153410 1.023357 -0.570602
-0.150900 1.021466 -0.570695
-0.148223 1.019657 -0.571026
-0.144725 1.018282 -0.572537
-0.141505 1.016729 -0.573622
-0.138791 1.014885 -0.573961
-0.135841 1.013149 -0.574625
-0.133231 1.011222 -0.574793
-0.129679 1.009758 -0.576274
-0.126947 1.007862 -0.576585
-0.125537 1.005315 -0.575057
-0.122372 1.003614 -0.575954
-0.119958 1.001545 -0.575808
-0.116403 0.999996 -0.577203
-0.116503 0.996777 -0.573651
-0.114577 0.994494 -0.572849
-0.112065 0.992472 -0.572830
-0.110056 0.990235 -0.572140
-0.107970 0.988038 -0.571554
-0.105631 0.985951 -0.571299
-0.102562 0.984165 -0.571988
-0.101609 0.981537 -0.569937
-0.099424 0.979415 -0.569483
-0.095846 0.977836 -0.570799
-0.093252 0.975882 -0.570852
-0.090730 0.973910 -0.570810
-0.088758 0.971753 -0.570077
-0.086077 0.969867 -0.570230
-0.084114 0.967745 -0.569492
-0.081854 0.965748 -0.569124
-0.078896 0.964005 -0.569608
-0.074930 0.962607 -0.571306
-0.073825 0.960295 -0.569539
-0.071304 0.958469 -0.569488
-0.066874 0.957256 -0.571705
-0.065972 0.954979 -0.569729
-0.065243 0.952698 -0.567575
-0.060358 0.951674 -0.570301
-0.058941 0.949664 -0.568973
-0.055628 0.948226 -0.569850
-0.052611 0.946731 -0.570383
-0.049795 0.945208 -0.570686
-0.048109 0.943414 -0.569707
-0.045082 0.942011 -0.570259
-0.041662 0.940736 -0.571251
-0.039689 0.939124 -0.570625
-0.038968 0.937241 -0.568623
-0.037136 0.935677 -0.567877
-0.032967 0.934707 -0.569714
-0.029288 0.933641 -0.571005
-0.585271 1.421584 -0.729898
-0.583136 1.424150 -0.735312
-0.580844 1.426166 -0.740135
-0.578260 1.426533 -0.743107
-0.584309 1.522753 -0.858696
-0.581765 1.529115 -0.869023
-0.578499 1.530144 -0.873249
-0.575090 1.530629 -0.876861
-0.571800 1.533111 -0.882813
-0.568784 1.539530 -0.893399
-0.564950 1.538430 -0.895222
-0.561282 1.540050 -0.900248
-0.557689 1.543779 -0.907789
-0.554015 1.547976 -0.915925
-0.550122 1.550723 -0.922376
-0.546019 1.551748 -0.926798
-0.541754 1.551382 -0.929566
-0.537639 1.555254 -0.937441
-0.533467 1.560419 -0.946919
-0.529030 1.562021 -0.952125
-0.524513 1.563765 -0.957525
-0.519919 1.565745 -0.963235
-0.515223 1.566889 -0.967944
-0.510485 1.570368 -0.975545
-0.505641 1.572922 -0.982043
-0.500709 1.574082 -0.986842
-0.495760 1.567786 -0.982381
-0.490819 1.563504 -0.980390
-0.485976 1.554956 -0.973023
-0.480800 1.561441 -0.984503
-0.471042 1.550227 -0.977030
-0.466358 1.541788 -0.969633
-0.460216 1.561420 -0.998008
-0.455028 1.560590 -1.000365
-0.448224 1.582834 -1.032399
-0.442429 1.587230 -1.041627
-0.436809 1.588379 -1.046709
-0.431966 1.580452 -1.040024
-0.418711 1.600837 -1.073947
-0.401554 1.599506 -1.083498
-0.389230 1.604041 -1.097206
-0.382207 1.611401 -1.110954
-0.354338 1.631804 -1.154709
-0.341393 1.633647 -1.165649
-0.332999 1.613198 -1.146002
-0.293671 1.670953 -1.244130
-0.287992 1.666290 -1.242274
-0.282156 1.662375 -1.241465
-0.273546 1.668877 -1.255434
-0.255582 1.682947 -1.285253
-0.248249 1.683558 -1.291129
-0.241501 1.682052 -1.294008
-0.234015 1.682866 -1.300275
-0.227198 1.681392 -1.303276
-0.220353 1.679942 -1.306345
-0.215238 1.673274 -1.301796
-0.210002 1.667150 -1.298019
-0.203481 1.664826 -1.299835
-0.195821 1.665624 -1.306311
-0.190634 1.659577 -1.302643
-0.183737 1.658177 -1.305911
-0.178672 1.651991 -1.302018
-0.173118 1.647179 -1.300175
-0.166964 1.643920 -1.300682
-0.159392 1.644078 -1.306409
-0.153341 1.640518 -1.306504
-0.146851 1.637985 -1.308190
-0.140875 1.634266 -1.308068
-0.134466 1.631524 -1.309470
-0.128734 1.627297 -1.308580
-0.123352 1.622367 -1.306592
-0.117730 1.617999 -1.305479
-0.112764 1.612340 -1.302326
-0.107492 1.607378 -1.300260
-0.100670 1.605507 -1.303116
-0.093348 1.604537 -1.307451
-0.087363 1.600958 -1.307640
-0.081223 1.597667 -1.308307
-0.075374 1.593841 -1.308121
-0.069731 1.589661 -1.307365
-0.064100 1.585480 -1.306615
-0.058253 1.581692 -1.306514
-0.051210 1.579920 -1.309767
-0.045876 1.575259 -1.308252
-0.040430 1.570814 -1.307096
-0.033231 1.569192 -1.310689
-0.028508 1.563615 -1.307644
-0.023373 1.558736 -1.305766
-0.015052 1.558717 -1.312188
-0.009370 1.554644 -1.311726
-0.003542 1.550793 -1.311655
0.004381 1.549953 -1.316826
0.010078 1.545864 -1.316395
0.015012 1.540721 -1.314126
0.019193 1.534586 -1.310098
0.025490 1.531369 -1.311216
0.032830 1.529508 -1.314779
0.039424 1.526607 -1.316533
0.043560 1.520521 -1.312581
0.045594 1.511851 -1.303918
0.050207 1.506527 -1.301274
0.056318 1.503070 -1.302039
0.063531 1.500915 -1.305234
0.069794 1.497576 -1.306287
0.076657 1.494908 -1.308625
0.084617 1.493449 -1.313278
0.090727 1.489819 -1.313908
0.093269 1.482214 -1.307016
0.101491 1.480911 -1.312104
0.109896 1.479714 -1.317478
0.115670 1.475634 -1.317366
0.119736 1.469767 -1.313799
0.126699 1.466917 -1.316116
0.131754 1.462091 -1.314595
0.135888 1.456361 -1.311286
0.137285 1.447990 -1.302688
0.142138 1.443069 -1.300938
0.146482 1.437679 -1.298241
0.152147 1.433550 -1.298104
0.157080 1.428735 -1.296587
0.163640 1.425401 -1.298137
0.168210 1.420255 -1.295972
0.175047 1.417114 -1.298005
0.180338 1.412592 -1.297185
0.182790 1.405646 -1.291245
0.181668 1.395772 -1.278996
0.188924 1.392973 -1.281834
0.192304 1.386965 -1.277790
0.190099 1.376524 -1.264040
0.183793 1.363028 -1.243395
0.186457 1.356761 -1.238506
0.183744 1.346437 -1.224513
-0.174261 1.057762 -0.596233
-0.176771 1.052318 -0.587984
-0.177673 1.048093 -0.582477
-0.176137 1.045600 -0.580991
-0.173328 1.043975 -0.581567
-0.171959 1.041377 -0.579837
-0.169909 1.039237 -0.579206
-0.167966 1.037025 -0.578411
-0.166145 1.034737 -0.577433
-0.164881 1.032105 -0.575602
-0.163574 1.029513 -0.573860
-0.159867 1.028376 -0.575799
-0.158853 1.025612 -0.573626
-0.157107 1.023290 -0.572579
-0.155652 1.020806 -0.571108
-0.153952 1.018468 -0.570016
-0.152061 1.016239 -0.569213
-0.149927 1.014143 -0.568771
-0.146938 1.012500 -0.569571
-0.142322 1.011691 -0.572698
-0.138501 1.010424 -0.574639
-0.135858 1.008528 -0.574871
