ply
format ascii 1.0
comment ---
element vertex 1672
property float x
property float y
property float z
element face 0
property list uchar uint vertex_indices
end_header
0.071792 1.160579 -0.492120
0.069295 1.155162 -0.488106
0.079361 1.156510 -0.493310
0.080896 1.153254 -0.492247
0.078399 1.147909 -0.488269
0.082151 1.145831 -0.488823
0.089467 1.145533 -0.491918
0.095936 1.144740 -0.494368
0.096947 1.141194 -0.492912
0.095945 1.136680 -0.490041
0.096668 1.133031 -0.488400
0.101972 1.131566 -0.489968
0.100817 1.127038 -0.487018
0.104832 1.124928 -0.487665
0.110490 1.123534 -0.489425
0.111951 1.120211 -0.488282
0.116339 1.118181 -0.489134
0.127972 1.119270 -0.494880
0.124649 1.113818 -0.490464
0.126349 1.110549 -0.489452
0.124809 1.105930 -0.486273
0.128490 1.103489 -0.486585
0.136923 1.102942 -0.490023
0.139519 1.099985 -0.489572
0.138327 1.095530 -0.486632
0.138210 1.091520 -0.484408
0.144483 1.089955 -0.486335
0.149538 1.087875 -0.487443
0.152093 1.084831 -0.486921
0.154349 1.081664 -0.486198
0.149997 1.076134 -0.481271
0.163344 1.076862 -0.487565
0.163329 1.072852 -0.485378
0.169062 1.070801 -0.486794
0.174937 1.068744 -0.488269
0.182693 1.067247 -0.490879
0.188395 1.065017 -0.492182
0.191839 1.062026 -0.492072
0.190086 1.057406 -0.488780
0.193392 1.054357 -0.488576
0.190527 1.049451 -0.484636
0.192087 1.045888 -0.483380
0.197665 1.043474 -0.484524
0.202258 1.040741 -0.485059
0.201143 1.036410 -0.482203
0.203130 1.032948 -0.481190
0.209269 1.030583 -0.482608
0.211309 1.027118 -0.481617
0.219538 1.025222 -0.484213
0.237943 1.025782 -0.492640
0.230671 1.019966 -0.486261
0.228771 1.015534 -0.483008
0.231775 1.012293 -0.482569
0.235796 1.009291 -0.482712
0.243028 1.007000 -0.484661
0.249928 1.004609 -0.486412
0.246938 1.000115 -0.482653
0.270081 1.001076 -0.493406
0.279911 0.999193 -0.496736
0.266903 0.992803 -0.487531
0.264750 0.988674 -0.484353
0.284677 0.988745 -0.493217
-0.368525 1.671006 -0.567443
-0.364676 1.670153 -0.568751
-0.360483 1.670786 -0.571011
-0.356099 1.671991 -0.573666
-0.351491 1.673916 -0.576809
-0.346868 1.675463 -0.579763
-0.342555 1.675098 -0.581563
-0.338840 1.671616 -0.581436
-0.334576 1.670568 -0.582857
-0.330419 1.668835 -0.583867
-0.326168 1.667363 -0.585062
-0.321963 1.665556 -0.586059
-0.317815 1.663399 -0.586846
-0.313618 1.661368 -0.587725
-0.308965 1.661096 -0.589747
-0.305219 1.657145 -0.589401
-0.300931 1.655311 -0.590428
-0.296664 1.653363 -0.591386
-0.293066 1.648937 -0.590721
-0.288138 1.649369 -0.593246
-0.284008 1.646893 -0.593861
-0.280201 1.643329 -0.593749
-0.276414 1.639761 -0.593625
-0.272313 1.637306 -0.594236
-0.267847 1.636059 -0.595657
-0.265734 1.627337 -0.592022
-0.263375 1.619655 -0.589053
-0.263910 1.603374 -0.580182
-0.259630 1.602066 -0.581480
-0.253634 1.605800 -0.586246
-0.249258 1.604671 -0.587682
-0.251038 1.586073 -0.577000
-0.247886 1.581825 -0.576213
-0.243917 1.579914 -0.577042
-0.232998 1.596735 -0.591024
-0.233412 1.582943 -0.583520
-0.232920 1.571921 -0.577902
-0.229170 1.569556 -0.578385
-0.220462 1.579712 -0.587803
-0.217221 1.575945 -0.587304
-0.213082 1.574440 -0.588419
-0.206844 1.577979 -0.593180
-0.205911 1.568810 -0.588744
-0.203398 1.563552 -0.587112
-0.198965 1.562808 -0.588762
-0.196629 1.557299 -0.586913
-0.193837 1.552916 -0.585871
-0.196512 1.536618 -0.575978
-0.192315 1.535599 -0.577369
-0.188596 1.533537 -0.577984
-0.172070 1.548259 -0.593414
-0.168703 1.545235 -0.593353
-0.165555 1.541797 -0.592970
-0.161176 1.540843 -0.594473
-0.158235 1.537044 -0.593800
-0.156296 1.531352 -0.591659
-0.151666 1.530889 -0.593536
-0.148320 1.527966 -0.593513
-0.145772 1.523578 -0.592344
-0.141537 1.522340 -0.593623
-0.140118 1.515985 -0.590887
-0.137480 1.511910 -0.589922
-0.132709 1.511638 -0.591960
-0.129657 1.508325 -0.591589
-0.128130 1.502418 -0.589138
-0.125114 1.499122 -0.588758
-0.122545 1.495103 -0.587788
-0.118555 1.493471 -0.588740
-0.114104 1.492572 -0.590292
-0.110194 1.490760 -0.591110
-0.108639 1.485185 -0.588844
-0.108901 1.476828 -0.584263
-0.100573 1.481951 -0.590796
-0.098629 1.477094 -0.589089
-0.095152 1.474616 -0.589350
-0.091593 1.472257 -0.589712
-0.088428 1.469308 -0.589579
-0.084770 1.467088 -0.590059
-0.083393 1.461564 -0.587734
-0.080678 1.458017 -0.587075
-0.076529 1.456511 -0.588158
-0.073609 1.453264 -0.587751
-0.070227 1.450666 -0.587901
-0.065788 1.449503 -0.589299
-0.065176 1.443159 -0.586185
-0.059900 1.443092 -0.588549
-0.056286 1.440781 -0.588955
-0.054119 1.436582 -0.587695
-0.053079 1.430971 -0.585166
-0.048529 1.429873 -0.586646
-0.045084 1.427350 -0.586862
-0.042311 1.423989 -0.586323
-0.039174 1.421085 -0.586194
-0.036795 1.417266 -0.585230
-0.032621 1.415616 -0.586243
-0.029789 1.412352 -0.585782
-0.027386 1.408595 -0.584862
-0.024749 1.405130 -0.584204
-0.019461 1.404704 -0.586376
-0.015165 1.403102 -0.587468
-0.014227 1.397724 -0.585014
-0.011615 1.394249 -0.584338
-0.009287 1.390477 -0.583375
-0.006869 1.386822 -0.582514
-0.003983 1.383683 -0.582142
-0.000196 1.381499 -0.582691
0.001668 1.377295 -0.581284
0.004164 1.373770 -0.580527
0.008798 1.372437 -0.581915
0.015626 1.373278 -0.585462
0.017590 1.369191 -0.584162
0.020890 1.366443 -0.584186
0.024006 1.363512 -0.584028
0.032958 1.366197 -0.589526
0.033085 1.360357 -0.586453
0.035027 1.356290 -0.585153
0.038325 1.353508 -0.585157
0.036752 1.346244 -0.580549
0.043623 1.346750 -0.583935
0.047886 1.344835 -0.584839
0.051581 1.342390 -0.585203
0.055941 1.340517 -0.586174
0.058137 1.336738 -0.585142
0.060174 1.332841 -0.583975
0.063673 1.330204 -0.584144
-0.038166 1.234628 -0.486743
-0.040214 1.228445 -0.482498
-0.042647 1.222035 -0.477957
-0.041250 1.218785 -0.476845
-0.038209 1.216855 -0.477186
-0.033682 1.216077 -0.478818
-0.027599 1.216465 -0.481780
-0.031059 1.209485 -0.476466
-0.021451 1.212493 -0.482429
-0.020755 1.208712 -0.480713
-0.022390 1.203236 -0.477032
-0.017195 1.202819 -0.479158
-0.010441 1.203478 -0.482567
-0.006762 1.201869 -0.483367
0.000622 1.202851 -0.487234
0.005366 1.201911 -0.488873
0.012020 1.202246 -0.492062
0.016100 1.200760 -0.493107
0.011437 1.193366 -0.487023
0.011417 1.189169 -0.484757
0.015062 1.187417 -0.485461
0.017742 1.185017 -0.485380
0.019801 1.182213 -0.484801
0.032651 1.186248 -0.492776
0.032318 1.181870 -0.490269
0.038722 1.181698 -0.493067
0.044949 1.181355 -0.495693
0.035368 1.171414 -0.486013
0.036045 1.167762 -0.484350
0.040760 1.166508 -0.485801
0.050187 1.167957 -0.490835
0.060998 1.170095 -0.496864
0.065308 1.168424 -0.497905
0.059842 1.161246 -0.491568
0.063607 1.159280 -0.492203
0.063704 1.155288 -0.490091
0.065549 1.152265 -0.489290
0.067683 1.149398 -0.488702
0.068203 1.145682 -0.486927
0.075506 1.145501 -0.490117
0.081727 1.144695 -0.492482
0.083345 1.141506 -0.491484
0.083459 1.137573 -0.489407
0.083430 1.133591 -0.487238
0.085133 1.130475 -0.486316
0.090384 1.129057 -0.487908
0.093350 1.126516 -0.487864
0.096487 1.124038 -0.487930
0.095322 1.119567 -0.484981
0.099869 1.117718 -0.486020
0.100452 1.114064 -0.484297
0.106061 1.112632 -0.486038
0.116084 1.113064 -0.490772
0.119711 1.110656 -0.491091
0.117688 1.105844 -0.487566
0.111932 1.099528 -0.481546
0.119150 1.098601 -0.484278
0.127090 1.097894 -0.487453
0.130032 1.095126 -0.487264
0.129956 1.091162 -0.485068
0.131830 1.087964 -0.484164
0.134572 1.085088 -0.483822
0.141392 1.083711 -0.486125
0.143172 1.080423 -0.485126
0.143109 1.076466 -0.482935
0.154523 1.076588 -0.488112
0.156301 1.073235 -0.487073
0.161773 1.071140 -0.488375
0.164214 1.067976 -0.487735
0.165159 1.064303 -0.486146
0.167426 1.061064 -0.485386
0.174431 1.059324 -0.487564
0.182640 1.057894 -0.490451
0.183839 1.054233 -0.488979
0.183247 1.050034 -0.486411
0.182218 1.045730 -0.483589
0.184006 1.042272 -0.482491
0.189069 1.039743 -0.483365
0.191932 1.036564 -0.482899
0.196948 1.033961 -0.483712
0.202652 1.031508 -0.484914
0.204660 1.028047 -0.483911
0.209404 1.025292 -0.484519
0.214435 1.022583 -0.485281
0.222175 1.020515 -0.487606
0.227272 1.017760 -0.488373
0.226639 1.013642 -0.485833
0.228247 1.010081 -0.484601
0.230436 1.006675 -0.483715
0.231650 1.003074 -0.482288
0.244082 1.001905 -0.487212
0.259523 1.001287 -0.493785
0.271033 0.999766 -0.498109
0.272178 0.996128 -0.496641
0.269425 0.991782 -0.493044
0.262441 0.986727 -0.487169
0.260844 0.982794 -0.484321
-0.370696 1.666221 -0.569237
-0.366331 1.668330 -0.572386
-0.362128 1.669024 -0.574704
-0.357848 1.669690 -0.577046
-0.353587 1.669847 -0.579110
-0.348635 1.673127 -0.583173
-0.344748 1.670686 -0.583675
-0.341151 1.666677 -0.583204
-0.337311 1.663728 -0.583418
-0.333001 1.662803 -0.584937
-0.328572 1.662220 -0.586696
-0.324286 1.660832 -0.587959
-0.320224 1.658372 -0.588545
-0.316271 1.655402 -0.588807
-0.312133 1.653156 -0.589544
-0.307763 1.651780 -0.590857
-0.303564 1.649677 -0.591701
-0.299469 1.647159 -0.592275
-0.295559 1.643963 -0.592399
-0.291605 1.640962 -0.592648
-0.288126 1.636322 -0.591796
-0.283236 1.636666 -0.594275
-0.279329 1.633594 -0.594463
-0.275598 1.629995 -0.594286
-0.272297 1.625074 -0.593200
-0.269806 1.617703 -0.590421
-0.270996 1.599064 -0.579882
-0.269264 1.590027 -0.575854
-0.260322 1.602951 -0.586964
-0.258289 1.594959 -0.583636
-0.258985 1.579298 -0.574920
-0.255150 1.577043 -0.575506
-0.250574 1.576895 -0.577567
-0.246656 1.574899 -0.578329
-0.239906 1.580575 -0.584524
-0.237907 1.573396 -0.581610
-0.238150 1.560554 -0.574611
-0.235335 1.555946 -0.573454
-0.231018 1.555234 -0.575085
-0.227692 1.552037 -0.574921
-0.225116 1.547060 -0.573452
-0.222085 1.543288 -0.572840
-0.216229 1.546284 -0.577173
-0.215748 1.536591 -0.572195
-0.199303 1.563858 -0.594481
-0.195110 1.562503 -0.595704
-0.196353 1.549008 -0.587879
-0.199433 1.531817 -0.577215
-0.197339 1.526285 -0.575215
-0.192745 1.526202 -0.577303
-0.187247 1.527973 -0.580805
-0.177302 1.538872 -0.591275
-0.172715 1.538449 -0.593175
-0.168983 1.536257 -0.593725
-0.166198 1.532184 -0.592825
-0.162967 1.529045 -0.592633
-0.159493 1.526404 -0.592820
-0.157458 1.521030 -0.590870
-0.154893 1.516739 -0.589748
-0.153432 1.510454 -0.587041
-0.145562 1.516035 -0.593682
-0.142705 1.512335 -0.593011
-0.142390 1.504131 -0.588740
-0.139106 1.501316 -0.588740
-0.134543 1.500740 -0.590536
-0.131706 1.497154 -0.589913
-0.129122 1.493169 -0.588959
-0.125942 1.490222 -0.588838
-0.122488 1.487744 -0.589095
-0.119867 1.483905 -0.588234
-0.116502 1.481300 -0.588380
-0.115227 1.475369 -0.585771
-0.112147 1.472363 -0.585569
-0.108531 1.470201 -0.586068
-0.102808 1.471265 -0.589277
-0.100093 1.467679 -0.588592
-0.097023 1.464649 -0.588370
-0.092048 1.464449 -0.590552
-0.091952 1.457057 -0.586607
-0.088329 1.454873 -0.587096
-0.084788 1.452562 -0.587476
-0.081810 1.449447 -0.587165
-0.079262 1.445743 -0.586336
-0.073151 1.446969 -0.589807
-0.071296 1.442313 -0.588146
-0.070255 1.436605 -0.585542
-0.062172 1.440325 -0.591264
-0.057877 1.438918 -0.592477
-0.060515 1.428482 -0.585629
-0.057141 1.425936 -0.585804
-0.054562 1.422375 -0.585064
-0.048968 1.422611 -0.587760
-0.047040 1.418236 -0.586281
-0.044420 1.414744 -0.585597
-0.041842 1.411217 -0.584875
-0.037941 1.409287 -0.585622
-0.034894 1.406328 -0.585420
-0.032981 1.402046 -0.583983
-0.029784 1.399280 -0.583955
-0.026067 1.397106 -0.584485
-0.021379 1.396013 -0.586045
-0.018199 1.393195 -0.585980
-0.015662 1.389667 -0.585236
-0.012335 1.387015 -0.585328
-0.010561 1.382684 -0.583799
-0.008664 1.378516 -0.582415
-0.006431 1.374731 -0.581393
-0.002798 1.372425 -0.581811
0.000740 1.370007 -0.582125
0.002171 1.365434 -0.580307
0.007706 1.365028 -0.582625
0.011258 1.362594 -0.582936
0.012782 1.358153 -0.581232
0.015151 1.354568 -0.580378
0.019040 1.352459 -0.581019
0.021909 1.349363 -0.580658
0.026012 1.347430 -0.581492
0.028824 1.344275 -0.581073
0.032635 1.342042 -0.581611
0.037086 1.340373 -0.582746
0.041510 1.338652 -0.583841
0.045695 1.336690 -0.584696
0.050077 1.334878 -0.585722
0.053587 1.332282 -0.585924
0.055274 1.328115 -0.584440
-0.044229 1.233640 -0.487730
-0.046677 1.227110 -0.483074
-0.049542 1.220331 -0.478091
-0.049672 1.215865 -0.475613
-0.046873 1.213791 -0.475771
-0.043023 1.212540 -0.476855
-0.037861 1.212288 -0.479081
-0.032781 1.211922 -0.481207
-0.027631 1.211563 -0.483368
-0.026514 1.208108 -0.482007
-0.025395 1.204676 -0.480659
-0.028524 1.198132 -0.475682
-0.022866 1.198090 -0.478246
-0.018093 1.197354 -0.480030
-0.012909 1.196869 -0.482138
-0.007027 1.196828 -0.484805
-0.000880 1.196912 -0.487660
0.002448 1.194996 -0.488142
0.004780 1.192387 -0.487793
0.003030 1.187038 -0.484091
0.006276 1.185068 -0.484504
0.010750 1.183888 -0.485908
0.013576 1.181605 -0.485960
0.017143 1.179788 -0.486603
0.020015 1.177512 -0.486678
0.028713 1.178864 -0.491384
0.028281 1.174486 -0.488809
0.030409 1.171707 -0.488270
0.029460 1.167078 -0.485322
0.029167 1.162885 -0.482909
0.034303 1.161916 -0.484725
0.044761 1.163991 -0.490625
0.050782 1.163403 -0.493051
0.052408 1.160273 -0.492090
0.050296 1.155063 -0.488292
0.052204 1.152129 -0.487565
0.056964 1.150749 -0.488983
0.056904 1.146740 -0.486772
0.056638 1.142652 -0.484424
0.060881 1.140954 -0.485432
0.071836 1.142695 -0.491371
0.078078 1.141909 -0.493785
0.078007 1.137886 -0.491559
0.076535 1.133195 -0.488329
0.076566 1.129284 -0.486209
0.077096 1.125638 -0.484459
0.079274 1.122795 -0.483898
0.088912 1.123454 -0.488642
0.084952 1.117703 -0.483698
0.089919 1.116108 -0.485085
0.092459 1.113377 -0.484746
0.094461 1.110394 -0.484025
0.098116 1.108131 -0.484447
0.107782 1.108437 -0.489007
0.116558 1.108263 -0.492898
0.107780 1.100636 -0.484732
0.108701 1.097144 -0.483237
0.110565 1.094043 -0.482382
0.115636 1.092221 -0.483685
0.119174 1.089749 -0.483934
0.121324 1.086712 -0.483242
0.115907 1.080770 -0.477521
0.125291 1.080481 -0.481619
0.135932 1.080559 -0.486488
0.139403 1.077913 -0.486606
0.140058 1.074231 -0.484878
0.145061 1.072088 -0.485967
0.149574 1.069731 -0.486714
0.154345 1.067423 -0.487605
0.156116 1.064070 -0.486560
0.157478 1.060576 -0.485252
0.159266 1.057218 -0.484211
0.163882 1.054751 -0.484941
0.171570 1.053202 -0.487568
0.175506 1.050433 -0.487822
0.174296 1.046094 -0.484880
0.178556 1.043392 -0.485317
0.180428 1.039972 -0.484276
0.182474 1.036597 -0.483339
0.188596 1.034347 -0.484868
0.190371 1.030870 -0.483751
0.194639 1.028057 -0.484129
0.200945 1.025750 -0.485709
0.204215 1.022626 -0.485464
0.209417 1.019974 -0.486355
0.213451 1.017011 -0.486546
0.217992 1.014156 -0.487027
0.225447 1.011966 -0.489194
0.223218 1.007531 -0.485739
0.225019 1.004055 -0.484640
0.229985 1.001289 -0.485367
0.240262 0.999643 -0.489117
0.247713 0.997357 -0.491237
0.266170 0.993421 -0.497446
0.249472 0.986429 -0.486040
0.252573 0.983364 -0.485771
0.275217 0.983900 -0.496340
-0.372234 1.665073 -0.573264
-0.368005 1.666421 -0.575967
-0.363739 1.667473 -0.578531
-0.359738 1.666647 -0.579955
-0.355442 1.667029 -0.582175
-0.350836 1.668602 -0.585189
-0.346702 1.667436 -0.586498
-0.343388 1.662079 -0.585153
-0.339428 1.659745 -0.585752
-0.335016 1.659338 -0.587609
-0.330768 1.657988 -0.588879
-0.326459 1.656755 -0.590243
-0.322738 1.652888 -0.589904
-0.318575 1.650863 -0.590772
-0.314314 1.649170 -0.591867
-0.310243 1.646659 -0.592430
-0.305878 1.645268 -0.593738
-0.302244 1.641056 -0.593175
-0.298065 1.638933 -0.593999
-0.294202 1.635666 -0.594056
-0.290252 1.632753 -0.594344
-0.286343 1.629737 -0.594558
-0.282436 1.626761 -0.594792
-0.279244 1.621461 -0.593430
-0.275443 1.618289 -0.593507
-0.276933 1.598261 -0.581959
-0.274159 1.592319 -0.580051
-0.267088 1.599771 -0.587422
-0.264158 1.594389 -0.585889
-0.264697 1.578877 -0.577234
-0.261328 1.575248 -0.576856
-0.257808 1.572134 -0.576827
-0.255195 1.566538 -0.575026
-0.249915 1.568447 -0.578547
-0.245197 1.568719 -0.580914
-0.239996 1.570227 -0.584179
-0.237294 1.565090 -0.582666
-0.237210 1.553329 -0.576329
-0.234771 1.547876 -0.574519
-0.230417 1.547330 -0.576269
-0.226520 1.545632 -0.577177
-0.224860 1.538540 -0.574110
-0.222565 1.533129 -0.572252
-0.216829 1.535893 -0.576442
-0.205452 1.551535 -0.590264
-0.201220 1.550430 -0.591648
-0.206590 1.527825 -0.576863
-0.204201 1.522938 -0.575329
-0.200784 1.520378 -0.575539
-0.196641 1.519395 -0.576945
-0.189691 1.524309 -0.582865
-0.184813 1.524725 -0.585373
-0.180554 1.523804 -0.586863
-0.175756 1.523947 -0.589184
-0.170601 1.524743 -0.592025
-0.166589 1.523213 -0.593068
-0.163703 1.519485 -0.592389
-0.160365 1.516667 -0.592416
-0.158703 1.510704 -0.589950
-0.156372 1.506087 -0.588527
-0.153076 1.503311 -0.588555
-0.149923 1.500288 -0.588381
-0.145627 1.499333 -0.589864
-0.143485 1.494539 -0.588255
-0.139840 1.492430 -0.588806
-0.135371 1.491734 -0.590509
-0.134566 1.484768 -0.587093
-0.130568 1.483278 -0.588143
-0.126795 1.481391 -0.588873
-0.124482 1.477103 -0.587615
-0.121200 1.474426 -0.587685
-0.117382 1.472610 -0.588472
-0.115658 1.467478 -0.586480
-0.110070 1.468422 -0.589592
-0.107351 1.464873 -0.588923
-0.104671 1.461287 -0.588216
-0.100350 1.460188 -0.589626
-0.097128 1.457425 -0.589617
-0.096862 1.450339 -0.585880
-0.094233 1.446777 -0.585160
-0.089337 1.446476 -0.587270
-0.086998 1.442510 -0.586195
-0.084026 1.439458 -0.585911
-0.083683 1.432791 -0.582436
-0.080251 1.430426 -0.582740
-0.074559 1.431092 -0.585746
-0.070059 1.430094 -0.587290
-0.067785 1.426131 -0.586184
-0.066152 1.421365 -0.584343
-0.061186 1.420922 -0.586405
-0.058292 1.417797 -0.586043
-0.055856 1.414107 -0.585161
-0.051608 1.412682 -0.586354
-0.049055 1.409150 -0.585611
-0.046131 1.406084 -0.585294
-0.042556 1.403803 -0.585707
-0.040280 1.399973 -0.584673
-0.037165 1.397147 -0.584575
-0.033433 1.395033 -0.585152
-0.029354 1.393299 -0.586096
-0.025521 1.391262 -0.586761
-0.023667 1.386998 -0.585293
-0.020607 1.384096 -0.585127
-0.016792 1.382018 -0.585761
-0.016236 1.376409 -0.582957
-0.013666 1.373009 -0.582291
-0.010528 1.370218 -0.582221
-0.006005 1.368868 -0.583580
-0.003562 1.365342 -0.582787
-0.001134 1.361816 -0.581986
0.001551 1.358562 -0.581453
0.005839 1.356910 -0.582537
0.008514 1.353644 -0.581993
0.010850 1.350057 -0.581116
0.014308 1.347564 -0.581356
0.018023 1.345305 -0.581843
0.021311 1.342631 -0.581904
0.025150 1.340462 -0.582498
0.028995 1.338282 -0.583086
0.033189 1.336400 -0.584000
0.037516 1.334614 -0.585028
0.040196 1.331341 -0.584480
0.044260 1.329288 -0.585240
-0.053550 1.225384 -0.483197
-0.055534 1.219319 -0.478965
-0.057863 1.213055 -0.474464
-0.054609 1.211394 -0.475061
-0.051664 1.209470 -0.475372
-0.047488 1.208508 -0.476778
-0.041310 1.209075 -0.479945
-0.034037 1.210418 -0.484044
-0.032163 1.207555 -0.483345
-0.030694 1.204396 -0.482297
-0.033540 1.198036 -0.477503
-0.028864 1.197307 -0.479267
-0.024342 1.196426 -0.480875
-0.021665 1.194181 -0.480885
-0.022010 1.189779 -0.478317
-0.017743 1.188664 -0.479679
-0.009510 1.190270 -0.484363
-0.013093 1.183670 -0.479096
-0.007381 1.183469 -0.481625
-0.004328 1.181430 -0.481920
0.001518 1.181229 -0.484510
0.006032 1.180098 -0.485977
0.008988 1.177926 -0.486152
0.010690 1.174942 -0.485305
0.012542 1.172061 -0.484581
0.015420 1.169825 -0.484685
0.019489 1.168312 -0.485735
0.022166 1.165924 -0.485662
0.023364 1.162641 -0.484415
0.024743 1.159479 -0.483318
0.029029 1.158031 -0.484502
0.035672 1.157915 -0.487504
0.037356 1.154900 -0.486626
0.038883 1.151802 -0.485631
0.042418 1.149831 -0.486180
0.043217 1.146334 -0.484629
0.042423 1.141989 -0.481877
0.046650 1.140374 -0.482939
0.049711 1.138111 -0.483107
0.055652 1.137336 -0.485420
0.062888 1.137173 -0.488664
0.068147 1.135932 -0.490406
0.069708 1.132790 -0.489398
0.068699 1.128381 -0.486508
0.070262 1.125265 -0.485514
0.070935 1.121724 -0.483875
0.072265 1.118509 -0.482718
0.074011 1.115495 -0.481862
0.079676 1.114291 -0.483807
0.084918 1.112842 -0.485421
0.088066 1.110407 -0.485528
0.089980 1.107405 -0.484754
0.097517 1.106854 -0.487917
0.105233 1.106305 -0.491162
0.104196 1.101967 -0.488292
0.112485 1.101556 -0.491876
0.106414 1.095152 -0.485551
0.105709 1.091016 -0.482942
0.108262 1.088206 -0.482563
0.108734 1.084564 -0.480768
0.105487 1.079495 -0.476474
0.105624 1.075770 -0.474477
0.115624 1.075753 -0.479060
0.131535 1.077809 -0.487503
0.134427 1.074968 -0.487258
0.135878 1.071594 -0.486056
0.138831 1.068744 -0.485834
0.142832 1.066235 -0.486280
0.141374 1.061845 -0.483177
0.144814 1.059116 -0.483243
0.150186 1.056992 -0.484529
0.154675 1.054537 -0.485226
0.158390 1.051800 -0.485412
0.166583 1.050420 -0.488403
0.167910 1.046876 -0.487045
0.167658 1.042863 -0.484701
0.169109 1.039367 -0.483425
0.179914 1.038550 -0.487925
0.180424 1.034739 -0.486042
0.182523 1.031378 -0.485137
0.186826 1.028608 -0.485571
0.187038 1.024733 -0.483516
0.191705 1.022028 -0.484152
0.203385 1.021069 -0.488974
0.202669 1.016945 -0.486355
0.209551 1.014694 -0.488260
0.220402 1.013337 -0.492483
0.209269 1.006824 -0.483763
0.217428 1.004816 -0.486390
0.222241 1.002026 -0.487051
0.225019 0.998789 -0.486531
0.232962 0.996654 -0.488993
0.230994 0.992456 -0.485766
0.226421 0.987810 -0.481098
0.234439 0.985716 -0.483622
0.248399 0.984731 -0.489488
0.230941 0.977853 -0.477677
0.221932 0.972727 -0.470715
-0.372811 1.669598 -0.580864
-0.370284 1.661077 -0.577382
-0.365802 1.663440 -0.580790
-0.361857 1.662372 -0.582067
-0.357716 1.662012 -0.583826
-0.354007 1.659102 -0.583986
-0.349509 1.659947 -0.586577
-0.346209 1.654632 -0.585229
-0.341565 1.655666 -0.587997
-0.337158 1.655298 -0.589886
-0.332999 1.653595 -0.590927
-0.330437 1.644768 -0.587310
-0.326397 1.642494 -0.587984
-0.320770 1.646777 -0.593002
-0.316792 1.643979 -0.593361
-0.312725 1.641521 -0.593949
-0.309275 1.636643 -0.592919
-0.305479 1.633185 -0.592831
-0.301473 1.630548 -0.593292
-0.296546 1.631280 -0.596035
-0.292910 1.627297 -0.595584
-0.289151 1.623828 -0.595472
-0.286414 1.616936 -0.593000
-0.282412 1.614486 -0.593561
-0.283488 1.595431 -0.582619
-0.282600 1.583378 -0.576442
-0.274053 1.595852 -0.587332
-0.270214 1.593254 -0.587732
-0.269638 1.580811 -0.581193
-0.268300 1.571049 -0.576482
-0.265060 1.567147 -0.575883
-0.262400 1.561675 -0.574148
-0.258427 1.560050 -0.575143
-0.253853 1.560101 -0.577340
-0.245703 1.569829 -0.586533
-0.241490 1.568654 -0.587885
-0.242950 1.552564 -0.578377
-0.241482 1.544529 -0.574670
-0.237751 1.542465 -0.575305
-0.233086 1.542760 -0.577675
-0.224273 1.553208 -0.587573
-0.221933 1.547599 -0.585605
-0.217768 1.546470 -0.586956
-0.213663 1.545186 -0.588193
-0.209764 1.543415 -0.589064
-0.212147 1.527346 -0.579125
-0.213073 1.514976 -0.571903
-0.209080 1.513791 -0.573138
-0.204691 1.513453 -0.575025
-0.200029 1.513660 -0.577339
-0.192166 1.520580 -0.584847
-0.187685 1.520201 -0.586752
-0.184262 1.517604 -0.586941
-0.180862 1.514979 -0.587103
-0.176610 1.514076 -0.588612
-0.171502 1.514830 -0.591433
-0.167464 1.513429 -0.592566
-0.166966 1.505223 -0.588294
-0.164039 1.501776 -0.587779
-0.160221 1.500025 -0.588615
-0.156805 1.497522 -0.588848
-0.153096 1.495562 -0.589516
-0.150375 1.491824 -0.588743
-0.146292 1.490533 -0.589954
-0.143413 1.487115 -0.589430
-0.141148 1.482666 -0.588049
-0.138092 1.479619 -0.587811
-0.134098 1.478163 -0.588889
-0.130792 1.475545 -0.589003
-0.129575 1.469511 -0.586257
-0.126705 1.466240 -0.585807
-0.122985 1.464346 -0.586513
-0.119496 1.462074 -0.586902
-0.119850 1.453812 -0.582192
-0.111874 1.458504 -0.588517
-0.109217 1.454940 -0.587804
-0.107623 1.449804 -0.585726
-0.103625 1.448295 -0.586772
-0.100909 1.444880 -0.586168
-0.098776 1.440645 -0.584839
-0.096039 1.437311 -0.584288
-0.092067 1.435736 -0.585284
-0.089127 1.432698 -0.584991
-0.086647 1.429033 -0.584137
-0.083464 1.426350 -0.584152
-0.079303 1.424984 -0.585352
-0.075439 1.423191 -0.586176
-0.072613 1.420013 -0.585751
-0.069009 1.417855 -0.586252
-0.067302 1.413249 -0.584516
-0.063134 1.411808 -0.585676
-0.058370 1.411084 -0.587510
-0.055936 1.407424 -0.586635
-0.052935 1.404480 -0.586420
-0.049918 1.401559 -0.586224
-0.047492 1.397933 -0.585364
-0.044317 1.395213 -0.585353
-0.040840 1.392843 -0.585676
-0.036968 1.390918 -0.586429
-0.033417 1.388608 -0.586820
-0.031400 1.384552 -0.585530
-0.028367 1.381659 -0.585357
-0.024291 1.379917 -0.586305
-0.023940 1.374089 -0.583259
-0.020273 1.371902 -0.583770
-0.015444 1.370938 -0.585500
-0.012664 1.367772 -0.585057
-0.010090 1.364400 -0.584404
-0.006929 1.361642 -0.584364
-0.004945 1.357684 -0.583112
-0.002204 1.354512 -0.582646
0.000515 1.351326 -0.582163
0.007253 1.352094 -0.585740
0.007526 1.346499 -0.582784
0.009565 1.342662 -0.581623
0.013621 1.340761 -0.582473
0.017907 1.339054 -0.583538
0.021210 1.336406 -0.583624
0.023229 1.332575 -0.582456
0.025972 1.329421 -0.582000
0.029792 1.327237 -0.582584
0.031601 1.323255 -0.581234
-0.063339 1.230049 -0.485424
-0.061894 1.226805 -0.484311
-0.067257 1.217822 -0.476848
-0.065883 1.214625 -0.475728
-0.063766 1.212059 -0.475302
-0.057901 1.212561 -0.478323
-0.057677 1.208440 -0.476154
-0.055793 1.205685 -0.475515
-0.050671 1.205493 -0.477805
-0.046431 1.204563 -0.479274
-0.040138 1.205180 -0.482556
-0.035919 1.204147 -0.483959
-0.035254 1.200404 -0.482204
-0.034444 1.196800 -0.480594
-0.032019 1.194409 -0.480409
-0.027260 1.193714 -0.482249
-0.024714 1.191386 -0.482154
-0.027344 1.185382 -0.477611
-0.027615 1.181115 -0.475128
-0.018428 1.183446 -0.480708
-0.018603 1.179250 -0.478309
-0.017216 1.176152 -0.477246
-0.010027 1.176947 -0.481044
-0.005098 1.176170 -0.482917
-0.001946 1.174190 -0.483296
0.000645 1.171834 -0.483204
0.005746 1.171071 -0.485165
0.007622 1.168234 -0.484473
0.009895 1.165648 -0.484105
0.013168 1.163676 -0.484543
0.014227 1.160344 -0.483196
0.014739 1.156700 -0.481421
0.019896 1.155829 -0.483345
0.024187 1.154408 -0.484562
0.027486 1.152381 -0.484981
0.031704 1.150861 -0.486108
0.033346 1.147860 -0.485214
0.034970 1.144855 -0.484309
0.034800 1.140873 -0.482025
0.034682 1.136948 -0.479797
0.038725 1.135277 -0.480757
0.045723 1.135135 -0.483942
0.051248 1.134155 -0.485975
0.057542 1.133522 -0.488559
0.060316 1.131044 -0.488478
0.061931 1.127975 -0.487530
0.064433 1.125346 -0.487239
0.061924 1.120269 -0.483255
0.061272 1.116140 -0.480662
0.069031 1.116027 -0.484213
0.071030 1.113144 -0.483545
0.075001 1.111165 -0.484296
0.080214 1.109720 -0.485921
0.082126 1.106751 -0.485164
0.082989 1.103316 -0.483658
0.092135 1.103492 -0.488013
0.096829 1.101663 -0.489181
0.096116 1.097512 -0.486543
0.093587 1.092633 -0.482654
0.092781 1.088510 -0.479987
0.097605 1.086686 -0.481216
0.100969 1.084240 -0.481420
0.103851 1.081580 -0.481281
0.101267 1.076797 -0.477417
0.100175 1.072627 -0.474588
0.100222 1.068910 -0.472539
0.103708 1.066469 -0.472800
0.125948 1.070767 -0.485532
0.128040 1.067664 -0.484775
0.128319 1.063919 -0.482817
0.131482 1.061173 -0.482755
0.132917 1.057823 -0.481553
0.134357 1.054471 -0.480353
0.145233 1.054184 -0.485244
0.148288 1.051288 -0.485047
0.149923 1.047925 -0.483929
0.156861 1.046189 -0.486181
0.161287 1.043630 -0.486808
0.162428 1.040063 -0.485346
0.163313 1.036426 -0.483724
0.167182 1.033644 -0.483966
0.171103 1.030851 -0.484226
0.177980 1.028839 -0.486295
0.174525 1.024007 -0.481991
0.177325 1.020873 -0.481539
0.180909 1.017932 -0.481559
0.186404 1.015455 -0.482726
0.199851 1.014893 -0.488655
0.205528 1.012350 -0.489871
0.199895 1.007128 -0.484338
0.213583 1.006423 -0.490301
0.213726 1.002580 -0.488222
0.213546 0.998705 -0.485976
0.218048 0.995871 -0.486486
0.221464 0.992810 -0.486366
0.221479 0.989072 -0.484291
0.222453 0.985575 -0.482795
0.234503 0.984259 -0.487663
0.229207 0.979620 -0.482622
0.226296 0.975530 -0.478996
0.223124 0.971482 -0.475274
-0.376130 1.658006 -0.578315
-0.372569 1.655650 -0.578702
-0.368531 1.655660 -0.580629
-0.364910 1.652984 -0.580870
-0.361017 1.651520 -0.581914
-0.356185 1.654623 -0.585937
-0.352679 1.650572 -0.585366
-0.348490 1.649769 -0.586921
-0.344418 1.648170 -0.587980
-0.340650 1.644986 -0.588018
-0.336486 1.643518 -0.589195
-0.332814 1.639739 -0.588859
-0.328703 1.637842 -0.589775
-0.324378 1.636759 -0.591244
-0.319654 1.637204 -0.593751
-0.315735 1.634260 -0.593997
-0.311849 1.631193 -0.594159
-0.307939 1.628237 -0.594394
-0.304115 1.624984 -0.594424
-0.300097 1.622486 -0.594965
-0.296266 1.619335 -0.595054
-0.292207 1.617036 -0.595724
-0.288715 1.612813 -0.595057
-0.289029 1.595906 -0.585549
-0.288060 1.583841 -0.579334
-0.281544 1.590086 -0.585908
-0.274550 1.597547 -0.593383
-0.271540 1.592305 -0.591921
-0.273754 1.571311 -0.579240
-0.271021 1.565825 -0.577509
-0.268617 1.559527 -0.575171
-0.264700 1.557767 -0.576068
-0.261558 1.553831 -0.575390
-0.256840 1.554367 -0.577940
-0.249511 1.561962 -0.585646
-0.243678 1.565239 -0.590246
-0.249149 1.538553 -0.572853
-0.244947 1.537792 -0.574436
-0.240568 1.537462 -0.576343
-0.226145 1.562296 -0.596981
-0.220069 1.554151 -0.595366
-0.217533 1.548999 -0.593720
-0.215915 1.541794 -0.590497
-0.220194 1.521093 -0.576986
-0.219097 1.513244 -0.573158
-0.215579 1.511026 -0.573604
-0.212004 1.508950 -0.574155
-0.207488 1.508939 -0.576299
-0.201461 1.512125 -0.580934
-0.195420 1.515200 -0.585514
-0.191610 1.513473 -0.586369
-0.187754 1.511839 -0.587297
-0.183742 1.510510 -0.588468
-0.180256 1.508114 -0.588796
-0.176567 1.506130 -0.589449
-0.173885 1.502183 -0.588535
-0.168999 1.502522 -0.591045
-0.167820 1.495772 -0.587859
-0.164916 1.492371 -0.587352
-0.160884 1.491083 -0.588553
-0.158208 1.487305 -0.587727
-0.154182 1.485992 -0.588910
-0.150723 1.483649 -0.589252
-0.147124 1.481554 -0.589797
-0.145144 1.476658 -0.588018
-0.142824 1.472409 -0.586761
-0.138402 1.471745 -0.588490
-0.137528 1.465144 -0.585240
-0.133755 1.463405 -0.586064
-0.129533 1.462375 -0.587495
-0.125631 1.460799 -0.588470
-0.125752 1.452850 -0.583997
-0.123366 1.448946 -0.582960
-0.119664 1.447101 -0.583690
-0.114856 1.446924 -0.585871
-0.111653 1.444278 -0.585920
-0.107374 1.443230 -0.587365
-0.104382 1.440261 -0.587134
-0.102540 1.435635 -0.585436
-0.099658 1.432545 -0.585085
-0.096436 1.429947 -0.585167
-0.092687 1.428084 -0.585908
-0.089781 1.425040 -0.585593
-0.087387 1.421308 -0.584653
-0.083727 1.419305 -0.585273
-0.081154 1.415840 -0.584566
-0.078034 1.413113 -0.584527
-0.073670 1.412001 -0.585976
-0.071627 1.407874 -0.584649
-0.070423 1.402714 -0.582350
-0.068567 1.398428 -0.580846
-0.062712 1.399134 -0.584011
-0.057602 1.398847 -0.586270
-0.054467 1.396112 -0.586233
-0.051234 1.393493 -0.586307
-0.049157 1.389504 -0.585072
-0.049265 1.382990 -0.581399
-0.046658 1.379696 -0.580801
-0.040046 1.380987 -0.584647
-0.035562 1.379782 -0.586099
-0.032595 1.376848 -0.585871
-0.031081 1.372316 -0.584067
-0.026543 1.371117 -0.585547
-0.025289 1.366343 -0.583485
-0.020898 1.364953 -0.584790
-0.017307 1.362688 -0.585229
-0.013547 1.360586 -0.585838
-0.013908 1.354228 -0.582131
-0.010113 1.352176 -0.582784
-0.006488 1.349934 -0.583252
-0.003235 1.347308 -0.583329
-0.000009 1.344650 -0.583376
0.002797 1.341580 -0.582995
0.005209 1.338137 -0.582221
0.008643 1.335675 -0.582475
0.014693 1.335656 -0.585326
0.016811 1.331927 -0.584252
0.018988 1.328272 -0.583247
0.022410 1.325760 -0.583468
0.025316 1.322778 -0.583183
0.027691 1.319327 -0.582385
-0.062048 1.230756 -0.490664
-0.068314 1.220897 -0.482215
-0.072035 1.213359 -0.476260
-0.070850 1.210037 -0.474972
-0.066622 1.209251 -0.476533
-0.058474 1.211626 -0.481706
-0.058308 1.207455 -0.479463
-0.057598 1.203758 -0.477740
-0.055562 1.201137 -0.477243
-0.048353 1.202549 -0.481436
-0.044819 1.201044 -0.482269
-0.041458 1.199386 -0.482934
-0.044522 1.192880 -0.477863
-0.039125 1.192755 -0.480344
-0.036219 1.190747 -0.480599
-0.031043 1.190376 -0.482838
-0.029175 1.187584 -0.482166
-0.031184 1.182052 -0.478135
-0.030729 1.178318 -0.476270
-0.025913 1.177631 -0.478162
-0.020096 1.177586 -0.480885
-0.018982 1.174306 -0.479584
-0.017654 1.171187 -0.478473
-0.012590 1.170546 -0.480507
-0.009948 1.168282 -0.480493
-0.005209 1.167361 -0.482217
-0.003835 1.164260 -0.481138
0.001837 1.163871 -0.483599
0.005280 1.162046 -0.484208
0.005818 1.158421 -0.482440
0.006950 1.155181 -0.481168
0.009430 1.152761 -0.480989
0.013606 1.151336 -0.482165
0.017772 1.149876 -0.483317
0.020988 1.147837 -0.483698
0.026464 1.147067 -0.485852
0.030389 1.145376 -0.486760
0.031971 1.142361 -0.485824
0.030852 1.137875 -0.482793
0.032293 1.134814 -0.481764
0.032586 1.131150 -0.479857
0.040203 1.131359 -0.483566
0.047524 1.131336 -0.487006
0.051822 1.129690 -0.488113
0.053713 1.126795 -0.487388
0.056323 1.124258 -0.487201
0.060089 1.122280 -0.487871
0.059438 1.118132 -0.485246
0.056478 1.112911 -0.480934
0.059340 1.110500 -0.480935
0.067138 1.110371 -0.484537
0.070381 1.108071 -0.484779
0.075883 1.106774 -0.486646
0.074508 1.102359 -0.483529
0.075030 1.098816 -0.481793
0.081252 1.097756 -0.484130
0.087050 1.096455 -0.486133
0.084884 1.091750 -0.482479
0.086646 1.088719 -0.481612
0.090016 1.086340 -0.481866
0.091693 1.083256 -0.480929
0.093372 1.080169 -0.479990
0.097509 1.078035 -0.480742
0.100292 1.075348 -0.480546
0.097816 1.070659 -0.476753
0.098243 1.067093 -0.474954
0.109849 1.067618 -0.480709
0.106154 1.062524 -0.476114
0.114856 1.061865 -0.479839
0.106675 1.055258 -0.472283
0.121117 1.056478 -0.479761
0.126022 1.054345 -0.480871
0.132565 1.052706 -0.483028
0.138332 1.050754 -0.484645
0.140370 1.047565 -0.483812
0.142284 1.044328 -0.482894
0.146850 1.041894 -0.483674
0.152146 1.039641 -0.484898
0.154698 1.036536 -0.484353
0.157754 1.033562 -0.484119
0.158523 1.029925 -0.482436
0.161800 1.026991 -0.482327
0.159257 1.022460 -0.478585
0.162724 1.019573 -0.478593
0.167085 1.016902 -0.479141
0.172905 1.014575 -0.480569
0.178651 1.012189 -0.481929
0.185140 1.009947 -0.483720
0.187352 1.006646 -0.482905
0.194238 1.004437 -0.484901
0.199305 1.001775 -0.485787
0.202532 0.998686 -0.485570
0.197721 0.993864 -0.480599
0.200756 0.990790 -0.480300
0.212653 0.989554 -0.485202
0.214702 0.986265 -0.484321
0.221795 0.983995 -0.486384
0.223936 0.980762 -0.485580
0.228798 0.978071 -0.486360
0.221574 0.973203 -0.480235
0.239748 0.972949 -0.488647
-0.377102 1.660295 -0.584539
-0.374401 1.652804 -0.581639
-0.370996 1.649276 -0.581298
-0.367034 1.648599 -0.582822
-0.363141 1.647203 -0.583911
-0.359536 1.644028 -0.583867
-0.355067 1.645064 -0.586595
-0.350784 1.644827 -0.588523
-0.346886 1.642471 -0.589080
-0.343060 1.639642 -0.589338
-0.339267 1.636571 -0.589445
-0.335029 1.635420 -0.590841
-0.331120 1.632703 -0.591203
-0.326644 1.632337 -0.593153
-0.322331 1.631160 -0.594572
-0.318198 1.629171 -0.595451
-0.315424 1.621793 -0.592658
-0.310993 1.621003 -0.594351
-0.306317 1.621062 -0.596636
-0.303089 1.615698 -0.595190
-0.300416 1.608483 -0.592440
-0.296018 1.607565 -0.594045
-0.294243 1.597570 -0.589307
-0.295307 1.578335 -0.578030
-0.289857 1.581358 -0.582346
-0.282719 1.589669 -0.590435
-0.276914 1.593364 -0.595298
-0.273424 1.589648 -0.594899
-0.275104 1.570224 -0.583219
-0.274181 1.559282 -0.577538
-0.271318 1.554404 -0.576186
-0.268266 1.550204 -0.575303
-0.264395 1.548431 -0.576173
-0.262576 1.540959 -0.572865
-0.256713 1.544777 -0.577824
-0.255172 1.536786 -0.574091
-0.251620 1.534341 -0.574430
-0.247361 1.533772 -0.576159
-0.244415 1.529820 -0.575362
-0.229086 1.557112 -0.598012
-0.228126 1.547901 -0.593315
-0.225406 1.543224 -0.592003
-0.222344 1.539465 -0.591369
-0.225866 1.520233 -0.578906
-0.224945 1.511874 -0.574666
-0.222308 1.507647 -0.573565
-0.219215 1.504526 -0.573302
-0.214585 1.504864 -0.575715
-0.208961 1.507314 -0.579786
-0.202695 1.511027 -0.584874
-0.198640 1.509885 -0.586180
-0.194512 1.508876 -0.587595
-0.189968 1.508700 -0.589677
-0.186905 1.505464 -0.589333
-0.183411 1.503128 -0.589700
-0.180117 1.500407 -0.589755
-0.176496 1.498342 -0.590333
-0.173754 1.494589 -0.589545
-0.172384 1.488276 -0.586663
-0.168439 1.486897 -0.587781
-0.165208 1.484180 -0.587806
-0.163296 1.479074 -0.585861
-0.159940 1.476644 -0.586107
-0.158175 1.471394 -0.584009
-0.154479 1.469604 -0.584776
-0.151389 1.466756 -0.584660
-0.147358 1.465528 -0.585902
-0.143765 1.463533 -0.586504
-0.140721 1.460618 -0.586327
-0.138220 1.456825 -0.585398
-0.135926 1.452732 -0.584201
-0.130849 1.453135 -0.586858
-0.129356 1.447804 -0.584583
-0.126266 1.445036 -0.584510
-0.121737 1.444493 -0.586373
-0.118357 1.442153 -0.586678
-0.115276 1.439360 -0.586587
-0.111859 1.437071 -0.586938
-0.108390 1.434852 -0.587353
-0.105417 1.431907 -0.587124
-0.103506 1.427449 -0.585537
-0.100287 1.424887 -0.585640
-0.097172 1.422178 -0.585610
-0.094945 1.418245 -0.584469
-0.092116 1.415164 -0.584093
-0.089109 1.412333 -0.583944
-0.085634 1.410129 -0.584369
-0.083435 1.406236 -0.583236
-0.080236 1.403671 -0.583326
-0.076534 1.401749 -0.584019
-0.074724 1.397407 -0.582447
-0.071396 1.395008 -0.582693
-0.067695 1.393064 -0.583371
-0.062353 1.393111 -0.585953
-0.062981 1.385867 -0.581586
-0.060045 1.382989 -0.581375
-0.056247 1.381136 -0.582151
-0.053486 1.378049 -0.581738
-0.050632 1.375077 -0.581434
-0.047271 1.372688 -0.581700
-0.045997 1.367937 -0.579643
-0.037146 1.371679 -0.585975
-0.033685 1.369330 -0.586311
-0.035159 1.361594 -0.581263
-0.028955 1.362240 -0.584591
-0.025147 1.360255 -0.585297
-0.023065 1.356434 -0.584147
-0.020900 1.352724 -0.583099
-0.015090 1.352780 -0.585907
-0.015974 1.345968 -0.581660
-0.011110 1.345020 -0.583452
-0.007004 1.343276 -0.584435
-0.004659 1.339777 -0.583592
-0.001713 1.336878 -0.583371
-0.000251 1.332556 -0.581643
0.003671 1.330598 -0.582418
0.008067 1.329065 -0.583658
0.013276 1.328253 -0.585692
0.015305 1.324482 -0.584543
0.017761 1.321119 -0.583828
0.021691 1.319084 -0.584563
0.025056 1.316529 -0.584736
-0.056627 1.235026 -0.499929
-0.059799 1.227749 -0.494326
-0.064800 1.219040 -0.487045
-0.073180 1.207657 -0.476647
-0.068165 1.207528 -0.478971
-0.063038 1.207438 -0.481369
-0.061549 1.204366 -0.480355
-0.060663 1.200829 -0.478791
-0.057781 1.198890 -0.479079
-0.056354 1.195808 -0.478029
-0.049054 1.197257 -0.482330
-0.051452 1.191251 -0.477810
-0.048465 1.189370 -0.478180
-0.045225 1.187665 -0.478769
-0.039409 1.187832 -0.481641
-0.035945 1.186234 -0.482397
-0.035244 1.182638 -0.480711
-0.034058 1.179412 -0.479464
-0.033356 1.175866 -0.477807
-0.030986 1.173498 -0.477607
-0.023779 1.174428 -0.481571
-0.021124 1.172208 -0.481591
-0.019934 1.169005 -0.480359
-0.018755 1.165811 -0.479127
-0.012855 1.165704 -0.481883
-0.011014 1.162930 -0.481202
-0.010179 1.159524 -0.479686
-0.009149 1.156261 -0.478343
-0.003636 1.155790 -0.480710
-0.002657 1.152496 -0.479325
0.002664 1.151840 -0.481495
0.006984 1.150539 -0.482826
0.010533 1.148751 -0.483514
0.011194 1.145263 -0.481867
0.012807 1.142341 -0.480993
0.013011 1.138627 -0.479001
0.022346 1.140049 -0.484255
0.028079 1.139376 -0.486611
0.027102 1.134991 -0.483678
0.025731 1.130435 -0.480460
0.028322 1.128031 -0.480343
0.026699 1.123408 -0.476966
0.035929 1.124449 -0.481955
0.044442 1.125022 -0.486338
0.045449 1.121724 -0.484961
0.048215 1.119311 -0.484922
0.053139 1.117942 -0.486499
0.056467 1.115761 -0.486857
0.052740 1.110193 -0.481944
0.056187 1.108073 -0.482393
0.057110 1.104758 -0.480966
0.059337 1.102049 -0.480501
0.065144 1.100946 -0.482648
0.067139 1.098095 -0.481992
0.069687 1.095481 -0.481733
0.072746 1.093074 -0.481835
0.074306 1.090011 -0.480851
0.075816 1.086925 -0.479831
0.077879 1.084067 -0.479202
0.086556 1.083889 -0.483236
0.087223 1.080414 -0.481594
0.088245 1.077089 -0.480205
0.091549 1.074652 -0.480404
0.096069 1.072654 -0.481430
0.097156 1.069329 -0.480071
0.097685 1.065799 -0.478331
0.096447 1.061636 -0.475392
0.102767 1.060202 -0.477592
0.106879 1.057932 -0.478269
0.109551 1.055129 -0.477959
0.113731 1.052820 -0.478645
0.121484 1.051666 -0.481685
0.129745 1.050601 -0.485016
0.133622 1.048043 -0.485417
0.134102 1.044381 -0.483577
0.135173 1.040912 -0.482126
0.137871 1.037939 -0.481731
0.139114 1.034516 -0.480387
0.144543 1.032317 -0.481729
0.146372 1.029041 -0.480748
0.152576 1.026988 -0.482540
0.153541 1.023441 -0.480994
0.154488 1.019897 -0.479441
0.155741 1.016443 -0.478085
0.158702 1.013437 -0.477794
0.162304 1.010581 -0.477894
0.170112 1.008748 -0.480574
0.174699 1.006077 -0.481247
0.180162 1.003591 -0.482442
0.186841 1.001356 -0.484358
0.192079 0.998757 -0.485382
0.190792 0.994706 -0.482480
0.192729 0.991397 -0.481532
0.195038 0.988187 -0.480817
0.204230 0.986401 -0.484185
0.212663 0.984417 -0.487079
0.219057 0.982003 -0.488761
0.222142 0.978954 -0.488509
0.222163 0.975368 -0.486496
0.218250 0.971136 -0.482245
0.188999 0.962580 -0.463488
-0.378508 1.660061 -0.589181
-0.376336 1.649360 -0.584178
-0.372901 1.646034 -0.583959
-0.369268 1.643578 -0.584329
-0.365698 1.640529 -0.584333
-0.361921 1.638377 -0.584946
-0.358145 1.636003 -0.585432
-0.353080 1.639852 -0.590065
-0.349210 1.637437 -0.590575
-0.345517 1.634055 -0.590451
-0.341437 1.632385 -0.591484
-0.337804 1.628587 -0.591097
-0.333828 1.626280 -0.591719
-0.329276 1.626359 -0.593972
-0.325237 1.624147 -0.594679
-0.322303 1.617412 -0.592291
-0.318560 1.614066 -0.592213
-0.314428 1.612262 -0.593196
-0.311054 1.607564 -0.592175
-0.306452 1.607517 -0.594380
-0.302662 1.604446 -0.594480
-0.300205 1.596711 -0.591295
-0.302230 1.573702 -0.577296
-0.297770 1.573575 -0.579386
-0.292227 1.576992 -0.584007
-0.287230 1.578430 -0.587243
-0.290138 1.554530 -0.572310
-0.285531 1.555020 -0.574821
-0.280800 1.555823 -0.577568
-0.278358 1.549653 -0.575261
-0.275588 1.544635 -0.573764
-0.272210 1.541518 -0.573637
-0.269226 1.537346 -0.572723
-0.265772 1.534590 -0.572837
-0.258946 1.541156 -0.579860
-0.255166 1.539222 -0.580596
-0.252797 1.533562 -0.578541
-0.252805 1.521846 -0.571906
-0.249053 1.520123 -0.572749
-0.243546 1.522841 -0.576954
-0.234150 1.535084 -0.588434
-0.230088 1.533855 -0.589705
-0.227808 1.528329 -0.587681
-0.230770 1.510522 -0.576168
-0.229132 1.503937 -0.573234
-0.225902 1.501161 -0.573226
-0.222506 1.498794 -0.573531
-0.216556 1.502134 -0.578302
-0.210495 1.505568 -0.583179
-0.205387 1.506792 -0.586344
-0.201431 1.505476 -0.587514
-0.197798 1.503469 -0.588135
-0.193779 1.502263 -0.589398
-0.190291 1.499956 -0.589779
-0.187054 1.497154 -0.589759
-0.184257 1.493506 -0.589047
-0.179770 1.493205 -0.591047
-0.178841 1.485998 -0.587416
-0.175966 1.482633 -0.586901
-0.173202 1.479092 -0.586233
-0.169921 1.476547 -0.586379
-0.165842 1.475470 -0.587742
-0.164050 1.470245 -0.585650
-0.161297 1.466808 -0.585035
-0.158196 1.464011 -0.584950
-0.154606 1.462077 -0.585591
-0.150942 1.460260 -0.586334
-0.147428 1.458177 -0.586853
-0.145730 1.453065 -0.584779
-0.142309 1.450855 -0.585182
-0.138345 1.449521 -0.586342
-0.135256 1.446760 -0.586272
-0.133356 1.442127 -0.584566
-0.129945 1.439908 -0.584958
-0.124538 1.440763 -0.588056
-0.121719 1.437591 -0.587622
-0.121038 1.431220 -0.584342
-0.117231 1.429588 -0.585258
-0.113390 1.427986 -0.586207
-0.110787 1.424564 -0.585527
-0.110512 1.417830 -0.581845
-0.103643 1.420526 -0.586691
-0.101462 1.416541 -0.585488
-0.099483 1.412310 -0.584047
-0.096110 1.410020 -0.584379
-0.093265 1.407009 -0.584049
-0.090381 1.404061 -0.583772
-0.087883 1.400610 -0.583023
-0.083863 1.399158 -0.584143
-0.080178 1.397245 -0.584840
-0.076961 1.394720 -0.584964
-0.074145 1.391689 -0.584607
-0.071116 1.388929 -0.584506
-0.068751 1.385356 -0.583624
-0.066298 1.381910 -0.582857
-0.063479 1.378918 -0.582524
-0.060938 1.375604 -0.581873
-0.057971 1.372801 -0.581717
-0.054093 1.371050 -0.582599
-0.052076 1.367153 -0.581365
-0.049011 1.364465 -0.581323
-0.046189 1.361504 -0.581008
-0.042573 1.359422 -0.581575
-0.040654 1.355475 -0.580265
-0.037945 1.352407 -0.579835
-0.031605 1.353207 -0.583350
-0.029858 1.349095 -0.581863
-0.026788 1.346389 -0.581813
-0.024124 1.343263 -0.581328
-0.018827 1.342818 -0.583634
-0.017411 1.338422 -0.581826
-0.012889 1.337145 -0.583286
-0.010343 1.333894 -0.582673
-0.007866 1.330585 -0.581994
-0.005197 1.327471 -0.581518
-0.002654 1.324245 -0.580918
-0.001545 1.319685 -0.578868
0.004727 1.319942 -0.582043
0.010941 1.320074 -0.585119
0.014708 1.317925 -0.585719
0.014585 1.312283 -0.582462
0.023082 1.314318 -0.587719
-0.050033 1.240295 -0.510455
-0.049928 1.235739 -0.507923
-0.060609 1.222138 -0.495056
-0.059516 1.218605 -0.493581
-0.064849 1.209806 -0.486018
-0.064875 1.205476 -0.483551
-0.063921 1.201979 -0.482029
-0.062795 1.198644 -0.480682
-0.063276 1.194070 -0.477857
-0.060041 1.192433 -0.478490
-0.054235 1.192752 -0.481474
-0.054099 1.188707 -0.479246
-0.052297 1.185950 -0.478553
-0.048585 1.184616 -0.479589
-0.044001 1.183895 -0.481393
-0.042053 1.181227 -0.480821
-0.038934 1.179403 -0.481292
-0.038552 1.175630 -0.479337
-0.036720 1.172902 -0.478674
-0.037363 1.168475 -0.475853
-0.035240 1.165978 -0.475462
-0.028081 1.166871 -0.479424
-0.022390 1.166707 -0.482078
-0.020214 1.164179 -0.481694
-0.019690 1.160580 -0.479906
-0.019322 1.156908 -0.478001
-0.016416 1.154869 -0.478247
-0.013724 1.152685 -0.478308
-0.010640 1.150735 -0.478690
-0.006771 1.149249 -0.479714
-0.003866 1.147154 -0.479928
0.005675 1.148995 -0.485576
0.005948 1.145281 -0.483602
0.004555 1.140628 -0.480290
0.004937 1.137042 -0.478439
0.010600 1.136465 -0.480844
0.011661 1.133267 -0.479542
0.014323 1.130964 -0.479520
0.012361 1.126136 -0.475834
0.021934 1.127554 -0.481257
0.022528 1.124109 -0.479589
0.023701 1.120985 -0.478381
0.026325 1.118618 -0.478304
0.032206 1.117899 -0.480733
0.037303 1.116731 -0.482529
0.039916 1.114287 -0.482402
0.041998 1.111573 -0.481866
0.044342 1.108981 -0.481526
0.050668 1.108273 -0.484175
0.048506 1.103526 -0.480437
0.050701 1.100843 -0.479973
0.051425 1.097483 -0.478414
0.054757 1.095304 -0.478784
0.061107 1.094440 -0.481356
0.066333 1.093023 -0.483072
0.068783 1.090366 -0.482744
0.068202 1.086414 -0.480220
0.069112 1.083109 -0.478782
0.071144 1.080272 -0.478150
0.073432 1.077531 -0.477696
0.078315 1.075812 -0.479074
0.082619 1.073822 -0.480019
0.086122 1.071486 -0.480381
0.090229 1.069352 -0.481149
0.092570 1.066524 -0.480670
0.091317 1.062362 -0.477701
0.093123 1.059335 -0.476852
0.096759 1.056952 -0.477250
0.101936 1.055078 -0.478680
0.106219 1.052848 -0.479478
0.108390 1.049870 -0.478832
0.116942 1.048993 -0.482456
0.126242 1.048273 -0.486529
0.129084 1.045393 -0.486262
0.121014 1.039071 -0.478777
0.124107 1.036294 -0.478689
0.123244 1.032301 -0.476003
0.128334 1.030095 -0.477202
0.130303 1.026940 -0.476356
0.132848 1.023941 -0.475877
0.138723 1.021858 -0.477524
0.146124 1.020142 -0.480115
0.149209 1.017205 -0.479932
0.151469 1.014038 -0.479219
0.152222 1.010480 -0.477558
0.156876 1.007913 -0.478341
0.156442 1.004072 -0.475947
0.162156 1.001733 -0.477371
0.168824 0.999583 -0.479361
0.178107 0.997986 -0.482927
0.187277 0.996298 -0.486386
0.190499 0.993251 -0.486206
0.183625 0.988065 -0.479943
0.191321 0.986010 -0.482484
0.195489 0.983206 -0.482899
0.208452 0.982139 -0.488539
0.217556 0.980250 -0.491853
0.218354 0.976771 -0.490261
0.215683 0.972710 -0.486665
0.204344 0.967198 -0.478067
0.209144 0.964639 -0.478927
-0.382283 1.645401 -0.584441
-0.378511 1.644482 -0.585758
-0.375108 1.641046 -0.585456
-0.372171 1.634774 -0.583304
-0.367957 1.635416 -0.585730
-0.364085 1.633856 -0.586729
-0.360018 1.633049 -0.588254
-0.356174 1.630861 -0.588880
-0.351992 1.630152 -0.590516
-0.347955 1.628533 -0.591562
-0.344020 1.626289 -0.592200
-0.340084 1.623951 -0.592785
-0.336470 1.620117 -0.592356
-0.332268 1.618816 -0.593664
-0.328510 1.615563 -0.593638
-0.325045 1.611123 -0.592789
-0.321233 1.608147 -0.592948
-0.317482 1.604949 -0.592950
-0.313190 1.603849 -0.594416
-0.308790 1.603101 -0.596136
-0.305794 1.597194 -0.594219
-0.308523 1.571096 -0.577960
-0.304428 1.569790 -0.579212
-0.297165 1.579269 -0.588178
-0.294253 1.573770 -0.586454
-0.295193 1.555837 -0.575738
-0.291821 1.552379 -0.575406
-0.287569 1.551772 -0.577134
-0.281442 1.556916 -0.583066
-0.272764 1.569527 -0.594514
-0.269211 1.566412 -0.594467
-0.272192 1.544335 -0.580385
-0.269527 1.539157 -0.578724
-0.268009 1.530900 -0.574742
-0.262551 1.533753 -0.579037
-0.258115 1.533694 -0.581168
-0.257209 1.524190 -0.576174
-0.255361 1.517428 -0.573209
-0.251907 1.514982 -0.573495
-0.245197 1.520818 -0.580108
-0.238331 1.526806 -0.586883
-0.236228 1.520880 -0.584520
-0.237394 1.507212 -0.576134
-0.235962 1.500093 -0.572761
-0.232701 1.497424 -0.572825
-0.228826 1.496202 -0.574018
-0.224204 1.496660 -0.576536
-0.217636 1.501398 -0.582451
-0.212542 1.502705 -0.585684
-0.207996 1.502734 -0.587920
-0.204384 1.500719 -0.588530
-0.201645 1.496874 -0.587668
-0.197851 1.495272 -0.588603
-0.194386 1.492992 -0.588990
