ply
format ascii 1.0
comment ---
element vertex 1731
property float x
property float y
property float z
element face 0
property list uchar uint vertex_indices
end_header
-0.574657 1.575734 0.229249
-0.568389 1.582268 0.229598
-0.560268 1.581097 0.228936
-0.553460 1.585499 0.229018
-0.546882 1.591027 0.229253
-0.540466 1.597457 0.229613
-0.533330 1.600747 0.229568
-0.525820 1.602329 0.229307
-0.518246 1.603593 0.229012
-0.511642 1.609666 0.229349
-0.507179 1.626876 0.231131
-0.498077 1.620620 0.229882
-0.491686 1.628500 0.230467
-0.488242 1.652938 0.233184
-0.478127 1.640910 0.231216
-0.470279 1.641306 0.230852
-0.462578 1.642524 0.230601
-0.455474 1.647417 0.230825
-0.450265 1.664526 0.232611
-0.443582 1.672993 0.233296
-0.436431 1.678777 0.233643
-0.429126 1.683792 0.233897
-0.422048 1.690707 0.234396
-0.414693 1.695975 0.234689
-0.407325 1.701449 0.235013
-0.399568 1.704145 0.234991
-0.391860 1.707390 0.235043
-0.384768 1.716156 0.235792
-0.377169 1.721013 0.236054
-0.369495 1.725517 0.236275
-0.361752 1.729688 0.236459
-0.354185 1.736008 0.236914
-0.346467 1.741248 0.237239
-0.338752 1.747012 0.237632
-0.330821 1.750746 0.237776
-0.322433 1.748986 0.237243
-0.313258 1.736220 0.235354
-0.306027 1.749908 0.236745
-0.299867 1.782194 0.240431
-0.291684 1.785440 0.240532
-0.282953 1.779171 0.239466
-0.277573 1.838404 0.246459
-0.269276 1.845601 0.247051
-0.260962 1.853894 0.247779
-0.251269 1.826242 0.244108
-0.243951 1.865402 0.248623
-0.234619 1.843340 0.245652
-0.226239 1.854568 0.246755
-0.217485 1.850459 0.245990
-0.208834 1.851184 0.245821
-0.200214 1.856109 0.246167
-0.191558 1.863196 0.246780
-0.182840 1.867299 0.247035
-0.174081 1.872150 0.247384
-0.165262 1.878504 0.247919
-0.156326 1.888831 0.248940
-0.147344 1.896583 0.249652
-0.138328 1.902751 0.250177
-0.129111 1.913910 0.251308
-0.120238 1.911532 0.250811
-0.111365 1.909700 0.250386
-0.103201 1.891511 0.248000
-0.092531 1.930098 0.252449
-0.083521 1.929608 0.252203
-0.074473 1.929812 0.252046
-0.065437 1.929709 0.251859
-0.055790 1.938897 0.252793
-0.046334 1.944062 0.253250
-0.037131 1.945150 0.253224
-0.026636 1.962282 0.255125
-0.016441 1.973884 0.256370
-0.006597 1.980252 0.256995
0.003153 1.984888 0.257420
0.012937 1.989355 0.257832
0.022689 1.993027 0.258156
0.032443 1.996314 0.258442
0.042342 2.000533 0.258848
0.052669 2.007986 0.259646
0.062797 2.013138 0.260179
0.072625 2.015430 0.260380
0.082561 2.018293 0.260658
0.093083 2.025186 0.261424
0.103029 2.027405 0.261643
0.113336 2.031874 0.262140
0.123508 2.035050 0.262493
0.133485 2.036669 0.262671
0.143539 2.038566 0.262892
0.153754 2.041224 0.263214
0.164136 2.044609 0.263634
0.174259 2.046203 0.263852
0.183972 2.045300 0.263783
0.193258 2.041995 0.263440
0.202927 2.040776 0.263357
0.211823 2.035484 0.262801
0.220202 2.027710 0.261960
0.228749 2.021015 0.261260
0.237515 2.015565 0.260719
0.245620 2.007121 0.259833
0.253336 1.997136 0.258774
0.261028 1.987358 0.257752
0.268823 1.978322 0.256829
0.274963 1.962398 0.255094
0.282552 1.953135 0.254165
0.289371 1.940930 0.252896
0.297061 1.932620 0.252103
0.305450 1.927289 0.251679
0.314256 1.923655 0.251470
0.322787 1.918983 0.251148
0.330597 1.911650 0.250517
0.337375 1.900661 0.249455
0.344950 1.892825 0.248784
0.352972 1.886733 0.248332
0.358173 1.870894 0.246711
0.364226 1.858404 0.245502
0.372168 1.852579 0.245108
0.378128 1.840281 0.243936
0.383005 1.824757 0.242377
0.389477 1.814736 0.241492
0.396298 1.806032 0.240772
0.402289 1.794938 0.239764
0.408814 1.785726 0.238990
0.414852 1.775250 0.238062
0.420432 1.763661 0.236998
0.423200 1.744178 0.234961
0.430622 1.738525 0.234623
0.435656 1.726251 0.233466
0.442662 1.719753 0.233017
0.457231 1.734074 0.235140
0.447033 1.681202 0.228933
0.451569 1.668944 0.227743
0.467617 1.687163 0.230331
0.474747 1.681838 0.229983
0.472005 1.651517 0.226503
0.480319 1.649813 0.226573
0.481156 1.629647 0.224316
0.473698 1.589758 0.219565
0.482282 1.589695 0.219775
0.493271 1.595433 0.220690
0.499680 1.590324 0.220219
0.505870 1.584925 0.219682
0.513119 1.582194 0.219452
0.518552 1.575523 0.218693
0.522634 1.566107 0.217555
0.527070 1.557831 0.216526
0.531132 1.549073 0.215399
0.534684 1.539561 0.214141
0.538930 1.531911 0.213078
0.544646 1.527721 0.212412
0.551105 1.525362 0.211936
0.555002 1.517909 0.210781
0.558217 1.509392 0.209454
0.563548 1.505553 0.208673
0.567527 1.499257 0.207547
0.569095 1.488449 0.205821
0.569290 1.475316 0.203771
-0.991808 1.287264 0.223030
-0.991130 1.296605 0.224500
-0.986705 1.300088 0.225009
-0.982065 1.303425 0.225451
-0.977287 1.306740 0.225846
-0.971866 1.309177 0.226060
-0.966953 1.312670 0.226395
-0.962442 1.317062 0.226825
-0.957596 1.321092 0.227155
-0.951681 1.323461 0.227183
-0.946135 1.326655 0.227296
-0.940324 1.329560 0.227323
-0.934585 1.332768 0.227356
-0.929746 1.337784 0.227630
-0.924191 1.341684 0.227693
-0.918213 1.344967 0.227625
-0.911855 1.347683 0.227436
-0.905912 1.351314 0.227355
-0.900015 1.355171 0.227280
-0.894725 1.360342 0.227375
-0.888977 1.364767 0.227331
-0.882349 1.367570 0.227018
-0.875858 1.370730 0.226739
-0.869735 1.374719 0.226566
-0.863955 1.379506 0.226495
-0.858368 1.384799 0.226483
-0.851812 1.388154 0.226172
-0.845252 1.391554 0.225857
-0.838405 1.394379 0.225449
-0.832378 1.399023 0.225303
-0.826259 1.403532 0.225130
-0.819981 1.407738 0.224910
-0.813450 1.411413 0.224611
-0.807143 1.415631 0.224389
-0.800751 1.419685 0.224144
-0.794242 1.423491 0.223865
-0.787283 1.426239 0.223439
-0.780495 1.429387 0.223074
-0.774313 1.434027 0.222925
-0.768313 1.439159 0.222849
-0.762301 1.444306 0.222780
-0.755548 1.447601 0.222458
-0.748681 1.450592 0.222101
-0.741935 1.453892 0.221794
-0.736283 1.460119 0.221900
-0.730536 1.466167 0.221986
-0.724292 1.470922 0.221902
-0.717441 1.474018 0.221599
-0.710968 1.478176 0.221449
-0.704517 1.482426 0.221320
-0.698144 1.486932 0.221235
-0.691519 1.490726 0.221061
-0.685557 1.496543 0.221168
-0.678235 1.498263 0.220735
-0.672929 1.506235 0.221145
-0.666501 1.510808 0.221109
-0.659914 1.514920 0.221021
-0.653131 1.518425 0.220861
-0.646835 1.523577 0.220926
-0.640534 1.528795 0.221008
-0.633968 1.533180 0.220988
-0.627086 1.536516 0.220839
-0.620626 1.541389 0.220899
-0.614578 1.547845 0.221171
-0.607681 1.551297 0.221061
-0.601574 1.557776 0.221350
-0.594688 1.561411 0.221279
-0.587389 1.563473 0.221014
-0.580606 1.567594 0.221021
-0.574214 1.573392 0.221249
-0.567052 1.576129 0.221093
-0.560197 1.580204 0.221115
-0.553282 1.584102 0.221121
-0.547006 1.590925 0.221504
-0.539841 1.593928 0.221410
-0.532909 1.598070 0.221466
-0.525688 1.600942 0.221369
-0.518384 1.603471 0.221235
-0.511759 1.609418 0.221535
-0.506905 1.624606 0.222992
-0.494665 1.643518 0.224482
-0.484723 1.632578 0.222705
-0.477243 1.634876 0.222577
-0.470439 1.641159 0.222947
-0.463942 1.649548 0.223580
-0.463086 1.693017 0.228527
-0.453731 1.685232 0.227174
-0.443130 1.668759 0.224767
-0.436297 1.676529 0.225336
-0.429250 1.683251 0.225781
-0.421968 1.688668 0.226071
-0.414627 1.693952 0.226348
-0.407751 1.703129 0.227101
-0.399952 1.705545 0.227037
-0.392130 1.707882 0.226968
-0.384508 1.712061 0.227127
-0.377108 1.718527 0.227566
-0.369596 1.724441 0.227940
-0.362260 1.732554 0.228583
-0.354222 1.734133 0.228443
-0.346914 1.743713 0.229267
-0.339249 1.750167 0.229719
-0.331128 1.751767 0.229594
-0.322689 1.749422 0.229003
-0.313880 1.741666 0.227774
-0.306454 1.752858 0.228805
-0.299625 1.774882 0.231124
-0.292091 1.788439 0.232436
-0.283713 1.788840 0.232191
-0.274703 1.776676 0.230465
-0.269614 1.847798 0.238584
-0.261148 1.852618 0.238866
-0.251359 1.822241 0.235005
-0.242955 1.826483 0.235231
-0.234764 1.839886 0.236537
-0.226336 1.848217 0.237249
-0.217763 1.852581 0.237499
-0.209102 1.853222 0.237317
-0.200463 1.856866 0.237491
-0.191789 1.860035 0.237613
-0.183086 1.865168 0.237969
-0.174335 1.870631 0.238367
-0.165490 1.880471 0.239279
-0.156632 1.884971 0.239573
-0.147600 1.896368 0.240672
-0.138548 1.904125 0.241352
-0.129472 1.910190 0.241839
-0.120489 1.911696 0.241802
-0.111919 1.901829 0.240454
-0.103317 1.894825 0.239446
-0.092921 1.927398 0.243017
-0.083101 1.942874 0.244615
-0.074662 1.931174 0.243080
-0.064645 1.947138 0.244743
-0.053832 1.972941 0.247543
-0.044392 1.975668 0.247689
-0.034353 1.986015 0.248718
-0.026717 1.964808 0.246125
-0.016631 1.975021 0.247152
-0.006983 1.979157 0.247487
0.002814 1.984389 0.247954
0.012753 1.990499 0.248529
0.022427 1.993397 0.248742
0.032016 1.995165 0.248834
0.042321 2.003096 0.249639
0.052125 2.005999 0.249877
0.061692 2.006651 0.249865
0.071991 2.012958 0.250508
0.082734 2.022125 0.251487
0.093060 2.027471 0.252037
0.102993 2.029561 0.252225
0.113270 2.033793 0.252666
0.123370 2.036464 0.252939
0.133492 2.039017 0.253208
0.143138 2.038319 0.253116
0.153158 2.039832 0.253286
0.163705 2.044274 0.253802
0.173926 2.046485 0.254074
0.183424 2.044399 0.253865
0.193017 2.042826 0.253727
0.202496 2.040612 0.253526
0.211614 2.036508 0.253121
0.220133 2.029449 0.252389
0.228726 2.022972 0.251735
0.237459 2.017349 0.251190
0.246023 2.011059 0.250581
0.253741 2.001021 0.249553
0.261454 1.991275 0.248570
0.268442 1.978626 0.247266
0.274552 1.962585 0.245582
0.281747 1.951672 0.244497
0.289663 1.944065 0.243803
0.295726 1.929114 0.242275
0.304475 1.925310 0.242040
0.313995 1.924531 0.242166
0.322731 1.920656 0.241946
0.329712 1.910201 0.240978
0.337885 1.904396 0.240557
0.345165 1.895445 0.239783
0.352243 1.885972 0.238957
0.358545 1.873996 0.237850
0.365274 1.863780 0.236955
0.369989 1.847012 0.235304
0.375442 1.833136 0.233996
0.382720 1.825550 0.233428
0.389236 1.815661 0.232596
0.395675 1.805745 0.231767
0.402715 1.797903 0.231185
0.406750 1.781052 0.229549
0.414001 1.774280 0.229099
0.420941 1.766710 0.228556
0.423907 1.747737 0.226669
0.430757 1.740378 0.226151
0.435813 1.728114 0.225050
0.442865 1.721694 0.224637
0.453329 1.724743 0.225345
0.457157 1.709766 0.223906
0.456927 1.684392 0.221216
0.466844 1.686304 0.221768
0.471258 1.673927 0.220603
0.469937 1.647273 0.217712
0.478662 1.646608 0.217916
0.488360 1.648398 0.218400
0.475477 1.594901 0.212218
0.483529 1.593421 0.212264
0.495518 1.601430 0.213432
0.500192 1.592084 0.212485
0.506531 1.586929 0.212015
0.510621 1.576831 0.210920
0.517576 1.573593 0.210622
0.522772 1.566607 0.209838
0.527332 1.558509 0.208886
0.531467 1.549809 0.207826
0.536583 1.543586 0.207029
0.540798 1.535729 0.205997
0.545718 1.529712 0.205149
0.550559 1.523834 0.204279
0.554796 1.517006 0.203256
0.558049 1.508482 0.201991
0.562536 1.502837 0.201033
0.566922 1.497294 0.200049
0.569779 1.488997 0.198698
0.573698 1.483160 0.197605
-0.996143 1.292893 0.217421
-0.990161 1.293692 0.217527
-0.985983 1.297624 0.218067
-0.982383 1.302734 0.218742
-0.978599 1.307776 0.219363
-0.973468 1.310785 0.219631
-0.968304 1.313939 0.219878
-0.962995 1.317044 0.220074
-0.957989 1.320871 0.220335
-0.952466 1.323996 0.220448
-0.946630 1.326757 0.220464
-0.940524 1.329210 0.220393
-0.935066 1.332989 0.220482
-0.929637 1.337003 0.220567
-0.924667 1.342036 0.220768
-0.918636 1.345289 0.220668
-0.912225 1.347969 0.220451
-0.906104 1.351324 0.220303
-0.900487 1.355776 0.220289
-0.894957 1.360537 0.220292
-0.888483 1.363586 0.220021
-0.882053 1.366814 0.219754
-0.875771 1.370426 0.219524
-0.869840 1.374840 0.219392
-0.863634 1.378785 0.219177
-0.857698 1.383371 0.219040
-0.851698 1.387906 0.218884
-0.844853 1.390717 0.218474
-0.838727 1.395109 0.218280
-0.832414 1.399152 0.218032
-0.826248 1.403571 0.217831
-0.819728 1.407245 0.217524
-0.813389 1.411357 0.217276
-0.807244 1.415951 0.217095
-0.801079 1.420542 0.216915
-0.794319 1.423765 0.216547
-0.787065 1.425803 0.216021
-0.780398 1.429238 0.215692
-0.773924 1.433149 0.215433
-0.768004 1.438460 0.215368
-0.761764 1.443010 0.215206
-0.755255 1.446903 0.214961
-0.748390 1.449878 0.214600
-0.741939 1.453932 0.214392
-0.735996 1.459365 0.214374
-0.730735 1.466713 0.214616
-0.724298 1.470925 0.214449
-0.717500 1.474153 0.214162
-0.711161 1.478679 0.214053
-0.704434 1.482120 0.213811
-0.697747 1.485679 0.213593
-0.691233 1.489767 0.213453
-0.685120 1.495091 0.213481
-0.679510 1.502034 0.213725
-0.673400 1.507536 0.213790
-0.667057 1.512379 0.213779
-0.660070 1.515204 0.213518
-0.652813 1.517142 0.213154
-0.646433 1.521971 0.213166
-0.640332 1.527818 0.213314
-0.633821 1.532362 0.213305
-0.627198 1.536573 0.213262
-0.620753 1.541477 0.213313
-0.614039 1.545492 0.213261
-0.607493 1.550184 0.213300
-0.601028 1.555266 0.213395
-0.594067 1.558544 0.213274
-0.587226 1.562330 0.213223
-0.580673 1.567331 0.213329
-0.573738 1.570885 0.213264
-0.567171 1.576034 0.213401
-0.560432 1.580582 0.213471
-0.553869 1.586000 0.213653
-0.546868 1.589626 0.213623
-0.539974 1.593814 0.213667
-0.532926 1.597394 0.213644
-0.525821 1.600788 0.213605
-0.518568 1.603545 0.213495
-0.511760 1.608567 0.213664
-0.505476 1.616424 0.214178
-0.498327 1.620084 0.214193
-0.493640 1.637042 0.215801
-0.486132 1.639306 0.215658
-0.477771 1.636799 0.214953
-0.471461 1.645980 0.215644
-0.464695 1.652889 0.216067
-0.457520 1.657612 0.216236
-0.450560 1.663905 0.216594
-0.443145 1.667547 0.216644
-0.436309 1.675249 0.217176
-0.429005 1.680126 0.217379
-0.421601 1.684545 0.217532
-0.414484 1.691331 0.217966
-0.407827 1.702085 0.218866
-0.400363 1.707130 0.219102
-0.392513 1.709289 0.219006
-0.384973 1.714224 0.219238
-0.377005 1.715651 0.219066
-0.370286 1.728879 0.220264
-0.362352 1.731305 0.220215
-0.354717 1.736965 0.220543
-0.346912 1.741289 0.220720
-0.339407 1.749427 0.221339
-0.331308 1.751235 0.221234
-0.322829 1.748347 0.220596
-0.314341 1.744896 0.219898
-0.306437 1.749358 0.220111
-0.300678 1.787699 0.224191
-0.292030 1.783573 0.223426
-0.284588 1.800547 0.225068
-0.276256 1.802931 0.225052
-0.267729 1.801466 0.224603
-0.259648 1.810380 0.225335
-0.251569 1.821559 0.226325
-0.243237 1.827938 0.226774
-0.234668 1.827685 0.226478
-0.226506 1.845175 0.228186
-0.217814 1.842126 0.227583
-0.209388 1.856679 0.228964
-0.200691 1.855498 0.228579
-0.192008 1.854664 0.228238
-0.183330 1.862651 0.228891
-0.174574 1.871478 0.229640
-0.165740 1.879940 0.230352
-0.156901 1.883341 0.230501
-0.148033 1.886613 0.230641
-0.138827 1.902925 0.232238
-0.129708 1.910731 0.232890
-0.120782 1.910477 0.232649
-0.112162 1.902089 0.231510
-0.103351 1.900004 0.231078
-0.093611 1.918155 0.232897
-0.084302 1.924603 0.233420
-0.075196 1.926322 0.233425
-0.064504 1.953837 0.236289
-0.055581 1.950311 0.235724
-0.045679 1.961180 0.236755
-0.035359 1.976228 0.238252
-0.025114 1.988505 0.239448
-0.016671 1.977867 0.238124
-0.007293 1.978842 0.238087
0.002592 1.985076 0.238636
0.012273 1.988554 0.238889
0.021837 1.990497 0.238979
0.031749 1.995441 0.239407
0.041894 2.001964 0.240015
0.051722 2.005163 0.240266
0.061197 2.005113 0.240169
0.071043 2.007922 0.240393
0.081835 2.017680 0.241387
0.092350 2.024623 0.242081
0.102858 2.030946 0.242716
0.112736 2.032413 0.242827
0.122994 2.036223 0.243205
0.133121 2.038856 0.243463
0.142922 2.039167 0.243477
0.153019 2.041166 0.243686
0.163459 2.044975 0.244103
0.173637 2.046953 0.244330
0.183342 2.046054 0.244252
0.192752 2.043468 0.244001
0.202051 2.040312 0.243699
0.211209 2.036458 0.243331
0.220020 2.030909 0.242788
0.228365 2.023195 0.242019
0.237018 2.017210 0.241451
0.246432 2.014974 0.241306
0.254669 2.007269 0.240572
0.262032 1.995830 0.239439
0.268580 1.981156 0.237962
0.274956 1.966232 0.236467
0.283583 1.961333 0.236085
0.291234 1.952458 0.235277
0.294592 1.926358 0.232581
0.303748 1.924260 0.232541
0.313703 1.925235 0.232852
0.323250 1.924475 0.232984
0.331486 1.918689 0.232571
0.337432 1.904533 0.231242
0.344674 1.895462 0.230485
0.352280 1.887883 0.229904
0.359463 1.878966 0.229183
0.365634 1.866762 0.228105
0.368683 1.844327 0.225894
0.375850 1.836185 0.225281
0.382250 1.825700 0.224415
0.390410 1.821081 0.224211
0.395935 1.808197 0.223087
0.401517 1.795799 0.222022
0.406894 1.783067 0.220922
0.414060 1.776006 0.220463
0.417984 1.759494 0.218940
0.424253 1.750221 0.218233
0.426655 1.730072 0.216295
0.433760 1.723725 0.215917
0.442880 1.723097 0.216187
0.450564 1.718498 0.216004
0.448701 1.688217 0.212887
0.456324 1.683997 0.212733
0.457890 1.663982 0.210763
0.458442 1.641885 0.208539
0.466491 1.639510 0.208562
0.477575 1.644836 0.209459
0.484996 1.640945 0.209282
0.471918 1.586987 0.203314
0.477265 1.579009 0.202621
0.492317 1.594449 0.204614
0.500812 1.594119 0.204762
0.507095 1.588732 0.204301
0.507967 1.571132 0.202396
0.514737 1.567459 0.202075
0.520852 1.562520 0.201576
0.525259 1.554038 0.200633
0.530784 1.548345 0.199979
0.536129 1.542541 0.199277
0.541935 1.538014 0.198686
0.545721 1.529469 0.197593
0.549962 1.522238 0.196614
0.554207 1.515348 0.195636
0.556616 1.505010 0.194222
0.561417 1.499944 0.193380
0.566239 1.495218 0.192539
0.570432 1.489523 0.191548
0.568477 1.471952 0.189158
-0.997280 1.293374 0.210979
-0.991331 1.294298 0.211080
-0.986286 1.296880 0.211382
-0.982014 1.300938 0.211858
-0.978129 1.305865 0.212418
-0.973871 1.310399 0.212877
-0.968971 1.314072 0.213166
-0.963508 1.316987 0.213301
-0.957859 1.319771 0.213374
-0.952469 1.323193 0.213499
-0.947144 1.326918 0.213626
-0.941357 1.330011 0.213622
-0.935496 1.333142 0.213585
-0.930126 1.337331 0.213664
-0.925387 1.342857 0.213899
-0.919607 1.346645 0.213850
-0.913143 1.349302 0.213607
-0.906875 1.352448 0.213406
-0.900965 1.356401 0.213292
-0.894832 1.360049 0.213110
-0.888276 1.362976 0.212803
-0.882008 1.366562 0.212569
-0.875888 1.370534 0.212371
-0.869681 1.374421 0.212145
-0.863536 1.378519 0.211934
-0.857311 1.382527 0.211698
-0.850864 1.386134 0.211397
-0.845025 1.391091 0.211272
-0.838643 1.394950 0.210991
-0.832323 1.398991 0.210729
-0.826220 1.403558 0.210535
-0.820143 1.408234 0.210353
-0.813290 1.411195 0.209940
-0.807422 1.416428 0.209831
-0.801266 1.421047 0.209642
-0.794276 1.423730 0.209198
-0.787295 1.426420 0.208760
-0.780836 1.430363 0.208492
-0.774379 1.434326 0.208231
-0.768013 1.438530 0.208008
-0.761789 1.443111 0.207840
-0.755612 1.447847 0.207698
-0.749066 1.451654 0.207442
-0.742267 1.454801 0.207110
-0.736554 1.460848 0.207156
-0.729992 1.464663 0.206925
-0.724018 1.470110 0.206908
-0.717656 1.474529 0.206769
-0.711287 1.478958 0.206639
-0.704757 1.482953 0.206462
-0.697777 1.485651 0.206132
-0.691584 1.490672 0.206101
-0.685745 1.496825 0.206219
-0.679385 1.501469 0.206156
-0.672686 1.505104 0.205977
-0.667420 1.513306 0.206368
-0.659963 1.514612 0.205919
-0.652815 1.516877 0.205598
-0.646723 1.522644 0.205713
-0.640849 1.529253 0.205936
-0.634127 1.533072 0.205828
-0.627292 1.536530 0.205685
-0.620515 1.540231 0.205579
-0.613714 1.543885 0.205476
-0.606687 1.546741 0.205285
-0.600063 1.551140 0.205286
-0.592935 1.553678 0.205072
-0.586126 1.557478 0.205017
-0.580724 1.566971 0.205641
-0.574016 1.571429 0.205675
-0.567405 1.576385 0.205775
-0.561193 1.583165 0.206094
-0.554309 1.587225 0.206099
-0.547424 1.591373 0.206121
-0.540646 1.596113 0.206218
-0.533730 1.600342 0.206262
-0.526307 1.602280 0.206045
-0.518835 1.603989 0.205809
-0.512177 1.609750 0.206047
-0.505184 1.614010 0.206117
-0.497737 1.616038 0.205935
-0.494056 1.638256 0.208074
-0.487116 1.643660 0.208286
-0.479312 1.644405 0.207971
-0.471833 1.647002 0.207872
-0.464636 1.651353 0.207979
-0.457096 1.653779 0.207872
-0.450325 1.661136 0.208328
-0.443522 1.668671 0.208807
-0.436427 1.674647 0.209113
-0.429118 1.679457 0.209292
-0.421624 1.683197 0.209354
-0.415417 1.696685 0.210513
-0.408063 1.702252 0.210785
-0.400252 1.704516 0.210692
-0.392902 1.710716 0.211043
-0.385275 1.714948 0.211177
-0.377755 1.720428 0.211453
-0.369528 1.719688 0.211043
-0.362632 1.731869 0.212069
-0.354758 1.735096 0.212105
-0.347221 1.742217 0.212575
-0.339410 1.746894 0.212778
-0.331499 1.750834 0.212903
-0.323188 1.750061 0.212514
-0.314835 1.748547 0.212048
-0.306629 1.748874 0.211789
-0.299701 1.768991 0.213699
-0.293247 1.800060 0.216804
-0.285034 1.804432 0.216991
-0.276569 1.804545 0.216718
-0.268085 1.804151 0.216394
-0.259674 1.805375 0.216251
-0.251302 1.807871 0.216250
-0.243268 1.821546 0.217463
-0.234970 1.830127 0.218126
-0.226231 1.822657 0.217057
-0.218134 1.846714 0.219396
-0.209663 1.859388 0.220507
-0.200917 1.854103 0.219686
-0.192248 1.855009 0.219537
-0.183570 1.860508 0.219886
-0.174826 1.869333 0.220594
-0.166010 1.877182 0.221201
-0.157155 1.882627 0.221553
-0.148247 1.888261 0.221929
-0.139113 1.901262 0.223096
-0.129942 1.911265 0.223945
-0.120941 1.913239 0.223941
-0.112288 1.905380 0.222897
-0.103323 1.906628 0.222827
-0.093810 1.919314 0.223978
-0.084186 1.931854 0.225116
-0.074433 1.944548 0.226274
-0.065109 1.948160 0.226473
-0.055543 1.954918 0.227010
-0.046441 1.954072 0.226749
-0.037504 1.951051 0.226264
-0.026603 1.973143 0.228437
-0.017258 1.974129 0.228387
-0.007460 1.980078 0.228867
0.002243 1.984326 0.229173
0.012007 1.988721 0.229502
0.021583 1.990804 0.229593
0.031227 1.993262 0.229732
0.041330 1.999543 0.230279
0.051199 2.003221 0.230560
0.061297 2.008418 0.231009
0.071399 2.013171 0.231418
0.081675 2.018831 0.231930
0.091518 2.020792 0.232063
0.101963 2.026837 0.232632
0.112378 2.032183 0.233137
0.122289 2.033719 0.233251
0.132524 2.037158 0.233574
0.142701 2.039923 0.233836
0.152987 2.043091 0.234150
0.163444 2.046984 0.234549
0.173596 2.048791 0.234741
0.183205 2.047337 0.234601
0.192693 2.045177 0.234398
0.201907 2.041553 0.234052
0.211298 2.038911 0.233820
0.219848 2.032008 0.233152
0.228067 2.023670 0.232344
0.236625 2.017247 0.231749
0.246316 2.016344 0.231744
0.255324 2.012204 0.231410
0.260607 1.991276 0.229324
0.269344 1.986406 0.228936
0.277112 1.977414 0.228126
0.283421 1.962485 0.226702
0.294263 1.966861 0.227321
0.293993 1.925717 0.223154
0.303307 1.924294 0.223183
0.313389 1.925796 0.223533
0.323155 1.925895 0.223748
0.330932 1.918377 0.223168
0.337172 1.905331 0.222013
0.344064 1.894994 0.221154
0.351714 1.887599 0.220616
0.358930 1.878820 0.219941
0.364173 1.863444 0.218573
0.369815 1.849820 0.217397
0.376335 1.839450 0.216576
0.382520 1.828217 0.215669
0.390496 1.822978 0.215411
0.395755 1.809226 0.214246
0.400832 1.795248 0.213061
0.406745 1.784158 0.212190
0.413515 1.775890 0.211626
0.417602 1.759849 0.210225
0.423713 1.750101 0.209504
0.427266 1.733232 0.208011
0.434526 1.727262 0.207699
0.438691 1.712788 0.206460
0.446664 1.709112 0.206392
0.448040 1.687673 0.204383
0.464499 1.706951 0.206814
0.472140 1.702509 0.206650
0.480316 1.699552 0.206640
0.481352 1.678446 0.204626
0.480147 1.652271 0.202036
0.484400 1.640363 0.200997
0.472280 1.588678 0.195550
0.479916 1.586154 0.195503
0.492516 1.595593 0.196761
0.500848 1.594795 0.196866
0.506742 1.588418 0.196329
0.508949 1.573813 0.194853
0.515159 1.568752 0.194406
0.520304 1.561537 0.193690
0.524895 1.553389 0.192838
0.530187 1.547101 0.192160
0.537003 1.544410 0.191848
0.539045 1.531697 0.190385
0.543307 1.524135 0.189460
0.549384 1.520722 0.188958
0.550751 1.507772 0.187361
0.555499 1.502230 0.186548
0.561711 1.499975 0.186061
0.567310 1.496725 0.185425
0.571772 1.491465 0.184530
0.581681 1.497295 0.184817
-0.997408 1.292255 0.204285
-0.992573 1.295051 0.204628
-0.987449 1.297576 0.204890
-0.982006 1.299771 0.205063
-0.976967 1.302831 0.205316
-0.973124 1.308108 0.205840
-0.968661 1.312572 0.206206
-0.963136 1.315439 0.206304
-0.957615 1.318501 0.206387
-0.952451 1.322376 0.206544
-0.947699 1.327175 0.206790
-0.941479 1.329568 0.206659
-0.935399 1.332367 0.206549
-0.929890 1.336360 0.206569
-0.925173 1.341976 0.206780
-0.919540 1.346089 0.206748
-0.913670 1.349914 0.206647
-0.907574 1.353446 0.206477
-0.901368 1.356892 0.206269
-0.894862 1.359869 0.205974
-0.888319 1.362861 0.205660
-0.881990 1.366364 0.205397
-0.875906 1.370444 0.205194
-0.869814 1.374596 0.204986
-0.863687 1.378762 0.204767
-0.857083 1.382008 0.204414
-0.851073 1.386550 0.204224
-0.845171 1.391396 0.204066
-0.838996 1.395724 0.203834
-0.832608 1.399637 0.203543
-0.826510 1.404233 0.203338
-0.820326 1.408684 0.203113
-0.813623 1.411996 0.202740
-0.806716 1.414846 0.202309
-0.800684 1.419734 0.202143
-0.794193 1.423580 0.201846
-0.787210 1.426259 0.201405
-0.781068 1.430964 0.201227
-0.774918 1.435682 0.201054
-0.768170 1.438941 0.200704
-0.761894 1.443388 0.200509
-0.755891 1.448563 0.200411
-0.749383 1.452465 0.200161
-0.742693 1.455899 0.199861
-0.736484 1.460618 0.199727
-0.730304 1.465452 0.199615
-0.723692 1.469133 0.199369
-0.717605 1.474291 0.199311
-0.711321 1.478944 0.199200
-0.704881 1.483182 0.199046
-0.698459 1.487501 0.198911
-0.692165 1.492234 0.198833
-0.686029 1.497493 0.198825
-0.679212 1.500726 0.198585
-0.672658 1.504781 0.198450
-0.666608 1.510471 0.198517
-0.659957 1.514311 0.198374
-0.653128 1.517600 0.198174
-0.647817 1.525967 0.198575
-0.640836 1.528855 0.198344
-0.634070 1.532497 0.198209
-0.627308 1.536184 0.198087
-0.620316 1.539090 0.197883
-0.613151 1.541377 0.197616
-0.606928 1.547155 0.197757
-0.599927 1.550120 0.197583
-0.593162 1.554018 0.197523
-0.587726 1.563193 0.198071
-0.581141 1.568048 0.198132
-0.574211 1.571601 0.198051
-0.567654 1.576771 0.198160
-0.561378 1.583264 0.198424
-0.554659 1.588031 0.198498
-0.547626 1.591524 0.198436
-0.540784 1.595957 0.198484
-0.533976 1.600669 0.198570
-0.526260 1.601210 0.198197
-0.518819 1.603035 0.197974
-0.511915 1.607536 0.198053
-0.506875 1.621668 0.199200
-0.499091 1.622116 0.198841
-0.494192 1.637943 0.200178
-0.487671 1.645626 0.200621
-0.480120 1.647840 0.200469
-0.471905 1.646253 0.199908
-0.464597 1.649912 0.199926
-0.457370 1.654204 0.200016
-0.451303 1.666005 0.200926
-0.444240 1.671986 0.201206
-0.437068 1.677537 0.201444
-0.429646 1.681647 0.201529
-0.422188 1.685713 0.201613
-0.414911 1.691327 0.201868
-0.408229 1.701859 0.202653
-0.400589 1.705462 0.202697
-0.392692 1.707154 0.202542
-0.385341 1.713609 0.202898
-0.377639 1.717399 0.202974
-0.370018 1.722202 0.203161
-0.362638 1.729732 0.203640
-0.355242 1.737762 0.204174
-0.347562 1.743467 0.204464
-0.339702 1.747648 0.204596
-0.331794 1.751652 0.204713
-0.323483 1.750924 0.204335
-0.315134 1.749532 0.203892
-0.307176 1.753505 0.204017
-0.301671 1.795922 0.208170
-0.292104 1.777140 0.205915
-0.284743 1.794969 0.207493
-0.276957 1.807612 0.208530
-0.268347 1.804798 0.207957
-0.260029 1.808339 0.208051
-0.251449 1.805559 0.207492
-0.243404 1.818502 0.208567
-0.235190 1.829567 0.209449
-0.226724 1.834000 0.209647
-0.218337 1.844852 0.210510
-0.209826 1.853835 0.211182
-0.201194 1.858517 0.211414
-0.192502 1.858671 0.211183
-0.183807 1.864284 0.211517
-0.175061 1.870138 0.211880
-0.166253 1.876815 0.212329
-0.157403 1.882166 0.212647
-0.148275 1.899690 0.214212
-0.139233 1.906574 0.214691
-0.130157 1.912368 0.215063
-0.121119 1.915345 0.215151
-0.112438 1.907958 0.214189
-0.103703 1.903459 0.213528
-0.094043 1.919669 0.214976
-0.084056 1.939304 0.216774
-0.074960 1.939658 0.216619
-0.065440 1.946932 0.217170
-0.056085 1.950557 0.217357
-0.046569 1.955955 0.217728
-0.037609 1.953143 0.217275
-0.027653 1.963203 0.218128
-0.017575 1.973534 0.219013
-0.007584 1.981734 0.219688
0.002150 1.986269 0.220000
0.011981 1.991282 0.220365
0.021704 1.994717 0.220579
0.031223 1.995865 0.220569
0.040841 1.997716 0.220638
0.050994 2.003940 0.221152
0.060984 2.008255 0.221482
0.071653 2.017565 0.222320
0.081371 2.018811 0.222358
0.091137 2.020237 0.222421
0.101308 2.024373 0.222765
0.112026 2.031934 0.223460
0.122096 2.034574 0.223670
0.132174 2.037000 0.223869
0.142525 2.040904 0.224224
0.152771 2.043832 0.224491
0.163173 2.047415 0.224833
0.173172 2.048355 0.224921
0.182666 2.046297 0.224719
0.192119 2.044005 0.224504
0.201561 2.041657 0.224294
0.211019 2.039390 0.224103
0.220046 2.034929 0.223703
0.227980 2.025134 0.222779
0.236480 2.018421 0.222175
0.245593 2.014793 0.221891
0.254012 2.007989 0.221300
0.260436 1.992333 0.219832
0.267795 1.981363 0.218844
0.275972 1.974281 0.218257
0.284733 1.969835 0.217947
0.294764 1.970725 0.218184
0.294736 1.930486 0.214293
0.302248 1.921803 0.213587
0.312741 1.924996 0.214089
0.322103 1.923591 0.214139
0.330139 1.917113 0.213688
0.336852 1.905855 0.212764
0.343690 1.895333 0.211924
0.351175 1.887360 0.211352
0.357487 1.875440 0.210389
0.363810 1.863846 0.209466
0.369387 1.850007 0.208324
0.376470 1.841515 0.207732
0.382160 1.828638 0.206701
0.388163 1.817072 0.205810
0.394284 1.806144 0.204989
0.401836 1.799896 0.204654
0.405039 1.780452 0.202968
0.413034 1.775928 0.202819
0.416040 1.756677 0.201156
0.422523 1.748056 0.200589
0.428384 1.737824 0.199857
0.435303 1.730811 0.199458
0.442357 1.724303 0.199111
0.450476 1.720842 0.199079
0.450588 1.695782 0.196795
0.460306 1.696980 0.197240
0.461708 1.676268 0.195390
0.467427 1.667284 0.194755
0.480775 1.678006 0.196178
0.480338 1.653715 0.193914
0.479906 1.630096 0.191702
0.474449 1.594803 0.188238
0.481791 1.591433 0.188118
0.494007 1.599831 0.189224
0.500790 1.595263 0.188940
0.506185 1.587649 0.188310
0.509629 1.575819 0.187207
0.515601 1.570116 0.186726
0.522000 1.565617 0.186345
0.525667 1.555286 0.185313
0.531122 1.549247 0.184705
0.536241 1.542762 0.184016
0.541593 1.537076 0.183377
0.543970 1.525365 0.182063
0.547284 1.516046 0.180968
0.551016 1.507967 0.179968
0.555654 1.502106 0.179166
0.562193 1.500426 0.178769
0.569243 1.500006 0.178467
0.573346 1.493910 0.177528
0.568923 1.471251 0.174811
-0.992357 1.282817 0.196443
-0.993167 1.294778 0.198009
-0.988585 1.298257 0.198371
-0.983457 1.301047 0.198597
-0.977594 1.302813 0.198641
-0.973010 1.306911 0.198961
-0.967903 1.310340 0.199147
-0.963223 1.314705 0.199419
-0.957380 1.317274 0.199406
-0.952170 1.321126 0.199527
-0.947301 1.325775 0.199716
-0.941520 1.329002 0.199675
-0.935765 1.332444 0.199627
-0.930490 1.336925 0.199683
-0.925555 1.342208 0.199812
-0.919728 1.346021 0.199713
-0.914380 1.350879 0.199724
-0.908419 1.354729 0.199573
-0.901920 1.357676 0.199279
-0.895231 1.360349 0.198927
-0.888787 1.363585 0.198629
-0.882473 1.367163 0.198358
-0.876033 1.370569 0.198050
-0.870332 1.375549 0.197931
-0.863554 1.378413 0.197527
-0.857158 1.382109 0.197220
-0.851191 1.386767 0.197029
-0.845323 1.391704 0.196865
-0.839168 1.396092 0.196626
-0.832905 1.400296 0.196361
-0.826448 1.404110 0.196044
-0.820134 1.408273 0.195771
-0.813180 1.411011 0.195321
-0.806553 1.414497 0.194967
-0.800200 1.418626 0.194695
-0.793762 1.422581 0.194405
-0.787142 1.426112 0.194067
-0.781127 1.431116 0.193914
-0.775108 1.436152 0.193769
-0.768634 1.440094 0.193497
-0.761961 1.443538 0.193173
-0.755926 1.448622 0.193051
-0.749416 1.452510 0.192794
-0.742909 1.456413 0.192546
-0.736680 1.461073 0.192395
-0.730407 1.465645 0.192241
-0.724083 1.470107 0.192082
-0.717628 1.474233 0.191891
-0.710800 1.477318 0.191588
-0.704366 1.481534 0.191425
-0.698159 1.486440 0.191349
-0.692477 1.492961 0.191466
-0.685767 1.496477 0.191247
-0.679015 1.499873 0.191022
-0.672482 1.503966 0.190885
-0.666707 1.510497 0.191031
-0.660318 1.515165 0.190974
-0.653366 1.518045 0.190724
-0.646783 1.522156 0.190620
-0.640389 1.526954 0.190601
-0.634116 1.532245 0.190643
-0.627678 1.537050 0.190639
-0.620530 1.539393 0.190369
-0.613777 1.543171 0.190265
-0.607510 1.548799 0.190373
-0.601029 1.553741 0.190411
-0.594408 1.558244 0.190407
-0.588267 1.564719 0.190625
-0.581534 1.568993 0.190608
-0.574548 1.572323 0.190496
-0.567665 1.576134 0.190442
-0.561663 1.583763 0.190806
-0.555008 1.588797 0.190896
-0.547779 1.591427 0.190732
-0.540572 1.594189 0.190590
-0.533577 1.597979 0.190563
-0.525994 1.599075 0.190255
-0.518590 1.601018 0.190044
-0.512459 1.609294 0.190510
-0.508720 1.630064 0.192299
-0.502012 1.636322 0.192555
-0.493781 1.634679 0.191984
-0.487081 1.641281 0.192285
-0.480360 1.648045 0.192607
-0.472180 1.646657 0.192080
-0.464409 1.647558 0.191799
-0.458086 1.657312 0.192445
-0.452047 1.669366 0.193330
-0.445419 1.678266 0.193890
-0.437780 1.680875 0.193801
-0.430282 1.684559 0.193828
-0.422698 1.687809 0.193814
-0.414929 1.689839 0.193679
-0.407649 1.695709 0.193942
-0.401358 1.709830 0.195052
-0.393008 1.707931 0.194525
-0.385418 1.712351 0.194649
-0.377852 1.717301 0.194829
-0.370330 1.723013 0.195090
-0.363109 1.732139 0.195700
-0.355532 1.738416 0.196022
-0.347855 1.744168 0.196294
-0.339999 1.748431 0.196418
-0.331931 1.750561 0.196331
-0.323381 1.746745 0.195649
-0.314944 1.743898 0.195070
-0.307570 1.755895 0.195984
-0.302048 1.798159 0.199927
-0.292499 1.779883 0.197812
-0.285013 1.795666 0.199105
-0.277917 1.821908 0.201439
-0.269867 1.832683 0.202231
-0.260938 1.824618 0.201153
-0.252655 1.831949 0.201609
-0.244349 1.840575 0.202194
-0.235630 1.837029 0.201578
-0.227092 1.839816 0.201593
-0.218580 1.845306 0.201878
-0.209980 1.847930 0.201883
-0.201440 1.859538 0.202775
-0.192761 1.863755 0.202942
-0.184044 1.867477 0.203065
-0.175286 1.872747 0.203342
-0.166491 1.876873 0.203511
-0.157583 1.886364 0.204208
-0.148657 1.892100 0.204540
-0.139477 1.906471 0.205717
-0.130454 1.910437 0.205883
-0.121471 1.912003 0.205820
-0.112716 1.907004 0.205124
-0.103998 1.902192 0.204452
-0.093980 1.926321 0.206590
-0.084232 1.940744 0.207789
-0.075323 1.937624 0.207295
-0.066225 1.938076 0.207151
-0.056572 1.946964 0.207828
-0.047550 1.945525 0.207512
-0.036811 1.967345 0.209443
-0.027534 1.968002 0.209340
-0.018259 1.968483 0.209226
-0.007460 1.986136 0.210768
0.002351 1.991311 0.211116
0.012141 1.995703 0.211394
0.021775 1.998080 0.211486
0.031301 1.999170 0.211461
0.040864 2.000423 0.211458
0.050700 2.003834 0.211669
0.060662 2.007950 0.211955
0.071024 2.014860 0.212515
0.081102 2.019003 0.212818
0.090872 2.020483 0.212874
0.101164 2.025511 0.213277
0.111618 2.031235 0.213754
0.121746 2.034315 0.213988
0.132077 2.038431 0.214329
0.142214 2.040967 0.214528
0.152454 2.043892 0.214774
0.162551 2.045691 0.214922
0.172641 2.047239 0.215055
0.182102 2.045052 0.214842
0.191708 2.043661 0.214715
0.201354 2.042439 0.214615
0.210560 2.038873 0.214301
0.219463 2.033818 0.213856
0.227729 2.025726 0.213132
0.236500 2.020336 0.212677
0.245442 2.015879 0.212321
0.253739 2.008514 0.211698
0.261130 1.997245 0.210713
0.265881 1.974638 0.208655
0.272959 1.962956 0.207651
0.282756 1.963176 0.207796
0.292657 1.963693 0.207981
0.295369 1.934758 0.205355
0.302175 1.923193 0.204403
0.311804 1.923006 0.204553
0.321410 1.922605 0.204695
0.329393 1.915968 0.204248
0.336922 1.907769 0.203661
0.344073 1.898364 0.202967
0.350932 1.888129 0.202203
0.357815 1.878207 0.201479
0.364175 1.866703 0.200610
0.370530 1.855456 0.199773
0.375183 1.838809 0.198421
0.380991 1.826371 0.197482
0.388198 1.818720 0.197016
0.394254 1.807563 0.196215
0.400399 1.796928 0.195471
0.406944 1.787745 0.194873
0.411501 1.772762 0.193711
0.419480 1.768280 0.193582
0.421102 1.745303 0.191637
0.427533 1.736740 0.191110
0.433870 1.728086 0.190575
0.443866 1.729801 0.191065
0.451641 1.725302 0.190940
0.453743 1.705524 0.189298
0.447093 1.662933 0.185377
0.454400 1.658184 0.185209
0.463195 1.657386 0.185429
0.470830 1.653625 0.185346
0.482528 1.660191 0.186287
0.481473 1.634881 0.184022
0.473079 1.592257 0.179997
0.479767 1.587282 0.179733
0.492007 1.595740 0.180806
0.499894 1.593763 0.180809
0.507702 1.591719 0.180784
0.509907 1.576915 0.179446
0.515775 1.570888 0.178969
0.521442 1.564660 0.178443
0.526659 1.557695 0.177814
0.531089 1.549297 0.177008
0.535187 1.540508 0.176130
0.538810 1.531050 0.175150
0.543934 1.525143 0.174496
0.548077 1.517476 0.173629
0.552049 1.509794 0.172724
0.557114 1.504700 0.172045
0.562963 1.501498 0.171520
0.567600 1.496114 0.170738
0.573665 1.493885 0.170237
0.579597 1.491639 0.169697
-0.999669 1.293339 0.191311
-0.992961 1.293235 0.191207
-0.989784 1.299066 0.191845
-0.985488 1.303306 0.192231
-0.980514 1.306643 0.192456
-0.973652 1.307014 0.192249
-0.969137 1.311518 0.192544
-0.963851 1.314924 0.192655
-0.957345 1.316417 0.192475
-0.951738 1.319634 0.192481
-0.947023 1.324604 0.192677
-0.942193 1.329579 0.192837
-0.936929 1.333975 0.192884
-0.931392 1.338055 0.192857
-0.925626 1.341881 0.192765
-0.919771 1.345694 0.192642
-0.914160 1.350104 0.192567
-0.908443 1.354461 0.192458
-0.902050 1.357654 0.192178
-0.895176 1.360011 0.191773
-0.888547 1.362917 0.191418
-0.882190 1.366438 0.191125
-0.876373 1.371119 0.190961
-0.870324 1.375426 0.190737
-0.864310 1.379884 0.190520
-0.857852 1.383492 0.190190
-0.851496 1.387365 0.189885
-0.845456 1.391957 0.189662
-0.839207 1.396158 0.189388
-0.832805 1.400065 0.189074
-0.826033 1.403185 0.188666
-0.819688 1.407272 0.188374
-0.812944 1.410477 0.187978
-0.806499 1.414374 0.187666
-0.799978 1.418110 0.187339
-0.793757 1.422564 0.187101
-0.787551 1.427084 0.186874
-0.781907 1.432997 0.186813
-0.775732 1.437666 0.186613
-0.769333 1.441805 0.186356
-0.762554 1.444995 0.185998
-0.755558 1.447618 0.185583
-0.749410 1.452421 0.185424
-0.743244 1.457210 0.185271
-0.737090 1.462068 0.185132
-0.730562 1.465947 0.184890
-0.724275 1.470502 0.184733
-0.717819 1.474614 0.184533
-0.710887 1.477392 0.184194
-0.704003 1.480293 0.183878
-0.697853 1.485329 0.183806
-0.692261 1.492085 0.183930
-0.685667 1.495920 0.183741
-0.678836 1.499050 0.183483
-0.672153 1.502640 0.183284
-0.666413 1.509241 0.183419
-0.660532 1.515510 0.183524
-0.653781 1.519036 0.183341
-0.646912 1.522195 0.183126
-0.640354 1.526420 0.183034
-0.634068 1.531640 0.183054
-0.627407 1.535631 0.182951
-0.620874 1.540134 0.182909
-0.614496 1.545272 0.182941
-0.608151 1.550632 0.183003
-0.601594 1.555304 0.182998
-0.595109 1.560345 0.183039
-0.588602 1.565405 0.183087
-0.581729 1.569120 0.183001
-0.574630 1.571974 0.182833
-0.568236 1.577797 0.182978
-0.561751 1.583393 0.183105
-0.554974 1.587879 0.183123
-0.547778 1.590617 0.182967
-0.540465 1.592869 0.182767
-0.533802 1.598150 0.182883
-0.525468 1.595685 0.182216
-0.518318 1.598764 0.182120
-0.512007 1.606082 0.182457
-0.509555 1.633295 0.184806
-0.504180 1.646563 0.185744
-0.494605 1.637995 0.184490
-0.486449 1.636686 0.183974
-0.481319 1.652266 0.185152
-0.475487 1.664575 0.186004
-0.466528 1.658906 0.185067
-0.457939 1.655102 0.184324
-0.453573 1.677627 0.186197
-0.446175 1.681759 0.186247
-0.438390 1.683491 0.186065
-0.430575 1.685063 0.185871
-0.422847 1.687287 0.185746
-0.415444 1.692014 0.185871
-0.407944 1.696257 0.185951
-0.400436 1.700697 0.186055
-0.393129 1.707071 0.186350
-0.385934 1.714852 0.186784
-0.378451 1.720635 0.187026
-0.370913 1.726350 0.187264
-0.363578 1.734496 0.187739
-0.355609 1.736861 0.187658
-0.347496 1.737833 0.187446
-0.339777 1.743315 0.187672
-0.332056 1.749308 0.187950
-0.323828 1.749511 0.187674
-0.314939 1.740758 0.186546
-0.308283 1.762865 0.188373
-0.302400 1.799977 0.191629
-0.294557 1.810210 0.192318
-0.285329 1.797157 0.190792
-0.276789 1.795144 0.190324
-0.268176 1.791075 0.189664
-0.260579 1.810384 0.191223
-0.252823 1.830160 0.192824
-0.244797 1.847132 0.194159
-0.236092 1.845226 0.193714
-0.227342 1.840533 0.193012
-0.218822 1.845711 0.193243
-0.210255 1.850843 0.193472
-0.201644 1.856156 0.193721
-0.192999 1.864497 0.194256
-0.184279 1.869885 0.194517
-0.175513 1.874536 0.194712
-0.166704 1.879327 0.194923
-0.157869 1.882849 0.195020
-0.148969 1.888083 0.195279
-0.140021 1.893301 0.195540
-0.130807 1.906372 0.196532
-0.121723 1.911638 0.196804
-0.112757 1.912374 0.196660
-0.104568 1.894258 0.194780
-0.094312 1.924413 0.197361
-0.083762 1.954794 0.199962
-0.075647 1.936217 0.198056
-0.066318 1.940631 0.198273
-0.057017 1.943919 0.198391
-0.047641 1.947808 0.198569
-0.036766 1.971369 0.200555
-0.027826 1.967515 0.200032
-0.019068 1.961848 0.199350
-0.007721 1.986121 0.201412
0.001936 1.989663 0.201583
0.011983 1.996795 0.202088
0.021657 1.999545 0.202198
0.031224 2.000972 0.202194
0.040899 2.003174 0.202268
0.050598 2.005334 0.202344
0.060619 2.009898 0.202646
0.070840 2.015646 0.203063
0.080754 2.018526 0.203226
0.090538 2.020149 0.203283
0.100660 2.023996 0.203549
0.111050 2.029366 0.203961
0.121406 2.034062 0.204321
0.131554 2.037020 0.204531
0.141800 2.040327 0.204781
0.152048 2.043343 0.205014
0.162613 2.047977 0.205402
0.171869 2.044665 0.205080
0.181598 2.044081 0.205015
0.191173 2.042573 0.204875
0.200454 2.039459 0.204600
0.209748 2.036452 0.204346
0.218391 2.030159 0.203803
0.226880 2.023285 0.203218
0.236074 2.020032 0.202972
0.245290 2.016913 0.202749
0.253751 2.010309 0.202220
0.260896 1.997902 0.201176
0.266065 1.977146 0.199383
0.272036 1.960625 0.197984
0.281704 1.960381 0.198075
0.289930 1.954008 0.197620
0.293316 1.928025 0.195389
0.302196 1.924905 0.195250
0.311820 1.924695 0.195388
0.321526 1.924674 0.195554
0.329167 1.916731 0.195008
0.336021 1.906038 0.194220
0.343990 1.899658 0.193837
0.350642 1.888674 0.193042
0.357812 1.879765 0.192446
0.364013 1.867705 0.191570
0.370373 1.856466 0.190777
0.377398 1.847698 0.190219
0.382387 1.832443 0.189070
0.386418 1.814489 0.187677
0.392423 1.803247 0.186911
0.399536 1.795699 0.186492
0.406980 1.789292 0.186186
0.413520 1.780253 0.185640
0.419133 1.768641 0.184858
0.425909 1.760683 0.184420
0.426344 1.734651 0.182292
0.433637 1.728724 0.182045
0.441911 1.725625 0.182065
0.456504 1.739899 0.183722
0.462972 1.731696 0.183264
0.460982 1.701112 0.180687
0.474046 1.710927 0.181923
0.479230 1.700002 0.181190
0.486728 1.695265 0.181036
0.485000 1.667381 0.178668
0.481636 1.636175 0.175965
0.473331 1.593685 0.172163
0.479001 1.586177 0.171683
0.491951 1.596296 0.172874
0.499514 1.593490 0.172811
0.503803 1.583186 0.172007
0.509962 1.577515 0.171624
0.515799 1.571337 0.171169
0.520536 1.562937 0.170472
0.525762 1.555934 0.169882
0.529677 1.546342 0.169013
0.531777 1.533171 0.167767
0.537179 1.527523 0.167213
0.542741 1.522498 0.166687
0.548120 1.517365 0.166115
0.552464 1.510367 0.165329
0.557629 1.505384 0.164702
0.561774 1.498617 0.163867
0.567035 1.494430 0.163243
0.571550 1.489035 0.162468
0.587453 1.506470 0.163839
-0.994295 1.283455 0.183465
-0.994271 1.294179 0.184720
-0.990195 1.298612 0.185134
-0.986089 1.303227 0.185530
-0.980401 1.305441 0.185581
-0.974707 1.307833 0.185613
-0.969307 1.310912 0.185692
-0.964304 1.314864 0.185841
-0.958016 1.316801 0.185697
-0.952192 1.319710 0.185637
-0.947916 1.325519 0.185902
-0.943358 1.331048 0.186096
-0.938382 1.336038 0.186186
-0.932395 1.339380 0.186039
-0.925776 1.341711 0.185738
-0.919308 1.344437 0.185457
-0.913634 1.348767 0.185347
-0.907725 1.352790 0.185174
-0.901443 1.356220 0.184908
-0.895432 1.360275 0.184696
-0.888432 1.362493 0.184246
-0.882118 1.366127 0.183951
-0.876212 1.370657 0.183750
-0.870564 1.375799 0.183609
-0.864547 1.380279 0.183378
-0.858176 1.384094 0.183061
-0.851789 1.387923 0.182739
-0.845458 1.391915 0.182431
-0.839025 1.395726 0.182099
-0.832315 1.398965 0.181700
-0.825964 1.403011 0.181393
-0.819404 1.406614 0.181036
-0.812980 1.410541 0.180718
-0.806529 1.414422 0.180397
-0.800015 1.418172 0.180065
-0.794048 1.423225 0.179884
-0.788488 1.429297 0.179820
-0.782329 1.433980 0.179605
-0.775999 1.438272 0.179353
-0.769665 1.442569 0.179106
-0.762727 1.445359 0.178701
-0.755846 1.448270 0.178318
-0.749228 1.451845 0.178015
-0.743374 1.457436 0.177938
-0.737247 1.462357 0.177795
-0.730977 1.466925 0.177622
-0.724025 1.469644 0.177258
-0.717657 1.473975 0.177076
-0.710938 1.477335 0.176798
-0.703963 1.479954 0.176450
-0.697494 1.484035 0.176266
-0.691613 1.489890 0.176276
-0.685309 1.494551 0.176167
-0.678496 1.497697 0.175909
-0.671975 1.501757 0.175753
-0.665767 1.506842 0.175712
-0.660296 1.514373 0.175929
-0.654168 1.519909 0.175947
-0.647671 1.524305 0.175854
-0.641020 1.528232 0.175721
-0.634020 1.531004 0.175479
-0.627050 1.533884 0.175255
-0.620658 1.538842 0.175248
-0.614482 1.544674 0.175336
-0.608420 1.551054 0.175484
-0.601800 1.555483 0.175443
-0.595210 1.560103 0.175427
-0.588814 1.565581 0.175502
-0.581629 1.568035 0.175283
-0.574690 1.571509 0.175172
-0.568247 1.577104 0.175276
-0.562200 1.584526 0.175564
-0.555308 1.588522 0.175520
-0.548042 1.590955 0.175330
-0.541124 1.594987 0.175301
-0.533167 1.594315 0.174821
-0.525524 1.595024 0.174482
-0.518413 1.598267 0.174394
-0.511958 1.604843 0.174633
-0.508597 1.627383 0.176411
-0.503948 1.644264 0.177642
-0.498989 1.660284 0.178788
-0.487640 1.642056 0.176665
-0.481841 1.654003 0.177429
-0.476483 1.669081 0.178492
-0.469635 1.676089 0.178789
-0.461905 1.678032 0.178609
-0.454687 1.683254 0.178744
-0.446921 1.685160 0.178570
-0.438820 1.684883 0.178195
-0.430773 1.684885 0.177852
-0.422896 1.686035 0.177621
-0.415200 1.688537 0.177522
-0.408317 1.697390 0.178017
-0.400783 1.701649 0.178087
-0.393664 1.709608 0.178504
-0.386785 1.720200 0.179166
-0.379023 1.723709 0.179174
-0.371542 1.730081 0.179449
-0.363657 1.733017 0.179410
-0.355599 1.734396 0.179231
-0.347447 1.734839 0.178970
-0.339524 1.737843 0.178948
-0.332468 1.751479 0.179900
-0.323922 1.747786 0.179271
-0.315139 1.740373 0.178308
-0.308313 1.759991 0.179809
-0.303235 1.809204 0.183994
-0.294557 1.806308 0.183446
-0.286068 1.806248 0.183160
-0.276979 1.794339 0.181807
-0.268643 1.796167 0.181701
-0.260423 1.801092 0.181876
-0.252958 1.827484 0.183983
-0.245102 1.849261 0.185672
-0.236257 1.842755 0.184825
-0.227619 1.842399 0.184534
-0.219129 1.849677 0.184929
-0.210513 1.852584 0.184936
-0.201875 1.855903 0.184984
-0.193225 1.862831 0.185355
-0.184513 1.870153 0.185763
-0.175731 1.878177 0.186235
-0.166915 1.881884 0.186328
-0.158102 1.882923 0.186189
-0.149224 1.886969 0.186318
-0.140219 1.894926 0.186796
-0.131174 1.901625 0.187166
-0.121972 1.911284 0.187799
-0.112997 1.912306 0.187676
-0.105344 1.881234 0.184742
-0.094186 1.932321 0.189017
-0.084819 1.938764 0.189380
-0.075387 1.945258 0.189751
-0.065984 1.950229 0.189993
-0.056453 1.956401 0.190344
-0.046497 1.967838 0.191158
-0.037097 1.970261 0.191191
-0.028131 1.966804 0.190718
-0.019135 1.964041 0.190311
-0.008832 1.976376 0.191221
0.001296 1.985512 0.191858
0.011675 1.996281 0.192641
0.021350 1.999094 0.192740
0.030991 2.001252 0.192789
0.040674 2.003539 0.192855
0.050580 2.007487 0.193071
0.060438 2.010650 0.193226
0.070675 2.016518 0.193621
0.080506 2.018753 0.193710
0.090177 2.019557 0.193683
0.099996 2.021275 0.193742
0.110837 2.029891 0.194402
0.120940 2.032903 0.194589
0.130943 2.034982 0.194703
0.141145 2.038097 0.194914
0.151619 2.042596 0.195253
0.161989 2.046120 0.195517
0.171821 2.046222 0.195496
0.181484 2.045254 0.195393
0.190887 2.042799 0.195171
0.200316 2.040498 0.194972
0.209146 2.035067 0.194515
0.218076 2.030293 0.194123
0.226365 2.022444 0.193478
0.235457 2.018741 0.193200
0.245341 2.018849 0.193259
0.253092 2.008931 0.192467
0.259163 1.991707 0.191056
0.267049 1.983158 0.190402
0.274371 1.972390 0.189567
0.282738 1.966395 0.189154
0.289822 1.955169 0.188300
0.294220 1.933300 0.186537
0.300705 1.920519 0.185568
0.312215 1.927817 0.186344
0.321280 1.925297 0.186283
0.328847 1.917087 0.185740
0.335688 1.906359 0.184989
0.343001 1.897605 0.184419
0.350105 1.888290 0.183809
0.357072 1.878694 0.183184
0.363983 1.869111 0.182569
0.368190 1.850574 0.181182
0.377600 1.849853 0.181357
0.383850 1.838693 0.180629
0.387547 1.819568 0.179209
0.391564 1.801957 0.177927
0.399014 1.795489 0.177628
0.407078 1.790989 0.177510
0.415709 1.788228 0.177551
0.415545 1.759351 0.175290
0.422409 1.751793 0.174914
0.428456 1.742018 0.174345
0.434588 1.732684 0.173816
0.441073 1.724528 0.173392
0.447910 1.717502 0.173069
0.455328 1.712182 0.172897
0.453431 1.682091 0.170504
0.462143 1.680717 0.170677
0.463237 1.659577 0.169068
0.469846 1.653097 0.168768
0.474003 1.640587 0.167916
0.477696 1.627254 0.166977
0.480089 1.611085 0.165766
0.483952 1.598919 0.164902
0.492104 1.597353 0.164984
0.502440 1.601022 0.165525
0.506163 1.589241 0.164641
0.510747 1.579803 0.163949
0.514352 1.568453 0.163057
0.520006 1.562073 0.162593
0.525046 1.554593 0.162001
0.527611 1.541975 0.160911
0.532232 1.534238 0.160237
0.537574 1.528366 0.159702
0.543797 1.524648 0.159332
0.549147 1.519346 0.158784
0.552344 1.509857 0.157818
0.556091 1.501878 0.156956
0.564380 1.503493 0.156934
0.567426 1.494707 0.155928
0.572100 1.489542 0.155217
0.571906 1.475052 0.153625
-0.998311 1.288709 0.177547
-0.994668 1.293667 0.178029
-0.990897 1.298659 0.178473
-0.985686 1.301516 0.178617
-0.980518 1.304648 0.178754
-0.974498 1.306552 0.178702
-0.969772 1.310828 0.178897
-0.964566 1.314497 0.178979
-0.959215 1.318116 0.179017
