ply
format ascii 1.0
comment ---
element vertex 1679
property float x
property float y
property float z
element face 0
property list uchar uint vertex_indices
end_header
0.167832 0.936593 -0.485453
0.173895 0.937858 -0.486169
0.180147 0.939498 -0.486988
0.185812 0.939652 -0.487396
0.191363 0.939484 -0.487714
0.197482 0.940589 -0.488384
0.203510 0.941408 -0.488973
0.209397 0.941838 -0.489454
0.214912 0.941377 -0.489685
0.220519 0.941079 -0.489960
0.226523 0.941602 -0.490462
0.232515 0.942034 -0.490938
0.239051 0.943559 -0.491718
0.258779 0.972664 -0.500222
0.264498 0.971985 -0.500392
0.522000 1.316629 -0.602124
0.532426 1.320003 -0.603526
0.547706 1.331866 -0.607343
0.558919 1.336208 -0.609019
0.570875 1.341658 -0.611011
0.570082 1.324912 -0.606661
0.576909 1.321433 -0.606090
0.587158 1.323708 -0.607161
0.594176 1.320446 -0.606642
0.598730 1.313088 -0.604942
0.604471 1.307727 -0.603806
0.611571 1.304578 -0.603299
0.616713 1.298266 -0.601876
0.622355 1.292776 -0.600681
0.628207 1.287628 -0.599578
0.634338 1.282919 -0.598594
0.641284 1.279454 -0.597963
0.646058 1.272663 -0.596363
0.649355 1.263693 -0.594126
0.654854 1.258074 -0.592850
0.661145 1.253631 -0.591908
0.662858 1.242516 -0.589024
0.670352 1.239847 -0.588584
0.675700 1.234073 -0.587237
0.679820 1.226580 -0.585383
0.684287 1.219622 -0.583678
0.688707 1.212638 -0.581960
0.692978 1.205493 -0.580189
0.696643 1.197573 -0.578187
0.699884 1.189148 -0.576031
0.703771 1.181656 -0.574144
0.706984 1.173339 -0.572011
0.712686 1.168335 -0.570845
0.716968 1.161519 -0.569146
0.720332 1.153588 -0.567119
0.722731 1.144522 -0.564756
0.726831 1.137687 -0.563049
0.731767 1.131957 -0.561667
0.736403 1.125910 -0.560194
0.741118 1.120026 -0.558772
0.745021 1.113233 -0.557086
0.748728 1.106300 -0.555364
0.752500 1.099545 -0.553700
0.756925 1.093657 -0.552299
0.761097 1.087575 -0.550849
0.763577 1.079662 -0.548866
0.768571 1.074754 -0.547783
0.778149 1.075100 -0.548273
0.780986 1.067953 -0.546552
0.776510 1.052889 -0.542485
0.782778 1.049890 -0.542023
0.802019 1.061066 -0.545810
0.816570 1.057504 -0.545713
0.819475 1.051249 -0.544353
0.871197 1.096385 -0.558447
-0.705504 1.484913 -0.541667
-0.701584 1.494303 -0.544230
-0.696142 1.499156 -0.545863
-0.689804 1.501412 -0.546976
-0.683485 1.504145 -0.548230
-0.677815 1.509608 -0.550112
-0.671933 1.514799 -0.551973
-0.664973 1.516496 -0.553112
-0.658608 1.520766 -0.554842
-0.651508 1.522655 -0.556085
-0.644546 1.525395 -0.557543
-0.638247 1.531101 -0.559678
-0.632318 1.538733 -0.562264
-0.625467 1.543053 -0.564149
-0.618302 1.546393 -0.565839
-0.611404 1.551167 -0.567867
-0.604286 1.555299 -0.569770
-0.597254 1.560105 -0.571840
-0.590699 1.567403 -0.574482
-0.583517 1.572151 -0.576569
-0.576888 1.579829 -0.579325
-0.569320 1.583267 -0.581139
-0.561854 1.587393 -0.583115
-0.554585 1.592743 -0.585374
-0.546472 1.593841 -0.586672
-0.538574 1.596126 -0.588240
-0.532125 1.606661 -0.591694
-0.523891 1.607359 -0.592902
-0.517178 1.617110 -0.596187
-0.509312 1.620257 -0.597957
-0.501660 1.624851 -0.600058
-0.493451 1.625965 -0.601351
-0.483896 1.617900 -0.600506
-0.475078 1.614316 -0.600687
-0.464316 1.596190 -0.597460
-0.456950 1.602189 -0.599850
-0.451343 1.622279 -0.605546
-0.442655 1.618725 -0.605693
-0.435251 1.625605 -0.608288
-0.428632 1.639861 -0.612626
-0.421873 1.653924 -0.616925
-0.413878 1.657186 -0.618664
-0.404796 1.649547 -0.617802
-0.396930 1.653933 -0.619793
-0.389245 1.660641 -0.622334
-0.381169 1.663294 -0.623901
-0.373148 1.666779 -0.625662
-0.364164 1.657582 -0.624364
-0.356673 1.668379 -0.627872
-0.347481 1.654348 -0.625379
-0.339927 1.665162 -0.628884
-0.331575 1.663232 -0.629296
-0.323322 1.662700 -0.630039
-0.314474 1.648872 -0.627531
-0.306554 1.654258 -0.629696
-0.299139 1.674736 -0.635554
-0.290741 1.670057 -0.635253
-0.281997 1.650618 -0.631312
-0.273797 1.647297 -0.631315
-0.266070 1.669047 -0.637495
-0.257871 1.669612 -0.638451
-0.249595 1.660731 -0.637062
-0.241437 1.662018 -0.638181
-0.233272 1.660307 -0.638550
-0.225136 1.656481 -0.638385
-0.217023 1.653933 -0.638530
-0.208910 1.652766 -0.639012
-0.200517 1.665757 -0.643033
-0.192081 1.675470 -0.646239
-0.184468 1.654478 -0.641732
-0.175725 1.671734 -0.646830
-0.167736 1.665577 -0.646035
-0.152582 1.639670 -0.640975
-0.143205 1.663556 -0.647761
-0.135694 1.651457 -0.645426
-0.127724 1.648353 -0.645365
-0.119133 1.654693 -0.647704
-0.111421 1.648000 -0.646719
-0.105619 1.617360 -0.639604
-0.097452 1.618920 -0.640704
-0.089298 1.620039 -0.641690
-0.080770 1.625017 -0.643665
-0.073183 1.619646 -0.642980
-0.063601 1.634353 -0.647460
-0.057500 1.614840 -0.643119
-0.053445 1.578486 -0.634407
-0.072071 1.349275 -0.575732
-0.066699 1.337163 -0.573164
-0.060404 1.333261 -0.572718
-0.054263 1.328369 -0.572009
-0.056389 1.262616 -0.555439
-0.050502 1.258548 -0.554910
-0.034098 1.327219 -0.573385
-0.023117 1.355152 -0.581251
0.003060 1.387379 -0.591419
0.025429 1.353253 -0.584691
1.172351 5.944567 -1.822640
1.210379 5.976188 -1.833489
0.025950 0.942966 -0.482099
0.030419 0.940322 -0.481776
0.031267 0.924321 -0.477828
0.032533 0.910392 -0.474431
0.037055 0.908545 -0.474308
0.042344 0.909404 -0.474921
0.048051 0.911627 -0.475905
0.053492 0.912829 -0.476612
0.058752 0.913342 -0.477132
0.064148 0.914239 -0.477757
0.070519 0.918190 -0.479219
0.076019 0.919217 -0.479881
0.080740 0.917748 -0.479858
0.086976 0.920908 -0.481107
0.092896 0.922974 -0.482057
0.098296 0.923391 -0.482553
0.104450 0.925950 -0.483640
0.110026 0.926727 -0.484236
0.115809 0.928022 -0.484976
0.121877 0.930023 -0.485912
0.127131 0.929691 -0.486200
0.132382 0.929318 -0.486476
0.137959 0.929774 -0.486982
0.144630 0.933043 -0.488273
0.149879 0.932498 -0.488499
0.155678 0.933325 -0.489108
0.161959 0.935292 -0.490037
0.167767 0.935990 -0.490610
0.173627 0.936747 -0.491199
0.180468 0.939801 -0.492434
0.185275 0.937887 -0.492270
0.191283 0.938796 -0.492900
0.197576 0.940293 -0.493696
0.203654 0.941212 -0.494328
0.209349 0.941192 -0.494694
0.214924 0.940853 -0.494968
0.220785 0.941104 -0.495407
0.226979 0.942022 -0.496035
0.232916 0.942312 -0.496484
0.239577 0.944082 -0.497353
0.266012 0.987205 -0.510029
0.269494 0.981698 -0.508832
0.291543 1.001407 -0.515225
0.314576 1.021907 -0.521866
0.328968 1.037321 -0.526679
0.518876 1.309973 -0.607928
0.529263 1.313328 -0.609359
0.538112 1.313781 -0.609946
0.549379 1.318395 -0.611740
0.558412 1.318926 -0.612344
0.571645 1.326589 -0.615024
0.571194 1.310670 -0.610826
0.579458 1.309696 -0.610978
0.587642 1.308511 -0.611064
0.590887 1.299109 -0.608740
0.600251 1.299796 -0.609363
0.605886 1.294350 -0.608183
0.610897 1.287922 -0.606708
0.616552 1.282548 -0.605535
0.623055 1.278513 -0.604748
0.627696 1.271578 -0.603101
0.632152 1.264403 -0.601376
0.636859 1.257655 -0.599768
0.645016 1.256116 -0.599691
0.651164 1.251527 -0.598708
0.654637 1.242997 -0.596553
0.662294 1.240620 -0.596212
0.666902 1.233803 -0.594549
0.670481 1.225556 -0.592456
0.675309 1.219134 -0.590898
0.680381 1.213081 -0.589443
0.686305 1.208225 -0.588338
0.691502 1.202374 -0.586933
0.696483 1.196250 -0.585442
0.700024 1.188225 -0.583379
0.703730 1.180484 -0.581396
0.707807 1.173295 -0.579573
0.712330 1.166739 -0.577936
0.716948 1.160349 -0.576347
0.720289 1.152379 -0.574283
0.722499 1.143065 -0.571813
0.726438 1.136020 -0.570023
0.731379 1.130285 -0.568627
0.736141 1.124382 -0.567182
0.741065 1.118736 -0.565816
0.744671 1.111569 -0.563997
0.747516 1.103596 -0.561938
0.752061 1.097742 -0.560523
0.756285 1.091602 -0.559028
0.760996 1.086124 -0.557741
0.765286 1.080258 -0.556345
0.769361 1.074260 -0.554919
0.778931 1.074553 -0.555412
0.787249 1.073468 -0.555503
0.806513 1.084501 -0.559296
0.805364 1.073067 -0.556272
0.803535 1.061145 -0.553108
0.803819 1.051752 -0.550726
0.814225 1.044027 -0.549386
0.803155 1.023330 -0.543575
-0.711257 1.498738 -0.552040
-0.702966 1.493827 -0.551533
-0.697572 1.498939 -0.553262
-0.691505 1.502234 -0.554631
-0.685497 1.506182 -0.556182
-0.679510 1.510653 -0.557886
-0.672988 1.513653 -0.559300
-0.666380 1.516740 -0.560767
-0.659940 1.520844 -0.562493
-0.653489 1.525316 -0.564332
-0.646746 1.529066 -0.566040
-0.640152 1.533771 -0.567988
-0.633475 1.538527 -0.569975
-0.626714 1.543309 -0.571991
-0.620116 1.549136 -0.574266
-0.612527 1.551092 -0.575685
-0.605068 1.553814 -0.577293
-0.598302 1.559861 -0.579671
-0.591665 1.566846 -0.582280
-0.584998 1.574074 -0.584959
-0.577469 1.577534 -0.586787
-0.570401 1.583451 -0.589188
-0.562793 1.586934 -0.591036
-0.554954 1.589378 -0.592647
-0.547161 1.592163 -0.594340
-0.539137 1.593781 -0.595763
-0.532669 1.604176 -0.599233
-0.524900 1.607559 -0.601070
-0.517506 1.613296 -0.603459
-0.509845 1.617634 -0.605520
-0.502531 1.624341 -0.608139
-0.494782 1.628508 -0.610158
-0.485984 1.625740 -0.610530
-0.477282 1.623314 -0.610972
-0.464877 1.593740 -0.604932
-0.455764 1.586569 -0.604202
-0.446820 1.580007 -0.603600
-0.438559 1.578322 -0.604153
-0.432437 1.594392 -0.608969
-0.424091 1.592100 -0.609365
-0.413086 1.641123 -0.623114
-0.404756 1.640415 -0.623890
-0.396286 1.637975 -0.624234
-0.387872 1.635715 -0.624610
-0.380615 1.646702 -0.628215
-0.370838 1.627235 -0.624358
-0.363068 1.631866 -0.626391
-0.355148 1.634816 -0.628007
-0.347635 1.644242 -0.631216
-0.339628 1.646822 -0.632733
-0.332238 1.660710 -0.637047
-0.323216 1.645030 -0.634027
-0.314411 1.630638 -0.631304
-0.306380 1.631377 -0.632330
-0.298643 1.640106 -0.635345
-0.290545 1.639989 -0.636148
-0.282292 1.633947 -0.635459
-0.274426 1.642310 -0.638375
-0.266562 1.655019 -0.642386
-0.258315 1.647388 -0.641275
-0.250136 1.639068 -0.639977
-0.242073 1.640393 -0.641106
-0.233991 1.647266 -0.643636
-0.225882 1.647710 -0.644535
-0.217857 1.639831 -0.643311
-0.209742 1.642564 -0.644779
-0.201636 1.643420 -0.645766
-0.194205 1.616664 -0.639686
-0.185630 1.637094 -0.645668
-0.177886 1.627528 -0.643965
-0.168566 1.660557 -0.653199
-0.162768 1.605843 -0.639862
-0.154802 1.606389 -0.640729
-0.146690 1.609460 -0.642245
-0.139079 1.603287 -0.641367
-0.130006 1.621203 -0.646726
-0.121151 1.633254 -0.650574
-0.115110 1.604712 -0.643870
-0.107490 1.600052 -0.643362
-0.099717 1.597696 -0.643447
-0.091916 1.595811 -0.643651
-0.084079 1.594398 -0.643975
-0.075680 1.598855 -0.645834
-0.068364 1.592073 -0.644743
-0.061547 1.581086 -0.642538
-0.073898 1.336738 -0.579423
-0.067649 1.332311 -0.578827
-0.061656 1.326099 -0.577754
-0.056456 1.314164 -0.575158
-0.054418 1.279583 -0.566539
-0.050545 1.260444 -0.561996
-0.037052 1.308983 -0.575459
-0.026629 1.333755 -0.582621
-0.022461 1.316396 -0.578550
0.022890 1.340744 -0.588442
0.992109 5.953772 -1.841326
-0.031058 0.915002 -0.475656
-0.025260 0.919109 -0.477164
-0.018609 0.926870 -0.479669
-0.014329 0.923656 -0.479187
-0.009246 0.924036 -0.479685
-0.005071 0.920478 -0.479105
0.000093 0.921153 -0.479681
0.005332 0.922056 -0.480321
0.010798 0.923789 -0.481188
0.016677 0.927023 -0.482471
0.022324 0.929194 -0.483462
0.027581 0.929758 -0.484012
0.030518 0.921661 -0.482169
0.032521 0.910431 -0.479453
0.036851 0.907867 -0.479129
0.042160 0.908782 -0.479768
0.048614 0.913557 -0.481480
0.053428 0.912578 -0.481594
0.058328 0.911875 -0.481785
0.064504 0.915314 -0.483130
0.071295 0.920567 -0.484985
0.076523 0.920669 -0.485403
0.082232 0.922216 -0.486224
0.087901 0.923545 -0.486986
0.092717 0.922228 -0.487005
0.097889 0.921960 -0.487318
0.103641 0.923344 -0.488095
0.109998 0.926376 -0.489339
0.115376 0.926508 -0.489765
0.121830 0.929583 -0.491023
0.127189 0.929520 -0.491394
0.132560 0.929451 -0.491762
0.138698 0.931375 -0.492696
0.144289 0.931768 -0.493196
0.150072 0.932597 -0.493819
0.155618 0.932754 -0.494251
0.161981 0.934915 -0.495254
0.167979 0.936066 -0.495969
0.173979 0.937143 -0.496664
0.179807 0.937729 -0.497217
0.186556 0.940444 -0.498381
0.192509 0.941169 -0.498974
0.197951 0.940643 -0.499206
0.203539 0.940415 -0.499523
0.209272 0.940473 -0.499921
0.215186 0.940881 -0.500418
0.221816 0.942806 -0.501355
0.227717 0.943046 -0.501803
0.233675 0.943350 -0.502268
0.238684 0.941583 -0.502130
0.257154 0.968007 -0.510193
0.269127 0.980291 -0.514154
0.280630 0.991265 -0.517740
0.301165 1.020169 -0.526570
0.316445 1.037839 -0.532134
0.324650 1.015498 -0.526769
0.392247 1.091483 -0.550713
0.506672 1.286780 -0.608792
0.520548 1.296651 -0.612179
0.532947 1.303588 -0.614702
0.541982 1.304362 -0.615399
0.551381 1.305663 -0.616250
0.558836 1.303498 -0.616068
0.562667 1.295116 -0.614034
0.571067 1.294519 -0.614307
0.578219 1.291762 -0.613934
0.584710 1.287878 -0.613218
0.591305 1.284150 -0.612543
0.599367 1.282772 -0.612565
0.604785 1.277103 -0.611298
0.610306 1.271617 -0.610078
0.613412 1.262372 -0.607724
0.623579 1.264138 -0.608667
0.624664 1.251870 -0.605389
0.628920 1.244556 -0.603591
0.638227 1.244861 -0.604079
0.645036 1.241352 -0.603414
0.651143 1.236781 -0.602424
0.655177 1.229190 -0.600515
0.657902 1.219770 -0.598046
0.664124 1.215413 -0.597101
0.670113 1.210715 -0.596048
0.676063 1.205956 -0.594971
0.677626 1.195140 -0.592051
0.685928 1.193644 -0.591954
0.692971 1.190378 -0.591316
0.698159 1.184600 -0.589912
0.700761 1.175417 -0.587466
0.705610 1.169271 -0.585940
0.710659 1.163418 -0.584502
0.715151 1.156878 -0.582851
0.720020 1.150867 -0.581359
0.724425 1.144311 -0.579700
0.728344 1.137205 -0.577872
0.731802 1.129600 -0.575890
0.736598 1.123719 -0.574437
0.741290 1.117769 -0.572966
0.744360 1.109939 -0.570920
0.747577 1.102393 -0.568963
0.751408 1.095679 -0.567267
0.756438 1.090461 -0.566038
0.761148 1.084955 -0.564726
0.765834 1.079516 -0.563444
0.769963 1.073547 -0.562006
0.773721 1.067280 -0.560486
0.778047 1.061776 -0.559213
0.783453 1.057588 -0.558360
0.788155 1.052741 -0.557315
0.797180 1.052701 -0.557782
0.798479 1.044430 -0.555698
0.796781 1.033175 -0.552694
0.799852 1.027206 -0.551353
0.797135 1.015358 -0.548183
-0.708401 1.484244 -0.556234
-0.704442 1.493662 -0.558927
-0.699256 1.499572 -0.560876
-0.693661 1.504606 -0.562667
-0.687394 1.507791 -0.564081
-0.680919 1.510665 -0.565460
-0.674320 1.513501 -0.566864
-0.667602 1.516289 -0.568290
-0.661359 1.521224 -0.570235
-0.655314 1.527346 -0.572482
-0.648417 1.530641 -0.574114
-0.641592 1.534560 -0.575915
-0.634456 1.537583 -0.577533
-0.627593 1.542018 -0.579499
-0.620268 1.544859 -0.581117
-0.614264 1.553596 -0.584117
-0.606563 1.555406 -0.585532
-0.600042 1.562662 -0.588225
-0.592706 1.566585 -0.590157
-0.585282 1.570325 -0.592057
-0.578500 1.577354 -0.594738
-0.571063 1.581516 -0.596755
-0.563735 1.586427 -0.598956
-0.555881 1.588853 -0.600575
-0.548208 1.592323 -0.602443
-0.541787 1.602750 -0.605967
-0.533434 1.602864 -0.607042
-0.526003 1.608220 -0.609365
-0.518076 1.610856 -0.611038
-0.510747 1.617204 -0.613600
-0.503258 1.622834 -0.615990
-0.495503 1.626965 -0.618018
-0.487896 1.632238 -0.620320
-0.479842 1.634620 -0.621919
-0.471493 1.634905 -0.623003
-0.462886 1.633124 -0.623574
-0.447414 1.577732 -0.611033
-0.439086 1.575488 -0.611439
-0.430975 1.574713 -0.612194
-0.421372 1.560638 -0.609666
-0.412047 1.547696 -0.607393
-0.405421 1.559241 -0.611151
-0.386812 1.614405 -0.627560
-0.378251 1.608879 -0.627088
-0.370169 1.608477 -0.627882
-0.362278 1.610391 -0.629248
-0.354048 1.607576 -0.629420
-0.346393 1.612916 -0.631634
-0.339431 1.630256 -0.636869
-0.331477 1.632733 -0.638360
-0.322747 1.620433 -0.636107
-0.314583 1.617562 -0.636225
-0.306709 1.620736 -0.637869
-0.298981 1.628461 -0.640668
-0.290717 1.621760 -0.639787
-0.282648 1.619636 -0.640064
-0.275053 1.637001 -0.645321
-0.266727 1.623192 -0.642593
-0.258674 1.619623 -0.642477
-0.250639 1.614070 -0.641841
-0.242716 1.623023 -0.644936
-0.234707 1.636095 -0.649097
-0.226689 1.627931 -0.647769
-0.218851 1.609678 -0.643812
-0.210659 1.626596 -0.648969
-0.202769 1.619918 -0.647997
-0.195117 1.605957 -0.645116
-0.187398 1.598723 -0.643974
-0.180436 1.571067 -0.637481
-0.172299 1.580502 -0.640676
-0.164150 1.588025 -0.643375
-0.156269 1.588371 -0.644189
-0.148705 1.582539 -0.643374
-0.141686 1.568123 -0.640286
-0.133779 1.570006 -0.641489
-0.118594 1.563944 -0.641285
-0.110193 1.571848 -0.644078
-0.102093 1.575013 -0.645615
-0.096628 1.547210 -0.638905
-0.087076 1.567054 -0.644878
-0.078950 1.569935 -0.646334
-0.072399 1.556817 -0.643509
-0.065784 1.545391 -0.641125
-0.068040 1.332118 -0.585715
-0.063162 1.316893 -0.582188
-0.058106 1.304106 -0.579305
-0.053359 1.289854 -0.576015
-0.051337 1.257003 -0.567673
-0.041242 1.282154 -0.575039
-0.028931 1.320408 -0.585984
-0.024500 1.305088 -0.582383
-0.041309 1.053294 -0.515693
-0.036298 1.050346 -0.515340
-0.040069 0.919706 -0.481125
-0.034644 0.922142 -0.482196
-0.030548 0.918048 -0.481464
-0.026957 0.911734 -0.480113
-0.020031 0.920891 -0.483048
-0.013543 0.927631 -0.485319
-0.009055 0.925290 -0.485069
-0.003770 0.926410 -0.485781
0.000989 0.925232 -0.485853
0.005783 0.924197 -0.485964
0.013328 0.934184 -0.489158
0.018496 0.934387 -0.489618
0.022571 0.930325 -0.488881
0.026896 0.927318 -0.488438
0.030329 0.921076 -0.487081
0.032284 0.909652 -0.484259
0.036745 0.907541 -0.484057
0.042227 0.909036 -0.484871
0.048004 0.911452 -0.485948
0.053723 0.913537 -0.486932
0.059004 0.914053 -0.487472
0.065171 0.917400 -0.488818
0.070462 0.917778 -0.489321
0.076694 0.921066 -0.490653
0.082310 0.922294 -0.491400
0.087747 0.922888 -0.491966
0.092665 0.921862 -0.492069
0.097365 0.920178 -0.491983
0.103466 0.922581 -0.493067
0.110023 0.926172 -0.494495
0.115914 0.927730 -0.495340
0.121537 0.928452 -0.495945
0.127221 0.929274 -0.496579
0.133042 0.930398 -0.497301
0.138563 0.930645 -0.497769
0.144295 0.931394 -0.498382
0.150143 0.932375 -0.499063
0.155928 0.933122 -0.499675
0.161684 0.933730 -0.500248
0.168681 0.937350 -0.501697
0.174919 0.938969 -0.502565
0.180100 0.937951 -0.502663
0.186575 0.939988 -0.503653
0.192319 0.940207 -0.504112
0.198021 0.940277 -0.504526
0.203780 0.940427 -0.504962
0.209520 0.940478 -0.505368
0.215971 0.942065 -0.506226
0.222184 0.943036 -0.506902
0.228494 0.944143 -0.507618
0.234213 0.943904 -0.507935
0.239421 0.942534 -0.507917
0.257040 0.967130 -0.515594
0.268673 0.978696 -0.519420
0.318820 1.003532 -0.529199
0.502336 1.277915 -0.613729
0.510553 1.277680 -0.614142
0.525212 1.288821 -0.617983
0.535801 1.292471 -0.619567
0.543189 1.290383 -0.619415
0.551514 1.289864 -0.619734
0.558318 1.286676 -0.619241
0.563430 1.280615 -0.617870
0.571139 1.278918 -0.617818
0.579395 1.278064 -0.618018
0.586871 1.275860 -0.617803
0.592844 1.271183 -0.616830
0.598822 1.266516 -0.615853
0.601675 1.256917 -0.613364
0.606523 1.250535 -0.611848
0.611228 1.243967 -0.610268
0.618166 1.240850 -0.609739
0.623336 1.235021 -0.608372
0.630302 1.231900 -0.607830
0.638761 1.230954 -0.607951
0.645277 1.227076 -0.607167
0.647660 1.217175 -0.604522
0.652080 1.210300 -0.602802
0.656864 1.203982 -0.601247
0.664702 1.201985 -0.601020
0.668771 1.194679 -0.599149
0.672410 1.186828 -0.597102
0.680068 1.184519 -0.596766
0.688503 1.183205 -0.596736
0.692826 1.176324 -0.594977
0.696127 1.168134 -0.592805
0.701266 1.162423 -0.591400
0.706920 1.157401 -0.590207
0.713115 1.153089 -0.589233
0.718814 1.148147 -0.588061
0.724372 1.143046 -0.586839
0.728161 1.135766 -0.584936
0.731614 1.128146 -0.582925
0.736162 1.121948 -0.581360
0.741045 1.116218 -0.579943
0.744619 1.108980 -0.578055
0.747839 1.101417 -0.576068
0.752384 1.095518 -0.574607
0.757776 1.090689 -0.573488
0.762304 1.084935 -0.572084
0.765547 1.077811 -0.570255
0.769776 1.071931 -0.568826
0.773737 1.065867 -0.567347
0.777732 1.059968 -0.565930
0.782334 1.054867 -0.564776
0.787069 1.050037 -0.563721
0.790350 1.043764 -0.562218
0.792957 1.036929 -0.560548
0.795628 1.030340 -0.558969
0.797806 1.023410 -0.557292
0.804280 1.021155 -0.557123
-0.710258 1.485245 -0.563858
-0.706415 1.495144 -0.566723
-0.701131 1.500839 -0.568667
-0.694786 1.503427 -0.569936
-0.689076 1.508634 -0.571843
-0.682489 1.511234 -0.573186
-0.676002 1.514585 -0.574735
-0.669234 1.517316 -0.576174
-0.662803 1.521669 -0.578018
-0.656136 1.525539 -0.579780
-0.649193 1.528722 -0.581409
-0.642255 1.532262 -0.583146
-0.635295 1.536040 -0.584962
-0.628376 1.540304 -0.586914
-0.620531 1.541029 -0.588051
-0.611502 1.536856 -0.588045
-0.606555 1.550390 -0.592238
-0.601179 1.562702 -0.596167
-0.593634 1.565755 -0.597913
-0.587435 1.575267 -0.601211
-0.578150 1.570508 -0.601108
-0.571745 1.579625 -0.604331
-0.564435 1.584641 -0.606580
-0.557687 1.592781 -0.609588
-0.550440 1.598674 -0.612061
-0.541775 1.597118 -0.612731
-0.534730 1.604453 -0.615558
-0.526814 1.607120 -0.617252
-0.519454 1.613130 -0.619760
-0.512022 1.618968 -0.622228
-0.504324 1.623380 -0.624346
-0.496811 1.629147 -0.626795
-0.489216 1.634625 -0.629173
-0.481957 1.642661 -0.632183
-0.473507 1.642563 -0.633176
-0.465695 1.647063 -0.635304
-0.457749 1.650708 -0.637215
-0.447476 1.635779 -0.634482
-0.431182 1.569072 -0.618757
-0.422959 1.566929 -0.619151
-0.412563 1.544634 -0.614465
-0.404037 1.537944 -0.613680
-0.394714 1.522462 -0.610658
-0.386362 1.515452 -0.609756
-0.378011 1.596187 -0.632000
-0.370189 1.598344 -0.633438
-0.362266 1.599281 -0.634559
-0.354093 1.596652 -0.634760
-0.346056 1.595525 -0.635336
-0.339392 1.616339 -0.641541
-0.331227 1.614062 -0.641815
-0.322330 1.597093 -0.638290
-0.314727 1.603922 -0.640891
-0.307238 1.614790 -0.644538
-0.298667 1.599527 -0.641409
-0.290913 1.604501 -0.643520
-0.282375 1.583111 -0.638763
-0.274959 1.600769 -0.644167
-0.266977 1.596934 -0.643964
-0.258976 1.588964 -0.642669
-0.251067 1.582425 -0.641737
-0.243268 1.586433 -0.643564
-0.235427 1.606313 -0.649569
-0.227568 1.592195 -0.646621
-0.219724 1.590170 -0.646849
-0.211745 1.598650 -0.649852
-0.203693 1.606625 -0.652724
-0.196350 1.581824 -0.646895
-0.189141 1.560437 -0.641947
-0.181380 1.561436 -0.642941
-0.173737 1.559006 -0.643018
-0.166415 1.549537 -0.641206
-0.158625 1.551602 -0.642472
-0.151247 1.545355 -0.641506
-0.144444 1.530000 -0.638085
-0.136434 1.536318 -0.640480
-0.129211 1.529849 -0.639431
-0.120975 1.538258 -0.642390
-0.113461 1.536069 -0.642488
-0.106065 1.532568 -0.642227
-0.099344 1.521510 -0.639911
-0.092238 1.515741 -0.639019
-0.076998 1.515782 -0.640372
-0.071977 1.490980 -0.634270
-0.067258 1.465505 -0.627962
-0.065709 1.414524 -0.614648
-0.062635 1.380280 -0.605879
-0.063857 1.314185 -0.588333
-0.059614 1.295116 -0.583664
-0.058675 1.252789 -0.572572
-0.052606 1.250138 -0.572390
-0.039954 1.293224 -0.584841
-0.030535 1.311722 -0.590523
-0.041848 1.051380 -0.520794
-0.037113 1.046892 -0.520002
-0.033724 1.035256 -0.517207
-0.040211 0.919713 -0.486117
-0.034939 0.921363 -0.486986
-0.028418 0.928862 -0.489504
-0.022880 0.931360 -0.490617
-0.017857 0.931336 -0.491020
-0.012036 0.934830 -0.492418
-0.006411 0.937258 -0.493516
-0.001308 0.937306 -0.493941
0.002949 0.933760 -0.493345
0.008118 0.934049 -0.493838
0.014322 0.938430 -0.495496
0.019591 0.938910 -0.496045
0.023253 0.933138 -0.494808
0.027465 0.929615 -0.494209
0.030453 0.921648 -0.492334
0.032090 0.909026 -0.489117
0.036882 0.908077 -0.489244
0.043494 0.913494 -0.491202
0.048328 0.912554 -0.491333
0.053482 0.912683 -0.491771
0.059435 0.915419 -0.492963
0.064994 0.916728 -0.493744
0.070798 0.918738 -0.494729
0.076469 0.920213 -0.495560
0.081988 0.921125 -0.496229
0.087554 0.922108 -0.496919
0.092787 0.922014 -0.497296
0.097925 0.921596 -0.497578
0.104385 0.924996 -0.498976
0.109967 0.925732 -0.499596
0.115489 0.926231 -0.500147
0.121330 0.927557 -0.500940
0.127244 0.928998 -0.501769
0.132977 0.929862 -0.502428
0.138732 0.930718 -0.503086
0.144685 0.932020 -0.503875
0.150583 0.933098 -0.504599
0.156086 0.933097 -0.505003
0.161822 0.933631 -0.505566
0.168159 0.935595 -0.506553
0.173838 0.935852 -0.507033
0.180781 0.939099 -0.508404
0.185754 0.937529 -0.508340
0.191311 0.937321 -0.508681
0.198159 0.940061 -0.509901
0.204132 0.940682 -0.510489
0.210310 0.941700 -0.511196
0.216479 0.942620 -0.511873
0.222946 0.944125 -0.512726
0.229341 0.945383 -0.513504
0.234868 0.944697 -0.513697
0.239824 0.942766 -0.513512
0.498130 1.269283 -0.618658
0.507694 1.271544 -0.619850
0.518315 1.275547 -0.621577
0.529770 1.280842 -0.623701
0.536608 1.277909 -0.623292
0.544213 1.276268 -0.623277
0.551402 1.273864 -0.623022
0.556891 1.268563 -0.621867
0.564925 1.267517 -0.622023
0.569776 1.261161 -0.620529
0.576976 1.258671 -0.620227
0.586420 1.259754 -0.621031
0.591586 1.253898 -0.619674
0.596444 1.247583 -0.618168
0.601816 1.242104 -0.616915
0.607477 1.237087 -0.615800
0.612825 1.231596 -0.614530
0.617777 1.225518 -0.613071
0.624595 1.222260 -0.612487
0.633833 1.222547 -0.613009
0.638066 1.215394 -0.611195
0.642616 1.208745 -0.609532
0.646524 1.201210 -0.607584
0.652350 1.196448 -0.606501
0.656914 1.189909 -0.604854
0.661257 1.183094 -0.603113
0.666374 1.177380 -0.601714
0.675201 1.176741 -0.601913
0.683295 1.175024 -0.601770
0.688690 1.169641 -0.600465
0.689955 1.158811 -0.597429
0.695877 1.154199 -0.596360
0.702992 1.151132 -0.595778
0.708205 1.145600 -0.594413
0.715902 1.143246 -0.594057
0.721972 1.138814 -0.593039
0.726049 1.131912 -0.591234
0.730396 1.125407 -0.589554
0.734837 1.119079 -0.587932
0.740494 1.114284 -0.586800
0.744306 1.107321 -0.584978
0.748701 1.101137 -0.583406
0.753573 1.095592 -0.582044
0.758981 1.090747 -0.580910
0.762906 1.084263 -0.579256
0.767062 1.078151 -0.577728
0.771024 1.071930 -0.576171
0.775105 1.065961 -0.574703
0.778521 1.059379 -0.573045
0.782383 1.053428 -0.571601
0.785716 1.047042 -0.570025
0.788783 1.040521 -0.568416
0.791533 1.033827 -0.566760
0.794070 1.027080 -0.565098
0.798236 1.022225 -0.564064
0.803906 1.019092 -0.563605
-0.714622 1.494402 -0.573422
-0.707898 1.494989 -0.574176
-0.702697 1.501051 -0.576248
-0.696400 1.503910 -0.577607
-0.690017 1.506891 -0.579030
-0.683361 1.509326 -0.580358
-0.676206 1.510357 -0.581386
-0.670315 1.516312 -0.583609
-0.663634 1.519818 -0.585283
-0.656356 1.521445 -0.586538
-0.649506 1.525007 -0.588278
-0.641999 1.526337 -0.589510
-0.624112 1.486420 -0.580889
-0.615829 1.484203 -0.581281
-0.609207 1.488942 -0.583358
-0.604240 1.501033 -0.587225
-0.602441 1.527512 -0.594595
-0.602171 1.562046 -0.603958
-0.594719 1.565578 -0.605837
-0.587025 1.568189 -0.607501
-0.580994 1.578863 -0.611140
-0.573165 1.581280 -0.612773
-0.565106 1.582653 -0.614152
-0.558131 1.589623 -0.616910
-0.550756 1.594807 -0.619234
-0.543609 1.601444 -0.621920
-0.535670 1.603969 -0.623592
-0.527703 1.606386 -0.625234
-0.520472 1.613183 -0.627966
-0.512905 1.618248 -0.630268
-0.505434 1.624107 -0.632767
-0.497844 1.629446 -0.635136
-0.490008 1.633360 -0.637146
-0.482592 1.640303 -0.639916
-0.474656 1.643874 -0.641834
-0.466535 1.646173 -0.643426
-0.458867 1.651978 -0.645902
-0.450527 1.652704 -0.647082
-0.442025 1.651970 -0.647883
-0.433191 1.648121 -0.647876
-0.416605 1.573468 -0.629702
-0.404616 1.535360 -0.620826
-0.395229 1.519279 -0.617573
-0.385908 1.502094 -0.614008
-0.376586 1.482905 -0.609899
-0.368675 1.477798 -0.609412
-0.360933 1.474018 -0.609256
-0.352060 1.556709 -0.632443
-0.346457 1.589266 -0.641795
-0.337909 1.579202 -0.640016
-0.329370 1.567437 -0.637772
-0.321827 1.572338 -0.639890
-0.315053 1.594179 -0.646467
-0.306707 1.584068 -0.644630
-0.298437 1.573269 -0.642594
-0.290435 1.567230 -0.641803
-0.282704 1.568481 -0.642933
-0.274839 1.564446 -0.642653
-0.267228 1.571517 -0.645321
-0.259403 1.568178 -0.645214
-0.251579 1.561426 -0.644186
-0.243846 1.559973 -0.644565
-0.236128 1.566544 -0.647090
-0.228423 1.556743 -0.645218
-0.220564 1.573256 -0.650414
-0.212942 1.561727 -0.648061
-0.205309 1.556497 -0.647395
-0.197824 1.546964 -0.645556
-0.189672 1.564008 -0.650904
-0.182332 1.551527 -0.648252
-0.175010 1.541602 -0.646280
-0.167576 1.536385 -0.645577
-0.160257 1.529674 -0.644460
-0.152224 1.537734 -0.647368
-0.146233 1.508503 -0.640077
-0.139088 1.502353 -0.639083
-0.131354 1.505823 -0.640722
-0.124430 1.497356 -0.639079
-0.116752 1.499754 -0.640418
-0.109418 1.497496 -0.640474
-0.101884 1.497721 -0.641210
-0.094911 1.491615 -0.640194
-0.088535 1.479763 -0.637579
-0.082116 1.469379 -0.635359
-0.076164 1.455398 -0.632129
-0.070881 1.436457 -0.627505
-0.068290 1.395570 -0.616745
-0.062837 1.381827 -0.613528
-0.062927 1.272175 -0.584046
-0.057159 1.266491 -0.583016
-0.047092 1.292021 -0.590749
-0.017296 1.355746 -0.610441
-0.045588 1.063254 -0.529334
-0.040044 1.062962 -0.529723
-0.038528 1.040077 -0.523690
-0.036079 1.023451 -0.519419
-0.017784 1.061795 -0.531276
-0.034721 0.923107 -0.492506
-0.029223 0.925626 -0.493641
-0.023950 0.926925 -0.494427
-0.020458 0.919967 -0.492840
-0.016183 0.916774 -0.492332
-0.010839 0.918342 -0.493193
-0.001408 0.937259 -0.499068
0.003770 0.937536 -0.499566
0.008603 0.936336 -0.499637
0.014060 0.937640 -0.500433
0.018666 0.935497 -0.500229
0.023392 0.933855 -0.500169
0.028336 0.933051 -0.500352
0.031645 0.926177 -0.498763
0.032535 0.910721 -0.494661
0.037414 0.910021 -0.494864
0.042996 0.911764 -0.495781
0.048268 0.912335 -0.496357
0.053484 0.912651 -0.496858
0.059408 0.915261 -0.498035
0.064979 0.916583 -0.498834
0.070752 0.918467 -0.499799
0.076167 0.919112 -0.500401
0.081572 0.919665 -0.500976
0.087425 0.921518 -0.501936
0.092826 0.921913 -0.502465
0.098792 0.923918 -0.503473
0.104540 0.925183 -0.504262
0.109848 0.925107 -0.504652
0.115301 0.925396 -0.505151
0.121087 0.926556 -0.505911
0.127411 0.929108 -0.507087
0.133218 0.930148 -0.507813
0.139482 0.932328 -0.508881
0.145215 0.933008 -0.509499
0.150853 0.933377 -0.510025
0.156089 0.932668 -0.510225
0.161736 0.932965 -0.510728
0.167301 0.933004 -0.511153
0.173411 0.934324 -0.511965
0.179940 0.936574 -0.513059
0.185612 0.936678 -0.513504
0.191191 0.936512 -0.513865
0.197480 0.937946 -0.514713
0.204933 0.941955 -0.516346
0.210899 0.942457 -0.516912
0.217475 0.944253 -0.517872
0.223251 0.944199 -0.518267
0.229498 0.945114 -0.518958
0.234798 0.943926 -0.519004
0.240308 0.943160 -0.519177
0.321340 1.058711 -0.556470
0.493165 1.259268 -0.623079
0.501942 1.260205 -0.623884
0.514995 1.268630 -0.627031
0.524538 1.270618 -0.628165
0.531766 1.268455 -0.627996
0.536720 1.262344 -0.626582
0.542915 1.258385 -0.625839
0.551713 1.258797 -0.626466
0.556024 1.251648 -0.624707
0.562083 1.247434 -0.623867
0.569695 1.245744 -0.623820
0.575705 1.241417 -0.622934
0.582745 1.238725 -0.622560
0.589403 1.235391 -0.621978
0.598276 1.235485 -0.622480
0.602489 1.228288 -0.620661
0.606148 1.220296 -0.618583
0.611583 1.215053 -0.617371
0.617264 1.210186 -0.616274
0.624545 1.207685 -0.615926
0.630887 1.203759 -0.615119
0.634705 1.196157 -0.613130
0.640308 1.191166 -0.611971
0.645990 1.186288 -0.610843
0.652505 1.182578 -0.610085
0.657706 1.177014 -0.608726
0.663027 1.171628 -0.607420
0.669206 1.167419 -0.606489
0.675213 1.162964 -0.605474
0.676911 1.152753 -0.602598
0.682860 1.148265 -0.601565
0.689119 1.144179 -0.600658
0.695866 1.140715 -0.599951
0.702929 1.137637 -0.599367
0.710125 1.134701 -0.598830
0.717200 1.131592 -0.598236
0.722309 1.126022 -0.596844
0.725854 1.118565 -0.594836
0.732597 1.115084 -0.594123
0.737385 1.109250 -0.592645
0.742127 1.103420 -0.591170
0.747368 1.098245 -0.589911
0.752340 1.092814 -0.588572
0.757112 1.087222 -0.587185
0.761994 1.081838 -0.585871
0.767529 1.077284 -0.584835
0.772903 1.072627 -0.583772
0.778000 1.067749 -0.582645
0.779639 1.059145 -0.580298
0.781850 1.051345 -0.578222
0.786353 1.046209 -0.577034
0.789101 1.039311 -0.575273
0.791549 1.032263 -0.573472
0.796151 1.027675 -0.572496
0.802177 1.024724 -0.572077
0.810375 1.024155 -0.572465
-0.713024 1.484131 -0.578473
-0.708078 1.490531 -0.580628
-0.703425 1.498449 -0.583185
-0.697233 1.501723 -0.584669
-0.690808 1.504625 -0.586099
-0.683296 1.504123 -0.586743
-0.675382 1.502465 -0.587137
-0.665258 1.493013 -0.585675
-0.653949 1.479102 -0.583148
-0.646284 1.478630 -0.583888
-0.639432 1.481472 -0.585453
-0.630703 1.477283 -0.585328
-0.623868 1.480649 -0.587059
-0.616474 1.482028 -0.588322
-0.608815 1.482497 -0.589376
-0.601686 1.485340 -0.591026
-0.597072 1.499292 -0.595428
-0.602311 1.557562 -0.610814
-0.596308 1.567631 -0.614329
-0.589163 1.572907 -0.616670
-0.581287 1.574979 -0.618222
-0.573922 1.579630 -0.620421
-0.566397 1.583694 -0.622480
-0.559598 1.591648 -0.625519
-0.551825 1.594850 -0.627369
-0.544100 1.598412 -0.629312
-0.536335 1.601877 -0.631229
-0.528701 1.606195 -0.633363
-0.521214 1.611527 -0.635754
-0.513717 1.617008 -0.638183
-0.506056 1.621691 -0.640409
-0.498453 1.626911 -0.642771
-0.490720 1.631481 -0.644965
-0.483286 1.638277 -0.647729
-0.475266 1.641225 -0.649501
-0.467278 1.644471 -0.651345
-0.459681 1.650799 -0.653983
-0.451503 1.652834 -0.655505
-0.443224 1.654033 -0.656804
-0.435016 1.655771 -0.658236
-0.426492 1.654643 -0.658912
-0.417795 1.651607 -0.659079
-0.377399 1.482934 -0.617464
-0.368926 1.471455 -0.615270
-0.360576 1.459971 -0.613054
-0.352630 1.452129 -0.611785
-0.345096 1.448812 -0.611703
-0.338904 1.464795 -0.616747
-0.328916 1.545730 -0.639950
-0.320963 1.541033 -0.639514
-0.314269 1.561375 -0.645782
-0.305139 1.529909 -0.638143
-0.297881 1.538967 -0.641376
-0.290690 1.552361 -0.645781
-0.282922 1.550198 -0.645990
-0.275062 1.543195 -0.644882
-0.267566 1.551234 -0.647841
-0.259899 1.552746 -0.649029
-0.252122 1.544585 -0.647581
-0.244452 1.541636 -0.647541
-0.236809 1.537487 -0.647166
-0.229123 1.553020 -0.652167
-0.221687 1.524021 -0.644976
-0.214032 1.530953 -0.647615
-0.206442 1.530676 -0.648275
-0.198779 1.533557 -0.649801
-0.191546 1.519942 -0.646776
-0.183895 1.522930 -0.648322
-0.176112 1.528551 -0.650596
-0.169560 1.503686 -0.644421
-0.161422 1.517428 -0.648940
-0.154993 1.495545 -0.643561
-0.147661 1.493189 -0.643600
-0.141090 1.478702 -0.640249
-0.133950 1.474781 -0.639835
-0.126418 1.476793 -0.641076
-0.119344 1.472405 -0.640522
-0.112171 1.469642 -0.640420
-0.105035 1.466663 -0.640252
-0.098164 1.460951 -0.639309
-0.092335 1.444756 -0.635404
-0.086184 1.433242 -0.632805
-0.079355 1.429162 -0.632298
-0.075971 1.393917 -0.622956
-0.073033 1.357673 -0.613298
-0.065826 1.360048 -0.614584
-0.060606 1.346155 -0.611241
-0.058921 1.255801 -0.586653
-0.051487 1.262730 -0.589198
-0.018180 1.352007 -0.616536
-0.012904 1.341165 -0.614020
-0.042924 1.080370 -0.539983
-0.039865 1.065213 -0.536090
-0.039561 1.005488 -0.519744
-0.034956 1.001537 -0.519051
-0.035735 0.918801 -0.496295
-0.031789 0.913945 -0.495295
-0.026394 0.916049 -0.496325
-0.021502 0.915711 -0.496641
-0.016774 0.914601 -0.496732
-0.011435 0.916162 -0.497605
-0.003165 0.930137 -0.502129
0.003354 0.936139 -0.504318
0.008930 0.937973 -0.505284
0.014039 0.937816 -0.505663
0.018723 0.935942 -0.505534
0.023929 0.936107 -0.506008
0.028672 0.934470 -0.505947
0.038269 0.950831 -0.511230
0.032569 0.910923 -0.499794
0.037242 0.909455 -0.499772
0.042562 0.910259 -0.500426
0.048248 0.912251 -0.501435
0.053951 0.914183 -0.502429
0.059420 0.915230 -0.503158
0.064850 0.916067 -0.503826
0.070307 0.916915 -0.504499
0.075924 0.918197 -0.505302
0.081598 0.919570 -0.506134
0.087013 0.920061 -0.506701
0.093056 0.922380 -0.507820
0.099028 0.924372 -0.508843
0.104656 0.925255 -0.509532
0.109939 0.925077 -0.509899
0.115453 0.925514 -0.510453
0.121378 0.927036 -0.511337
0.127481 0.928951 -0.512342
0.133621 0.930865 -0.513348
0.139230 0.931270 -0.513894
0.145399 0.933082 -0.514871
0.151024 0.933396 -0.515391
0.156845 0.934151 -0.516046
0.161003 0.930668 -0.515399
0.167795 0.933751 -0.516768
0.173725 0.934602 -0.517453
0.179742 0.935590 -0.518179
0.185921 0.936889 -0.519003
0.191615 0.936972 -0.519451
0.197936 0.938453 -0.520331
0.204136 0.939569 -0.521099
0.211174 0.942499 -0.522430
0.217176 0.942996 -0.523006
0.223669 0.944510 -0.523899
0.229333 0.944138 -0.524205
0.234725 0.943140 -0.524314
0.239156 0.940082 -0.523777
0.332256 1.053026 -0.561852
0.487378 1.247761 -0.626933
0.494641 1.246086 -0.626925
0.505653 1.251019 -0.629020
0.518156 1.258374 -0.631889
0.525626 1.256746 -0.631892
0.530675 1.250910 -0.630546
0.536399 1.246258 -0.629572
0.542163 1.241685 -0.628618
0.548783 1.238542 -0.628118
0.555109 1.234893 -0.627450
0.562061 1.232244 -0.627099
0.569077 1.229663 -0.626766
0.575990 1.226876 -0.626362
0.583411 1.224853 -0.626201
0.588424 1.219024 -0.624805
0.592539 1.211836 -0.622963
0.597571 1.206097 -0.621583
0.603301 1.201433 -0.620545
0.611105 1.199862 -0.620507
0.616362 1.194460 -0.619219
0.621198 1.188453 -0.617729
0.627283 1.184276 -0.616829
0.632188 1.178391 -0.615368
0.640167 1.176885 -0.615331
0.647211 1.173996 -0.614839
0.651420 1.167127 -0.613041
0.657699 1.163142 -0.612182
0.665483 1.161185 -0.611985
0.669664 1.154316 -0.610172
0.672951 1.146296 -0.607976
0.678038 1.140717 -0.606578
0.684054 1.136370 -0.605582
0.689702 1.131542 -0.604426
0.696867 1.128662 -0.603911
0.703166 1.124657 -0.603023
0.708325 1.119219 -0.601660
0.712646 1.112771 -0.599962
0.719489 1.109477 -0.599308
0.726143 1.105948 -0.598579
0.732788 1.102416 -0.597850
0.737543 1.096640 -0.596378
0.743499 1.092346 -0.595401
0.747994 1.086382 -0.593870
0.753349 1.081496 -0.592703
0.758302 1.076215 -0.591409
0.764654 1.072606 -0.590679
0.770869 1.068902 -0.589926
0.776090 1.064158 -0.588831
0.780169 1.058250 -0.587352
0.779950 1.047761 -0.584338
0.786610 1.044956 -0.583920
0.791295 1.040115 -0.582825
0.794082 1.033382 -0.581099
0.799654 1.029765 -0.580439
0.804631 1.025651 -0.579621
0.808822 1.020860 -0.578584
-0.712505 1.477414 -0.584315
-0.703926 1.471868 -0.583605
-0.699387 1.479964 -0.586249
-0.696390 1.493862 -0.590348
-0.678708 1.458018 -0.582318
-0.672003 1.459675 -0.583477
-0.666513 1.465996 -0.585811
-0.657155 1.458814 -0.584851
-0.651112 1.463831 -0.586918
-0.644373 1.466651 -0.588468
-0.636864 1.466845 -0.589391
-0.630047 1.469932 -0.591050
-0.623718 1.475246 -0.593283
-0.616331 1.476635 -0.594556
-0.608286 1.475482 -0.595206
-0.601802 1.480977 -0.597534
-0.595841 1.489055 -0.600526
-0.602389 1.552777 -0.617568
-0.597619 1.568357 -0.622524
-0.590340 1.573094 -0.624755
-0.582383 1.574857 -0.626238
-0.574586 1.577472 -0.627941
-0.567564 1.584048 -0.630659
-0.559960 1.587945 -0.632698
-0.552950 1.595104 -0.635576
-0.544973 1.597381 -0.637204
-0.537158 1.600592 -0.639071
-0.529562 1.605140 -0.641283
-0.522442 1.612637 -0.644259
-0.514683 1.616620 -0.646325
-0.506341 1.617099 -0.647477
-0.499322 1.625970 -0.650813
-0.491733 1.631513 -0.653281
-0.483939 1.635881 -0.655441
-0.475952 1.639038 -0.657279
-0.468044 1.642848 -0.659285
-0.460078 1.646343 -0.661204
-0.451913 1.648366 -0.662730
-0.444081 1.653144 -0.664980
-0.435808 1.654350 -0.666278
-0.427620 1.656268 -0.667758
-0.420135 1.664782 -0.670992
-0.412153 1.669047 -0.673092
-0.403428 1.665882 -0.673197
-0.393859 1.653030 -0.670691
-0.361352 1.459733 -0.620453
-0.352773 1.443865 -0.616979
-0.345120 1.438488 -0.616320
-0.337222 1.428585 -0.614422
-0.329566 1.420851 -0.613097
-0.322351 1.419264 -0.613430
-0.315579 1.425532 -0.615897
-0.305097 1.511490 -0.640922
-0.298245 1.528779 -0.646449
-0.290877 1.535663 -0.649130
-0.283000 1.527435 -0.647656
-0.275376 1.526081 -0.648062
-0.267770 1.524809 -0.648485
-0.260093 1.517943 -0.647354
-0.252663 1.528149 -0.650941
-0.245053 1.523993 -0.650548
-0.237479 1.515137 -0.648841
-0.230007 1.501335 -0.645743
-0.222531 1.503378 -0.647048
-0.215105 1.500042 -0.646848
-0.207440 1.511556 -0.650797
-0.200147 1.501858 -0.648808
-0.192686 1.501448 -0.649413
-0.185439 1.494404 -0.648150
-0.179035 1.466373 -0.640965
-0.171815 1.464062 -0.641008
-0.164274 1.468985 -0.643091
-0.156447 1.478420 -0.646452
-0.149635 1.468089 -0.644216
-0.142725 1.460863 -0.642850
-0.135867 1.453791 -0.641520
-0.128635 1.452862 -0.641930
-0.121412 1.451811 -0.642303
-0.115202 1.438163 -0.639074
-0.108935 1.426615 -0.636432
-0.102262 1.420717 -0.635397
-0.096515 1.405547 -0.631695
-0.090447 1.394964 -0.629296
-0.082922 1.399210 -0.631156
-0.078495 1.374647 -0.624712
-0.076700 1.329035 -0.612166
-0.069522 1.332261 -0.613705
-0.062284 1.335631 -0.615287
-0.059049 1.307578 -0.607756
-0.060568 1.245956 -0.590448
-0.058347 1.215581 -0.582177
-0.060742 1.076647 -0.543230
-0.015570 1.326212 -0.616767
-0.039162 1.104059 -0.552752
-0.032162 1.110896 -0.555266
-0.038454 0.983888 -0.519281
-0.036022 0.918065 -0.501114
-0.031428 0.916296 -0.501012
-0.026540 0.915935 -0.501327
-0.021719 0.915234 -0.501540
-0.017060 0.913793 -0.501532
-0.010894 0.918948 -0.503493
-0.003790 0.927848 -0.506579
0.003925 0.938871 -0.510309
0.009755 0.941656 -0.511577
0.014722 0.940816 -0.511759
0.019623 0.939702 -0.511857
0.023191 0.933447 -0.510406
0.027491 0.930155 -0.509844
0.036630 0.944869 -0.514720
0.032174 0.909563 -0.504473
0.037235 0.909472 -0.504866
0.042887 0.911411 -0.505876
0.048298 0.912409 -0.506602
0.053945 0.914118 -0.507545
0.059842 0.916556 -0.508712
0.065024 0.916533 -0.509130
0.070130 0.916220 -0.509459
0.075826 0.917736 -0.510349
0.081557 0.919266 -0.511243
0.086951 0.919672 -0.511795
0.092784 0.921340 -0.512734
0.099020 0.924098 -0.514011
0.104554 0.924687 -0.514621
0.110117 0.925295 -0.515238
0.115579 0.925557 -0.515748
0.121375 0.926692 -0.516529
0.127705 0.929208 -0.517739
0.133186 0.929319 -0.518205
0.138509 0.928964 -0.518525
0.144330 0.929874 -0.519239
0.152010 0.935508 -0.521426
0.157337 0.934956 -0.521687
0.162889 0.934936 -0.522113
0.168758 0.935653 -0.522770
0.174289 0.935482 -0.523149
0.179954 0.935590 -0.523615
0.186596 0.937965 -0.524793
0.192166 0.937720 -0.525148
0.197295 0.936413 -0.525168
0.203777 0.938181 -0.526156
0.209922 0.939092 -0.526875
0.217045 0.942106 -0.528260
0.223402 0.943312 -0.529074
0.229373 0.943599 -0.529596
0.234039 0.941035 -0.529213
0.239106 0.939331 -0.529100
0.260890 0.972525 -0.540102
0.275212 0.989466 -0.545948
0.336936 1.061437 -0.570812
0.480223 1.233774 -0.629876
0.487390 1.232063 -0.629858
0.494153 1.229593 -0.629591
0.508122 1.239728 -0.633416
0.516996 1.240719 -0.634272
0.524268 1.238856 -0.634198
0.529652 1.233742 -0.633062
0.535923 1.230138 -0.632411
0.541747 1.225780 -0.631510
0.546530 1.219717 -0.630046
0.553469 1.217192 -0.629734
0.561019 1.215612 -0.629729
0.568631 1.214067 -0.629732
0.574993 1.210497 -0.629065
0.578779 1.202893 -0.627066
0.584672 1.198600 -0.626151
0.589822 1.193164 -0.624854
0.594175 1.186544 -0.623159
0.602268 1.185541 -0.623316
0.610294 1.184361 -0.623411
0.616811 1.180899 -0.622748
0.621657 1.174992 -0.621269
0.627475 1.170495 -0.620253
0.634110 1.167148 -0.619615
0.640197 1.162998 -0.618705
0.643881 1.155499 -0.616675
0.650295 1.151799 -0.615907
0.656539 1.147844 -0.615050
0.663008 1.144173 -0.614285
0.669832 1.140951 -0.613668
0.675593 1.136296 -0.612569
0.679058 1.128644 -0.610459
0.683404 1.122192 -0.608749
0.688392 1.116601 -0.607324
0.695372 1.113556 -0.606756
0.701332 1.109211 -0.605749
0.706079 1.103368 -0.604235
0.712454 1.099565 -0.603410
0.718612 1.095505 -0.602499
0.724883 1.091596 -0.601641
0.731644 1.088289 -0.600990
0.737412 1.083825 -0.599948
0.742552 1.078668 -0.598674
0.748410 1.074406 -0.597708
0.754001 1.069890 -0.596661
0.759081 1.064862 -0.595443
0.763595 1.059279 -0.594041
0.770116 1.056037 -0.593446
0.772230 1.047996 -0.591214
0.779209 1.045442 -0.590870
0.784725 1.041376 -0.590017
0.791352 1.038612 -0.589621
0.795331 1.033122 -0.588297
0.799854 1.028355 -0.587231
0.803040 1.022335 -0.585741
0.796901 1.006810 -0.580965
-0.711840 1.470262 -0.590010
-0.695771 1.440209 -0.583201
-0.688424 1.438571 -0.583462
-0.683644 1.445866 -0.585977
-0.677139 1.447789 -0.587187
-0.670187 1.448517 -0.588127
-0.663045 1.448874 -0.589000
-0.657294 1.454523 -0.591227
-0.650127 1.455420 -0.592286
-0.643595 1.458947 -0.594031
-0.636766 1.461681 -0.595598
-0.629744 1.463956 -0.597068
-0.623068 1.467855 -0.598968
-0.615487 1.468391 -0.600030
-0.608680 1.472265 -0.601956
-0.601946 1.476709 -0.604042
-0.596447 1.486738 -0.607573
-0.601911 1.545515 -0.623656
-0.599178 1.570127 -0.631012
-0.591132 1.571438 -0.632383
-0.583223 1.573465 -0.633942
-0.575866 1.578235 -0.636216
-0.568595 1.583643 -0.638662
-0.561024 1.587759 -0.640775
-0.553162 1.590518 -0.642536
-0.546734 1.601032 -0.646330
-0.538693 1.603158 -0.647929
-0.530872 1.606553 -0.649859
-0.523358 1.611839 -0.652288
-0.515097 1.612831 -0.653580
-0.508230 1.622394 -0.657140
-0.500289 1.625572 -0.659007
-0.492362 1.628915 -0.660915
-0.484491 1.632715 -0.662941
-0.476535 1.636038 -0.664836
-0.468570 1.639370 -0.666729
-0.460467 1.641755 -0.668364
-0.452513 1.645326 -0.670313
-0.444378 1.647545 -0.671893
-0.436897 1.655378 -0.674986
-0.429592 1.665285 -0.678642
-0.421569 1.669227 -0.680681
-0.413348 1.671434 -0.682243
-0.404985 1.672222 -0.683414
-0.396526 1.671876 -0.684267
-0.385121 1.637690 -0.675845
-0.355216 1.465090 -0.630216
-0.345350 1.430997 -0.621633
-0.337827 1.426227 -0.621101
-0.330349 1.421310 -0.620517
-0.322909 1.416085 -0.619836
-0.315082 1.402605 -0.616854
-0.307510 1.391524 -0.614520
-0.300390 1.388123 -0.614308
-0.294009 1.402409 -0.619023
-0.282755 1.494363 -0.646229
-0.275279 1.492974 -0.646606
-0.267796 1.490445 -0.646657
-0.260435 1.494009 -0.648415
-0.253045 1.497909 -0.650268
-0.245601 1.498967 -0.651317
-0.238116 1.478014 -0.646135
-0.230799 1.466325 -0.643555
-0.223440 1.473494 -0.646313
-0.216174 1.467919 -0.645451
-0.208545 1.485840 -0.651272
-0.201101 1.487724 -0.652532
-0.194030 1.475130 -0.649653
-0.186899 1.468021 -0.648329
-0.180242 1.449723 -0.643788
-0.173363 1.440873 -0.641941
-0.166165 1.440613 -0.642553
-0.158881 1.441965 -0.643627
-0.151535 1.444074 -0.644918
-0.145072 1.431186 -0.641875
-0.138773 1.417565 -0.638607
-0.131270 1.422801 -0.640790
-0.125055 1.410130 -0.637778
-0.118507 1.403044 -0.636377
-0.111574 1.401181 -0.636488
-0.105032 1.395057 -0.635354
-0.099025 1.383802 -0.632714
-0.093083 1.372877 -0.630160
-0.086897 1.365218 -0.628551
-0.082391 1.342728 -0.622584
-0.077682 1.323852 -0.617658
-0.066338 1.305873 -0.613580
-0.063116 1.278716 -0.606166
-0.062445 1.234369 -0.593647
-0.055660 1.237248 -0.595068
-0.046847 1.093994 -0.555195
-0.040426 1.097913 -0.556871
-0.031018 1.118797 -0.563624
-0.029949 1.001545 -0.530418
-0.026283 0.992949 -0.528294
-0.036843 0.914711 -0.505152
-0.031972 0.914309 -0.505458
-0.026629 0.916091 -0.506425
-0.021684 0.915917 -0.506801
-0.017153 0.913845 -0.506600
-0.012373 0.912906 -0.506743
-0.004055 0.927100 -0.511490
0.004399 0.941202 -0.516222
0.009624 0.941426 -0.516731
0.014915 0.941853 -0.517303
0.018799 0.936685 -0.516162
0.022995 0.932875 -0.515434
0.027080 0.928746 -0.514604
0.032249 0.928748 -0.515041
0.031961 0.908864 -0.509357
0.037187 0.909346 -0.509934
0.042602 0.910425 -0.510695
0.048344 0.912547 -0.511780
0.054399 0.915605 -0.513157
0.060168 0.917562 -0.514196
0.065272 0.917238 -0.514528
0.070407 0.916980 -0.514881
0.075698 0.917176 -0.515376
0.081360 0.918473 -0.516213
0.086966 0.919513 -0.516972
0.092246 0.919496 -0.517402
0.098540 0.922429 -0.518755
0.104646 0.924680 -0.519897
0.110236 0.925339 -0.520542
0.115600 0.925296 -0.520966
0.121715 0.927297 -0.522034
0.127360 0.927907 -0.522665
0.132662 0.927531 -0.522985
0.138200 0.927746 -0.523492
0.145176 0.931671 -0.525174
0.151385 0.933461 -0.526182
0.157454 0.934799 -0.527048
0.163000 0.934744 -0.527472
0.168585 0.934738 -0.527912
0.174210 0.934787 -0.528369
0.180063 0.935331 -0.528984
0.186051 0.936137 -0.529683
0.192859 0.938792 -0.530975
0.198235 0.938022 -0.531170
0.204006 0.938123 -0.531644
0.209969 0.938606 -0.532240
0.216080 0.939354 -0.532922
0.223152 0.942141 -0.534261
0.228707 0.941523 -0.534503
0.234182 0.940697 -0.534677
0.242109 0.945019 -0.536516
0.255328 0.960229 -0.541887
0.275567 0.989487 -0.551831
0.338378 1.050235 -0.573969
0.337237 1.022336 -0.565792
0.334703 1.005087 -0.560602
0.450905 1.193837 -0.623598
0.471905 1.217686 -0.631990
0.481485 1.220458 -0.633451
0.489334 1.220020 -0.633854
0.498380 1.221606 -0.634924
0.509605 1.226849 -0.637204
0.514898 1.221727 -0.636052
0.521511 1.218866 -0.635645
0.528377 1.216402 -0.635365
0.534783 1.213142 -0.634818
0.539803 1.207587 -0.633501
0.544425 1.201415 -0.631973
0.551768 1.199650 -0.631910
0.558886 1.197472 -0.631707
0.567892 1.198215 -0.632477
0.571993 1.191218 -0.630653
0.577236 1.186030 -0.629428
0.583472 1.182365 -0.628710
0.589114 1.177784 -0.627679
0.596012 1.175072 -0.627273
0.604713 1.174977 -0.627745
0.611361 1.171786 -0.627172
0.616309 1.166106 -0.625753
0.621841 1.161275 -0.624616
0.628755 1.158399 -0.624137
0.633473 1.152405 -0.622597
0.637839 1.145945 -0.620894
0.643816 1.141725 -0.619946
0.650067 1.137864 -0.619118
