ply
format ascii 1.0
comment ---
element vertex 1679
property float x
property float y
property float z
element face 0
property list uchar uint vertex_indices
end_header
-0.267505 1.638176 -0.633638
-0.262118 1.639012 -0.633493
-0.256988 1.642656 -0.634089
-0.251627 1.643924 -0.634066
-0.246356 1.646329 -0.634346
-0.241153 1.649800 -0.634910
-0.235726 1.650484 -0.634751
-0.230688 1.656924 -0.636098
-0.225364 1.659622 -0.636476
-0.220144 1.664426 -0.637406
-0.214428 1.660477 -0.636070
-0.209104 1.663769 -0.636621
-0.204336 1.680632 -0.640692
-0.198452 1.672127 -0.638199
-0.193182 1.679459 -0.639812
-0.187615 1.678498 -0.639287
-0.182144 1.680968 -0.639656
-0.176849 1.693729 -0.642684
-0.171228 1.691387 -0.641825
-0.165620 1.687378 -0.640545
-0.160079 1.688786 -0.640668
-0.154532 1.683724 -0.639135
-0.149026 1.680787 -0.638157
-0.143471 1.686027 -0.639285
-0.137930 1.687219 -0.639381
-0.132156 1.699902 -0.642428
-0.126409 1.706583 -0.643940
-0.120933 1.701792 -0.642522
-0.115378 1.700739 -0.642069
-0.109243 1.715085 -0.645558
-0.103546 1.716128 -0.645652
-0.098671 1.699842 -0.641328
-0.092658 1.708072 -0.643270
-0.086483 1.717743 -0.645585
-0.080245 1.726941 -0.647782
-0.073785 1.738126 -0.650490
-0.067532 1.744915 -0.652082
-0.062024 1.741084 -0.650975
-0.055875 1.745558 -0.651988
-0.050973 1.734997 -0.649182
-0.043975 1.748606 -0.652529
-0.065869 1.336671 -0.547523
-0.063269 1.325489 -0.544626
-0.053166 1.314611 -0.541717
-0.055181 1.221150 -0.517902
-0.053277 1.211359 -0.515391
-0.047360 1.228369 -0.519675
-0.047131 1.187963 -0.509391
-0.042051 1.199096 -0.512193
-0.019078 1.233229 -0.520780
0.608589 4.051150 -1.234461
0.620350 4.025530 -1.228008
0.639734 4.034530 -1.230335
0.654351 4.022397 -1.227321
0.671000 4.019212 -1.226584
0.692254 4.035080 -1.230687
0.711760 4.043055 -1.232801
0.730291 4.046681 -1.233826
0.742134 4.023928 -1.228178
0.757058 4.013677 -1.225709
0.773222 4.008310 -1.224489
0.788154 3.998452 -1.222142
0.799063 3.974260 -1.216171
0.810648 3.953185 -1.211001
0.824523 3.940687 -1.208017
0.840003 3.933972 -1.206511
0.843770 3.887902 -1.195027
0.866915 3.907378 -1.200191
0.876674 3.882487 -1.194103
0.891433 3.874271 -1.192261
0.910264 3.878988 -1.193717
0.928058 3.880191 -1.194294
0.945813 3.881083 -1.194804
0.956392 3.860259 -1.189806
0.969991 3.848848 -1.187212
0.985894 3.844331 -1.186385
1.002356 3.841398 -1.185976
1.017121 3.833608 -1.184343
1.032537 3.827703 -1.183204
1.049769 3.826788 -1.183351
1.031129 3.728854 -1.158762
0.273424 1.649763 -0.628640
0.291058 1.632990 -0.624989
0.293923 1.625155 -0.623155
0.294109 1.610996 -0.619705
0.305818 1.610309 -0.619900
0.306047 1.596819 -0.616631
0.301626 1.572946 -0.610696
0.301816 1.560066 -0.607585
0.307651 1.534484 -0.601629
0.327503 1.552154 -0.606642
0.331121 1.547318 -0.605633
0.299419 1.457892 -0.582978
0.296796 1.441507 -0.578970
0.294693 1.426495 -0.575318
0.294217 1.414999 -0.572578
0.040349 0.903221 -0.439864
0.039804 0.897832 -0.438573
0.041878 0.897497 -0.438600
0.044353 0.897895 -0.438821
0.046908 0.898406 -0.439076
0.049719 0.899348 -0.439448
0.052150 0.899558 -0.439631
0.055249 0.900932 -0.440124
0.058444 0.902419 -0.440651
0.061088 0.902883 -0.440914
0.063313 0.902588 -0.440980
0.066357 0.903672 -0.441414
0.069779 0.905345 -0.442008
0.072101 0.905115 -0.442103
0.075682 0.906946 -0.442748
0.078957 0.908209 -0.443248
0.081826 0.908761 -0.443563
0.084059 0.908253 -0.443600
0.088310 0.910928 -0.444490
0.090570 0.910395 -0.444527
0.094682 0.912721 -0.445334
0.098137 0.913961 -0.445854
0.100499 0.913488 -0.445918
0.104090 0.914844 -0.446477
0.106768 0.914788 -0.446659
0.109622 0.914965 -0.446906
0.113493 0.916596 -0.447550
0.116986 0.917624 -0.448033
0.121415 0.919942 -0.448871
0.124374 0.920113 -0.449126
0.128321 0.921640 -0.449753
0.130514 0.920686 -0.449702
0.134744 0.922525 -0.450416
0.137528 0.922346 -0.450577
0.141385 0.923596 -0.451129
0.145197 0.924746 -0.451653
0.148493 0.925182 -0.451978
0.150856 0.924380 -0.451958
0.156488 0.927810 -0.453106
0.160314 0.928857 -0.453589
0.162134 0.927337 -0.453354
0.165787 0.928145 -0.453760
0.169381 0.928867 -0.454134
0.173727 0.930506 -0.454757
0.177451 0.931362 -0.455153
0.179627 0.930337 -0.455012
0.183460 0.931331 -0.455427
0.186681 0.931594 -0.455625
0.190887 0.933031 -0.456140
0.193843 0.933002 -0.456231
0.196293 0.932408 -0.456149
0.200136 0.933449 -0.456513
0.202668 0.933006 -0.456445
0.205794 0.933269 -0.456561
0.209417 0.934116 -0.456826
0.212780 0.934691 -0.456999
0.215107 0.934145 -0.456840
0.217839 0.934085 -0.456802
0.221794 0.935394 -0.457134
0.224740 0.935627 -0.457148
0.229123 0.937437 -0.457589
-0.477174 1.629411 -0.643731
-0.469111 1.615953 -0.640359
-0.465297 1.617335 -0.641021
-0.462629 1.623095 -0.642857
-0.457859 1.621666 -0.642689
-0.451824 1.615801 -0.641270
-0.401789 1.460423 -0.598805
-0.394961 1.449380 -0.595849
-0.388473 1.439510 -0.593188
-0.380798 1.424787 -0.589163
-0.375574 1.419682 -0.587761
-0.372124 1.421916 -0.588354
-0.397561 1.587007 -0.633558
-0.392869 1.588122 -0.633727
-0.387832 1.587913 -0.633507
-0.382928 1.588503 -0.633482
-0.377621 1.587373 -0.632962
-0.371724 1.583479 -0.631663
-0.365705 1.578941 -0.630170
-0.362729 1.589909 -0.632906
-0.359241 1.598882 -0.635074
-0.354736 1.602951 -0.635883
-0.349754 1.604698 -0.636041
-0.344775 1.606656 -0.636245
-0.340051 1.610290 -0.636892
-0.333551 1.603480 -0.634689
-0.327266 1.597636 -0.632745
-0.322176 1.599128 -0.632788
-0.316992 1.600121 -0.632691
-0.311292 1.597644 -0.631651
-0.306736 1.603121 -0.632760
-0.302309 1.609932 -0.634223
-0.296795 1.608933 -0.633577
-0.291709 1.611211 -0.633814
-0.286757 1.614743 -0.634388
-0.281178 1.613113 -0.633577
-0.276265 1.617273 -0.634322
-0.271235 1.620639 -0.634856
-0.266467 1.626847 -0.636151
-0.261307 1.629518 -0.636503
-0.255831 1.628928 -0.635988
-0.250347 1.628054 -0.635403
-0.245569 1.635626 -0.637074
-0.240436 1.639417 -0.637740
-0.234554 1.633143 -0.635738
-0.229326 1.635582 -0.636059
-0.224327 1.641955 -0.637427
-0.219211 1.647200 -0.638501
-0.213790 1.647429 -0.638252
-0.208516 1.650608 -0.638791
-0.203369 1.657281 -0.640257
-0.197848 1.655566 -0.639516
-0.192431 1.656288 -0.639425
-0.187060 1.658598 -0.639760
-0.181613 1.658316 -0.639420
-0.176231 1.660996 -0.639866
-0.170668 1.652171 -0.637298
-0.165273 1.651756 -0.636948
-0.159939 1.663375 -0.639759
-0.154500 1.672695 -0.641971
-0.149052 1.667392 -0.640360
-0.143592 1.668798 -0.640512
-0.138106 1.671275 -0.640952
-0.132568 1.675353 -0.641816
-0.127003 1.679060 -0.642588
-0.121536 1.678250 -0.642188
-0.115945 1.681384 -0.642824
-0.110624 1.676775 -0.641449
-0.104877 1.683026 -0.642909
-0.099162 1.687390 -0.643882
-0.093663 1.686870 -0.643591
-0.088116 1.687259 -0.643543
-0.082366 1.690838 -0.644330
-0.057653 1.721786 -0.651845
-0.052232 1.718524 -0.650883
-0.045872 1.725889 -0.652682
-0.063643 1.321113 -0.547451
-0.060423 1.316147 -0.546115
-0.061927 1.273551 -0.535048
-0.056627 1.286758 -0.538422
-0.053857 1.280102 -0.536661
-0.052864 1.213265 -0.519288
-0.048968 1.216990 -0.520226
-0.017733 1.320150 -0.546799
-0.016240 1.306756 -0.543326
0.617393 4.008294 -1.241123
0.639996 4.031806 -1.247261
0.657471 4.032020 -1.247393
0.672312 4.020943 -1.244620
0.688541 4.015911 -1.243420
0.706590 4.018303 -1.244152
0.726755 4.028858 -1.247005
0.741657 4.018341 -1.244424
0.756237 4.006842 -1.241601
0.763549 3.968380 -1.231817
0.785022 3.983286 -1.235845
0.797559 3.965225 -1.231358
0.811853 3.953891 -1.228623
0.828977 3.952662 -1.228514
0.842660 3.939547 -1.225341
0.843080 3.882121 -1.210706
0.860197 3.881699 -1.210840
0.878140 3.883821 -1.211646
0.890891 3.869123 -1.208107
0.908208 3.869112 -1.208386
0.923691 3.863272 -1.207167
0.932433 3.836934 -1.200643
0.946100 3.826032 -1.198135
0.963188 3.825408 -1.198307
0.980308 3.824745 -1.198484
0.999775 3.830664 -1.200385
1.014491 3.822855 -1.198735
1.029973 3.817249 -1.197670
1.047298 3.816691 -1.197934
1.063948 3.814171 -1.197703
1.075577 3.798210 -1.193988
1.081904 3.768635 -1.186736
1.144731 3.749799 -1.183797
1.159705 3.743207 -1.182611
0.286601 1.591754 -0.620430
0.304878 1.606982 -0.624806
0.297179 1.522973 -0.603822
0.302570 1.522349 -0.603881
1.289788 3.634973 -1.160584
0.290685 1.438979 -0.583070
0.292503 1.431815 -0.581421
0.289119 1.414352 -0.577047
0.040123 0.902363 -0.441727
0.039956 0.897707 -0.440606
0.041894 0.897110 -0.440567
0.044527 0.897798 -0.440873
0.046908 0.897982 -0.441049
0.049412 0.898360 -0.441281
0.052584 0.899910 -0.441830
0.055205 0.900418 -0.442104
0.058542 0.902153 -0.442712
0.062029 0.904085 -0.443378
0.063994 0.903320 -0.443323
0.066851 0.904067 -0.443678
0.069780 0.904895 -0.444060
0.072220 0.904860 -0.444213
0.075023 0.905399 -0.444525
0.078816 0.907517 -0.445270
0.081799 0.908251 -0.445644
0.086194 0.911204 -0.446626
0.088570 0.910868 -0.446718
0.091604 0.911543 -0.447089
0.093629 0.910613 -0.447024
0.097736 0.912868 -0.447835
0.101411 0.914394 -0.448451
0.103818 0.913957 -0.448531
0.106426 0.913801 -0.448691
0.109636 0.914509 -0.449091
0.113524 0.916164 -0.449757
0.116887 0.917004 -0.450200
0.121862 0.920103 -0.451273
0.125342 0.921005 -0.451739
0.128293 0.921130 -0.451989
0.130990 0.920879 -0.452134
0.134463 0.921678 -0.452572
0.139572 0.924662 -0.453623
0.143532 0.926029 -0.454221
0.144627 0.923546 -0.453732
0.148426 0.924660 -0.454254
0.151027 0.924181 -0.454322
0.157627 0.928866 -0.455848
0.160180 0.928282 -0.455877
0.163034 0.928088 -0.456011
0.167170 0.929506 -0.456596
0.170310 0.929661 -0.456814
0.174195 0.930736 -0.457285
0.177473 0.931060 -0.457533
0.180937 0.931611 -0.457836
0.183181 0.930704 -0.457709
0.188029 0.932923 -0.458468
0.191385 0.933364 -0.458703
0.193818 0.932738 -0.458619
0.196502 0.932437 -0.458614
0.198937 0.931880 -0.458521
0.204681 0.935130 -0.459509
0.206046 0.933405 -0.459049
0.210648 0.935368 -0.459636
0.213358 0.935227 -0.459600
0.215474 0.934465 -0.459370
0.218183 0.934399 -0.459325
0.222004 0.935579 -0.459622
0.225008 0.935895 -0.459654
0.229944 0.938316 -0.460276
-0.476425 1.628635 -0.648490
-0.469515 1.619065 -0.646164
-0.464109 1.614787 -0.645278
-0.462258 1.623344 -0.647943
-0.458140 1.624180 -0.648424
-0.453061 1.621760 -0.647965
-0.447600 1.618095 -0.647125
-0.387604 1.436990 -0.596776
-0.381083 1.426715 -0.593946
-0.375196 1.418857 -0.591766
-0.370140 1.414345 -0.590498
-0.365126 1.410040 -0.589263
-0.388505 1.568972 -0.633502
-0.385000 1.575242 -0.635113
-0.380490 1.577293 -0.635517
-0.375688 1.578221 -0.635585
-0.369746 1.573801 -0.634137
-0.364613 1.573371 -0.633784
-0.360225 1.576883 -0.634510
-0.356281 1.583043 -0.635955
-0.351695 1.586186 -0.636541
-0.347263 1.590460 -0.637425
-0.341835 1.589397 -0.636813
-0.338426 1.600189 -0.639477
-0.332050 1.593779 -0.637361
-0.326317 1.591032 -0.636253
-0.320922 1.590327 -0.635705
-0.315911 1.592143 -0.635848
-0.310116 1.588732 -0.634544
-0.304538 1.586622 -0.633598
-0.301208 1.600892 -0.637155
-0.296039 1.602184 -0.637137
-0.290377 1.599637 -0.636066
-0.285032 1.599460 -0.635648
-0.280095 1.602733 -0.636174
-0.275136 1.606039 -0.636710
-0.270114 1.608996 -0.637152
-0.265617 1.617347 -0.639066
-0.260588 1.620940 -0.639684
-0.255123 1.620059 -0.639088
-0.249755 1.620100 -0.638749
-0.244771 1.624730 -0.639660
-0.239575 1.627078 -0.639956
-0.234058 1.625139 -0.639097
-0.228818 1.626925 -0.639253
-0.223451 1.626796 -0.638899
-0.218285 1.630004 -0.639451
-0.213275 1.636621 -0.640927
-0.207845 1.635553 -0.640338
-0.202820 1.643564 -0.642199
-0.197009 1.632648 -0.638979
-0.192144 1.646920 -0.642532
-0.186761 1.647480 -0.642409
-0.181307 1.644967 -0.641471
-0.175946 1.645780 -0.641431
-0.170547 1.643923 -0.640684
-0.165161 1.641070 -0.639680
-0.159830 1.643193 -0.640013
-0.154479 1.654515 -0.642808
-0.149057 1.659436 -0.643899
-0.143661 1.657526 -0.643175
-0.138146 1.665107 -0.644986
-0.132683 1.666515 -0.645160
-0.127202 1.668202 -0.645414
-0.121886 1.663720 -0.644036
-0.116742 1.655487 -0.641669
-0.111240 1.658596 -0.642323
-0.105332 1.670388 -0.645286
-0.099750 1.673098 -0.645844
-0.094449 1.670005 -0.644871
-0.089118 1.667928 -0.644173
-0.083637 1.668552 -0.644198
-0.078472 1.664379 -0.642959
-0.072591 1.670675 -0.644497
-0.067296 1.668540 -0.643810
-0.056415 1.668241 -0.643505
-0.050506 1.673212 -0.644714
-0.067476 1.319808 -0.551109
-0.064170 1.315442 -0.549903
-0.059949 1.319033 -0.550800
-0.057932 1.304629 -0.546956
-0.058265 1.273087 -0.538600
-0.055818 1.264504 -0.536301
-0.051731 1.220018 -0.524490
-0.050195 1.208125 -0.521335
-0.024398 1.155622 -0.507437
-0.022930 1.147880 -0.505407
-0.020829 1.143377 -0.504231
-0.021184 1.127989 -0.500192
0.638696 4.022199 -1.262397
0.656235 4.022838 -1.262659
0.671853 4.015184 -1.260750
0.686667 4.004370 -1.258021
0.702392 3.997532 -1.256351
0.718984 3.994248 -1.255629
0.738463 4.002177 -1.257876
0.755114 3.998853 -1.257170
0.768118 3.981843 -1.252867
0.775811 3.945792 -1.243555
0.795648 3.954722 -1.246116
0.812828 3.953761 -1.246082
0.829699 3.951604 -1.245745
0.847610 3.952926 -1.246339
0.873799 3.981860 -1.254239
0.859200 3.874941 -1.226272
0.890291 3.919826 -1.238412
0.892275 3.870107 -1.225570
0.906608 3.860656 -1.223379
0.920916 3.851275 -1.221219
0.930402 3.827370 -1.215228
0.956837 3.803316 -1.209567
0.973586 3.801865 -1.209557
0.991023 3.802270 -1.210054
1.009083 3.804261 -1.210987
1.028631 3.810169 -1.212976
1.047632 3.814250 -1.214497
1.062956 3.808142 -1.213331
1.067447 3.773264 -1.204535
1.082285 3.766315 -1.203171
1.098122 3.761978 -1.202518
1.112258 3.753268 -1.200718
1.146102 3.749873 -1.200901
1.157782 3.735179 -1.197554
1.177933 3.741147 -1.199736
1.228437 3.692920 -1.189391
1.247140 3.694937 -1.190616
0.297142 1.521831 -0.608904
0.297967 1.511265 -0.606303
0.277195 1.431980 -0.585695
0.281302 1.429575 -0.585289
0.286296 1.428988 -0.585381
0.039012 0.899793 -0.443123
0.040042 0.897449 -0.442609
0.042340 0.897526 -0.442755
0.044122 0.896615 -0.442636
0.047143 0.897984 -0.443141
0.050420 0.899764 -0.443764
0.052677 0.899640 -0.443870
0.056149 0.901660 -0.444568
0.058530 0.901686 -0.444723
0.062299 0.904104 -0.445539
0.064653 0.904004 -0.445669
0.067244 0.904283 -0.445906
0.070488 0.905631 -0.446443
0.072407 0.904711 -0.446357
0.074395 0.903898 -0.446304
0.079771 0.908608 -0.447786
0.081870 0.907895 -0.447769
0.086493 0.911206 -0.448874
0.088976 0.911033 -0.449016
0.091550 0.910980 -0.449193
0.095833 0.913548 -0.450108
0.097988 0.912773 -0.450091
0.101458 0.913982 -0.450633
0.103283 0.912672 -0.450471
0.104783 0.910880 -0.450174
0.111987 0.917482 -0.452247
0.113096 0.915060 -0.451776
0.118317 0.918582 -0.452990
0.122210 0.920117 -0.453643
0.125051 0.920118 -0.453862
0.128494 0.920937 -0.454315
0.131239 0.920756 -0.454483
0.135519 0.922660 -0.455246
0.139084 0.923542 -0.455717
0.142604 0.924332 -0.456160
0.145817 0.924687 -0.456475
0.148809 0.924733 -0.456698
0.151378 0.924217 -0.456755
0.156245 0.926671 -0.457665
0.160307 0.928045 -0.458259
0.163467 0.928251 -0.458507
0.167213 0.929188 -0.458961
0.169609 0.928435 -0.458915
0.174728 0.931053 -0.459842
0.177181 0.930381 -0.459800
0.180107 0.930304 -0.459920
0.185598 0.933316 -0.460932
0.188491 0.933207 -0.461019
0.190266 0.931800 -0.460712
0.193562 0.932216 -0.460926
0.195675 0.931277 -0.460727
0.201014 0.934086 -0.461615
0.204760 0.935060 -0.461949
0.208245 0.935753 -0.462184
0.210220 0.934772 -0.461912
0.212722 0.934425 -0.461809
0.215465 0.934383 -0.461781
0.217898 0.934034 -0.461646
0.221429 0.934921 -0.461858
0.224534 0.935372 -0.461925
0.226409 0.934531 -0.461598
-0.471758 1.614441 -0.649435
-0.469106 1.619415 -0.651201
-0.465539 1.621533 -0.652132
-0.461376 1.621825 -0.652517
-0.457155 1.622165 -0.652884
-0.453831 1.626073 -0.654235
-0.449160 1.625320 -0.654231
-0.443377 1.620575 -0.653059
-0.436807 1.612896 -0.651018
-0.383793 1.438373 -0.601510
-0.375948 1.422667 -0.597077
-0.368755 1.409288 -0.593280
-0.363564 1.404045 -0.591775
-0.382524 1.564242 -0.637068
-0.378492 1.568176 -0.638038
-0.372873 1.564903 -0.636934
-0.368492 1.567701 -0.637533
-0.363563 1.568051 -0.637415
-0.358092 1.565799 -0.636539
-0.353152 1.566360 -0.636443
-0.349331 1.573109 -0.638081
-0.344874 1.576821 -0.638843
-0.340292 1.580125 -0.639473
-0.335624 1.583209 -0.640027
-0.330461 1.583570 -0.639801
-0.325013 1.582235 -0.639088
-0.320301 1.585594 -0.639688
-0.314188 1.579924 -0.637744
-0.308697 1.578155 -0.636893
-0.303433 1.577886 -0.636460
-0.299214 1.585285 -0.638170
-0.293541 1.582134 -0.636925
-0.289337 1.590361 -0.638858
-0.284222 1.591715 -0.638870
-0.278397 1.587031 -0.637200
-0.272874 1.584591 -0.636160
-0.268077 1.588695 -0.636943
-0.264062 1.600841 -0.639958
-0.259308 1.606490 -0.641168
-0.254317 1.610065 -0.641805
-0.248752 1.607325 -0.640699
-0.243881 1.612640 -0.641825
-0.237819 1.603017 -0.638832
-0.232886 1.607656 -0.639782
-0.227701 1.609093 -0.639854
-0.222376 1.608345 -0.639331
-0.217107 1.608309 -0.639011
-0.211937 1.610003 -0.639174
-0.206910 1.614843 -0.640204
-0.201719 1.616789 -0.640447
-0.196668 1.622700 -0.641782
-0.191402 1.623616 -0.641755
-0.186160 1.625466 -0.641991
-0.180893 1.626694 -0.642063
-0.175612 1.627490 -0.642025
-0.170368 1.631040 -0.642745
-0.165051 1.629798 -0.642166
-0.159750 1.627959 -0.641432
-0.154469 1.627450 -0.641069
-0.149193 1.627972 -0.640993
-0.143778 1.642177 -0.644638
-0.138553 1.634688 -0.642401
-0.132828 1.656473 -0.648109
-0.127378 1.658569 -0.648483
-0.121995 1.657738 -0.648071
-0.116926 1.647957 -0.645245
-0.111641 1.646188 -0.644596
-0.105826 1.657031 -0.647362
-0.100170 1.662432 -0.648663
-0.095207 1.653813 -0.646183
-0.089522 1.659087 -0.647461
-0.084354 1.655281 -0.646295
-0.079558 1.646476 -0.643788
-0.073653 1.654203 -0.645745
-0.068300 1.653761 -0.645506
-0.063058 1.651981 -0.644913
-0.057175 1.657784 -0.646368
-0.051944 1.655797 -0.645730
-0.067284 1.320472 -0.555239
-0.063946 1.316330 -0.554073
-0.061089 1.308475 -0.551915
-0.059606 1.290182 -0.546956
-0.056004 1.289568 -0.546751
-0.054424 1.273925 -0.542515
-0.053318 1.208483 -0.524862
-0.049650 1.210828 -0.525470
-0.048656 1.196133 -0.521509
-0.047654 1.182329 -0.517790
-0.012567 1.325539 -0.556184
-0.024989 1.152056 -0.509654
-0.023168 1.146058 -0.508055
-0.022272 1.136044 -0.505381
-0.019630 1.134307 -0.504930
0.671974 4.011876 -1.277532
0.688145 4.006689 -1.276277
0.702638 3.994767 -1.273226
0.711968 3.962697 -1.264776
0.729424 3.963311 -1.265116
0.749262 3.972834 -1.267864
1.310636 6.007477 -1.814909
1.336752 6.001357 -1.813607
1.362856 5.995175 -1.812309
1.396074 6.014143 -1.817797
1.426439 6.022275 -1.820394
1.447002 5.996400 -1.813863
1.470662 5.981562 -1.810321
1.493175 5.963194 -1.805849
0.886244 3.903174 -1.251418
0.914954 3.939006 -1.261396
0.909145 3.865172 -1.241833
0.919650 3.843935 -1.236454
1.687294 6.036623 -1.829000
1.672394 5.907500 -1.794784
0.970744 3.790250 -1.223487
0.987726 3.789481 -1.223696
1.004761 3.788726 -1.223925
1.025673 3.798584 -1.227041
1.046222 3.807007 -1.229788
1.067653 3.770457 -1.220873
1.082267 3.762915 -1.219343
1.096069 3.753328 -1.217275
1.109028 3.741696 -1.214667
1.123345 3.733626 -1.213041
1.179654 3.741921 -1.217111
1.184290 3.710590 -1.209222
1.225201 3.682147 -1.203503
1.233310 3.660319 -1.198257
1.249430 3.656729 -1.198012
0.286874 1.462641 -0.598827
0.278372 1.422506 -0.588306
0.124349 1.076682 -0.493839
0.039313 0.899945 -0.445252
0.040667 0.898212 -0.444900
0.041787 0.896052 -0.444431
0.044905 0.897641 -0.445007
0.047228 0.897703 -0.445163
0.050252 0.899017 -0.445671
0.053132 0.900016 -0.446096
0.056344 0.901559 -0.446677
0.058851 0.901800 -0.446899
0.061663 0.902540 -0.447265
0.065096 0.904307 -0.447924
0.068091 0.905264 -0.448359
0.070307 0.904860 -0.448417
0.072661 0.904667 -0.448537
0.077524 0.908588 -0.449824
0.080063 0.908608 -0.450013
0.082390 0.908259 -0.450102
0.085715 0.909481 -0.450640
0.088964 0.910532 -0.451134
0.091701 0.910732 -0.451390
0.096055 0.913403 -0.452354
0.098350 0.912840 -0.452400
0.101700 0.913860 -0.452901
0.104941 0.914670 -0.453346
0.110035 0.918185 -0.454572
0.112896 0.918326 -0.454832
0.115295 0.917770 -0.454891
0.118536 0.918412 -0.455298
0.122185 0.919599 -0.455865
0.125005 0.919574 -0.456081
0.128709 0.920763 -0.456651
0.132303 0.921756 -0.457164
0.136299 0.923263 -0.457827
0.139404 0.923519 -0.458123
0.142832 0.924188 -0.458538
0.146134 0.924667 -0.458895
0.149019 0.924580 -0.459081
0.152705 0.925528 -0.459568
0.156935 0.927154 -0.460250
0.159666 0.926834 -0.460351
0.163405 0.927793 -0.460824
0.166559 0.928005 -0.461067
0.171267 0.930145 -0.461875
0.173660 0.929407 -0.461818
0.177327 0.930246 -0.462219
0.182402 0.932782 -0.463116
0.185016 0.932343 -0.463113
0.188139 0.932532 -0.463285
0.189608 0.930792 -0.462866
0.193601 0.932049 -0.463329
0.196600 0.932158 -0.463434
0.198917 0.931508 -0.463297
0.205898 0.936207 -0.464748
0.206065 0.933163 -0.463861
0.209245 0.933574 -0.463995
0.211425 0.932900 -0.463786
0.214271 0.933002 -0.463794
0.217761 0.933845 -0.464008
0.221190 0.934642 -0.464193
0.224168 0.934976 -0.464221
0.221341 0.929112 -0.462379
-0.472420 1.618615 -0.655514
-0.468621 1.619558 -0.656168
-0.464944 1.621202 -0.656996
-0.460957 1.622022 -0.657558
-0.457139 1.623731 -0.658346
-0.453298 1.625658 -0.659167
-0.449268 1.627191 -0.659844
-0.444952 1.627938 -0.660262
-0.440637 1.628970 -0.660731
-0.433348 1.618610 -0.657870
-0.354760 1.367553 -0.585393
-0.349899 1.362915 -0.584033
-0.345155 1.358786 -0.582797
-0.342829 1.365481 -0.584672
-0.374894 1.551640 -0.638321
-0.372152 1.561626 -0.641054
-0.367394 1.562402 -0.641099
-0.362100 1.560710 -0.640410
-0.356564 1.557855 -0.639365
-0.351247 1.556145 -0.638633
-0.346535 1.557743 -0.638837
-0.341970 1.560366 -0.639319
-0.337648 1.564623 -0.640255
-0.334003 1.573187 -0.642412
-0.328551 1.571446 -0.641597
-0.323597 1.572763 -0.641649
-0.317988 1.570026 -0.640532
-0.312415 1.567392 -0.639438
-0.307138 1.566634 -0.638877
-0.302763 1.572241 -0.640126
-0.297430 1.571224 -0.639482
-0.292551 1.573590 -0.639799
-0.281213 1.565821 -0.636877
-0.277253 1.576093 -0.639434
-0.271938 1.575060 -0.638785
-0.266801 1.575544 -0.638568
-0.262063 1.579951 -0.639462
-0.257079 1.582190 -0.639745
-0.253047 1.594964 -0.643000
-0.247701 1.593963 -0.642373
-0.242207 1.590924 -0.641179
-0.237135 1.592870 -0.641394
-0.231888 1.592537 -0.640973
-0.226793 1.594304 -0.641147
-0.221918 1.599734 -0.642353
-0.216789 1.601541 -0.642549
-0.211651 1.603331 -0.642746
-0.206481 1.604636 -0.642814
-0.201430 1.608847 -0.643699
-0.196041 1.605043 -0.642356
-0.191055 1.612074 -0.644038
-0.185955 1.617213 -0.645199
-0.180715 1.618208 -0.645213
-0.175380 1.614336 -0.643882
-0.170080 1.609817 -0.642382
-0.164871 1.610003 -0.642195
-0.159654 1.607536 -0.641281
-0.154459 1.618784 -0.644172
-0.149232 1.616389 -0.643292
-0.143998 1.617360 -0.643351
-0.138798 1.615669 -0.642681
-0.133551 1.617375 -0.642957
-0.128339 1.617045 -0.642678
-0.122544 1.636904 -0.647972
-0.117280 1.635582 -0.647431
-0.111843 1.639099 -0.648229
-0.106569 1.638107 -0.647792
-0.101013 1.643168 -0.649028
-0.096351 1.630484 -0.645390
-0.091154 1.629144 -0.644879
-0.085193 1.640181 -0.647776
-0.080186 1.635500 -0.646360
-0.075173 1.631495 -0.645137
-0.068908 1.644231 -0.648514
-0.063483 1.645172 -0.648660
-0.058704 1.638514 -0.646728
-0.067198 1.320191 -0.559130
-0.063995 1.314857 -0.557619
-0.061840 1.301200 -0.553834
-0.059621 1.289070 -0.550473
-0.056755 1.282802 -0.548720
-0.054467 1.272660 -0.545911
-0.052873 1.258204 -0.541927
-0.050793 1.248059 -0.539126
-0.051523 1.219686 -0.531346
-0.050632 1.203604 -0.526930
-0.047637 1.201733 -0.526402
-0.045643 1.193827 -0.524229
-0.041674 1.198074 -0.525379
-0.025310 1.149799 -0.512202
-0.022176 1.150025 -0.512277
-0.022437 1.134604 -0.508077
-0.023077 1.118136 -0.503592
-0.020353 1.117156 -0.503344
-0.017016 1.118824 -0.503822
1.198775 5.995933 -1.838489
1.229237 6.007710 -1.842002
1.268800 6.054121 -1.855019
1.282873 6.001423 -1.840927
1.306893 5.987638 -1.837507
1.331765 5.977246 -1.835037
1.357895 5.971518 -1.833866
1.390489 5.988598 -1.838969
1.417344 5.984901 -1.838399
1.442353 5.974787 -1.836093
1.461954 5.946642 -1.828861
1.486667 5.936051 -1.826465
1.507973 5.914526 -1.821090
1.532343 5.903230 -1.818543
1.570188 5.934303 -1.827659
1.598130 5.933575 -1.828066
1.623533 5.924909 -1.826315
1.648618 5.915313 -1.824332
1.675053 5.909732 -1.823478
1.705251 5.914966 -1.825627
1.739531 5.931435 -1.830900
1.005174 3.786492 -1.240422
1.015406 3.766743 -1.235454
1.032751 3.766823 -1.235969
1.049024 3.763860 -1.235662
1.080277 3.754325 -1.234102
1.092897 3.741764 -1.231191
1.102981 3.722943 -1.226562
1.117683 3.716051 -1.225250
1.163981 3.700764 -1.222914
1.176033 3.687572 -1.219924
1.186077 3.669846 -1.215689
1.216020 3.657760 -1.213766
1.230942 3.651577 -1.212795
1.242994 3.638982 -1.210056
0.039593 0.900049 -0.447377
0.040401 0.897269 -0.446724
0.041527 0.895128 -0.446254
0.044658 0.896741 -0.446852
0.047434 0.897639 -0.447250
0.049310 0.896856 -0.447175
0.053786 0.900741 -0.448433
0.056441 0.901275 -0.448742
0.059335 0.902192 -0.449164
0.061450 0.901708 -0.449190
0.064003 0.901960 -0.449431
0.068370 0.905269 -0.450552
0.070570 0.904830 -0.450604
0.075095 0.908245 -0.451768
0.077749 0.908479 -0.452022
0.080053 0.908111 -0.452105
0.082464 0.907895 -0.452236
0.085671 0.908926 -0.452732
0.088526 0.909353 -0.453057
0.092856 0.912046 -0.454045
0.096129 0.913024 -0.454539
0.098372 0.912383 -0.454564
0.102532 0.914627 -0.455435
0.104965 0.914213 -0.455532
0.109032 0.916205 -0.456337
0.112633 0.917449 -0.456926
0.115792 0.918002 -0.457314
0.119800 0.919740 -0.458054
0.122276 0.919245 -0.458136
0.126030 0.920537 -0.458746
0.129603 0.921533 -0.459270
0.133122 0.922416 -0.459761
0.137196 0.924023 -0.460467
0.139493 0.923183 -0.460440
0.143672 0.924865 -0.461165
0.146460 0.924662 -0.461322
0.149861 0.925258 -0.461715
0.153678 0.926377 -0.462260
0.156618 0.926343 -0.462452
0.159675 0.926456 -0.462682
0.163593 0.927657 -0.463233
0.169296 0.931073 -0.464447
0.171413 0.929984 -0.464288
0.173882 0.929358 -0.464258
0.179415 0.932484 -0.465358
0.181605 0.931534 -0.465206
0.184503 0.931463 -0.465309
0.188092 0.932231 -0.465654
0.191362 0.932632 -0.465874
0.194664 0.933086 -0.466095
0.196603 0.931981 -0.465825
0.199272 0.931757 -0.465808
0.202488 0.932188 -0.465976
0.207139 0.934262 -0.466631
0.208398 0.932532 -0.466105
0.211708 0.933144 -0.466280
0.215906 0.934759 -0.466745
0.217852 0.933917 -0.466442
0.220285 0.933651 -0.466299
0.223827 0.934622 -0.466518
0.223776 0.931758 -0.465550
-0.469946 1.612036 -0.658478
-0.467584 1.617833 -0.660576
-0.464368 1.620997 -0.661879
-0.460648 1.622680 -0.662721
-0.457066 1.625158 -0.663767
-0.453468 1.627904 -0.664862
-0.449666 1.630215 -0.665800
-0.445421 1.631170 -0.666308
-0.441077 1.632032 -0.666757
-0.436403 1.631881 -0.666875
-0.429279 1.622184 -0.664153
-0.365194 1.396034 -0.597755
-0.357684 1.380554 -0.593224
-0.350312 1.365270 -0.588726
-0.345384 1.360284 -0.587235
-0.340989 1.357662 -0.586417
-0.337300 1.358323 -0.586544
-0.333406 1.358221 -0.586424
-0.358732 1.543891 -0.640550
-0.354980 1.549663 -0.642042
-0.349833 1.548556 -0.641494
-0.343655 1.541968 -0.639323
-0.337158 1.533390 -0.636557
-0.334354 1.545460 -0.639817
-0.330307 1.551053 -0.641165
-0.325519 1.552596 -0.641316
-0.320934 1.555575 -0.641874
-0.315367 1.552513 -0.640661
-0.310466 1.553715 -0.640683
-0.305620 1.555411 -0.640841
-0.300705 1.556769 -0.640895
-0.296232 1.561481 -0.641917
-0.290887 1.559918 -0.641114
-0.283828 1.544655 -0.636349
-0.279363 1.549502 -0.637403
-0.275793 1.562419 -0.640783
-0.271075 1.566153 -0.641509
-0.265598 1.563067 -0.640270
-0.260606 1.564388 -0.640303
-0.255596 1.565592 -0.640305
-0.250655 1.567616 -0.640545
-0.245765 1.570363 -0.640996
-0.241813 1.584798 -0.644796
-0.236230 1.579798 -0.643034
-0.231176 1.581339 -0.643150
-0.225681 1.576424 -0.641428
-0.220303 1.572480 -0.639993
-0.216123 1.588591 -0.644277
-0.211040 1.590354 -0.644477
-0.206184 1.597080 -0.646094
-0.200648 1.589298 -0.643595
-0.195467 1.588656 -0.643132
-0.190470 1.593157 -0.644136
-0.185289 1.592458 -0.643671
-0.179980 1.585783 -0.641524
-0.169965 1.600598 -0.645217
-0.164730 1.593830 -0.643068
-0.159593 1.593586 -0.642770
-0.154461 1.596242 -0.643297
-0.149309 1.598782 -0.643798
-0.144156 1.599405 -0.643765
-0.138926 1.605077 -0.645160
-0.133700 1.607878 -0.645753
-0.128251 1.618857 -0.648649
-0.123556 1.600516 -0.643318
-0.118279 1.604477 -0.644257
-0.106816 1.630757 -0.651297
-0.101784 1.625568 -0.649687
-0.096763 1.621107 -0.648290
-0.091592 1.619976 -0.647832
-0.085921 1.626976 -0.649655
-0.081780 1.610304 -0.644865
-0.076251 1.615019 -0.646062
-0.071168 1.613340 -0.645478
-0.064782 1.627758 -0.649396
-0.059533 1.627429 -0.649201
-0.055651 1.612152 -0.644839
-0.066769 1.323038 -0.563903
-0.064923 1.305795 -0.559047
-0.061982 1.299020 -0.557114
-0.060007 1.285011 -0.553169
-0.057752 1.274172 -0.550113
-0.053413 1.279552 -0.551579
-0.051035 1.270468 -0.549020
-0.056131 1.210187 -0.532209
-0.050717 1.224236 -0.536100
-0.051050 1.200065 -0.529353
-0.049661 1.188185 -0.526032
-0.043873 1.203838 -0.530379
-0.014723 1.333714 -0.566518
-0.022323 1.163463 -0.519170
-0.023191 1.144551 -0.513921
-0.023832 1.127515 -0.509195
-0.023809 1.114192 -0.505505
-0.021929 1.109578 -0.504242
-0.018153 1.113288 -0.505300
1.199917 5.994594 -1.866046
1.225307 5.986224 -1.864034
1.253333 5.988161 -1.864917
1.277830 5.976351 -1.861989
1.302939 5.967025 -1.859775
1.329120 5.961730 -1.858707
1.355906 5.958562 -1.858256
1.384933 5.963172 -1.860000
1.413973 5.967420 -1.861666
1.438860 5.957120 -1.859292
1.461513 5.939442 -1.854879
1.487078 5.931703 -1.853265
1.514841 5.931089 -1.853667
1.539010 5.918803 -1.850828
1.566524 5.917145 -1.850987
1.597275 5.925263 -1.853909
1.623547 5.919288 -1.852911
1.646335 5.902843 -1.849003
1.671854 5.894680 -1.847440
1.702468 5.901255 -1.850038
1.736295 5.916533 -1.855109
1.768245 5.925825 -1.858532
1.796050 5.923114 -1.858614
1.822130 5.915516 -1.857350
1.037557 3.683924 -1.230847
1.055133 3.685246 -1.231784
2.054427 5.838858 -1.844951
1.244243 3.599349 -1.216567
1.255698 3.586021 -1.213617
0.039824 0.900051 -0.449481
0.041030 0.898024 -0.449036
0.041900 0.895387 -0.448417
0.045333 0.897549 -0.449188
0.047507 0.897323 -0.449272
0.049523 0.896791 -0.449271
0.053851 0.900399 -0.450477
0.055765 0.899612 -0.450410
0.059549 0.902102 -0.451301
0.062167 0.902486 -0.451584
0.064931 0.903084 -0.451934
0.068755 0.905446 -0.452804
0.071123 0.905283 -0.452940
0.073107 0.904456 -0.452884
0.077269 0.907203 -0.453883
0.080399 0.908186 -0.454369
0.082699 0.907784 -0.454450
0.086556 0.909845 -0.455263
0.089599 0.910552 -0.455680
0.093453 0.912481 -0.456463
0.096185 0.912614 -0.456718
0.099627 0.913803 -0.457290
0.102738 0.914439 -0.457701
0.106311 0.915730 -0.458311
0.109672 0.916656 -0.458814
0.112760 0.917139 -0.459188
0.116051 0.917884 -0.459642
0.120134 0.919728 -0.460429
0.123391 0.920342 -0.460846
0.125981 0.919986 -0.460971
0.129526 0.920948 -0.461494
0.134851 0.924326 -0.462751
0.136586 0.922728 -0.462494
0.139812 0.923161 -0.462853
0.144544 0.925585 -0.463817
0.146512 0.924296 -0.463642
0.148866 0.923532 -0.463622
0.153425 0.925638 -0.464477
0.157115 0.926585 -0.464971
0.160589 0.927240 -0.465367
0.164289 0.928169 -0.465841
0.167293 0.928216 -0.466034
0.170873 0.928982 -0.466438
0.174133 0.929351 -0.466710
0.178341 0.930880 -0.467330
0.181379 0.930985 -0.467496
0.184139 0.930773 -0.467550
0.187677 0.931505 -0.467884
0.191042 0.932043 -0.468144
0.194060 0.932191 -0.468267
0.197114 0.932404 -0.468395
0.198837 0.931113 -0.468039
0.205138 0.935081 -0.469306
0.207213 0.934244 -0.469059
0.209855 0.934087 -0.469007
0.213545 0.935130 -0.469313
0.216996 0.935927 -0.469526
0.218528 0.934643 -0.469073
0.219771 0.933097 -0.468523
0.223012 0.933767 -0.468647
0.227011 0.935277 -0.469016
-0.466070 1.614493 -0.664473
-0.463153 1.618584 -0.666089
-0.460516 1.624038 -0.668083
-0.456696 1.625573 -0.668885
-0.453047 1.628034 -0.669933
-0.449252 1.630272 -0.670885
-0.446112 1.635333 -0.672648
-0.441352 1.634535 -0.672631
-0.435690 1.630415 -0.671589
-0.430667 1.628977 -0.671314
-0.424989 1.625073 -0.670269
-0.359774 1.390108 -0.600140
-0.353339 1.378932 -0.596817
-0.346832 1.367188 -0.593299
-0.340558 1.356192 -0.589981
-0.335389 1.349967 -0.588069
-0.329987 1.342554 -0.585780
-0.324336 1.333776 -0.583065
-0.351772 1.533202 -0.642170
-0.348207 1.539894 -0.643961
-0.341343 1.529304 -0.640582
-0.336725 1.530701 -0.640758
-0.331929 1.531285 -0.640676
-0.327903 1.536520 -0.641961
-0.323288 1.538613 -0.642298
-0.318953 1.542656 -0.643200
-0.313941 1.542688 -0.642901
-0.308955 1.542958 -0.642664
-0.304146 1.544508 -0.642798
-0.298898 1.543096 -0.642050
-0.294737 1.549567 -0.643623
-0.289825 1.550831 -0.643655
-0.283345 1.539805 -0.640066
-0.278369 1.540238 -0.639852
-0.272924 1.536674 -0.638463
-0.269218 1.548332 -0.641542
-0.264279 1.549484 -0.641537
-0.260008 1.557261 -0.643471
-0.255062 1.558802 -0.643581
-0.249741 1.556351 -0.642527
-0.244559 1.555154 -0.641845
-0.239840 1.559366 -0.642743
-0.235006 1.562532 -0.643340
-0.229803 1.560919 -0.642551
-0.224950 1.564145 -0.643173
-0.220725 1.577820 -0.646831
-0.210438 1.577458 -0.646119
-0.205203 1.575087 -0.645141
-0.200318 1.580125 -0.646311
-0.194992 1.574700 -0.644465
-0.190067 1.579546 -0.645592
-0.184926 1.578241 -0.644951
-0.179828 1.577877 -0.644589
-0.174582 1.569155 -0.641829
-0.169488 1.564917 -0.640371
-0.164532 1.570700 -0.641800
-0.159560 1.584596 -0.645563
-0.154464 1.588141 -0.646358
-0.149370 1.585657 -0.645432
-0.144419 1.571861 -0.641273
-0.133827 1.599876 -0.648901
-0.123943 1.585763 -0.644500
-0.118852 1.586154 -0.644441
-0.113666 1.588910 -0.645064
-0.108403 1.592868 -0.646035
-0.102656 1.606052 -0.649643
-0.097151 1.612317 -0.651282
-0.091695 1.616710 -0.652393
-0.082545 1.597525 -0.646671
-0.077358 1.598266 -0.646762
-0.072208 1.598413 -0.646692
-0.067715 1.590515 -0.644339
-0.062191 1.595338 -0.645610
-0.056787 1.598325 -0.646365
-0.066936 1.320514 -0.567194
-0.064245 1.310685 -0.564356
-0.063677 1.283968 -0.556733
-0.061257 1.274083 -0.553890
-0.058043 1.271001 -0.552981
-0.052706 1.283861 -0.556597
-0.056420 1.207358 -0.534856
-0.055031 1.194512 -0.531197
-0.049241 1.210990 -0.535853
-0.048595 1.194091 -0.531051
-0.046665 1.186001 -0.528749
-0.025694 1.132111 -0.513543
-0.024671 1.122995 -0.510980
-0.022996 1.117181 -0.509354
-0.021949 1.108845 -0.507015
-0.021146 1.099789 -0.504473
-0.022129 1.083586 -0.499906
-0.023002 1.068477 -0.495649
-0.023360 1.056029 -0.492148
1.229037 5.995032 -1.894537
1.249531 5.967514 -1.887099
1.275254 5.960675 -1.885554
1.300796 5.953179 -1.883845
1.326613 5.946723 -1.882454
1.356757 5.955799 -1.885503
1.383581 5.952593 -1.885084
1.412148 5.955292 -1.886368
1.437857 5.947919 -1.884812
1.463189 5.939292 -1.882922
1.489174 5.932856 -1.881679
1.516726 5.931449 -1.881894
1.540760 5.918652 -1.878887
1.565805 5.909184 -1.876853
1.592922 5.906144 -1.876678
1.622173 5.909413 -1.878330
1.647069 5.899337 -1.876198
1.669045 5.880743 -1.871658
1.703577 5.898760 -1.877607
1.732262 5.899327 -1.878600
1.763691 5.907315 -1.881746
1.794508 5.913110 -1.884297
1.820660 5.905770 -1.883117
1.868634 5.879459 -1.877507
1.899467 5.884316 -1.879915
1.921772 5.866830 -1.875938
1.945773 5.853854 -1.873285
1.972781 5.848478 -1.872848
2.027200 5.838315 -1.872242
2.052487 5.828394 -1.870595
2.103332 5.809112 -1.867560
2.127207 5.795837 -1.865043
1.254989 3.581019 -1.228976
1.283374 3.566411 -1.226566
1.301111 3.566503 -1.227548
1.312546 3.553406 -1.224710
0.039731 0.899423 -0.451409
0.041220 0.897937 -0.451117
0.042324 0.895734 -0.450617
0.045312 0.897056 -0.451158
0.047949 0.897678 -0.451497
0.050778 0.898610 -0.451932
0.053413 0.899149 -0.452256
0.056473 0.900402 -0.452795
0.059633 0.901778 -0.453376
0.062299 0.902239 -0.453690
0.065344 0.903316 -0.454192
0.067956 0.903608 -0.454464
0.071400 0.905263 -0.455148
0.074242 0.905856 -0.455520
0.076837 0.906003 -0.455761
0.080845 0.908417 -0.456688
0.085605 0.911962 -0.457962
0.086787 0.909715 -0.457496
0.088907 0.908964 -0.457482
0.092602 0.910656 -0.458210
0.096596 0.912747 -0.459064
0.100056 0.913955 -0.459655
0.104057 0.915929 -0.460483
0.105427 0.913909 -0.460096
0.108256 0.914064 -0.460374
0.112878 0.916815 -0.461448
0.116034 0.917365 -0.461851
0.120568 0.919857 -0.462853
0.123476 0.919975 -0.463125
0.126051 0.919604 -0.463247
0.129666 0.920668 -0.463810
0.134433 0.923281 -0.464853
0.137366 0.923330 -0.465100
0.140444 0.923561 -0.465401
0.144639 0.925269 -0.466158
0.146425 0.923752 -0.465905
0.151614 0.926714 -0.467046
0.154397 0.926494 -0.467187
0.158084 0.927439 -0.467685
0.161414 0.927913 -0.468029
0.164582 0.928179 -0.468298
0.167604 0.928262 -0.468500
0.170289 0.927935 -0.468561
0.174035 0.928926 -0.469028
0.177700 0.929815 -0.469451
0.181129 0.930418 -0.469771
0.184827 0.931351 -0.470182
0.187730 0.931346 -0.470282
0.191350 0.932205 -0.470641
0.193940 0.931873 -0.470607
0.196469 0.931502 -0.470545
0.199321 0.931535 -0.470595
0.204330 0.934050 -0.471417
0.207783 0.934799 -0.471663
0.210065 0.934256 -0.471480
0.212552 0.933981 -0.471367
0.216807 0.935695 -0.471868
0.218939 0.935092 -0.471617
0.220811 0.934248 -0.471273
0.223287 0.934104 -0.471135
0.230414 0.938989 -0.472576
-0.464153 1.609787 -0.667914
-0.461770 1.615632 -0.670099
-0.459936 1.623850 -0.672976
-0.457453 1.630170 -0.675255
-0.451332 1.623437 -0.673561
-0.447527 1.625465 -0.674484
-0.443131 1.625552 -0.674787
-0.436073 1.615565 -0.672005
-0.430953 1.613153 -0.671484
-0.428804 1.622820 -0.674597
-0.423041 1.618339 -0.673383
-0.416106 1.609087 -0.670686
-0.355997 1.391080 -0.604570
-0.349110 1.377802 -0.600549
-0.338424 1.347149 -0.591223
-0.333364 1.341132 -0.589362
-0.327685 1.332139 -0.586575
-0.321997 1.322863 -0.583683
-0.317845 1.320824 -0.582969
-0.345461 1.525405 -0.644576
-0.339733 1.520464 -0.642873
-0.333760 1.514049 -0.640709
-0.328935 1.513925 -0.640433
-0.325123 1.519837 -0.641966
-0.320183 1.519409 -0.641568
-0.316119 1.524485 -0.642818
-0.312569 1.533245 -0.645164
-0.307626 1.533444 -0.644918
-0.302607 1.533186 -0.644527
-0.297615 1.533149 -0.644195
-0.291641 1.525951 -0.641710
-0.286544 1.524897 -0.641066
-0.282895 1.535205 -0.643821
-0.277065 1.528432 -0.641459
-0.271904 1.526797 -0.640636
-0.266881 1.526230 -0.640132
-0.262420 1.530841 -0.641173
-0.257528 1.531634 -0.641075
-0.252867 1.534841 -0.641697
-0.247747 1.533336 -0.640920
-0.243358 1.539988 -0.642568
-0.239085 1.548765 -0.644846
-0.234142 1.549903 -0.644861
-0.229190 1.550976 -0.644861
-0.223992 1.548445 -0.643801
-0.218851 1.546318 -0.642868
-0.214018 1.549045 -0.643373
-0.209331 1.554924 -0.644811
-0.204905 1.567279 -0.648159
-0.199803 1.566561 -0.647663
-0.194847 1.569301 -0.648190
-0.189264 1.553780 -0.643362
-0.184314 1.555041 -0.643472
-0.179525 1.563347 -0.645652
-0.174313 1.553105 -0.642406
-0.169336 1.552155 -0.641889
-0.164392 1.553291 -0.641990
-0.159429 1.551531 -0.641252
-0.144568 1.556137 -0.641968
-0.139604 1.556879 -0.641989
-0.134740 1.552341 -0.640479
-0.124152 1.577327 -0.647391
-0.119272 1.572501 -0.645818
-0.114220 1.573342 -0.645899
-0.109056 1.576564 -0.646679
-0.083055 1.588614 -0.649488
-0.078039 1.587495 -0.649046
-0.073692 1.577842 -0.646141
-0.068795 1.575993 -0.645502
-0.063794 1.575524 -0.645268
-0.059596 1.566321 -0.642515
-0.077587 1.255147 -0.552368
-0.068065 1.309340 -0.567975
-0.065738 1.296803 -0.564308
-0.064136 1.279231 -0.559192
-0.061526 1.271017 -0.556783
-0.057543 1.273940 -0.557594
-0.052466 1.284723 -0.560677
-0.056310 1.207297 -0.538287
-0.054792 1.195314 -0.534812
-0.051772 1.193782 -0.534357
-0.048205 1.195752 -0.534916
-0.045177 1.194294 -0.534488
-0.021956 1.108170 -0.509807
-0.022337 1.094048 -0.505759
-0.023381 1.077715 -0.501073
-0.023716 1.064945 -0.497417
-0.024224 1.051967 -0.493702
-0.025566 1.036191 -0.489179
-0.024165 1.031628 -0.487898
1.273194 5.946965 -1.909621
1.297986 5.936845 -1.907148
1.324147 5.931858 -1.906183
1.350068 5.925951 -1.904975
1.381796 5.940468 -1.909707
1.409230 5.939364 -1.909940
1.435362 5.933621 -1.908855
1.460997 5.926168 -1.907299
1.483883 5.909686 -1.903148
1.511681 5.909371 -1.903711
1.537246 5.901723 -1.902173
1.560101 5.885602 -1.898198
1.591628 5.896413 -1.902072
1.619913 5.896819 -1.902952
1.646892 5.893063 -1.902651
1.677308 5.899246 -1.905270
1.701990 5.888421 -1.902968
1.727471 5.879937 -1.901374
1.754176 5.874873 -1.900805
1.787265 5.887319 -1.905372
1.814011 5.881880 -1.904756
1.835167 5.861346 -1.899761
1.856815 5.842427 -1.895264
1.892519 5.860395 -1.901579
1.917637 5.850391 -1.899750
1.942243 5.839093 -1.897573
1.971655 5.839834 -1.898955
1.998381 5.833658 -1.898344
2.050055 5.816687 -1.895868
2.073884 5.803356 -1.893256
2.145781 5.764620 -1.885987
2.173801 5.760894 -1.886343
1.285248 3.566837 -1.243545
1.318495 3.562112 -1.244162
0.039328 0.898195 -0.453159
0.040997 0.897057 -0.452968
0.042973 0.896496 -0.452953
0.045695 0.897307 -0.453355
0.047695 0.896750 -0.453348
0.051804 0.900004 -0.454495
0.054317 0.900298 -0.454754
0.056824 0.900550 -0.455004
0.060146 0.902198 -0.455682
0.062809 0.902642 -0.456000
0.065958 0.903884 -0.456564
0.068649 0.904294 -0.456881
0.072289 0.906263 -0.457676
0.074657 0.906050 -0.457812
0.079291 0.909534 -0.459082
0.082297 0.910275 -0.459518
0.084247 0.909278 -0.459425
0.088163 0.911398 -0.460293
0.091237 0.912125 -0.460737
0.094828 0.913614 -0.461420
0.097499 0.913631 -0.461653
0.099857 0.913146 -0.461732
0.102284 0.912751 -0.461840
0.106988 0.915736 -0.463002
0.110476 0.916840 -0.463583
0.114794 0.919114 -0.464531
0.117514 0.919009 -0.464738
0.120480 0.919239 -0.465050
0.123544 0.919583 -0.465398
0.126069 0.919148 -0.465500
0.130180 0.920908 -0.466291
0.135345 0.924064 -0.467524
0.137750 0.923393 -0.467546
0.140239 0.922837 -0.467600
0.143777 0.923680 -0.468094
0.147419 0.924639 -0.468619
0.151380 0.925993 -0.469266
0.155058 0.926952 -0.469781
0.158656 0.927789 -0.470250
0.162276 0.928642 -0.470715
0.166701 0.930497 -0.471494
0.168415 0.928942 -0.471169
0.170896 0.928372 -0.471147
0.174092 0.928702 -0.471404
0.177388 0.929161 -0.471689
0.180923 0.929917 -0.472057
0.184555 0.930794 -0.472450
0.189108 0.932768 -0.473184
0.191672 0.932395 -0.473144
0.194345 0.932180 -0.473140
0.197223 0.932231 -0.473205
0.201418 0.933819 -0.473753
0.205285 0.935039 -0.474164
0.207028 0.933871 -0.473786
0.209601 0.933683 -0.473708
0.212126 0.933476 -0.473608
0.214217 0.932826 -0.473347
0.219191 0.935380 -0.474106
0.222127 0.935713 -0.474130
0.223904 0.934822 -0.473743
0.224154 0.932339 -0.472826
-0.459339 1.609000 -0.672941
-0.459185 1.623112 -0.677681
-0.457726 1.633083 -0.681134
-0.452169 1.628368 -0.680055
-0.447194 1.625959 -0.679651
-0.441671 1.621631 -0.678624
-0.435998 1.616837 -0.677420
-0.428820 1.606197 -0.674380
-0.425312 1.610191 -0.675813
-0.420756 1.610294 -0.676016
-0.417440 1.615802 -0.677853
-0.411449 1.610438 -0.676305
-0.335856 1.336198 -0.591783
-0.330987 1.330735 -0.590082
-0.325980 1.324561 -0.588139
-0.321044 1.318615 -0.586247
-0.315972 1.311894 -0.584095
-0.309993 1.300468 -0.580476
-0.337740 1.509621 -0.644461
-0.332666 1.507793 -0.643693
-0.327854 1.507489 -0.643377
-0.322904 1.506489 -0.642831
-0.318014 1.505894 -0.642395
-0.314041 1.511048 -0.643710
-0.310817 1.521404 -0.646603
-0.305395 1.518001 -0.645269
-0.300985 1.521330 -0.645986
-0.296411 1.523792 -0.646429
-0.290984 1.520231 -0.645027
-0.285670 1.517290 -0.643810
-0.281219 1.520942 -0.644599
-0.276286 1.520946 -0.644273
-0.270900 1.517066 -0.642766
-0.266009 1.517255 -0.642495
-0.261391 1.519985 -0.642994
-0.256908 1.524273 -0.643964
-0.251721 1.521698 -0.642858
-0.246978 1.523626 -0.643115
-0.241889 1.521730 -0.642221
-0.237046 1.522531 -0.642145
-0.232212 1.523465 -0.642112
-0.227474 1.525773 -0.642497
-0.223444 1.538786 -0.646103
-0.218085 1.532518 -0.643917
-0.213263 1.534361 -0.644174
-0.208661 1.540582 -0.645748
-0.199067 1.547726 -0.647319
-0.193921 1.543287 -0.645718
-0.188749 1.536554 -0.643441
-0.183983 1.541537 -0.644670
-0.174072 1.538185 -0.643175
-0.169227 1.542074 -0.644096
-0.164317 1.542382 -0.643957
-0.159394 1.539295 -0.642817
-0.154505 1.536560 -0.641789
-0.149628 1.537335 -0.641812
-0.144734 1.539336 -0.642205
-0.139775 1.544680 -0.643595
-0.134844 1.546207 -0.643860
-0.130008 1.543309 -0.642821
-0.125014 1.546846 -0.643695
-0.120002 1.549999 -0.644461
-0.115154 1.548164 -0.643758
-0.105244 1.550090 -0.644028
-0.095974 1.540416 -0.640901
-0.085449 1.551981 -0.644066
-0.074791 1.562352 -0.646899
-0.069458 1.566640 -0.648059
-0.064668 1.564195 -0.647243
-0.060385 1.556444 -0.644872
-0.055664 1.553977 -0.644063
-0.068837 1.301440 -0.569620
-0.066364 1.290472 -0.566352
-0.063828 1.280876 -0.563492
-0.061068 1.273773 -0.561369
-0.057508 1.273316 -0.561203
-0.052177 1.285956 -0.564888
-0.055788 1.210099 -0.542569
-0.053567 1.202709 -0.540384
-0.051681 1.193589 -0.537695
-0.048659 1.192119 -0.537256
-0.044285 1.198941 -0.539254
0.019764 1.325013 -0.576451
-0.025224 1.081056 -0.504864
-0.023319 1.077365 -0.503814
-0.023982 1.063258 -0.499702
-0.024177 1.051581 -0.496305
-0.024517 1.039770 -0.492870
-0.024641 1.029235 -0.489811
-0.023127 1.025291 -0.488693
1.296088 5.923903 -1.931379
1.320729 5.913513 -1.928831
1.348760 5.915411 -1.929927
1.374615 5.909337 -1.928699
1.402084 5.908809 -1.929132
1.429530 5.907973 -1.929501
1.454537 5.898775 -1.927428
1.479696 5.890141 -1.925546
1.505004 5.882023 -1.923842
1.529555 5.871520 -1.921458
1.555758 5.866266 -1.920652
1.584798 5.869643 -1.922426
1.618910 5.887990 -1.928660
1.640605 5.868557 -1.923741
1.665958 5.860186 -1.922124
1.693564 5.858309 -1.922459
1.720148 5.853325 -1.921904
1.745919 5.845953 -1.920669
1.773725 5.844146 -1.921116
1.797991 5.832509 -1.918673
1.824307 5.826429 -1.917912
1.850175 5.819070 -1.916800
1.877792 5.816202 -1.917058
1.907110 5.817506 -1.918593
1.937106 5.820218 -1.920583
1.968193 5.825298 -1.923318
1.996849 5.823976 -1.924180
2.023278 5.816998 -1.923389
2.045989 5.801003 -1.919935
2.070040 5.788316 -1.917502
2.094142 5.775788 -1.915151
2.118836 5.764657 -1.913252
1.304919 3.567289 -1.261643
2.385158 5.630020 -1.891105
2.408368 5.615690 -1.888686
0.044927 0.912975 -0.459629
0.039191 0.897473 -0.455057
0.040968 0.896541 -0.454929
0.043521 0.897060 -0.455247
0.045794 0.897024 -0.455399
0.049196 0.899030 -0.456182
0.052202 0.900248 -0.456728
0.054884 0.900835 -0.457085
0.057460 0.901194 -0.457377
0.060223 0.901848 -0.457763
0.064158 0.904489 -0.458769
0.066367 0.904092 -0.458840
0.068919 0.904259 -0.459089
0.072447 0.906029 -0.459841
0.075151 0.906370 -0.460153
0.079127 0.908761 -0.461109
0.081565 0.908581 -0.461268
0.083967 0.908322 -0.461405
0.088460 0.911360 -0.462579
0.091471 0.911981 -0.463000
0.095085 0.913501 -0.463707
0.097526 0.913161 -0.463832
0.099793 0.912541 -0.463871
0.104865 0.916128 -0.465243
0.107337 0.915748 -0.465362
0.109935 0.915539 -0.465536
0.114771 0.918576 -0.466744
0.117584 0.918611 -0.466999
0.120284 0.918465 -0.467196
0.123634 0.919224 -0.467681
0.127503 0.920677 -0.468389
0.129200 0.919077 -0.468114
0.133019 0.920406 -0.468779
0.137329 0.922364 -0.469644
0.139650 0.921600 -0.469628
0.144149 0.923744 -0.470547
0.147018 0.923691 -0.470751
0.150381 0.924280 -0.471156
0.154217 0.925470 -0.471749
0.158276 0.926925 -0.472422
0.162779 0.928920 -0.473264
0.166335 0.929692 -0.473697
0.168673 0.928939 -0.473621
0.170707 0.927835 -0.473417
0.174526 0.928951 -0.473929
0.177776 0.929370 -0.474199
0.181820 0.930756 -0.474773
0.185184 0.931326 -0.475065
0.188466 0.931809 -0.475314
0.191802 0.932372 -0.475574
0.195019 0.932812 -0.475778
0.199029 0.934189 -0.476274
0.202623 0.935093 -0.476598
0.204616 0.934193 -0.476310
0.206813 0.933567 -0.476096
0.209382 0.933398 -0.476016
0.212376 0.933737 -0.476087
0.215301 0.934028 -0.476125
0.219619 0.935874 -0.476658
0.221666 0.935256 -0.476363
0.222845 0.933743 -0.475758
0.222164 0.930285 -0.474500
-0.451856 1.629112 -0.685274
-0.448254 1.631784 -0.686469
-0.442922 1.628155 -0.685669
-0.435794 1.617682 -0.682696
-0.428338 1.605830 -0.679255
-0.421650 1.596922 -0.676698
-0.419664 1.607178 -0.680103
-0.419382 1.625139 -0.685891
-0.413207 1.619037 -0.684113
-0.402210 1.612842 -0.682339
-0.329306 1.323564 -0.591706
