ply
format ascii 1.0
comment ---
element vertex 1704
property float x
property float y
property float z
element face 0
property list uchar uint vertex_indices
end_header
0.103954 2.031837 -0.013712
0.113794 2.033188 -0.013876
0.123076 2.030409 -0.013957
0.134730 2.044067 -0.014315
0.145556 2.051272 -0.014550
0.155542 2.052534 -0.014671
0.165344 2.052489 -0.014758
0.175419 2.054032 -0.014863
0.185146 2.053348 -0.014918
0.194355 2.049627 -0.014910
0.203025 2.042996 -0.014839
0.211490 2.035506 -0.014743
0.219959 2.028330 -0.014643
0.228296 2.020741 -0.014526
0.236344 2.011961 -0.014378
0.244805 2.005560 -0.014263
0.253114 1.998631 -0.014129
0.261369 1.991676 -0.013986
0.269436 1.984070 -0.013823
0.277502 1.976704 -0.013655
0.285203 1.967952 -0.013454
0.293155 1.960568 -0.013270
0.300510 1.950866 -0.013036
0.308198 1.942850 -0.012823
0.315890 1.935084 -0.012608
0.322309 1.922442 -0.012299
0.330030 1.915307 -0.012079
0.337660 1.908005 -0.011849
0.344295 1.897128 -0.011549
0.350166 1.883726 -0.011198
0.354268 1.864272 -0.010736
0.359979 1.851178 -0.010378
0.367312 1.844164 -0.010118
0.371068 1.824940 -0.009643
0.376567 1.812205 -0.009272
0.385373 1.810869 -0.009089
0.388818 1.791867 -0.008600
0.394601 1.780958 -0.008243
0.398400 1.764003 -0.007779
0.406880 1.762168 -0.007559
0.419498 1.773073 -0.007541
0.423337 1.756897 -0.007071
0.429097 1.746880 -0.006696
0.436268 1.741236 -0.006385
0.442156 1.731956 -0.006009
0.448046 1.722872 -0.005629
0.452380 1.709586 -0.005178
0.457068 1.697583 -0.004742
0.460372 1.682048 -0.004246
0.464889 1.670142 -0.003801
0.470921 1.662523 -0.003415
0.478085 1.658005 -0.003069
0.479288 1.638084 -0.002489
0.480678 1.619097 -0.001919
0.486533 1.611799 -0.001515
0.493191 1.606609 -0.001133
0.497768 1.596364 -0.000673
0.501665 1.584655 -0.000187
0.507139 1.576943 0.000250
0.511912 1.567686 0.000714
0.517407 1.560270 0.001161
0.520401 1.547196 0.001687
0.525658 1.539512 0.002150
0.529716 1.529244 0.002653
0.532794 1.516966 0.003185
0.534909 1.502793 0.003746
0.537552 1.490023 0.004294
0.540505 1.478139 0.004836
0.545990 1.471812 0.005321
0.547148 1.456503 0.005913
0.550975 1.446985 0.006445
0.554604 1.437199 0.006987
0.558701 1.428502 0.007524
0.562069 1.418464 0.008081
0.566569 1.410806 0.008622
0.571557 1.404189 0.009160
0.575206 1.395054 0.009729
0.580476 1.389129 0.010278
0.585623 1.383018 0.010836
0.590805 1.377025 0.011403
0.594370 1.368091 0.011999
0.598193 1.359737 0.012598
0.602679 1.352675 0.013195
0.606379 1.344274 0.013809
0.610934 1.337476 0.014420
0.615551 1.330845 0.015038
0.619407 1.322952 0.015670
0.622415 1.313686 0.016315
0.625874 1.305294 0.016961
0.630795 1.299437 0.017605
0.635902 1.293923 0.018255
0.639826 1.286496 0.018918
0.643900 1.279376 0.019587
0.648623 1.273360 0.020260
0.652909 1.266685 0.020940
0.657109 1.259925 0.021625
0.661227 1.253089 0.022316
0.665456 1.246477 0.023011
0.669121 1.239055 0.023709
0.672846 1.231787 0.024409
0.676500 1.224478 0.025111
0.680174 1.217264 0.025815
0.683936 1.210243 0.026519
0.687757 1.203370 0.027223
0.692707 1.198179 0.027933
0.697420 1.192682 0.028641
0.701423 1.186219 0.029341
0.704641 1.178722 0.030030
0.707646 1.171010 0.030710
0.712636 1.166104 0.031402
0.717347 1.160856 0.032084
0.720588 1.153681 0.032739
0.724135 1.147002 0.033385
0.728609 1.141625 0.034030
0.732604 1.135684 0.034654
0.735221 1.128039 0.035240
0.738169 1.120930 0.035811
0.742238 1.115349 0.036378
0.745528 1.108874 0.036910
0.749411 1.103241 0.037427
0.754842 1.099612 0.037944
0.758969 1.094452 0.038412
0.761938 1.087985 0.038829
0.764906 1.081641 0.039215
0.768420 1.076072 0.039577
0.766041 1.063666 0.039794
0.774929 1.064682 0.040188
0.779961 1.061238 0.040474
0.780889 1.053165 0.040642
0.784511 1.048342 0.040824
0.788426 1.043973 0.040974
0.791322 1.038579 0.041064
0.795754 1.035036 0.041144
0.800127 1.031538 0.041184
0.803819 1.027406 0.041171
0.807414 1.023294 0.041116
0.810141 1.018368 0.041006
0.813759 1.014536 0.040874
0.816291 1.009671 0.040684
0.816166 1.002134 0.040407
0.819177 0.998065 0.040153
0.822338 0.994278 0.039867
0.824031 0.989091 0.039521
-0.548050 1.628129 0.003284
-0.542776 1.630751 0.003841
-0.538886 1.640129 0.004288
-0.532414 1.638378 0.004814
-0.527058 1.642228 0.005242
-0.521263 1.644567 0.005642
-0.516251 1.651244 0.005959
-0.510212 1.653556 0.006274
-0.504243 1.656781 0.006536
-0.497192 1.655043 0.006798
-0.490140 1.653693 0.007011
-0.484243 1.658955 0.007118
-0.478032 1.663200 0.007190
-0.472012 1.669182 0.007202
-0.466785 1.680482 0.007122
-0.460069 1.684026 0.007066
-0.453164 1.687073 0.006972
-0.444707 1.681094 0.006914
-0.437628 1.684009 0.006738
-0.430228 1.685406 0.006536
-0.422969 1.688251 0.006283
-0.416246 1.695398 0.005955
-0.409829 1.705596 0.005562
-0.403728 1.719193 0.005101
-0.395566 1.718191 0.004751
-0.388840 1.728913 0.004256
-0.381041 1.731846 0.003813
-0.373422 1.736837 0.003324
-0.365496 1.739736 0.002836
-0.357880 1.746031 0.002291
-0.350748 1.757856 0.001664
-0.343025 1.764914 0.001074
-0.335966 1.780024 0.000373
-0.327587 1.781840 -0.000183
-0.319244 1.784409 -0.000756
-0.311423 1.794023 -0.001427
-0.303978 1.810025 -0.002190
-0.295520 1.813556 -0.002797
-0.286917 1.815348 -0.003381
-0.278499 1.820505 -0.004013
-0.270063 1.826190 -0.004653
-0.261251 1.825334 -0.005196
-0.253476 1.847039 -0.006071
-0.244751 1.850279 -0.006671
-0.236022 1.854058 -0.007274
-0.227291 1.858678 -0.007884
-0.218549 1.864256 -0.008504
-0.209773 1.870267 -0.009125
-0.200851 1.870672 -0.009646
-0.191785 1.859334 -0.009958
-0.183033 1.873138 -0.010685
-0.174165 1.888438 -0.011434
-0.165168 1.899702 -0.012107
-0.156031 1.917910 -0.012899
-0.146943 1.916420 -0.013329
-0.137857 1.916084 -0.013767
-0.128633 1.923151 -0.014331
-0.119059 1.942031 -0.015107
-0.109383 1.958570 -0.015833
-0.100066 1.960128 -0.016266
-0.091119 1.951844 -0.016494
-0.081679 1.956846 -0.016967
-0.072231 1.961106 -0.017415
-0.062685 1.966521 -0.017874
-0.052911 1.975101 -0.018385
-0.043295 1.979853 -0.018809
-0.033783 1.982369 -0.019176
-0.024269 1.984587 -0.019525
-0.014373 1.991574 -0.019961
-0.004434 1.998282 -0.020381
0.005323 2.002076 -0.020729
0.015101 2.005686 -0.021061
0.025020 2.010405 -0.021406
0.034784 2.013061 -0.021696
0.044378 2.013790 -0.021933
0.054028 2.014920 -0.022168
0.063207 2.011721 -0.022297
0.072403 2.008870 -0.022422
0.083800 2.024213 -0.022933
0.094783 2.035088 -0.023337
0.105021 2.039461 -0.023589
0.114893 2.040761 -0.023762
0.124807 2.042205 -0.023928
0.135509 2.048910 -0.024201
0.146089 2.054306 -0.024435
0.155704 2.053051 -0.024511
0.165119 2.050543 -0.024548
0.175196 2.052130 -0.024666
0.185064 2.052310 -0.024744
0.194552 2.050207 -0.024760
0.203066 2.042666 -0.024644
0.211635 2.035736 -0.024532
0.220172 2.028893 -0.024412
0.228747 2.022503 -0.024293
0.236973 2.014566 -0.024130
0.245246 2.007149 -0.023970
0.253344 1.999143 -0.023787
0.260793 1.988343 -0.023533
0.268977 1.981335 -0.023355
0.277135 1.974425 -0.023171
0.285049 1.966642 -0.022960
0.292936 1.958984 -0.022743
0.300915 1.951942 -0.022532
0.308753 1.944512 -0.022304
0.315537 1.932991 -0.021977
0.322479 1.922462 -0.021665
0.329979 1.914441 -0.021402
0.337181 1.905489 -0.021111
0.344958 1.898954 -0.020866
0.351532 1.888111 -0.020518
0.354520 1.864505 -0.019882
0.362340 1.858942 -0.019638
0.370953 1.856277 -0.019451
0.375922 1.841025 -0.018981
0.381653 1.828793 -0.018571
0.388782 1.821560 -0.018264
0.392952 1.804752 -0.017742
0.391214 1.769302 -0.016814
0.396749 1.758044 -0.016404
0.411265 1.775192 -0.016595
0.418006 1.767751 -0.016251
0.424316 1.759152 -0.015877
0.429826 1.748340 -0.015449
0.432639 1.729827 -0.014855
0.441814 1.730242 -0.014651
0.447693 1.721141 -0.014242
0.452281 1.708586 -0.013755
0.458195 1.699991 -0.013344
0.463167 1.688983 -0.012878
0.465249 1.670400 -0.012254
0.470932 1.661837 -0.011827
0.475187 1.649683 -0.011322
0.479080 1.636838 -0.010799
0.482312 1.622571 -0.010243
0.487877 1.614487 -0.009802
0.493716 1.607216 -0.009371
0.496118 1.591617 -0.008774
0.500378 1.580846 -0.008265
0.505814 1.573085 -0.007806
0.510219 1.563004 -0.007297
0.514889 1.553716 -0.006797
0.521393 1.548805 -0.006370
0.523102 1.533027 -0.005741
0.528568 1.525999 -0.005263
0.534143 1.519301 -0.004783
0.536327 1.505251 -0.004169
0.539636 1.493893 -0.003597
0.542867 1.482557 -0.003021
0.544100 1.467183 -0.002373
0.548233 1.458148 -0.001823
0.550991 1.446401 -0.001224
0.553421 1.434175 -0.000613
0.557014 1.424494 -0.000036
0.561481 1.416697 0.000520
0.566404 1.409893 0.001068
0.567913 1.396499 0.001718
0.572924 1.390077 0.002275
0.579379 1.386467 0.002802
0.586417 1.383953 0.003324
0.590182 1.375305 0.003937
0.596066 1.370669 0.004506
0.600741 1.363843 0.005111
0.603688 1.353958 0.005761
0.607238 1.345277 0.006403
0.610837 1.336781 0.007049
0.615179 1.329678 0.007687
0.619373 1.322383 0.008334
0.622984 1.314156 0.008998
0.626746 1.306271 0.009665
0.631439 1.300021 0.010324
0.636436 1.294319 0.010986
0.640557 1.287210 0.011667
0.643977 1.279021 0.012363
0.648434 1.272580 0.013052
0.653227 1.266716 0.013743
0.657192 1.259583 0.014449
0.661409 1.252902 0.015157
0.665733 1.246434 0.015869
0.669750 1.239543 0.016587
0.673175 1.231812 0.017312
0.677278 1.225167 0.018035
0.679905 1.216387 0.018767
0.683976 1.209818 0.019492
0.688200 1.203524 0.020218
0.692843 1.197877 0.020943
0.697687 1.192554 0.021668
0.700598 1.184541 0.022391
0.704253 1.177651 0.023109
0.708470 1.171604 0.023823
0.713083 1.166154 0.024532
0.717329 1.160251 0.025232
0.720053 1.152365 0.025918
0.723648 1.145733 0.026595
0.727622 1.139679 0.027261
0.732613 1.135022 0.027919
0.736033 1.128385 0.028552
0.738387 1.120477 0.029157
0.741691 1.113891 0.029749
0.745564 1.108119 0.030324
0.750166 1.103341 0.030882
0.755433 1.099461 0.031422
0.759649 1.094361 0.031925
0.761248 1.086186 0.032371
0.764308 1.079916 0.032801
0.768851 1.075532 0.033216
0.772988 1.070764 0.033592
0.777270 1.066270 0.033936
0.779852 1.059913 0.034222
0.783867 1.055344 0.034488
0.786602 1.049430 0.034700
0.789054 1.043338 0.034868
0.792091 1.038048 0.035005
0.797000 1.034977 0.035127
0.800516 1.030473 0.035190
0.802441 1.024353 0.035192
0.805266 1.019367 0.035166
0.809886 1.016456 0.035125
0.813884 1.012988 0.035035
0.815950 1.007584 0.034882
0.816143 1.000349 0.034667
0.817507 0.994513 0.034432
0.819953 0.989954 0.034174
0.830505 0.993912 0.033978
-0.549011 1.626380 -0.003471
-0.544496 1.632510 -0.003011
-0.540132 1.639947 -0.002608
-0.534171 1.640740 -0.002146
-0.526773 1.635309 -0.001637
-0.521603 1.640704 -0.001326
-0.516535 1.647247 -0.001073
-0.510988 1.652138 -0.000839
-0.505108 1.656017 -0.000636
-0.498180 1.655146 -0.000415
-0.490874 1.652736 -0.000219
-0.484116 1.653621 -0.000112
-0.478659 1.662128 -0.000151
-0.473396 1.672590 -0.000260
-0.466550 1.674936 -0.000307
-0.460738 1.683937 -0.000485
-0.453838 1.687291 -0.000631
-0.446034 1.685665 -0.000753
-0.437996 1.682883 -0.000899
-0.430622 1.684706 -0.001144
-0.423286 1.687290 -0.001436
-0.418951 1.711321 -0.002059
-0.412561 1.722492 -0.002542
-0.405527 1.729980 -0.003007
-0.398506 1.738418 -0.003516
-0.391101 1.744716 -0.004023
-0.386054 1.771334 -0.004860
-0.374656 1.745562 -0.004935
-0.367151 1.752851 -0.005526
-0.360179 1.765993 -0.006229
-0.352240 1.771039 -0.006823
-0.343858 1.772171 -0.007368
-0.335505 1.773871 -0.007933
-0.327745 1.782607 -0.008625
-0.319670 1.788645 -0.009281
-0.311359 1.792446 -0.009905
-0.303598 1.804234 -0.010676
-0.295290 1.809715 -0.011341
-0.286875 1.814304 -0.011991
-0.278490 1.820089 -0.012664
-0.270175 1.828076 -0.013379
-0.262040 1.841068 -0.014191
-0.253477 1.847185 -0.014870
-0.244662 1.848345 -0.015446
-0.235929 1.851915 -0.016065
-0.227189 1.856044 -0.016688
-0.218443 1.861123 -0.017325
-0.209723 1.869163 -0.018017
-0.200804 1.869551 -0.018540
-0.191729 1.857208 -0.018777
-0.183015 1.874729 -0.019650
-0.174186 1.904732 -0.020796
-0.165102 1.923530 -0.021694
-0.155970 1.922459 -0.022141
-0.146826 1.924075 -0.022636
-0.137705 1.923746 -0.023074
-0.128535 1.926329 -0.023568
-0.119122 1.938036 -0.024264
-0.109247 1.962000 -0.025242
-0.100021 1.960442 -0.025608
-0.090919 1.956121 -0.025893
-0.081552 1.958982 -0.026338
-0.072000 1.965207 -0.026854
-0.062702 1.965525 -0.027214
-0.053215 1.969156 -0.027643
-0.043409 1.977419 -0.028176
-0.033903 1.980011 -0.028557
-0.024299 1.983640 -0.028952
-0.014322 1.991759 -0.029450
-0.004341 1.998956 -0.029915
0.005431 2.002890 -0.030285
0.015248 2.006877 -0.030646
0.025175 2.011601 -0.031015
0.034802 2.012797 -0.031282
0.044591 2.015411 -0.031574
0.053873 2.013049 -0.031724
0.062774 2.007451 -0.031778
0.072102 2.005869 -0.031926
0.084010 2.025495 -0.032625
0.094671 2.033770 -0.033014
0.105644 2.043758 -0.033440
0.115460 2.044480 -0.033609
0.124997 2.043101 -0.033711
0.135183 2.046199 -0.033922
0.146333 2.055455 -0.034290
0.155769 2.052991 -0.034332
0.165173 2.050392 -0.034361
0.175257 2.052006 -0.034493
0.185113 2.052094 -0.034575
0.194307 2.048280 -0.034541
0.203273 2.043306 -0.034466
0.211828 2.036252 -0.034324
0.220395 2.029539 -0.034183
0.229002 2.023278 -0.034044
0.237754 2.017967 -0.033923
0.245325 2.006969 -0.033637
0.253390 1.998785 -0.033420
0.261031 1.988882 -0.033147
0.268821 1.980015 -0.032894
0.276733 1.972000 -0.032656
0.284482 1.963520 -0.032398
0.292488 1.956418 -0.032169
0.300788 1.950770 -0.031971
0.308345 1.942176 -0.031687
0.315574 1.932494 -0.031365
0.322535 1.922034 -0.031014
0.330078 1.914166 -0.030727
0.337691 1.906783 -0.030446
0.343745 1.893698 -0.030004
0.351003 1.885467 -0.029686
0.359699 1.882684 -0.029508
0.370089 1.885978 -0.029486
0.376375 1.874641 -0.029063
0.380767 1.857067 -0.028468
0.386394 1.844198 -0.027993
0.395213 1.842334 -0.027805
0.401151 1.830980 -0.027357
0.393956 1.777462 -0.025791
0.395691 1.753975 -0.025016
0.409812 1.769923 -0.025272
0.418290 1.767906 -0.025048
0.423876 1.757092 -0.024588
0.429036 1.745252 -0.024095
0.431485 1.725705 -0.023398
0.438971 1.721267 -0.023085
0.444503 1.711295 -0.022624
0.451425 1.705445 -0.022263
0.457301 1.696778 -0.021823
0.464386 1.691587 -0.021464
0.470575 1.684045 -0.021040
0.470936 1.661123 -0.020226
0.476552 1.652541 -0.019765
0.478450 1.634487 -0.019065
0.484223 1.626735 -0.018614
0.489821 1.618670 -0.018148
0.494976 1.609635 -0.017653
0.499068 1.598149 -0.017093
0.500622 1.580733 -0.016387
0.506235 1.573389 -0.015915
0.509021 1.559479 -0.015283
0.514914 1.553081 -0.014821
0.520858 1.546884 -0.014357
0.521542 1.528798 -0.013613
0.527228 1.522310 -0.013130
0.532465 1.514904 -0.012618
0.538921 1.510267 -0.012161
0.546094 1.507214 -0.011730
0.547590 1.492007 -0.011026
0.556273 1.492270 -0.010650
0.562889 1.488127 -0.010169
0.558893 1.462084 -0.009222
0.559263 1.445472 -0.008471
0.560925 1.431765 -0.007777
0.565410 1.423921 -0.007197
0.567574 1.411592 -0.006521
0.567798 1.395678 -0.005771
0.572413 1.388501 -0.005186
0.579998 1.387061 -0.004701
0.585218 1.381112 -0.004122
0.591205 1.376638 -0.003560
0.595139 1.368390 -0.002921
0.600815 1.363414 -0.002333
0.604899 1.355589 -0.001687
0.607711 1.345574 -0.000996
0.611144 1.336783 -0.000320
0.615056 1.328930 0.000348
0.619441 1.321972 0.001008
0.623406 1.314356 0.001686
0.627621 1.307235 0.002364
0.631846 1.300192 0.003048
0.636385 1.293728 0.003732
0.640691 1.286927 0.004427
0.644200 1.278885 0.005145
0.648534 1.272246 0.005851
0.652600 1.265229 0.006569
0.656649 1.258242 0.007291
0.661285 1.252223 0.008009
0.665851 1.246130 0.008733
0.668802 1.237612 0.009486
0.673057 1.231150 0.010223
0.676178 1.223037 0.010978
0.680582 1.216901 0.011718
0.684695 1.210379 0.012463
0.688746 1.203818 0.013210
0.693463 1.198263 0.013951
0.697478 1.191744 0.014698
0.699790 1.182881 0.015456
0.704108 1.176916 0.016194
0.708736 1.171426 0.016927
0.712757 1.165147 0.017658
0.716776 1.158925 0.018382
0.720481 1.152342 0.019099
0.722889 1.144109 0.019809
0.727419 1.138773 0.020501
0.732223 1.133849 0.021180
0.736757 1.128627 0.021845
0.739078 1.120639 0.022493
0.742045 1.113588 0.023121
0.746500 1.108507 0.023729
0.749931 1.102227 0.024313
0.753663 1.096420 0.024873
0.757642 1.091010 0.025407
0.759772 1.083459 0.025906
0.763584 1.078064 0.026380
0.768846 1.074496 0.026831
0.774396 1.071344 0.027250
0.777927 1.065913 0.027625
0.781443 1.060583 0.027964
0.783630 1.053850 0.028257
0.786968 1.048577 0.028518
0.790567 1.043729 0.028742
0.794176 1.039017 0.028927
0.797708 1.034346 0.029071
0.803338 1.032116 0.029190
0.799307 1.019412 0.029198
0.802832 1.015165 0.029220
0.809259 1.014173 0.029224
0.813578 1.011007 0.029172
0.815283 1.005180 0.029062
0.818759 1.001373 0.028926
0.817580 0.992818 0.028721
0.821143 0.989383 0.028511
0.823710 0.985037 0.028259
-0.554487 1.619054 -0.010697
-0.550492 1.626988 -0.010296
-0.545669 1.631931 -0.009872
-0.540117 1.634189 -0.009436
-0.533586 1.632486 -0.008967
-0.526448 1.628349 -0.008496
-0.521488 1.634812 -0.008263
-0.516970 1.644107 -0.008124
-0.511672 1.650383 -0.007972
-0.505533 1.653162 -0.007802
-0.499094 1.654989 -0.007660
-0.492032 1.654112 -0.007517
-0.486192 1.660187 -0.007540
-0.481762 1.674695 -0.007755
-0.474719 1.675759 -0.007780
-0.467460 1.676093 -0.007837
-0.460499 1.678645 -0.007975
-0.454381 1.686843 -0.008254
-0.446726 1.686416 -0.008422
-0.438689 1.683947 -0.008593
-0.430529 1.680931 -0.008788
-0.423683 1.686974 -0.009182
-0.420056 1.716153 -0.010035
-0.412937 1.722508 -0.010507
-0.405409 1.726582 -0.010967
-0.398398 1.735232 -0.011542
-0.391077 1.742329 -0.012114
-0.382269 1.737926 -0.012488
-0.374133 1.739190 -0.012990
-0.366322 1.743695 -0.013575
-0.360148 1.764127 -0.014500
-0.353743 1.784332 -0.015445
-0.343764 1.769909 -0.015687
-0.335438 1.771987 -0.016279
-0.327686 1.780898 -0.017026
-0.319769 1.788907 -0.017763
-0.311947 1.799139 -0.018556
-0.303521 1.802495 -0.019203
-0.295121 1.806685 -0.019869
-0.286803 1.812707 -0.020579
-0.278523 1.820271 -0.021326
-0.270246 1.829101 -0.022102
-0.262072 1.841541 -0.022965
-0.253303 1.843280 -0.023569
-0.244591 1.846658 -0.024207
-0.235851 1.849923 -0.024836
-0.227124 1.854283 -0.025486
-0.218395 1.859807 -0.026158
-0.209690 1.868331 -0.026900
-0.200747 1.867227 -0.027386
-0.191640 1.851621 -0.027480
-0.183028 1.878839 -0.028690
-0.174207 1.917447 -0.030207
-0.165085 1.919972 -0.030757
-0.155955 1.921211 -0.031260
-0.146819 1.922638 -0.031757
-0.137759 1.918720 -0.032094
-0.128394 1.932228 -0.032903
-0.119118 1.937250 -0.033466
-0.109383 1.956575 -0.034424
-0.100156 1.955757 -0.034802
-0.090873 1.956706 -0.035218
-0.081371 1.962607 -0.035764
-0.071954 1.965670 -0.036218
-0.062626 1.966523 -0.036595
-0.053051 1.971591 -0.037083
-0.043481 1.975851 -0.037537
-0.033893 1.979774 -0.037970
-0.024251 1.983954 -0.038400
-0.014471 1.989428 -0.038857
-0.004415 1.997687 -0.039388
0.005322 2.001260 -0.039768
0.015293 2.007036 -0.040203
0.025186 2.011384 -0.040585
0.035146 2.015946 -0.040962
0.044759 2.016699 -0.041212
0.053949 2.013411 -0.041326
0.062473 2.004431 -0.041251
0.071889 2.003709 -0.041421
0.083193 2.018441 -0.042062
0.094802 2.034431 -0.042735
0.105084 2.039115 -0.043045
0.114947 2.040320 -0.043236
0.124359 2.038171 -0.043311
0.135339 2.046866 -0.043718
0.146259 2.054541 -0.044085
0.156038 2.054296 -0.044191
0.165267 2.050540 -0.044176
0.175462 2.052797 -0.044342
0.185314 2.052817 -0.044428
0.194622 2.049612 -0.044402
0.203249 2.042679 -0.044247
0.212034 2.036879 -0.044120
0.220774 2.031044 -0.043982
0.229628 2.026005 -0.043860
0.236975 2.013479 -0.043490
0.244995 2.004786 -0.043234
0.253259 1.997596 -0.043018
0.261565 1.990837 -0.042807
0.269549 1.982800 -0.042547
0.276734 1.971417 -0.042172
0.284346 1.962318 -0.041863
0.292323 1.955095 -0.041605
0.299961 1.946639 -0.041301
0.307819 1.939360 -0.041027
0.315480 1.931473 -0.040726
0.323201 1.924048 -0.040433
0.330933 1.916863 -0.040141
0.337760 1.906386 -0.039736
0.343703 1.892869 -0.039229
0.351600 1.887004 -0.038957
0.362567 1.892437 -0.039038
0.366617 1.872861 -0.038318
0.374639 1.867838 -0.038054
0.375517 1.838228 -0.037007
0.382664 1.830820 -0.036655
0.395627 1.842996 -0.036911
0.399844 1.825965 -0.036244
0.393490 1.775245 -0.034519
0.395654 1.753149 -0.033687
0.408701 1.765726 -0.033928
0.417203 1.763826 -0.033711
0.423447 1.755059 -0.033275
0.432101 1.753676 -0.033061
0.432462 1.727851 -0.032088
0.439831 1.723026 -0.031756
0.444136 1.709510 -0.031152
0.450587 1.702348 -0.030736
0.458266 1.698716 -0.030421
0.463393 1.688130 -0.029889
0.468874 1.678713 -0.029387
0.469928 1.657706 -0.028533
0.476070 1.650540 -0.028087
0.480225 1.638349 -0.027487
0.485369 1.628930 -0.026963
0.491906 1.623191 -0.026541
0.493555 1.605375 -0.025760
0.497733 1.594150 -0.025168
0.501854 1.582998 -0.024571
0.506803 1.574031 -0.024033
0.511244 1.564014 -0.023458
0.515370 1.553436 -0.022862
0.520850 1.546158 -0.022352
0.522327 1.529884 -0.021585
0.527255 1.521676 -0.021038
0.532496 1.514283 -0.020507
0.537710 1.506928 -0.019970
0.542456 1.498655 -0.019401
0.547812 1.491803 -0.018864
0.557582 1.494360 -0.018569
0.557355 1.475899 -0.017708
0.555675 1.454784 -0.016776
0.557731 1.441699 -0.016052
0.566207 1.441778 -0.015659
0.573723 1.439859 -0.015204
0.573832 1.423303 -0.014373
0.569751 1.398868 -0.013345
0.574582 1.392070 -0.012750
0.580173 1.386790 -0.012184
0.586214 1.382389 -0.011629
0.589684 1.373210 -0.010953
0.595317 1.368131 -0.010366
0.600324 1.361939 -0.009743
0.604354 1.354030 -0.009074
0.607330 1.344327 -0.008358
0.610947 1.335875 -0.007663
0.615341 1.328873 -0.006993
0.619416 1.321382 -0.006304
0.623632 1.314202 -0.005615
0.627766 1.306945 -0.004916
0.631946 1.299830 -0.004213
0.636809 1.293907 -0.003526
0.640924 1.286790 -0.002808
0.645487 1.280459 -0.002098
0.648449 1.271601 -0.001335
0.652292 1.264234 -0.000594
0.656388 1.257330 0.000145
0.661677 1.252331 0.000859
0.665277 1.244747 0.001621
0.668663 1.236903 0.002391
0.672588 1.229944 0.003152
0.677114 1.223938 0.003902
0.681560 1.217848 0.004658
0.685866 1.211592 0.005419
0.689264 1.204061 0.006199
0.693882 1.198352 0.006956
0.698219 1.192277 0.007719
0.700915 1.183937 0.008506
0.704198 1.176504 0.009280
0.708429 1.170453 0.010036
0.712581 1.164344 0.010788
0.716039 1.157351 0.011543
0.720286 1.151487 0.012280
0.724230 1.145276 0.013011
0.728021 1.138929 0.013733
0.732618 1.133703 0.014436
0.736086 1.127077 0.015133
0.740047 1.121165 0.015811
0.744051 1.115385 0.016470
0.746959 1.108309 0.017116
0.750089 1.101615 0.017737
0.752349 1.093959 0.018337
0.755256 1.087218 0.018907
0.759059 1.081677 0.019447
0.762217 1.075463 0.019958
0.767945 1.072418 0.020433
0.773430 1.069152 0.020878
0.777982 1.064875 0.021291
0.780640 1.058506 0.021670
0.782610 1.051486 0.022011
0.785122 1.045235 0.022314
0.790226 1.042052 0.022578
0.794789 1.038361 0.022803
0.798981 1.034368 0.022987
0.801616 1.028778 0.023130
0.798153 1.016673 0.023225
0.803137 1.013969 0.023288
0.808481 1.011758 0.023310
0.812828 1.008581 0.023292
0.817664 1.006037 0.023233
0.821459 1.002504 0.023134
0.822825 0.996555 0.022994
0.823474 0.990016 0.022816
0.831772 0.991523 0.022605
-0.555017 1.615527 -0.017401
-0.551642 1.626244 -0.017132
-0.546427 1.629621 -0.016726
-0.540324 1.629558 -0.016280
-0.533677 1.627458 -0.015830
-0.527859 1.629571 -0.015518
-0.522751 1.635561 -0.015337
-0.518151 1.644672 -0.015267
-0.512683 1.650347 -0.015164
-0.506738 1.654332 -0.015067
-0.499392 1.651806 -0.014873
-0.493076 1.655003 -0.014850
-0.487003 1.660106 -0.014913
-0.482041 1.671943 -0.015168
-0.475674 1.676976 -0.015318
-0.468755 1.679558 -0.015458
-0.462239 1.685070 -0.015706
-0.454560 1.684318 -0.015856
-0.447338 1.686774 -0.016117
-0.438826 1.681582 -0.016245
-0.430844 1.679938 -0.016486
-0.423786 1.684784 -0.016907
-0.420647 1.717501 -0.017999
-0.414524 1.731297 -0.018696
-0.404242 1.715494 -0.018736
-0.397702 1.727607 -0.019451
-0.390077 1.732242 -0.020017
-0.382576 1.738498 -0.020643
-0.374615 1.741528 -0.021212
-0.366586 1.744391 -0.021794
-0.359174 1.753458 -0.022545
-0.353966 1.785087 -0.023882
-0.343557 1.766496 -0.023964
-0.336005 1.776929 -0.024792
-0.327824 1.781413 -0.025475
-0.319623 1.786209 -0.026173
-0.311493 1.792501 -0.026915
-0.303488 1.801295 -0.027729
-0.295020 1.804558 -0.028396
-0.286963 1.814629 -0.029250
-0.278662 1.822123 -0.030035
-0.270204 1.827941 -0.030771
-0.261623 1.832248 -0.031462
-0.253132 1.839279 -0.032227
-0.244525 1.844858 -0.032946
-0.235878 1.850567 -0.033663
-0.227200 1.856693 -0.034387
-0.218597 1.867465 -0.035244
-0.209728 1.870265 -0.035855
-0.200731 1.866669 -0.036260
-0.191629 1.851268 -0.036287
-0.183003 1.876692 -0.037568
-0.174206 1.919842 -0.039407
-0.165068 1.925082 -0.040055
-0.156002 1.911739 -0.040099
-0.146913 1.912926 -0.040592
-0.137625 1.926797 -0.041484
-0.128341 1.934338 -0.042162
-0.119071 1.938733 -0.042728
-0.109550 1.950484 -0.043527
-0.100101 1.957047 -0.044144
-0.090788 1.958620 -0.044585
-0.081340 1.963066 -0.045111
-0.072036 1.963693 -0.045496
-0.062609 1.966617 -0.045947
-0.052962 1.972929 -0.046502
-0.043400 1.976938 -0.046968
-0.033845 1.980284 -0.047400
-0.024034 1.986796 -0.047931
-0.014271 1.991867 -0.048402
-0.004510 1.996296 -0.048839
0.005178 1.999340 -0.049218
0.014766 2.000927 -0.049535
0.024939 2.008527 -0.050053
0.035080 2.015044 -0.050522
0.044905 2.017857 -0.050851
0.053843 2.012177 -0.050867
0.062606 2.005349 -0.050830
0.072601 2.009498 -0.051174
0.083638 2.021797 -0.051801
0.094425 2.031153 -0.052314
0.104735 2.036142 -0.052661
0.114553 2.037097 -0.052852
0.124166 2.036456 -0.052976
0.135192 2.045493 -0.053442
0.146585 2.056341 -0.053964
0.156129 2.054496 -0.054016
0.165521 2.051728 -0.054025
0.175373 2.051836 -0.054130
0.185540 2.053720 -0.054290
0.194878 2.050643 -0.054260
0.203309 2.042555 -0.054037
0.211882 2.035574 -0.053846
0.221019 2.031858 -0.053765
0.229149 2.023014 -0.053487
0.236560 2.010864 -0.053080
0.244782 2.003211 -0.052829
0.253139 1.996476 -0.052604
0.261139 1.988272 -0.052316
0.269391 1.981509 -0.052073
0.277295 1.973376 -0.051773
0.284623 1.962959 -0.051381
0.292275 1.954289 -0.051045
0.300093 1.946593 -0.050738
0.307564 1.937679 -0.050379
0.315146 1.929481 -0.050040
0.323522 1.924689 -0.049818
0.331422 1.918133 -0.049524
0.337125 1.903283 -0.048921
0.344086 1.893647 -0.048501
0.351520 1.886030 -0.048149
0.360712 1.885000 -0.048031
0.367483 1.875263 -0.047588
0.371246 1.855217 -0.046764
0.377595 1.844703 -0.046281
0.383860 1.834170 -0.045792
0.390279 1.824423 -0.045325
0.402386 1.833587 -0.045536
0.391966 1.769611 -0.043099
0.396219 1.754230 -0.042415
0.409821 1.768502 -0.042791
0.417393 1.763678 -0.042473
0.425079 1.759271 -0.042164
0.434530 1.760185 -0.042038
0.435240 1.735280 -0.040985
0.440090 1.723032 -0.040379
0.445525 1.712733 -0.039837
0.451245 1.703451 -0.039325
0.455944 1.691527 -0.038715
0.461656 1.682630 -0.038206
0.461912 1.659193 -0.037182
0.469450 1.655688 -0.036851
0.475803 1.649093 -0.036406
0.481850 1.641805 -0.035930
0.486196 1.630297 -0.035302
0.491560 1.621575 -0.034766
0.490363 1.596708 -0.033671
0.497539 1.592938 -0.033293
0.502318 1.583387 -0.032712
0.506361 1.572245 -0.032071
0.511137 1.563035 -0.031490
0.515798 1.553710 -0.030899
0.520690 1.545069 -0.030325
0.525688 1.536806 -0.029757
0.526828 1.520008 -0.028903
0.532165 1.512843 -0.028360
0.535732 1.501895 -0.027687
0.540525 1.493782 -0.027100
0.546478 1.488260 -0.026589
0.542617 1.462059 -0.025414
0.549007 1.457791 -0.024931
0.555053 1.452829 -0.024418
0.557223 1.440000 -0.023653
0.556917 1.422391 -0.022736
0.567688 1.427175 -0.022500
0.576770 1.428442 -0.022144
0.569288 1.397331 -0.020806
0.574577 1.391432 -0.020222
0.580684 1.387140 -0.019677
0.586304 1.381940 -0.019095
0.591031 1.375108 -0.018458
0.595499 1.367862 -0.017802
0.600605 1.361852 -0.017172
0.603520 1.351935 -0.016425
0.607283 1.343660 -0.015718
0.611835 1.336865 -0.015043
0.615829 1.329154 -0.014336
0.620106 1.322009 -0.013637
0.623088 1.312714 -0.012875
0.627505 1.305953 -0.012171
0.632271 1.299828 -0.011475
0.636649 1.293101 -0.010757
0.641165 1.286649 -0.010037
0.645276 1.279587 -0.009296
0.648813 1.271659 -0.008527
0.652775 1.264480 -0.007770
0.657412 1.258421 -0.007032
0.662092 1.252462 -0.006290
0.666738 1.246485 -0.005540
0.669564 1.237764 -0.004727
0.673443 1.230724 -0.003945
0.677969 1.224704 -0.003179
0.682345 1.218496 -0.002406
0.686309 1.211727 -0.001618
0.690008 1.204623 -0.000821
0.693801 1.197714 -0.000027
0.698191 1.191710 0.000752
0.701218 1.183829 0.001562
0.704571 1.176481 0.002362
0.708896 1.170545 0.003136
0.712934 1.164261 0.003912
0.716440 1.157314 0.004693
0.720001 1.150509 0.005465
0.724689 1.145272 0.006208
0.729103 1.139718 0.006946
0.732162 1.132457 0.007696
0.735458 1.125589 0.008427
0.740221 1.120683 0.009120
0.744701 1.115474 0.009802
0.748374 1.109318 0.010476
0.749446 1.100023 0.011159
0.752316 1.093090 0.011796
0.753287 1.083955 0.012426
0.757015 1.078305 0.012999
0.762297 1.074616 0.013529
0.762941 1.065495 0.014070
0.767027 1.060593 0.014549
0.774706 1.059978 0.014967
0.779777 1.056384 0.015372
0.780199 1.047554 0.015773
0.782829 1.041415 0.016120
0.786547 1.036641 0.016421
0.791950 1.033873 0.016673
0.796244 1.029970 0.016892
0.800173 1.025778 0.017072
0.804588 1.022242 0.017209
0.802291 1.011554 0.017338
0.807679 1.009347 0.017388
0.812628 1.006771 0.017399
0.817827 1.004566 0.017368
0.821839 1.001216 0.017302
0.823240 0.995261 0.017210
0.825234 0.990078 0.017077
0.825989 0.983765 0.016912
-0.562661 1.642389 -0.024966
-0.552199 1.623032 -0.023932
-0.546819 1.625803 -0.023557
-0.541082 1.627509 -0.023193
-0.535368 1.629819 -0.022887
-0.530423 1.636213 -0.022733
-0.525675 1.644216 -0.022663
-0.519631 1.646770 -0.022491
-0.513746 1.650670 -0.022400
-0.507219 1.651992 -0.022285
-0.500443 1.652575 -0.022196
-0.493398 1.652246 -0.022128
-0.487220 1.656973 -0.022238
-0.481861 1.666825 -0.022525
-0.476070 1.675190 -0.022818
-0.470065 1.683194 -0.023145
-0.462834 1.684889 -0.023347
-0.455390 1.685815 -0.023570
-0.447481 1.684344 -0.023766
-0.439842 1.684890 -0.024053
-0.431666 1.682341 -0.024290
-0.424856 1.689181 -0.024813
-0.422875 1.730279 -0.026308
-0.414773 1.730556 -0.026720
-0.406152 1.727301 -0.027061
-0.396843 1.718816 -0.027275
-0.390325 1.732161 -0.028126
-0.383845 1.747074 -0.029047
-0.378579 1.773836 -0.030336
-0.366980 1.746283 -0.030065
-0.362144 1.779719 -0.031593
-0.352860 1.772842 -0.031946
-0.344017 1.769921 -0.032422
-0.336108 1.776850 -0.033203
-0.327921 1.781422 -0.033918
-0.319536 1.784163 -0.034582
-0.311289 1.788989 -0.035314
-0.303209 1.796683 -0.036139
-0.295231 1.806854 -0.037045
-0.287357 1.820071 -0.038054
-0.278761 1.823169 -0.038735
-0.270084 1.825186 -0.039376
-0.261574 1.830763 -0.040130
-0.253069 1.837430 -0.040917
-0.244583 1.845869 -0.041760
-0.236100 1.856342 -0.042668
-0.227366 1.861652 -0.043395
-0.218701 1.871024 -0.044255
-0.209768 1.871756 -0.044807
-0.200739 1.866771 -0.045147
-0.191692 1.855947 -0.045265
-0.183022 1.878614 -0.046566
-0.174172 1.908646 -0.048133
-0.165080 1.918305 -0.048962
-0.156006 1.911538 -0.049183
-0.146943 1.910253 -0.049589
-0.137748 1.918880 -0.050350
-0.128229 1.940000 -0.051568
-0.118955 1.943480 -0.052121
-0.109463 1.953481 -0.052908
-0.100196 1.954258 -0.053337
-0.090776 1.958948 -0.053904
-0.081425 1.961107 -0.054362
-0.072168 1.960940 -0.054720
-0.062883 1.961377 -0.055088
-0.052966 1.972842 -0.055872
-0.043406 1.976807 -0.056356
-0.033739 1.981840 -0.056870
-0.023912 1.988461 -0.057437
-0.014211 1.992589 -0.057895
-0.004515 1.996138 -0.058320
0.005105 1.998390 -0.058683
0.014700 2.000078 -0.059013
0.024516 2.003904 -0.059418
0.034804 2.012106 -0.059987
0.044599 2.014743 -0.060324
0.053887 2.012415 -0.060451
0.062866 2.007467 -0.060461
0.072685 2.010008 -0.060763
0.084074 2.025149 -0.061567
0.094431 2.030959 -0.061983
0.104516 2.034218 -0.062287
0.114556 2.036847 -0.062555
0.124099 2.035687 -0.062660
0.134499 2.040425 -0.062996
0.146063 2.052536 -0.063626
0.156232 2.054821 -0.063845
0.165386 2.050523 -0.063784
0.175133 2.049997 -0.063868
0.185117 2.050819 -0.064000
0.194588 2.048559 -0.063995
0.203128 2.041112 -0.063768
0.211957 2.035538 -0.063609
0.220583 2.029081 -0.063404
0.228298 2.018121 -0.063005
0.236543 2.010286 -0.062727
0.244745 2.002524 -0.062443
0.252495 1.992847 -0.062072
0.260587 1.985133 -0.061774
0.269086 1.979554 -0.061557
0.277292 1.972802 -0.061284
0.284673 1.962606 -0.060861
0.292479 1.954588 -0.060521
0.300541 1.947897 -0.060229
0.307686 1.937577 -0.059779
0.315005 1.928286 -0.059365
0.323010 1.922014 -0.059069
0.330744 1.914831 -0.058729
0.337202 1.902929 -0.058187
0.343952 1.892480 -0.057698
0.352195 1.887861 -0.057445
0.358792 1.877331 -0.056941
0.365977 1.869192 -0.056529
0.371490 1.855377 -0.055877
0.377917 1.845109 -0.055366
0.384037 1.834062 -0.054817
0.389546 1.821260 -0.054190
0.394615 1.807352 -0.053512
0.391563 1.767595 -0.051771
0.394574 1.748285 -0.050864
0.412041 1.774710 -0.051819
0.420163 1.771466 -0.051555
0.425717 1.760457 -0.050968
0.427956 1.739807 -0.049986
0.432482 1.726423 -0.049293
0.439005 1.719137 -0.048843
0.447838 1.718578 -0.048657
0.451826 1.704330 -0.047914
0.454635 1.687140 -0.047048
0.460418 1.678486 -0.046520
0.466174 1.669926 -0.045990
0.469394 1.654782 -0.045192
0.475251 1.646888 -0.044678
0.480971 1.638774 -0.044148
0.485543 1.627872 -0.043504
0.489378 1.615328 -0.042789
0.489971 1.594985 -0.041765
0.500914 1.600461 -0.041744
0.501351 1.580302 -0.040718
0.505496 1.569435 -0.040049
0.510611 1.561053 -0.039471
0.515351 1.551931 -0.038858
0.519445 1.541474 -0.038188
0.522280 1.528337 -0.037410
0.525673 1.516695 -0.036685
0.530715 1.508910 -0.036100
0.536769 1.503448 -0.035595
0.543273 1.499011 -0.035121
0.543106 1.480347 -0.034112
0.550005 1.476961 -0.033663
0.551873 1.463078 -0.032821
0.557783 1.457772 -0.032287
0.562961 1.451015 -0.031692
0.561977 1.431916 -0.030647
0.567609 1.426348 -0.030083
0.576355 1.426956 -0.029729
0.574973 1.407750 -0.028667
0.574089 1.389847 -0.027650
0.580070 1.385330 -0.027094
0.586736 1.382118 -0.026574
0.591702 1.375726 -0.025936
0.596131 1.368403 -0.025258
0.599726 1.359634 -0.024524
0.603687 1.351626 -0.023809
0.607732 1.343857 -0.023094
0.611653 1.335948 -0.022368
0.616134 1.329098 -0.021668
0.619853 1.320989 -0.020920
0.623200 1.312330 -0.020148
0.627940 1.306117 -0.019446
0.632388 1.299459 -0.018722
0.636752 1.292711 -0.017987
0.640577 1.285132 -0.017220
0.645129 1.278800 -0.016483
0.649179 1.271703 -0.015716
0.653635 1.265307 -0.014962
0.658256 1.259211 -0.014210
0.663587 1.254255 -0.013483
0.667520 1.247158 -0.012689
0.670395 1.238504 -0.011849
0.673832 1.230785 -0.011029
0.677987 1.224205 -0.010235
0.682026 1.217500 -0.009434
0.685504 1.210021 -0.008610
0.689768 1.203747 -0.007813
0.694021 1.197497 -0.007014
0.697709 1.190489 -0.006195
0.701119 1.183147 -0.005370
0.705791 1.177629 -0.004585
0.709396 1.170674 -0.003770
0.713227 1.164092 -0.002967
0.717479 1.158136 -0.002180
0.720043 1.149970 -0.001354
0.724303 1.144147 -0.000582
0.728597 1.138422 0.000180
0.731503 1.130947 0.000965
0.734781 1.124044 0.001727
0.739715 1.119338 0.002437
0.744939 1.115048 0.003127
0.747594 1.107588 0.003853
0.751139 1.101339 0.004539
0.752068 1.091969 0.005251
0.754302 1.084341 0.005911
0.756714 1.077057 0.006540
0.761224 1.072408 0.007106
0.763179 1.064814 0.007683
0.767481 1.060120 0.008191
0.773129 1.057088 0.008648
0.779318 1.054754 0.009065
0.782548 1.049099 0.009488
0.782067 1.039361 0.009920
0.785248 1.033944 0.010265
0.790200 1.030634 0.010549
0.794412 1.026606 0.010803
0.794820 1.018517 0.011060
0.796495 1.011992 0.011260
0.804470 1.012437 0.011347
0.807770 1.007923 0.011447
0.812896 1.005487 0.011484
0.817464 1.002564 0.011487
0.820930 0.998601 0.011461
0.823401 0.993728 0.011406
0.825786 0.988909 0.011312
0.833332 0.989531 0.011123
-0.561682 1.632567 -0.031610
-0.554047 1.625480 -0.030922
-0.548200 1.626427 -0.030533
-0.542002 1.626282 -0.030151
-0.536070 1.627781 -0.029863
-0.532441 1.640393 -0.029962
-0.527442 1.647488 -0.029932
-0.521050 1.648663 -0.029762
-0.514286 1.648541 -0.029598
-0.507753 1.650030 -0.029528
-0.501184 1.651866 -0.029513
-0.494370 1.652973 -0.029521
-0.488514 1.659667 -0.029744
-0.482311 1.665241 -0.029977
-0.475593 1.668674 -0.030187
-0.469751 1.677695 -0.030611
-0.463100 1.682889 -0.030959
-0.455661 1.684054 -0.031222
-0.448120 1.685058 -0.031516
-0.440094 1.683444 -0.031765
-0.432391 1.684195 -0.032120
-0.424860 1.686494 -0.032555
-0.421860 1.720634 -0.034036
-0.414337 1.724981 -0.034601
-0.406392 1.726778 -0.035109
-0.398374 1.728411 -0.035635
-0.390616 1.732465 -0.036260
-0.382728 1.735966 -0.036887
-0.374897 1.740431 -0.037562
-0.367276 1.747302 -0.038334
-0.359759 1.755884 -0.039179
-0.354166 1.784189 -0.040718
-0.344279 1.771291 -0.040847
-0.335848 1.772829 -0.041479
-0.328023 1.781447 -0.042366
-0.319383 1.781275 -0.042945
-0.311521 1.790964 -0.043880
-0.303395 1.798291 -0.044733
-0.295204 1.805612 -0.045587
-0.287017 1.813974 -0.046480
-0.278576 1.819292 -0.047259
-0.269974 1.822456 -0.047954
-0.261942 1.837393 -0.049091
-0.252985 1.834900 -0.049562
-0.244673 1.847411 -0.050601
-0.236128 1.856428 -0.051502
-0.227445 1.863440 -0.052320
-0.218646 1.868217 -0.053044
-0.209760 1.870537 -0.053662
-0.200778 1.868024 -0.054076
-0.191781 1.861757 -0.054327
-0.182978 1.871207 -0.055199
-0.174169 1.903055 -0.056977
-0.165105 1.910943 -0.057776
-0.156041 1.908075 -0.058124
-0.146920 1.913734 -0.058811
-0.137812 1.915590 -0.059330
-0.128565 1.923854 -0.060105
-0.118782 1.951040 -0.061669
-0.109506 1.952445 -0.062141
-0.100230 1.953631 -0.062591
-0.090999 1.953468 -0.062971
-0.081455 1.960675 -0.063655
-0.072232 1.959837 -0.063983
-0.062862 1.961969 -0.064427
-0.053281 1.967493 -0.065007
-0.043503 1.975380 -0.065680
-0.033901 1.979510 -0.066179
-0.024072 1.986301 -0.066784
-0.014427 1.989803 -0.067235
-0.004622 1.994854 -0.067745
0.005169 1.999160 -0.068211
0.014763 2.000788 -0.068548
0.024450 2.003183 -0.068909
0.034404 2.008016 -0.069368
0.044338 2.012162 -0.069788
0.053649 2.010122 -0.069920
0.062692 2.005821 -0.069938
0.072988 2.012460 -0.070441
0.084505 2.028532 -0.071361
0.093837 2.026103 -0.071435
0.103617 2.027183 -0.071659
0.114573 2.036759 -0.072260
0.123650 2.032267 -0.072212
0.133537 2.033556 -0.072418
0.146828 2.057351 -0.073643
0.156273 2.054789 -0.073657
0.165443 2.050561 -0.073584
0.174935 2.048456 -0.073600
0.184718 2.048100 -0.073688
0.194410 2.047159 -0.073740
0.203647 2.043626 -0.073664
0.212251 2.036731 -0.073425
0.220964 2.030674 -0.073217
0.228912 2.020856 -0.072826
0.236716 2.010698 -0.072411
0.245026 2.003428 -0.072122
0.253134 1.995433 -0.071791
0.260329 1.983402 -0.071266
0.268904 1.978182 -0.071048
0.277140 1.971571 -0.070759
0.284703 1.962179 -0.070333
0.292714 1.955033 -0.070005
0.300663 1.947826 -0.069666
0.308030 1.938407 -0.069219
0.314796 1.926824 -0.068665
0.322666 1.920016 -0.068325
0.330355 1.912671 -0.067953
0.337844 1.904747 -0.067549
0.344945 1.895568 -0.067080
0.349995 1.879044 -0.066266
0.359017 1.877469 -0.066136
0.365023 1.865094 -0.065502
0.372008 1.856499 -0.065036
0.375701 1.836758 -0.064051
0.381637 1.825207 -0.063438
0.389386 1.820009 -0.063111
0.399246 1.821822 -0.063099
0.390407 1.763145 -0.060312
0.394784 1.748234 -0.059525
0.413071 1.777189 -0.060736
0.420529 1.771845 -0.060374
0.425251 1.758293 -0.059631
0.429809 1.744584 -0.058877
0.435083 1.733310 -0.058228
0.443287 1.730775 -0.057970
0.446715 1.714610 -0.057089
0.452557 1.705618 -0.056528
0.454112 1.684926 -0.055434
0.460903 1.679046 -0.055003
0.466566 1.670212 -0.054433
0.470969 1.658198 -0.053715
0.473787 1.642284 -0.052819
0.479422 1.634001 -0.052258
0.484725 1.625019 -0.051660
0.488892 1.613339 -0.050938
0.495146 1.607069 -0.050449
0.498572 1.593957 -0.049652
0.502199 1.581593 -0.048884
0.505538 1.568779 -0.048091
0.509674 1.558090 -0.047387
0.514138 1.548356 -0.046718
0.518710 1.539037 -0.046062
0.523643 1.530685 -0.045442
0.526074 1.516854 -0.044580
0.531946 1.510900 -0.044051
0.538926 1.507434 -0.043620
0.544368 1.500647 -0.043041
0.546653 1.487200 -0.042174
0.549260 1.474671 -0.041340
0.553427 1.465607 -0.040647
0.559387 1.460370 -0.040106
0.564243 1.452923 -0.039466
0.567859 1.443068 -0.038720
0.571072 1.432554 -0.037941
0.574850 1.423307 -0.037208
0.573670 1.404539 -0.036084
0.573345 1.387751 -0.035037
0.579940 1.384422 -0.034525
0.586279 1.380603 -0.033984
0.591723 1.375118 -0.033367
0.595957 1.367439 -0.032657
0.599617 1.358799 -0.031902
0.604211 1.351943 -0.031209
0.607972 1.343662 -0.030454
0.611862 1.335701 -0.029703
0.615959 1.328183 -0.028962
0.619387 1.319584 -0.028174
0.623906 1.312940 -0.027451
0.628394 1.306297 -0.026720
0.632783 1.299537 -0.025976
0.634923 1.289111 -0.025095
0.640335 1.284166 -0.024402
0.645498 1.278831 -0.023686
0.649708 1.271991 -0.022910
0.653945 1.265243 -0.022130
0.658540 1.259104 -0.021364
0.663561 1.253666 -0.020613
0.668336 1.247867 -0.019844
0.670806 1.238589 -0.018955
0.674058 1.230586 -0.018104
0.678247 1.224055 -0.017295
0.681642 1.216395 -0.016447
0.685299 1.209183 -0.015608
0.689625 1.202999 -0.014798
0.694503 1.197645 -0.014009
0.698864 1.191581 -0.013196
0.702581 1.184650 -0.012357
0.705821 1.177112 -0.011501
0.709183 1.169815 -0.010654
0.713100 1.163342 -0.009831
0.716626 1.156395 -0.009000
0.720283 1.149691 -0.008179
0.723865 1.142952 -0.007364
0.727104 1.135831 -0.006547
0.729830 1.128124 -0.005726
0.734531 1.123052 -0.004978
0.739756 1.118697 -0.004257
0.743992 1.113132 -0.003522
0.747833 1.107139 -0.002792
0.749406 1.098416 -0.002022
0.753422 1.092827 -0.001339
0.752782 1.081656 -0.000564
0.758329 1.078133 0.000031
0.759711 1.069690 0.000698
0.766447 1.067737 0.001213
0.769557 1.061567 0.001781
0.775335 1.058621 0.002259
0.780664 1.055226 0.002714
0.785975 1.051892 0.003136
0.783991 1.040377 0.003664
0.785960 1.033532 0.004073
0.790540 1.029753 0.004394
0.796045 1.027103 0.004658
0.796804 1.019340 0.004967
0.797230 1.011395 0.005239
0.803444 1.009880 0.005368
0.809614 1.008402 0.005457
0.813010 1.004064 0.005552
0.816587 1.000049 0.005602
0.819787 0.995769 0.005617
0.822714 0.991338 0.005596
0.827906 0.989383 0.005497
0.830103 0.984459 0.005408
-0.559600 1.618224 -0.038044
-0.555761 1.627418 -0.037950
-0.549889 1.628473 -0.037601
-0.543156 1.626187 -0.037174
-0.537519 1.629213 -0.036979
-0.533057 1.638198 -0.037038
-0.527773 1.644126 -0.037030
-0.521472 1.645896 -0.036920
-0.514501 1.644948 -0.036759
-0.508093 1.647218 -0.036757
-0.502963 1.656512 -0.037043
-0.496611 1.660350 -0.037184
-0.489980 1.663354 -0.037339
-0.482588 1.662829 -0.037414
-0.476139 1.667941 -0.037729
-0.470080 1.675951 -0.038187
-0.463228 1.680183 -0.038553
-0.456139 1.683626 -0.038929
-0.448796 1.686092 -0.039308
-0.440839 1.685192 -0.039600
-0.432685 1.683315 -0.039888
-0.425186 1.686035 -0.040372
-0.421617 1.716422 -0.041893
-0.414388 1.722955 -0.042577
-0.405178 1.715568 -0.042773
-0.398811 1.729656 -0.043785
-0.390573 1.730146 -0.044312
-0.382370 1.731161 -0.044874
-0.374966 1.739288 -0.045723
-0.367654 1.749058 -0.046650
-0.360975 1.765722 -0.047860
-0.353863 1.779791 -0.048986
-0.343960 1.766682 -0.049054
-0.335824 1.771312 -0.049823
-0.327754 1.777208 -0.050647
-0.320034 1.787975 -0.051672
-0.311770 1.793075 -0.052471
-0.303535 1.799173 -0.053313
-0.295779 1.812966 -0.054473
-0.287447 1.819726 -0.055343
-0.278685 1.820218 -0.055948
-0.269982 1.821706 -0.056589
-0.261911 1.835872 -0.057764
-0.253422 1.843598 -0.058662
-0.244983 1.854067 -0.059674
-0.236219 1.857956 -0.060396
-0.227374 1.860124 -0.061035
-0.218621 1.866068 -0.061831
-0.209769 1.869598 -0.062512
-0.200793 1.867231 -0.062921
-0.191716 1.854397 -0.062847
-0.182928 1.861437 -0.063651
-0.174220 1.910407 -0.066352
-0.165145 1.901320 -0.066414
-0.156006 1.918153 -0.067649
-0.146989 1.909716 -0.067714
-0.137895 1.911836 -0.068252
-0.128294 1.938698 -0.069931
-0.118875 1.948283 -0.070801
-0.109450 1.955226 -0.071538
-0.100356 1.950657 -0.071722
-0.091008 1.953884 -0.072261
-0.081606 1.957719 -0.072819
-0.072138 1.962272 -0.073400
-0.062611 1.967172 -0.073987
-0.053248 1.968446 -0.074390
-0.043779 1.971227 -0.074854
-0.034062 1.977373 -0.075470
-0.024413 1.981733 -0.075990
-0.014643 1.987153 -0.076552
-0.004732 1.993660 -0.077157
0.005190 1.999559 -0.077723
0.014992 2.003455 -0.078182
0.024585 2.004704 -0.078500
0.034596 2.010014 -0.079009
0.044359 2.012387 -0.079362
0.053474 2.008504 -0.079396
0.062656 2.005472 -0.079462
0.072661 2.009626 -0.079874
0.084875 2.031482 -0.081162
0.093674 2.024708 -0.081012
0.103258 2.024324 -0.081172
0.113103 2.025798 -0.081416
0.121522 2.016972 -0.081133
0.133288 2.031634 -0.082022
0.146423 2.054422 -0.083314
0.156730 2.057484 -0.083604
0.165501 2.050647 -0.083386
0.174940 2.048186 -0.083381
0.184762 2.048038 -0.083484
0.194486 2.047249 -0.083546
0.204038 2.045449 -0.083548
0.212782 2.039243 -0.083319
0.221202 2.031534 -0.083006
0.229472 2.023340 -0.082659
0.237439 2.013915 -0.082242
0.245709 2.006346 -0.081911
0.253626 1.997332 -0.081499
0.261276 1.987373 -0.081031
0.268920 1.977742 -0.080573
0.277421 1.972310 -0.080321
0.285333 1.964420 -0.079937
0.293012 1.955758 -0.079507
0.300958 1.948501 -0.079142
0.307989 1.937644 -0.078586
0.315869 1.930587 -0.078218
0.323812 1.923971 -0.077865
0.330992 1.914533 -0.077362
0.338199 1.905468 -0.076873
0.343978 1.891264 -0.076115
0.350931 1.881843 -0.075595
0.360540 1.882327 -0.075573
0.367892 1.874651 -0.075130
0.370084 1.849050 -0.073769
0.376259 1.837981 -0.073143
0.377711 1.811186 -0.071712
0.385571 1.806569 -0.071402
0.398804 1.819640 -0.071983
0.391586 1.766227 -0.069190
0.395018 1.748251 -0.068189
0.411828 1.772559 -0.069319
0.418523 1.764920 -0.068828
0.424476 1.755190 -0.068226
0.430743 1.746610 -0.067676
0.434990 1.732273 -0.066832
0.442915 1.728927 -0.066535
0.450409 1.724369 -0.066171
0.451767 1.702623 -0.064941
0.456198 1.689929 -0.064159
0.461506 1.679915 -0.063507
0.467013 1.670636 -0.062886
0.470189 1.655347 -0.061961
0.474647 1.643758 -0.061215
0.479800 1.634200 -0.060565
0.485507 1.626233 -0.059989
0.489952 1.615226 -0.059256
0.492947 1.600836 -0.058353
0.499912 1.596463 -0.057936
0.505964 1.589919 -0.057405
0.504324 1.565114 -0.055979
0.509774 1.557560 -0.055390
0.513381 1.545833 -0.054593
0.518681 1.538208 -0.053988
0.523726 1.530115 -0.053355
0.528110 1.520663 -0.052651
0.532921 1.512306 -0.051993
0.541156 1.511558 -0.051691
0.548910 1.509711 -0.051328
0.545337 1.483651 -0.049812
0.546949 1.469062 -0.048836
0.550983 1.459785 -0.048105
0.553453 1.447419 -0.047224
0.558711 1.440938 -0.046612
0.566087 1.438786 -0.046192
0.571170 1.432041 -0.045552
0.574656 1.422224 -0.044763
0.573560 1.403633 -0.043569
0.575031 1.390315 -0.042611
0.579794 1.383468 -0.041941
0.586215 1.379809 -0.041407
0.591220 1.373515 -0.040745
0.594952 1.364930 -0.039975
0.599385 1.357723 -0.039258
0.604192 1.351261 -0.038566
0.608311 1.343627 -0.037815
0.612160 1.335594 -0.037039
0.615684 1.327078 -0.036236
0.619324 1.318856 -0.035438
0.623909 1.312332 -0.034705
0.628928 1.306592 -0.033997
0.632585 1.298606 -0.033187
0.636378 1.290922 -0.032383
0.640714 1.284198 -0.031610
0.645680 1.278544 -0.030873
0.650320 1.272393 -0.030109
0.653886 1.264576 -0.029270
0.658590 1.258615 -0.028498
0.663762 1.253412 -0.027748
0.668427 1.247445 -0.026961
0.670801 1.238022 -0.026036
0.674734 1.231050 -0.025200
0.678529 1.223922 -0.024352
0.682774 1.217513 -0.023526
0.686186 1.209927 -0.022654
0.690031 1.203034 -0.021802
0.694728 1.197412 -0.020993
0.699315 1.191662 -0.020175
0.702665 1.184206 -0.019297
0.706039 1.176848 -0.018422
0.708860 1.168795 -0.017525
0.712820 1.162377 -0.016684
0.716468 1.155590 -0.015834
0.720240 1.149029 -0.014994
0.724222 1.142808 -0.014170
0.725921 1.133648 -0.013264
0.729713 1.127322 -0.012452
0.735347 1.123434 -0.011720
0.740376 1.118796 -0.010976
0.744542 1.113112 -0.010213
0.746748 1.105043 -0.009399
0.750174 1.098601 -0.008647
0.753854 1.092560 -0.007924
0.767004 1.098123 -0.007524
0.776129 1.098717 -0.007009
0.772971 1.084625 -0.006142
0.777096 1.079400 -0.005527
0.792243 1.087193 -0.005257
0.791745 1.076674 -0.004568
0.785618 1.059871 -0.003766
0.790323 1.055749 -0.003299
0.797831 1.054901 -0.002941
0.805550 1.054336 -0.002623
0.814643 1.055349 -0.002375
0.811617 1.043009 -0.001865
0.803762 1.025631 -0.001287
0.799995 1.013026 -0.000855
0.806608 1.011866 -0.000714
0.810445 1.007818 -0.000549
0.813196 1.002742 -0.000402
