ply
format ascii 1.0
comment ---
element vertex 1679
property float x
property float y
property float z
element face 0
property list uchar uint vertex_indices
end_header
-0.348593 1.654268 -0.621990
-0.343437 1.656340 -0.621787
-0.338618 1.660355 -0.621952
-0.333819 1.664776 -0.622180
-0.328878 1.668716 -0.622300
-0.323381 1.669809 -0.621851
-0.318035 1.671866 -0.621583
-0.312686 1.674052 -0.621332
-0.307828 1.679385 -0.621683
-0.302704 1.683368 -0.621766
-0.297167 1.684890 -0.621370
-0.291728 1.687149 -0.621113
-0.285738 1.685677 -0.620142
-0.280065 1.686332 -0.619579
-0.274488 1.687701 -0.619154
-0.269577 1.694259 -0.619714
-0.263988 1.695790 -0.619321
-0.258378 1.697173 -0.618904
-0.252687 1.697860 -0.618360
-0.247287 1.701174 -0.618313
-0.243120 1.716469 -0.620503
-0.237147 1.715005 -0.619567
-0.231393 1.715576 -0.619016
-0.225886 1.718810 -0.618964
-0.220873 1.728068 -0.620027
-0.215551 1.734424 -0.620554
-0.209979 1.738132 -0.620597
-0.204493 1.743386 -0.620927
-0.199415 1.755389 -0.622490
-0.194142 1.765880 -0.623774
-0.188340 1.768611 -0.623650
-0.182057 1.762388 -0.621911
-0.176725 1.774830 -0.623553
-0.170918 1.778663 -0.623643
-0.165026 1.780940 -0.623458
-0.159128 1.783404 -0.623313
-0.153709 1.803362 -0.626296
-0.147582 1.800923 -0.625281
-0.141599 1.804514 -0.625347
-0.135677 1.814313 -0.626518
-0.129561 1.812749 -0.625680
-0.123464 1.810963 -0.624811
-0.117390 1.819459 -0.625760
-0.111247 1.826913 -0.626527
-0.104986 1.839949 -0.628271
-0.098765 1.841602 -0.628024
-0.092478 1.846111 -0.628281
-0.086265 1.845688 -0.627683
-0.080065 1.845014 -0.627049
-0.073605 1.852602 -0.627852
-0.067008 1.861983 -0.628965
-0.061082 1.853195 -0.626946
-0.080380 1.302720 -0.531787
-0.076901 1.298639 -0.530799
-0.073170 1.299738 -0.530703
-0.070865 1.277033 -0.526543
-0.068169 1.263582 -0.523979
-0.064739 1.262435 -0.523523
-0.061687 1.256321 -0.522226
-0.013776 1.201874 -0.509488
-0.012553 1.188544 -0.507094
-0.013063 1.165092 -0.503046
0.151595 2.018917 -0.641539
0.161461 2.033322 -0.643464
0.181083 2.059207 -0.646825
0.188460 2.058773 -0.646332
0.195651 2.057378 -0.645688
0.203511 2.059206 -0.645567
0.211312 2.060607 -0.645380
0.219071 2.061680 -0.645142
0.227088 2.063808 -0.645076
0.231979 2.051978 -0.642773
0.235925 2.036497 -0.639894
0.241449 2.028266 -0.638185
0.250071 2.033145 -0.638576
0.256156 1.997703 -0.632166
0.787645 4.044858 -0.956973
0.801477 4.030834 -0.953870
0.816776 4.022695 -0.951712
0.833308 4.019259 -0.950308
0.846108 4.002272 -0.946773
0.283116 1.863425 -0.607842
0.289711 1.862663 -0.607406
0.292629 1.849854 -0.605089
0.298097 1.845601 -0.604117
0.307731 1.854602 -0.605217
0.312601 1.848434 -0.603953
0.316221 1.838570 -0.602120
0.310711 1.801421 -0.596056
0.316587 1.799163 -0.595423
0.320650 1.791613 -0.593974
0.322824 1.778791 -0.591717
0.327827 1.774319 -0.590757
0.333768 1.772546 -0.590219
0.336738 1.762577 -0.588422
0.341326 1.757233 -0.587344
1.144364 3.844613 -0.907103
1.963564 5.933577 -1.226540
1.989751 5.926922 -1.224473
0.032170 0.889698 -0.453522
0.036053 0.894351 -0.454161
0.039355 0.897427 -0.454560
0.042145 0.899158 -0.454753
0.044000 0.898579 -0.454596
0.046676 0.899942 -0.454736
0.047994 0.898070 -0.454385
0.052774 0.904236 -0.455256
0.054452 0.903142 -0.455025
0.057262 0.904607 -0.455185
0.059262 0.904212 -0.455064
0.061510 0.904351 -0.455025
0.064531 0.906146 -0.455238
0.066862 0.906397 -0.455219
0.069746 0.907791 -0.455374
0.073062 0.910038 -0.455659
0.075137 0.909638 -0.455547
0.078411 0.911680 -0.455804
0.080286 0.910822 -0.455627
0.082336 0.910307 -0.455503
0.084326 0.909663 -0.455363
0.088482 0.913247 -0.455857
0.090707 0.912992 -0.455779
0.093660 0.914109 -0.455908
0.096673 0.915290 -0.456048
0.099350 0.915790 -0.456089
0.102676 0.917454 -0.456306
0.104898 0.917037 -0.456215
0.107197 0.916741 -0.456144
0.109983 0.917296 -0.456202
0.113538 0.919171 -0.456459
0.116195 0.919407 -0.456475
0.119774 0.921207 -0.456726
0.122745 0.921898 -0.456814
0.125490 0.922163 -0.456841
0.128021 0.922034 -0.456813
0.131576 0.923577 -0.457035
0.134472 0.923976 -0.457090
0.137929 0.925248 -0.457278
0.140450 0.924959 -0.457235
0.144078 0.926406 -0.457454
0.147337 0.927212 -0.457580
0.149954 0.926970 -0.457552
0.152451 0.926519 -0.457496
0.155638 0.927097 -0.457595
0.161423 0.931555 -0.458274
0.163692 0.930639 -0.458155
0.165963 0.929714 -0.458036
0.169614 0.930798 -0.458219
0.172944 0.931364 -0.458326
0.174832 0.929823 -0.458120
0.179469 0.932187 -0.458498
0.183161 0.933150 -0.458667
0.186733 0.933898 -0.458806
0.189795 0.933904 -0.458834
0.193845 0.935233 -0.459059
0.198060 0.936736 -0.459310
0.199404 0.934349 -0.458978
0.204962 0.937569 -0.459483
0.208323 0.937829 -0.459544
0.211403 0.937703 -0.459544
0.215161 0.938439 -0.459670
0.218718 0.938894 -0.459749
0.222499 0.939613 -0.459865
0.224806 0.938472 -0.459696
0.228500 0.939067 -0.459781
0.231811 0.939182 -0.459788
0.234723 0.938814 -0.459715
0.238883 0.939962 -0.459862
0.242980 0.941024 -0.459987
0.245617 0.940352 -0.459843
0.589642 1.326080 -0.517160
0.589757 1.319417 -0.516005
0.590146 1.313225 -0.514900
0.592919 1.309870 -0.514197
0.595444 1.306352 -0.513448
0.594444 1.299047 -0.512118
0.602305 1.301656 -0.512232
0.625143 1.314669 -0.513525
-0.386565 1.449854 -0.591524
-0.415096 1.611438 -0.624769
-0.413863 1.624215 -0.627228
-0.411023 1.631537 -0.628516
-0.403919 1.622834 -0.626441
-0.397868 1.618234 -0.625190
-0.392969 1.618344 -0.624885
-0.388631 1.620989 -0.625073
-0.384661 1.625496 -0.625615
-0.380391 1.629128 -0.625945
-0.376617 1.635266 -0.626761
-0.372058 1.638386 -0.626926
-0.367974 1.643973 -0.627570
-0.362759 1.644764 -0.627206
-0.356314 1.639951 -0.625679
-0.351267 1.641813 -0.625494
-0.346463 1.645096 -0.625578
-0.342345 1.652136 -0.626402
-0.337491 1.655813 -0.626527
-0.332854 1.660928 -0.626925
-0.327147 1.660531 -0.626201
-0.321437 1.660158 -0.625474
-0.316266 1.662919 -0.625365
-0.311109 1.665956 -0.625301
-0.305349 1.665500 -0.624537
-0.300209 1.668930 -0.624539
-0.295368 1.674519 -0.624961
-0.288806 1.668855 -0.623165
-0.284396 1.677773 -0.624232
-0.277913 1.672312 -0.622482
-0.272766 1.676389 -0.622598
-0.267534 1.680047 -0.622631
-0.262107 1.682344 -0.622401
-0.256540 1.683569 -0.621965
-0.250988 1.684930 -0.621560
-0.246379 1.694955 -0.622821
-0.241353 1.701795 -0.623468
-0.235969 1.705584 -0.623531
-0.230376 1.707433 -0.623228
-0.224649 1.707841 -0.622657
-0.219714 1.717475 -0.623838
-0.214802 1.728403 -0.625261
-0.209434 1.734509 -0.625772
-0.203625 1.735041 -0.625241
-0.197935 1.737284 -0.625036
-0.192885 1.750177 -0.626824
-0.187234 1.754382 -0.626992
-0.181383 1.755278 -0.626549
-0.175724 1.760252 -0.626868
-0.169823 1.760365 -0.626294
-0.164411 1.773337 -0.628095
-0.158505 1.774669 -0.627754
-0.152749 1.781565 -0.628440
-0.146949 1.788973 -0.629221
-0.141025 1.793122 -0.629410
-0.134884 1.784017 -0.627191
-0.129001 1.792884 -0.628250
-0.123007 1.794514 -0.627998
-0.117002 1.808720 -0.630024
-0.110940 1.808055 -0.629366
-0.104939 1.801853 -0.627720
-0.098501 1.831063 -0.632439
-0.092250 1.835881 -0.632775
-0.086107 1.834307 -0.631973
-0.080138 1.827135 -0.630181
-0.073480 1.843058 -0.632509
-0.067200 1.844931 -0.632338
-0.061194 1.839905 -0.630950
-0.080157 1.301764 -0.535368
-0.076514 1.300935 -0.534934
-0.072693 1.303397 -0.535083
-0.069606 1.293372 -0.533041
-0.067068 1.276368 -0.529786
-0.063367 1.187968 -0.513596
-0.060431 1.185250 -0.512896
-0.056663 1.192162 -0.513872
-0.053318 1.193837 -0.513939
-0.032540 1.333645 -0.537630
-0.010923 1.266825 -0.524240
-0.015546 1.188233 -0.510471
-0.014931 1.171420 -0.507430
-0.013775 1.122415 -0.498613
0.186688 2.084875 -0.658547
0.192092 2.073835 -0.656283
0.199850 2.074863 -0.656038
0.207011 2.072894 -0.655297
0.213704 2.068747 -0.654198
0.221525 2.069913 -0.653985
0.228269 2.066109 -0.652953
0.233856 2.057304 -0.651099
0.238232 2.043582 -0.648442
0.247090 2.049287 -0.648994
0.253120 2.042999 -0.647573
0.771150 4.113039 -0.987092
0.780882 4.081133 -0.980971
0.793972 4.063394 -0.977191
0.805427 4.039920 -0.972490
0.820695 4.031486 -0.970261
0.834761 4.018778 -0.967347
0.851017 4.014304 -0.965785
0.864942 4.001555 -0.962888
0.879418 3.991028 -0.960364
0.893581 3.979641 -0.957713
0.893372 3.920009 -0.947267
0.289962 1.861410 -0.613848
0.293908 1.851985 -0.612022
0.299754 1.848907 -0.611227
0.308011 1.853481 -0.611667
0.313437 1.849057 -0.610662
0.311886 1.823372 -0.606251
0.311728 1.802616 -0.602643
0.314631 1.791515 -0.600592
0.321869 1.793355 -0.600618
0.324655 1.782274 -0.598583
0.328884 1.775553 -0.597252
0.330097 1.760544 -0.594607
0.334550 1.754832 -0.593449
1.143293 3.884258 -0.930782
1.153551 3.864373 -0.926988
1.966482 5.933924 -1.253893
1.993337 5.928934 -1.252102
0.032134 0.889106 -0.455341
0.037092 0.896444 -0.456431
0.038855 0.895690 -0.456244
0.041976 0.898245 -0.456580
0.044663 0.899669 -0.456739
0.046299 0.898547 -0.456499
0.049531 0.901171 -0.456848
0.052795 0.903782 -0.457196
0.054633 0.903055 -0.457022
0.057362 0.904333 -0.457163
0.059458 0.904149 -0.457077
0.062623 0.906301 -0.457358
0.065065 0.906809 -0.457383
0.067276 0.906787 -0.457327
0.070118 0.908083 -0.457478
0.072546 0.908458 -0.457488
0.075749 0.910406 -0.457744
0.077683 0.909692 -0.457587
0.080376 0.910503 -0.457670
0.082277 0.909691 -0.457503
0.085190 0.910874 -0.457647
0.087756 0.911326 -0.457680
0.091263 0.913563 -0.457991
0.093359 0.913030 -0.457876
0.097290 0.915949 -0.458297
0.100127 0.916734 -0.458390
0.102893 0.917346 -0.458459
0.105409 0.917460 -0.458452
0.107699 0.917138 -0.458381
0.110060 0.916923 -0.458329
0.114184 0.919799 -0.458757
0.116897 0.920120 -0.458793
0.119423 0.920083 -0.458776
0.121790 0.919746 -0.458715
0.125521 0.921695 -0.459010
0.128017 0.921507 -0.458978
0.132480 0.924551 -0.459447
0.134937 0.924214 -0.459397
0.138080 0.924966 -0.459517
0.140968 0.925262 -0.459570
0.145416 0.928000 -0.460003
0.148162 0.927976 -0.460012
0.150904 0.927915 -0.460017
0.153388 0.927429 -0.459959
0.156975 0.928602 -0.460160
0.160777 0.930044 -0.460405
0.164321 0.931041 -0.460583
0.166185 0.929509 -0.460372
0.170429 0.931455 -0.460701
0.174088 0.932487 -0.460890
0.175052 0.929610 -0.460475
0.180170 0.932653 -0.460978
0.183440 0.933015 -0.461067
0.186857 0.933547 -0.461182
0.190912 0.934921 -0.461428
0.193893 0.934782 -0.461440
0.196763 0.934475 -0.461424
0.202394 0.937840 -0.461977
0.205438 0.937700 -0.461985
0.208604 0.937706 -0.462012
0.213627 0.940106 -0.462409
0.216061 0.939122 -0.462276
0.218066 0.937601 -0.462055
0.222511 0.939177 -0.462312
0.225346 0.938710 -0.462245
0.229495 0.939874 -0.462425
0.232373 0.939463 -0.462354
0.234121 0.937690 -0.462062
0.237092 0.937429 -0.461998
0.242550 0.940150 -0.462389
0.247086 0.941748 -0.462595
0.262690 0.956306 -0.464803
0.584439 1.319547 -0.520961
0.594030 1.323805 -0.521458
0.596099 1.319521 -0.520609
0.592235 1.308691 -0.518728
0.592115 1.302269 -0.517509
0.594490 1.298771 -0.516718
0.596268 1.294737 -0.515825
0.572412 1.257385 -0.509506
-0.360552 1.361097 -0.576818
-0.372243 1.414326 -0.588124
-0.400772 1.612635 -0.629405
-0.396927 1.616469 -0.629941
-0.391441 1.614084 -0.629127
-0.386488 1.614035 -0.628777
-0.381263 1.613082 -0.628207
-0.378856 1.624303 -0.630173
-0.373988 1.625509 -0.629997
-0.369756 1.629791 -0.630440
-0.364928 1.631749 -0.630367
-0.360875 1.637554 -0.631073
-0.354908 1.634745 -0.629956
-0.349608 1.635188 -0.629498
-0.344765 1.638052 -0.629523
-0.340306 1.643128 -0.629987
-0.335494 1.646740 -0.630129
-0.329285 1.643174 -0.628776
-0.323481 1.641723 -0.627849
-0.318820 1.646687 -0.628228
-0.313996 1.651036 -0.628469
-0.308406 1.651117 -0.627828
-0.303314 1.654281 -0.627809
-0.298244 1.657792 -0.627852
-0.292860 1.659468 -0.627518
-0.287402 1.660737 -0.627100
-0.282008 1.662513 -0.626781
-0.276213 1.661477 -0.625899
-0.270835 1.663437 -0.625618
-0.266290 1.671972 -0.626646
-0.261175 1.676492 -0.626870
-0.255096 1.673188 -0.625546
-0.250050 1.678586 -0.625947
-0.244958 1.683941 -0.626339
-0.239597 1.687105 -0.626301
-0.234272 1.690827 -0.626375
-0.228985 1.695209 -0.626581
-0.223148 1.693798 -0.625661
-0.218503 1.706126 -0.627416
-0.213696 1.717785 -0.629035
-0.208596 1.726879 -0.630155
-0.202710 1.725888 -0.629333
-0.197140 1.729381 -0.629381
-0.191538 1.732736 -0.629407
-0.185651 1.731379 -0.628538
-0.180658 1.746973 -0.630906
-0.174682 1.744458 -0.629828
-0.168673 1.740382 -0.628465
-0.162886 1.740994 -0.628000
-0.157314 1.748118 -0.628770
-0.151792 1.759204 -0.630286
-0.146024 1.763784 -0.630580
-0.140362 1.776111 -0.632327
-0.134340 1.770182 -0.630664
-0.128485 1.775791 -0.631162
-0.122574 1.779708 -0.631348
-0.116632 1.785285 -0.631847
-0.110677 1.783854 -0.631052
-0.104727 1.783674 -0.630496
-0.098500 1.803070 -0.633553
-0.092377 1.807733 -0.633894
-0.085991 1.821687 -0.635942
-0.080297 1.806796 -0.632708
-0.074194 1.808488 -0.632520
-0.067538 1.824446 -0.634937
-0.080215 1.294930 -0.537881
-0.076509 1.295879 -0.537768
-0.072521 1.301643 -0.538527
-0.070209 1.279083 -0.534178
-0.067044 1.272675 -0.532755
-0.064670 1.255876 -0.529473
-0.041606 1.181749 -0.514181
-0.016468 1.140491 -0.505026
-0.019588 1.103323 -0.498400
-0.016382 1.105554 -0.498622
-0.017336 1.083764 -0.494689
-0.015531 1.078520 -0.493627
0.624687 4.163118 -1.021351
0.646358 4.182288 -1.023680
0.655579 4.141926 -1.015837
0.675229 4.151124 -1.016476
0.693515 4.153626 -1.015977
0.233948 2.054761 -0.658151
0.247071 2.078754 -0.661839
0.251814 2.066364 -0.659349
0.753991 4.108812 -1.004761
0.770841 4.105344 -1.003297
0.785705 4.093981 -1.000509
0.798928 4.076515 -0.996705
0.812124 4.059454 -0.992985
0.824964 4.041540 -0.989136
0.839013 4.028577 -0.986134
0.854540 4.021271 -0.984095
0.868283 4.007748 -0.981024
0.879820 3.986852 -0.976735
0.895612 3.981110 -0.974993
0.910842 3.973516 -0.972952
0.928294 3.973391 -0.972165
0.295340 1.854599 -0.619068
0.301169 1.851417 -0.618248
0.308552 1.853178 -0.618253
0.315157 1.852411 -0.617841
0.313291 1.825736 -0.613147
0.314862 1.810162 -0.610301
0.318181 1.800183 -0.608389
0.323199 1.795403 -0.607340
0.328943 1.792796 -0.606655
0.330196 1.777492 -0.603886
0.336590 1.776918 -0.603546
1.138212 3.866083 -0.944763
1.151786 3.855181 -0.942368
1.970507 5.937091 -1.281760
1.995626 5.927558 -1.279249
0.031908 0.888031 -0.457078
0.037816 0.897741 -0.458595
0.039668 0.897186 -0.458441
0.041745 0.897176 -0.458376
0.044738 0.899342 -0.458667
0.047421 0.900701 -0.458827
0.051054 0.904227 -0.459339
0.052954 0.903644 -0.459187
0.055102 0.903621 -0.459127
0.058680 0.906795 -0.459585
0.059909 0.904650 -0.459185
0.062514 0.905557 -0.459280
0.065371 0.906968 -0.459458
0.068458 0.908818 -0.459708
0.070354 0.908078 -0.459542
0.072346 0.907537 -0.459411
0.075668 0.909734 -0.459722
0.077742 0.909308 -0.459613
0.079685 0.908604 -0.459461
0.082515 0.909664 -0.459595
0.085916 0.911802 -0.459904
0.087816 0.910937 -0.459733
0.091422 0.913362 -0.460091
0.094697 0.915074 -0.460338
0.097318 0.915490 -0.460379
0.100376 0.916685 -0.460547
0.103268 0.917522 -0.460660
0.106260 0.918497 -0.460798
0.108284 0.917677 -0.460651
0.110536 0.917255 -0.460571
0.114516 0.919865 -0.460977
0.117139 0.920021 -0.460994
0.119500 0.919693 -0.460937
0.122670 0.920725 -0.461099
0.126276 0.922444 -0.461374
0.128884 0.922429 -0.461374
0.132820 0.924581 -0.461724
0.135565 0.924709 -0.461753
0.138858 0.925691 -0.461921
0.141384 0.925393 -0.461887
0.145739 0.927974 -0.462316
0.148594 0.928114 -0.462357
0.151346 0.928062 -0.462371
0.153816 0.927547 -0.462312
0.158052 0.929700 -0.462683
0.160633 0.929285 -0.462646
0.163611 0.929442 -0.462701
0.167156 0.930402 -0.462888
0.170747 0.931379 -0.463079
0.174588 0.932671 -0.463322
0.177714 0.932885 -0.463394
0.181448 0.933928 -0.463599
0.185450 0.935300 -0.463859
0.189754 0.937039 -0.464178
0.191694 0.935471 -0.463965
0.194447 0.935017 -0.463930
0.197210 0.934564 -0.463895
0.202466 0.937427 -0.464392
0.205373 0.937112 -0.464375
0.208642 0.937262 -0.464431
0.212457 0.938103 -0.464595
0.215288 0.937655 -0.464547
0.219718 0.939239 -0.464822
0.222321 0.938488 -0.464716
0.225487 0.938450 -0.464718
0.230492 0.940684 -0.465081
0.232269 0.938929 -0.464792
0.234487 0.937746 -0.464587
0.237088 0.937054 -0.464453
0.240727 0.937622 -0.464514
0.247960 0.942442 -0.465250
0.259647 0.952413 -0.466805
0.556409 1.239887 -0.511110
-0.375074 1.413835 -0.592099
-0.371210 1.412652 -0.591819
-0.364062 1.399829 -0.588981
-0.350536 1.376522 -0.583740
-0.392245 1.599930 -0.631470
-0.390078 1.610511 -0.633472
-0.383038 1.601737 -0.631256
-0.378630 1.603866 -0.631368
-0.374551 1.607699 -0.631815
-0.370078 1.610197 -0.631945
-0.366176 1.615529 -0.632655
-0.362705 1.623241 -0.633844
-0.356815 1.620279 -0.632721
-0.354560 1.634555 -0.635254
-0.348185 1.629709 -0.633684
-0.342790 1.629628 -0.633112
-0.338213 1.633834 -0.633429
-0.333309 1.636668 -0.633437
-0.327994 1.637556 -0.633018
-0.322322 1.636617 -0.632202
-0.317012 1.637739 -0.631809
-0.311736 1.639179 -0.631472
-0.306251 1.639500 -0.630892
-0.301174 1.642376 -0.630838
-0.295369 1.640839 -0.629861
-0.290488 1.645244 -0.630112
-0.285950 1.652247 -0.630891
-0.281005 1.656869 -0.631171
-0.275165 1.655302 -0.630179
-0.270159 1.659831 -0.630435
-0.265382 1.666443 -0.631113
-0.258625 1.657470 -0.628620
-0.253612 1.662389 -0.628956
-0.248575 1.667431 -0.629315
-0.242589 1.664115 -0.627990
-0.237670 1.670646 -0.628652
-0.232394 1.674103 -0.628698
-0.227456 1.681387 -0.629511
-0.222229 1.686109 -0.629812
-0.216761 1.688374 -0.629626
-0.211413 1.692278 -0.629771
-0.205786 1.692807 -0.629252
-0.200715 1.701173 -0.630285
-0.195525 1.708789 -0.631169
-0.189999 1.711878 -0.631167
-0.184443 1.714774 -0.631131
-0.179336 1.726794 -0.632881
-0.173506 1.725489 -0.632034
-0.167850 1.727826 -0.631903
-0.162274 1.732708 -0.632271
-0.156535 1.733704 -0.631892
-0.150950 1.740317 -0.632603
-0.145283 1.745788 -0.633096
-0.139313 1.736932 -0.630844
-0.133763 1.752771 -0.633334
-0.128035 1.764529 -0.635039
-0.122174 1.769414 -0.635431
-0.116279 1.765371 -0.634130
-0.110386 1.768759 -0.634249
-0.104473 1.771345 -0.634221
-0.098446 1.780296 -0.635401
-0.092259 1.793356 -0.637355
-0.086258 1.793727 -0.636919
-0.080146 1.797888 -0.637201
-0.074256 1.794281 -0.636031
-0.068397 1.790773 -0.634890
-0.080238 1.288999 -0.540505
-0.076477 1.291457 -0.540679
-0.072935 1.289637 -0.540061
-0.069825 1.281072 -0.538200
-0.066095 1.283067 -0.538299
-0.062737 1.279516 -0.537377
-0.062684 1.190456 -0.520490
-0.058583 1.201308 -0.522255
-0.044399 1.025724 -0.488136
-0.043714 1.013701 -0.485830
-0.040242 1.020895 -0.486975
-0.021176 1.092255 -0.499268
-0.018328 1.092672 -0.499183
-0.018108 1.078000 -0.496416
-0.016995 1.069059 -0.494676
-0.021312 1.031091 -0.487798
-0.021880 1.014859 -0.484788
0.628607 4.174784 -1.041034
0.646460 4.175284 -1.040183
0.664035 4.174305 -1.039080
0.681187 4.171268 -1.037625
0.696869 4.161613 -1.035020
0.756882 4.114193 -1.023195
0.770973 4.099450 -1.019770
0.787783 4.095898 -1.018304
0.803008 4.086172 -1.015775
0.815586 4.066571 -1.011549
0.828683 4.049484 -1.007774
0.842147 4.034224 -1.004330
0.857671 4.026788 -1.002251
0.873430 4.020296 -1.000346
0.883279 3.993310 -0.994924
0.893371 3.967937 -0.989799
0.912145 3.972468 -0.989827
0.928768 3.969587 -0.988589
0.309507 1.832911 -0.621166
0.315039 1.829131 -0.620254
0.320748 1.805910 -0.615783
0.331780 1.818555 -0.617678
0.323890 1.776472 -0.610289
0.332131 1.781173 -0.610846
0.330862 1.741258 -0.603629
1.132726 3.846840 -0.958412
1.970028 5.928497 -1.307731
0.025529 0.876340 -0.457085
0.032630 0.889351 -0.459211
0.037353 0.896072 -0.460279
0.039625 0.896568 -0.460302
0.043067 0.899875 -0.460797
0.044968 0.899384 -0.460657
0.046980 0.899148 -0.460561
0.050262 0.901864 -0.460960
0.052888 0.902979 -0.461092
0.055918 0.904967 -0.461372
0.057842 0.904400 -0.461227
0.060858 0.906250 -0.461486
0.063063 0.906253 -0.461439
0.065423 0.906573 -0.461447
0.069046 0.909566 -0.461901
0.070525 0.907931 -0.461587
0.072531 0.907416 -0.461462
0.075398 0.908667 -0.461632
0.077706 0.908725 -0.461606
0.079843 0.908415 -0.461521
0.084048 0.912209 -0.462118
0.086479 0.912399 -0.462120
0.089183 0.913090 -0.462207
0.092283 0.914506 -0.462417
0.094483 0.914150 -0.462335
0.097495 0.915304 -0.462506
0.101869 0.918946 -0.463091
0.103485 0.917400 -0.462820
0.106077 0.917639 -0.462847
0.108673 0.917855 -0.462873
0.112194 0.919686 -0.463168
0.114874 0.919967 -0.463210
0.117302 0.919776 -0.463176
0.119679 0.919473 -0.463127
0.122176 0.919351 -0.463110
0.127151 0.923386 -0.463783
0.129642 0.923159 -0.463755
0.132501 0.923515 -0.463826
0.135698 0.924385 -0.463985
0.139323 0.925902 -0.464253
0.141831 0.925568 -0.464218
0.145389 0.926873 -0.464457
0.148830 0.927938 -0.464659
0.151605 0.927918 -0.464684
0.154187 0.927571 -0.464657
0.158068 0.929176 -0.464956
0.159511 0.927051 -0.464639
0.163376 0.928547 -0.464924
0.168026 0.931137 -0.465393
0.171404 0.931791 -0.465543
0.175546 0.933508 -0.465870
0.178633 0.933655 -0.465939
0.182147 0.934376 -0.466103
0.184982 0.934107 -0.466103
0.187720 0.933684 -0.466078
0.192173 0.935599 -0.466442
0.194494 0.934558 -0.466312
0.198305 0.935521 -0.466516
0.200807 0.934705 -0.466421
0.206217 0.937724 -0.466964
0.209461 0.937839 -0.467019
0.212236 0.937334 -0.466967
0.215549 0.937518 -0.467026
0.219631 0.938668 -0.467241
0.222764 0.938598 -0.467247
0.225921 0.938557 -0.467252
0.230000 0.939657 -0.467440
0.232157 0.938389 -0.467224
0.235138 0.938150 -0.467172
0.239804 0.939950 -0.467452
0.241098 0.937716 -0.467047
0.246188 0.940018 -0.467391
0.255137 0.946815 -0.468474
0.270939 0.961473 -0.470856
0.271631 0.958521 -0.470284
0.271887 0.955148 -0.469629
0.274616 0.954661 -0.469442
0.276942 0.953759 -0.469174
0.277964 0.951453 -0.468659
0.284825 0.955676 -0.469212
0.288757 0.956657 -0.469213
0.293341 0.958373 -0.469320
0.308709 0.971770 -0.471330
-0.386844 1.457193 -0.605758
-0.371806 1.416799 -0.596783
-0.364562 1.403586 -0.593818
-0.352206 1.371486 -0.586635
-0.348619 1.371208 -0.586491
-0.340179 1.352810 -0.582304
-0.336661 1.352893 -0.582191
-0.380303 1.592375 -0.634264
-0.376672 1.597479 -0.635061
-0.371517 1.596504 -0.634488
-0.364973 1.589668 -0.632600
-0.361920 1.598261 -0.634073
-0.357108 1.599442 -0.633891
-0.352842 1.603388 -0.634288
-0.347919 1.604575 -0.634056
-0.344376 1.612668 -0.635305
-0.340671 1.620490 -0.636467
-0.334816 1.617907 -0.635349
-0.329824 1.619812 -0.635188
-0.324736 1.621410 -0.634943
-0.319842 1.624248 -0.634951
-0.314030 1.622147 -0.633885
-0.307780 1.617448 -0.632256
-0.304212 1.628544 -0.633994
-0.297860 1.623209 -0.632217
-0.293079 1.627540 -0.632492
-0.288187 1.631429 -0.632664
-0.282600 1.630866 -0.631891
-0.277317 1.632381 -0.631554
-0.273079 1.641549 -0.632821
-0.268890 1.651720 -0.634287
-0.263305 1.651731 -0.633624
-0.257761 1.652013 -0.633021
-0.251100 1.642820 -0.630454
-0.245826 1.644964 -0.630248
-0.239877 1.641008 -0.628786
-0.235232 1.649143 -0.629821
-0.230272 1.654795 -0.630343
-0.225056 1.658197 -0.630404
-0.220806 1.672654 -0.632725
-0.215799 1.679687 -0.633526
-0.210222 1.680256 -0.633014
-0.204882 1.683930 -0.633137
-0.199335 1.685011 -0.632741
-0.193507 1.681757 -0.631478
-0.188052 1.683997 -0.631330
-0.182434 1.683514 -0.630642
-0.172304 1.705577 -0.633885
-0.161651 1.723817 -0.636358
-0.155951 1.724920 -0.636006
-0.150177 1.723387 -0.635141
-0.144494 1.724912 -0.634888
-0.138846 1.728880 -0.635122
-0.133139 1.730620 -0.634923
-0.127398 1.729668 -0.634203
-0.121690 1.733559 -0.634438
-0.115947 1.741366 -0.635441
-0.110106 1.754263 -0.637434
-0.104244 1.757898 -0.637626
-0.098413 1.757476 -0.637038
-0.086186 1.780568 -0.640499
-0.080179 1.783013 -0.640474
-0.074139 1.785781 -0.640518
-0.068275 1.783335 -0.639565
-0.080744 1.273076 -0.541173
-0.076444 1.287158 -0.543580
-0.072941 1.284991 -0.542889
-0.069446 1.282979 -0.542233
-0.065688 1.285217 -0.542387
-0.062006 1.286071 -0.542282
-0.048830 1.168115 -0.518454
-0.040920 1.183354 -0.520884
-0.044691 1.022244 -0.489960
-0.043576 1.013291 -0.488164
-0.042290 1.006012 -0.486683
-0.022046 1.039701 -0.492012
-0.022390 1.024088 -0.489030
-0.022921 1.008259 -0.486019
-0.025521 0.982547 -0.481223
-0.026462 0.966391 -0.478174
-0.039416 0.883241 -0.462914
-0.035483 0.893191 -0.464618
-0.031594 0.885748 -0.462999
-0.028063 0.885161 -0.462714
-0.021797 0.888082 -0.462973
-0.018992 0.891728 -0.463537
-0.016215 0.895111 -0.464053
-0.013736 0.897243 -0.464346
-0.013208 0.892126 -0.463351
-0.012350 0.888362 -0.462599
-0.010041 0.889851 -0.462781
-0.006038 0.897156 -0.463993
-0.002965 0.901017 -0.464593
0.000032 0.904477 -0.465122
0.003920 0.910747 -0.466146
0.008942 0.920474 -0.467777
0.011024 0.920479 -0.467695
0.037858 0.918435 -0.466362
0.038745 0.915132 -0.465723
0.031698 0.891617 -0.461585
0.035461 0.895981 -0.462281
0.037906 0.896931 -0.462387
0.039957 0.896870 -0.462320
0.043179 0.899628 -0.462741
0.046336 0.902141 -0.463120
0.048261 0.901660 -0.462984
0.050427 0.901735 -0.462945
0.052678 0.901983 -0.462939
0.055269 0.902976 -0.463061
0.058832 0.906109 -0.463554
0.060703 0.905390 -0.463385
0.063142 0.905913 -0.463432
0.065366 0.905936 -0.463395
0.068411 0.907692 -0.463657
0.070617 0.907611 -0.463606
0.072962 0.907803 -0.463604
0.075555 0.908477 -0.463686
0.078293 0.909408 -0.463814
0.081509 0.911257 -0.464102
0.083780 0.911158 -0.464058
0.087047 0.912997 -0.464348
0.088753 0.911734 -0.464110
0.092814 0.915005 -0.464650
0.094922 0.914462 -0.464540
0.096637 0.913167 -0.464304
0.100839 0.916500 -0.464861
0.103351 0.916625 -0.464873
0.106026 0.917018 -0.464933
0.108892 0.917719 -0.465048
0.112661 0.919984 -0.465433
0.115034 0.919714 -0.465388
0.117588 0.919738 -0.465397
0.120386 0.920154 -0.465474
0.125019 0.923659 -0.466082
0.127318 0.923125 -0.466004
0.129987 0.923192 -0.466031
0.133293 0.924277 -0.466235
0.134886 0.922514 -0.465955
0.138536 0.924081 -0.466246
0.141869 0.925080 -0.466444
0.145929 0.927176 -0.466832
0.149110 0.927824 -0.466975
0.151913 0.927842 -0.467013
0.154546 0.927570 -0.467004
0.157026 0.927042 -0.466953
0.160776 0.928401 -0.467227
0.164440 0.929577 -0.467473
0.168712 0.931593 -0.467865
0.172056 0.932190 -0.468015
0.175401 0.932747 -0.468159
0.179719 0.934656 -0.468538
0.181509 0.932929 -0.468291
0.185501 0.934291 -0.468576
0.189234 0.935243 -0.468792
0.191387 0.933989 -0.468626
0.194953 0.934656 -0.468790
0.199152 0.936141 -0.469094
0.203070 0.937206 -0.469324
0.204648 0.935151 -0.469012
0.208818 0.936506 -0.469287
0.212922 0.937738 -0.469536
0.216160 0.937828 -0.469583
0.219878 0.938521 -0.469730
0.222917 0.938344 -0.469719
0.226418 0.938746 -0.469802
0.229073 0.938098 -0.469696
0.232320 0.938191 -0.469710
0.237481 0.940609 -0.470118
0.240468 0.940384 -0.470058
0.240061 0.936141 -0.469292
0.246122 0.939617 -0.469852
0.261517 0.953970 -0.472282
0.267759 0.957489 -0.472823
0.270023 0.956401 -0.472554
0.270718 0.953568 -0.471971
0.274255 0.954028 -0.471943
0.276889 0.953499 -0.471731
0.278815 0.952224 -0.471376
0.279381 0.949501 -0.470761
0.289763 0.957628 -0.471988
0.292728 0.957594 -0.471802
0.297504 0.959560 -0.471943
-0.422167 1.583602 -0.638607
-0.345535 1.361558 -0.588205
-0.337996 1.346300 -0.584662
-0.333142 1.341068 -0.583365
-0.329602 1.340988 -0.583209
-0.325285 1.338013 -0.582373
-0.376192 1.577363 -0.635904
-0.374430 1.589925 -0.638427
-0.366632 1.577403 -0.635275
-0.361436 1.575946 -0.634585
-0.357625 1.580801 -0.635283
-0.353310 1.583774 -0.635530
-0.348878 1.586519 -0.635698
-0.344634 1.590459 -0.636107
-0.340617 1.595850 -0.636813
-0.336780 1.602548 -0.637783
-0.332783 1.608899 -0.638651
-0.326866 1.605678 -0.637381
-0.321576 1.605759 -0.636827
-0.316199 1.605465 -0.636176
-0.311805 1.610800 -0.636748
-0.305554 1.605717 -0.635025
-0.300527 1.607710 -0.634842
-0.295374 1.609089 -0.634517
-0.291556 1.619070 -0.636050
-0.286135 1.619195 -0.635435
-0.281042 1.621555 -0.635299
-0.275174 1.618636 -0.634022
-0.270152 1.621630 -0.634017
-0.266268 1.633378 -0.635883
-0.261080 1.635787 -0.635743
-0.255122 1.632083 -0.634300
-0.249731 1.632809 -0.633806
-0.244375 1.633833 -0.633377
-0.239567 1.639916 -0.634020
-0.234503 1.644002 -0.634241
-0.229288 1.646868 -0.634206
-0.223946 1.648561 -0.633928
-0.218375 1.647761 -0.633134
-0.212807 1.646773 -0.632308
-0.209003 1.667743 -0.636054
-0.203223 1.664801 -0.634827
-0.198022 1.669585 -0.635209
-0.192756 1.673931 -0.635503
-0.186498 1.662323 -0.632518
-0.182127 1.682556 -0.636088
-0.175889 1.669613 -0.632852
-0.170982 1.682721 -0.634959
-0.165050 1.673766 -0.632565
-0.155204 1.710667 -0.638942
-0.149557 1.711532 -0.638559
-0.144044 1.718490 -0.639413
-0.138376 1.719992 -0.639170
-0.132615 1.714836 -0.637595
-0.126961 1.716106 -0.637321
-0.121316 1.721904 -0.637960
-0.115624 1.725953 -0.638252
-0.109882 1.732879 -0.639122
-0.104260 1.722709 -0.636594
-0.098541 1.725338 -0.636622
-0.092726 1.731682 -0.637390
-0.086886 1.736723 -0.637903
-0.069673 1.736893 -0.636521
-0.080288 1.277448 -0.545671
-0.076457 1.282117 -0.546304
-0.072776 1.283400 -0.546277
-0.069861 1.272145 -0.543813
-0.067199 1.258661 -0.540927
-0.064895 1.196976 -0.528470
-0.061142 1.203636 -0.529527
-0.051188 1.046448 -0.497621
-0.048833 1.045085 -0.497203
-0.045311 1.033922 -0.494775
-0.043950 1.026049 -0.493135
-0.042805 1.017197 -0.491315
-0.043445 0.982303 -0.484457
-0.039857 0.990627 -0.485894
-0.022166 1.037832 -0.494213
-0.025215 1.007684 -0.488442
-0.023835 1.002359 -0.487321
-0.023417 0.992341 -0.485328
-0.024559 0.974967 -0.481973
-0.037025 0.902992 -0.468482
-0.035825 0.899644 -0.467763
-0.034520 0.896925 -0.467164
-0.032414 0.897968 -0.467263
-0.030036 0.900161 -0.467575
-0.027720 0.901973 -0.467817
-0.025748 0.902224 -0.467771
-0.024551 0.899195 -0.467122
-0.021825 0.902553 -0.467650
-0.020090 0.901770 -0.467417
-0.018567 0.900166 -0.467034
-0.016740 0.899782 -0.466877
-0.013394 0.905168 -0.467776
-0.011328 0.905564 -0.467762
-0.009427 0.905328 -0.467634
-0.009079 0.899498 -0.466486
-0.007019 0.899903 -0.466478
-0.004117 0.903198 -0.466996
-0.001689 0.904746 -0.467196
0.000433 0.905203 -0.467199
0.002407 0.905137 -0.467107
0.004946 0.906886 -0.467345
0.006789 0.906345 -0.467170
0.009470 0.908431 -0.467470
0.011903 0.909669 -0.467618
0.013987 0.909791 -0.467565
0.015678 0.908714 -0.467297
0.017591 0.908306 -0.467151
0.019944 0.909173 -0.467235
0.022077 0.909363 -0.467199
0.023993 0.908921 -0.467051
0.027525 0.912962 -0.467708
0.029801 0.913428 -0.467724
0.031487 0.912272 -0.467451
0.033316 0.911511 -0.467251
0.035809 0.912495 -0.467364
0.039932 0.917650 -0.468222
0.034912 0.899303 -0.464890
0.035956 0.896704 -0.464370
0.038066 0.896806 -0.464333
0.040672 0.898102 -0.464510
0.043494 0.899868 -0.464773
0.046006 0.900829 -0.464893
0.048265 0.901149 -0.464901
0.050712 0.901879 -0.464983
0.053243 0.902763 -0.465094
0.056600 0.905480 -0.465531
0.057478 0.902552 -0.464971
0.060802 0.905091 -0.465380
0.063202 0.905526 -0.465418
0.065500 0.905708 -0.465413
0.068452 0.907260 -0.465653
0.070847 0.907579 -0.465677
0.073632 0.908679 -0.465841
0.076509 0.909921 -0.466032
0.079093 0.910515 -0.466110
0.081723 0.911164 -0.466200
0.084034 0.911140 -0.466175
0.086626 0.911645 -0.466244
0.089874 0.913388 -0.466535
0.093013 0.914858 -0.466779
0.095228 0.914515 -0.466707
0.098764 0.916635 -0.467071
0.099444 0.913377 -0.466491
0.104019 0.917320 -0.467181
0.105715 0.915918 -0.466933
0.109870 0.918939 -0.467467
0.112655 0.919432 -0.467558
0.115086 0.919265 -0.467536
0.118514 0.920807 -0.467818
0.122120 0.922593 -0.468145
0.124753 0.922656 -0.468172
0.127941 0.923624 -0.468362
0.130791 0.923980 -0.468446
0.133441 0.923969 -0.468469
0.136297 0.924264 -0.468549
0.139423 0.924959 -0.468702
0.143741 0.927513 -0.469186
0.146596 0.927671 -0.469251
0.149252 0.927487 -0.469257
0.152140 0.927635 -0.469325
0.154866 0.927503 -0.469345
0.157420 0.927082 -0.469317
0.161768 0.929332 -0.469763
0.164792 0.929541 -0.469851
0.169247 0.931822 -0.470307
0.172040 0.931609 -0.470323
0.174956 0.931553 -0.470368
0.178220 0.931967 -0.470498
0.182956 0.934423 -0.470991
0.186037 0.934495 -0.471061
0.188789 0.934088 -0.471044
0.192423 0.934874 -0.471240
0.196462 0.936174 -0.471527
0.199271 0.935780 -0.471509
0.201994 0.935262 -0.471467
0.206346 0.936884 -0.471804
0.209878 0.937395 -0.471940
0.213245 0.937672 -0.472029
0.216270 0.937499 -0.472033
0.219691 0.937827 -0.472120
0.223723 0.938914 -0.472337
0.227203 0.939294 -0.472421
0.230953 0.940004 -0.472556
0.233964 0.939805 -0.472519
0.237163 0.939846 -0.472515
0.238853 0.938090 -0.472180
0.240751 0.936627 -0.471886
0.246453 0.939691 -0.472392
0.262285 0.954562 -0.474998
0.271438 0.961468 -0.476164
0.271210 0.957503 -0.475372
0.270703 0.953314 -0.474528
0.275166 0.954844 -0.474690
0.283006 0.960174 -0.475513
0.281029 0.954523 -0.474370
0.283126 0.953498 -0.474034
0.290586 0.958408 -0.474735
0.292981 0.957770 -0.474438
0.285890 0.946923 -0.472332
-0.436749 1.637561 -0.655833
-0.428356 1.623042 -0.652519
-0.355839 1.388660 -0.598358
-0.347701 1.371499 -0.594347
-0.338329 1.349339 -0.589158
-0.330119 1.331143 -0.584862
-0.325189 1.325378 -0.583412
-0.319980 1.318499 -0.581682
-0.317084 1.320936 -0.582075
-0.362227 1.560335 -0.636344
-0.357823 1.561893 -0.636361
-0.353272 1.563072 -0.636263
-0.350474 1.572474 -0.638015
-0.344892 1.569537 -0.636922
-0.340529 1.572444 -0.637136
-0.337399 1.581652 -0.638756
-0.334249 1.591349 -0.640457
-0.329272 1.592358 -0.640164
-0.324193 1.593017 -0.639774
-0.318509 1.590589 -0.638671
-0.313971 1.594443 -0.638968
-0.309466 1.598787 -0.639357
-0.303257 1.593550 -0.637589
-0.297779 1.592441 -0.636738
-0.292537 1.592771 -0.636199
-0.289276 1.605754 -0.638461
-0.284167 1.607470 -0.638209
-0.277623 1.599579 -0.635832
-0.272209 1.599072 -0.635087
-0.263499 1.613844 -0.637051
-0.259337 1.623537 -0.638524
-0.254222 1.626208 -0.638459
-0.248633 1.625026 -0.637557
-0.243647 1.628997 -0.637775
-0.238999 1.636371 -0.638728
-0.233915 1.640141 -0.638901
-0.228445 1.640278 -0.638294
-0.223039 1.640993 -0.637816
-0.217267 1.637571 -0.636459
-0.211444 1.633024 -0.634873
-0.206443 1.638158 -0.635357
-0.202447 1.657333 -0.638821
-0.196252 1.647425 -0.636118
-0.190777 1.647008 -0.635437
-0.185319 1.646642 -0.634774
-0.175407 1.665012 -0.637475
-0.169831 1.663224 -0.636530
-0.164341 1.662895 -0.635899
-0.148926 1.698833 -0.641704
-0.142771 1.674311 -0.636088
-0.137396 1.681028 -0.636945
-0.132194 1.706005 -0.641562
-0.126563 1.705763 -0.640985
-0.120953 1.709670 -0.641267
-0.115315 1.711859 -0.641202
-0.109667 1.712822 -0.640892
-0.103988 1.716229 -0.641087
-0.098327 1.716668 -0.640683
-0.092721 1.714342 -0.639725
-0.087137 1.712106 -0.638794
-0.081168 1.723631 -0.640653
-0.075847 1.713193 -0.638080
-0.076306 1.280267 -0.549627
-0.072729 1.279834 -0.549265
-0.070625 1.255878 -0.544214
-0.066777 1.261232 -0.545020
-0.065290 1.188732 -0.530120
-0.062540 1.183460 -0.528849
-0.039551 1.287058 -0.548366
-0.036892 1.277585 -0.546261
-0.054063 1.063781 -0.503910
-0.050432 1.072400 -0.505429
-0.051843 1.039519 -0.498840
-0.049691 1.036814 -0.498157
-0.046077 1.026894 -0.495924
-0.045337 1.014915 -0.493452
-0.042869 1.015418 -0.493407
-0.042081 1.004817 -0.491215
-0.042571 0.986687 -0.487575
-0.041869 0.976987 -0.485574
-0.040476 0.971980 -0.484483
-0.034017 0.983605 -0.486474
-0.027340 0.995120 -0.488437
-0.024092 0.999939 -0.489236
-0.023628 0.990227 -0.487256
-0.036849 0.903042 -0.470394
-0.035000 0.902791 -0.470250
-0.033152 0.902534 -0.470107
-0.031420 0.901739 -0.469862
-0.029530 0.901664 -0.469756
-0.027342 0.902883 -0.469896
-0.025030 0.904558 -0.470122
-0.023314 0.903655 -0.469861
-0.021487 0.903228 -0.469692
-0.019690 0.902681 -0.469501
-0.018040 0.901556 -0.469203
-0.015405 0.904268 -0.469628
-0.012540 0.907729 -0.470193
-0.010482 0.908047 -0.470168
-0.008828 0.906853 -0.469861
-0.007262 0.905374 -0.469501
-0.005785 0.903617 -0.469091
-0.003935 0.903195 -0.468933
-0.000833 0.907031 -0.469570
0.001485 0.908099 -0.469691
0.003790 0.909069 -0.469794
0.005832 0.909143 -0.469731
0.007010 0.906443 -0.469154
0.010257 0.910293 -0.469795
0.012561 0.911098 -0.469871
0.014199 0.909840 -0.469566
0.017213 0.912714 -0.470027
0.019247 0.912599 -0.469935
0.020684 0.910738 -0.469522
0.023065 0.911609 -0.469616
0.025137 0.911571 -0.469542
0.028146 0.914111 -0.469946
0.029916 0.913175 -0.469709
0.032303 0.913908 -0.469782
0.035302 0.916228 -0.470147
0.037681 0.916841 -0.470200
0.039227 0.915265 -0.469852
0.037554 0.905505 -0.468005
0.036254 0.896925 -0.466378
0.038023 0.896174 -0.466189
0.040864 0.898047 -0.466483
0.043367 0.899034 -0.466615
0.045460 0.899001 -0.466563
0.048358 0.900845 -0.466854
0.050983 0.901986 -0.467020
0.053876 0.903693 -0.467290
0.056226 0.904108 -0.467325
0.058651 0.904658 -0.467387
0.061489 0.906086 -0.467612
0.064146 0.907064 -0.467755
0.066150 0.906588 -0.467637
0.068769 0.907412 -0.467756
0.071114 0.907616 -0.467766
0.073852 0.908612 -0.467921
0.075737 0.907806 -0.467751
0.079389 0.910588 -0.468235
0.081551 0.910290 -0.468162
0.084397 0.911332 -0.468334
0.087905 0.913625 -0.468737
0.090879 0.914806 -0.468940
0.093113 0.914515 -0.468878
0.095689 0.914854 -0.468933
0.098536 0.915669 -0.469077
0.101428 0.916522 -0.469231
0.103462 0.915757 -0.469094
0.107234 0.918135 -0.469530
0.109840 0.918340 -0.469575
0.112314 0.918281 -0.469574
0.115855 0.920068 -0.469912
0.117496 0.918490 -0.469642
0.122533 0.922749 -0.470434
0.124077 0.920953 -0.470130
0.126122 0.920010 -0.469984
0.131812 0.925120 -0.470941
0.134551 0.925236 -0.470994
0.137221 0.925210 -0.471023
0.139164 0.923980 -0.470836
0.143974 0.927319 -0.471484
0.146958 0.927678 -0.471592
0.149552 0.927391 -0.471585
0.152502 0.927629 -0.471677
0.155339 0.927662 -0.471733
0.160235 0.930779 -0.472355
0.163008 0.930624 -0.472382
0.165304 0.929737 -0.472277
0.169642 0.931837 -0.472719
0.172274 0.931390 -0.472697
0.175164 0.931294 -0.472741
0.179900 0.933803 -0.473263
0.182559 0.933311 -0.473235
0.186452 0.934526 -0.473520
0.189360 0.934335 -0.473547
0.192462 0.934392 -0.473618
0.196124 0.935187 -0.473824
0.199215 0.935184 -0.473880
0.201707 0.934370 -0.473785
0.207626 0.938064 -0.474518
0.210387 0.937566 -0.474474
0.214068 0.938253 -0.474643
0.217035 0.938010 -0.474636
0.221727 0.939950 -0.475026
0.224870 0.939912 -0.475043
0.227221 0.938892 -0.474871
0.231100 0.939778 -0.475043
0.234524 0.940099 -0.475102
0.237140 0.939449 -0.474971
0.239728 0.938790 -0.474828
0.243522 0.939591 -0.474944
0.246059 0.938918 -0.474775
0.263303 0.955455 -0.477775
0.276499 0.967052 -0.479845
0.275748 0.962464 -0.478911
0.287046 0.964523 -0.478943
0.283649 0.957283 -0.477469
0.276311 0.945833 -0.475215
0.273318 0.939357 -0.473864
0.271947 0.934777 -0.472849
0.292319 0.953809 -0.476116
-0.437310 1.642302 -0.661938
-0.431889 1.638360 -0.661073
-0.427265 1.637464 -0.660891
-0.328020 1.324777 -0.587097
-0.322294 1.315697 -0.584859
-0.318235 1.313147 -0.584132
-0.313096 1.306311 -0.582376
-0.308030 1.299716 -0.580655
-0.305320 1.302963 -0.581220
-0.349129 1.546262 -0.637287
-0.346484 1.555923 -0.639166
-0.342392 1.559462 -0.639588
-0.336841 1.556400 -0.638449
-0.331510 1.554443 -0.637546
-0.326146 1.577761 -0.641970
-0.322222 1.584020 -0.642892
-0.315978 1.578274 -0.641030
-0.311093 1.579820 -0.640832
-0.306399 1.582637 -0.640909
-0.300825 1.580570 -0.639856
-0.296262 1.584515 -0.640164
-0.291351 1.586604 -0.640037
-0.284948 1.579372 -0.637788
-0.279887 1.580525 -0.637437
-0.275254 1.584675 -0.637757
-0.270716 1.589785 -0.638283
-0.263716 1.577343 -0.634865
-0.260068 1.589246 -0.636908
-0.255071 1.591462 -0.636775
-0.249343 1.587870 -0.635347
-0.243467 1.582677 -0.633571
-0.239355 1.592572 -0.635144
-0.231823 1.621656 -0.640315
-0.226733 1.624773 -0.640372
-0.220891 1.620077 -0.638719
-0.216816 1.634668 -0.641293
-0.210595 1.625252 -0.638622
-0.205013 1.622651 -0.637451
-0.195644 1.641781 -0.640403
-0.189859 1.636225 -0.638610
-0.184247 1.632514 -0.637228
-0.178717 1.629485 -0.636003
-0.169241 1.655703 -0.640491
-0.163842 1.656882 -0.640180
-0.157515 1.632382 -0.634409
-0.152377 1.638193 -0.635109
-0.147645 1.661118 -0.639439
-0.142318 1.666413 -0.640027
-0.136771 1.661357 -0.638433
-0.131288 1.657109 -0.637021
-0.120585 1.691365 -0.643198
-0.104047 1.681066 -0.639553
-0.092624 1.702277 -0.643004
-0.087109 1.699329 -0.641919
-0.081542 1.699132 -0.641412
-0.075804 1.703977 -0.641953
-0.081561 1.241334 -0.545607
-0.076214 1.277391 -0.552732
-0.072924 1.272206 -0.551396
-0.069781 1.265442 -0.549745
-0.066790 1.257342 -0.547830
-0.060357 1.298001 -0.555850
-0.062598 1.179918 -0.531360
-0.060497 1.167866 -0.528698
-0.057101 1.171267 -0.529172
-0.045209 1.263170 -0.547518
-0.041080 1.269060 -0.548468
-0.036938 1.274510 -0.549327
-0.054147 1.061273 -0.506066
-0.051932 1.058067 -0.505258
-0.052010 1.036575 -0.500795
-0.049689 1.035290 -0.500385
-0.046870 1.002817 -0.493475
-0.045669 0.995123 -0.491809
-0.042004 1.004049 -0.493447
-0.039991 1.001903 -0.492887
-0.040777 0.982581 -0.488932
-0.040316 0.971826 -0.486682
-0.038068 0.972073 -0.486610
-0.036086 0.970778 -0.486235
-0.030233 0.978485 -0.487515
-0.025814 0.989848 -0.489628
-0.036488 0.903995 -0.472487
-0.034785 0.903022 -0.472202
-0.032966 0.902618 -0.472031
-0.031077 0.902535 -0.471923
-0.029016 0.903199 -0.471961
-0.026787 0.904555 -0.472135
-0.024922 0.904281 -0.471993
-0.022903 0.904650 -0.471977
-0.021201 0.903686 -0.471703
-0.019424 0.903046 -0.471493
-0.016443 0.907149 -0.472202
-0.014478 0.907158 -0.472119
-0.011796 0.909863 -0.472557
-0.010162 0.908561 -0.472223
-0.008531 0.907275 -0.471894
-0.006190 0.908563 -0.472062
-0.003393 0.911392 -0.472526
-0.002328 0.908116 -0.471818
0.000393 0.910563 -0.472210
0.001901 0.908860 -0.471808
0.005481 0.914001 -0.472716
0.006776 0.911572 -0.472177
0.008800 0.911524 -0.472095
0.011278 0.912879 -0.472281
0.013219 0.912522 -0.472142
0.015087 0.911935 -0.471961
0.017816 0.913916 -0.472269
0.019374 0.912380 -0.471910
0.021590 0.912774 -0.471919
0.023488 0.912235 -0.471752
0.026278 0.914197 -0.472061
0.027967 0.913038 -0.471779
0.030517 0.914242 -0.471946
0.033761 0.917263 -0.472458
0.036417 0.918618 -0.472656
0.038429 0.918229 -0.472526
0.039933 0.916523 -0.472149
0.037562 0.904978 -0.469919
0.037267 0.898937 -0.468731
0.039717 0.899841 -0.468853
0.040729 0.897187 -0.468307
0.043660 0.899212 -0.468644
0.046500 0.900951 -0.468928
0.048986 0.901792 -0.469045
0.051563 0.902804 -0.469196
0.053908 0.903236 -0.469239
0.056406 0.903985 -0.469344
0.059379 0.905755 -0.469642
0.062282 0.907307 -0.469901
0.064354 0.906987 -0.469812
0.066355 0.906499 -0.469693
0.068539 0.906392 -0.469647
0.071327 0.907534 -0.469838
0.073454 0.907253 -0.469764
0.076542 0.908931 -0.470059
0.079291 0.909856 -0.470216
0.082003 0.910664 -0.470353
0.085782 0.913543 -0.470880
0.088526 0.914306 -0.471013
0.090815 0.914142 -0.470976
0.093313 0.914358 -0.471013
0.095764 0.914454 -0.471030
0.098806 0.915631 -0.471252
0.101443 0.916004 -0.471326
0.104432 0.916987 -0.471518
0.107335 0.917767 -0.471674
0.109646 0.917443 -0.471627
0.112199 0.917526 -0.471658
0.116135 0.920004 -0.472141
0.118766 0.920138 -0.472188
0.121428 0.920292 -0.472243
0.124850 0.921707 -0.472536
0.127974 0.922561 -0.472727
0.131009 0.923220 -0.472885
0.134903 0.925248 -0.473303
0.137418 0.924962 -0.473290
0.139991 0.924745 -0.473293
0.143884 0.926605 -0.473689
0.147125 0.927369 -0.473881
0.150436 0.928197 -0.474089
0.152511 0.927072 -0.473932
0.157455 0.930322 -0.474600
0.160741 0.930970 -0.474782
0.163444 0.930704 -0.474793
0.167267 0.932074 -0.475115
0.170007 0.931803 -0.475128
0.172803 0.931590 -0.475154
0.176043 0.931994 -0.475297
0.180354 0.933887 -0.475723
0.183407 0.933948 -0.475803
0.186778 0.934429 -0.475961
0.189448 0.933911 -0.475930
0.192730 0.934220 -0.476054
0.196484 0.935143 -0.476293
0.199586 0.935159 -0.476358
0.201875 0.934083 -0.476211
0.209663 0.940236 -0.477438
0.212019 0.939196 -0.477291
0.214935 0.938891 -0.477278
0.217840 0.938571 -0.477256
0.221808 0.939600 -0.477486
0.224486 0.938995 -0.477396
0.228060 0.939516 -0.477513
0.231893 0.940352 -0.477682
0.234840 0.940102 -0.477633
0.238197 0.940363 -0.477672
0.240424 0.939282 -0.477443
0.243802 0.939603 -0.477471
0.246093 0.938659 -0.477244
0.261166 0.952672 -0.479858
0.269867 0.959103 -0.481010
0.266116 0.951159 -0.479409
0.267109 0.935549 -0.475806
0.267941 0.933365 -0.475226
0.276071 0.939194 -0.476140
0.232726 0.889331 -0.466589
-0.433107 1.630242 -0.664041
-0.431448 1.639540 -0.666357
-0.426345 1.636819 -0.665757
-0.424605 1.646697 -0.668147
-0.326799 1.321825 -0.590085
-0.320628 1.310845 -0.587367
-0.315590 1.304217 -0.585669
-0.309784 1.294419 -0.583190
-0.305335 1.290065 -0.581992
-0.301449 1.288100 -0.581344
-0.297247 1.284877 -0.580374
-0.294729 1.289069 -0.581151
-0.339723 1.548602 -0.641970
-0.334015 1.544452 -0.640579
-0.328638 1.541897 -0.639545
-0.323679 1.541479 -0.638996
-0.314485 1.571532 -0.644580
-0.308825 1.568552 -0.643343
-0.303908 1.569730 -0.643067
-0.298430 1.567795 -0.642050
-0.294681 1.576197 -0.643428
-0.288709 1.571431 -0.641732
-0.282979 1.567960 -0.640333
-0.278067 1.569687 -0.640132
-0.273808 1.575993 -0.640978
-0.267901 1.571161 -0.639254
-0.262401 1.568942 -0.638131
-0.257496 1.571050 -0.637999
-0.252483 1.572444 -0.637702
-0.247714 1.575904 -0.637873
-0.242671 1.577284 -0.637570
-0.237502 1.577614 -0.637029
-0.232692 1.581236 -0.637235
-0.224724 1.606135 -0.641611
-0.220066 1.613169 -0.642572
-0.209369 1.612881 -0.641286
-0.203982 1.612033 -0.640496
-0.197997 1.602890 -0.637873
-0.192187 1.594867 -0.635515
-0.187036 1.595721 -0.635132
-0.183010 1.615413 -0.638905
-0.177856 1.617844 -0.638872
-0.172122 1.608960 -0.636363
-0.166456 1.599546 -0.633755
-0.161878 1.614510 -0.636484
-0.156759 1.618139 -0.636738
-0.151705 1.624748 -0.637643
-0.146979 1.645885 -0.641701
-0.141835 1.656673 -0.643507
-0.136319 1.651001 -0.641757
-0.130920 1.650021 -0.641031
-0.103978 1.659232 -0.640539
-0.098494 1.664530 -0.641194
-0.092623 1.686144 -0.645319
-0.087147 1.684474 -0.644495
-0.081565 1.686914 -0.644550
-0.077333 1.650093 -0.636315
-0.072527 1.636495 -0.633012
-0.075813 1.280369 -0.557046
-0.073225 1.262888 -0.553109
-0.070097 1.256565 -0.551521
-0.067854 1.238044 -0.547394
-0.045657 1.255756 -0.549609
-0.041175 1.265441 -0.551373
-0.036646 1.274686 -0.553044
-0.054368 1.057598 -0.507964
-0.052260 1.053634 -0.506987
-0.051654 1.037859 -0.503594
-0.049065 1.038597 -0.503592
-0.047227 0.999006 -0.495075
-0.045208 0.996966 -0.494525
-0.043800 0.991032 -0.493187
-0.041878 0.988703 -0.492585
-0.039650 0.988373 -0.492390
-0.038956 0.978864 -0.490340
-0.038980 0.965688 -0.487555
-0.037159 0.963645 -0.487026
-0.037556 0.949480 -0.484055
-0.033075 0.962202 -0.486507
-0.024704 0.994615 -0.492916
-0.027848 0.925603 -0.478539
-0.027342 0.918726 -0.477070
-0.025623 0.917517 -0.476736
-0.023930 0.916227 -0.476388
-0.022622 0.913339 -0.475723
-0.021149 0.911238 -0.475218
-0.020453 0.906027 -0.474096
-0.015686 0.917313 -0.476251
-0.013052 0.919764 -0.476651
-0.012019 0.915936 -0.475809
-0.011234 0.911301 -0.474809
-0.009687 0.909646 -0.474401
-0.005607 0.917257 -0.475824
-0.003592 0.917195 -0.475732
-0.001177 0.918520 -0.475914
0.000562 0.917450 -0.475626
0.001548 0.913841 -0.474840
0.004492 0.916870 -0.475360
0.008592 0.923575 -0.476602
0.011426 0.925953 -0.476995
0.012279 0.921950 -0.476138
0.012842 0.917151 -0.475127
0.016020 0.920524 -0.475718
0.017749 0.919386 -0.475428
0.020622 0.921678 -0.475809
0.021986 0.919451 -0.475309
0.024179 0.919669 -0.475287
0.025285 0.916766 -0.474659
0.027589 0.917292 -0.474701
0.029921 0.917863 -0.474753
0.035197 0.926424 -0.476359
0.036082 0.922920 -0.475621
0.037432 0.920729 -0.475141
0.039297 0.919925 -0.474931
0.037954 0.910853 -0.473122
0.035606 0.899452 -0.470865
0.036787 0.897192 -0.470382
0.039033 0.897609 -0.470419
0.041702 0.899029 -0.470651
0.043814 0.899050 -0.470614
0.046217 0.899741 -0.470709
0.049139 0.901617 -0.471034
0.051907 0.903065 -0.471278
0.054214 0.903403 -0.471310
0.056365 0.903358 -0.471270
0.058808 0.903946 -0.471354
0.062928 0.908194 -0.472145
0.064515 0.906802 -0.471852
0.066556 0.906398 -0.471751
0.068350 0.905456 -0.471549
0.071341 0.907027 -0.471833
0.074177 0.908220 -0.472046
0.077411 0.910174 -0.472408
0.079609 0.909962 -0.472356
0.082055 0.910227 -0.472398
0.086460 0.914342 -0.473183
