ply
format ascii 1.0
comment ---
element vertex 1688
property float x
property float y
property float z
element face 0
property list uchar uint vertex_indices
end_header
-0.194682 1.362869 -0.629768
-0.185331 1.384456 -0.632944
-0.177905 1.367132 -0.628500
-0.173587 1.367439 -0.628022
-0.169601 1.369758 -0.627998
-0.166131 1.375460 -0.628728
-0.163539 1.387262 -0.630808
-0.159092 1.387087 -0.630234
-0.148827 1.409344 -0.633545
-0.143589 1.403378 -0.631717
-0.139319 1.404794 -0.631513
-0.135970 1.414111 -0.633033
-0.117073 1.403194 -0.628698
-0.105924 1.376029 -0.621932
-0.101069 1.368609 -0.619897
-0.084126 1.252657 -0.594337
-0.062676 1.075386 -0.555747
-0.059455 1.067332 -0.553774
-0.057060 1.074127 -0.554938
-0.048545 1.000985 -0.539073
-0.042514 0.962804 -0.530649
-0.039872 0.947521 -0.527260
-0.035252 0.930196 -0.523274
-0.032978 0.914612 -0.519863
-0.030925 0.908343 -0.518391
-0.028953 0.908599 -0.518273
-0.026981 0.908008 -0.517981
-0.023025 0.909533 -0.517962
-0.021049 0.909515 -0.517794
-0.019045 0.910907 -0.517916
-0.017039 0.911821 -0.517941
-0.015004 0.913460 -0.518115
-0.011063 0.912143 -0.517531
-0.009072 0.912165 -0.517380
-0.007001 0.913832 -0.517563
-0.005017 0.913526 -0.517348
-0.002720 0.918720 -0.518243
-0.000737 0.918041 -0.517955
0.001201 0.916777 -0.517551
0.003355 0.918683 -0.517784
0.005410 0.919043 -0.517708
0.007404 0.918574 -0.517467
0.009580 0.920279 -0.517662
0.011697 0.921126 -0.517685
0.013691 0.920575 -0.517432
0.015755 0.920769 -0.517328
0.017807 0.920803 -0.517193
0.019863 0.920851 -0.517062
0.021947 0.921131 -0.516978
0.024067 0.921669 -0.516945
0.026170 0.922009 -0.516874
0.028232 0.921984 -0.516733
0.030340 0.922297 -0.516658
0.032477 0.922775 -0.516617
0.035082 0.926486 -0.517208
0.036872 0.924403 -0.516667
0.037889 0.917347 -0.515159
0.038276 0.906675 -0.512953
0.040136 0.905748 -0.512647
0.042111 0.905542 -0.512483
0.044154 0.905734 -0.512396
0.046160 0.905686 -0.512264
0.048391 0.906868 -0.512370
0.050535 0.907503 -0.512371
0.052612 0.907736 -0.512295
0.055238 0.910756 -0.512755
0.057333 0.910952 -0.512673
0.061683 0.912037 -0.512643
0.063754 0.912037 -0.512525
0.065822 0.912001 -0.512401
0.067996 0.912422 -0.512365
0.070360 0.913636 -0.512480
0.072561 0.914088 -0.512451
0.074805 0.914687 -0.512451
0.077048 0.915238 -0.512442
0.079362 0.916031 -0.512479
0.081625 0.916578 -0.512471
0.083546 0.915766 -0.512206
0.085905 0.916628 -0.512259
0.088157 0.917041 -0.512228
0.090702 0.918493 -0.512392
0.092932 0.918746 -0.512332
0.095417 0.919868 -0.512436
0.097818 0.920643 -0.512476
0.100112 0.921009 -0.512439
0.102305 0.921007 -0.512335
0.104725 0.921735 -0.512369
0.107065 0.922159 -0.512346
0.109513 0.922894 -0.512383
0.111874 0.923317 -0.512362
0.114304 0.923919 -0.512376
0.117192 0.925870 -0.512641
0.119516 0.926058 -0.512580
0.121624 0.925585 -0.512398
0.124011 0.925917 -0.512367
0.126878 0.927587 -0.512584
0.129096 0.927361 -0.512452
0.131407 0.927381 -0.512367
0.134368 0.929153 -0.512606
0.137055 0.930116 -0.512697
0.139217 0.929636 -0.512525
0.141751 0.930122 -0.512532
0.144776 0.931842 -0.512767
0.147609 0.933001 -0.512900
0.149897 0.932737 -0.512775
0.152303 0.932750 -0.512702
0.154930 0.933280 -0.512725
0.157337 0.933238 -0.512646
0.159861 0.933453 -0.512616
0.162890 0.934828 -0.512800
0.165143 0.934337 -0.512646
0.167478 0.934022 -0.512526
0.170360 0.934929 -0.512630
0.173373 0.936081 -0.512781
0.176074 0.936488 -0.512799
0.179031 0.937415 -0.512913
0.181409 0.937045 -0.512795
0.184666 0.938529 -0.513015
0.187299 0.938634 -0.512988
0.190155 0.939173 -0.513042
0.192722 0.939078 -0.512983
0.196393 0.941194 -0.513327
0.198820 0.940738 -0.513209
0.201426 0.940616 -0.513154
0.204074 0.940548 -0.513111
0.206670 0.940350 -0.513048
0.210344 0.942192 -0.513355
0.212767 0.941589 -0.513224
0.216003 0.942493 -0.513368
0.219305 0.943467 -0.513526
0.222776 0.944695 -0.513733
0.224627 0.942932 -0.513404
0.228677 0.945113 -0.513788
0.231374 0.944818 -0.513729
0.233920 0.944233 -0.513619
0.236801 0.944210 -0.513613
0.239557 0.943940 -0.513565
0.242356 0.943718 -0.513528
0.245388 0.943862 -0.513558
0.251118 0.948442 -0.514389
0.257423 0.953840 -0.515369
0.262896 0.957742 -0.516081
0.262581 0.952244 -0.515100
0.259708 0.942772 -0.513404
0.257290 0.934187 -0.511868
0.266682 0.944122 -0.513668
0.272005 0.947569 -0.514299
0.272929 0.944221 -0.513705
0.282268 0.953610 -0.515405
0.285927 0.954315 -0.515538
0.284198 0.947032 -0.514228
0.285452 0.944245 -0.513725
0.290655 0.947221 -0.514257
0.298903 0.954496 -0.515560
0.302036 0.954365 -0.515523
0.303584 0.952008 -0.515078
0.314350 0.962531 -0.516948
0.320156 0.966021 -0.517542
0.320349 0.961788 -0.516738
0.330101 0.970581 -0.518268
0.602811 1.324211 -0.581642
0.613502 1.330842 -0.582688
0.618532 1.330011 -0.582375
0.620646 1.325475 -0.581377
0.625789 1.324958 -0.581078
0.630789 1.324331 -0.580738
0.633140 1.320436 -0.579793
0.635374 1.316530 -0.578825
0.638295 1.313611 -0.578011
0.640836 1.310345 -0.577114
0.641751 1.305217 -0.575868
0.646494 1.304895 -0.575450
-0.441409 1.654919 -0.720767
-0.418671 1.603701 -0.707971
-0.410840 1.594564 -0.705571
-0.398773 1.573020 -0.700068
-0.391060 1.564043 -0.697646
-0.394664 1.589023 -0.703584
-0.394317 1.602857 -0.706724
-0.382118 1.580707 -0.700951
-0.377713 1.582524 -0.701058
-0.379587 1.604528 -0.706095
-0.378064 1.616428 -0.708604
-0.367194 1.598287 -0.703708
-0.355799 1.578005 -0.698272
-0.213189 1.135186 -0.588996
-0.208814 1.130974 -0.587636
-0.201725 1.116858 -0.583869
-0.197414 1.112529 -0.582471
-0.192637 1.106339 -0.580619
-0.185192 1.089753 -0.576265
-0.181029 1.085358 -0.574846
-0.178274 1.086418 -0.574732
-0.228766 1.357598 -0.637399
-0.223919 1.355698 -0.636385
-0.216996 1.344304 -0.633135
-0.211325 1.338165 -0.631132
-0.206852 1.337386 -0.630392
-0.203681 1.364411 -0.635571
-0.191706 1.347927 -0.630615
-0.186433 1.342788 -0.628873
-0.176879 1.361937 -0.631626
-0.172153 1.359652 -0.630557
-0.167124 1.355265 -0.629019
-0.163881 1.361997 -0.630016
-0.160984 1.371389 -0.631612
-0.157303 1.375952 -0.632113
-0.141937 1.391788 -0.633585
-0.138043 1.395875 -0.633986
-0.127689 1.381893 -0.629878
-0.104132 1.358162 -0.622313
-0.059609 1.073186 -0.557831
-0.056506 1.066466 -0.556113
-0.041866 0.946728 -0.529501
-0.039937 0.955467 -0.531165
-0.038048 0.969737 -0.534001
-0.034923 0.919297 -0.523087
-0.032857 0.916185 -0.522247
-0.030765 0.905741 -0.519862
-0.028811 0.908372 -0.520247
-0.026837 0.908390 -0.520081
-0.024862 0.908613 -0.519960
-0.022877 0.909606 -0.520002
-0.020884 0.910539 -0.520033
-0.018886 0.911308 -0.520031
-0.016849 0.913321 -0.520289
-0.014832 0.914042 -0.520279
-0.012857 0.913331 -0.519972
-0.010860 0.913321 -0.519813
-0.008835 0.913965 -0.519790
-0.006866 0.913307 -0.519500
-0.004845 0.913723 -0.519433
-0.002574 0.918383 -0.520243
-0.000484 0.919432 -0.520307
0.001476 0.918384 -0.519941
0.003501 0.918367 -0.519789
0.005574 0.918953 -0.519762
0.007647 0.919458 -0.519718
0.009698 0.919633 -0.519609
0.011748 0.919765 -0.519492
0.013804 0.919922 -0.519381
0.015894 0.920383 -0.519333
0.018020 0.921135 -0.519345
0.020089 0.921278 -0.519234
0.022118 0.921044 -0.519047
0.024224 0.921461 -0.518994
0.026307 0.921636 -0.518893
0.028423 0.922042 -0.518839
0.030524 0.922279 -0.518752
0.032942 0.924788 -0.519121
0.035801 0.930194 -0.520070
0.037907 0.930130 -0.519923
0.037325 0.912407 -0.516250
0.038510 0.906995 -0.515044
0.040236 0.905220 -0.514566
0.042240 0.905204 -0.514440
0.044228 0.905078 -0.514293
0.046245 0.905100 -0.514176
0.048671 0.907370 -0.514505
0.050723 0.907488 -0.514408
0.055075 0.908928 -0.514454
0.057459 0.910608 -0.514666
0.059432 0.910191 -0.514467
0.061784 0.911576 -0.514622
0.063848 0.911545 -0.514500
0.065946 0.911652 -0.514406
0.068234 0.912583 -0.514474
0.070456 0.913171 -0.514475
0.072881 0.914580 -0.514637
0.075082 0.914978 -0.514602
0.077253 0.915223 -0.514538
0.079730 0.916666 -0.514708
0.081756 0.916263 -0.514520
0.084005 0.916720 -0.514500
0.086254 0.917140 -0.514473
0.088619 0.917955 -0.514524
0.090920 0.918493 -0.514522
0.093377 0.919551 -0.514620
0.095740 0.920226 -0.514646
0.098123 0.920925 -0.514677
0.100227 0.920634 -0.514519
0.102617 0.921290 -0.514544
0.105277 0.922793 -0.514732
0.107557 0.923000 -0.514673
0.109708 0.922772 -0.514532
0.111979 0.922908 -0.514462
0.115063 0.925521 -0.514865
0.117202 0.925173 -0.514705
0.119525 0.925361 -0.514648
0.121796 0.925372 -0.514560
0.124192 0.925724 -0.514537
0.127151 0.927652 -0.514814
0.129522 0.927849 -0.514765
0.131985 0.928276 -0.514761
0.134621 0.929141 -0.514841
0.137037 0.929366 -0.514801
0.139762 0.930384 -0.514913
0.142388 0.931094 -0.514968
0.144775 0.931142 -0.514901
0.147656 0.932427 -0.515068
0.150143 0.932662 -0.515039
0.152831 0.933367 -0.515100
0.155122 0.933057 -0.514973
0.157684 0.933387 -0.514968
0.160126 0.933398 -0.514905
0.163001 0.934400 -0.515030
0.165517 0.934518 -0.514992
0.168957 0.936726 -0.515346
0.170198 0.933878 -0.514758
0.173972 0.936733 -0.515238
0.176403 0.936527 -0.515148
0.178984 0.936626 -0.515118
0.182110 0.937868 -0.515304
0.184888 0.938313 -0.515343
0.187811 0.939021 -0.515434
0.190041 0.938248 -0.515252
0.193133 0.939232 -0.515399
0.195869 0.939439 -0.515405
0.199228 0.940862 -0.515639
0.201755 0.940574 -0.515558
0.204444 0.940579 -0.515534
0.207425 0.941118 -0.515612
0.210621 0.942025 -0.515761
0.213638 0.942543 -0.515841
0.216723 0.943143 -0.515939
0.219952 0.943964 -0.516081
0.221875 0.942349 -0.515773
0.225862 0.944467 -0.516161
0.228915 0.944838 -0.516227
0.231606 0.944529 -0.516169
0.234360 0.944304 -0.516129
0.237486 0.944697 -0.516207
0.240056 0.944098 -0.516102
0.242380 0.943067 -0.515919
0.245591 0.943510 -0.516012
0.252508 0.950047 -0.517238
0.261696 0.960135 -0.519124
0.264776 0.960083 -0.519129
0.265982 0.957003 -0.518573
0.262106 0.945902 -0.516528
0.259880 0.937596 -0.515000
0.270809 0.949867 -0.517296
0.275023 0.951544 -0.517623
0.279339 0.953321 -0.517967
0.287761 0.961225 -0.519448
0.287017 0.955293 -0.518356
0.286414 0.949676 -0.517318
0.293243 0.955013 -0.518314
0.293665 0.950972 -0.517562
0.301091 0.957031 -0.518683
0.306431 0.960013 -0.519226
0.307575 0.957047 -0.518657
0.311843 0.958486 -0.518899
0.324472 0.971421 -0.521269
0.322096 0.963651 -0.519785
0.319754 0.956084 -0.518330
0.597359 1.316167 -0.584913
0.610272 1.325818 -0.586556
0.614465 1.323975 -0.586049
0.618285 1.321736 -0.585448
0.622463 1.320051 -0.584929
0.627861 1.320010 -0.584689
0.629985 1.315906 -0.583680
0.632212 1.312067 -0.582698
0.636087 1.310408 -0.582094
0.638516 1.307069 -0.581161
0.639341 1.301898 -0.579873
0.634756 1.290319 -0.577399
-0.427644 1.618036 -0.716850
-0.410898 1.583365 -0.708017
-0.404511 1.578069 -0.706567
-0.397477 1.570960 -0.704626
-0.394380 1.575569 -0.705605
-0.392742 1.584890 -0.707735
-0.389367 1.589377 -0.708610
-0.379123 1.572966 -0.704197
-0.371274 1.563798 -0.701577
-0.376985 1.614318 -0.713492
-0.371192 1.612677 -0.712650
-0.359846 1.592681 -0.707199
-0.208941 1.132010 -0.591032
-0.204265 1.126601 -0.589354
-0.195859 1.107307 -0.584245
-0.192611 1.106726 -0.583751
-0.184012 1.085686 -0.578226
-0.179998 1.081764 -0.576908
-0.175976 1.077684 -0.575550
-0.172469 1.075562 -0.574666
-0.224822 1.341074 -0.637702
-0.213205 1.327679 -0.633371
-0.208399 1.325146 -0.632213
-0.203704 1.322999 -0.631150
-0.199713 1.324149 -0.630876
-0.182997 1.324922 -0.628877
-0.177484 1.317630 -0.626623
-0.155895 1.311600 -0.622615
-0.150366 1.329430 -0.625729
-0.147467 1.338206 -0.627247
-0.125875 1.367369 -0.630940
-0.081459 1.221773 -0.594862
-0.077018 1.207924 -0.591426
-0.064301 1.108432 -0.568731
-0.044753 0.971019 -0.537234
-0.041932 0.953402 -0.533173
-0.039663 0.950521 -0.532342
-0.037795 0.965027 -0.535299
-0.034768 0.918265 -0.524943
-0.032690 0.913824 -0.523800
-0.030645 0.908143 -0.522395
-0.028673 0.909074 -0.522424
-0.026694 0.909169 -0.522274
-0.024708 0.910268 -0.522342
-0.022724 0.910308 -0.522183
-0.020735 0.910669 -0.522096
-0.018727 0.911774 -0.522169
-0.016694 0.913466 -0.522368
-0.014729 0.912342 -0.521967
-0.012707 0.913188 -0.521989
-0.010709 0.913192 -0.521832
-0.008720 0.912993 -0.521635
-0.006720 0.913039 -0.521490
-0.004703 0.913372 -0.521408
-0.002578 0.915497 -0.521706
-0.000351 0.918911 -0.522274
0.001679 0.918920 -0.522126
0.003699 0.918779 -0.521948
0.005768 0.919271 -0.521904
0.007842 0.919750 -0.521858
0.009963 0.920704 -0.521913
0.011940 0.919955 -0.521613
0.013995 0.920084 -0.521497
0.016105 0.920724 -0.521489
0.018213 0.921280 -0.521465
0.020324 0.921790 -0.521431
0.022361 0.921589 -0.521251
0.024428 0.921647 -0.521127
0.026591 0.922453 -0.521157
0.028577 0.921800 -0.520888
0.030775 0.922774 -0.520954
0.033763 0.929363 -0.522175
0.035796 0.928828 -0.521931
0.037298 0.924716 -0.520956
0.037653 0.913340 -0.518499
0.039115 0.909662 -0.517622
0.040222 0.904001 -0.516343
0.042245 0.904123 -0.516247
0.044376 0.904851 -0.516274
0.048793 0.906995 -0.516470
0.050926 0.907554 -0.516465
0.053189 0.908744 -0.516588
0.055425 0.909721 -0.516668
0.057410 0.909387 -0.516484
0.059619 0.910144 -0.516521
0.061829 0.910847 -0.516547
0.063997 0.911308 -0.516526
0.066132 0.911582 -0.516468
0.068450 0.912642 -0.516568
0.070738 0.913509 -0.516630
0.073115 0.914696 -0.516756
0.075275 0.914916 -0.516690
0.077584 0.915721 -0.516741
0.079775 0.916002 -0.516689
0.082130 0.916897 -0.516759
0.084291 0.916995 -0.516672
0.086529 0.917362 -0.516639
0.088815 0.917875 -0.516636
0.091228 0.918817 -0.516719
0.093148 0.917942 -0.516444
0.095987 0.920308 -0.516810
0.098317 0.920817 -0.516810
0.100446 0.920608 -0.516669
0.102718 0.920863 -0.516621
0.105511 0.922803 -0.516905
0.107651 0.922553 -0.516760
0.109969 0.922854 -0.516725
0.113137 0.925784 -0.517205
0.115311 0.925543 -0.517066
0.117418 0.925090 -0.516887
0.119589 0.924821 -0.516745
0.121945 0.925085 -0.516709
0.124693 0.926452 -0.516889
0.127128 0.926867 -0.516885
0.130071 0.928674 -0.517154
0.132307 0.928452 -0.517029
0.134670 0.928563 -0.516971
0.137555 0.930049 -0.517181
0.140106 0.930589 -0.517209
0.142629 0.931017 -0.517217
0.145128 0.931350 -0.517208
0.147506 0.931342 -0.517136
0.150011 0.931630 -0.517123
0.153297 0.933819 -0.517478
0.155572 0.933459 -0.517344
0.158224 0.933993 -0.517384
0.160670 0.933996 -0.517325
0.163075 0.933880 -0.517244
0.165723 0.934303 -0.517270
0.169110 0.936379 -0.517615
0.171690 0.936556 -0.517598
0.174181 0.936504 -0.517539
0.176786 0.936676 -0.517526
0.179906 0.937938 -0.517724
0.182473 0.937953 -0.517686
0.184980 0.937812 -0.517620
0.188052 0.938830 -0.517780
0.191030 0.939601 -0.517894
0.193512 0.939309 -0.517808
0.196044 0.939096 -0.517740
0.199031 0.939768 -0.517844
0.202180 0.940714 -0.518003
0.204874 0.940718 -0.517985
0.208367 0.942237 -0.518259
0.210339 0.940783 -0.517968
0.213538 0.941648 -0.518123
0.217164 0.943261 -0.518423
0.219995 0.943337 -0.518433
0.223509 0.944625 -0.518677
0.226399 0.944729 -0.518697
0.229356 0.944916 -0.518736
0.232305 0.945055 -0.518769
0.235183 0.945035 -0.518773
0.237771 0.944484 -0.518678
0.240284 0.943786 -0.518558
0.243708 0.944610 -0.518730
0.245450 0.942576 -0.518358
0.255735 0.954674 -0.520688
0.261874 0.959709 -0.521670
0.265764 0.960969 -0.521932
0.260722 0.947882 -0.519451
0.262879 0.946443 -0.519197
0.266317 0.947018 -0.519328
0.270116 0.948117 -0.519559
0.276307 0.952843 -0.520484
0.281820 0.956424 -0.521188
0.282823 0.953135 -0.520575
0.287850 0.955885 -0.521115
0.291453 0.956469 -0.521238
0.292828 0.953783 -0.520730
0.296526 0.954496 -0.520869
0.295614 0.948601 -0.519737
0.302834 0.954333 -0.520826
0.306176 0.954519 -0.520846
0.310679 0.956319 -0.521167
0.325500 0.972288 -0.524192
0.597634 1.315745 -0.589548
0.607125 1.320926 -0.590391
0.612282 1.320420 -0.590126
0.615509 1.317483 -0.589377
0.618585 1.314461 -0.588590
0.620474 1.310044 -0.587516
0.623822 1.307606 -0.586797
0.629769 1.308526 -0.586690
0.633091 1.306248 -0.585955
0.635710 1.303216 -0.585055
0.636937 1.298607 -0.583838
0.642253 1.299107 -0.583558
-0.405614 1.557652 -0.706539
-0.404437 1.566757 -0.708822
-0.399299 1.564802 -0.708228
-0.400814 1.582536 -0.712656
-0.396476 1.583527 -0.712747
-0.397075 1.599624 -0.716678
-0.389949 1.592781 -0.714687
-0.379427 1.575450 -0.709980
-0.372947 1.570515 -0.708418
-0.369662 1.575805 -0.709436
-0.369446 1.591361 -0.713037
-0.368787 1.606125 -0.716393
-0.367513 1.619482 -0.719347
-0.366263 1.633525 -0.722433
-0.194615 1.103236 -0.586260
-0.187661 1.088611 -0.582247
-0.183856 1.085546 -0.581134
-0.179035 1.078437 -0.579005
-0.175225 1.075107 -0.577819
-0.169969 1.065796 -0.575143
-0.166255 1.062518 -0.573968
-0.203514 1.303009 -0.630944
-0.199782 1.304900 -0.630870
-0.197458 1.313713 -0.632477
-0.174398 1.301162 -0.626769
-0.167430 1.284636 -0.622290
-0.163977 1.287725 -0.622519
-0.155434 1.309485 -0.626169
-0.149896 1.327187 -0.629337
-0.144932 1.321242 -0.627434
-0.138820 1.306334 -0.623443
-0.121418 1.329021 -0.626355
-0.090331 1.246592 -0.604836
-0.085785 1.234773 -0.601757
-0.079702 1.200281 -0.593538
-0.075659 1.190782 -0.591031
-0.071202 1.173249 -0.586718
-0.056166 1.066229 -0.561659
-0.044333 0.963174 -0.537818
-0.041762 0.952447 -0.535212
-0.039602 0.953671 -0.535282
-0.037686 0.966912 -0.538025
-0.034611 0.917033 -0.526750
-0.032518 0.910837 -0.525197
-0.030507 0.907863 -0.524363
-0.028535 0.909430 -0.524536
-0.026551 0.910123 -0.524518
-0.024565 0.910311 -0.524390
-0.022579 0.910366 -0.524235
-0.020599 0.909986 -0.523986
-0.018575 0.911921 -0.524246
-0.016577 0.912133 -0.524130
-0.014578 0.912308 -0.524008
-0.012600 0.911854 -0.523750
-0.010594 0.912184 -0.523665
-0.008590 0.912382 -0.523552
-0.006572 0.912827 -0.523495
-0.004539 0.913458 -0.523479
-0.002360 0.916450 -0.523974
-0.000397 0.915575 -0.523635
0.001816 0.918492 -0.524114
0.003878 0.918932 -0.524060
0.005934 0.919235 -0.523979
0.008050 0.920202 -0.524040
0.010128 0.920623 -0.523986
0.012209 0.921002 -0.523923
0.014250 0.920919 -0.523763
0.016331 0.921223 -0.523687
0.018488 0.922198 -0.523755
0.020494 0.921703 -0.523511
0.022619 0.922268 -0.523494
0.024770 0.922982 -0.523508
0.026815 0.922777 -0.523330
0.028929 0.923102 -0.523264
0.030956 0.922734 -0.523053
0.033224 0.924117 -0.523212
0.035396 0.924716 -0.523207
0.037031 0.921638 -0.522431
0.039147 0.921879 -0.522353
0.038839 0.906742 -0.519061
0.040241 0.902982 -0.518154
0.042340 0.903586 -0.518160
0.044735 0.905846 -0.518512
0.046830 0.906282 -0.518484
0.048910 0.906592 -0.518431
0.051028 0.907072 -0.518413
0.053222 0.907908 -0.518470
0.055551 0.909374 -0.518658
0.057612 0.909421 -0.518553
0.059704 0.909595 -0.518475
0.062034 0.910877 -0.518626
0.064220 0.911413 -0.518624
0.066478 0.912234 -0.518682
0.068724 0.912953 -0.518719
0.071034 0.913901 -0.518803
0.073241 0.914354 -0.518787
0.075592 0.915368 -0.518887
0.077834 0.915879 -0.518884
0.080398 0.917644 -0.519137
0.082487 0.917459 -0.518994
0.084588 0.917309 -0.518859
0.087403 0.919837 -0.519270
0.089542 0.919756 -0.519151
0.091326 0.918369 -0.518768
0.093781 0.919408 -0.518879
0.096072 0.919817 -0.518863
0.098472 0.920569 -0.518917
0.100653 0.920534 -0.518813
0.103404 0.922380 -0.519090
0.105552 0.922172 -0.518954
0.107567 0.921525 -0.518731
0.110812 0.924774 -0.519293
0.113080 0.924854 -0.519218
0.115324 0.924839 -0.519126
0.117725 0.925280 -0.519128
0.120131 0.925701 -0.519126
0.122100 0.924811 -0.518863
0.124820 0.926092 -0.519037
0.127942 0.928458 -0.519428
0.130436 0.928975 -0.519451
0.132538 0.928371 -0.519253
0.134701 0.927931 -0.519089
0.137651 0.929591 -0.519345
0.140019 0.929646 -0.519283
0.142339 0.929551 -0.519194
0.145644 0.931967 -0.519605
0.147890 0.931612 -0.519468
0.149994 0.930883 -0.519259
0.152714 0.931674 -0.519353
0.155815 0.933347 -0.519624
0.158459 0.933853 -0.519666
0.161165 0.934469 -0.519731
0.163943 0.935212 -0.519824
0.166418 0.935209 -0.519773
0.169232 0.935956 -0.519871
0.171702 0.935881 -0.519810
0.174334 0.936143 -0.519818
0.177216 0.936919 -0.519930
0.179891 0.937203 -0.519947
0.182745 0.937833 -0.520035
0.185597 0.938416 -0.520117
0.188212 0.938461 -0.520095
0.191175 0.939196 -0.520212
0.194269 0.940153 -0.520375
0.196927 0.940174 -0.520358
0.199791 0.940578 -0.520418
0.202100 0.939847 -0.520258
0.206204 0.942605 -0.520787
0.208053 0.940920 -0.520446
0.211688 0.942646 -0.520777
0.214723 0.943171 -0.520876
0.217312 0.942821 -0.520806
0.220616 0.943767 -0.520993
0.223881 0.944587 -0.521158
0.226659 0.944482 -0.521144
0.229829 0.945044 -0.521264
0.232562 0.944794 -0.521227
0.235462 0.944807 -0.521244
0.238069 0.944286 -0.521158
0.241062 0.944403 -0.521199
0.244129 0.944611 -0.521261
0.246326 0.943335 -0.521032
0.255739 0.953963 -0.523147
0.259146 0.954534 -0.523284
0.258791 0.948988 -0.522219
0.258144 0.943068 -0.521080
0.262853 0.945715 -0.521628
0.267734 0.948553 -0.522213
0.270003 0.947265 -0.521985
0.278112 0.954933 -0.523521
0.278224 0.950298 -0.522630
0.279469 0.947442 -0.522088
0.287663 0.954955 -0.523587
0.294895 0.960893 -0.524772
0.288458 0.946796 -0.522001
0.288623 0.942491 -0.521156
0.293743 0.945343 -0.521718
0.296415 0.944678 -0.521580
0.302057 0.948190 -0.522258
0.310696 0.955798 -0.523736
0.330257 0.978283 -0.528137
0.322535 0.963219 -0.525127
0.335830 0.976800 -0.527750
0.596500 1.313468 -0.593813
0.602161 1.313670 -0.593704
0.608421 1.314699 -0.593735
0.613204 1.313859 -0.593377
0.616348 1.310996 -0.592600
0.618308 1.306740 -0.591528
0.620571 1.303001 -0.590536
0.625631 1.302889 -0.590228
0.630753 1.302929 -0.589926
0.632869 1.299344 -0.588895
0.635526 1.296552 -0.587997
0.640239 1.296374 -0.587582
-0.411582 1.576547 -0.716405
-0.403984 1.593701 -0.720676
-0.395934 1.597930 -0.721459
-0.390761 1.596938 -0.720985
-0.384565 1.592957 -0.719696
-0.379464 1.592512 -0.719295
-0.367697 1.571001 -0.713378
-0.366015 1.581675 -0.715805
-0.372610 1.637806 -0.729553
-0.366489 1.635563 -0.728503
-0.193453 1.099469 -0.588313
-0.188221 1.091206 -0.585864
-0.183424 1.084353 -0.583773
-0.179650 1.081277 -0.582642
-0.174979 1.074547 -0.580578
-0.169899 1.065908 -0.578030
-0.165320 1.059013 -0.575928
-0.161784 1.056275 -0.574877
-0.199610 1.285392 -0.630591
-0.183764 1.247536 -0.620145
-0.165513 1.274323 -0.623714
-0.162393 1.279085 -0.624371
-0.147255 1.282973 -0.623323
-0.136377 1.289374 -0.623411
-0.122903 1.275133 -0.618622
-0.119247 1.311038 -0.626223
-0.112209 1.282353 -0.618997
-0.089071 1.233485 -0.605479
-0.083250 1.204440 -0.598336
-0.079186 1.195636 -0.595930
-0.074006 1.169122 -0.589432
-0.069935 1.156060 -0.586076
-0.065872 1.140940 -0.582263
-0.047431 0.988115 -0.546050
-0.044540 0.973078 -0.542388
-0.041652 0.953398 -0.537683
-0.039562 0.957634 -0.538442
-0.034373 0.910577 -0.527366
-0.032362 0.908939 -0.526816
-0.030371 0.907750 -0.526372
-0.028398 0.909537 -0.526601
-0.026412 0.910051 -0.526545
-0.024424 0.910206 -0.526410
-0.022425 0.911256 -0.526478
-0.020466 0.909296 -0.525873
-0.018432 0.911721 -0.526252
-0.016430 0.912081 -0.526170
-0.014429 0.912263 -0.526050
-0.012423 0.912553 -0.525955
-0.010461 0.911665 -0.525601
-0.008439 0.912285 -0.525583
-0.006404 0.913038 -0.525596
-0.004340 0.914185 -0.525698
-0.002212 0.916218 -0.525995
-0.000230 0.915653 -0.525721
0.001992 0.918649 -0.526231
0.004001 0.918333 -0.526014
0.006094 0.919119 -0.526040
0.008131 0.919120 -0.525895
0.010286 0.920463 -0.526045
0.012342 0.920562 -0.525924
0.014462 0.921304 -0.525944
0.016575 0.921887 -0.525931
0.018604 0.921613 -0.525732
0.020660 0.921584 -0.525588
0.022785 0.922140 -0.525572
0.024937 0.922861 -0.525593
0.027071 0.923363 -0.525567
0.029097 0.922973 -0.525349
0.031220 0.923321 -0.525292
0.033589 0.925387 -0.525606
0.035716 0.925623 -0.525526
0.037621 0.924332 -0.525119
0.038045 0.913469 -0.522664
0.038934 0.906174 -0.520980
0.040437 0.903058 -0.520194
0.042893 0.905769 -0.520654
0.044998 0.906284 -0.520645
0.047029 0.906338 -0.520539
0.051150 0.906699 -0.520384
0.053696 0.909367 -0.520835
0.055617 0.908718 -0.520584
0.058224 0.911476 -0.521054
0.059952 0.909838 -0.520596
0.062239 0.910899 -0.520708
0.064505 0.911802 -0.520788
0.066854 0.913017 -0.520934
0.068916 0.912898 -0.520800
0.071152 0.913518 -0.520823
0.073385 0.914081 -0.520834
0.075840 0.915526 -0.521031
0.077425 0.913358 -0.520472
0.080424 0.916893 -0.521107
0.082609 0.917092 -0.521046
0.084773 0.917186 -0.520963
0.087441 0.919157 -0.521273
0.089763 0.919754 -0.521297
0.091880 0.919571 -0.521160
0.093966 0.919269 -0.521000
0.096528 0.920621 -0.521184
0.098665 0.920445 -0.521053
0.101433 0.922392 -0.521361
0.103653 0.922433 -0.521277
0.105609 0.921591 -0.521012
0.108344 0.923260 -0.521266
0.110766 0.923868 -0.521303
0.113120 0.924226 -0.521289
0.115340 0.924141 -0.521186
0.118214 0.926009 -0.521486
0.120255 0.925329 -0.521264
0.122443 0.925079 -0.521131
0.125460 0.927202 -0.521487
0.128315 0.928783 -0.521733
0.130553 0.928571 -0.521613
0.132822 0.928430 -0.521510
0.135082 0.928245 -0.521400
0.137981 0.929755 -0.521638
0.139869 0.928532 -0.521320
0.143112 0.930849 -0.521725
0.145290 0.930343 -0.521557
0.148166 0.931597 -0.521750
0.150777 0.932129 -0.521798
0.153333 0.932489 -0.521813
0.155494 0.931855 -0.521628
0.158337 0.932849 -0.521776
0.161737 0.935115 -0.522184
0.164358 0.935472 -0.522208
0.166896 0.935604 -0.522188
0.169260 0.935311 -0.522085
0.171804 0.935401 -0.522061
0.174353 0.935475 -0.522038
0.177402 0.936619 -0.522233
0.180330 0.937443 -0.522366
0.183015 0.937701 -0.522388
0.185717 0.937958 -0.522412
0.188273 0.937876 -0.522370
0.191695 0.939556 -0.522687
0.194491 0.939889 -0.522735
0.196968 0.939543 -0.522649
0.199787 0.939855 -0.522699
0.203104 0.941110 -0.522942
0.205754 0.941008 -0.522914
0.208982 0.941989 -0.523107
0.212015 0.942548 -0.523219
0.215226 0.943396 -0.523391
0.217677 0.942781 -0.523271
0.221127 0.943984 -0.523522
0.224219 0.944479 -0.523632
0.226252 0.943027 -0.523351
0.228799 0.942490 -0.523258
0.233184 0.945166 -0.523817
0.235797 0.944670 -0.523737
0.238834 0.944884 -0.523803
0.241887 0.945090 -0.523869
0.244455 0.944445 -0.523765
0.247038 0.943812 -0.523665
0.254248 0.950784 -0.525105
0.256125 0.948889 -0.524753
0.257192 0.945704 -0.524139
0.259122 0.943935 -0.523813
0.266741 0.951162 -0.525308
0.268606 0.949225 -0.524947
0.270719 0.947694 -0.524667
0.274249 0.948341 -0.524827
0.277544 0.948604 -0.524907
0.283623 0.953018 -0.525826
0.291705 0.960304 -0.527326
0.288179 0.950382 -0.525329
0.295335 0.956185 -0.526519
0.297960 0.955345 -0.526356
0.298521 0.951576 -0.525592
0.300938 0.950503 -0.525368
0.303376 0.949485 -0.525148
0.314407 0.960401 -0.527341
0.319153 0.962497 -0.527735
0.322987 0.963328 -0.527862
0.327175 0.964639 -0.528075
0.593289 1.308461 -0.597498
0.598383 1.307998 -0.597253
0.604416 1.308817 -0.597244
0.609238 1.308116 -0.596905
0.614104 1.307544 -0.596569
0.617017 1.304568 -0.595725
0.618645 1.300090 -0.594557
0.623037 1.299207 -0.594087
0.626267 1.296970 -0.593323
0.630270 1.295794 -0.592748
0.633949 1.294317 -0.592089
0.633244 1.287624 -0.590371
-0.403614 1.555930 -0.715911
-0.399826 1.557391 -0.716286
-0.394633 1.595791 -0.726095
-0.388450 1.591588 -0.724786
-0.387397 1.603402 -0.727694
-0.376594 1.585068 -0.722565
-0.365781 1.566377 -0.717315
-0.375563 1.631189 -0.733762
-0.368491 1.625429 -0.731826
-0.359384 1.612759 -0.728041
-0.349680 1.597788 -0.723629
-0.341083 1.586361 -0.720132
-0.334007 1.580118 -0.717977
-0.190996 1.102161 -0.591687
-0.183411 1.084777 -0.586823
-0.179020 1.079264 -0.585049
-0.174457 1.072887 -0.583049
-0.169414 1.064331 -0.580485
-0.164319 1.055234 -0.577786
-0.160634 1.051757 -0.576536
-0.157652 1.051199 -0.576035
-0.154730 1.050889 -0.575595
-0.181882 1.238835 -0.621720
-0.173726 1.217044 -0.615721
-0.167635 1.204686 -0.612128
-0.165933 1.214746 -0.614186
-0.155734 1.219043 -0.613836
-0.153177 1.225516 -0.614975
-0.147897 1.215826 -0.612100
-0.144148 1.238330 -0.616735
-0.144907 1.268148 -0.623608
-0.132092 1.258723 -0.619878
-0.128308 1.258700 -0.619413
-0.124736 1.260296 -0.619348
-0.121893 1.267980 -0.620763
-0.115923 1.249243 -0.615781
-0.112520 1.251912 -0.615994
-0.110990 1.272389 -0.620500
-0.091301 1.219976 -0.606292
-0.087775 1.219820 -0.605872
-0.072770 1.153413 -0.589040
-0.069080 1.145214 -0.586775
-0.065310 1.134226 -0.583865
-0.044074 0.963667 -0.542553
-0.041558 0.954815 -0.540278
-0.039379 0.955919 -0.540328
-0.037359 0.965220 -0.542282
-0.034279 0.912817 -0.529939
-0.032207 0.906777 -0.528362
-0.030239 0.907919 -0.528450
-0.028262 0.909459 -0.528631
-0.026275 0.909644 -0.528501
-0.024279 0.910893 -0.528617
-0.022302 0.909689 -0.528173
-0.020320 0.909473 -0.527957
-0.016280 0.912171 -0.528247
-0.014236 0.913654 -0.528423
-0.012262 0.912830 -0.528077
-0.010235 0.913475 -0.528066
-0.008244 0.913172 -0.527841
-0.006245 0.913095 -0.527670
-0.004163 0.914533 -0.527842
-0.002017 0.916805 -0.528203
-0.000152 0.914346 -0.527500
0.002096 0.917764 -0.528120
0.004319 0.920411 -0.528567
0.006186 0.918147 -0.527913
0.008434 0.920740 -0.528349
0.010349 0.919221 -0.527866
0.012479 0.920185 -0.527939
0.014682 0.921776 -0.528153
0.016769 0.922067 -0.528078
0.018746 0.921286 -0.527766
0.020779 0.921057 -0.527578
0.022868 0.921309 -0.527498
0.025024 0.922079 -0.527534
0.027162 0.922627 -0.527522
0.029280 0.922966 -0.527465
0.031474 0.923827 -0.527523
0.033900 0.926272 -0.527931
0.036073 0.926788 -0.527915
0.037212 0.920322 -0.526368
0.037759 0.910402 -0.524069
0.039119 0.906177 -0.523023
0.041006 0.905410 -0.522736
0.042667 0.903322 -0.522162
0.047282 0.906694 -0.522665
0.049489 0.907670 -0.522762
0.051729 0.908760 -0.522885
0.053819 0.908998 -0.522823
0.058232 0.910538 -0.522932
0.060202 0.910087 -0.522724
0.062350 0.910478 -0.522699
0.064745 0.911976 -0.522914
0.066961 0.912579 -0.522936
0.069162 0.913078 -0.522936
0.071377 0.913593 -0.522941
0.073560 0.913938 -0.522910
0.075724 0.914172 -0.522857
0.078213 0.915699 -0.523081
0.080424 0.916040 -0.523053
0.082659 0.916444 -0.523038
0.084942 0.916999 -0.523057
0.087175 0.917330 -0.523030
0.089921 0.919516 -0.523398
0.092210 0.919956 -0.523395
0.094595 0.920702 -0.523459
0.097017 0.921532 -0.523541
0.098920 0.920533 -0.523237
0.101671 0.922411 -0.523544
0.103836 0.922262 -0.523422
0.106252 0.922917 -0.523472
0.108530 0.923090 -0.523422
0.110715 0.922945 -0.523306
0.113024 0.923170 -0.523269
0.115772 0.924710 -0.523511
0.118120 0.924977 -0.523487
0.120423 0.925082 -0.523429
0.122587 0.924761 -0.523284
0.124933 0.924947 -0.523248
0.128439 0.928396 -0.523898
0.130835 0.928624 -0.523873
0.133162 0.928633 -0.523804
0.135699 0.929190 -0.523852
0.138315 0.929921 -0.523938
0.140793 0.930247 -0.523942
0.143281 0.930564 -0.523945
0.146102 0.931704 -0.524122
0.148563 0.931879 -0.524100
0.151453 0.933095 -0.524298
0.153801 0.932923 -0.524208
0.156381 0.933294 -0.524234
0.158849 0.933360 -0.524198
0.161259 0.933264 -0.524131
0.164756 0.935684 -0.524590
0.167161 0.935497 -0.524510
0.169490 0.935116 -0.524391
0.171944 0.935001 -0.524331
0.174991 0.936177 -0.524541
0.177825 0.936828 -0.524646
0.180629 0.937374 -0.524731
0.183132 0.937232 -0.524676
0.185798 0.937410 -0.524690
0.189634 0.939998 -0.525207
0.192099 0.939667 -0.525122
0.194404 0.938990 -0.524968
0.196996 0.938875 -0.524933
0.200559 0.940667 -0.525297
0.203263 0.940697 -0.525299
0.206726 0.942171 -0.525603
0.208913 0.941129 -0.525388
0.212606 0.942942 -0.525768
0.215312 0.942828 -0.525752
0.218195 0.943012 -0.525801
0.220462 0.942033 -0.525611
0.224127 0.943581 -0.525948
0.226751 0.943194 -0.525887
0.229178 0.942434 -0.525751
0.233511 0.945010 -0.526309
0.236427 0.945035 -0.526340
0.239085 0.944588 -0.526276
0.241843 0.944291 -0.526245
0.244984 0.944613 -0.526344
0.247916 0.944554 -0.526366
0.259428 0.958580 -0.529316
0.260588 0.955436 -0.528699
0.256519 0.943913 -0.526340
0.262756 0.949026 -0.527440
0.269529 0.954853 -0.528690
0.270898 0.952108 -0.528155
0.271990 0.948973 -0.527536
0.275802 0.950040 -0.527792
0.278570 0.949491 -0.527707
0.281779 0.949599 -0.527757
0.285668 0.950701 -0.528011
0.281918 0.940566 -0.525917
0.293157 0.952399 -0.528399
0.305416 0.965462 -0.531134
0.310455 0.967988 -0.531663
0.310037 0.962773 -0.530570
0.302071 0.947115 -0.527290
0.305541 0.947591 -0.527367
0.319264 0.962129 -0.530368
0.329644 0.971874 -0.532356
0.338116 0.978893 -0.533763
0.589626 1.302880 -0.601005
0.595510 1.303539 -0.600986
0.600893 1.303587 -0.600818
0.604503 1.301408 -0.600164
0.606144 1.296807 -0.598985
0.611213 1.296695 -0.598713
0.616650 1.297115 -0.598525
0.619045 1.293803 -0.597543
0.622638 1.292098 -0.596870
0.627695 1.292296 -0.596563
0.632047 1.291705 -0.596070
0.640447 1.296109 -0.596573
-0.424028 1.616134 -0.737103
-0.397125 1.551607 -0.719636
-0.394840 1.557546 -0.721218
-0.401211 1.589380 -0.729776
-0.397245 1.591323 -0.730204
-0.387339 1.575550 -0.725804
-0.387991 1.591946 -0.730070
-0.385463 1.599110 -0.731799
-0.378833 1.593750 -0.730108
-0.368244 1.575784 -0.724984
-0.366194 1.585187 -0.727209
-0.376339 1.635228 -0.740331
-0.366780 1.621112 -0.736141
-0.357047 1.606141 -0.731698
-0.352499 1.608765 -0.731950
-0.347517 1.610119 -0.731830
-0.338928 1.598795 -0.728292
-0.328656 1.581099 -0.723040
-0.177600 1.074156 -0.586620
-0.172752 1.066505 -0.584260
-0.167705 1.057773 -0.581616
-0.163368 1.051662 -0.579664
-0.160200 1.050280 -0.578952
-0.156929 1.048415 -0.578110
-0.151960 1.038940 -0.575281
-0.148991 1.038127 -0.574714
-0.178180 1.221236 -0.620919
-0.170115 1.199437 -0.614822
-0.166708 1.200385 -0.614597
-0.162452 1.196887 -0.613232
-0.157221 1.187897 -0.610469
-0.153995 1.209640 -0.615086
-0.151911 1.218635 -0.616901
-0.149549 1.226441 -0.618406
-0.142780 1.207126 -0.613061
-0.142617 1.229144 -0.618149
-0.136227 1.235715 -0.618872
-0.132396 1.234715 -0.618163
-0.129963 1.243907 -0.620002
-0.126243 1.243853 -0.619535
-0.123342 1.250253 -0.620675
-0.114765 1.240455 -0.617368
-0.110693 1.236749 -0.616026
-0.094507 1.218262 -0.609859
-0.089869 1.205330 -0.606319
-0.081029 1.180030 -0.599433
-0.075967 1.155863 -0.593229
-0.072333 1.149354 -0.591320
-0.067985 1.130392 -0.586420
-0.059976 1.094979 -0.577292
-0.043788 0.959272 -0.543828
-0.041519 0.958041 -0.543323
-0.039140 0.951832 -0.541640
-0.036866 0.947872 -0.540498
-0.032088 0.907815 -0.530647
-0.030102 0.907062 -0.530293
-0.028126 0.908535 -0.530465
-0.026141 0.908932 -0.530386
-0.024139 0.911081 -0.530719
-0.022156 0.910105 -0.530322
-0.020165 0.910224 -0.530183
-0.018153 0.911231 -0.530254
-0.016134 0.912137 -0.530301
-0.014117 0.912714 -0.530275
-0.012098 0.913188 -0.530225
-0.010095 0.913175 -0.530064
-0.008067 0.913690 -0.530028
-0.006045 0.913975 -0.529939
-0.004015 0.914354 -0.529874
-0.001788 0.917956 -0.530553
0.000207 0.917416 -0.530278
0.002308 0.918472 -0.530372
0.004336 0.918390 -0.530206
0.006375 0.918436 -0.530071
0.008504 0.919549 -0.530181
0.010633 0.920523 -0.530261
0.012643 0.920099 -0.530022
0.014941 0.922647 -0.530462
0.017096 0.923549 -0.530527
0.018953 0.921570 -0.529940
0.021156 0.922838 -0.530091
0.023063 0.921438 -0.529639
0.025211 0.922130 -0.529662
0.027320 0.922430 -0.529597
0.029409 0.922542 -0.529491
0.031723 0.924294 -0.529756
0.034307 0.927836 -0.530423
0.036075 0.925493 -0.529768
0.037348 0.919977 -0.528404
0.037859 0.909851 -0.526012
0.039390 0.906720 -0.525191
0.040650 0.902105 -0.524042
0.043151 0.905085 -0.524591
0.045324 0.905990 -0.524678
0.047458 0.906613 -0.524702
0.049650 0.907507 -0.524787
0.051996 0.909150 -0.525039
0.054044 0.909154 -0.524928
0.056097 0.909162 -0.524819
0.058367 0.910228 -0.524945
0.060825 0.912125 -0.525256
0.062904 0.912139 -0.525150
0.064979 0.912118 -0.525039
0.067407 0.913668 -0.525274
0.069547 0.913862 -0.525212
0.071729 0.914216 -0.525186
0.073926 0.914597 -0.525167
0.076158 0.915092 -0.525174
0.078166 0.914644 -0.524975
0.080444 0.915262 -0.525011
0.082818 0.916220 -0.525122
0.085034 0.916515 -0.525090
0.087306 0.916991 -0.525098
0.090308 0.920119 -0.525685
0.092520 0.920260 -0.525622
0.094728 0.920365 -0.525552
0.097055 0.920860 -0.525569
0.099119 0.920420 -0.525384
0.101443 0.920851 -0.525389
0.103849 0.921521 -0.525447
0.106531 0.923048 -0.525693
0.108721 0.922930 -0.525583
0.111039 0.923200 -0.525559
0.113356 0.923439 -0.525530
0.115867 0.924240 -0.525624
0.118272 0.924678 -0.525641
0.121501 0.927523 -0.526178
0.123765 0.927446 -0.526086
0.126124 0.927625 -0.526052
0.128316 0.927305 -0.525913
0.131085 0.928580 -0.526118
0.133648 0.929231 -0.526191
0.135954 0.929147 -0.526108
0.138447 0.929542 -0.526130
0.141126 0.930392 -0.526251
0.143527 0.930474 -0.526210
0.146185 0.931188 -0.526306
0.149129 0.932580 -0.526550
0.151547 0.932603 -0.526503
0.153794 0.932180 -0.526363
0.156610 0.933125 -0.526517
0.159007 0.933015 -0.526449
0.162347 0.935111 -0.526854
0.164860 0.935199 -0.526833
0.167291 0.935072 -0.526769
0.169859 0.935232 -0.526769
0.173052 0.936764 -0.527064
0.175594 0.936786 -0.527040
0.178253 0.937040 -0.527068
0.180802 0.937020 -0.527041
0.183506 0.937304 -0.527081
0.187235 0.939716 -0.527577
0.189908 0.939838 -0.527589
0.192366 0.939486 -0.527503
0.194776 0.939016 -0.527395
0.197961 0.940087 -0.527618
0.200511 0.939839 -0.527563
0.203533 0.940494 -0.527703
0.206253 0.940518 -0.527713
0.209841 0.942176 -0.528073
0.212648 0.942284 -0.528106
0.215636 0.942698 -0.528207
0.218082 0.942066 -0.528090
0.221612 0.943404 -0.528394
0.224498 0.943515 -0.528439
0.227367 0.943562 -0.528474
0.230719 0.944433 -0.528687
0.233315 0.943929 -0.528610
0.236599 0.944599 -0.528785
0.239507 0.944580 -0.528815
0.241199 0.942468 -0.528401
0.245037 0.943977 -0.528761
0.249297 0.946124 -0.529258
0.259538 0.958020 -0.531838
0.262332 0.957539 -0.531777
0.258409 0.946244 -0.529407
0.266250 0.953873 -0.531079
0.271186 0.956750 -0.531736
0.270907 0.951423 -0.530637
0.273671 0.950879 -0.530560
0.272756 0.944716 -0.529277
0.277048 0.946526 -0.529698
0.281780 0.948946 -0.530247
0.282049 0.944703 -0.529364
0.281489 0.939323 -0.528232
0.295403 0.955040 -0.531617
0.302389 0.960499 -0.532797
0.313054 0.971085 -0.535070
0.310658 0.963071 -0.533347
0.292455 0.933159 -0.526923
0.306056 0.947785 -0.530035
0.347599 0.995743 -0.540228
0.341218 0.982584 -0.537353
0.583681 1.294309 -0.603807
0.591185 1.297201 -0.604265
0.597202 1.298166 -0.604287
0.599864 1.294850 -0.603373
0.601962 1.290931 -0.602308
0.606064 1.289682 -0.601787
0.611357 1.290017 -0.601578
0.614654 1.287928 -0.600831
0.618214 1.286269 -0.600151
0.623692 1.287066 -0.599965
0.628836 1.287521 -0.599681
0.634869 1.289124 -0.599613
-0.416068 1.595622 -0.736603
-0.403245 1.571312 -0.729939
-0.396326 1.563881 -0.727889
-0.403262 1.597440 -0.737092
-0.382015 1.561259 -0.726949
-0.380860 1.571858 -0.729721
-0.387404 1.606914 -0.739178
-0.378006 1.592824 -0.735085
-0.370975 1.586118 -0.732988
-0.367347 1.590471 -0.733892
-0.366333 1.621061 -0.741575
-0.355484 1.602183 -0.736012
-0.353258 1.612685 -0.738447
-0.351646 1.625862 -0.741571
-0.340959 1.607211 -0.735996
-0.331646 1.593053 -0.731630
-0.327453 1.597488 -0.732290
-0.322081 1.597773 -0.731797
-0.176141 1.068903 -0.588103
-0.173599 1.070328 -0.588154
-0.168395 1.060993 -0.585308
-0.165018 1.058917 -0.584408
-0.159898 1.049367 -0.581507
-0.156363 1.046313 -0.580343
-0.151387 1.036739 -0.577445
-0.147669 1.032451 -0.575956
-0.143226 1.024601 -0.573527
-0.168009 1.189329 -0.615723
-0.164581 1.189904 -0.615412
-0.159161 1.179995 -0.612362
-0.155375 1.178367 -0.611483
-0.151778 1.177659 -0.610847
-0.150648 1.190999 -0.613856
-0.147004 1.190274 -0.613212
-0.140636 1.194306 -0.613347
-0.134037 1.221359 -0.618925
-0.129782 1.216846 -0.617322
-0.125620 1.212632 -0.615806
-0.107244 1.206830 -0.612212
-0.093468 1.208557 -0.611044
-0.087296 1.177357 -0.602902
-0.083637 1.173185 -0.601502
-0.079107 1.157071 -0.597156
-0.075709 1.154451 -0.596164
-0.071564 1.140280 -0.592333
-0.062271 1.087316 -0.578683
-0.059346 1.086028 -0.578076
-0.056489 1.085836 -0.577742
-0.043723 0.961230 -0.546611
-0.041181 0.951095 -0.543938
-0.038962 0.950066 -0.543481
-0.036598 0.941229 -0.541141
-0.034032 0.913502 -0.534252
-0.031948 0.906600 -0.532406
-0.029962 0.905385 -0.531937
-0.027993 0.908069 -0.532407
-0.026007 0.908629 -0.532368
-0.024009 0.910192 -0.532572
-0.022014 0.910383 -0.532448
-0.020026 0.910094 -0.532212
-0.018001 0.911622 -0.532410
-0.015995 0.911898 -0.532313
-0.013986 0.912189 -0.532220
-0.011977 0.912433 -0.532119
-0.009962 0.912742 -0.532034
-0.007917 0.913615 -0.532085
-0.005887 0.914049 -0.532033
-0.003855 0.914417 -0.531967
-0.001645 0.917675 -0.532582
0.000381 0.917616 -0.532418
0.002453 0.918213 -0.532409
0.004496 0.918329 -0.532290
0.006545 0.918481 -0.532180
0.008695 0.919825 -0.532350
0.010769 0.920137 -0.532280
0.012981 0.921889 -0.532546
0.015192 0.923439 -0.532767
0.017139 0.922263 -0.532354
0.019360 0.923720 -0.532555
0.021425 0.923645 -0.532401
0.023456 0.923275 -0.532181
0.025525 0.923221 -0.532035
0.027580 0.923048 -0.531863
0.029624 0.922786 -0.531673
0.032367 0.927663 -0.532665
0.034427 0.927342 -0.532462
0.036762 0.928915 -0.532696
0.037828 0.921917 -0.530965
0.037820 0.908405 -0.527749
0.039543 0.906523 -0.527201
0.041228 0.904498 -0.526621
0.043364 0.905241 -0.526676
0.045566 0.906297 -0.526802
0.047571 0.906186 -0.526664
0.049650 0.906459 -0.526614
0.052286 0.909659 -0.527229
0.054398 0.909973 -0.527190
0.056428 0.909838 -0.527050
0.058791 0.911333 -0.527280
0.060907 0.911556 -0.527223
0.063039 0.911824 -0.527177
0.065223 0.912299 -0.527179
0.067528 0.913285 -0.527297
0.069684 0.913552 -0.527255
0.071831 0.913751 -0.527198
0.074160 0.914694 -0.527309
0.076204 0.914404 -0.527144
0.078393 0.914695 -0.527111
0.080568 0.914900 -0.527060
0.082853 0.915504 -0.527100
0.086199 0.920117 -0.528035
0.087391 0.916479 -0.527130
0.090366 0.919504 -0.527712
0.092668 0.919974 -0.527726
0.095064 0.920741 -0.527807
0.097359 0.921114 -0.527801
0.099419 0.920650 -0.527611
0.101815 0.921310 -0.527672
0.104540 0.923018 -0.527967
0.106519 0.922225 -0.527709
0.109031 0.923145 -0.527832
0.111373 0.923478 -0.527826
0.113422 0.922874 -0.527615
0.116073 0.924105 -0.527811
0.119264 0.926894 -0.528352
0.121477 0.926692 -0.528235
0.124014 0.927414 -0.528323
0.126218 0.927143 -0.528195
0.128371 0.926711 -0.528033
0.131036 0.927696 -0.528184
0.133759 0.928791 -0.528362
0.136234 0.929161 -0.528382
0.139028 0.930349 -0.528584
0.141329 0.930185 -0.528491
0.143766 0.930356 -0.528474
0.146421 0.931054 -0.528575
0.149317 0.932319 -0.528802
0.151593 0.931984 -0.528681
0.154282 0.932644 -0.528781
0.156740 0.932705 -0.528752
0.159724 0.933998 -0.528994
0.162304 0.934275 -0.529017
0.164688 0.934067 -0.528937
0.167474 0.934759 -0.529056
0.170113 0.935076 -0.529096
0.172902 0.935693 -0.529204
0.175859 0.936640 -0.529387
0.178526 0.936903 -0.529424
0.181367 0.937505 -0.529538
0.184342 0.938351 -0.529707
0.186577 0.937590 -0.529530
0.190048 0.939391 -0.529914
0.192894 0.939833 -0.530005
0.195531 0.939812 -0.529998
0.198290 0.940006 -0.530041
0.200996 0.940061 -0.530056
0.203384 0.939461 -0.529933
0.206747 0.940733 -0.530220
0.210192 0.942103 -0.530532
0.213149 0.942489 -0.530633
0.216216 0.943039 -0.530772
0.219365 0.943698 -0.530938
0.222419 0.944136 -0.531059
0.224791 0.943301 -0.530905
0.228046 0.944034 -0.531096
0.230648 0.943564 -0.531027
0.234475 0.945218 -0.531424
0.237264 0.945009 -0.531416
0.239768 0.944288 -0.531299
0.242576 0.944068 -0.531293
0.245198 0.943513 -0.531215
0.251561 0.949144 -0.532492
0.263644 0.964006 -0.535794
0.261785 0.955912 -0.534068
0.261648 0.950725 -0.532978
0.265112 0.951345 -0.533161
0.273222 0.959232 -0.534937
0.274745 0.956691 -0.534425
0.272772 0.948805 -0.532735
0.272678 0.943926 -0.531703
0.276813 0.945511 -0.532088
0.281782 0.948296 -0.532733
0.283243 0.945835 -0.532221
0.286897 0.946625 -0.532418
0.289881 0.946425 -0.532391
0.297387 0.952716 -0.533786
0.315108 0.973402 -0.538342
0.317237 0.971759 -0.537975
0.309619 0.956568 -0.534619
0.306982 0.948553 -0.532832
0.341959 0.987582 -0.541332
0.347021 0.989904 -0.541781
0.579752 1.288433 -0.607099
0.585126 1.288621 -0.606976
0.591727 1.290456 -0.607189
0.594626 1.287552 -0.606341
0.598877 1.286485 -0.605870
0.601840 1.283869 -0.605038
0.607505 1.284759 -0.604944
0.611090 1.283110 -0.604274
0.613574 1.280197 -0.603305
0.617925 1.279696 -0.602835
0.622587 1.279656 -0.602441
0.610254 1.259109 -0.597605
-0.436827 1.657218 -0.758885
-0.408197 1.587757 -0.739496
-0.398340 1.584919 -0.738706
-0.394196 1.586112 -0.738989
-0.389951 1.587237 -0.739217
-0.377995 1.564874 -0.732839
-0.377607 1.578187 -0.736405
-0.375914 1.587945 -0.738937
-0.372296 1.592010 -0.739840
-0.354191 1.599179 -0.740547
-0.351669 1.608525 -0.742733
-0.347546 1.612723 -0.743452
-0.341015 1.608611 -0.741836
-0.333646 1.601460 -0.739354
-0.326595 1.595373 -0.737145
-0.322004 1.598489 -0.737450
-0.316947 1.600056 -0.737302
-0.173458 1.070212 -0.591008
-0.168604 1.062266 -0.588502
-0.165073 1.059546 -0.587420
-0.160289 1.051407 -0.584859
-0.155506 1.042947 -0.582215
-0.150684 1.033953 -0.579432
-0.145979 1.025100 -0.576693
-0.142608 1.022043 -0.575524
-0.138698 1.016275 -0.573626
-0.152672 1.146212 -0.606834
-0.150088 1.168708 -0.611930
-0.144054 1.173389 -0.612276
-0.134030 1.153498 -0.606174
-0.132058 1.162182 -0.608021
-0.128811 1.162866 -0.607773
-0.122500 1.165535 -0.607625
-0.123091 1.194701 -0.614769
-0.113910 1.176867 -0.609314
-0.108063 1.156319 -0.603615
-0.105844 1.165413 -0.605559
-0.105268 1.190112 -0.611496
-0.101591 1.187648 -0.610465
-0.097538 1.181151 -0.608413
-0.086780 1.173052 -0.605219
-0.082294 1.158510 -0.601175
-0.078263 1.148007 -0.598171
-0.074994 1.146607 -0.597476
-0.070773 1.130759 -0.593155
-0.061636 1.078833 -0.579510
-0.058654 1.075776 -0.578457
-0.056059 1.080088 -0.579248
-0.043641 0.962633 -0.549284
-0.041012 0.949725 -0.545872
-0.038698 0.944664 -0.544414
-0.036589 0.947470 -0.544903
-0.033862 0.910508 -0.535601
-0.031815 0.905983 -0.534307
-0.029844 0.907134 -0.534411
-0.027862 0.908093 -0.534470
-0.025872 0.909160 -0.534558
-0.023872 0.910296 -0.534663
-0.021882 0.909972 -0.534414
-0.019860 0.911587 -0.534640
-0.017863 0.911451 -0.534441
-0.015855 0.911750 -0.534350
-0.013844 0.912072 -0.534266
-0.011833 0.912335 -0.534170
-0.009798 0.913088 -0.534194
-0.007793 0.913020 -0.534021
-0.005739 0.913934 -0.534087
-0.003674 0.914876 -0.534161
-0.001257 0.921479 -0.535595
0.000535 0.917526 -0.534496
0.002625 0.918357 -0.534546
0.004655 0.918261 -0.534377
0.006665 0.917919 -0.534150
0.008877 0.919993 -0.534501
0.010973 0.920529 -0.534486
0.013029 0.920565 -0.534354
0.015234 0.922100 -0.534579
0.017375 0.922855 -0.534620
0.019506 0.923437 -0.534620
0.021745 0.924911 -0.534833
0.023406 0.921312 -0.533849
0.025692 0.923109 -0.534141
0.027788 0.923245 -0.534042
0.029935 0.923751 -0.534031
0.032335 0.926059 -0.534445
0.034733 0.928176 -0.534814
0.036701 0.927188 -0.534456
0.037865 0.920909 -0.532861
0.038221 0.909798 -0.530142
0.039631 0.905915 -0.529117
0.041334 0.904014 -0.528559
0.043497 0.904917 -0.528655
0.045894 0.907094 -0.529049
0.047836 0.906600 -0.528822
0.050206 0.908435 -0.529138
0.052436 0.909419 -0.529256
0.054550 0.909741 -0.529222
0.056723 0.910327 -0.529250
0.058849 0.910635 -0.529214
0.061080 0.911420 -0.529290
0.063197 0.911610 -0.529230
0.065547 0.912848 -0.529412
0.067716 0.913199 -0.529390
0.069764 0.912990 -0.529242
0.071924 0.913251 -0.529202
0.074278 0.914297 -0.529344
0.076477 0.914647 -0.529326
0.079089 0.916631 -0.529685
0.081270 0.916815 -0.529632
0.083581 0.917477 -0.529690
0.085405 0.916242 -0.529315
0.088202 0.918672 -0.529779
0.090363 0.918660 -0.529686
0.092663 0.919130 -0.529705
0.095220 0.920475 -0.529924
0.097591 0.921107 -0.529982
0.099842 0.921291 -0.529940
0.101873 0.920706 -0.529725
0.104348 0.921590 -0.529844
0.106980 0.922935 -0.530070
0.109335 0.923333 -0.530082
0.111572 0.923325 -0.530004
0.114001 0.923893 -0.530059
0.116295 0.924010 -0.530012
0.118985 0.925289 -0.530230
0.121484 0.925948 -0.530310
0.124218 0.927247 -0.530536
0.126429 0.926989 -0.530412
0.128962 0.927623 -0.530492
0.131585 0.928469 -0.530621
0.134035 0.928796 -0.530635
0.136429 0.928940 -0.530611
0.138994 0.929511 -0.530684
0.141448 0.929751 -0.530685
0.144075 0.930411 -0.530783
0.146970 0.931713 -0.531027
0.149343 0.931641 -0.530966
0.151848 0.931874 -0.530975
0.154518 0.932482 -0.531070
0.157135 0.932921 -0.531131
0.160267 0.934551 -0.531460
0.162102 0.933060 -0.531094
