ply
format ascii 1.0
comment ---
element vertex 1677
property float x
property float y
property float z
element face 0
property list uchar uint vertex_indices
end_header
-0.520348 1.600296 -0.534676
-0.515640 1.603754 -0.535169
-0.510961 1.607372 -0.535693
-0.506770 1.612481 -0.536528
-0.501940 1.615822 -0.536992
-0.497374 1.620009 -0.537632
-0.491705 1.620918 -0.537587
-0.486924 1.624539 -0.538111
-0.482364 1.628908 -0.538790
-0.477422 1.632127 -0.539232
-0.472347 1.634948 -0.539592
-0.468076 1.640451 -0.540511
-0.463635 1.645493 -0.541336
-0.458491 1.648217 -0.541682
-0.453094 1.650064 -0.541849
-0.448015 1.653021 -0.542249
-0.443436 1.657815 -0.543032
-0.438567 1.661626 -0.543614
-0.433432 1.664490 -0.544003
-0.428521 1.668230 -0.544576
-0.423338 1.670961 -0.544944
-0.417842 1.672454 -0.545060
-0.413059 1.676829 -0.545773
-0.408095 1.680538 -0.546352
-0.403053 1.683978 -0.546879
-0.397704 1.686139 -0.547146
-0.392888 1.690676 -0.547904
-0.387867 1.694393 -0.548497
-0.382648 1.697269 -0.548920
-0.377895 1.702417 -0.549812
-0.373064 1.707340 -0.550660
-0.367943 1.710967 -0.551246
-0.362447 1.712761 -0.551460
-0.356874 1.714156 -0.551595
-0.352081 1.719759 -0.552594
-0.346580 1.721650 -0.552837
-0.341150 1.723967 -0.553170
-0.335752 1.726523 -0.553554
-0.330804 1.731878 -0.554512
-0.325635 1.736097 -0.555240
-0.319930 1.737058 -0.555309
-0.314915 1.742575 -0.556306
-0.309567 1.746110 -0.556902
-0.303984 1.748152 -0.557198
-0.298526 1.751174 -0.557696
-0.293144 1.754935 -0.558345
-0.287675 1.758227 -0.558902
-0.282348 1.762870 -0.559734
-0.276694 1.765043 -0.560068
-0.271345 1.770052 -0.560979
-0.265832 1.773918 -0.561660
-0.260020 1.775195 -0.561819
-0.254283 1.777296 -0.562146
-0.248672 1.780906 -0.562782
-0.243200 1.786416 -0.563802
-0.237560 1.790512 -0.564539
-0.231929 1.795151 -0.565387
-0.226059 1.797139 -0.565701
-0.220458 1.803212 -0.566841
-0.214561 1.805585 -0.567236
-0.208434 1.804502 -0.566934
-0.202657 1.809470 -0.567856
-0.197053 1.818748 -0.569648
-0.190992 1.820003 -0.569823
-0.184952 1.822056 -0.570160
-0.179067 1.828839 -0.571452
-0.172911 1.829187 -0.571449
-0.167119 1.842937 -0.574145
-0.160970 1.846693 -0.574830
-0.154754 1.848828 -0.575190
-0.148760 1.869221 -0.579225
-0.142418 1.871658 -0.579646
-0.136056 1.875490 -0.580350
-0.129646 1.890286 -0.583259
-0.123131 1.898332 -0.584810
-0.116622 1.898211 -0.584721
-0.109866 1.914429 -0.587916
-0.103301 1.913029 -0.587571
-0.096655 1.915358 -0.587977
-0.090008 1.916824 -0.588210
-0.082957 1.929643 -0.590724
-0.076112 1.933932 -0.591525
-0.069245 1.937687 -0.592219
-0.062467 1.938758 -0.592376
-0.055574 1.941731 -0.592915
-0.048396 1.949055 -0.594328
-0.041401 1.952272 -0.594917
-0.034475 1.953928 -0.595194
-0.027405 1.957292 -0.595814
-0.020614 1.956531 -0.595608
-0.013491 1.959864 -0.596223
-0.006203 1.964671 -0.597134
0.001159 1.969728 -0.598096
0.008422 1.973179 -0.598737
0.014371 1.963210 -0.596691
0.020875 1.959334 -0.595866
0.028642 1.967187 -0.597390
0.036375 1.974029 -0.598712
0.044241 1.981367 -0.600134
0.051990 1.987157 -0.601247
0.058591 1.983602 -0.600490
0.064947 1.978428 -0.599411
0.071815 1.977240 -0.599130
0.078886 1.977481 -0.599136
0.085400 1.973915 -0.598382
0.093611 1.981561 -0.599870
0.101290 1.985330 -0.600584
0.109101 1.989632 -0.601405
0.116019 1.988337 -0.601108
0.125844 2.003831 -0.604167
0.133938 2.008719 -0.605108
0.140946 2.007359 -0.604801
0.147902 2.005745 -0.604445
0.155908 2.009606 -0.605184
0.163350 2.010375 -0.605306
0.170802 2.011104 -0.605421
0.178466 2.012770 -0.605725
0.186354 2.015360 -0.606215
0.193438 2.014087 -0.605935
0.200491 2.012676 -0.605629
0.207173 2.009644 -0.605001
0.213258 2.004117 -0.603877
0.219843 2.000881 -0.603212
0.227116 2.000562 -0.603131
0.234270 1.999720 -0.602947
0.240865 1.996641 -0.602318
0.246974 1.991739 -0.601329
0.253392 1.988147 -0.600602
0.260072 1.985617 -0.600089
0.266502 1.982206 -0.599403
0.272599 1.977659 -0.598492
0.278496 1.972509 -0.597463
0.284232 1.966923 -0.596350
0.289842 1.961040 -0.595179
0.295792 1.956442 -0.594268
0.301496 1.951128 -0.593216
0.306900 1.944951 -0.591994
0.312756 1.940363 -0.591092
0.318806 1.936469 -0.590331
0.324149 1.930449 -0.589149
0.329418 1.924328 -0.587949
0.329958 1.904155 -0.583947
0.334504 1.896359 -0.582418
0.334969 1.876872 -0.578559
0.340087 1.871225 -0.577464
0.345118 1.865432 -0.576343
0.349248 1.857234 -0.574745
0.354330 1.851814 -0.573704
0.359858 1.847685 -0.572924
0.361854 1.834197 -0.570278
0.369577 1.836048 -0.570700
0.376879 1.836683 -0.570882
0.380019 1.826606 -0.568926
0.383418 1.817377 -0.567143
0.385580 1.805250 -0.564784
0.388933 1.796289 -0.563060
0.393115 1.789491 -0.561772
0.401741 1.793396 -0.562630
0.415550 1.809323 -0.565900
0.037645 0.899547 -0.383833
0.040586 0.901305 -0.384216
0.041057 0.897610 -0.383506
0.043373 0.897950 -0.383607
0.046198 0.899340 -0.383921
0.048694 0.899977 -0.384085
0.050990 0.900155 -0.384158
0.053757 0.901268 -0.384421
0.056229 0.901728 -0.384554
0.058446 0.901639 -0.384578
0.060595 0.901389 -0.384571
0.063779 0.903140 -0.384969
0.067334 0.905537 -0.385499
0.070148 0.906436 -0.385728
0.073001 0.907356 -0.385964
0.074249 0.905234 -0.385586
0.078647 0.908941 -0.386388
0.081655 0.910001 -0.386656
0.085061 0.911726 -0.387061
0.087378 0.911444 -0.387060
0.090822 0.913128 -0.387459
0.093247 0.912972 -0.387486
0.097034 0.915142 -0.387986
0.099780 0.915466 -0.388112
0.102732 0.916108 -0.388303
0.105785 0.916884 -0.388522
0.108601 0.917232 -0.388654
0.112233 0.918887 -0.389053
0.114401 0.918130 -0.388960
0.118401 0.920299 -0.389463
0.120663 0.919669 -0.389393
0.123279 0.919599 -0.389437
0.128134 0.922986 -0.390187
0.130438 0.922402 -0.390122
0.133386 0.922806 -0.390258
0.135860 0.922499 -0.390245
0.138653 0.922680 -0.390329
0.141919 0.923568 -0.390555
0.147206 0.927396 -0.391381
0.149061 0.926225 -0.391177
0.152797 0.927787 -0.391529
0.155525 0.927925 -0.391585
0.159575 0.929943 -0.392021
0.161869 0.929522 -0.391951
-0.600601 1.547713 -0.531872
-0.596907 1.550848 -0.532477
-0.592529 1.552688 -0.532784
-0.587824 1.553982 -0.532957
-0.584926 1.559576 -0.534052
-0.579601 1.559832 -0.533971
-0.575627 1.563378 -0.534593
-0.570994 1.565565 -0.534906
-0.566315 1.567801 -0.535219
-0.562851 1.573139 -0.536194
-0.558488 1.576482 -0.536726
-0.553396 1.578163 -0.536888
-0.547947 1.579038 -0.536868
-0.542913 1.581050 -0.537087
-0.538522 1.584821 -0.537680
-0.533913 1.588148 -0.538171
-0.529347 1.591692 -0.538704
-0.524873 1.595594 -0.539310
-0.520487 1.599844 -0.539987
-0.515839 1.603468 -0.540526
-0.511151 1.607064 -0.541057
-0.506957 1.612161 -0.541909
-0.502670 1.617105 -0.542726
-0.496994 1.618003 -0.542676
-0.492217 1.621604 -0.543205
-0.486538 1.622474 -0.543151
-0.482255 1.627693 -0.544028
-0.477356 1.631044 -0.544506
-0.472451 1.634418 -0.544992
-0.467809 1.638698 -0.545671
-0.463379 1.643763 -0.546520
-0.458168 1.646245 -0.546822
-0.453095 1.649212 -0.547229
-0.447850 1.651584 -0.547513
-0.442788 1.654619 -0.547941
-0.438430 1.660282 -0.548928
-0.433281 1.663087 -0.549313
-0.428727 1.668198 -0.550188
-0.423356 1.670216 -0.550413
-0.417831 1.671602 -0.550509
-0.412485 1.673684 -0.550755
-0.408207 1.680218 -0.551942
-0.403001 1.682978 -0.552337
-0.397864 1.686066 -0.552805
-0.392605 1.688661 -0.553172
-0.387584 1.692360 -0.553775
-0.382552 1.696089 -0.554387
-0.377866 1.701557 -0.555367
-0.372430 1.703530 -0.555617
-0.367233 1.706713 -0.556124
-0.362296 1.711305 -0.556929
-0.356957 1.713927 -0.557325
-0.351574 1.716364 -0.557685
-0.346280 1.719345 -0.558162
-0.340826 1.721501 -0.558470
-0.336358 1.729484 -0.559997
-0.330643 1.730317 -0.560034
-0.325148 1.732495 -0.560356
-0.319867 1.736107 -0.560978
-0.314669 1.740421 -0.561750
-0.309263 1.743528 -0.562273
-0.303968 1.747553 -0.562989
-0.298397 1.749776 -0.563333
-0.292998 1.753393 -0.563969
-0.287510 1.756523 -0.564507
-0.281981 1.759490 -0.565013
-0.276524 1.763254 -0.565686
-0.270909 1.765873 -0.566125
-0.265594 1.771438 -0.567176
-0.259744 1.772283 -0.567251
-0.254172 1.775973 -0.567917
-0.248623 1.780232 -0.568704
-0.243086 1.785034 -0.569604
-0.237385 1.788378 -0.570205
-0.231913 1.794964 -0.571477
-0.226135 1.798249 -0.572069
-0.220714 1.807029 -0.573798
-0.214566 1.805910 -0.573483
-0.208870 1.812058 -0.574670
-0.203395 1.823178 -0.576887
-0.197016 1.818617 -0.575865
-0.192013 1.842813 -0.580783
-0.185725 1.841610 -0.580457
-0.179935 1.853586 -0.582853
-0.173861 1.860273 -0.584158
-0.167730 1.867210 -0.585515
-0.161360 1.866537 -0.585305
-0.155094 1.871306 -0.586218
-0.148740 1.872963 -0.586490
-0.142409 1.879353 -0.587739
-0.136031 1.889925 -0.589850
-0.129554 1.897320 -0.591308
-0.123037 1.899207 -0.591631
-0.116427 1.907929 -0.593363
-0.109819 1.910941 -0.593921
-0.103173 1.914227 -0.594535
-0.096536 1.915772 -0.594793
-0.089621 1.926150 -0.596868
-0.082827 1.929993 -0.597600
-0.076064 1.931985 -0.597951
-0.069261 1.934367 -0.598384
-0.062310 1.939270 -0.599336
-0.055431 1.941844 -0.599810
-0.048557 1.943818 -0.600162
-0.041424 1.949561 -0.601288
-0.034506 1.951220 -0.601576
-0.027910 1.948125 -0.600890
-0.021794 1.939120 -0.598991
-0.014900 1.862236 -0.583118
-0.008513 1.861920 -0.583008
0.013128 1.949074 -0.600796
0.020340 1.952504 -0.601454
0.027432 1.954494 -0.601818
0.034536 1.956367 -0.602158
0.042130 1.962104 -0.603292
0.049754 1.967596 -0.604375
0.056360 1.964775 -0.603756
0.063152 1.963486 -0.603452
0.069573 1.959575 -0.602611
0.076627 1.960264 -0.602715
0.083675 1.960812 -0.602790
0.090918 1.962543 -0.603108
0.100426 1.978373 -0.606314
0.107935 1.981003 -0.606818
0.115070 1.981213 -0.606828
0.120516 1.971629 -0.604834
0.145724 1.992708 -0.609058
0.154507 2.000896 -0.610705
0.162212 2.003184 -0.611147
0.169746 2.004464 -0.611384
0.177273 2.005598 -0.611592
0.184633 2.005846 -0.611621
0.192144 2.006725 -0.611780
0.199186 2.005407 -0.611491
0.205842 2.002398 -0.610859
0.212065 1.997597 -0.609861
0.218874 1.995419 -0.609402
0.226124 1.995091 -0.609323
0.233066 1.993483 -0.608984
0.239549 1.990064 -0.608277
0.245163 1.983347 -0.606898
0.251322 1.978908 -0.605986
0.258650 1.978952 -0.605993
0.265375 1.976725 -0.605538
0.271220 1.971352 -0.604442
0.277345 1.967105 -0.603579
0.283332 1.962467 -0.602638
0.289248 1.957691 -0.601672
0.295047 1.952625 -0.600648
0.301105 1.948524 -0.599825
0.306775 1.943240 -0.598762
0.312539 1.938365 -0.597785
0.318016 1.932686 -0.596647
0.323868 1.928282 -0.595773
0.329272 1.922589 -0.594637
0.334327 1.915961 -0.593313
0.339608 1.910139 -0.592157
0.343420 1.900158 -0.590153
0.348725 1.894682 -0.589074
0.351750 1.882871 -0.586701
0.356395 1.875835 -0.585308
0.354249 1.850347 -0.580140
0.358707 1.843335 -0.578757
0.360425 1.829162 -0.575911
0.365975 1.825360 -0.575193
0.368787 1.814515 -0.573034
0.373099 1.807720 -0.571708
0.376800 1.799495 -0.570093
0.383315 1.798400 -0.569943
0.386263 1.788526 -0.567995
0.389238 1.778903 -0.566103
0.391999 1.768942 -0.564143
0.043874 0.913091 -0.388573
0.039244 0.897968 -0.385496
0.041344 0.897860 -0.385509
0.043584 0.898029 -0.385580
0.046653 0.899928 -0.386010
0.048729 0.899669 -0.385997
0.051405 0.900633 -0.386237
0.054183 0.901755 -0.386511
0.056416 0.901719 -0.386549
0.059399 0.903154 -0.386891
0.061598 0.902980 -0.386903
0.064298 0.903759 -0.387114
0.067005 0.904503 -0.387318
0.070809 0.907294 -0.387949
0.072922 0.906805 -0.387902
0.076347 0.908742 -0.388360
0.079169 0.909495 -0.388573
0.082821 0.911715 -0.389093
0.085264 0.911679 -0.389146
0.087771 0.911731 -0.389219
0.091281 0.913521 -0.389654
0.094030 0.913920 -0.389801
0.096954 0.914588 -0.390004
0.099606 0.914754 -0.390104
0.103226 0.916523 -0.390539
0.105615 0.916185 -0.390535
0.108787 0.917125 -0.390798
0.111392 0.917103 -0.390859
0.116277 0.920741 -0.391688
0.118982 0.920815 -0.391769
0.122247 0.921760 -0.392031
0.124319 0.920818 -0.391897
0.127977 0.922342 -0.392278
0.130585 0.922230 -0.392314
0.133119 0.922010 -0.392325
0.137001 0.923821 -0.392760
0.140407 0.924901 -0.393039
0.144730 0.927320 -0.393597
0.147840 0.927947 -0.393772
0.150789 0.928352 -0.393897
0.153282 0.928125 -0.393884
0.155631 0.927729 -0.393829
0.158397 0.927954 -0.393901
0.163276 0.931147 -0.394594
-0.600377 1.546788 -0.536857
-0.596213 1.548851 -0.537242
-0.592753 1.552688 -0.538006
-0.588932 1.555953 -0.538627
-0.585156 1.559540 -0.539304
-0.580592 1.561533 -0.539611
-0.575758 1.563064 -0.539802
-0.570701 1.564226 -0.539898
-0.566298 1.567087 -0.540360
-0.562187 1.570825 -0.541005
-0.558186 1.575014 -0.541739
-0.553349 1.577298 -0.542040
-0.548298 1.579163 -0.542240
-0.543380 1.581462 -0.542528
-0.538540 1.584065 -0.542877
-0.534151 1.587957 -0.543505
-0.529630 1.591620 -0.544077
-0.524828 1.594625 -0.544499
-0.520007 1.597659 -0.544924
-0.515895 1.602757 -0.545799
-0.511410 1.606924 -0.546468
-0.507003 1.611409 -0.547204
-0.502882 1.616836 -0.548145
-0.497589 1.618886 -0.548345
-0.491806 1.619457 -0.548222
-0.486656 1.621940 -0.548519
-0.482770 1.628410 -0.549687
-0.477375 1.630207 -0.549836
-0.472304 1.633039 -0.550213
-0.467612 1.637151 -0.550871
-0.462667 1.640469 -0.551358
-0.457655 1.643594 -0.551806
-0.452764 1.647170 -0.552354
-0.448066 1.651471 -0.553062
-0.442500 1.652702 -0.553108
-0.437722 1.656796 -0.553777
-0.432867 1.660664 -0.554400
-0.427906 1.664190 -0.554952
-0.423243 1.668924 -0.555769
-0.417626 1.669947 -0.555787
-0.412208 1.671726 -0.555973
-0.408127 1.679061 -0.557360
-0.403026 1.682274 -0.557861
-0.397793 1.684962 -0.558253
-0.392435 1.687118 -0.558534
-0.387249 1.690058 -0.558987
-0.381967 1.692600 -0.559359
-0.376943 1.696403 -0.560004
-0.371909 1.700247 -0.560662
-0.366763 1.703637 -0.561225
-0.361939 1.708763 -0.562163
-0.356983 1.713367 -0.562993
-0.351574 1.715684 -0.563336
-0.345895 1.716547 -0.563371
-0.340525 1.719134 -0.563779
-0.335936 1.726373 -0.565183
-0.330541 1.729092 -0.565625
-0.325002 1.730993 -0.565895
-0.319746 1.734757 -0.566565
-0.314401 1.738093 -0.567147
-0.309559 1.745021 -0.568496
-0.303926 1.746745 -0.568740
-0.298453 1.749696 -0.569248
-0.292854 1.751845 -0.569588
-0.287279 1.754268 -0.569989
-0.282177 1.760690 -0.571242
-0.276728 1.764617 -0.571967
-0.271047 1.766753 -0.572314
-0.265354 1.768908 -0.572668
-0.259840 1.772940 -0.573422
-0.254383 1.777884 -0.574371
-0.249046 1.784567 -0.575691
-0.244834 1.804559 -0.579832
-0.238862 1.805848 -0.580011
-0.233529 1.815287 -0.581919
-0.227634 1.818349 -0.582477
-0.222073 1.826571 -0.584130
-0.216120 1.829947 -0.584758
-0.210146 1.833457 -0.585416
-0.204221 1.838409 -0.586381
-0.198236 1.843075 -0.587287
-0.192256 1.848789 -0.588416
-0.186384 1.858390 -0.590367
-0.180127 1.860014 -0.590634
-0.173962 1.864960 -0.591605
-0.167663 1.866749 -0.591910
-0.161374 1.869731 -0.592468
-0.155064 1.873179 -0.593127
-0.148713 1.876155 -0.593687
-0.142344 1.880420 -0.594519
-0.135961 1.892153 -0.596928
-0.129474 1.894464 -0.597350
-0.122954 1.898108 -0.598055
-0.116392 1.902353 -0.598888
-0.109775 1.907305 -0.599871
-0.103105 1.912448 -0.600894
-0.096465 1.914251 -0.601215
-0.089762 1.917503 -0.601843
-0.082859 1.925611 -0.603493
-0.076109 1.927690 -0.603875
-0.069321 1.930085 -0.604325
-0.062341 1.935906 -0.605496
-0.055405 1.939757 -0.606254
-0.048547 1.941547 -0.606578
-0.041672 1.943267 -0.606890
-0.034755 1.945297 -0.607267
-0.028180 1.942245 -0.606577
-0.021811 1.936848 -0.605396
-0.016598 1.917890 -0.601367
-0.013082 1.881379 -0.593653
-0.008618 1.859001 -0.588910
0.009563 1.848944 -0.586679
0.040789 1.949287 -0.607624
0.048711 1.957605 -0.609331
0.055710 1.958152 -0.609408
0.062060 1.953791 -0.608457
0.068731 1.951972 -0.608041
0.075565 1.951361 -0.607878
0.082783 1.953304 -0.608253
0.094431 1.857444 -0.588038
0.153353 1.993473 -0.616423
0.161112 1.996187 -0.616970
0.168923 1.998973 -0.617533
0.176297 1.999477 -0.617620
0.183145 1.997436 -0.617175
0.189504 1.993187 -0.616270
0.196887 1.993678 -0.616359
0.203662 1.991423 -0.615875
0.210745 1.990535 -0.615679
0.217416 1.987896 -0.615118
0.224953 1.988886 -0.615319
0.232090 1.988164 -0.615164
0.236932 1.978335 -0.613103
0.243824 1.976787 -0.612778
0.250210 1.973320 -0.612055
0.256312 1.968865 -0.611126
0.263581 1.968796 -0.611118
0.269815 1.964950 -0.610322
0.276600 1.963130 -0.609952
0.282600 1.958591 -0.609016
0.287199 1.949369 -0.607101
0.294125 1.948206 -0.606876
0.300486 1.945159 -0.606260
0.305707 1.938455 -0.604881
0.310384 1.930175 -0.603174
0.315696 1.924091 -0.601929
0.320883 1.917753 -0.600635
0.327344 1.915422 -0.600183
0.331574 1.906421 -0.598336
0.337366 1.902233 -0.597501
0.342760 1.896950 -0.596440
0.346812 1.887920 -0.594596
0.351584 1.881118 -0.593222
0.355512 1.872106 -0.591388
0.359268 1.862811 -0.589497
0.354924 1.831881 -0.583068
0.356484 1.817443 -0.580102
0.359837 1.808034 -0.578196
0.365429 1.804598 -0.577546
0.363328 1.781586 -0.572787
0.379399 1.787453 -0.574183
0.381608 1.775907 -0.571843
0.379457 1.754071 -0.567341
0.365824 1.705388 -0.557189
0.375716 1.713188 -0.558926
0.387957 1.726154 -0.561757
0.039698 0.898591 -0.387581
0.041583 0.897998 -0.387495
0.043024 0.896441 -0.387207
0.046129 0.898428 -0.387668
0.048405 0.898601 -0.387749
0.051685 0.900821 -0.388263
0.054366 0.901735 -0.388504
0.056533 0.901560 -0.388516
0.059066 0.902092 -0.388679
0.062737 0.904829 -0.389311
0.065375 0.905456 -0.389498
0.067534 0.905118 -0.389482
0.071220 0.907668 -0.390081
0.073358 0.907215 -0.390044
0.076981 0.909508 -0.390593
0.079718 0.910090 -0.390779
0.082897 0.911435 -0.391129
0.085160 0.911074 -0.391117
0.087529 0.910883 -0.391143
0.091449 0.913395 -0.391747
0.094191 0.913778 -0.391898
0.096959 0.914174 -0.392052
0.099531 0.914205 -0.392129
0.102241 0.914446 -0.392251
0.105899 0.916237 -0.392706
0.108705 0.916568 -0.392849
0.111432 0.916749 -0.392959
0.116189 0.920179 -0.393767
0.118162 0.919092 -0.393603
0.121651 0.920407 -0.393955
0.125317 0.921965 -0.394359
0.128422 0.922621 -0.394566
0.130640 0.921913 -0.394477
0.134018 0.922974 -0.394768
0.138196 0.925219 -0.395311
0.141055 0.925476 -0.395422
0.144400 0.926456 -0.395685
0.147568 0.927179 -0.395888
0.150315 0.927305 -0.395958
0.153044 0.927430 -0.396022
0.155470 0.927153 -0.395994
0.157624 0.926534 -0.395885
0.158981 0.924857 -0.395541
-0.598469 1.542194 -0.541001
-0.596361 1.548710 -0.542416
-0.592260 1.551090 -0.542870
-0.588576 1.554618 -0.543570
-0.584879 1.558344 -0.544299
-0.580672 1.561120 -0.544796
-0.574954 1.560559 -0.544518
-0.571625 1.565756 -0.545538
-0.566278 1.566355 -0.545498
-0.562083 1.569862 -0.546108
-0.557712 1.573111 -0.546648
-0.553682 1.577368 -0.547405
-0.548677 1.579339 -0.547635
-0.543709 1.581506 -0.547901
-0.539045 1.584559 -0.548361
-0.534656 1.588451 -0.549003
-0.530076 1.591959 -0.549553
-0.525119 1.594547 -0.549890
-0.519696 1.595919 -0.549950
-0.515327 1.600271 -0.550678
-0.511514 1.606314 -0.551783
-0.507012 1.610523 -0.552473
-0.502394 1.614483 -0.553106
-0.497218 1.616855 -0.553382
-0.491898 1.618811 -0.553566
-0.487837 1.624658 -0.554620
-0.482614 1.626988 -0.554889
-0.477502 1.629680 -0.555240
-0.472526 1.632835 -0.555696
-0.467461 1.635722 -0.556095
-0.462576 1.639238 -0.556636
-0.457502 1.642148 -0.557045
-0.452557 1.645528 -0.557561
-0.448059 1.650536 -0.558441
-0.442879 1.653168 -0.558797
-0.437131 1.653714 -0.558694
-0.433079 1.660570 -0.559992
-0.428310 1.664855 -0.560723
-0.422895 1.666686 -0.560916
-0.417660 1.669214 -0.561266
-0.413153 1.674723 -0.562278
-0.408054 1.677906 -0.562779
-0.402854 1.680704 -0.563200
-0.397379 1.682329 -0.563366
-0.392437 1.686306 -0.564054
-0.387205 1.689055 -0.564475
-0.381796 1.691014 -0.564726
-0.376549 1.693742 -0.565150
-0.371874 1.699308 -0.566200
-0.366646 1.702297 -0.566688
-0.361622 1.706391 -0.567422
-0.357213 1.713852 -0.568895
-0.351569 1.714946 -0.568979
-0.345934 1.716067 -0.569072
-0.341126 1.721882 -0.570194
-0.335466 1.722954 -0.570283
-0.330408 1.727640 -0.571165
-0.324952 1.730056 -0.571554
-0.319718 1.733967 -0.572272
-0.314340 1.737106 -0.572825
-0.309267 1.742454 -0.573862
-0.304227 1.748329 -0.575016
-0.298585 1.750145 -0.575289
-0.292899 1.751688 -0.575506
-0.289170 1.768686 -0.579084
-0.283153 1.768228 -0.578871
-0.277392 1.769855 -0.579113
-0.273526 1.788364 -0.583023
-0.268096 1.793962 -0.584132
-0.262597 1.799349 -0.585196
-0.256650 1.800650 -0.585377
-0.251043 1.805663 -0.586364
-0.245459 1.811407 -0.587512
-0.239837 1.817305 -0.588695
-0.233828 1.818989 -0.588968
-0.227809 1.820710 -0.589250
-0.222000 1.825606 -0.590222
-0.216071 1.829356 -0.590948
-0.209909 1.829804 -0.590961
-0.204169 1.837856 -0.592621
-0.198275 1.844379 -0.593951
-0.191971 1.843326 -0.593646
-0.185953 1.848930 -0.594780
-0.179722 1.850161 -0.594972
-0.173873 1.863675 -0.597817
-0.167596 1.866189 -0.598289
-0.161309 1.869411 -0.598915
-0.155003 1.873257 -0.599676
-0.148631 1.874998 -0.599985
-0.142235 1.876036 -0.600144
-0.135849 1.882987 -0.601580
-0.129398 1.888477 -0.602701
-0.122937 1.886112 -0.602130
-0.116316 1.900774 -0.605230
-0.109746 1.902865 -0.605622
-0.103193 1.902962 -0.605586
-0.096415 1.911965 -0.607469
-0.089775 1.913293 -0.607700
-0.083006 1.917890 -0.608635
-0.076255 1.920827 -0.609215
-0.069453 1.924189 -0.609887
-0.062565 1.928576 -0.610780
-0.055523 1.934978 -0.612108
-0.048582 1.938522 -0.612821
-0.041683 1.940773 -0.613258
-0.034902 1.940897 -0.613238
-0.028229 1.939440 -0.612879
-0.021537 1.938335 -0.612596
-0.014847 1.937280 -0.612326
0.001112 1.891723 -0.602413
0.008977 1.841787 -0.591612
0.013425 1.824632 -0.587892
0.019218 1.820497 -0.586971
0.026949 1.832726 -0.589564
0.037445 1.866034 -0.596684
0.047533 1.893682 -0.602588
0.051690 1.875353 -0.598622
0.055986 1.859236 -0.595133
0.061163 1.850239 -0.593174
0.066378 1.842035 -0.591386
0.091053 1.836080 -0.590011
0.129018 1.937968 -0.611803
0.138384 1.950861 -0.614549
0.150743 1.978528 -0.620465
0.158938 1.983778 -0.621574
0.166847 1.987316 -0.622317
0.174891 1.991291 -0.623156
0.180088 1.981666 -0.621081
0.188290 1.986208 -0.622044
0.194090 1.979725 -0.620646
0.201646 1.981177 -0.620951
0.206436 1.970640 -0.618687
0.212979 1.967860 -0.618089
0.216607 1.953138 -0.614932
0.223161 1.950761 -0.614424
0.231447 1.955274 -0.615395
0.237259 1.949966 -0.614263
0.242610 1.943052 -0.612788
0.248745 1.939272 -0.611988
0.254018 1.882024 -0.599758
0.278144 1.917157 -0.607336
0.265900 1.852285 -0.593447
0.269282 1.841017 -0.591057
0.285090 1.848245 -0.592671
0.294366 1.834624 -0.589823
0.302990 1.840150 -0.591051
0.307521 1.833205 -0.589606
0.310077 1.820600 -0.586948
0.312879 1.809023 -0.584513
0.320199 1.810632 -0.584913
0.322924 1.799200 -0.582515
0.329807 1.799562 -0.582655
0.332957 1.789652 -0.580590
0.335696 1.778849 -0.578336
0.339543 1.771226 -0.576769
0.343050 1.762857 -0.575044
0.347025 1.755859 -0.573617
0.351647 1.750629 -0.572574
0.356512 1.746080 -0.571681
0.361995 1.743111 -0.571132
0.366478 1.737702 -0.570062
0.372339 1.735686 -0.569726
0.371536 1.717794 -0.565971
0.374763 1.709755 -0.564343
0.378246 1.702439 -0.562874
0.045978 0.916990 -0.393478
0.040759 0.900539 -0.389964
0.041969 0.898451 -0.389555
0.043784 0.897685 -0.389434
0.046186 0.898158 -0.389582
0.048751 0.898932 -0.389797
0.052171 0.901431 -0.390388
0.054626 0.901868 -0.390534
0.057018 0.902138 -0.390646
0.060089 0.903729 -0.391046
0.062396 0.903747 -0.391107
0.065580 0.905445 -0.391535
0.067925 0.905460 -0.391598
0.071464 0.907717 -0.392152
0.073848 0.907720 -0.392216
0.077671 0.910371 -0.392860
0.079945 0.910085 -0.392865
0.082617 0.910501 -0.393024
0.085039 0.910432 -0.393079
0.087176 0.909831 -0.393019
0.090382 0.911093 -0.393367
0.094380 0.913678 -0.394008
0.096999 0.913813 -0.394112
0.099910 0.914420 -0.394320
0.102815 0.914980 -0.394519
0.106052 0.916062 -0.394834
0.109742 0.917845 -0.395302
0.113234 0.919253 -0.395689
0.115897 0.919284 -0.395772
0.118067 0.918521 -0.395678
0.121900 0.920380 -0.396162
0.126375 0.923196 -0.396858
0.128482 0.922303 -0.396730
0.131727 0.923164 -0.396989
0.134787 0.923733 -0.397180
0.137702 0.924084 -0.397320
0.141821 0.926220 -0.397853
0.144833 0.926708 -0.398016
0.148019 0.927459 -0.398232
0.150259 0.926858 -0.398144
0.152952 0.926941 -0.398202
0.155685 0.927110 -0.398273
0.158112 0.926880 -0.398249
0.159307 0.924984 -0.397848
-0.599953 1.545000 -0.546831
-0.596041 1.547539 -0.547355
-0.591891 1.549769 -0.547790
-0.588064 1.552930 -0.548425
-0.584595 1.557129 -0.549285
-0.580555 1.560248 -0.549877
-0.577157 1.565075 -0.550851
-0.572644 1.567503 -0.551252
-0.567793 1.569293 -0.551491
-0.562575 1.570334 -0.551544
-0.557559 1.571986 -0.551728
-0.553556 1.576281 -0.552513
-0.549295 1.580102 -0.553179
-0.543999 1.581429 -0.553258
-0.539563 1.585065 -0.553863
-0.535164 1.588931 -0.554515
-0.530679 1.592694 -0.555136
-0.525189 1.593845 -0.555150
-0.520368 1.596871 -0.555592
-0.516143 1.601641 -0.556432
-0.511708 1.605938 -0.557159
-0.506902 1.609268 -0.557663
-0.501906 1.612106 -0.558052
-0.496810 1.614689 -0.558382
-0.491895 1.617852 -0.558845
-0.487166 1.621632 -0.559449
-0.482424 1.625433 -0.560059
-0.477935 1.630105 -0.560869
-0.472680 1.632376 -0.561132
-0.467533 1.635003 -0.561480
-0.462621 1.638438 -0.562013
-0.457488 1.641150 -0.562385
-0.452361 1.643898 -0.562767
-0.448017 1.649444 -0.563788
-0.442840 1.652091 -0.564154
-0.438225 1.656823 -0.564995
-0.433422 1.660936 -0.565700
-0.428325 1.663995 -0.566169
-0.423096 1.666564 -0.566531
-0.417817 1.668942 -0.566854
-0.413196 1.674009 -0.567788
-0.408042 1.676978 -0.568251
-0.402400 1.677898 -0.568258
-0.397803 1.683314 -0.569280
-0.392945 1.687714 -0.570077
-0.387525 1.689673 -0.570329
-0.383207 1.696753 -0.571735
-0.376821 1.694228 -0.570989
-0.372523 1.701677 -0.572483
-0.366786 1.702210 -0.572432
-0.361314 1.704042 -0.572675
-0.357592 1.715083 -0.574982
-0.351699 1.714905 -0.574782
-0.346869 1.720524 -0.575882
-0.341205 1.721619 -0.575975
-0.338084 1.737607 -0.579395
-0.333539 1.745861 -0.581091
-0.328401 1.750840 -0.582058
-0.323300 1.756294 -0.583134
-0.317762 1.759118 -0.583627
-0.312522 1.764096 -0.584603
-0.306633 1.764754 -0.584620
-0.300968 1.767026 -0.585000
-0.295770 1.772923 -0.586188
-0.289752 1.772753 -0.586031
-0.283924 1.774057 -0.586205
-0.279026 1.783307 -0.588145
-0.273681 1.789318 -0.589369
-0.268028 1.792954 -0.590068
-0.262435 1.797430 -0.590955
-0.256763 1.801498 -0.591755
-0.251258 1.807689 -0.593027
-0.245525 1.811940 -0.593871
-0.239738 1.815966 -0.594667
-0.233622 1.816298 -0.594648
-0.227575 1.817546 -0.594835
-0.221859 1.823637 -0.596094
-0.215808 1.825450 -0.596410
-0.209820 1.828554 -0.597013
-0.203656 1.828993 -0.597029
-0.197781 1.835170 -0.598315
-0.191790 1.840063 -0.599319
-0.185665 1.842818 -0.599852
-0.179471 1.844420 -0.600133
-0.173433 1.851359 -0.601593
-0.167412 1.861314 -0.603721
-0.161204 1.867195 -0.604950
-0.154890 1.870333 -0.605575
-0.148485 1.868895 -0.605193
-0.142127 1.871535 -0.605711
-0.135771 1.882051 -0.607968
-0.129325 1.881325 -0.607747
-0.122856 1.885259 -0.608555
-0.116271 1.896454 -0.610964
-0.109720 1.898367 -0.611328
-0.103211 1.897077 -0.610989
-0.096605 1.900064 -0.611593
-0.089836 1.907492 -0.613176
-0.083114 1.911418 -0.613988
-0.076456 1.912626 -0.614204
-0.069785 1.913784 -0.614409
-0.062910 1.918819 -0.615469
-0.055936 1.924715 -0.616719
-0.048709 1.933933 -0.618701
-0.041793 1.936727 -0.619271
0.008518 1.835824 -0.596747
0.013958 1.827863 -0.594966
0.020118 1.826725 -0.594686
0.027720 1.837592 -0.597043
0.036932 1.860404 -0.602024
0.044767 1.870897 -0.604300
0.052837 1.882335 -0.606784
0.059968 1.886217 -0.607609
0.064512 1.871928 -0.604447
0.070343 1.867113 -0.603366
0.082744 1.905076 -0.611676
0.090029 1.908569 -0.612420
0.098255 1.917541 -0.614368
0.107799 1.933737 -0.617903
0.116210 1.942465 -0.619799
0.121923 1.935583 -0.618271
0.129089 1.936928 -0.618551
0.137780 1.946234 -0.620578
0.147631 1.961010 -0.623806
0.155663 1.965841 -0.624854
0.162559 1.964803 -0.624617
0.167210 1.952995 -0.622018
0.173598 1.949824 -0.621316
0.181372 1.953099 -0.622029
0.191202 1.965383 -0.624721
0.194173 1.947028 -0.620694
0.198926 1.937046 -0.618505
0.206796 1.940516 -0.619269
0.212684 1.935642 -0.618205
0.217640 1.927156 -0.616351
0.224393 1.926049 -0.616117
0.228928 1.889721 -0.608173
0.230347 1.869339 -0.603717
0.251441 1.871646 -0.604286
0.258950 1.850461 -0.599691
0.259209 1.828625 -0.594929
0.261489 1.814119 -0.591778
0.267024 1.810575 -0.591036
0.277046 1.821374 -0.593447
0.284771 1.824573 -0.594192
0.291224 1.823690 -0.594044
0.297581 1.822483 -0.593828
0.302051 1.815617 -0.592372
0.304394 1.802640 -0.589575
0.308067 1.793851 -0.587702
0.312979 1.788793 -0.586652
0.318889 1.786624 -0.586240
0.324630 1.783986 -0.585729
0.328898 1.777339 -0.584340
0.334169 1.773514 -0.583575
0.336331 1.761483 -0.581006
0.340407 1.754727 -0.579602
0.344900 1.749162 -0.578464
0.349876 1.744908 -0.577618
0.355512 1.742353 -0.577151
0.357064 1.729691 -0.574458
0.362540 1.726871 -0.573940
0.367361 1.722474 -0.573077
0.369167 1.710953 -0.570646
0.371926 1.701891 -0.568760
0.379148 1.703319 -0.569196
0.398088 1.731408 -0.575532
0.404635 1.730744 -0.575518
0.043862 0.911867 -0.394403
0.041057 0.900801 -0.391998
0.042502 0.899215 -0.391694
0.044387 0.898584 -0.391602
0.046709 0.898869 -0.391715
0.048712 0.898450 -0.391673
0.051553 0.899747 -0.392015
0.054347 0.900890 -0.392324
0.056929 0.901550 -0.392528
0.059384 0.901911 -0.392667
0.062923 0.904371 -0.393276
0.065701 0.905263 -0.393538
0.068003 0.905190 -0.393586
0.071350 0.907076 -0.394074
0.074082 0.907736 -0.394289
0.076657 0.908059 -0.394432
0.080142 0.910017 -0.394942
0.082685 0.910193 -0.395055
0.085603 0.911011 -0.395313
0.087559 0.910078 -0.395180
0.091229 0.912145 -0.395721
0.093575 0.911847 -0.395733
0.098152 0.915356 -0.396601
0.100373 0.914770 -0.396550
0.103517 0.915724 -0.396846
0.106737 0.916764 -0.397162
0.109358 0.916780 -0.397247
0.112934 0.918332 -0.397678
0.116181 0.919310 -0.397980
0.118652 0.919023 -0.397995
0.122773 0.921328 -0.398595
0.126313 0.922677 -0.398978
0.128734 0.922275 -0.398961
0.132570 0.924037 -0.399434
0.135124 0.923836 -0.399457
0.137721 0.923713 -0.399495
0.142528 0.926871 -0.400276
0.145100 0.926713 -0.400297
0.147757 0.926701 -0.400347
0.151647 0.928483 -0.400801
0.154864 0.929304 -0.401030
0.156774 0.928296 -0.400836
0.158773 0.927466 -0.400676
0.161462 0.927643 -0.400739
-0.602346 1.549786 -0.553167
-0.596371 1.547804 -0.552630
-0.592319 1.550224 -0.553125
-0.588236 1.552783 -0.553636
-0.584343 1.555984 -0.554282
-0.580611 1.559773 -0.555052
-0.576275 1.562375 -0.555522
-0.572273 1.565954 -0.556210
-0.567406 1.567662 -0.556439
-0.562491 1.569398 -0.556661
-0.557654 1.571459 -0.556948
-0.552733 1.573442 -0.557206
-0.549182 1.579003 -0.558300
-0.544542 1.581983 -0.558774
-0.539350 1.583653 -0.558929
-0.535039 1.587723 -0.559644
-0.530688 1.591820 -0.560359
-0.525094 1.592676 -0.560304
-0.520346 1.595882 -0.560798
-0.515796 1.599729 -0.561440
-0.511845 1.605375 -0.562500
-0.507063 1.608772 -0.563030
-0.501973 1.611333 -0.563362
-0.497644 1.616198 -0.564233
-0.492213 1.617835 -0.564348
-0.487175 1.620675 -0.564745
-0.482302 1.624064 -0.565271
-0.478384 1.630546 -0.566519
-0.472689 1.631417 -0.566461
-0.467322 1.633322 -0.566647
-0.462531 1.637149 -0.567282
-0.457803 1.641248 -0.567982
-0.452513 1.643451 -0.568246
-0.447209 1.645599 -0.568500
-0.444022 1.655399 -0.570529
-0.438705 1.657629 -0.570808
-0.433359 1.659741 -0.571064
-0.428718 1.664549 -0.571946
-0.423514 1.667256 -0.572347
-0.418307 1.669964 -0.572752
-0.413905 1.675973 -0.573921
-0.408720 1.678882 -0.574380
-0.404138 1.684385 -0.575439
-0.398906 1.687212 -0.575887
-0.394128 1.692086 -0.576808
-0.389490 1.697726 -0.577909
-0.383762 1.698471 -0.577890
-0.379294 1.705151 -0.579236
-0.374614 1.711034 -0.580403
-0.370892 1.721905 -0.582714
-0.365500 1.724682 -0.583175
-0.359537 1.724510 -0.582967
-0.354438 1.728904 -0.583805
-0.349723 1.735576 -0.585168
-0.344485 1.739561 -0.585920
-0.339101 1.742832 -0.586513
-0.333251 1.743401 -0.586493
-0.328340 1.749761 -0.587796
-0.323274 1.755438 -0.588947
-0.317685 1.757951 -0.589381
-0.311916 1.759320 -0.589557
-0.306502 1.763210 -0.590310
-0.301036 1.766927 -0.591027
-0.295703 1.771852 -0.592022
-0.289842 1.772920 -0.592143
-0.283899 1.773343 -0.592121
-0.278599 1.779199 -0.593335
-0.272848 1.781482 -0.593742
-0.267129 1.784212 -0.594252
-0.261129 1.784409 -0.594191
-0.256321 1.796668 -0.596866
-0.250960 1.804216 -0.598475
-0.244923 1.804924 -0.598537
-0.238934 1.806231 -0.598738
-0.233190 1.810728 -0.599663
-0.227156 1.811858 -0.599828
-0.221231 1.814674 -0.600378
-0.215499 1.820800 -0.601677
-0.209244 1.819212 -0.601235
-0.203592 1.828144 -0.603172
-0.197460 1.829291 -0.603353
-0.191616 1.836872 -0.604988
-0.185473 1.838971 -0.605387
-0.179304 1.840909 -0.605752
-0.173025 1.839940 -0.605463
-0.166862 1.842913 -0.606065
-0.160940 1.857849 -0.609367
-0.154605 1.857618 -0.609249
-0.148378 1.865558 -0.610975
-0.142006 1.865188 -0.610830
-0.135642 1.866671 -0.611103
-0.129251 1.877207 -0.613418
-0.122830 1.875529 -0.612983
-0.116256 1.889549 -0.616084
-0.109800 1.887035 -0.615463
-0.103280 1.888773 -0.615801
-0.096676 1.893085 -0.616720
-0.089992 1.898587 -0.617907
-0.083229 1.904744 -0.619243
-0.076557 1.907007 -0.619705
-0.069963 1.906919 -0.619638
-0.063196 1.910301 -0.620353
-0.056329 1.914891 -0.621341
-0.049351 1.920537 -0.622567
-0.043055 1.914433 -0.621152
-0.051669 1.689424 -0.570532
-0.028816 1.763456 -0.587070
-0.023519 1.755916 -0.585344
-0.017303 1.759125 -0.586034
-0.010271 1.770405 -0.588538
-0.001774 1.794997 -0.594032
0.007558 1.825176 -0.600781
0.015121 1.836748 -0.603351
0.022107 1.842338 -0.604579
0.029611 1.851718 -0.606658
0.037246 1.861367 -0.608799
0.045010 1.871235 -0.610989
0.052995 1.881981 -0.613377
0.061453 1.895318 -0.616348
0.068122 1.895362 -0.616336
0.073624 1.887566 -0.614566
0.080126 1.886675 -0.614346
0.090773 1.911774 -0.619960
0.098824 1.919546 -0.621687
0.108270 1.935056 -0.625152
0.115137 1.934846 -0.625090
0.122116 1.935225 -0.625162
0.128813 1.933999 -0.624875
0.135992 1.935338 -0.625166
0.143588 1.938713 -0.625914
0.150457 1.938212 -0.625795
0.158550 1.943699 -0.627021
0.165318 1.942520 -0.626753
0.171426 1.938258 -0.625796
0.177806 1.935383 -0.625151
0.183425 1.929180 -0.623762
0.188891 1.922524 -0.622273
0.196735 1.926292 -0.623125
0.202660 1.921801 -0.622126
0.206160 1.907478 -0.618923
0.209847 1.894434 -0.616009
0.214645 1.886233 -0.614184
0.217549 1.870974 -0.610778
0.222568 1.864275 -0.609294
0.224247 1.845334 -0.605065
0.224926 1.799738 -0.594883
0.243909 1.820532 -0.599610
0.251517 1.823897 -0.600400
0.251213 1.800629 -0.595212
0.254165 1.788800 -0.592595
0.260853 1.789386 -0.592769
0.270483 1.799255 -0.595032
0.276488 1.797400 -0.594664
0.285930 1.806135 -0.596679
0.288992 1.795196 -0.594276
0.294163 1.790827 -0.593353
0.301153 1.791877 -0.593652
0.297328 1.761542 -0.586895
0.308012 1.773399 -0.589631
0.315511 1.775901 -0.590267
0.320710 1.771903 -0.589445
0.325660 1.767275 -0.588483
0.326636 1.752031 -0.585135
0.327295 1.736315 -0.581682
0.333997 1.736756 -0.581873
0.339986 1.735276 -0.581635
0.346011 1.733861 -0.581416
0.349030 1.724882 -0.579494
0.350813 1.713016 -0.576925
0.348245 1.690790 -0.572018
0.356226 1.694458 -0.572961
0.363739 1.696843 -0.573620
0.369627 1.695285 -0.573393
0.375578 1.693837 -0.573196
0.042946 0.909417 -0.395884
0.041482 0.901333 -0.394101
0.043232 0.900397 -0.393940
0.044764 0.898989 -0.393672
0.046926 0.898923 -0.393711
0.050370 0.901510 -0.394355
0.052313 0.900907 -0.394275
0.054596 0.900986 -0.394353
0.057653 0.902593 -0.394780
0.060400 0.903516 -0.395054
0.063417 0.904921 -0.395440
0.066070 0.905556 -0.395653
0.068005 0.904768 -0.395542
0.071410 0.906760 -0.396068
0.073771 0.906719 -0.396132
0.077249 0.908723 -0.396666
0.079938 0.909207 -0.396853
0.083084 0.910479 -0.397223
0.085867 0.911045 -0.397433
0.088929 0.912067 -0.397749
0.091729 0.912581 -0.397950
0.094897 0.913695 -0.398290
0.099178 0.916668 -0.399060
0.101311 0.915916 -0.398973
0.104228 0.916472 -0.399187
0.107886 0.918226 -0.399679
0.110140 0.917623 -0.399626
0.114595 0.920586 -0.400398
0.116956 0.920116 -0.400375
0.119008 0.919155 -0.400236
0.122816 0.920964 -0.400739
0.125522 0.921021 -0.400833
0.129855 0.923577 -0.401506
0.132531 0.923561 -0.401579
0.136363 0.925293 -0.402055
0.139578 0.926080 -0.402308
0.142016 0.925719 -0.402289
0.144472 0.925406 -0.402277
0.147421 0.925835 -0.402432
0.152246 0.928973 -0.403215
0.155108 0.929289 -0.403333
0.157033 0.928311 -0.403142
0.159413 0.928020 -0.403105
0.161571 0.927465 -0.402999
-0.600383 1.545087 -0.557247
-0.597302 1.549394 -0.558237
-0.593299 1.551907 -0.558771
-0.588532 1.552916 -0.558921
-0.583942 1.554501 -0.559193
-0.579509 1.556628 -0.559580
-0.575645 1.560263 -0.560317
-0.571309 1.563000 -0.560820
-0.566837 1.565593 -0.561272
-0.562038 1.567560 -0.561559
-0.557335 1.569906 -0.561925
-0.553328 1.574125 -0.562732
-0.549089 1.577940 -0.563430
-0.544315 1.580549 -0.563827
-0.539429 1.582984 -0.564172
-0.534439 1.585247 -0.564468
-0.529894 1.588783 -0.565064
-0.525135 1.591856 -0.565543
-0.520357 1.594965 -0.566025
-0.515641 1.598335 -0.566566
-0.510792 1.601409 -0.567032
-0.507603 1.609341 -0.568661
-0.502665 1.612366 -0.569110
-0.498013 1.616294 -0.569775
-0.492993 1.619188 -0.570191
-0.488072 1.622424 -0.570690
-0.483030 1.625329 -0.571111
-0.478625 1.630296 -0.572023
-0.472581 1.630049 -0.571697
-0.467205 1.631920 -0.571877
-0.463510 1.639418 -0.573396
-0.458462 1.642486 -0.573865
-0.453317 1.645243 -0.574264
-0.449708 1.653459 -0.575958
-0.444541 1.656268 -0.576374
-0.439694 1.660274 -0.577077
-0.434880 1.664465 -0.577827
-0.430577 1.670686 -0.579060
-0.424533 1.670262 -0.578728
-0.420530 1.677865 -0.580293
-0.415353 1.680908 -0.580786
-0.411003 1.687426 -0.582101
-0.407253 1.696673 -0.584060
-0.401341 1.696850 -0.583892
-0.395970 1.699343 -0.584272
-0.390810 1.702810 -0.584885
-0.386516 1.710369 -0.586460
-0.381126 1.712981 -0.586881
-0.376023 1.717025 -0.587640
-0.370465 1.718907 -0.587897
-0.365201 1.722295 -0.588512
-0.359745 1.724769 -0.588916
-0.354421 1.727992 -0.589499
-0.349764 1.735001 -0.590969
-0.344529 1.739019 -0.591745
-0.338864 1.740674 -0.591974
-0.333300 1.742941 -0.592349
-0.327622 1.744563 -0.592578
-0.322684 1.750948 -0.593919
-0.316987 1.752640 -0.594171
-0.311049 1.752727 -0.594055
-0.305743 1.757200 -0.594961
-0.300233 1.760432 -0.595582
-0.294065 1.758840 -0.595087
-0.289365 1.768593 -0.597227
-0.283647 1.770732 -0.597603
-0.277602 1.770202 -0.597365
-0.271762 1.771372 -0.597524
-0.265839 1.771826 -0.597520
-0.260751 1.780329 -0.599382
-0.255047 1.783359 -0.599980
-0.249933 1.792932 -0.602094
-0.244562 1.800579 -0.603765
-0.238527 1.801162 -0.603804
-0.232386 1.800434 -0.603543
-0.226734 1.806098 -0.604762
-0.221151 1.813490 -0.606381
-0.215054 1.814020 -0.606418
-0.208665 1.809776 -0.605356
-0.203351 1.824076 -0.608576
-0.197364 1.827780 -0.609353
-0.191165 1.827663 -0.609250
-0.185191 1.832900 -0.610383
-0.178932 1.831745 -0.610045
-0.172781 1.833569 -0.610396
-0.166719 1.839350 -0.611661
-0.160667 1.848000 -0.613588
-0.154335 1.845587 -0.612968
-0.148123 1.850689 -0.614081
-0.141894 1.859742 -0.616105
-0.135547 1.860254 -0.616163
-0.129192 1.862088 -0.616528
-0.122797 1.867370 -0.617688
-0.116339 1.873617 -0.619071
-0.109808 1.880576 -0.620619
-0.103315 1.882246 -0.620952
-0.096777 1.884959 -0.621526
-0.090137 1.890108 -0.622661
-0.083493 1.893841 -0.623473
-0.076905 1.895177 -0.623734
-0.070126 1.900440 -0.624899
-0.063464 1.902214 -0.625263
-0.056520 1.908843 -0.626745
-0.049653 1.913012 -0.627662
-0.043190 1.910062 -0.626944
-0.030377 1.742766 -0.588388
-0.023612 1.753180 -0.590750
-0.017018 1.760589 -0.592422
-0.008638 1.785668 -0.598151
-0.001117 1.799858 -0.601381
0.008147 1.829093 -0.608064
0.016016 1.843204 -0.611276
0.023436 1.852218 -0.613320
0.030264 1.855561 -0.614063
0.037532 1.862099 -0.615541
0.044626 1.866760 -0.616588
0.052835 1.879282 -0.619441
0.061537 1.894394 -0.622887
0.068375 1.895605 -0.623147
0.072683 1.879820 -0.619510
0.080439 1.887242 -0.621197
0.089698 1.903575 -0.624928
0.099338 1.921203 -0.628957
0.102551 1.899846 -0.624049
0.112086 1.915894 -0.627718
0.119305 1.918094 -0.628214
0.127513 1.925503 -0.629906
0.135081 1.929090 -0.630723
0.140697 1.922391 -0.629183
0.147653 1.922701 -0.629253
0.155331 1.926497 -0.630123
0.163520 1.932505 -0.631502
0.168331 1.922382 -0.629184
0.173219 1.913022 -0.627044
0.179061 1.908293 -0.625967
0.186081 1.908871 -0.626109
0.192766 1.907938 -0.625907
0.196190 1.893328 -0.622570
0.199247 1.877758 -0.619016
0.203761 1.868626 -0.616940
0.208596 1.861070 -0.615227
0.214506 1.857911 -0.614525
0.218152 1.846235 -0.611872
0.218268 1.821810 -0.606296
0.219613 1.779457 -0.596639
0.225690 1.778370 -0.596424
0.242489 1.814369 -0.604723
0.244665 1.777516 -0.596347
0.250004 1.773903 -0.595563
0.255497 1.770855 -0.594911
0.256493 1.753559 -0.590990
0.271778 1.781438 -0.597449
0.278036 1.780597 -0.597315
0.280758 1.769018 -0.594716
0.284919 1.762030 -0.593175
0.285488 1.744653 -0.589248
0.291183 1.742558 -0.588838
0.303134 1.758275 -0.592529
0.311159 1.762452 -0.593571
0.316699 1.759573 -0.592993
0.317430 1.743614 -0.589407
0.320937 1.735499 -0.587630
0.327184 1.734799 -0.587564
0.330738 1.727024 -0.585872
0.334018 1.718692 -0.584055
0.338945 1.714695 -0.583241
0.344411 1.712088 -0.582751
0.344929 1.697265 -0.579446
0.348783 1.690892 -0.578095
0.352525 1.684346 -0.576707
0.358996 1.684368 -0.576841
0.361021 1.673911 -0.574556
0.369993 1.679698 -0.576034
0.042045 0.907002 -0.397353
0.042008 0.902080 -0.396265
0.043462 0.900486 -0.395949
0.045165 0.899437 -0.395762
0.047332 0.899369 -0.395804
0.050781 0.901951 -0.396464
0.053053 0.902015 -0.396541
0.055230 0.901858 -0.396569
0.057811 0.902487 -0.396781
0.060275 0.902841 -0.396931
0.063214 0.904092 -0.397293
0.065864 0.904722 -0.397513
0.068736 0.905737 -0.397824
0.071510 0.906514 -0.398081
0.073788 0.906313 -0.398112
0.077833 0.909364 -0.398907
0.080180 0.909206 -0.398951
0.083503 0.910791 -0.399407
0.086589 0.911891 -0.399750
0.089645 0.912885 -0.400071
0.092074 0.912734 -0.400123
0.095572 0.914413 -0.400608
0.098077 0.914333 -0.400679
0.101311 0.915465 -0.401037
0.104114 0.915832 -0.401214
0.107808 0.917647 -0.401735
0.111545 0.919475 -0.402259
0.113782 0.918822 -0.402196
0.117395 0.920376 -0.402655
0.120416 0.920950 -0.402880
0.123272 0.921244 -0.403037
0.125965 0.921278 -0.403131
0.129197 0.922140 -0.403419
0.132724 0.923434 -0.403807
0.136966 0.925786 -0.404445
0.139893 0.926142 -0.404603
0.142328 0.925779 -0.404584
0.145271 0.926184 -0.404744
0.147964 0.926241 -0.404816
0.149629 0.924848 -0.404535
0.154401 0.927922 -0.405316
0.157144 0.928117 -0.405402
0.159327 0.927562 -0.405301
0.163633 0.929990 -0.405908
-0.599556 1.542872 -0.561902
-0.597390 1.549133 -0.563405
-0.594180 1.553374 -0.564386
-0.589286 1.554081 -0.564470
-0.583700 1.553380 -0.564186
-0.579386 1.555737 -0.564644
-0.575311 1.558839 -0.565269
-0.571308 1.562317 -0.565971
-0.567353 1.566110 -0.566735
-0.562134 1.567045 -0.566776
-0.557440 1.569384 -0.567151
-0.553586 1.573956 -0.568066
-0.548785 1.576336 -0.568427
-0.544009 1.578901 -0.568823
-0.539401 1.582020 -0.569347
-0.535488 1.587093 -0.570342
-0.530586 1.589698 -0.570723
-0.525387 1.591586 -0.570921
-0.520368 1.594026 -0.571250
-0.516037 1.598456 -0.572062
-0.511694 1.602972 -0.572892
-0.507032 1.606684 -0.573521
-0.503252 1.613062 -0.574800
-0.498590 1.616982 -0.575476
-0.494456 1.622577 -0.576559
-0.489138 1.624663 -0.576786
-0.485023 1.630520 -0.577933
-0.480164 1.634141 -0.578535
-0.476430 1.641462 -0.580038
-0.471319 1.644430 -0.580484
-0.466074 1.646972 -0.580829
-0.460207 1.647400 -0.580666
-0.457414 1.658447 -0.583076
-0.452963 1.663951 -0.584145
-0.445938 1.660275 -0.583001
-0.441211 1.664824 -0.583847
-0.436130 1.668127 -0.584396
-0.430579 1.669674 -0.584527
-0.426268 1.676026 -0.585818
-0.421440 1.680482 -0.586656
-0.415645 1.681101 -0.586576
-0.412700 1.693482 -0.589324
-0.407737 1.697743 -0.590126
-0.402103 1.699184 -0.590256
-0.396376 1.700183 -0.590285
-0.391475 1.704876 -0.591203
-0.387360 1.713345 -0.593028
-0.382327 1.717759 -0.593886
-0.375981 1.715907 -0.593251
-0.370094 1.716154 -0.593124
-0.364555 1.718111 -0.593409
-0.359403 1.722105 -0.594184
-0.354360 1.726810 -0.595133
-0.349603 1.733265 -0.596502
-0.343981 1.735082 -0.596770
-0.338533 1.737927 -0.597287
-0.332697 1.738525 -0.597274
-0.326327 1.735760 -0.596466
-0.321055 1.739771 -0.597272
-0.314746 1.737116 -0.596499
-0.309268 1.739874 -0.597016
-0.304514 1.747852 -0.598774
-0.297819 1.742143 -0.597290
-0.292707 1.747928 -0.598534
-0.268183 1.739153 -0.595990
-0.264086 1.755124 -0.599658
-0.258849 1.761479 -0.601054
-0.253542 1.767673 -0.602415
-0.247582 1.767491 -0.602272
-0.241203 1.762521 -0.601002
-0.235332 1.762970 -0.601014
-0.231495 1.789011 -0.607068
-0.225549 1.790098 -0.607235
-0.219851 1.794829 -0.608264
-0.214447 1.804718 -0.610511
-0.208849 1.812922 -0.612363
-0.203211 1.821765 -0.614366
-0.196423 1.809647 -0.611434
-0.190690 1.817857 -0.613292
-0.184779 1.823641 -0.614581
-0.178722 1.826912 -0.615280
-0.172451 1.824454 -0.614633
-0.166335 1.826835 -0.615127
-0.160255 1.831864 -0.616245
-0.154126 1.836842 -0.617354
-0.147982 1.844383 -0.619066
-0.141770 1.852478 -0.620910
-0.135456 1.854097 -0.621233
-0.129126 1.855416 -0.621488
-0.122752 1.861537 -0.622872
-0.116327 1.866860 -0.624070
-0.109828 1.873420 -0.625560
-0.103338 1.876413 -0.626213
-0.096840 1.878396 -0.626631
-0.090259 1.882473 -0.627542
-0.083719 1.884113 -0.627882
-0.077143 1.886193 -0.628327
-0.070570 1.887656 -0.628628
-0.063617 1.896529 -0.630670
-0.056971 1.898014 -0.630979
-0.049785 1.908409 -0.633380
-0.041825 1.929407 -0.638269
-0.024251 1.744189 -0.594672
-0.017309 1.755798 -0.597368
-0.010542 1.764384 -0.599356
-0.002563 1.784027 -0.603937
0.006037 1.807672 -0.609456
0.014541 1.828353 -0.614282
0.022874 1.845798 -0.618349
0.029644 1.848875 -0.619049
0.034619 1.837403 -0.616342
0.043938 1.859970 -0.621612
0.049744 1.854950 -0.620419
0.055376 1.848995 -0.619009
0.077815 1.868848 -0.623621
0.081553 1.851159 -0.619468
0.090732 1.867497 -0.623286
0.100791 1.888031 -0.628089
0.108779 1.895501 -0.629834
0.114187 1.888143 -0.628106
0.118502 1.875195 -0.625070
0.125308 1.876032 -0.625266
0.137860 1.906365 -0.632372
0.144069 1.903300 -0.631657
0.152820 1.912784 -0.633883
0.160158 1.915014 -0.634412
0.164593 1.903525 -0.631729
0.169788 1.895975 -0.629971
0.175713 1.891974 -0.629047
0.181856 1.889048 -0.628376
0.185399 1.875076 -0.625119
0.190756 1.869235 -0.623769
0.197249 1.868242 -0.623558
0.201408 1.857856 -0.621148
0.206939 1.853237 -0.620092
0.211765 1.846024 -0.618429
0.200188 1.776888 -0.602254
0.207041 1.778810 -0.602737
0.210692 1.768927 -0.600454
0.212552 1.752938 -0.596742
0.219114 1.754012 -0.597033
0.225205 1.753368 -0.596924
0.228652 1.743716 -0.594705
0.235146 1.744514 -0.594940
0.245113 1.756627 -0.597834
0.246698 1.741232 -0.594275
0.253309 1.742241 -0.594569
0.263808 1.755304 -0.597698
0.272432 1.762132 -0.599366
0.279553 1.764142 -0.599907
0.281769 1.751420 -0.596991
0.285508 1.743495 -0.595204
0.291213 1.741428 -0.594798
0.296581 1.738399 -0.594169
0.304025 1.741217 -0.594919
0.310358 1.740819 -0.594917
0.312971 1.730247 -0.592525
0.316734 1.722995 -0.590917
0.324325 1.726004 -0.591729
0.329730 1.723162 -0.591168
0.332464 1.713465 -0.588995
0.337502 1.709805 -0.588249
0.342406 1.705839 -0.587435
0.344160 1.694142 -0.584800
0.344616 1.679527 -0.581478
0.350018 1.677100 -0.581038
0.353216 1.669444 -0.579367
0.354014 1.656302 -0.576401
0.364057 1.664760 -0.578550
0.043081 0.908884 -0.399820
0.041854 0.901327 -0.398085
0.043542 0.900244 -0.397886
0.045135 0.898956 -0.397641
0.046888 0.898013 -0.397478
0.050188 0.900290 -0.398084
0.053543 0.902599 -0.398699
0.055444 0.901865 -0.398593
0.057662 0.901757 -0.398637
0.061297 0.904438 -0.399349
0.063876 0.904955 -0.399547
0.066217 0.904969 -0.399627
0.068585 0.905006 -0.399715
0.071876 0.906763 -0.400216
0.074578 0.907347 -0.400439
0.078248 0.909681 -0.401083
0.081338 0.910874 -0.401456
0.083941 0.911130 -0.401606
0.086310 0.910937 -0.401650
0.090322 0.913625 -0.402388
0.092449 0.912934 -0.402315
0.095844 0.914425 -0.402768
0.098393 0.914416 -0.402861
0.101312 0.915010 -0.403100
