ply
format ascii 1.0
comment ---
element vertex 1654
property float x
property float y
property float z
element face 0
property list uchar uint vertex_indices
end_header
-0.543161 1.557959 -0.566499
-0.539501 1.558722 -0.568630
-0.535674 1.557427 -0.569336
-0.531946 1.559267 -0.572256
-0.528214 1.562778 -0.576377
-0.524339 1.564536 -0.579284
-0.520396 1.566147 -0.582108
-0.516450 1.570096 -0.586614
-0.512397 1.572550 -0.590082
-0.508284 1.575102 -0.593640
-0.504117 1.578424 -0.597773
-0.499881 1.578949 -0.599911
-0.495618 1.578334 -0.601235
-0.491362 1.575362 -0.600852
-0.487224 1.565560 -0.595487
-0.483061 1.561387 -0.594196
-0.479005 1.554346 -0.590789
-0.474971 1.548669 -0.588358
-0.471092 1.540313 -0.583928
-0.466837 1.542470 -0.587245
-0.462665 1.542247 -0.588811
-0.458543 1.541017 -0.589629
-0.454327 1.541429 -0.591674
-0.450232 1.539854 -0.592235
-0.446155 1.538194 -0.592730
-0.442120 1.536159 -0.592939
-0.438017 1.535151 -0.593919
-0.434212 1.530898 -0.592435
-0.430379 1.527400 -0.591511
-0.425964 1.529974 -0.595214
-0.421926 1.528715 -0.595997
-0.418238 1.524447 -0.594465
-0.414002 1.525148 -0.596750
-0.409975 1.524068 -0.597665
-0.405905 1.523362 -0.598871
-0.402159 1.520308 -0.598251
-0.398224 1.518775 -0.598809
-0.394156 1.518214 -0.600128
-0.389938 1.518621 -0.602212
-0.386215 1.515862 -0.601806
-0.382473 1.513363 -0.601599
-0.378435 1.512698 -0.602841
-0.374963 1.508856 -0.601557
-0.371382 1.505794 -0.600884
-0.367495 1.504484 -0.601607
-0.363683 1.502821 -0.602046
-0.360121 1.499959 -0.601518
-0.356736 1.496359 -0.600385
-0.353381 1.492759 -0.599241
-0.349800 1.490332 -0.599042
-0.346132 1.488361 -0.599211
-0.342766 1.485134 -0.598348
-0.339090 1.483312 -0.598633
-0.335384 1.481645 -0.599045
-0.331164 1.482050 -0.601172
-0.327826 1.478945 -0.600395
-0.323559 1.479452 -0.602621
-0.320916 1.473844 -0.599747
-0.317415 1.471542 -0.599624
-0.314295 1.467930 -0.598397
-0.310849 1.465544 -0.598194
-0.307724 1.462112 -0.597102
-0.304777 1.458165 -0.595565
-0.301545 1.455253 -0.594897
-0.298371 1.452209 -0.594111
-0.295186 1.449261 -0.593400
-0.292297 1.445459 -0.591948
-0.289983 1.440019 -0.589070
-0.287162 1.436219 -0.587594
-0.283827 1.433984 -0.587467
-0.280294 1.432332 -0.587848
-0.276093 1.432535 -0.589855
-0.273233 1.429009 -0.588598
-0.267847 1.432319 -0.593359
-0.264344 1.430491 -0.593606
-0.260908 1.428490 -0.593701
-0.257935 1.425322 -0.592756
-0.254971 1.422177 -0.591825
-0.252006 1.419079 -0.590929
-0.248895 1.416378 -0.590383
-0.245703 1.413896 -0.590032
-0.243069 1.410133 -0.588516
-0.240074 1.407258 -0.587797
-0.236975 1.404651 -0.587317
-0.232909 1.404216 -0.588825
-0.228563 1.404344 -0.590859
-0.224368 1.404083 -0.592550
-0.220855 1.402326 -0.592867
-0.217502 1.400228 -0.592869
-0.217116 1.392040 -0.587193
-0.214338 1.388880 -0.586182
-0.209009 1.390838 -0.589969
-0.206318 1.387499 -0.588792
-0.203918 1.383639 -0.587113
-0.200133 1.382470 -0.587977
-0.196476 1.381038 -0.588598
-0.194748 1.376019 -0.585791
-0.191367 1.374100 -0.585941
-0.187436 1.373169 -0.587044
-0.185009 1.369540 -0.585546
-0.181904 1.367139 -0.585230
-0.178315 1.365585 -0.585736
-0.174005 1.365239 -0.587429
-0.171520 1.361790 -0.586088
-0.167016 1.361714 -0.588062
-0.164567 1.358236 -0.586684
-0.161965 1.355042 -0.585580
-0.158766 1.352822 -0.585439
-0.155785 1.350267 -0.584962
-0.152687 1.347905 -0.584675
-0.150426 1.344274 -0.583107
-0.146861 1.342644 -0.583554
-0.144156 1.339728 -0.582697
-0.140877 1.337671 -0.582711
-0.136658 1.336973 -0.584119
-0.132248 1.336511 -0.585782
-0.129457 1.333726 -0.585059
-0.126113 1.331726 -0.585146
-0.123310 1.328981 -0.584458
-0.120379 1.326424 -0.583963
-0.115717 1.326196 -0.585909
-0.112247 1.324342 -0.586160
-0.110652 1.320034 -0.583816
-0.107410 1.317903 -0.583767
-0.105076 1.314613 -0.582483
-0.101442 1.312987 -0.582973
-0.099627 1.309087 -0.581022
-0.096596 1.306721 -0.580713
-0.092017 1.306234 -0.582443
-0.087669 1.305431 -0.583845
-0.083452 1.304437 -0.585052
-0.080679 1.301727 -0.584385
-0.078679 1.298136 -0.582743
-0.076626 1.294639 -0.581192
-0.073349 1.292548 -0.581196
-0.068370 1.292347 -0.583318
-0.064076 1.291344 -0.584559
-0.061984 1.287919 -0.583081
-0.056703 1.287942 -0.585502
-0.052947 1.286293 -0.586044
-0.052459 1.281202 -0.582657
-0.048815 1.279443 -0.583072
-0.044985 1.277861 -0.583699
-0.041691 1.275718 -0.583685
-0.036966 1.274999 -0.585334
-0.034677 1.271834 -0.584141
-0.051121 1.245278 -0.557837
-0.051170 1.240172 -0.554205
-0.049539 1.236712 -0.552508
-0.046207 1.234861 -0.552728
-0.041763 1.234021 -0.554174
-0.039615 1.231057 -0.553068
-0.045212 1.221144 -0.543507
-0.046773 1.214991 -0.538452
-0.044450 1.212335 -0.537649
-0.077709 1.174538 -0.495729
-0.075586 1.172109 -0.494999
-0.075221 1.168211 -0.492428
-0.074388 1.164739 -0.490373
-0.071990 1.162574 -0.489961
-0.069420 1.160546 -0.489726
-0.065548 1.159551 -0.490820
-0.060272 1.159633 -0.493321
-0.057983 1.157326 -0.492766
-0.055341 1.155290 -0.492567
-0.051234 1.154360 -0.493824
-0.049771 1.151405 -0.492438
-0.051614 1.146003 -0.487810
-0.059412 1.136295 -0.477407
-0.058948 1.132757 -0.475157
-0.057343 1.130065 -0.474030
-0.058244 1.125602 -0.470503
-0.050246 1.127416 -0.475501
-0.046150 1.126428 -0.476728
-0.049389 1.120393 -0.471023
-0.047023 1.118224 -0.470626
-0.039121 1.119734 -0.475377
-0.033003 1.119969 -0.478409
-0.032177 1.116694 -0.476532
-0.029356 1.114715 -0.476489
-0.026250 1.112900 -0.476696
-0.024691 1.110094 -0.475493
-0.022322 1.107792 -0.475022
-0.019011 1.106053 -0.475385
-0.016138 1.104026 -0.475346
-0.014715 1.101119 -0.474018
-0.013311 1.098204 -0.472678
-0.011669 1.095431 -0.471551
-0.006498 1.094675 -0.473479
-0.002842 1.093012 -0.474070
0.000905 1.091370 -0.474720
0.006266 1.090584 -0.476723
0.003186 1.085176 -0.471563
0.005816 1.082888 -0.471246
0.011984 1.082451 -0.473874
0.013151 1.079355 -0.472313
0.017233 1.077763 -0.473164
0.022917 1.076950 -0.475308
0.028419 1.075996 -0.477270
0.031747 1.073928 -0.477439
0.033334 1.071003 -0.476196
0.036838 1.069005 -0.476495
0.041203 1.067399 -0.477471
0.043139 1.064645 -0.476507
0.045912 1.062287 -0.476210
0.047800 1.059535 -0.475220
0.051240 1.057489 -0.475448
0.053792 1.055057 -0.474986
0.056570 1.052737 -0.474705
0.060486 1.050915 -0.475299
0.065711 1.049646 -0.476887
0.069088 1.047607 -0.477067
0.073690 1.046083 -0.478175
0.077734 1.044343 -0.478862
0.082329 1.042836 -0.479964
0.092197 1.043396 -0.484970
0.097767 1.042266 -0.486774
0.075895 1.030770 -0.468484
-0.558300 1.552177 -0.560896
-0.554734 1.550189 -0.561042
-0.551300 1.550764 -0.562989
-0.547783 1.551145 -0.564819
-0.544507 1.556514 -0.570174
-0.540801 1.556297 -0.571628
-0.537052 1.556322 -0.573268
-0.533454 1.560771 -0.578062
-0.529659 1.562822 -0.581181
-0.525748 1.563544 -0.583373
-0.521804 1.564929 -0.586055
-0.517840 1.567746 -0.589784
-0.513831 1.571742 -0.594386
-0.509714 1.573703 -0.597544
-0.505558 1.577405 -0.601983
-0.501326 1.578923 -0.604858
-0.497047 1.581654 -0.608634
-0.492722 1.583442 -0.611740
-0.488385 1.583050 -0.613258
-0.484370 1.565122 -0.601853
-0.480194 1.561186 -0.600717
-0.476200 1.552302 -0.595898
-0.472291 1.543507 -0.591108
-0.468154 1.542283 -0.591935
-0.464336 1.534458 -0.587817
-0.460429 1.529816 -0.586057
-0.456206 1.531271 -0.588877
-0.452056 1.531235 -0.590581
-0.447635 1.534934 -0.595124
-0.443750 1.531004 -0.593882
-0.439765 1.528769 -0.593920
-0.435932 1.525051 -0.592816
-0.431934 1.523484 -0.593352
-0.427622 1.525177 -0.596398
-0.423684 1.523106 -0.596547
-0.420111 1.517938 -0.594288
-0.416293 1.515322 -0.593994
-0.411948 1.517170 -0.597180
-0.407956 1.516078 -0.598077
-0.404197 1.513311 -0.597658
-0.399995 1.513860 -0.599845
-0.395836 1.514032 -0.601744
-0.392254 1.510367 -0.600604
-0.388532 1.507808 -0.600334
-0.384663 1.506273 -0.600874
-0.380885 1.504260 -0.601031
-0.377540 1.499878 -0.599281
-0.374062 1.496462 -0.598294
-0.369552 1.498680 -0.601853
-0.365572 1.497980 -0.603065
-0.361946 1.495503 -0.602834
-0.358495 1.492271 -0.601980
-0.355149 1.488671 -0.600818
-0.351689 1.485734 -0.600189
-0.348154 1.483231 -0.599911
-0.344644 1.480691 -0.599597
-0.340980 1.478877 -0.599881
-0.337813 1.475051 -0.598490
-0.333555 1.475726 -0.600846
-0.329981 1.473632 -0.600895
-0.327481 1.467477 -0.597528
-0.323109 1.468524 -0.600212
-0.319426 1.466954 -0.600696
-0.316060 1.464266 -0.600233
-0.312814 1.461213 -0.599454
-0.309706 1.457759 -0.598325
-0.306673 1.454141 -0.597046
-0.303447 1.451242 -0.596376
-0.300401 1.447824 -0.595252
-0.297137 1.445162 -0.594773
-0.294131 1.441755 -0.593644
-0.291952 1.435929 -0.590396
-0.289013 1.432508 -0.589230
-0.285843 1.429825 -0.588703
-0.282727 1.427028 -0.588070
-0.279500 1.424583 -0.587744
-0.276258 1.422207 -0.587476
-0.272957 1.420013 -0.587367
-0.269219 1.418988 -0.588300
-0.264019 1.421724 -0.592609
-0.259730 1.421986 -0.594723
-0.257180 1.417826 -0.592863
-0.254792 1.413346 -0.590699
-0.251383 1.411426 -0.590845
-0.248540 1.408161 -0.589766
-0.245057 1.406441 -0.590092
-0.242074 1.403565 -0.589360
-0.239014 1.400895 -0.588811
-0.235611 1.399015 -0.588990
-0.232005 1.397576 -0.589578
-0.229562 1.393618 -0.587825
-0.227792 1.388297 -0.584786
-0.224064 1.387167 -0.585655
-0.220515 1.385647 -0.586164
-0.216475 1.385107 -0.587602
-0.213743 1.381914 -0.586536
-0.210866 1.379045 -0.585769
-0.206351 1.379371 -0.588050
-0.203952 1.375596 -0.586416
-0.200322 1.374184 -0.587043
-0.197202 1.371812 -0.586749
-0.193701 1.370145 -0.587136
-0.190236 1.368403 -0.587453
-0.187140 1.365999 -0.587126
-0.184995 1.361943 -0.585179
-0.181792 1.359767 -0.585066
-0.177948 1.358685 -0.586034
-0.175808 1.354722 -0.584153
-0.170895 1.355392 -0.586869
-0.167674 1.353232 -0.586778
-0.164387 1.351179 -0.586795
-0.162021 1.347665 -0.585343
-0.159317 1.344719 -0.584454
-0.155391 1.343682 -0.585495
-0.152248 1.341427 -0.585303
-0.149921 1.337947 -0.583860
-0.147343 1.334878 -0.582828
-0.145148 1.331272 -0.581235
-0.142255 1.328717 -0.580716
-0.138560 1.327315 -0.581393
-0.132951 1.328592 -0.584869
-0.130029 1.326046 -0.584372
-0.127991 1.322299 -0.582609
-0.125775 1.318833 -0.581131
-0.121582 1.318047 -0.582480
-0.117539 1.317028 -0.583596
-0.114625 1.314509 -0.583117
-0.111548 1.312208 -0.582872
-0.108065 1.310428 -0.583186
-0.104952 1.308174 -0.582992
-0.102361 1.305274 -0.582095
-0.099189 1.303104 -0.581990
-0.095855 1.301129 -0.582100
-0.092361 1.299340 -0.582417
-0.088723 1.297711 -0.582916
-0.082599 1.298968 -0.586625
-0.080967 1.294965 -0.584504
-0.079339 1.290999 -0.582408
-0.076579 1.288347 -0.581775
-0.072394 1.287287 -0.582938
-0.069151 1.285166 -0.582909
-0.065330 1.283667 -0.583592
-0.061273 1.282402 -0.584552
-0.058811 1.279423 -0.583554
-0.056921 1.275860 -0.581875
-0.053855 1.273543 -0.581631
-0.048983 1.273071 -0.583538
-0.044630 1.272029 -0.584801
-0.040707 1.270527 -0.585538
-0.039370 1.266453 -0.583246
-0.053327 1.242408 -0.559638
-0.052344 1.238299 -0.557163
-0.050319 1.235210 -0.555898
-0.047227 1.233130 -0.555848
-0.043437 1.231685 -0.556575
-0.041860 1.228208 -0.554831
-0.046917 1.218805 -0.545795
-0.046886 1.214075 -0.542446
-0.044962 1.211059 -0.541196
-0.037976 1.212439 -0.545427
-0.072620 1.169585 -0.498883
-0.077112 1.161681 -0.491186
-0.075803 1.158644 -0.489647
-0.072563 1.157182 -0.490127
-0.072516 1.153154 -0.487300
-0.068988 1.151909 -0.488072
-0.065411 1.150675 -0.488877
-0.059642 1.151100 -0.491882
-0.055261 1.150404 -0.493448
-0.051810 1.148968 -0.494058
-0.050292 1.146074 -0.492734
-0.049626 1.142566 -0.490580
-0.059019 1.131801 -0.478589
-0.053735 1.131732 -0.481032
-0.053063 1.128345 -0.478973
-0.055412 1.122873 -0.474027
-0.053717 1.120260 -0.472998
-0.050650 1.118583 -0.473276
-0.049566 1.115552 -0.471670
-0.043364 1.115933 -0.474876
-0.040816 1.113844 -0.474628
-0.037176 1.112448 -0.475383
-0.035414 1.109822 -0.474391
-0.032830 1.107714 -0.474153
-0.030611 1.105365 -0.473576
-0.028215 1.103116 -0.473157
-0.022475 1.102888 -0.475736
-0.020141 1.100554 -0.475231
-0.019195 1.097388 -0.473489
-0.017780 1.094507 -0.472172
-0.014480 1.092717 -0.472513
-0.014515 1.089004 -0.469930
-0.009571 1.088113 -0.471683
-0.004421 1.087287 -0.473581
-0.003087 1.084325 -0.472178
-0.001058 1.081743 -0.471373
0.001542 1.079462 -0.471050
0.003808 1.076993 -0.470439
0.006211 1.074590 -0.469939
0.015175 1.075525 -0.474890
0.013844 1.071185 -0.471266
0.023962 1.072569 -0.477079
0.027777 1.070761 -0.477670
0.029343 1.067849 -0.476420
0.031278 1.065125 -0.475476
0.036720 1.064051 -0.477351
0.040739 1.062284 -0.478064
0.041675 1.059101 -0.476319
0.043179 1.056202 -0.475041
0.046528 1.054141 -0.475222
0.049861 1.052075 -0.475388
0.053281 1.050051 -0.475622
0.055730 1.047626 -0.475108
0.059728 1.045867 -0.475791
0.062428 1.043584 -0.475485
0.067736 1.042379 -0.477166
0.068605 1.039406 -0.475493
0.074522 1.038468 -0.477635
0.080949 1.037724 -0.480147
0.086593 1.036680 -0.482068
0.082389 1.031942 -0.476716
-0.559353 1.547699 -0.562383
-0.556061 1.548976 -0.564817
-0.552611 1.549179 -0.566516
-0.549262 1.551856 -0.569982
-0.545708 1.552712 -0.572185
-0.542082 1.553523 -0.574374
-0.538338 1.553364 -0.575890
-0.534731 1.557139 -0.580235
-0.531044 1.561174 -0.584798
-0.527158 1.562347 -0.587328
-0.523208 1.563331 -0.589739
-0.519305 1.568015 -0.594850
-0.515257 1.570088 -0.598091
-0.511151 1.572254 -0.601421
-0.507003 1.575773 -0.605759
-0.502780 1.577828 -0.609048
-0.498506 1.581308 -0.613404
-0.494175 1.583611 -0.616915
-0.489818 1.584105 -0.619101
-0.485407 1.586244 -0.622521
-0.480910 1.590352 -0.627425
-0.477170 1.565936 -0.611002
-0.473416 1.549640 -0.600566
-0.469355 1.545338 -0.599094
-0.465342 1.540843 -0.597460
-0.461752 1.529018 -0.590252
-0.457890 1.524149 -0.588283
-0.454018 1.520209 -0.587003
-0.449925 1.520015 -0.588577
-0.445881 1.519125 -0.589621
-0.441454 1.523025 -0.594355
-0.437440 1.521575 -0.594979
-0.433466 1.519814 -0.595359
-0.429544 1.517683 -0.595448
-0.425393 1.517930 -0.597387
-0.421893 1.512186 -0.594643
-0.417820 1.511920 -0.596179
-0.413714 1.511895 -0.597908
-0.409674 1.511321 -0.599208
-0.406106 1.507205 -0.597703
-0.402154 1.506151 -0.598620
-0.397716 1.508471 -0.602230
-0.394353 1.503455 -0.599986
-0.390696 1.500641 -0.599491
-0.386724 1.499915 -0.600670
-0.382840 1.498662 -0.601427
-0.379468 1.494523 -0.599844
-0.375836 1.492041 -0.599595
-0.371650 1.492623 -0.601841
-0.367321 1.493849 -0.604625
-0.363715 1.491321 -0.604341
-0.360254 1.488178 -0.603545
-0.357449 1.482056 -0.600278
-0.354101 1.478715 -0.599293
-0.350928 1.474718 -0.597752
-0.346844 1.474842 -0.599639
-0.344276 1.468469 -0.596095
-0.340441 1.467597 -0.597147
-0.336574 1.466839 -0.598298
-0.333035 1.464770 -0.598347
-0.329482 1.462792 -0.598471
-0.326080 1.460278 -0.598138
-0.322868 1.457124 -0.597255
-0.318901 1.456751 -0.598746
-0.315655 1.453809 -0.598037
-0.312625 1.450198 -0.596745
-0.308913 1.448958 -0.597494
-0.305871 1.445517 -0.596336
-0.302646 1.442739 -0.595747
-0.299083 1.441075 -0.596126
-0.295797 1.438562 -0.595762
-0.293568 1.432898 -0.592622
-0.290584 1.429623 -0.591569
-0.287517 1.426655 -0.590780
-0.284967 1.422263 -0.588720
-0.282098 1.418866 -0.587531
-0.278708 1.416962 -0.587670
-0.275043 1.415806 -0.588481
-0.272149 1.412589 -0.587440
-0.269665 1.408363 -0.585479
-0.265821 1.407690 -0.586728
-0.262335 1.406086 -0.587136
-0.258438 1.405486 -0.588465
-0.254495 1.404956 -0.589867
-0.252516 1.399707 -0.586937
-0.247772 1.401044 -0.590067
-0.244908 1.397948 -0.589112
-0.241630 1.395831 -0.589060
-0.238698 1.392948 -0.588293
-0.235247 1.391237 -0.588617
-0.232845 1.387258 -0.586813
-0.229738 1.384839 -0.586467
-0.226819 1.382041 -0.585761
-0.223780 1.379521 -0.585312
-0.218988 1.380568 -0.588261
-0.216388 1.377152 -0.586963
-0.213686 1.373979 -0.585887
-0.210128 1.372500 -0.586437
-0.206255 1.371607 -0.587559
-0.202889 1.369730 -0.587732
-0.199813 1.367312 -0.587381
-0.196798 1.364794 -0.586930
-0.193447 1.362896 -0.587084
-0.190887 1.359592 -0.585854
-0.187210 1.358278 -0.586583
-0.183728 1.356606 -0.586964
-0.180745 1.354078 -0.586494
-0.177530 1.351952 -0.586424
-0.174801 1.349025 -0.585549
-0.170604 1.348515 -0.587105
-0.168408 1.344746 -0.585375
-0.165770 1.341725 -0.584391
-0.162133 1.340292 -0.585022
-0.158357 1.339057 -0.585860
-0.154090 1.338549 -0.587452
-0.151444 1.335561 -0.586499
-0.149993 1.330826 -0.583728
-0.147392 1.327843 -0.582760
-0.143950 1.326099 -0.583078
-0.140583 1.324239 -0.583279
-0.138115 1.321109 -0.582144
-0.134822 1.319149 -0.582238
-0.131298 1.317504 -0.582669
-0.127982 1.315565 -0.582791
-0.124668 1.313619 -0.582908
-0.121584 1.311366 -0.582697
-0.117573 1.310323 -0.583791
-0.114272 1.308339 -0.583877
-0.112058 1.304970 -0.582458
-0.109985 1.301453 -0.580867
-0.104291 1.302460 -0.584228
-0.102619 1.298463 -0.582105
-0.099372 1.296416 -0.582124
-0.095809 1.294743 -0.582562
-0.093947 1.291050 -0.580750
-0.091409 1.288182 -0.579850
-0.087268 1.287175 -0.581040
-0.083779 1.285398 -0.581371
-0.081327 1.282444 -0.580371
-0.077073 1.281507 -0.581668
-0.073446 1.279852 -0.582154
-0.071192 1.276694 -0.580919
-0.066195 1.276492 -0.583095
-0.063522 1.273785 -0.582383
-0.060856 1.271078 -0.581669
-0.057801 1.268782 -0.581434
-0.052453 1.268824 -0.583954
-0.048600 1.267304 -0.584653
-0.044564 1.265945 -0.585555
-0.043495 1.261640 -0.582953
-0.049815 1.250193 -0.571759
-0.058388 1.236793 -0.558109
-0.055420 1.234616 -0.557929
-0.051083 1.233720 -0.559313
-0.047577 1.232018 -0.559730
-0.043991 1.230373 -0.560228
-0.046596 1.223103 -0.553787
-0.046924 1.217984 -0.549959
-0.047346 1.212846 -0.546075
-0.044196 1.210894 -0.546156
-0.036610 1.212764 -0.551062
-0.034244 1.210076 -0.550250
-0.036143 1.203793 -0.544860
-0.069360 1.167258 -0.503080
-0.075474 1.158093 -0.493648
-0.074515 1.154779 -0.491736
-0.071273 1.153304 -0.492217
-0.074103 1.147040 -0.486414
-0.071130 1.145372 -0.486634
-0.063744 1.147072 -0.491346
-0.059027 1.146653 -0.493287
-0.056473 1.144567 -0.493019
-0.053020 1.143137 -0.493645
-0.048425 1.142517 -0.495393
-0.047884 1.138925 -0.493105
-0.045963 1.136343 -0.492193
-0.056257 1.125159 -0.479369
-0.056778 1.120985 -0.476170
-0.056848 1.117162 -0.473438
-0.055779 1.114145 -0.471821
-0.046192 1.116849 -0.478320
-0.049840 1.110663 -0.472215
-0.046779 1.108952 -0.472481
-0.044427 1.106761 -0.472071
-0.040027 1.105867 -0.473559
-0.036225 1.104552 -0.474467
-0.034647 1.101821 -0.473314
-0.031216 1.100230 -0.473855
-0.026790 1.099213 -0.475279
-0.023509 1.097469 -0.475644
-0.023336 1.093866 -0.473214
-0.023086 1.090333 -0.470870
-0.020933 1.087913 -0.470226
-0.017672 1.086114 -0.470554
-0.014204 1.084406 -0.471046
-0.008765 1.083759 -0.473235
-0.005704 1.081762 -0.473333
-0.002770 1.079678 -0.473311
0.001344 1.078201 -0.474285
0.003010 1.075413 -0.473161
0.001015 1.070744 -0.468955
0.012704 1.073076 -0.476254
0.012727 1.069433 -0.473741
0.012981 1.065933 -0.471441
0.013881 1.062775 -0.469692
0.021322 1.062772 -0.473307
0.026220 1.061498 -0.474806
0.031167 1.060215 -0.476320
0.037114 1.059362 -0.478617
0.035304 1.054960 -0.474681
0.037728 1.052511 -0.474155
0.041952 1.050864 -0.475056
0.046411 1.049309 -0.476131
0.050984 1.047795 -0.477286
0.051618 1.044619 -0.475369
0.052563 1.041618 -0.473720
0.056070 1.039706 -0.474064
0.061665 1.038648 -0.476007
0.063959 1.036279 -0.475431
0.067689 1.034507 -0.475958
0.073837 1.033688 -0.478312
0.080657 1.033123 -0.481158
0.087297 1.032487 -0.483857
-0.559915 1.537523 -0.559807
-0.557267 1.546199 -0.567491
-0.553977 1.548314 -0.570560
-0.550512 1.549161 -0.572750
-0.546994 1.550299 -0.575167
-0.543394 1.551279 -0.577491
-0.539767 1.553014 -0.580378
-0.536005 1.553506 -0.582388
-0.532481 1.560563 -0.589172
-0.528575 1.561135 -0.591285
-0.524618 1.561747 -0.593441
-0.520727 1.566293 -0.598490
-0.516683 1.568151 -0.601597
-0.512596 1.570735 -0.605256
-0.508448 1.573456 -0.609038
-0.504250 1.577605 -0.613899
-0.499979 1.582238 -0.619148
-0.495648 1.582899 -0.621464
-0.491245 1.587795 -0.626959
-0.486793 1.590986 -0.631204
-0.482317 1.592694 -0.634354
-0.477842 1.593090 -0.636528
-0.473342 1.593634 -0.638823
-0.470196 1.558468 -0.613980
-0.466557 1.543380 -0.604284
-0.462834 1.533271 -0.598328
-0.458975 1.527546 -0.595693
-0.455182 1.521711 -0.592950
-0.451494 1.515228 -0.589682
-0.447737 1.510628 -0.587848
-0.443615 1.511251 -0.590055
-0.439593 1.510532 -0.591223
-0.435417 1.511549 -0.593751
-0.431658 1.508070 -0.592761
-0.427607 1.507782 -0.594272
-0.423463 1.508337 -0.596452
-0.419553 1.506737 -0.596933
-0.415410 1.507175 -0.599032
-0.411186 1.508175 -0.601587
-0.408015 1.501059 -0.597662
-0.404103 1.499870 -0.598463
-0.400023 1.499903 -0.600248
-0.396284 1.497612 -0.600163
-0.392545 1.495441 -0.600169
-0.388723 1.493897 -0.600682
-0.384732 1.493413 -0.602057
-0.381361 1.489346 -0.600507
-0.377817 1.486456 -0.599908
-0.373852 1.485969 -0.601281
-0.369875 1.485517 -0.602688
-0.365988 1.484587 -0.603704
-0.362630 1.481060 -0.602565
-0.359414 1.477003 -0.600974
-0.356041 1.473844 -0.600121
-0.352706 1.470631 -0.599214
-0.349443 1.467218 -0.598130
-0.346028 1.464573 -0.597686
-0.342589 1.462103 -0.597384
-0.339314 1.459032 -0.596567
-0.335366 1.458710 -0.598088
-0.332476 1.454267 -0.596089
-0.328874 1.452652 -0.596504
-0.324980 1.452122 -0.597854
-0.322388 1.446881 -0.595141
-0.318770 1.445414 -0.595680
-0.315653 1.442229 -0.594726
-0.311477 1.442673 -0.596933
-0.308244 1.439941 -0.596371
-0.305214 1.436604 -0.595272
-0.300922 1.437319 -0.597738
-0.297682 1.434697 -0.597267
-0.295047 1.430281 -0.595200
-0.292145 1.426770 -0.593924
-0.289111 1.423717 -0.593047
-0.286594 1.419241 -0.590888
-0.283951 1.415224 -0.589126
-0.280722 1.412904 -0.588885
-0.277889 1.409540 -0.587695
-0.274964 1.406480 -0.586772
-0.272557 1.402121 -0.584658
-0.269137 1.400442 -0.584982
-0.264826 1.400998 -0.587360
-0.262328 1.397002 -0.585559
-0.258477 1.396361 -0.586849
-0.255417 1.393796 -0.586362
-0.252405 1.391143 -0.585789
-0.248022 1.391678 -0.588193
-0.244201 1.390860 -0.589344
-0.240510 1.389719 -0.590198
-0.238638 1.384563 -0.587266
-0.235285 1.382707 -0.587442
-0.231864 1.380995 -0.587756
-0.228732 1.378674 -0.587491
-0.226554 1.374399 -0.585351
-0.224072 1.370812 -0.583858
-0.220029 1.370394 -0.585414
-0.217075 1.367790 -0.584862
-0.213256 1.366880 -0.585955
-0.209939 1.364980 -0.586090
-0.207030 1.362311 -0.585472
-0.203890 1.360091 -0.585292
-0.199166 1.360771 -0.587973
-0.196714 1.357286 -0.586548
-0.193898 1.354488 -0.585796
-0.190475 1.352773 -0.586121
-0.186888 1.351334 -0.586725
-0.185093 1.346831 -0.584251
-0.181549 1.345330 -0.584790
-0.178265 1.343386 -0.584885
-0.175662 1.340329 -0.583849
-0.172351 1.338437 -0.583996
-0.169748 1.335419 -0.582990
-0.165989 1.334237 -0.583866
-0.162851 1.332073 -0.583736
-0.158782 1.331331 -0.585079
-0.154919 1.330243 -0.586075
-0.152727 1.326651 -0.584461
-0.149184 1.325076 -0.584953
-0.147007 1.321517 -0.583356
-0.142922 1.320714 -0.584667
-0.140470 1.317581 -0.583512
-0.138087 1.314378 -0.582275
-0.134415 1.312972 -0.582954
-0.130315 1.312128 -0.584244
-0.127707 1.309258 -0.583357
-0.124955 1.306596 -0.582691
-0.123432 1.302349 -0.580293
-0.120531 1.299926 -0.579873
-0.116918 1.298414 -0.580451
-0.114162 1.295814 -0.579835
-0.110226 1.294686 -0.580847
-0.106496 1.293279 -0.581560
-0.102724 1.291906 -0.582318
-0.099669 1.289658 -0.582102
-0.096660 1.287357 -0.581828
-0.093704 1.284997 -0.581486
-0.090708 1.282687 -0.581202
-0.087306 1.280840 -0.581445
-0.083742 1.279167 -0.581894
-0.080874 1.276708 -0.581444
-0.077678 1.274614 -0.581414
-0.075062 1.271888 -0.580654
-0.071486 1.270199 -0.581101
-0.067056 1.269397 -0.582597
-0.064571 1.266532 -0.581677
-0.061131 1.264663 -0.581934
-0.057575 1.262902 -0.582324
-0.052577 1.262578 -0.584441
-0.048625 1.261165 -0.585275
-0.046987 1.257456 -0.583351
-0.057587 1.241894 -0.567044
-0.061490 1.233069 -0.558794
-0.058405 1.231024 -0.558766
-0.053922 1.230281 -0.560345
-0.047723 1.231089 -0.563863
-0.044587 1.229019 -0.563847
-0.045678 1.223118 -0.559055
-0.048336 1.215901 -0.552570
-0.048321 1.211156 -0.549144
-0.044686 1.209624 -0.549761
-0.038063 1.210646 -0.553648
-0.037091 1.206773 -0.551312
-0.040807 1.198985 -0.543922
-0.041944 1.193468 -0.539401
-0.044608 1.186769 -0.533303
-0.050696 1.177388 -0.523640
-0.071328 1.156500 -0.498752
-0.071247 1.152476 -0.495896
-0.075789 1.144869 -0.488256
-0.074054 1.142247 -0.487205
-0.069552 1.141748 -0.489005
-0.063986 1.142008 -0.491862
-0.064093 1.137970 -0.488918
-0.058213 1.138385 -0.492042
-0.052631 1.138515 -0.494821
-0.050087 1.136395 -0.494533
-0.043427 1.137191 -0.498313
-0.041650 1.134477 -0.497235
-0.056110 1.120506 -0.480295
-0.058946 1.114777 -0.474847
-0.055982 1.113052 -0.475055
-0.055732 1.109494 -0.472649
-0.052865 1.107688 -0.472759
-0.050827 1.105324 -0.472072
-0.047770 1.103611 -0.472344
-0.043881 1.102404 -0.473382
-0.039332 1.101575 -0.475011
-0.036499 1.099638 -0.475025
-0.039424 1.094166 -0.469738
-0.031971 1.095025 -0.473982
-0.027525 1.094003 -0.475435
-0.027952 1.090075 -0.472464
-0.028069 1.086359 -0.469796
-0.024038 1.085043 -0.470845
-0.021622 1.082779 -0.470442
-0.018766 1.080749 -0.470420
-0.013791 1.079865 -0.472243
-0.007391 1.079705 -0.475273
-0.004401 1.077653 -0.475307
-0.002932 1.074782 -0.474023
-0.007220 1.068924 -0.467823
0.006534 1.072401 -0.477016
0.002748 1.066847 -0.471276
0.005569 1.064666 -0.471143
0.008236 1.062400 -0.470873
0.012753 1.061023 -0.472136
0.015484 1.058763 -0.471902
0.021072 1.057841 -0.474007
0.025932 1.056542 -0.475489
0.018372 1.049545 -0.466882
0.029868 1.051260 -0.473728
0.032491 1.048931 -0.473383
0.033513 1.045912 -0.471766
0.043154 1.046633 -0.476995
0.047944 1.045224 -0.478346
0.045590 1.040823 -0.474091
0.046517 1.037855 -0.472443
0.049111 1.035606 -0.472110
0.054121 1.034349 -0.473652
0.060163 1.033501 -0.475976
0.063405 1.031559 -0.476154
0.061793 1.027791 -0.472663
0.074398 1.029465 -0.479945
0.074692 1.026499 -0.477931
-0.561539 1.540025 -0.566176
-0.558509 1.543892 -0.570492
-0.555249 1.546152 -0.573689
-0.551812 1.547159 -0.576007
-0.548324 1.548517 -0.578600
-0.544784 1.550255 -0.581490
-0.541191 1.552395 -0.584693
-0.537587 1.555823 -0.588859
-0.533923 1.559879 -0.593512
-0.530018 1.560363 -0.595576
-0.526143 1.563097 -0.599309
-0.522174 1.565172 -0.602579
-0.518121 1.566415 -0.605253
-0.514080 1.570794 -0.610272
-0.509906 1.571664 -0.612707
-0.505745 1.578486 -0.619602
-0.501465 1.581059 -0.623352
-0.497128 1.584506 -0.627779
-0.492741 1.586416 -0.631071
-0.488308 1.588637 -0.634613
-0.483812 1.591806 -0.638893
-0.479245 1.595710 -0.643754
-0.474664 1.598130 -0.647506
-0.470207 1.596031 -0.647811
-0.465830 1.592337 -0.646884
-0.456261 1.524997 -0.600332
-0.452700 1.515935 -0.595033
-0.449064 1.509316 -0.591603
-0.445534 1.502249 -0.587795
-0.441718 1.499537 -0.587383
-0.437733 1.499028 -0.588700
-0.433167 1.504635 -0.594863
-0.429191 1.503688 -0.595854
-0.425311 1.501885 -0.596163
-0.421515 1.499483 -0.595991
-0.417342 1.500444 -0.598509
-0.413336 1.499923 -0.599846
-0.409777 1.495975 -0.598422
-0.406080 1.493337 -0.598043
-0.402429 1.490542 -0.597530
-0.398391 1.490541 -0.599286
-0.394404 1.490151 -0.600730
-0.390669 1.488167 -0.600874
-0.386936 1.486264 -0.601080
-0.383168 1.484640 -0.601515
-0.379531 1.482341 -0.601389
-0.375971 1.479724 -0.600995
-0.372748 1.475446 -0.599211
-0.368662 1.475769 -0.601259
-0.365151 1.473176 -0.600871
-0.361235 1.472619 -0.602190
-0.357774 1.469918 -0.601707
-0.354853 1.464868 -0.599228
-0.351378 1.462471 -0.598984
-0.347828 1.460461 -0.599065
-0.344492 1.457608 -0.598424
-0.340856 1.456053 -0.598891
-0.337259 1.454363 -0.599242
-0.334501 1.449447 -0.596808
-0.331475 1.445719 -0.595386
-0.328129 1.443282 -0.595074
-0.324643 1.441401 -0.595244
-0.322046 1.436407 -0.592689
-0.318070 1.436329 -0.594432
-0.314302 1.435490 -0.595515
-0.310487 1.434778 -0.596715
-0.307682 1.430770 -0.595001
-0.304127 1.429242 -0.595480
-0.300393 1.428266 -0.596454
-0.297477 1.424783 -0.595189
-0.293602 1.424229 -0.596546
-0.291698 1.417880 -0.592686
-0.288650 1.414990 -0.591929
-0.285637 1.412047 -0.591118
-0.282866 1.408485 -0.589737
-0.279713 1.406026 -0.589354
-0.277257 1.401744 -0.587296
-0.274299 1.398862 -0.586513
-0.271036 1.396806 -0.586485
-0.267964 1.394276 -0.586019
-0.264700 1.392250 -0.586017
-0.262034 1.388780 -0.584669
-0.258368 1.387755 -0.585600
-0.255144 1.385667 -0.585538
-0.252716 1.381749 -0.583750
-0.246642 1.386181 -0.589853
-0.244378 1.381896 -0.587720
-0.241342 1.379385 -0.587261
-0.237711 1.378183 -0.588053
-0.233718 1.377730 -0.589569
-0.230757 1.375069 -0.588968
-0.228636 1.370699 -0.586711
-0.226549 1.366334 -0.584441
-0.224230 1.362511 -0.582683
-0.220829 1.360873 -0.583051
-0.216908 1.360238 -0.584405
-0.212735 1.360044 -0.586203
-0.210005 1.357083 -0.585280
-0.206679 1.355254 -0.585474
-0.203433 1.353278 -0.585523
-0.200181 1.351312 -0.585583
-0.197115 1.349015 -0.585311
-0.193313 1.348015 -0.586345
-0.190062 1.346035 -0.586397
-0.190058 1.338534 -0.580842
-0.184661 1.340229 -0.584619
-0.181141 1.338719 -0.585147
-0.177915 1.336715 -0.585172
-0.175457 1.333475 -0.583923
-0.172258 1.331443 -0.583916
-0.168811 1.329801 -0.584314
-0.166037 1.327109 -0.583622
-0.162989 1.324852 -0.583379
-0.158566 1.324665 -0.585313
-0.157599 1.319307 -0.581804
-0.154732 1.316814 -0.581304
-0.148300 1.319481 -0.586293
-0.147786 1.313591 -0.582180
-0.143740 1.312768 -0.583470
-0.141064 1.310011 -0.582689
-0.137808 1.308064 -0.582780
-0.134594 1.306059 -0.582808
-0.131376 1.304056 -0.582841
-0.128640 1.301417 -0.582178
-0.125929 1.298757 -0.581489
-0.122995 1.296398 -0.581129
-0.119725 1.294471 -0.581246
-0.116788 1.292122 -0.580895
-0.114557 1.288904 -0.579572
-0.110343 1.288138 -0.580993
-0.107032 1.286246 -0.581159
-0.102448 1.285866 -0.583042
-0.099333 1.283713 -0.582924
-0.096614 1.281098 -0.582282
-0.093332 1.279140 -0.582390
-0.090665 1.276479 -0.581690
-0.087916 1.273919 -0.581105
-0.085237 1.271291 -0.580438
-0.081400 1.269940 -0.581260
-0.078422 1.267637 -0.580977
-0.076281 1.264444 -0.579644
-0.073722 1.261713 -0.578850
-0.070651 1.259526 -0.578700
-0.065090 1.259900 -0.581615
-0.062890 1.256792 -0.580378
-0.060853 1.253538 -0.578958
-0.055488 1.253611 -0.581564
-0.054795 1.249042 -0.578543
-0.066723 1.232292 -0.560580
-0.063422 1.230470 -0.560819
-0.060279 1.228486 -0.560866
-0.056067 1.227494 -0.562152
-0.049268 1.228859 -0.566399
-0.047123 1.225887 -0.565252
-0.047469 1.220680 -0.561281
-0.048087 1.215297 -0.557053
-0.049770 1.209045 -0.551683
-0.046353 1.207323 -0.552066
-0.043285 1.205284 -0.552054
-0.043801 1.200189 -0.548094
-0.044956 1.194620 -0.543485
-0.041817 1.192688 -0.543590
-0.037801 1.191461 -0.544634
-0.042159 1.183421 -0.536691
-0.073091 1.146124 -0.494691
-0.074632 1.140937 -0.490189
-0.073800 1.137629 -0.488200
-0.072440 1.134741 -0.486772
-0.070960 1.131955 -0.485478
-0.067498 1.130636 -0.486210
-0.058387 1.133395 -0.492633
-0.044313 1.139588 -0.503949
-0.039724 1.138846 -0.505653
-0.039369 1.135095 -0.503130
-0.043173 1.128497 -0.496533
-0.044420 1.123743 -0.492512
-0.051108 1.115374 -0.483240
-0.055096 1.108947 -0.476684
-0.053655 1.106187 -0.475417
-0.051483 1.103906 -0.474855
-0.048555 1.102104 -0.475008
-0.046552 1.099696 -0.474277
-0.043589 1.097884 -0.474445
-0.044145 1.093880 -0.471323
-0.044548 1.090006 -0.468371
-0.039063 1.089701 -0.470863
-0.032483 1.089986 -0.474318
-0.031294 1.087039 -0.472818
-0.029336 1.084543 -0.472021
-0.026520 1.082532 -0.471994
-0.025692 1.079385 -0.470181
-0.023285 1.077127 -0.469781
-0.018944 1.075915 -0.471082
-0.014031 1.074972 -0.472858
-0.010017 1.073504 -0.473820
-0.010307 1.069745 -0.471029
-0.007183 1.067784 -0.471204
-0.002854 1.066419 -0.472397
0.004889 1.066736 -0.476475
0.000947 1.061180 -0.470607
0.006107 1.060157 -0.472456
0.009406 1.058196 -0.472720
0.012492 1.056120 -0.472797
0.012557 1.052624 -0.470369
0.009331 1.047645 -0.465261
0.016672 1.047546 -0.468840
0.024969 1.047815 -0.473152
0.026167 1.044886 -0.471679
0.027961 1.042244 -0.470700
0.041111 1.044483 -0.478800
0.043172 1.041930 -0.478007
0.040140 1.037287 -0.473205
0.038141 1.033157 -0.469273
0.041591 1.031304 -0.469645
0.047520 1.030452 -0.471946
0.051587 1.028862 -0.472795
0.056191 1.027495 -0.474058
0.060933 1.026194 -0.475427
0.065922 1.025000 -0.476983
0.072372 1.024360 -0.479645
-0.562436 1.534103 -0.566536
-0.559820 1.542438 -0.574106
-0.556596 1.544936 -0.577500
-0.553170 1.545941 -0.579835
-0.549666 1.546883 -0.582145
-0.546171 1.549104 -0.585409
-0.542583 1.551110 -0.588539
-0.538917 1.553128 -0.591700
-0.535339 1.558454 -0.597325
-0.531490 1.560041 -0.600218
-0.527623 1.562819 -0.604014
-0.523642 1.564434 -0.606968
-0.519676 1.568694 -0.611916
-0.515562 1.570051 -0.614718
-0.511404 1.571817 -0.617843
-0.507252 1.578803 -0.624921
-0.502964 1.580418 -0.627978
-0.498631 1.582705 -0.631560
-0.494252 1.584309 -0.634640
-0.489811 1.587853 -0.639217
-0.485286 1.592846 -0.644928
-0.480754 1.594889 -0.648402
-0.476133 1.598678 -0.653238
-0.471506 1.600971 -0.656942
-0.466808 1.604060 -0.661282
-0.462113 1.606069 -0.664802
-0.457876 1.598646 -0.660970
-0.453732 1.519638 -0.602777
-0.450276 1.509784 -0.596775
-0.446594 1.504385 -0.594252
-0.443024 1.498299 -0.591163
-0.439147 1.496496 -0.591458
-0.435747 1.489742 -0.587795
-0.431802 1.489227 -0.589102
-0.427483 1.492275 -0.593276
-0.423220 1.494453 -0.596770
-0.419196 1.494303 -0.598399
-0.415243 1.493549 -0.599542
-0.411805 1.488807 -0.597442
-0.407989 1.487247 -0.597923
-0.404338 1.484594 -0.597506
-0.400536 1.483139 -0.598067
-0.396792 1.481367 -0.598366
-0.393146 1.479059 -0.598220
-0.388772 1.481288 -0.601834
-0.385884 1.474602 -0.598047
-0.381839 1.474867 -0.600035
-0.378027 1.473785 -0.600906
-0.374583 1.470768 -0.600151
-0.370992 1.468641 -0.600139
-0.367332 1.466924 -0.600472
-0.364256 1.462440 -0.598455
-0.360770 1.460075 -0.598227
-0.357181 1.458255 -0.598460
-0.353459 1.457063 -0.599231
-0.349801 1.455603 -0.599774
-0.346469 1.452788 -0.599149
-0.343086 1.450269 -0.598775
-0.339535 1.448484 -0.599033
-0.337060 1.442537 -0.595666
-0.333673 1.440282 -0.595500
-0.330253 1.438192 -0.595478
-0.327154 1.434975 -0.594462
-0.324796 1.429220 -0.591198
-0.320394 1.430729 -0.594344
-0.316469 1.430501 -0.595966
-0.313564 1.426841 -0.594538
-0.310771 1.422909 -0.592857
-0.307634 1.420172 -0.592235
-0.303994 1.419047 -0.593061
-0.301109 1.415606 -0.591798
-0.296926 1.416116 -0.594108
-0.294466 1.411500 -0.591770
-0.290811 1.410431 -0.592652
-0.287984 1.407008 -0.591385
-0.284543 1.405348 -0.591729
-0.281466 1.402702 -0.591165
-0.278862 1.398831 -0.589463
-0.277124 1.392773 -0.585718
-0.273495 1.391726 -0.586616
-0.270151 1.389938 -0.586828
-0.268774 1.383276 -0.582467
-0.265086 1.382411 -0.583534
-0.260821 1.382896 -0.585885
-0.258429 1.378896 -0.583999
-0.254833 1.377757 -0.584822
-0.251622 1.375718 -0.584792
-0.247559 1.375595 -0.586599
-0.244584 1.373019 -0.586058
-0.241315 1.371104 -0.586152
-0.237261 1.370862 -0.587868
-0.234714 1.367411 -0.586475
-0.231953 1.364447 -0.585549
-0.229962 1.359953 -0.583115
-0.227165 1.357151 -0.582329
-0.222866 1.357336 -0.584486
-0.219891 1.354889 -0.584051
-0.217192 1.351929 -0.583103
-0.213951 1.350020 -0.583198
-0.210531 1.348444 -0.583627
-0.207285 1.346538 -0.583728
-0.205568 1.341875 -0.581048
-0.200132 1.343895 -0.585119
-0.197074 1.341639 -0.584873
-0.193995 1.339427 -0.584669
-0.191810 1.335699 -0.582912
-0.188622 1.333704 -0.582924
-0.184007 1.334068 -0.585374
-0.180085 1.333237 -0.586605
-0.178183 1.329124 -0.584428
-0.174862 1.327320 -0.584650
-0.171294 1.325896 -0.585272
-0.171053 1.319322 -0.580475
-0.167484 1.317935 -0.581127
-0.162538 1.318602 -0.583965
-0.159734 1.316022 -0.583366
-0.156556 1.314003 -0.583362
-0.154393 1.310518 -0.581785
-0.151213 1.308519 -0.581800
-0.147282 1.307574 -0.582958
-0.143395 1.306539 -0.584029
-0.141471 1.302791 -0.582145
-0.137640 1.301662 -0.583121
-0.135091 1.298798 -0.582195
-0.132190 1.296417 -0.581797
-0.128746 1.294750 -0.582191
-0.125748 1.292500 -0.581939
-0.121817 1.291436 -0.583016
-0.119126 1.288792 -0.582326
-0.117118 1.285319 -0.580695
-0.115772 1.281070 -0.578172
-0.110107 1.282080 -0.581622
-0.108758 1.277873 -0.579134
-0.106631 1.274632 -0.577736
-0.102035 1.274286 -0.579671
-0.099669 1.271336 -0.578607
-0.094989 1.271028 -0.580612
-0.091716 1.269098 -0.580741
-0.089645 1.265833 -0.579306
-0.086318 1.263964 -0.579509
-0.082188 1.262955 -0.580736
-0.079658 1.260210 -0.579910
-0.077303 1.257291 -0.578873
-0.073308 1.256094 -0.579901
-0.069574 1.254604 -0.580588
-0.065688 1.253248 -0.581448
-0.062326 1.251344 -0.581652
-0.061533 1.246883 -0.578731
-0.067793 1.235566 -0.567346
-0.070158 1.228231 -0.560782
-0.065646 1.227591 -0.562483
-0.061616 1.226456 -0.563587
-0.056157 1.226625 -0.566346
-0.052567 1.225011 -0.566888
-0.051387 1.221183 -0.564636
-0.050625 1.217011 -0.561928
-0.049332 1.213354 -0.559860
-0.049370 1.208557 -0.556310
-0.046848 1.206038 -0.555679
-0.043738 1.204027 -0.555710
-0.045948 1.197493 -0.549835
-0.044965 1.193732 -0.547552
-0.042322 1.191375 -0.547108
-0.038352 1.190101 -0.548109
-0.038618 1.185373 -0.544516
-0.036082 1.182936 -0.543969
-0.042170 1.173693 -0.534236
-0.070302 1.143401 -0.498343
-0.071760 1.138302 -0.493909
-0.071554 1.134520 -0.491254
-0.065872 1.134836 -0.494275
-0.070617 1.127440 -0.486562
-0.030940 1.148185 -0.521166
-0.028597 1.145722 -0.520534
-0.037775 1.135215 -0.508390
-0.040242 1.129526 -0.503053
-0.043710 1.123233 -0.496788
-0.044491 1.118837 -0.493225
-0.049731 1.111527 -0.485354
-0.054557 1.104606 -0.477971
-0.052151 1.102475 -0.477631
-0.050420 1.099902 -0.476641
-0.049321 1.096929 -0.475052
-0.048824 1.093592 -0.472905
-0.048144 1.090387 -0.470947
-0.045286 1.088519 -0.471036
-0.041742 1.087041 -0.471749
-0.038591 1.085302 -0.472083
-0.034915 1.083845 -0.472882
-0.030905 1.082549 -0.473966
-0.028736 1.080171 -0.473360
-0.028725 1.076579 -0.470809
-0.027408 1.073732 -0.469445
-0.023711 1.072187 -0.470204
-0.020346 1.070434 -0.470651
-0.017946 1.068146 -0.470235
-0.013946 1.066684 -0.471211
-0.011385 1.064450 -0.470916
-0.008519 1.062360 -0.470878
-0.005717 1.060225 -0.470778
-0.001463 1.058795 -0.471907
0.002721 1.057301 -0.472957
0.004717 1.054731 -0.472142
0.004001 1.050886 -0.469058
0.003102 1.046999 -0.465850
0.007962 1.045801 -0.467446
0.016848 1.046392 -0.472333
0.022277 1.045366 -0.474333
0.025293 1.043251 -0.474341
0.031637 1.042579 -0.477044
0.037779 1.041785 -0.479554
0.034338 1.036946 -0.474368
0.033050 1.033090 -0.470958
0.030834 1.028926 -0.466856
0.036529 1.028015 -0.469033
0.043284 1.027512 -0.472023
0.046778 1.025722 -0.472453
0.051843 1.024557 -0.474106
0.058198 1.023886 -0.476748
0.057261 1.020498 -0.473789
0.068721 1.021739 -0.480328
-0.564209 1.538056 -0.574019
-0.561209 1.541869 -0.578371
-0.557834 1.542344 -0.580316
-0.554450 1.543643 -0.582883
-0.551054 1.545867 -0.586150
-0.547590 1.548345 -0.589630
-0.544046 1.550913 -0.593201
-0.540361 1.552462 -0.596040
-0.536756 1.556946 -0.601084
-0.532915 1.558466 -0.603948
-0.529073 1.561528 -0.607986
-0.525111 1.563422 -0.611170
-0.521153 1.567540 -0.616051
-0.517055 1.569363 -0.619225
-0.512902 1.571194 -0.622423
-0.508762 1.578126 -0.629519
-0.504475 1.579805 -0.632647
-0.500143 1.581488 -0.635794
-0.495767 1.583138 -0.638932
-0.491327 1.587191 -0.643936
-0.486812 1.591831 -0.649420
-0.482297 1.593093 -0.652315
-0.477682 1.596939 -0.657232
-0.473033 1.600028 -0.661583
-0.468317 1.603615 -0.666346
-0.463611 1.605760 -0.670001
-0.458828 1.608719 -0.674313
-0.454173 1.608620 -0.676230
-0.447153 1.513606 -0.606424
-0.443180 1.511623 -0.606614
-0.440494 1.494803 -0.594884
-0.436783 1.491302 -0.593804
-0.433215 1.486697 -0.591821
-0.429845 1.480644 -0.588646
-0.426501 1.474970 -0.585753
-0.422098 1.479010 -0.590764
-0.417451 1.484615 -0.597084
-0.413634 1.483119 -0.597607
-0.409791 1.481910 -0.598366
-0.406103 1.479631 -0.598241
-0.402287 1.478374 -0.598959
-0.398587 1.476406 -0.599086
-0.395233 1.472327 -0.597449
-0.391468 1.471022 -0.598119
-0.387637 1.470142 -0.599147
-0.383907 1.468691 -0.599697
-0.380180 1.467270 -0.600273
-0.376523 1.465518 -0.600568
-0.373140 1.462398 -0.599699
-0.369855 1.458926 -0.598522
-0.366811 1.454432 -0.596459
-0.362642 1.455452 -0.599116
-0.359090 1.453524 -0.599247
-0.355480 1.451901 -0.599641
-0.352149 1.449100 -0.599014
-0.348522 1.447636 -0.599543
-0.345143 1.445171 -0.599201
-0.342526 1.439711 -0.596231
-0.339632 1.435545 -0.594376
-0.335976 1.434425 -0.595193
-0.332670 1.431993 -0.594854
-0.329912 1.427626 -0.592793
-0.326478 1.425794 -0.592976
-0.323570 1.422154 -0.591543
-0.320396 1.419520 -0.591001
-0.316972 1.417769 -0.591248
-0.313736 1.415416 -0.590952
-0.309570 1.416064 -0.593372
-0.306381 1.413576 -0.592958
-0.302778 1.412392 -0.593729
-0.299812 1.409287 -0.592747
-0.296508 1.407232 -0.592721
-0.293187 1.405244 -0.592757
-0.289681 1.403793 -0.593289
-0.286545 1.401311 -0.592867
-0.283545 1.398488 -0.592126
-0.282143 1.391445 -0.587438
-0.279021 1.389103 -0.587122
-0.275670 1.387371 -0.587378
-0.272498 1.385187 -0.587209
-0.269666 1.382178 -0.586256
-0.266767 1.379372 -0.585490
-0.263875 1.376588 -0.584741
-0.261336 1.373005 -0.583220
-0.257540 1.372394 -0.584544
-0.254660 1.369659 -0.583829
-0.251470 1.367648 -0.583811
-0.248428 1.365316 -0.583480
-0.246299 1.361022 -0.581235
-0.243068 1.359155 -0.581349
-0.239078 1.358886 -0.583031
-0.235789 1.357116 -0.583247
-0.233303 1.353710 -0.581848
-0.229879 1.352228 -0.582348
-0.226937 1.349785 -0.581895
-0.223547 1.348227 -0.582324
-0.220207 1.346565 -0.582652
-0.216973 1.344695 -0.582773
-0.212973 1.344245 -0.584332
-0.210834 1.340347 -0.582403
-0.207770 1.338173 -0.582216
-0.206389 1.333016 -0.578979
-0.203152 1.331202 -0.579148
-0.199387 1.330296 -0.580255
-0.195008 1.330403 -0.582420
-0.191412 1.329140 -0.583178
-0.188802 1.326225 -0.582222
-0.184939 1.325380 -0.583425
-0.181582 1.323691 -0.583751
-0.177682 1.322853 -0.584979
-0.175468 1.319345 -0.583390
-0.172491 1.317056 -0.583084
-0.170741 1.312906 -0.580791
-0.167373 1.311243 -0.581146
-0.161453 1.313354 -0.585565
-0.159427 1.309659 -0.583749
-0.157067 1.306491 -0.582491
-0.154421 1.303760 -0.581699
-0.150734 1.302509 -0.582521
-0.147843 1.300134 -0.582117
-0.145089 1.297580 -0.581512
-0.142389 1.294965 -0.580837
-0.138653 1.293746 -0.581711
-0.134906 1.292519 -0.582583
-0.131453 1.290889 -0.583013
-0.127898 1.289377 -0.583582
-0.125782 1.286029 -0.582081
-0.123477 1.282946 -0.580870
-0.120979 1.280128 -0.579952
-0.117868 1.278074 -0.579904
-0.114262 1.276615 -0.580542
-0.111191 1.274502 -0.580433
-0.108373 1.272092 -0.579981
-0.105771 1.269437 -0.579242
-0.102658 1.267380 -0.579198
-0.099391 1.265495 -0.579359
-0.095678 1.264100 -0.580105
-0.093582 1.260901 -0.578718
-0.089803 1.259562 -0.579541
-0.085834 1.258406 -0.580593
-0.083291 1.255706 -0.579801
-0.081149 1.252596 -0.578509
-0.076796 1.251803 -0.580024
-0.073282 1.250113 -0.580463
-0.071215 1.246942 -0.579095
-0.065927 1.247017 -0.581717
-0.063624 1.244082 -0.580643
-0.067517 1.235103 -0.572048
-0.068061 1.229519 -0.567617
-0.066089 1.226412 -0.566260
-0.062128 1.225200 -0.567286
-0.057880 1.224229 -0.568633
-0.054947 1.222014 -0.568416
-0.054980 1.217097 -0.564741
-0.053543 1.213562 -0.562814
-0.052309 1.209872 -0.560676
-0.050294 1.206898 -0.559454
-0.046900 1.205132 -0.559807
-0.043389 1.203450 -0.560282
-0.044757 1.197622 -0.555291
-0.046064 1.191924 -0.550429
-0.043549 1.189460 -0.549843
-0.040727 1.187245 -0.549595
-0.036631 1.186050 -0.550732
-0.037936 1.180522 -0.546007
-0.040883 1.173773 -0.539574
-0.040346 1.169834 -0.536937
-0.041459 1.164661 -0.532578
-0.064333 1.143045 -0.505346
-0.065934 1.137833 -0.500722
-0.059056 1.138965 -0.504968
-0.034668 1.152812 -0.527245
-0.029834 1.152136 -0.529155
-0.027245 1.149812 -0.528743
-0.024871 1.147326 -0.528110
-0.023749 1.143965 -0.526215
-0.036798 1.130885 -0.510151
-0.040839 1.124176 -0.503239
-0.045142 1.117392 -0.496145
-0.044532 1.113963 -0.493958
-0.043070 1.111111 -0.492619
-0.055581 1.099255 -0.477731
-0.053347 1.097021 -0.477236
-0.052643 1.093818 -0.475271
-0.051310 1.091021 -0.473920
-0.049338 1.088620 -0.473181
-0.047340 1.086229 -0.472465
-0.045238 1.083897 -0.471846
-0.043441 1.081376 -0.470940
-0.042302 1.078472 -0.469428
-0.035629 1.078744 -0.473006
-0.031879 1.077288 -0.473863
-0.033188 1.072979 -0.470108
-0.030507 1.070910 -0.469988
-0.027682 1.068904 -0.469987
-0.025625 1.066470 -0.469292
-0.023117 1.064269 -0.468995
-0.021139 1.061782 -0.468226
-0.014966 1.061442 -0.471126
-0.010897 1.059978 -0.472154
-0.008488 1.057656 -0.471725
-0.007312 1.054723 -0.470232
-0.003860 1.052906 -0.470694
-0.000072 1.051231 -0.471429
0.001192 1.048351 -0.470017
0.001358 1.044979 -0.467694
0.003496 1.042541 -0.467038
0.014776 1.044218 -0.473976
0.019592 1.042923 -0.475495
0.022221 1.040653 -0.475202
0.028494 1.039959 -0.477884
0.030474 1.037413 -0.477055
0.027197 1.032702 -0.471996
0.020402 1.026638 -0.464175
0.025314 1.025445 -0.465785
0.032218 1.025042 -0.468965
0.040552 1.025175 -0.473247
0.047102 1.024582 -0.476092
0.049899 1.022548 -0.475989
0.053231 1.020748 -0.476316
0.058991 1.019876 -0.478529
0.034817 1.008095 -0.457732
-0.566468 1.547055 -0.585277
-0.562436 1.539397 -0.581256
-0.559098 1.540091 -0.583375
-0.555767 1.541833 -0.586287
-0.552408 1.544308 -0.589766
-0.548998 1.547327 -0.593675
-0.545376 1.548444 -0.596191
-0.541921 1.553630 -0.601773
-0.538178 1.555446 -0.604859
-0.534401 1.558030 -0.608545
-0.530510 1.559762 -0.611610
-0.526569 1.561867 -0.614977
-0.522635 1.566279 -0.620119
-0.518540 1.567912 -0.623170
-0.514428 1.571346 -0.627618
-0.510234 1.574123 -0.631585
-0.505995 1.578670 -0.636938
-0.501678 1.583599 -0.642615
-0.497289 1.583920 -0.644753
-0.492860 1.586013 -0.648277
-0.488346 1.591138 -0.654183
-0.483825 1.592571 -0.657233
-0.479197 1.596983 -0.662634
-0.474585 1.598716 -0.665954
-0.469879 1.602121 -0.670610
-0.465085 1.606360 -0.675950
-0.460349 1.608163 -0.679381
-0.455678 1.608199 -0.681419
-0.451207 1.604742 -0.680668
-0.447687 1.587382 -0.668750
-0.444414 1.511902 -0.611747
-0.441572 1.496428 -0.601005
-0.437974 1.491355 -0.598642
-0.434388 1.486729 -0.596623
-0.431056 1.480080 -0.592932
-0.427760 1.473784 -0.589502
-0.424529 1.467526 -0.586077
-0.420978 1.464520 -0.585311
-0.416198 1.471533 -0.592835
-0.411921 1.474042 -0.596661
-0.408165 1.472485 -0.597117
-0.404228 1.472272 -0.598695
-0.400442 1.471018 -0.599406
-0.397033 1.467384 -0.598116
-0.393189 1.466661 -0.599271
-0.389324 1.466058 -0.600532
-0.385859 1.463150 -0.599839
-0.382307 1.460861 -0.599666
-0.378977 1.457476 -0.598552
-0.375310 1.456009 -0.599073
-0.371799 1.453784 -0.598942
-0.368449 1.450855 -0.598201
-0.365195 1.447581 -0.597152
-0.361851 1.444849 -0.596566
-0.357942 1.444747 -0.598268
-0.354672 1.441805 -0.597493
-0.351256 1.439577 -0.597339
-0.347771 1.437694 -0.597485
-0.344544 1.434807 -0.596743
-0.341511 1.431238 -0.595391
-0.338046 1.429440 -0.595603
-0.334565 1.427727 -0.595891
-0.331754 1.423586 -0.594005
-0.328461 1.421292 -0.593765
-0.325060 1.419419 -0.593903
-0.322074 1.416149 -0.592776
-0.319071 1.413018 -0.591766
-0.315948 1.410352 -0.591172
-0.312686 1.408181 -0.591027
-0.309934 1.404442 -0.589441
-0.305312 1.406526 -0.593201
-0.302327 1.403548 -0.592314
-0.299149 1.401194 -0.591997
-0.296318 1.397870 -0.590777
-0.292909 1.396246 -0.591133
-0.289198 1.395461 -0.592277
-0.286891 1.390820 -0.589807
-0.284212 1.387283 -0.588361
-0.280962 1.385311 -0.588383
-0.277870 1.382945 -0.588032
-0.274660 1.380899 -0.587983
-0.271354 1.379105 -0.588174
-0.268420 1.376403 -0.587497
-0.266024 1.372441 -0.585601
-0.263299 1.369332 -0.584516
-0.260193 1.367149 -0.584321
-0.257262 1.364583 -0.583752
-0.254788 1.361018 -0.582204
-0.252091 1.358000 -0.581181
-0.248895 1.356105 -0.581255
-0.245440 1.354766 -0.581878
-0.243262 1.350725 -0.579830
-0.239880 1.349246 -0.580315
-0.236912 1.346913 -0.579950
-0.232873 1.346742 -0.581749
-0.229287 1.345623 -0.582609
-0.226092 1.343722 -0.582686
-0.222750 1.342101 -0.583049
-0.219201 1.340862 -0.583802
-0.216491 1.338046 -0.582953
-0.214239 1.334417 -0.581265
-0.211110 1.332420 -0.581243
-0.208568 1.329380 -0.580145
-0.205764 1.326832 -0.579548
-0.201913 1.326110 -0.580847
