ply
format ascii 1.0
comment ---
element vertex 1760
property float x
property float y
property float z
element face 0
property list uchar uint vertex_indices
end_header
0.494819 1.602466 0.138435
0.500041 1.592707 0.138565
0.504011 1.579766 0.138606
0.507910 1.566913 0.138646
0.513955 1.559957 0.138850
0.517950 1.547813 0.138906
0.521606 1.535053 0.138942
0.527175 1.527365 0.139122
0.532367 1.518865 0.139278
0.536477 1.507862 0.139360
0.537657 1.489988 0.139233
0.543215 1.482937 0.139427
0.550157 1.479250 0.139723
0.555170 1.471094 0.139883
0.557187 1.456195 0.139834
0.562266 1.448527 0.140005
0.564333 1.434234 0.139968
0.569136 1.426265 0.140127
0.573531 1.417525 0.140261
0.577597 1.408211 0.140374
0.581956 1.399674 0.140511
0.586684 1.392042 0.140677
0.588785 1.379050 0.140664
0.592825 1.370279 0.140789
0.598319 1.364596 0.141017
0.603681 1.358706 0.141237
0.607711 1.350235 0.141370
0.610910 1.340254 0.141449
0.616034 1.334164 0.141662
0.621015 1.327866 0.141868
0.622633 1.315257 0.141850
0.626208 1.306529 0.141967
0.631610 1.301313 0.142210
0.636253 1.294749 0.142405
0.640684 1.287871 0.142589
0.644729 1.280380 0.142750
0.649841 1.274874 0.142985
0.654492 1.268607 0.143192
0.658916 1.262009 0.143387
0.661809 1.252846 0.143484
0.666057 1.246111 0.143674
0.670934 1.240507 0.143909
0.675627 1.234641 0.144134
0.679841 1.228036 0.144332
0.683692 1.220904 0.144509
0.687844 1.214334 0.144709
0.691750 1.207432 0.144897
0.696096 1.201296 0.145117
0.699714 1.194072 0.145293
0.704184 1.188241 0.145528
0.707631 1.180884 0.145701
0.710983 1.173457 0.145871
0.715157 1.167340 0.146099
0.720368 1.162817 0.146397
0.724184 1.156250 0.146609
0.727135 1.148474 0.146769
0.730345 1.141150 0.146950
0.734457 1.135183 0.147194
0.738288 1.128860 0.147424
0.741173 1.121253 0.147597
0.745443 1.115641 0.147864
0.749290 1.109478 0.148108
0.754762 1.105570 0.148462
0.759391 1.100520 0.148766
0.761445 1.092039 0.148908
0.762387 1.082166 0.148982
0.768683 1.079428 0.149409
0.773556 1.074809 0.149747
0.776749 1.068030 0.149983
0.779027 1.060129 0.150164
0.782635 1.053972 0.150436
0.786448 1.048103 0.150726
0.788280 1.039802 0.150893
0.792188 1.034119 0.151201
0.796223 1.028610 0.151521
0.800010 1.022816 0.151832
0.803732 1.016963 0.152143
0.808079 1.011869 0.152501
0.811325 1.005489 0.152792
0.813359 0.997730 0.153009
0.816718 0.991545 0.153319
0.821689 0.987218 0.153740
0.825154 0.981179 0.154067
0.827725 0.974158 0.154341
0.829690 0.966500 0.154581
0.833344 0.960743 0.154937
0.837653 0.955707 0.155342
0.840499 0.949093 0.155655
0.843737 0.942924 0.156000
0.849086 0.939000 0.156490
0.852239 0.932755 0.156839
0.855539 0.926680 0.157202
0.858210 0.919975 0.157527
0.861269 0.913692 0.157883
0.863331 0.906425 0.158175
0.866711 0.900513 0.158559
0.869941 0.894468 0.158937
0.874259 0.889505 0.159391
0.878020 0.884004 0.159810
0.882484 0.879188 0.160279
0.886557 0.874000 0.160723
0.891030 0.869199 0.161195
0.889972 0.859244 0.161287
0.892909 0.853086 0.161653
0.897923 0.848867 0.162160
0.901739 0.843566 0.162582
0.905471 0.838219 0.162995
0.907615 0.831494 0.163294
0.912968 0.827663 0.163811
0.917874 0.823458 0.164290
0.920724 0.817504 0.164618
0.923963 0.811951 0.164965
0.926614 0.805966 0.165260
0.932393 0.802692 0.165764
0.931632 0.794008 0.165796
0.933154 0.787352 0.165975
0.939575 0.784816 0.166484
0.944361 0.781000 0.166863
0.946657 0.775260 0.167049
0.949898 0.770388 0.167284
0.953206 0.765675 0.167506
0.956218 0.760840 0.167687
0.955307 0.753079 0.167572
0.971215 0.758430 0.168622
-0.330092 1.820913 0.114626
-0.322449 1.820362 0.114942
-0.314351 1.816786 0.115196
-0.306977 1.821093 0.115519
-0.298434 1.815315 0.115696
-0.289964 1.811006 0.115865
-0.282907 1.822940 0.116213
-0.274148 1.817751 0.116326
-0.266451 1.826030 0.116587
-0.258671 1.835370 0.116843
-0.250193 1.837547 0.116991
-0.241894 1.843705 0.117172
-0.232967 1.842137 0.117239
-0.224337 1.846336 0.117366
-0.215921 1.856114 0.117553
-0.207122 1.861142 0.117668
-0.198234 1.866197 0.117774
-0.189220 1.870262 0.117858
-0.180193 1.875876 0.117956
-0.171050 1.880364 0.118034
-0.161950 1.888790 0.118159
-0.152742 1.896742 0.118275
-0.143358 1.899598 0.118323
-0.133957 1.903987 0.118390
-0.124522 1.910016 0.118479
-0.115025 1.915171 0.118558
-0.105482 1.918730 0.118618
-0.095897 1.923845 0.118702
-0.086248 1.930758 0.118812
-0.076588 1.934656 0.118888
-0.066891 1.938903 0.118972
-0.057043 1.947737 0.119123
-0.047106 1.957062 0.119286
-0.037249 1.961910 0.119397
-0.027341 1.967115 0.119519
-0.017509 1.969767 0.119614
-0.007493 1.975831 0.119763
0.002547 1.981487 0.119913
0.012538 1.985564 0.120050
0.022588 1.990109 0.120201
0.032877 1.997658 0.120402
0.042937 2.001221 0.120557
0.052975 2.004186 0.120712
0.063107 2.008029 0.120888
0.073247 2.011624 0.121068
0.083588 2.017103 0.121284
0.093904 2.021836 0.121498
0.104278 2.026728 0.121723
0.114500 2.029796 0.121931
0.124620 2.031703 0.122132
0.134876 2.034632 0.122356
0.145213 2.038011 0.122594
0.155389 2.039840 0.122819
0.165603 2.041811 0.123054
0.175480 2.041119 0.123259
0.185689 2.042821 0.123506
0.195493 2.041568 0.123718
0.204474 2.034821 0.123856
0.213706 2.030074 0.124030
0.222989 2.025883 0.124218
0.231902 2.019608 0.124380
0.240608 2.012393 0.124534
0.249009 2.003741 0.124671
0.258164 1.999743 0.124885
0.264997 1.983115 0.124906
0.273517 1.976297 0.125084
0.282447 1.971885 0.125306
0.290790 1.964615 0.125487
0.298674 1.955327 0.125639
0.306280 1.945036 0.125778
0.313106 1.931431 0.125865
0.321136 1.923932 0.126055
0.328709 1.914598 0.126218
0.335324 1.901319 0.126317
0.342960 1.892948 0.126501
0.350726 1.885386 0.126702
0.358365 1.877511 0.126900
0.365472 1.867679 0.127066
0.372372 1.857309 0.127224
0.378549 1.844407 0.127337
0.384590 1.831370 0.127448
0.391848 1.823331 0.127652
0.398053 1.811584 0.127788
0.405074 1.803140 0.127987
0.412163 1.795148 0.128195
0.417789 1.782192 0.128310
0.422316 1.765787 0.128356
0.428672 1.756067 0.128532
0.433499 1.741465 0.128611
0.438545 1.727978 0.128711
0.443376 1.714142 0.128802
0.449537 1.704892 0.128985
0.454187 1.691115 0.129075
0.459131 1.678589 0.129188
0.466000 1.672201 0.129430
0.470489 1.658807 0.129523
0.475735 1.647957 0.129669
0.480225 1.635157 0.129772
0.484972 1.623380 0.129894
0.490800 1.614902 0.130089
0.496615 1.606545 0.130285
0.498507 1.587624 0.130242
0.502849 1.575755 0.130354
0.508113 1.566581 0.130528
0.513293 1.557360 0.130699
0.517257 1.545167 0.130798
0.523313 1.538554 0.131029
0.524659 1.520200 0.130976
0.530201 1.512661 0.131181
0.535180 1.503861 0.131355
0.539852 1.494473 0.131513
0.543282 1.482287 0.131599
0.549113 1.475987 0.131832
0.553969 1.467504 0.132008
0.557933 1.457111 0.132135
0.562649 1.448606 0.132308
0.566927 1.439256 0.132458
0.569180 1.425589 0.132492
0.573242 1.416126 0.132634
0.577672 1.407611 0.132801
0.582531 1.400141 0.132995
0.585922 1.389685 0.133106
0.589395 1.379576 0.133225
0.593207 1.370326 0.133365
0.598810 1.364858 0.133612
0.603885 1.358384 0.133830
0.608064 1.350210 0.133999
0.610853 1.339424 0.134090
0.615633 1.332672 0.134299
0.620072 1.325348 0.134490
0.624591 1.318268 0.134688
0.627115 1.307533 0.134774
0.631504 1.300425 0.134970
0.636756 1.294982 0.135217
0.641030 1.287816 0.135411
0.645658 1.281369 0.135628
0.650071 1.274611 0.135835
0.654971 1.268781 0.136073
0.659539 1.262429 0.136294
0.663138 1.254474 0.136463
0.666925 1.246938 0.136645
0.671655 1.241074 0.136884
0.675938 1.234518 0.137100
0.679991 1.227648 0.137306
0.683872 1.220569 0.137505
0.687996 1.213955 0.137722
0.692578 1.208139 0.137967
0.696210 1.200865 0.138161
0.700576 1.194816 0.138401
0.703504 1.186586 0.138562
0.707068 1.179427 0.138763
0.710116 1.171553 0.138938
0.715323 1.167009 0.139238
0.720193 1.161980 0.139523
0.724601 1.156296 0.139786
0.726351 1.146767 0.139902
0.730265 1.140478 0.140144
0.735194 1.135690 0.140447
0.739282 1.129726 0.140707
0.743435 1.123892 0.140975
0.745118 1.114660 0.141106
0.749584 1.109361 0.141399
0.754076 1.104119 0.141699
0.756859 1.096590 0.141905
0.761278 1.091314 0.142209
0.763865 1.083630 0.142413
0.769056 1.079429 0.142770
0.773913 1.074792 0.143113
0.776119 1.066744 0.143308
0.779464 1.060220 0.143574
0.782143 1.052892 0.143806
0.785703 1.046719 0.144094
0.789725 1.041149 0.144413
0.793964 1.035863 0.144749
0.796590 1.028627 0.144998
0.799270 1.021502 0.145254
0.803484 1.016253 0.145605
0.808111 1.011499 0.145985
0.812133 1.006035 0.146335
0.814081 0.998174 0.146570
0.818106 0.992754 0.146931
0.821813 0.986979 0.147278
0.825253 0.980918 0.147616
0.827660 0.973719 0.147897
0.829740 0.966198 0.148164
0.832763 0.959754 0.148492
0.837755 0.955473 0.148942
0.843090 0.951542 0.149418
0.846157 0.945170 0.149764
0.847151 0.936630 0.149991
0.851928 0.932108 0.150449
0.855696 0.926527 0.150851
0.858037 0.919486 0.151171
0.860849 0.912958 0.151523
0.862699 0.905487 0.151821
0.866151 0.899656 0.152219
0.871542 0.895753 0.152740
0.874134 0.889090 0.153092
0.877990 0.883682 0.153524
0.881426 0.877880 0.153932
0.886088 0.873263 0.154418
0.889814 0.867763 0.154847
0.889023 0.858066 0.154993
0.895964 0.855613 0.155622
0.898526 0.849120 0.155976
0.902620 0.844061 0.156424
0.905752 0.838162 0.156808
0.908197 0.831696 0.157144
0.913992 0.828239 0.157688
0.917720 0.822988 0.158095
0.920700 0.817137 0.158446
0.924307 0.811888 0.158830
0.928978 0.807600 0.159272
0.930311 0.800555 0.159489
0.931949 0.793870 0.159713
0.934976 0.788436 0.160013
0.938702 0.783663 0.160345
0.945719 0.781641 0.160874
0.948455 0.776224 0.161110
0.950796 0.770601 0.161303
0.955652 0.767081 0.161641
0.953904 0.758484 0.161532
0.955891 0.752963 0.161645
0.964999 0.753052 0.162200
-0.328092 1.802742 0.106123
-0.321022 1.806905 0.106454
-0.314363 1.816369 0.106801
-0.307169 1.822670 0.107103
-0.299489 1.825879 0.107358
-0.290616 1.818154 0.107505
-0.282873 1.823241 0.107730
-0.274899 1.827395 0.107928
-0.266722 1.830717 0.108099
-0.258391 1.833607 0.108248
-0.250219 1.840145 0.108410
-0.241662 1.843079 0.108526
-0.232935 1.844880 0.108618
-0.224198 1.847830 0.108707
-0.215762 1.857719 0.108842
-0.206973 1.863400 0.108932
-0.198035 1.867940 0.109003
-0.189173 1.876248 0.109098
-0.179873 1.875484 0.109111
-0.170788 1.882073 0.109181
-0.161638 1.889337 0.109253
-0.152305 1.892071 0.109284
-0.143027 1.900262 0.109359
-0.133607 1.903869 0.109396
-0.124187 1.912385 0.109475
-0.114672 1.916858 0.109521
-0.105116 1.920751 0.109564
-0.095500 1.928672 0.109645
-0.085858 1.932767 0.109697
-0.076193 1.936305 0.109748
-0.066479 1.940952 0.109814
-0.056652 1.948550 0.109911
-0.046722 1.957493 0.110025
-0.036893 1.961506 0.110103
-0.026943 1.967803 0.110207
-0.017047 1.971852 0.110299
-0.007262 1.973100 0.110373
0.002863 1.980553 0.110510
0.012932 1.986044 0.110636
0.022981 1.990579 0.110763
0.033185 1.996873 0.110913
0.043401 2.002632 0.111066
0.053447 2.005639 0.111203
0.063402 2.007299 0.111336
0.073480 2.010245 0.111489
0.083924 2.016926 0.111685
0.094402 2.023347 0.111887
0.104542 2.025901 0.112061
0.114772 2.029093 0.112250
0.124995 2.031969 0.112444
0.135335 2.035638 0.112654
0.145523 2.037752 0.112858
0.155718 2.039755 0.113068
0.165576 2.039006 0.113260
0.175817 2.041125 0.113487
0.186119 2.043503 0.113725
0.196000 2.042776 0.113940
0.205301 2.038154 0.114121
0.214270 2.031607 0.114290
0.223457 2.026778 0.114481
0.232545 2.021563 0.114675
0.240940 2.012448 0.114832
0.249834 2.006662 0.115030
0.257840 1.996112 0.115181
0.265961 1.986667 0.115348
0.274271 1.978645 0.115535
0.282814 1.972156 0.115743
0.291154 1.964870 0.115947
0.298950 1.955144 0.116126
0.306776 1.945935 0.116314
0.313100 1.929933 0.116425
0.321037 1.922040 0.116634
0.329335 1.916037 0.116870
0.336387 1.904672 0.117042
0.343011 1.891836 0.117198
0.351209 1.886136 0.117446
0.358798 1.878034 0.117666
0.366423 1.870310 0.117894
0.372009 1.854625 0.118018
0.378920 1.844656 0.118219
0.385993 1.835596 0.118433
0.392295 1.823861 0.118612
0.397810 1.809539 0.118755
0.405596 1.803923 0.119020
0.410186 1.786962 0.119125
0.417820 1.781213 0.119391
0.422886 1.766688 0.119530
0.428968 1.756020 0.119725
0.435331 1.746552 0.119938
0.441018 1.735083 0.120120
0.444348 1.716279 0.120189
0.449142 1.702643 0.120335
0.456182 1.696379 0.120595
0.461764 1.685731 0.120787
0.465579 1.669966 0.120895
0.471538 1.660994 0.121111
0.476870 1.650361 0.121300
0.482665 1.641299 0.121514
0.486055 1.625557 0.121613
0.492054 1.617521 0.121843
0.498072 1.609686 0.122075
0.498196 1.585890 0.122025
0.503764 1.577341 0.122241
0.508075 1.565612 0.122398
0.512566 1.554594 0.122567
0.518242 1.546859 0.122794
0.522188 1.534842 0.122941
0.523733 1.517038 0.122974
0.529418 1.509890 0.123209
0.535097 1.502833 0.123445
0.540954 1.496313 0.123692
0.544053 1.483315 0.123808
0.548099 1.472797 0.123971
0.553011 1.464479 0.124178
0.558145 1.456804 0.124398
0.562318 1.447069 0.124573
0.567597 1.439973 0.124802
0.570958 1.428740 0.124942
0.573078 1.414998 0.125025
0.577914 1.407369 0.125239
0.582152 1.398575 0.125426
0.585837 1.388754 0.125589
0.590614 1.381363 0.125805
0.595317 1.373919 0.126020
0.599384 1.365286 0.126206
0.604195 1.358274 0.126429
0.607759 1.348879 0.126595
0.611292 1.339565 0.126761
0.615526 1.331748 0.126962
0.620609 1.325666 0.127206
0.624839 1.318031 0.127411
0.630073 1.312377 0.127665
0.632802 1.302135 0.127803
0.637312 1.295312 0.128027
0.642751 1.290251 0.128297
0.646627 1.282426 0.128496
0.650735 1.275111 0.128707
0.654872 1.267935 0.128922
0.659585 1.261840 0.129167
0.664257 1.255736 0.129412
0.667886 1.247914 0.129609
0.671422 1.240031 0.129805
0.675796 1.233636 0.130043
0.679118 1.225570 0.130234
0.683617 1.219519 0.130483
0.688165 1.213599 0.130737
0.692042 1.206658 0.130962
0.696695 1.201014 0.131227
0.700653 1.194324 0.131461
0.704557 1.187613 0.131696
0.706870 1.178523 0.131857
0.712521 1.174612 0.132182
0.715937 1.167343 0.132402
0.720422 1.161738 0.132677
0.724372 1.155381 0.132930
0.726914 1.147019 0.133117
0.730385 1.140088 0.133354
0.734706 1.134434 0.133634
0.739554 1.129560 0.133945
0.743483 1.123415 0.134214
0.746825 1.116495 0.134458
0.749622 1.108881 0.134680
0.753150 1.102332 0.134940
0.757068 1.096355 0.135225
0.761577 1.091203 0.135542
0.765192 1.084884 0.135819
0.768869 1.078686 0.136104
0.772784 1.072832 0.136405
0.775658 1.065668 0.136658
0.778179 1.058106 0.136898
0.782236 1.052540 0.137219
0.786029 1.046665 0.137532
0.789668 1.040623 0.137842
0.793375 1.034691 0.138159
0.797150 1.028867 0.138485
0.799259 1.021055 0.138731
0.804083 1.016541 0.139120
0.808590 1.011645 0.139499
0.810916 1.004196 0.139770
0.815270 0.999148 0.140151
0.819358 0.993794 0.140523
0.822421 0.987280 0.140847
0.824695 0.979903 0.141135
0.827296 0.972935 0.141445
0.830464 0.966629 0.141789
0.834008 0.960755 0.142158
0.838224 0.955623 0.142567
0.843559 0.951694 0.143041
0.846661 0.945361 0.143402
0.849331 0.938591 0.143744
0.853490 0.933406 0.144170
0.854747 0.925214 0.144445
0.858984 0.920133 0.144884
0.863535 0.915367 0.145345
0.866405 0.908901 0.145718
0.868354 0.901541 0.146045
0.871607 0.895508 0.146445
0.875303 0.889926 0.146872
0.878423 0.883797 0.147270
0.882089 0.878214 0.147701
0.885554 0.872452 0.148121
0.888348 0.866079 0.148505
0.891122 0.859719 0.148888
0.894326 0.853794 0.149294
0.900150 0.850295 0.149848
0.902847 0.843952 0.150222
0.906628 0.838628 0.150655
0.910316 0.833254 0.151080
0.915076 0.828860 0.151561
0.918849 0.823629 0.151980
0.921840 0.817769 0.152346
0.926062 0.813025 0.152776
0.929084 0.807312 0.153127
0.932110 0.801674 0.153468
0.939693 0.799908 0.154064
0.942963 0.794600 0.154396
0.945008 0.788375 0.154641
0.945463 0.780973 0.154777
0.947115 0.774668 0.154967
0.951639 0.770770 0.155310
0.950665 0.762626 0.155309
0.955830 0.759446 0.155654
0.957195 0.753409 0.155754
0.962145 0.750267 0.156046
-0.329396 1.812928 0.097851
-0.320641 1.802778 0.098104
-0.312650 1.800099 0.098354
-0.304994 1.801620 0.098593
-0.299178 1.822832 0.098875
-0.290995 1.822461 0.099066
-0.282809 1.823212 0.099239
-0.275111 1.830840 0.099416
-0.266922 1.834505 0.099561
-0.258395 1.835421 0.099678
-0.249936 1.838489 0.099787
-0.241721 1.846588 0.099899
-0.233061 1.849982 0.099980
-0.224343 1.853949 0.100050
-0.215530 1.857836 0.100110
-0.206729 1.863636 0.100167
-0.197909 1.871093 0.100222
-0.188948 1.877659 0.100267
-0.179781 1.881055 0.100294
-0.170655 1.887546 0.100328
-0.161327 1.889454 0.100341
-0.151993 1.892527 0.100357
-0.142706 1.900717 0.100392
-0.133307 1.906669 0.100417
-0.123842 1.911881 0.100441
-0.114327 1.916875 0.100465
-0.104768 1.921392 0.100490
-0.095159 1.927305 0.100523
-0.085488 1.934227 0.100565
-0.075831 1.936816 0.100593
-0.066084 1.942830 0.100640
-0.056252 1.950263 0.100698
-0.046421 1.955701 0.100754
-0.036580 1.960303 0.100812
-0.026705 1.964914 0.100878
-0.016750 1.970563 0.100954
-0.006869 1.973893 0.101028
0.003302 1.982135 0.101129
0.013390 1.987844 0.101227
0.023462 1.992619 0.101330
0.033621 1.998143 0.101443
0.043810 2.003483 0.101563
0.053745 2.005042 0.101675
0.063710 2.006865 0.101796
0.073723 2.009132 0.101927
0.084438 2.018798 0.102099
0.094584 2.021740 0.102250
0.104849 2.025605 0.102412
0.115019 2.028262 0.102577
0.125582 2.034249 0.102766
0.135723 2.036112 0.102944
0.145896 2.038101 0.103129
0.155932 2.038835 0.103316
0.166167 2.041025 0.103518
0.176279 2.042130 0.103722
0.186416 2.043304 0.103934
0.196144 2.041531 0.104138
0.205425 2.036828 0.104331
0.214357 2.030093 0.104519
0.223641 2.025930 0.104727
0.232599 2.019954 0.104930
0.241436 2.013527 0.105136
0.250229 2.007138 0.105347
0.258975 2.000750 0.105563
0.267083 1.991124 0.105763
0.275037 1.981092 0.105964
0.283202 1.972576 0.106178
0.291071 1.962889 0.106388
0.299026 1.954004 0.106607
0.307243 1.946719 0.106841
0.314752 1.936324 0.107055
0.321527 1.922904 0.107250
0.329364 1.914793 0.107486
0.337907 1.910075 0.107751
0.344927 1.898847 0.107968
0.351936 1.887943 0.108190
0.359829 1.881069 0.108446
0.366948 1.871215 0.108680
0.374213 1.862239 0.108923
0.380888 1.851198 0.109150
0.386792 1.837506 0.109355
0.393072 1.825651 0.109575
0.398965 1.812700 0.109786
0.406334 1.805501 0.110051
0.410652 1.787541 0.110214
0.418343 1.781977 0.110496
0.425847 1.775864 0.110774
0.430604 1.760532 0.110961
0.434692 1.743388 0.111128
0.442222 1.738023 0.111415
0.446745 1.723023 0.111601
0.452204 1.711392 0.111822
0.455891 1.694494 0.111984
0.461931 1.685281 0.112228
0.467117 1.673676 0.112446
0.472404 1.662636 0.112668
0.478493 1.654199 0.112921
0.483753 1.643527 0.113146
0.487915 1.629949 0.113335
0.491490 1.615033 0.113504
0.497911 1.608343 0.113775
0.501130 1.593018 0.113935
0.504640 1.578826 0.114106
0.509331 1.568079 0.114320
0.512911 1.554640 0.114496
0.517575 1.544284 0.114712
0.523262 1.536734 0.114965
0.525081 1.519589 0.115082
0.529751 1.509886 0.115301
0.535791 1.503709 0.115570
0.540711 1.494910 0.115800
0.545288 1.485444 0.116020
0.548461 1.472843 0.116189
0.553017 1.463695 0.116410
0.557923 1.455501 0.116644
0.563559 1.449089 0.116906
0.567013 1.437884 0.117090
0.569929 1.425693 0.117255
0.573463 1.415070 0.117444
0.578142 1.407095 0.117675
0.583444 1.400566 0.117931
0.585318 1.386911 0.118062
0.591086 1.381594 0.118336
0.596644 1.375899 0.118605
0.600278 1.366362 0.118804
0.604104 1.357356 0.119010
0.608491 1.349599 0.119239
0.611761 1.339760 0.119428
0.615962 1.331875 0.119653
0.620874 1.325458 0.119905
0.626162 1.319828 0.120173
0.629357 1.310330 0.120364
0.633928 1.303521 0.120608
0.638799 1.297341 0.120866
0.642726 1.289514 0.121089
0.647889 1.284002 0.121360
0.651514 1.275813 0.121575
0.654433 1.266490 0.121765
0.659414 1.260874 0.122035
0.664770 1.255950 0.122321
0.668441 1.248196 0.122545
0.671872 1.240132 0.122762
0.674517 1.230859 0.122950
0.678904 1.224574 0.123207
0.683808 1.219191 0.123487
0.688060 1.212796 0.123744
0.691989 1.205945 0.123990
0.696115 1.199473 0.124247
0.700889 1.194075 0.124531
0.704306 1.186612 0.124765
0.709556 1.182035 0.125074
0.713517 1.175521 0.125335
0.717613 1.169267 0.125603
0.720223 1.160852 0.125815
0.724225 1.154580 0.126086
0.728353 1.148541 0.126365
0.731518 1.141155 0.126608
0.734006 1.132868 0.126826
0.738888 1.128058 0.127145
0.744017 1.123611 0.127478
0.748227 1.117897 0.127777
0.751379 1.110759 0.128036
0.754292 1.103356 0.128288
0.758500 1.097761 0.128597
0.760869 1.089736 0.128834
0.763662 1.082345 0.129092
0.768047 1.077102 0.129420
0.771803 1.071059 0.129726
0.775330 1.064753 0.130027
0.779305 1.059054 0.130350
0.782779 1.052746 0.130657
0.786635 1.046950 0.130984
0.788859 1.039156 0.131245
0.792989 1.033759 0.131593
0.797115 1.028372 0.131945
0.801197 1.022944 0.132300
0.805371 1.017638 0.132664
0.808381 1.010967 0.132982
0.811904 1.004928 0.133326
0.815071 0.998499 0.133660
0.819025 0.993000 0.134033
0.822979 0.987510 0.134412
0.824281 0.979040 0.134676
0.827166 0.972400 0.135015
0.831173 0.967029 0.135410
0.834716 0.961153 0.135789
0.838942 0.956032 0.136205
0.843176 0.950917 0.136625
0.846808 0.945157 0.137023
0.849811 0.938743 0.137396
0.852366 0.931882 0.137752
0.856674 0.926866 0.138195
0.860700 0.921555 0.138629
0.864243 0.915752 0.139044
0.865399 0.907559 0.139348
0.868999 0.901858 0.139773
0.872397 0.895965 0.140191
0.874919 0.889231 0.140569
0.878641 0.883690 0.141007
0.883669 0.879412 0.141513
0.886542 0.873075 0.141913
0.889402 0.866754 0.142314
0.891057 0.859342 0.142654
0.895388 0.854456 0.143128
0.901091 0.850834 0.143671
0.903977 0.844651 0.144069
0.907008 0.838639 0.144473
0.911660 0.834112 0.144955
0.915462 0.828856 0.145390
0.918400 0.822886 0.145774
0.923311 0.818678 0.146254
0.925890 0.812505 0.146605
0.928299 0.806262 0.146938
0.931641 0.800883 0.147310
0.934228 0.794948 0.147631
0.937242 0.789454 0.147961
0.940688 0.784401 0.148301
0.943403 0.778843 0.148588
0.943782 0.771513 0.148734
0.947737 0.767166 0.149054
0.955190 0.765670 0.149544
0.948081 0.752850 0.149236
0.955879 0.751826 0.149707
0.959662 0.747773 0.149944
-0.331325 1.828487 0.089472
-0.322343 1.817159 0.089756
-0.312893 1.801870 0.090019
-0.305631 1.807507 0.090230
-0.298612 1.817234 0.090416
-0.290683 1.819555 0.090590
-0.282611 1.821708 0.090744
-0.275466 1.835893 0.090868
-0.266810 1.834487 0.090989
-0.258384 1.836989 0.091089
-0.250123 1.843145 0.091171
-0.241245 1.842244 0.091244
-0.233256 1.856067 0.091293
-0.224215 1.855391 0.091341
-0.215346 1.858689 0.091376
-0.206315 1.860285 0.091402
-0.197505 1.867916 0.091417
-0.188634 1.876632 0.091425
-0.179560 1.882793 0.091430
-0.170347 1.887054 0.091431
-0.161063 1.890851 0.091430
-0.151780 1.896945 0.091426
-0.142372 1.899633 0.091423
-0.132986 1.906736 0.091417
-0.123517 1.912061 0.091413
-0.113995 1.916206 0.091412
-0.104438 1.919737 0.091414
-0.094823 1.927343 0.091416
-0.085172 1.932413 0.091424
-0.075486 1.937119 0.091436
-0.065746 1.942688 0.091453
-0.055971 1.947980 0.091475
-0.046089 1.955392 0.091502
-0.036280 1.959126 0.091536
-0.026252 1.967668 0.091575
-0.016395 1.970887 0.091623
-0.006423 1.976013 0.091677
0.003808 1.985173 0.091736
0.013799 1.989034 0.091805
0.023735 1.991626 0.091882
0.034023 1.999096 0.091964
0.044029 2.001919 0.092056
0.053985 2.003858 0.092156
0.064041 2.006875 0.092262
0.074289 2.011827 0.092377
0.084577 2.016763 0.092499
0.094979 2.022443 0.092630
0.105175 2.025607 0.092768
0.115741 2.031997 0.092914
0.125794 2.033251 0.093068
0.135996 2.035697 0.093229
0.146199 2.037959 0.093398
0.156309 2.039297 0.093574
0.166507 2.041197 0.093758
0.176893 2.044334 0.093950
0.186701 2.043083 0.094146
0.195971 2.038159 0.094345
0.205195 2.033190 0.094551
0.214636 2.029889 0.094764
0.223683 2.024246 0.094980
0.232530 2.017648 0.095200
0.241423 2.011628 0.095426
0.250399 2.006350 0.095657
0.259128 1.999897 0.095892
0.267630 1.992461 0.096130
0.275184 1.980260 0.096363
0.282782 1.968819 0.096600
0.290687 1.959414 0.096844
0.299005 1.952417 0.097097
0.307472 1.946380 0.097356
0.315434 1.938141 0.097612
0.322015 1.923785 0.097856
0.329951 1.916104 0.098119
0.338113 1.909666 0.098389
0.346107 1.902674 0.098660
0.353249 1.892257 0.098923
0.359925 1.880227 0.099182
0.367095 1.870599 0.099451
0.374203 1.861003 0.099721
0.382138 1.854927 0.100006
0.386334 1.834590 0.100236
0.392402 1.821990 0.100496
0.399967 1.815303 0.100782
0.405445 1.801163 0.101037
0.411473 1.789401 0.101301
0.418517 1.781525 0.101585
0.426285 1.776324 0.101882
0.428681 1.752967 0.102088
0.434431 1.741498 0.102352
0.441464 1.734524 0.102642
0.448125 1.726485 0.102926
0.453273 1.713807 0.103183
0.457422 1.698314 0.103421
0.461906 1.684247 0.103667
0.466942 1.672199 0.103923
0.470535 1.656126 0.104151
0.476606 1.647730 0.104429
0.483628 1.642245 0.104727
0.488666 1.631182 0.104986
0.490099 1.610228 0.105169
0.496807 1.604396 0.105464
0.500066 1.589233 0.105685
0.504536 1.577673 0.105932
0.508517 1.565056 0.106168
0.513511 1.555355 0.106427
0.519094 1.547353 0.106700
0.522933 1.535052 0.106934
0.527431 1.524654 0.107183
0.530927 1.511972 0.107408
0.535982 1.503354 0.107670
0.540187 1.492830 0.107913
0.543972 1.481501 0.108145
0.550131 1.475964 0.108435
0.553582 1.464206 0.108659
0.558512 1.456058 0.108920
0.562181 1.445184 0.109151
0.566915 1.436881 0.109407
0.570710 1.426638 0.109641
0.573670 1.414750 0.109854
0.578368 1.406816 0.110111
0.582994 1.398847 0.110366
0.586080 1.387756 0.110583
0.591127 1.380929 0.110850
0.596298 1.374442 0.111122
0.598675 1.362369 0.111320
0.603483 1.355376 0.111584
0.607701 1.347303 0.111832
0.612204 1.339901 0.112089
0.616715 1.332612 0.112347
0.621676 1.326276 0.112618
0.625877 1.318573 0.112869
0.629427 1.309752 0.113103
0.634351 1.303600 0.113376
0.638377 1.295869 0.113626
0.642969 1.289260 0.113892
0.647522 1.282654 0.114159
0.652027 1.276037 0.114425
0.654412 1.265772 0.114632
0.659207 1.259839 0.114909
0.664667 1.255101 0.115208
0.668784 1.248114 0.115469
0.671659 1.239114 0.115695
0.675246 1.231417 0.115943
0.679865 1.225506 0.116224
0.684319 1.219378 0.116502
0.688694 1.213178 0.116779
0.692468 1.206076 0.117040
0.696590 1.199594 0.117314
0.700797 1.193307 0.117592
0.705577 1.187960 0.117890
0.709293 1.181018 0.118158
0.713740 1.175251 0.118451
0.717232 1.168092 0.118716
0.720505 1.160676 0.118977
0.725062 1.155223 0.119281
0.729204 1.149197 0.119575
0.732933 1.142619 0.119858
0.736269 1.135532 0.120131
0.738194 1.126510 0.120361
0.743337 1.122098 0.120699
0.748306 1.117452 0.121035
0.752151 1.111272 0.121337
0.755243 1.104109 0.121616
0.758637 1.097410 0.121910
0.761737 1.090367 0.122196
0.763719 1.081899 0.122448
0.767352 1.075675 0.122759
0.771846 1.070605 0.123104
0.775597 1.064594 0.123426
0.779439 1.058729 0.123756
0.783740 1.053469 0.124107
0.786712 1.046564 0.124414
0.791256 1.041647 0.124781
0.793725 1.034192 0.125078
0.797569 1.028460 0.125429
0.802021 1.023479 0.125806
0.804956 1.016694 0.126133
0.809152 1.011434 0.126510
0.812831 1.005577 0.126872
0.815471 0.998533 0.127201
0.819228 0.992810 0.127575
0.823166 0.987307 0.127961
0.824091 0.978417 0.128237
0.827402 0.972260 0.128608
0.831149 0.966605 0.129000
0.835805 0.961955 0.129432
0.839096 0.955814 0.129817
0.843593 0.950986 0.130253
0.846524 0.944482 0.130631
0.848734 0.937241 0.130985
0.852730 0.931901 0.131415
0.855081 0.924860 0.131782
0.859542 0.920015 0.132240
0.863015 0.914157 0.132660
0.865968 0.907788 0.133063
0.869294 0.901811 0.133484
0.872505 0.895735 0.133904
0.874867 0.888847 0.134290
0.879227 0.883926 0.134763
0.883623 0.879038 0.135241
0.888545 0.874649 0.135743
0.889673 0.866681 0.136081
0.892122 0.860006 0.136477
0.896241 0.854913 0.136946
0.900260 0.849741 0.137409
0.903978 0.844314 0.137858
0.908067 0.839248 0.138321
0.911988 0.834056 0.138773
0.913324 0.826621 0.139103
0.920344 0.824219 0.139688
0.922008 0.817183 0.140021
0.924483 0.810921 0.140383
0.926428 0.804285 0.140712
0.929797 0.798932 0.141097
0.934234 0.794536 0.141521
0.937677 0.789381 0.141886
0.938406 0.782091 0.142111
0.942145 0.777360 0.142463
0.946332 0.773075 0.142821
0.951999 0.770051 0.143234
0.955218 0.765170 0.143513
0.958041 0.760087 0.143755
0.956691 0.751893 0.143778
0.959637 0.747172 0.143987
-0.329753 1.814112 0.081127
-0.322978 1.822085 0.081327
-0.315134 1.822029 0.081554
-0.306669 1.817228 0.081786
-0.298822 1.819387 0.081956
-0.290779 1.820886 0.082111
-0.282775 1.824138 0.082236
-0.274931 1.830707 0.082326
-0.266713 1.834606 0.082412
-0.258569 1.841005 0.082470
-0.250168 1.845800 0.082522
-0.241788 1.852583 0.082549
-0.232698 1.850314 0.082612
-0.224070 1.856403 0.082620
-0.215000 1.856410 0.082649
-0.206149 1.861648 0.082643
-0.197085 1.864128 0.082644
-0.188153 1.871214 0.082616
-0.179158 1.879145 0.082578
-0.170046 1.886403 0.082541
-0.160754 1.890083 0.082519
-0.151467 1.896165 0.082483
-0.142090 1.900872 0.082454
-0.132648 1.904181 0.082432
-0.123212 1.913088 0.082382
-0.113681 1.916987 0.082360
-0.104113 1.922276 0.082334
-0.094500 1.927511 0.082311
-0.084852 1.932049 0.082295
-0.075165 1.936865 0.082282
-0.065431 1.942201 0.082272
-0.055625 1.948702 0.082260
-0.045776 1.954945 0.082256
-0.035869 1.961461 0.082256
-0.025900 1.968253 0.082261
-0.015968 1.973093 0.082282
-0.006074 1.976465 0.082318
0.004126 1.985040 0.082334
0.014032 1.987504 0.082388
0.024053 1.991555 0.082441
0.034205 1.997074 0.082494
0.044371 2.002204 0.082556
0.054374 2.004739 0.082639
0.064611 2.009898 0.082716
0.074855 2.014644 0.082803
0.084967 2.017554 0.082906
0.095191 2.021379 0.083012
0.105787 2.028533 0.083112
0.116054 2.031999 0.083235
0.126156 2.033704 0.083373
0.136226 2.035008 0.083521
0.146403 2.037087 0.083672
0.156542 2.038705 0.083833
0.166688 2.040231 0.084001
0.176953 2.042509 0.084173
0.186728 2.041096 0.084366
0.195879 2.035422 0.084582
0.205502 2.033221 0.084791
0.214941 2.029912 0.085010
0.223677 2.022315 0.085249
0.232444 2.015289 0.085490
0.241388 2.009649 0.085732
0.250274 2.003910 0.085980
0.258976 1.997373 0.086234
0.267589 1.990616 0.086493
0.274770 1.976481 0.086777
0.283008 1.968466 0.087046
0.290830 1.958647 0.087324
0.299232 1.952088 0.087597
0.307503 1.945110 0.087874
0.315700 1.938014 0.088155
0.323303 1.928394 0.088444
0.330668 1.918031 0.088737
0.338659 1.910785 0.089027
0.346615 1.903603 0.089319
0.352635 1.888402 0.089625
0.360060 1.879568 0.089923
0.366997 1.869000 0.090225
0.375082 1.863338 0.090524
0.380610 1.847774 0.090833
0.388108 1.840279 0.091136
0.394718 1.829615 0.091443
0.398625 1.809229 0.091754
0.405374 1.799822 0.092060
0.410845 1.786090 0.092367
0.418261 1.779570 0.092674
0.425231 1.771642 0.092982
0.431937 1.762996 0.093291
0.437318 1.750120 0.093597
0.441524 1.733723 0.093901
0.446453 1.720102 0.094204
0.452143 1.709243 0.094509
0.458023 1.699230 0.094815
0.463688 1.688776 0.095119
0.468089 1.674733 0.095417
0.469941 1.653429 0.095700
0.476377 1.646138 0.096006
0.483051 1.639663 0.096314
0.484918 1.619597 0.096591
0.491289 1.612677 0.096896
0.496804 1.603500 0.097195
0.499570 1.587006 0.097472
0.504081 1.575582 0.097762
0.508803 1.564953 0.098052
0.514024 1.555841 0.098346
0.519400 1.547294 0.098642
0.522038 1.531935 0.098910
0.526998 1.522734 0.099200
0.532185 1.514259 0.099492
0.535887 1.502299 0.099767
0.540693 1.493235 0.100053
0.545460 1.484231 0.100339
0.549938 1.474703 0.100621
0.555400 1.467623 0.100915
0.557578 1.453126 0.101167
0.562383 1.444851 0.101451
0.566684 1.435583 0.101729
0.572149 1.429033 0.102022
0.574269 1.415283 0.102268
0.578351 1.406014 0.102541
0.583080 1.398268 0.102823
0.587795 1.390602 0.103105
0.592276 1.382560 0.103384
0.594321 1.369640 0.103624
0.598278 1.360823 0.103894
0.602204 1.352076 0.104163
0.607244 1.345665 0.104450
0.612224 1.339211 0.104737
0.617348 1.333112 0.105027
0.622172 1.326505 0.105313
0.625269 1.316707 0.105569
0.629128 1.308482 0.105838
0.632864 1.300142 0.106105
0.638193 1.294828 0.106402
0.642837 1.288323 0.106688
0.646902 1.280851 0.106963
0.651290 1.274042 0.107245
0.654675 1.265551 0.107509
0.659011 1.258821 0.107792
0.664408 1.253982 0.108097
0.669401 1.248490 0.108396
0.672584 1.240004 0.108659
0.676151 1.232261 0.108931
0.680375 1.225690 0.109218
0.685350 1.220406 0.109523
0.689667 1.214100 0.109815
0.693276 1.206723 0.110093
0.696743 1.199201 0.110369
0.700972 1.192949 0.110665
0.705227 1.186794 0.110962
0.709569 1.180822 0.111264
0.712866 1.173311 0.111543
0.716897 1.166981 0.111841
0.721522 1.161585 0.112156
0.725517 1.155294 0.112458
0.729861 1.149563 0.112771
0.733684 1.143116 0.113074
0.736979 1.135967 0.113366
0.739166 1.127312 0.113633
0.742837 1.120829 0.113940
0.747660 1.115991 0.114278
0.751523 1.109853 0.114595
0.754645 1.102743 0.114895
0.758208 1.096288 0.115210
0.762223 1.090479 0.115540
0.765987 1.084368 0.115867
0.767711 1.075622 0.116142
0.771845 1.070086 0.116484
0.776754 1.065569 0.116852
0.779725 1.058586 0.117170
0.784884 1.054412 0.117553
0.788490 1.048291 0.117896
0.790949 1.040781 0.118211
0.794678 1.034880 0.118565
0.798204 1.028758 0.118918
0.801816 1.022765 0.119277
0.805111 1.016417 0.119630
0.809048 1.010857 0.120007
0.813300 1.005676 0.120398
0.816201 0.998937 0.120752
0.819101 0.992229 0.121110
0.822706 0.986355 0.121494
0.825949 0.980088 0.121871
0.827951 0.972458 0.122213
0.831507 0.966593 0.122608
0.834892 0.960553 0.123002
0.839040 0.955356 0.123426
0.843492 0.950486 0.123864
0.847626 0.945268 0.124296
0.849892 0.938081 0.124670
0.849852 0.928521 0.124970
0.855340 0.924758 0.125460
0.858695 0.918782 0.125882
0.862794 0.913572 0.126334
0.866281 0.907746 0.126768
0.869621 0.901785 0.127200
0.873724 0.896588 0.127662
0.876900 0.890487 0.128094
0.879660 0.884001 0.128513
0.884521 0.879556 0.129010
0.888092 0.873875 0.129462
0.888414 0.865155 0.129794
0.891391 0.858983 0.130225
0.896540 0.854846 0.130737
0.900718 0.849814 0.131212
0.903888 0.843885 0.131648
0.907638 0.838511 0.132103
0.910126 0.832045 0.132506
0.913861 0.826731 0.132953
0.916854 0.820807 0.133366
0.919602 0.814727 0.133763
0.923385 0.809595 0.134194
0.926365 0.803834 0.134584
0.929522 0.798291 0.134972
0.935634 0.795276 0.135471
0.938272 0.789433 0.135816
0.940685 0.783498 0.136138
0.942830 0.777446 0.136435
0.949848 0.775406 0.136921
0.953673 0.770875 0.137257
0.953699 0.763451 0.137417
0.956544 0.758376 0.137678
0.960657 0.754399 0.137973
0.962238 0.748585 0.138143
-0.331248 1.826013 0.072626
-0.323036 1.821930 0.072900
-0.314669 1.817312 0.073158
-0.306938 1.819600 0.073323
-0.299126 1.822469 0.073463
-0.291067 1.824212 0.073594
-0.282976 1.826933 0.073698
-0.274791 1.830011 0.073781
-0.266610 1.834583 0.073833
-0.258624 1.843294 0.073829
-0.250176 1.847868 0.073852
-0.241451 1.850058 0.073885
-0.233071 1.858933 0.073841
-0.223682 1.853181 0.073929
-0.214927 1.858935 0.073896
-0.205992 1.863014 0.073872
-0.196956 1.866520 0.073846
-0.187862 1.870149 0.073814
-0.178816 1.876799 0.073748
-0.169649 1.882253 0.073691
-0.160472 1.889849 0.073610
-0.151094 1.891937 0.073582
-0.141735 1.896849 0.073526
-0.132335 1.902485 0.073463
-0.122911 1.912750 0.073357
-0.113386 1.920347 0.073278
-0.103804 1.923700 0.073243
-0.094196 1.927020 0.073212
-0.084560 1.930679 0.073181
-0.074869 1.936013 0.073139
-0.065071 1.944405 0.073071
-0.055269 1.950328 0.073033
-0.045476 1.954524 0.073016
-0.035491 1.963240 0.072962
-0.025513 1.970056 0.072932
-0.015656 1.973070 0.072945
-0.005784 1.976029 0.072965
0.004259 1.981786 0.072964
0.014337 1.987392 0.072972
0.024340 1.991185 0.073005
0.034640 1.998889 0.073007
0.044760 2.003282 0.073048
0.054823 2.006543 0.073106
0.065090 2.011969 0.073152
0.075260 2.015780 0.073220
0.085465 2.019640 0.073295
0.095611 2.022585 0.073385
0.106072 2.028353 0.073457
0.116418 2.032578 0.073551
0.126487 2.033973 0.073677
0.136422 2.034123 0.073821
0.146473 2.035205 0.073964
0.156654 2.037222 0.074105
0.166929 2.039801 0.074248
0.176996 2.040634 0.074413
0.186404 2.036670 0.074626
0.196192 2.035550 0.074820
0.205893 2.033872 0.075025
0.215270 2.030140 0.075252
0.223940 2.022132 0.075520
0.232728 2.015249 0.075783
0.241820 2.010488 0.076034
0.250513 2.003613 0.076306
0.259150 1.996723 0.076583
0.267430 1.988160 0.076876
0.275836 1.980630 0.077165
0.283564 1.969866 0.077481
0.291854 1.962391 0.077777
0.299532 1.952151 0.078095
0.307483 1.943625 0.078404
0.315413 1.935298 0.078714
0.323298 1.927043 0.079027
0.331082 1.918600 0.079343
0.339104 1.911480 0.079653
0.346581 1.902206 0.079980
0.352935 1.888451 0.080336
0.359937 1.877851 0.080674
0.367993 1.871878 0.080986
0.375207 1.862673 0.081318
0.380606 1.846615 0.081691
0.388276 1.839800 0.082012
0.395551 1.831652 0.082343
0.398888 1.809116 0.082749
0.405689 1.799898 0.083086
0.411246 1.786467 0.083443
0.417716 1.776617 0.083783
0.425194 1.770487 0.084106
0.431849 1.761678 0.084443
0.437426 1.749475 0.084795
0.439705 1.726769 0.085189
0.445101 1.714764 0.085536
0.452713 1.710083 0.085855
0.458684 1.700336 0.086194
0.461731 1.681815 0.086563
0.468692 1.675621 0.086888
0.473265 1.662409 0.087236
0.478601 1.651750 0.087574
0.483190 1.639158 0.087917
0.487878 1.627131 0.088256
0.491661 1.612831 0.088600
0.495435 1.598832 0.088940
0.501084 1.590258 0.089267
0.505180 1.577670 0.089600
0.508302 1.562768 0.089936
0.514850 1.557147 0.090255
0.520491 1.549259 0.090577
0.522129 1.531330 0.090910
0.527519 1.523207 0.091229
0.533089 1.515668 0.091548
0.536106 1.502013 0.091869
0.541893 1.495310 0.092185
0.547829 1.489055 0.092501
0.550683 1.475647 0.092816
0.552917 1.461070 0.093128
0.558169 1.453685 0.093440
0.562672 1.444716 0.093751
0.567246 1.436055 0.094061
0.571236 1.426242 0.094368
0.575988 1.418253 0.094676
0.578856 1.406332 0.094977
0.583399 1.398181 0.095283
0.588761 1.391872 0.095591
0.592674 1.382632 0.095893
0.596404 1.373162 0.096193
0.599799 1.363160 0.096490
0.603518 1.353969 0.096787
0.608017 1.346461 0.097089
0.612775 1.339559 0.097392
0.617468 1.332616 0.097695
0.621819 1.325107 0.097995
0.624515 1.314563 0.098282
0.628095 1.305837 0.098576
0.633061 1.299797 0.098881
0.638648 1.294957 0.099191
0.643503 1.288826 0.099497
0.646841 1.280045 0.099788
0.651224 1.273232 0.100089
0.654919 1.265292 0.100384
0.659032 1.258175 0.100684
0.664189 1.252928 0.100995
0.669553 1.248073 0.101311
0.673643 1.241112 0.101613
0.676566 1.232286 0.101901
0.680508 1.225250 0.102203
0.685329 1.219718 0.102516
0.690544 1.214862 0.102836
0.693874 1.207031 0.103133
0.697412 1.199616 0.103434
0.700926 1.192243 0.103735
0.705320 1.186306 0.104050
0.709929 1.180746 0.104370
0.712940 1.172804 0.104668
0.717067 1.166622 0.104984
0.721670 1.161196 0.105309
0.726501 1.156138 0.105640
0.729662 1.148674 0.105947
0.733576 1.142368 0.106268
0.737381 1.135953 0.106590
0.740943 1.129244 0.106909
0.744316 1.122325 0.107227
0.748105 1.116039 0.107555
0.751719 1.109557 0.107882
0.754418 1.101878 0.108195
0.757998 1.095453 0.108526
0.762426 1.090203 0.108876
0.765768 1.083538 0.109209
0.768961 1.076725 0.109541
0.772052 1.069827 0.109874
0.775806 1.063829 0.110224
0.781097 1.059817 0.110607
0.784517 1.053440 0.110957
0.787022 1.045954 0.111290
0.791129 1.040506 0.111661
0.794597 1.034291 0.112021
0.798267 1.028349 0.112390
0.802332 1.022907 0.112771
0.805786 1.016750 0.113143
0.807021 1.008000 0.113467
0.812776 1.004604 0.113899
0.815557 0.997738 0.114266
0.819816 0.992602 0.114673
0.821621 0.984681 0.115024
0.825581 0.979239 0.115431
0.829375 0.973619 0.115839
0.830687 0.965265 0.116188
0.835108 0.960374 0.116620
0.838835 0.954724 0.117038
0.843297 0.949871 0.117480
0.849715 0.947092 0.117978
0.853455 0.941442 0.118411
0.852624 0.931027 0.118723
0.855336 0.924371 0.119134
0.860493 0.920245 0.119616
0.863923 0.914343 0.120055
0.865573 0.906664 0.120445
0.869797 0.901593 0.120912
0.874427 0.896919 0.121395
0.875235 0.888500 0.121768
0.880383 0.884342 0.122271
0.883434 0.878157 0.122714
0.887577 0.873031 0.123191
0.890883 0.867123 0.123644
0.891390 0.858628 0.124010
0.898782 0.856558 0.124592
0.901179 0.849878 0.125015
0.904347 0.843940 0.125462
0.907158 0.837717 0.125894
0.910801 0.832277 0.126350
0.914881 0.827255 0.126818
0.915146 0.818941 0.127151
0.918906 0.813740 0.127596
0.923386 0.809199 0.128060
0.926061 0.803171 0.128453
0.933461 0.801177 0.129002
0.936986 0.795969 0.129406
0.938016 0.788780 0.129711
0.940311 0.782736 0.130047
0.945949 0.779494 0.130489
0.951006 0.775843 0.130897
0.952620 0.769532 0.131164
0.953364 0.762663 0.131383
0.955492 0.757014 0.131634
0.957623 0.751492 0.131867
0.965846 0.750769 0.132306
-0.330168 1.815905 0.064340
-0.322554 1.816992 0.064538
-0.315123 1.821045 0.064672
-0.306483 1.815034 0.064934
-0.298645 1.817705 0.065050
-0.291294 1.826870 0.065053
-0.282853 1.826159 0.065182
-0.274446 1.826891 0.065273
-0.266640 1.836109 0.065227
-0.258394 1.841852 0.065217
-0.249922 1.846269 0.065212
-0.241122 1.847517 0.065240
-0.232210 1.848164 0.065266
-0.223661 1.855972 0.065180
-0.214796 1.860211 0.065137
-0.205939 1.866228 0.065061
-0.196871 1.869637 0.065016
-0.187730 1.872731 0.064970
-0.178802 1.883339 0.064813
-0.169539 1.886929 0.064754
-0.160229 1.890607 0.064691
-0.150857 1.893462 0.064638
-0.141460 1.896788 0.064579
-0.132071 1.903820 0.064468
-0.122631 1.913244 0.064324
-0.113099 1.920915 0.064207
-0.103516 1.922654 0.064177
-0.093916 1.925357 0.064136
-0.084253 1.931681 0.064048
-0.074567 1.936407 0.063987
-0.064718 1.946939 0.063847
-0.054912 1.952508 0.063784
-0.045099 1.957005 0.063740
-0.035254 1.961545 0.063702
-0.025264 1.968833 0.063631
-0.015360 1.973001 0.063610
-0.005394 1.977844 0.063585
0.004605 1.982657 0.063568
0.014622 1.987185 0.063561
0.024792 1.993586 0.063534
0.035156 2.002032 0.063486
0.045258 2.006009 0.063508
0.055208 2.007689 0.063568
0.065299 2.010948 0.063613
0.075634 2.016685 0.063631
0.085879 2.020946 0.063676
0.096225 2.025876 0.063719
0.106509 2.029771 0.063783
0.116684 2.032340 0.063873
0.126752 2.033755 0.063984
0.136875 2.035527 0.064098
0.146863 2.036040 0.064236
0.157096 2.038444 0.064354
0.167282 2.040295 0.064486
0.177067 2.039034 0.064667
0.186707 2.036789 0.064865
0.196532 2.035919 0.065052
0.206270 2.034484 0.065252
0.215723 2.031232 0.065481
0.224376 2.023087 0.065778
0.233203 2.016419 0.066060
0.242210 2.011121 0.066329
0.251110 2.005428 0.066607
0.259167 1.995235 0.066946
0.267581 1.987446 0.067258
0.276184 1.980987 0.067558
0.284415 1.972827 0.067882
0.292928 1.966412 0.068188
0.300083 1.953489 0.068575
0.307684 1.943237 0.068932
0.315163 1.932788 0.069294
0.323082 1.924744 0.069630
0.331019 1.917039 0.069965
0.339169 1.910514 0.070289
0.346022 1.898556 0.070676
0.353221 1.888460 0.071044
0.360321 1.878264 0.071415
0.368012 1.870791 0.071757
0.375808 1.863927 0.072095
0.381344 1.848383 0.072526
0.387580 1.836016 0.072923
0.394268 1.825720 0.073300
0.400090 1.812495 0.073707
0.406364 1.801295 0.074093
0.411684 1.786990 0.074510
0.418398 1.777978 0.074875
0.425530 1.770624 0.075226
0.432301 1.762202 0.075587
0.438037 1.750515 0.075978
0.439704 1.725787 0.076486
0.445764 1.715933 0.076858
0.452552 1.708615 0.077209
0.453319 1.682642 0.077717
0.462476 1.683167 0.078001
0.468862 1.675202 0.078356
0.473154 1.661158 0.078760
0.479115 1.652343 0.079121
0.484690 1.642585 0.079489
0.487338 1.624698 0.079917
0.493922 1.618285 0.080258
0.496744 1.601574 0.080673
0.502757 1.593946 0.081021
0.506002 1.579014 0.081419
0.510408 1.567489 0.081791
0.514674 1.555837 0.082162
0.521538 1.551109 0.082489
0.522607 1.531708 0.082905
0.528385 1.524547 0.083244
0.532992 1.514600 0.083599
0.537259 1.504007 0.083956
0.542242 1.495334 0.084302
0.545658 1.483083 0.084665
0.549851 1.472891 0.085015
0.553713 1.462115 0.085367
0.558556 1.453776 0.085706
0.562984 1.444633 0.086047
0.565764 1.431965 0.086402
0.570631 1.424130 0.086735
0.575637 1.416714 0.087066
0.578024 1.403776 0.087415
0.582995 1.396558 0.087744
0.587886 1.389273 0.088071
0.591730 1.379919 0.088405
0.596155 1.371899 0.088733
0.599862 1.362541 0.089064
0.604541 1.355275 0.089389
0.609470 1.348598 0.089712
0.613149 1.339557 0.090039
0.617516 1.331979 0.090363
0.620337 1.321548 0.090691
0.624500 1.313815 0.091013
0.629176 1.307143 0.091334
0.633943 1.300716 0.091655
0.639135 1.295139 0.091975
0.644018 1.289053 0.092296
0.647524 1.280566 0.092618
0.651385 1.272823 0.092938
0.655133 1.264975 0.093259
0.658801 1.257088 0.093579
0.663914 1.251774 0.093901
0.669284 1.246938 0.094225
0.673661 1.240467 0.094548
0.676849 1.232088 0.094867
0.680559 1.224669 0.095188
0.685185 1.218823 0.095513
0.689553 1.212612 0.095838
0.694252 1.206983 0.096166
0.697927 1.199782 0.096490
0.700404 1.190787 0.096808
0.705455 1.185879 0.097141
0.709865 1.180018 0.097471
0.713744 1.173397 0.097800
0.716950 1.165825 0.098126
0.721935 1.160973 0.098465
0.725812 1.154514 0.098798
0.729594 1.147969 0.099132
0.731701 1.139064 0.099454
0.736834 1.134577 0.099802
0.741862 1.129954 0.100153
0.745225 1.123013 0.100490
0.749100 1.116840 0.100835
0.752887 1.110589 0.101181
0.754815 1.101851 0.101509
0.759186 1.096493 0.101865
0.763290 1.090801 0.102221
0.766350 1.083759 0.102568
0.769408 1.076767 0.102917
0.772154 1.069423 0.103265
0.775501 1.062907 0.103622
0.780345 1.058336 0.104001
0.784195 1.052514 0.104371
0.787287 1.045772 0.104734
0.790722 1.039496 0.105105
0.794586 1.033776 0.105485
0.798452 1.028079 0.105869
0.802549 1.022679 0.106259
0.806004 1.016526 0.106644
0.809234 1.010134 0.107029
0.811438 1.002571 0.107400
0.816292 0.998125 0.107818
0.819869 0.992205 0.108220
0.823377 0.986225 0.108624
0.825622 0.978840 0.109009
0.828304 0.971985 0.109406
0.831511 0.965742 0.109815
0.835699 0.960592 0.110247
0.839833 0.955383 0.110682
0.842542 0.948643 0.111093
0.847990 0.944844 0.111563
0.851729 0.939216 0.112003
0.854148 0.932216 0.112420
0.856964 0.925658 0.112848
0.860696 0.920061 0.113299
0.864246 0.914283 0.113749
0.866000 0.906710 0.114163
0.870305 0.901718 0.114636
0.873616 0.895742 0.115090
0.876129 0.889000 0.115528
0.878215 0.881874 0.115957
0.884266 0.878585 0.116483
0.887120 0.872229 0.116934
0.890333 0.866238 0.117394
0.894404 0.861068 0.117876
0.897772 0.855258 0.118341
0.901507 0.849808 0.118814
0.904800 0.843978 0.119275
0.908572 0.838609 0.119746
0.913815 0.834572 0.120255
0.913864 0.825976 0.120618
0.915700 0.819034 0.121024
0.920266 0.814516 0.121500
0.923776 0.809128 0.121940
0.928042 0.804432 0.122394
0.932075 0.799590 0.122833
0.936154 0.794841 0.123264
0.937429 0.787848 0.123601
0.938564 0.780850 0.123921
0.943814 0.777292 0.124351
0.949574 0.774204 0.124782
0.951886 0.768441 0.125094
0.954142 0.762749 0.125388
0.957007 0.757651 0.125683
0.960549 0.753192 0.125981
0.967485 0.751442 0.126367
-0.330519 1.818051 0.055897
-0.322704 1.817671 0.056103
-0.314580 1.815600 0.056322
-0.306627 1.816194 0.056470
-0.298742 1.818686 0.056564
-0.291143 1.825559 0.056557
-0.283304 1.831609 0.056550
-0.274412 1.827305 0.056722
-0.266664 1.837496 0.056607
-0.258364 1.842873 0.056568
-0.250326 1.853534 0.056418
-0.240793 1.844845 0.056619
-0.231850 1.845065 0.056643
-0.223389 1.854358 0.056488
-0.214521 1.858654 0.056418
-0.205767 1.866854 0.056269
-0.196768 1.872090 0.056169
-0.187692 1.877367 0.056064
-0.178705 1.887180 0.055870
-0.169470 1.892582 0.055756
-0.160095 1.895027 0.055696
-0.150679 1.897123 0.055641
-0.141247 1.899681 0.055578
-0.131827 1.905687 0.055451
-0.122357 1.912645 0.055308
-0.112819 1.917400 0.055208
-0.103242 1.922070 0.055112
-0.093632 1.926091 0.055032
-0.083964 1.932374 0.054913
-0.074203 1.941120 0.054751
-0.064411 1.947989 0.054630
-0.054585 1.954107 0.054527
-0.044766 1.958542 0.054461
-0.034935 1.962466 0.054410
-0.025039 1.967353 0.054347
-0.015112 1.972192 0.054290
-0.005048 1.979036 0.054202
0.005012 1.984852 0.054140
0.015032 1.989269 0.054109
0.025304 1.997101 0.054022
0.035466 2.002406 0.053989
0.045538 2.005961 0.053994
0.055472 2.007445 0.054045
0.065429 2.009132 0.054098
0.075612 2.013261 0.054113
0.086204 2.021421 0.054060
0.096531 2.026132 0.054078
0.106734 2.029238 0.054131
0.116865 2.031419 0.054209
0.127036 2.033796 0.054289
0.137104 2.035096 0.054395
0.147282 2.037199 0.054493
0.157447 2.039023 0.054602
0.167381 2.038931 0.054752
0.177384 2.039326 0.054900
0.187278 2.038880 0.055068
0.196961 2.036969 0.055268
0.206541 2.034441 0.055484
0.215880 2.030452 0.055730
0.224856 2.024366 0.056019
0.233532 2.016742 0.056338
0.242124 2.008981 0.056663
0.250898 2.002621 0.056969
0.259294 1.994403 0.057310
0.267746 1.986845 0.057643
0.275927 1.978152 0.057999
0.284237 1.970474 0.058341
0.292697 1.963845 0.058669
