ply
format ascii 1.0
comment ---
element vertex 1678
property float x
property float y
property float z
element face 0
property list uchar uint vertex_indices
end_header
-0.020277 1.629599 -1.331982
-0.010681 1.623040 -1.326745
-0.001112 1.620473 -1.324720
0.008723 1.633877 -1.335521
0.018641 1.644150 -1.343818
0.028088 1.634779 -1.336358
0.037564 1.629222 -1.331967
0.047513 1.636426 -1.337827
0.056710 1.626069 -1.329601
0.021897 0.719547 -0.601983
0.025336 0.706388 -0.591468
0.028871 0.696727 -0.583763
0.032943 0.695435 -0.582782
0.037135 0.695743 -0.583091
0.041598 0.699022 -0.585789
0.046373 0.705141 -0.590774
0.050669 0.705777 -0.591359
0.054813 0.704883 -0.590719
0.059110 0.705405 -0.591221
0.063588 0.707363 -0.592882
0.067802 0.706989 -0.592674
0.072053 0.706897 -0.592696
0.076207 0.706068 -0.592131
0.080632 0.707176 -0.593128
0.084938 0.707354 -0.593382
0.089236 0.707437 -0.593565
0.093367 0.706432 -0.592878
0.097549 0.705773 -0.592474
0.101774 0.705368 -0.592279
0.106496 0.707740 -0.594326
0.110525 0.706160 -0.593196
0.114093 0.702222 -0.590171
0.118575 0.703134 -0.591060
0.122935 0.703352 -0.591394
0.127219 0.703152 -0.591399
0.130747 0.699402 -0.588545
0.135717 0.702344 -0.591096
0.140306 0.703413 -0.592143
0.144156 0.701209 -0.590553
0.148045 0.699235 -0.589156
0.151961 0.697425 -0.587896
0.156201 0.696950 -0.587721
0.160606 0.697092 -0.588053
0.165193 0.697874 -0.588908
0.169546 0.697704 -0.589002
0.173268 0.695214 -0.587224
0.176681 0.691687 -0.584613
0.181284 0.692391 -0.585435
0.186253 0.694255 -0.587205
0.189025 0.688700 -0.582968
0.194451 0.691950 -0.585879
0.198052 0.689209 -0.583937
0.202617 0.689532 -0.584490
0.206236 0.686900 -0.582649
0.210728 0.686935 -0.582984
0.214637 0.685202 -0.581888
0.219310 0.685687 -0.582605
0.222522 0.681960 -0.579900
0.227344 0.682800 -0.580921
0.231911 0.682857 -0.581315
0.236693 0.683436 -0.582142
0.241303 0.683490 -0.582549
0.245459 0.682310 -0.581957
0.250188 0.682579 -0.582557
0.254884 0.682703 -0.583046
0.259072 0.681518 -0.582472
0.263981 0.682068 -0.583326
0.268772 0.682268 -0.583901
0.271309 0.677119 -0.580095
0.275923 0.676883 -0.580323
0.281070 0.677816 -0.581518
0.285626 0.677351 -0.581571
0.288545 0.673247 -0.578634
0.293433 0.673495 -0.579281
0.298298 0.673649 -0.579854
0.303551 0.674571 -0.581066
0.308094 0.673958 -0.581014
0.312676 0.673408 -0.581014
0.316341 0.670993 -0.579472
0.320268 0.669140 -0.578392
0.324846 0.668588 -0.578386
0.329011 0.667232 -0.577709
0.334590 0.668594 -0.579281
0.338944 0.667604 -0.578897
0.343920 0.667785 -0.579477
0.347488 0.665382 -0.577900
0.351575 0.663982 -0.577144
0.356338 0.663832 -0.577415
0.360813 0.663191 -0.577263
0.366447 0.664603 -0.578806
0.372007 0.665878 -0.580219
0.376612 0.665531 -0.580260
0.381508 0.665719 -0.580726
0.385753 0.664866 -0.580299
0.392138 0.667587 -0.582836
0.396620 0.667217 -0.582762
0.401142 0.666979 -0.582771
0.404143 0.664400 -0.580791
0.412302 0.670033 -0.585656
0.412161 0.662743 -0.579668
0.415332 0.660767 -0.578097
0.420008 0.661198 -0.578509
0.424457 0.661365 -0.578666
0.434538 0.670014 -0.585895
0.440241 0.672124 -0.587611
0.443254 0.670347 -0.586036
0.447697 0.670771 -0.586270
0.449355 0.667277 -0.583189
0.452955 0.666706 -0.582523
0.458730 0.669319 -0.584487
-0.967255 1.291759 -1.111337
-0.976946 1.315375 -1.131821
-0.971636 1.318567 -1.135064
-0.966246 1.321889 -1.138352
-0.957625 1.320860 -1.137910
-0.950213 1.321738 -1.139007
-0.775898 1.081245 -0.936492
-0.767721 1.079221 -0.934965
-0.769087 1.091375 -0.945340
-0.763044 1.092883 -0.946679
-0.740037 1.069074 -0.926603
-0.728757 1.062727 -0.921204
-0.720076 1.060367 -0.919115
-0.710857 1.057252 -0.916336
-0.703824 1.057612 -0.916439
-0.696619 1.057820 -0.916363
-0.691049 1.060752 -0.918536
-0.685922 1.064564 -0.921403
-0.680546 1.068145 -0.924030
-0.672734 1.067857 -0.923358
-0.664666 1.067201 -0.922339
-0.658300 1.069479 -0.923751
-0.652706 1.073192 -0.926334
-0.644736 1.072907 -0.925528
-0.634893 1.069352 -0.921951
-0.627150 1.069473 -0.921438
-0.620892 1.072297 -0.923168
-0.615203 1.076240 -0.925815
-0.606782 1.075218 -0.924288
-0.597930 1.073349 -0.922040
-0.568567 1.046847 -0.898524
-0.554995 1.035163 -0.888089
-0.542413 1.040037 -0.890779
-0.537952 1.046253 -0.895265
-0.541837 1.069932 -0.914266
-0.623606 1.338213 -1.133054
-0.617603 1.345850 -1.138546
-0.610131 1.350237 -1.141354
-0.603833 1.357423 -1.146483
-0.597662 1.365043 -1.151977
-0.590212 1.369707 -1.155038
-0.583149 1.375374 -1.158936
-0.574835 1.377989 -1.160328
-0.569612 1.388470 -1.168214
-0.568593 1.410128 -1.185305
-0.602938 1.525905 -1.279822
-0.600406 1.546492 -1.295977
-0.592332 1.552523 -1.300170
-0.583246 1.555828 -1.302138
-0.574261 1.559421 -1.304358
-0.563955 1.559203 -1.303469
-0.555541 1.564436 -1.307068
-0.545848 1.565904 -1.307597
-0.534323 1.561688 -1.303489
-0.389812 1.164685 -0.977405
-0.382907 1.166571 -0.978500
-0.376846 1.171257 -0.981897
-0.470180 1.547210 -1.288131
-0.462774 1.555666 -1.294512
-0.452750 1.554885 -1.293368
-0.446187 1.566818 -1.302612
-0.437702 1.571901 -1.306280
-0.430113 1.580608 -1.312915
-0.421429 1.585273 -1.316267
-0.411906 1.586630 -1.316939
-0.403718 1.593559 -1.322162
-0.393335 1.591288 -1.319907
-0.382850 1.588344 -1.317121
-0.374514 1.594906 -1.322086
-0.366576 1.603613 -1.328806
-0.356008 1.600055 -1.325564
-0.346754 1.602711 -1.327388
-0.337650 1.606202 -1.329903
-0.326840 1.600809 -1.325212
-0.317050 1.600527 -1.324688
-0.307553 1.601788 -1.325430
-0.298412 1.605125 -1.327870
-0.288828 1.605930 -1.328266
-0.280165 1.612490 -1.333345
-0.271368 1.618600 -1.338069
-0.261744 1.619498 -1.338573
-0.249336 1.600686 -1.323097
-0.238955 1.595102 -1.318368
-0.229435 1.595571 -1.318561
-0.221067 1.605335 -1.326303
-0.212779 1.616690 -1.335343
-0.202891 1.614816 -1.333665
-0.193690 1.619160 -1.337039
-0.182832 1.607312 -1.327297
-0.172840 1.603110 -1.323764
-0.163372 1.604239 -1.324562
-0.153728 1.603290 -1.323685
-0.144384 1.606064 -1.325836
-0.135189 1.611356 -1.330035
-0.125982 1.617354 -1.334815
-0.116715 1.623472 -1.339701
-0.107015 1.622584 -1.338921
-0.097130 1.617410 -1.334676
-0.087319 1.612453 -1.330616
-0.077658 1.610083 -1.328663
-0.067998 1.606654 -1.325859
-0.058695 1.617059 -1.334271
-0.049132 1.619219 -1.336013
-0.039481 1.615581 -1.333067
-0.029838 1.604898 -1.324422
-0.020313 1.605399 -1.324846
-0.010749 1.610588 -1.329076
-0.001127 1.615613 -1.333183
0.008601 1.623032 -1.339237
0.018379 1.628893 -1.344039
0.027815 1.621143 -1.337823
0.037226 1.615172 -1.333056
0.046658 1.611299 -1.329997
0.056518 1.617211 -1.334877
0.065517 1.605821 -1.325744
0.025055 0.699932 -0.591695
0.028819 0.693825 -0.586799
0.032871 0.692339 -0.585653
0.037061 0.692668 -0.585983
0.040586 0.685500 -0.580237
0.044501 0.683274 -0.578502
0.050266 0.699545 -0.591774
0.054324 0.698065 -0.590654
0.058658 0.699144 -0.591615
0.063188 0.701726 -0.593800
0.067037 0.698583 -0.591344
0.070914 0.695908 -0.589271
0.074971 0.694748 -0.588433
0.079411 0.696328 -0.589824
0.083722 0.696873 -0.590381
0.088341 0.699335 -0.592499
0.091784 0.694263 -0.588503
0.096660 0.698104 -0.591754
0.101233 0.699894 -0.593343
0.105564 0.700170 -0.593709
0.109396 0.697694 -0.591842
0.112979 0.694027 -0.589011
0.117088 0.693219 -0.588510
0.122093 0.696826 -0.591609
0.125715 0.693576 -0.589133
0.130355 0.695195 -0.590627
0.133915 0.691805 -0.588048
0.138448 0.692834 -0.589074
0.142832 0.693124 -0.589505
0.146839 0.691785 -0.588615
0.151044 0.691276 -0.588407
0.155349 0.691142 -0.588513
0.159639 0.690909 -0.588545
0.164020 0.690988 -0.588839
0.168535 0.691507 -0.589500
0.171961 0.688031 -0.586903
0.175516 0.685114 -0.584769
0.179029 0.682134 -0.582588
0.183879 0.683744 -0.584170
0.187520 0.681243 -0.582395
0.191368 0.679463 -0.581216
0.196966 0.683258 -0.584615
0.201079 0.682237 -0.584075
0.204994 0.680599 -0.583036
0.208900 0.678946 -0.581992
0.213572 0.679552 -0.582810
0.217474 0.677866 -0.581753
0.220316 0.673194 -0.578248
0.224818 0.673247 -0.578635
0.230613 0.676767 -0.581885
0.235238 0.676979 -0.582422
0.239087 0.675092 -0.581237
0.243697 0.675182 -0.581689
0.248533 0.675792 -0.582579
0.253580 0.676857 -0.583854
0.256655 0.672990 -0.581060
0.261615 0.673754 -0.582101
0.264901 0.670464 -0.579792
0.269656 0.670666 -0.580381
0.274180 0.670281 -0.580490
0.278636 0.669708 -0.580449
0.282982 0.668861 -0.580185
0.286867 0.666982 -0.579067
0.290962 0.665574 -0.578343
0.295766 0.665678 -0.578880
0.300974 0.666588 -0.580091
0.305871 0.666795 -0.580720
0.310579 0.666576 -0.580994
0.314956 0.665671 -0.580696
0.317804 0.661736 -0.577862
0.321925 0.660377 -0.577174
0.326781 0.660450 -0.577682
0.332128 0.661441 -0.578953
0.337508 0.662457 -0.580241
0.342091 0.661969 -0.580258
0.345843 0.659978 -0.579003
0.349658 0.658158 -0.577878
0.353912 0.657175 -0.577441
0.358786 0.657322 -0.577939
0.363682 0.657525 -0.578469
0.369089 0.658625 -0.579735
0.373510 0.658066 -0.579583
0.378683 0.658815 -0.580512
0.382221 0.656890 -0.579161
0.387667 0.658176 -0.580494
0.392957 0.659238 -0.581612
0.398223 0.660299 -0.582701
0.401434 0.658154 -0.581051
0.404438 0.655801 -0.579193
0.410402 0.658153 -0.581281
0.413689 0.656432 -0.579892
0.416984 0.654841 -0.578579
0.424065 0.659051 -0.582139
0.428743 0.659692 -0.582646
0.431421 0.657462 -0.580690
0.439617 0.663424 -0.585626
0.444547 0.664646 -0.586519
0.448182 0.664079 -0.585865
0.450199 0.661315 -0.583321
0.455178 0.662870 -0.584393
-0.981262 1.308381 -1.135670
-0.972550 1.306533 -1.134757
-0.969105 1.312193 -1.140163
-0.964232 1.316122 -1.144035
-0.959693 1.320778 -1.148461
-0.952423 1.321794 -1.149724
-0.760550 1.056465 -0.924175
-0.756097 1.059595 -0.927049
-0.762648 1.079111 -0.943822
-0.734736 1.058236 -0.926180
-0.723386 1.051646 -0.920552
-0.716032 1.051164 -0.920072
-0.707235 1.048571 -0.917740
-0.699327 1.047430 -0.916595
-0.691699 1.046820 -0.915851
-0.687348 1.051532 -0.919588
-0.683250 1.056857 -0.923797
-0.678175 1.060799 -0.926783
-0.669634 1.059198 -0.925012
-0.661564 1.058419 -0.923901
-0.654229 1.058929 -0.923848
-0.647597 1.060710 -0.924839
-0.641520 1.063545 -0.926692
-0.633050 1.062289 -0.925047
-0.625465 1.062604 -0.924707
-0.617334 1.061962 -0.923535
-0.582501 1.026321 -0.892102
-0.571933 1.020600 -0.886615
-0.561096 1.028466 -0.891913
-0.557481 1.036050 -0.897620
-0.649370 1.288249 -1.106665
-0.646070 1.300711 -1.116265
-0.647913 1.324439 -1.135303
-0.641423 1.330777 -1.139745
-0.635096 1.337585 -1.144581
-0.627817 1.342392 -1.147743
-0.619836 1.345666 -1.149629
-0.613553 1.352858 -1.154797
-0.606832 1.359160 -1.159226
-0.599541 1.364211 -1.162617
-0.592259 1.369347 -1.166089
-0.583582 1.371117 -1.166766
-0.575371 1.374007 -1.168389
-0.568448 1.380161 -1.172741
-0.563048 1.390362 -1.180468
-0.601951 1.544725 -1.307169
-0.594287 1.551947 -1.312376
-0.585157 1.555234 -1.314333
-0.574732 1.554854 -1.313267
-0.563431 1.551811 -1.310014
-0.552935 1.550895 -1.308544
-0.543433 1.552799 -1.309429
-0.529430 1.540907 -1.298922
-0.393408 1.171790 -0.992675
-0.384696 1.168054 -0.989124
-0.376895 1.167093 -0.987881
-0.479672 1.540421 -1.295466
-0.469067 1.537698 -1.292664
-0.462981 1.550722 -1.302863
-0.455984 1.560933 -1.310752
-0.447937 1.567621 -1.315751
-0.440159 1.575535 -1.321771
-0.429026 1.570698 -1.317308
-0.418478 1.567844 -1.314497
-0.409216 1.569985 -1.315810
-0.402001 1.580689 -1.324181
-0.391872 1.579348 -1.322660
-0.382141 1.579583 -1.322450
-0.373403 1.584231 -1.325880
-0.365254 1.591791 -1.331715
-0.355465 1.591821 -1.331378
-0.345242 1.589607 -1.329214
-0.334747 1.585775 -1.325737
-0.324237 1.581521 -1.321929
-0.315501 1.586534 -1.325737
-0.305768 1.586187 -1.325161
-0.297118 1.592022 -1.329666
-0.287342 1.591407 -1.328895
-0.277113 1.587815 -1.325696
-0.269888 1.603385 -1.338212
-0.260504 1.605522 -1.339731
-0.250135 1.600804 -1.335645
-0.239856 1.596247 -1.331706
-0.229629 1.591576 -1.327684
-0.220067 1.591748 -1.327640
-0.210386 1.590829 -1.326714
-0.203689 1.616404 -1.347485
-0.192452 1.601912 -1.335469
-0.181689 1.590352 -1.325866
-0.172662 1.595709 -1.330117
-0.162679 1.590847 -1.326017
-0.152714 1.585415 -1.321462
-0.143184 1.584768 -1.320831
-0.134479 1.595669 -1.329655
-0.126214 1.615347 -1.345668
-0.116294 1.610589 -1.341702
-0.106386 1.604899 -1.336983
-0.096248 1.592716 -1.326965
-0.086553 1.587822 -1.322918
-0.077070 1.587290 -1.322446
-0.067615 1.587397 -1.322506
-0.058436 1.599573 -1.332445
-0.049033 1.606895 -1.338423
-0.039441 1.604855 -1.336755
-0.029826 1.593326 -1.327336
-0.020343 1.586383 -1.321677
-0.010899 1.586077 -1.321454
-0.001318 1.596774 -1.330237
0.008254 1.600113 -1.333013
0.017617 1.593252 -1.327456
0.026964 1.588509 -1.323639
0.036663 1.594918 -1.328953
0.045910 1.588762 -1.323999
0.055954 1.600606 -1.333779
0.065465 1.599934 -1.333329
0.074998 1.599696 -1.333244
0.028252 0.683757 -0.583970
0.032700 0.687933 -0.587448
0.036716 0.686343 -0.586211
0.040465 0.681955 -0.582687
0.043858 0.674362 -0.576543
0.047868 0.673688 -0.576068
0.053542 0.688534 -0.588306
0.058000 0.691073 -0.590473
0.062219 0.691326 -0.590773
0.066068 0.688576 -0.588616
0.070224 0.688378 -0.588555
0.074407 0.688349 -0.588638
0.078582 0.688242 -0.588662
0.082518 0.686501 -0.587351
0.087379 0.690815 -0.591011
0.091420 0.689688 -0.590214
0.095923 0.691363 -0.591721
0.100044 0.690685 -0.591303
0.104685 0.692909 -0.593273
0.108874 0.692510 -0.593097
0.112621 0.689797 -0.591025
0.116466 0.687708 -0.589470
0.121085 0.689494 -0.591106
0.125170 0.688595 -0.590541
0.128814 0.685661 -0.588309
0.133126 0.685856 -0.588656
0.137214 0.685019 -0.588161
0.141839 0.686466 -0.589551
0.146164 0.686552 -0.589829
0.150502 0.686645 -0.590120
0.154673 0.686025 -0.589830
0.157987 0.682089 -0.586814
0.161825 0.680260 -0.585539
0.166221 0.680523 -0.585998
0.170805 0.681403 -0.586974
0.174070 0.677561 -0.584058
0.177713 0.675138 -0.582319
0.181833 0.674373 -0.581958
0.186263 0.674614 -0.582436
0.190781 0.675081 -0.583108
0.194883 0.674163 -0.582644
0.199847 0.675902 -0.584387
0.203950 0.674907 -0.583874
0.208403 0.674941 -0.584223
0.212716 0.674512 -0.584196
0.216438 0.672356 -0.582743
0.219618 0.668700 -0.580051
0.224005 0.668460 -0.580202
0.229057 0.669984 -0.581830
0.233386 0.669473 -0.581774
0.237770 0.669072 -0.581817
0.241769 0.667643 -0.581011
0.246198 0.667297 -0.581116
0.250363 0.666259 -0.580649
0.254607 0.665394 -0.580335
0.258813 0.664418 -0.579933
0.263856 0.665406 -0.581181
0.266595 0.660947 -0.577876
0.271100 0.660631 -0.578044
0.275786 0.660688 -0.578529
0.279970 0.659585 -0.578047
0.285101 0.660543 -0.579298
0.290183 0.661327 -0.580408
0.293985 0.659334 -0.579187
0.297741 0.657266 -0.577903
0.302007 0.656277 -0.577527
0.305763 0.654251 -0.576275
0.310794 0.654807 -0.577199
0.315782 0.655241 -0.578017
0.320262 0.654654 -0.577971
0.325108 0.654769 -0.578513
0.330713 0.656306 -0.580254
0.335679 0.656602 -0.580937
0.338308 0.652585 -0.577956
0.343906 0.654072 -0.579627
0.347626 0.652160 -0.578403
0.352468 0.652297 -0.578902
0.356546 0.651114 -0.578264
0.362406 0.653063 -0.580270
0.366952 0.652754 -0.580338
0.370939 0.651546 -0.579616
0.374462 0.649633 -0.578272
0.379644 0.650544 -0.579307
0.384839 0.651508 -0.580362
0.390268 0.652885 -0.581742
0.393940 0.651495 -0.580732
0.398468 0.651550 -0.580925
0.402603 0.651063 -0.580623
0.407297 0.651523 -0.581098
0.411802 0.651765 -0.581352
0.416938 0.653037 -0.582453
0.421669 0.653763 -0.583053
0.424917 0.652359 -0.581799
0.427988 0.650811 -0.580388
0.431842 0.650523 -0.580018
0.439597 0.655966 -0.584504
0.444992 0.658027 -0.586068
0.448334 0.657231 -0.585161
0.444940 0.647049 -0.576222
-0.986849 1.313429 -1.150366
-0.976613 1.309459 -1.147666
-0.969455 1.309899 -1.148683
-0.965692 1.315300 -1.153893
-0.961565 1.320461 -1.158834
-0.956365 1.324366 -1.162631
-0.752979 1.052460 -0.929576
-0.750462 1.058511 -0.934964
-0.746709 1.062989 -0.938944
-0.730844 1.049591 -0.927495
-0.719913 1.043516 -0.922286
-0.713205 1.043893 -0.922571
-0.705304 1.042566 -0.921336
-0.696543 1.039995 -0.918979
-0.688831 1.039133 -0.918042
-0.683918 1.042814 -0.920958
-0.680794 1.049557 -0.926454
-0.676431 1.054532 -0.930383
-0.668496 1.053831 -0.929392
-0.657359 1.047862 -0.923841
-0.650381 1.048825 -0.924202
-0.642821 1.048880 -0.923747
-0.631157 1.041902 -0.917235
-0.610585 1.019215 -0.897254
-0.595890 1.006385 -0.885705
-0.584461 1.026091 -0.900695
-0.582790 1.037015 -0.909357
-0.683555 1.295691 -1.126564
-0.677547 1.302489 -1.131463
-0.670606 1.307537 -1.134865
-0.662718 1.310725 -1.136683
-0.654685 1.313637 -1.138265
-0.649694 1.323025 -1.145331
-0.641928 1.326638 -1.147505
-0.634790 1.331657 -1.150870
-0.627729 1.336917 -1.154441
-0.621696 1.344574 -1.160041
-0.615188 1.351293 -1.164850
-0.608745 1.358283 -1.169892
-0.601020 1.362365 -1.172489
-0.592857 1.365422 -1.174233
-0.583702 1.366051 -1.173946
-0.575751 1.369590 -1.176120
-0.568674 1.375362 -1.180182
-0.562572 1.383737 -1.186441
-0.564946 1.414528 -1.211515
-0.601887 1.538591 -1.314784
-0.595716 1.549854 -1.323416
-0.585337 1.549760 -1.322545
-0.575214 1.550261 -1.322191
-0.562043 1.541902 -1.314446
-0.552959 1.545066 -1.316362
-0.542671 1.544637 -1.315292
-0.528144 1.531169 -1.303353
-0.508073 1.499825 -1.276524
-0.397857 1.181478 -1.010298
-0.389447 1.179038 -1.007778
-0.381279 1.177209 -1.005783
-0.476429 1.523757 -1.294036
-0.476955 1.559193 -1.322975
-0.467693 1.561602 -1.324415
-0.458011 1.562495 -1.324610
-0.449715 1.568425 -1.329012
-0.440272 1.570197 -1.329970
-0.429216 1.565708 -1.325741
-0.418493 1.562206 -1.322352
-0.408574 1.561688 -1.321459
-0.399898 1.566213 -1.324770
-0.390871 1.569373 -1.326962
-0.381474 1.570977 -1.327877
-0.371272 1.568927 -1.325776
-0.361866 1.570359 -1.326577
-0.352681 1.572834 -1.328257
-0.343025 1.573036 -1.328068
-0.333082 1.571695 -1.326614
-0.323239 1.570694 -1.325457
-0.313585 1.570555 -1.325027
-0.305496 1.579077 -1.331781
-0.297285 1.587395 -1.338377
-0.286268 1.579370 -1.331459
-0.275899 1.574685 -1.327319
-0.266430 1.575376 -1.327640
-0.259563 1.593569 -1.342448
-0.250428 1.597282 -1.345290
-0.240733 1.597120 -1.344939
-0.229783 1.587221 -1.336550
-0.219265 1.579753 -1.330185
-0.210610 1.587189 -1.336150
-0.201170 1.588351 -1.336940
-0.191961 1.591726 -1.339568
-0.182121 1.589124 -1.337270
-0.172559 1.589059 -1.337079
-0.162929 1.588125 -1.336179
-0.151990 1.571091 -1.321995
-0.142039 1.564242 -1.316233
-0.134320 1.587811 -1.335599
-0.125360 1.596430 -1.342629
-0.115799 1.596450 -1.342567
-0.105292 1.578402 -1.327600
-0.095226 1.565142 -1.316596
-0.086177 1.572861 -1.322920
-0.077084 1.581880 -1.330328
-0.067549 1.579194 -1.328081
-0.058080 1.577914 -1.327005
-0.048885 1.591706 -1.338380
-0.039456 1.599149 -1.344522
-0.029844 1.587791 -1.335156
-0.020368 1.574978 -1.324596
-0.010971 1.573009 -1.322999
-0.001438 1.583512 -1.331705
0.008014 1.582960 -1.331295
0.017296 1.575706 -1.325362
0.026322 1.562822 -1.314789
0.035743 1.564892 -1.316571
0.045630 1.577329 -1.326923
0.054467 1.564924 -1.316772
0.064198 1.571622 -1.322405
0.073597 1.571428 -1.322357
0.082863 1.569195 -1.320634
0.092860 1.577379 -1.327526
0.036524 0.681845 -0.587894
0.040363 0.678605 -0.585288
0.044052 0.674184 -0.581709
0.047973 0.672514 -0.580408
0.051369 0.666143 -0.575224
0.055998 0.671220 -0.579510
0.061153 0.680150 -0.586988
0.065626 0.682782 -0.589263
0.069761 0.682568 -0.589190
0.073956 0.682783 -0.589478
0.077681 0.679670 -0.587016
0.082137 0.681648 -0.588774
0.086425 0.682365 -0.589492
0.090416 0.681152 -0.588619
0.094659 0.681490 -0.589035
0.099155 0.683219 -0.590609
0.103736 0.685266 -0.592454
0.108440 0.687799 -0.594709
0.112196 0.685206 -0.592720
0.115829 0.682116 -0.590324
0.120054 0.682059 -0.590449
0.123924 0.680277 -0.589149
0.127922 0.679149 -0.588398
0.132091 0.678807 -0.588305
0.136347 0.678816 -0.588510
0.140439 0.678089 -0.588111
0.145459 0.681194 -0.590904
0.149870 0.681646 -0.591500
0.152869 0.676469 -0.587420
0.156942 0.675622 -0.586948
0.161090 0.675048 -0.586711
0.164851 0.673038 -0.585284
0.168899 0.672096 -0.584754
0.172610 0.669973 -0.583246
0.176699 0.669186 -0.582858
0.181118 0.669493 -0.583392
0.185481 0.669554 -0.583728
0.189678 0.669030 -0.583585
0.193925 0.668632 -0.583554
0.198057 0.667850 -0.583210
0.202979 0.669434 -0.584854
0.207781 0.670552 -0.586118
0.211820 0.669357 -0.585453
0.214538 0.664377 -0.581623
0.218880 0.664087 -0.581731
0.222551 0.661907 -0.580260
0.226348 0.660094 -0.579104
0.231135 0.660926 -0.580177
0.233890 0.656373 -0.576730
0.238446 0.656546 -0.577264
0.242164 0.654550 -0.575980
0.248011 0.657848 -0.579163
0.252472 0.657608 -0.579373
0.256505 0.656304 -0.578691
0.260278 0.654379 -0.577491
0.264945 0.654544 -0.578062
0.268870 0.652965 -0.577163
0.273843 0.653744 -0.578265
0.278893 0.654631 -0.579463
0.280456 0.647850 -0.574164
0.285367 0.648421 -0.575100
0.292967 0.654623 -0.580822
0.296103 0.651311 -0.578466
0.299873 0.649366 -0.577270
0.304526 0.649235 -0.577615
0.309449 0.649622 -0.578401
0.314213 0.649663 -0.578889
0.318699 0.649149 -0.578899
0.323105 0.648482 -0.578773
0.327529 0.647860 -0.578677
0.331113 0.645686 -0.577244
0.335813 0.645620 -0.577604
0.339539 0.643798 -0.576446
0.344598 0.644417 -0.577366
0.348516 0.643023 -0.576544
0.353308 0.643208 -0.577059
0.358718 0.644481 -0.578490
0.365093 0.647396 -0.581313
0.367678 0.643911 -0.578612
0.372396 0.644094 -0.579040
0.377225 0.644504 -0.579638
0.381215 0.643597 -0.579074
0.386021 0.644079 -0.579678
0.391194 0.645196 -0.580799
0.395776 0.645428 -0.581127
0.399731 0.644755 -0.580643
0.403737 0.644247 -0.580268
0.409386 0.646332 -0.582095
0.415029 0.648448 -0.583914
0.418449 0.647288 -0.582874
0.421345 0.645459 -0.581222
0.424712 0.644443 -0.580238
0.430567 0.647151 -0.582427
0.432797 0.644677 -0.580117
0.439091 0.648146 -0.582891
0.444090 0.649812 -0.584078
0.449534 0.652169 -0.585824
-0.995014 1.322030 -1.168232
-0.979930 1.311388 -1.159778
-0.974446 1.314110 -1.162821
-0.969361 1.317619 -1.166482
-0.963464 1.320225 -1.169296
-0.956441 1.321457 -1.170852
-0.749629 1.054654 -0.940327
-0.743468 1.055477 -0.941205
-0.731593 1.047939 -0.934766
-0.716464 1.035496 -0.924011
-0.709041 1.034654 -0.923272
-0.701303 1.033441 -0.922156
-0.694388 1.033601 -0.922178
-0.686950 1.033061 -0.921541
-0.680348 1.033947 -0.922090
-0.677156 1.040423 -0.927439
-0.674533 1.048067 -0.933748
-0.667033 1.047977 -0.933305
-0.628299 1.008179 -0.897983
-0.615427 0.998693 -0.889305
-0.602423 1.001356 -0.890583
-0.595624 1.002274 -0.890819
-0.709321 1.268402 -1.117642
-0.709110 1.285517 -1.131549
-0.702942 1.291703 -1.136019
-0.695019 1.294637 -1.137672
-0.686575 1.296598 -1.138477
-0.679185 1.300676 -1.141091
-0.671681 1.304591 -1.143555
-0.664005 1.308215 -1.145764
-0.659859 1.319238 -1.154303
-0.651159 1.320895 -1.154818
-0.642576 1.322780 -1.155530
-0.635430 1.327777 -1.158905
-0.627988 1.332190 -1.161783
-0.620267 1.336028 -1.164175
-0.615914 1.347593 -1.173157
-0.608758 1.352930 -1.176832
-0.602483 1.360423 -1.182350
-0.593642 1.361905 -1.182761
-0.585215 1.364345 -1.183999
-0.576734 1.366630 -1.185117
-0.571024 1.375878 -1.192157
-0.563451 1.380560 -1.195332
-0.558354 1.391763 -1.204044
-0.591736 1.505588 -1.299660
-0.587116 1.520533 -1.311495
-0.584674 1.541914 -1.328776
-0.571086 1.532665 -1.320165
-0.561683 1.534919 -1.321301
-0.552913 1.538985 -1.323985
-0.544081 1.542902 -1.326558
-0.532348 1.538057 -1.321759
-0.514590 1.514264 -1.301013
-0.405760 1.201923 -1.037227
-0.393251 1.186819 -1.023998
-0.382958 1.178277 -1.016320
-0.474637 1.545382 -1.324058
-0.468031 1.556950 -1.333200
-0.456440 1.551028 -1.327659
-0.446285 1.549995 -1.326246
-0.438153 1.556412 -1.331105
-0.429185 1.559810 -1.333443
-0.418870 1.557945 -1.331383
-0.409646 1.560296 -1.332876
-0.398951 1.556551 -1.329275
-0.390415 1.561707 -1.333150
-0.379795 1.557910 -1.329538
-0.369509 1.555304 -1.326943
-0.359254 1.552588 -1.324272
-0.349140 1.550285 -1.321964
-0.339381 1.549483 -1.320927
-0.331539 1.558239 -1.327899
-0.321339 1.555139 -1.324968
-0.311091 1.551484 -1.321588
-0.303190 1.560576 -1.328876
-0.296787 1.578869 -1.343864
-0.286294 1.573913 -1.339435
-0.274551 1.560724 -1.328147
-0.265890 1.566307 -1.332550
-0.258325 1.579615 -1.343413
-0.249829 1.587443 -1.349711
-0.239338 1.581280 -1.344342
-0.228496 1.571779 -1.336201
-0.218350 1.566849 -1.331888
-0.208739 1.565843 -1.330862
-0.199693 1.569652 -1.333864
-0.191616 1.582888 -1.344737
-0.182423 1.586527 -1.347617
-0.172579 1.583669 -1.345089
-0.162387 1.576419 -1.338912
-0.151419 1.558643 -1.323971
-0.141834 1.556033 -1.321685
-0.133363 1.568647 -1.332099
-0.124888 1.583448 -1.344345
-0.114996 1.577079 -1.338956
-0.104914 1.565574 -1.329298
-0.095273 1.560451 -1.324969
-0.086449 1.573750 -1.336001
-0.077265 1.581194 -1.342163
-0.067334 1.565794 -1.329300
-0.058051 1.570516 -1.333213
-0.048816 1.581220 -1.342121
-0.039449 1.591439 -1.350635
-0.029853 1.580520 -1.341544
-0.020390 1.566354 -1.329758
-0.011040 1.560344 -1.324777
-0.001717 1.557775 -1.322673
0.007713 1.562548 -1.326697
0.017063 1.561704 -1.326050
0.026328 1.558362 -1.323330
0.035434 1.551685 -1.317841
0.045392 1.566866 -1.330579
0.054181 1.554124 -1.320053
0.063328 1.550687 -1.317292
0.073023 1.556943 -1.322622
0.082205 1.554263 -1.320512
0.091777 1.557350 -1.323221
0.040427 0.677086 -0.589408
0.044309 0.674616 -0.587425
0.047750 0.668106 -0.582075
0.051310 0.663373 -0.578212
0.055307 0.662933 -0.577934
0.059892 0.667384 -0.581745
0.064581 0.672204 -0.585871
0.069297 0.676758 -0.589781
0.073305 0.675761 -0.589060
0.076942 0.672238 -0.586235
0.081103 0.672454 -0.586538
0.085603 0.674774 -0.588606
0.089692 0.674356 -0.588391
0.093643 0.673115 -0.587493
0.097863 0.673460 -0.587927
0.102500 0.676051 -0.590246
0.106198 0.673409 -0.588194
0.110667 0.674894 -0.589600
0.114368 0.672383 -0.587669
0.119284 0.675906 -0.590795
0.123274 0.674798 -0.590051
0.127285 0.673810 -0.589413
0.131377 0.673196 -0.589094
0.135297 0.671825 -0.588149
0.139071 0.669867 -0.586715
0.142753 0.667580 -0.585012
0.147357 0.669075 -0.586491
0.151173 0.667359 -0.585280
0.156177 0.670231 -0.587932
0.159901 0.668135 -0.586416
0.164082 0.667756 -0.586351
0.168157 0.666972 -0.585953
0.172093 0.665688 -0.585141
0.175961 0.664182 -0.584149
0.180393 0.664575 -0.584765
0.184688 0.664454 -0.584956
0.188126 0.661544 -0.582801
0.192635 0.662064 -0.583548
0.197178 0.662617 -0.584333
0.200397 0.659109 -0.581694
0.204486 0.658256 -0.581305
0.209080 0.658850 -0.582148
0.212887 0.657131 -0.581042
0.217157 0.656718 -0.581050
0.221606 0.656762 -0.581453
0.225611 0.655555 -0.580803
0.229022 0.652770 -0.578821
0.232452 0.650082 -0.576926
0.236665 0.649437 -0.576773
0.241386 0.650039 -0.577687
0.246073 0.650488 -0.578479
0.251034 0.651540 -0.579793
0.254550 0.649059 -0.578104
0.258825 0.648395 -0.577969
0.263194 0.647924 -0.578003
0.267656 0.647636 -0.578199
0.272178 0.647447 -0.578484
0.276673 0.647166 -0.578695
0.280534 0.645478 -0.577703
0.284819 0.644710 -0.577501
0.288819 0.643331 -0.576777
0.293228 0.642810 -0.576788
0.297765 0.642537 -0.577011
0.303207 0.644070 -0.578787
0.308019 0.644285 -0.579428
0.311439 0.641750 -0.577696
0.314014 0.637640 -0.574599
0.320122 0.640361 -0.577384
0.324657 0.640048 -0.577544
0.328617 0.638676 -0.576780
0.332658 0.637492 -0.576164
0.336455 0.635906 -0.575188
0.340933 0.635589 -0.575293
0.346594 0.637379 -0.577207
0.350124 0.635448 -0.575879
0.354832 0.635616 -0.576350
0.358427 0.633927 -0.575187
0.363027 0.634002 -0.575532
0.368458 0.635498 -0.577086
0.374072 0.637309 -0.578888
0.378179 0.636696 -0.578556
0.383111 0.637476 -0.579407
0.389205 0.640146 -0.581870
0.393002 0.639228 -0.581181
0.396703 0.638254 -0.580410
0.401004 0.638295 -0.580489
0.406212 0.639793 -0.581802
0.412158 0.642455 -0.584094
0.416129 0.642206 -0.583817
0.415847 0.635766 -0.578119
0.421123 0.637665 -0.579642
0.427403 0.641076 -0.582444
0.432971 0.643492 -0.584344
0.433575 0.638878 -0.580101
0.440174 0.642910 -0.583337
0.443125 0.641848 -0.582114
-0.982202 1.311915 -1.170714
-0.976879 1.314799 -1.173967
-0.973337 1.320403 -1.179535
-0.965426 1.320124 -1.179894
-0.951307 1.311200 -1.172618
-0.747774 1.049359 -0.944389
-0.735242 1.040693 -0.936993
-0.722394 1.031537 -0.929108
-0.711125 1.024710 -0.923205
-0.703333 1.023155 -0.921867
-0.696596 1.023311 -0.921973
-0.689135 1.022475 -0.921155
-0.682162 1.022502 -0.921041
-0.677655 1.026542 -0.924389
-0.640029 0.988962 -0.890955
-0.629748 0.983614 -0.885951
-0.619024 0.989242 -0.890104
-0.614495 0.993671 -0.893532
-0.737034 1.263499 -1.126701
-0.728909 1.265528 -1.127718
-0.720851 1.267752 -1.128874
-0.715506 1.275072 -1.134439
-0.710108 1.282491 -1.140060
-0.704014 1.288780 -1.144672
-0.696352 1.292201 -1.146773
-0.687776 1.293897 -1.147363
-0.680160 1.297516 -1.149608
-0.673347 1.302813 -1.153296
-0.667727 1.310654 -1.159176
-0.659655 1.313584 -1.160798
-0.653367 1.320293 -1.165682
-0.644580 1.321793 -1.166065
-0.638348 1.328812 -1.171212
-0.628578 1.328166 -1.169749
-0.621208 1.332795 -1.172839
-0.614877 1.339845 -1.178017
-0.608259 1.346367 -1.182744
-0.600693 1.350779 -1.185661
-0.593944 1.357189 -1.190302
-0.586304 1.361550 -1.193191
-0.580271 1.369929 -1.199535
-0.572030 1.372938 -1.201283
-0.565149 1.379424 -1.206022
-0.558351 1.386247 -1.211058
-0.581507 1.499420 -1.306216
-0.576325 1.512929 -1.316940
-0.570991 1.526396 -1.327632
-0.561283 1.527785 -1.328029
-0.551597 1.529167 -1.328438
-0.541975 1.530675 -1.328973
-0.530206 1.525636 -1.323951
-0.512891 1.503185 -1.304134
-0.391555 1.176816 -1.025315
-0.383679 1.176129 -1.024228
-0.470152 1.524170 -1.318747
-0.464396 1.538343 -1.330182
-0.455109 1.540417 -1.331361
-0.444301 1.536904 -1.327822
-0.435641 1.541161 -1.330887
-0.428298 1.550575 -1.338336
-0.420268 1.557641 -1.343808
-0.408098 1.548253 -1.335365
-0.396613 1.541111 -1.328845
-0.387027 1.541546 -1.328756
-0.377279 1.541194 -1.328016
-0.369129 1.547885 -1.333248
-0.359002 1.545738 -1.331022
-0.348011 1.539255 -1.325150
-0.337386 1.534075 -1.320397
-0.329324 1.541400 -1.326221
-0.321068 1.548090 -1.331519
-0.310705 1.543790 -1.327554
-0.301857 1.547526 -1.330385
-0.294020 1.557251 -1.338280
-0.284764 1.559122 -1.339563
-0.274432 1.554377 -1.335279
-0.264603 1.552407 -1.333349
-0.256288 1.560322 -1.339766
-0.247421 1.564961 -1.343430
-0.236964 1.558334 -1.337615
-0.227512 1.558669 -1.337679
-0.217707 1.556120 -1.335325
-0.208225 1.555941 -1.334981
-0.198377 1.552415 -1.331829
-0.188573 1.548814 -1.328627
-0.180745 1.564265 -1.341475
-0.171737 1.569160 -1.345446
-0.161069 1.555979 -1.334214
-0.150911 1.546940 -1.326481
-0.141837 1.550495 -1.329358
-0.133111 1.559467 -1.336803
-0.124268 1.568201 -1.344057
-0.114803 1.568087 -1.343877
-0.104775 1.557248 -1.334685
-0.095446 1.558420 -1.335608
-0.086376 1.566145 -1.342053
-0.076852 1.563483 -1.339771
-0.066962 1.547037 -1.325905
-0.057654 1.547176 -1.326000
-0.048751 1.570903 -1.345944
-0.039361 1.576370 -1.350540
-0.029842 1.569245 -1.344555
-0.020409 1.560312 -1.337059
-0.011110 1.547502 -1.326312
-0.001887 1.540666 -1.320599
0.007395 1.541262 -1.321147
0.017011 1.555056 -1.332808
0.026383 1.555483 -1.333234
0.035840 1.558003 -1.335431
0.044771 1.547416 -1.326612
0.053767 1.540709 -1.321066
0.063310 1.545406 -1.325126
0.072924 1.550285 -1.329350
0.082564 1.554607 -1.333116
0.091756 1.551978 -1.331043
0.100261 1.540927 -1.321890
0.108913 1.533110 -1.315469
0.044356 0.672845 -0.591337
0.048047 0.668750 -0.587973
0.051323 0.661251 -0.581745
0.055257 0.660245 -0.580991
0.059417 0.661179 -0.581877
0.063442 0.660927 -0.581768
0.068436 0.667955 -0.587802
0.072177 0.665312 -0.585689
0.076454 0.666557 -0.586859
0.080537 0.666372 -0.586829
0.084464 0.665180 -0.585955
0.088575 0.665160 -0.586075
0.092952 0.666679 -0.587501
0.097143 0.666995 -0.587918
0.101297 0.667045 -0.588115
0.105154 0.665467 -0.586944
0.108922 0.663491 -0.585442
0.113240 0.664348 -0.586340
0.118038 0.667446 -0.589140
0.122714 0.669742 -0.591271
0.126725 0.668823 -0.590688
0.130549 0.667081 -0.589416
0.134295 0.665050 -0.587905
0.138315 0.664241 -0.587435
0.141950 0.661844 -0.585626
0.145702 0.659993 -0.584286
0.149942 0.660096 -0.584609
0.153745 0.658479 -0.583481
0.159065 0.662544 -0.587182
0.163314 0.662480 -0.587387
0.167617 0.662563 -0.587726
0.171020 0.659464 -0.585368
0.175154 0.658938 -0.585203
0.179444 0.658906 -0.585468
0.183166 0.656977 -0.584125
0.186736 0.654592 -0.582400
0.190318 0.652295 -0.580757
0.194870 0.653008 -0.581687
0.199952 0.655239 -0.583921
0.203081 0.651580 -0.581138
0.206949 0.650143 -0.580258
0.211055 0.649387 -0.579967
0.215711 0.650139 -0.580973
0.220950 0.652406 -0.583285
0.224912 0.651113 -0.582560
0.228131 0.647860 -0.580161
0.231446 0.644919 -0.578034
0.235512 0.643942 -0.577597
0.240414 0.645041 -0.578951
0.244761 0.644690 -0.579065
0.249110 0.644308 -0.579161
0.253422 0.643803 -0.579157
0.256854 0.641212 -0.577361
0.261388 0.641196 -0.577788
0.266043 0.641413 -0.578421
0.271140 0.642567 -0.579868
0.275441 0.641900 -0.579747
0.280244 0.642301 -0.580552
0.284682 0.641876 -0.580646
0.287485 0.638003 -0.577752
0.291871 0.637488 -0.577766
0.296421 0.637293 -0.578056
0.300375 0.635887 -0.577292
0.304735 0.635301 -0.577236
0.308477 0.633514 -0.576129
0.312661 0.632614 -0.575787
0.317078 0.632172 -0.575836
0.321527 0.631800 -0.575935
0.326594 0.632580 -0.577029
0.330253 0.630779 -0.575859
0.334886 0.630791 -0.576255
0.338628 0.629236 -0.575267
0.343085 0.628995 -0.575408
0.346682 0.627296 -0.574254
0.352495 0.629463 -0.576464
0.356629 0.628777 -0.576153
0.360480 0.627679 -0.575455
0.366704 0.630569 -0.578230
0.371427 0.630998 -0.578818
0.376213 0.631574 -0.579507
0.380887 0.632022 -0.580055
0.385825 0.632943 -0.580986
0.390429 0.633393 -0.581471
0.394367 0.632874 -0.581073
0.397796 0.631666 -0.580035
0.401273 0.630633 -0.579116
0.409494 0.636822 -0.584507
0.411046 0.633061 -0.581123
0.413957 0.631457 -0.579598
0.416801 0.629871 -0.578056
0.424204 0.634999 -0.582372
0.427212 0.633819 -0.581117
0.433470 0.637373 -0.583980
0.431349 0.629128 -0.576465
0.438419 0.633977 -0.580396
-0.980750 1.307368 -1.177204
-0.979732 1.316114 -1.185693
-0.975326 1.320449 -1.190235
-0.967768 1.320604 -1.191024
-0.948766 1.304712 -1.177569
-0.713544 1.006222 -0.915148
-0.703449 1.010513 -0.919228
-0.698117 1.012491 -0.921036
-0.687274 1.006220 -0.915489
-0.677493 1.001582 -0.911333
-0.661536 0.987335 -0.898624
-0.648985 0.978263 -0.890444
-0.637366 0.981544 -0.892891
-0.634210 0.987708 -0.898041
-0.755842 1.244034 -1.122546
-0.749294 1.248330 -1.125710
-0.747947 1.261901 -1.137005
-0.741376 1.266598 -1.140433
-0.730731 1.264129 -1.137517
-0.725928 1.272262 -1.143898
-0.718073 1.274992 -1.145495
-0.711957 1.281056 -1.149994
-0.705604 1.286835 -1.154216
-0.698668 1.291640 -1.157560
-0.688788 1.290817 -1.155953
-0.681058 1.294190 -1.158011
-0.676078 1.303145 -1.164941
-0.667820 1.305638 -1.166205
-0.660966 1.311055 -1.170017
-0.653316 1.314903 -1.172453
-0.647442 1.322586 -1.178230
-0.638507 1.323815 -1.178378
-0.629638 1.325148 -1.178620
-0.622203 1.329641 -1.181617
-0.615507 1.335868 -1.186125
-0.609351 1.343451 -1.191813
-0.601622 1.347505 -1.194440
-0.594137 1.352180 -1.197613
-0.587616 1.359243 -1.202864
-0.580030 1.363825 -1.205971
-0.572479 1.368550 -1.209213
-0.565205 1.374038 -1.213125
-0.562380 1.391143 -1.227085
-0.574721 1.475222 -1.298038
-0.574912 1.503057 -1.321220
-0.568596 1.513678 -1.329555
-0.560158 1.518554 -1.332949
-0.548204 1.513325 -1.327659
-0.537169 1.510484 -1.324450
-0.525481 1.505446 -1.319374
-0.516821 1.509377 -1.322029
-0.392181 1.174244 -1.032935
-0.386753 1.181606 -1.038734
-0.467352 1.508764 -1.318180
-0.461350 1.521833 -1.328771
-0.454805 1.533446 -1.338123
-0.443349 1.527577 -1.332520
-0.432328 1.522942 -1.327996
-0.427568 1.541915 -1.343685
-0.419004 1.546808 -1.347342
-0.407640 1.540590 -1.341516
-0.393805 1.523751 -1.326638
-0.385196 1.528030 -1.329823
-0.375961 1.529713 -1.330805
-0.368541 1.539498 -1.338719
-0.357990 1.535348 -1.334753
-0.346832 1.527979 -1.328061
-0.336377 1.523493 -1.323845
-0.327581 1.526966 -1.326432
-0.319734 1.535478 -1.333327
-0.309402 1.531150 -1.329292
-0.300247 1.532946 -1.330491
-0.291676 1.538119 -1.334579
-0.282349 1.539085 -1.335097
-0.271668 1.531675 -1.328499
-0.263703 1.541001 -1.336159
-0.254784 1.544625 -1.338979
-0.245086 1.543055 -1.337391
-0.236192 1.547089 -1.340583
-0.226337 1.544104 -1.337819
-0.217270 1.547016 -1.340081
-0.207709 1.546002 -1.339018
-0.196995 1.534629 -1.329161
-0.187615 1.534308 -1.328713
-0.179201 1.543381 -1.336258
-0.170726 1.552879 -1.344174
-0.160523 1.544227 -1.336681
-0.151039 1.542871 -1.335398
-0.142062 1.547773 -1.339442
-0.133628 1.561043 -1.350603
-0.124508 1.566152 -1.354843
-0.114852 1.563162 -1.352216
-0.104711 1.550303 -1.341219
-0.095251 1.548493 -1.339616
-0.085821 1.546808 -1.338130
-0.076261 1.540749 -1.332940
-0.066621 1.529357 -1.323234
-0.057350 1.527922 -1.321992
-0.048419 1.545100 -1.336563
-0.039191 1.554078 -1.344182
-0.029785 1.549258 -1.340096
-0.020441 1.538509 -1.330988
-0.011203 1.531142 -1.324761
-0.001985 1.529101 -1.323065
0.007344 1.534216 -1.327456
0.016721 1.538769 -1.331380
0.026121 1.542209 -1.334370
0.035221 1.536286 -1.329420
0.044183 1.528752 -1.323111
0.053721 1.534805 -1.328351
0.063022 1.535135 -1.328743
0.072861 1.544185 -1.336552
0.082139 1.543131 -1.335789
0.091538 1.543842 -1.336537
0.100115 1.533951 -1.328287
0.108421 1.522187 -1.318454
0.117959 1.525464 -1.321414
0.048119 0.667170 -0.592037
0.051543 0.661007 -0.586889
0.055298 0.658331 -0.584710
0.058845 0.654177 -0.581278
0.062285 0.649538 -0.577436
0.066911 0.654193 -0.581509
0.071624 0.659025 -0.585739
0.075558 0.658065 -0.585046
0.079427 0.656709 -0.584020
0.083834 0.658839 -0.585969
0.088172 0.660353 -0.587400
0.092420 0.661187 -0.588259
0.096734 0.662298 -0.589359
0.100637 0.661039 -0.588445
0.104225 0.658152 -0.586150
0.108207 0.657433 -0.585709
0.112484 0.658185 -0.586528
0.116558 0.657871 -0.586446
0.121261 0.660491 -0.588875
0.125517 0.660876 -0.589404
0.129482 0.659907 -0.588782
0.133480 0.659092 -0.588300
0.136461 0.654002 -0.584168
0.139627 0.649888 -0.580874
0.144346 0.652134 -0.583029
0.148684 0.652739 -0.583788
0.152902 0.652815 -0.584102
0.157208 0.653170 -0.584663
0.161531 0.653520 -0.585228
0.164444 0.648817 -0.581467
0.168627 0.648672 -0.581622
0.173558 0.651022 -0.583928
0.177843 0.651081 -0.584275
0.181486 0.649004 -0.582795
0.185244 0.647330 -0.581668
0.188694 0.644717 -0.579739
0.192894 0.644445 -0.579834
0.197583 0.645600 -0.581165
0.201989 0.645832 -0.581710
0.205955 0.644737 -0.581120
0.209833 0.643385 -0.580315
0.214079 0.643054 -0.580400
0.219127 0.644869 -0.582347
0.223848 0.645696 -0.583449
0.226977 0.642263 -0.580874
0.230374 0.639592 -0.578963
0.234427 0.638629 -0.578536
0.238531 0.637777 -0.578213
0.241825 0.634923 -0.576157
0.246055 0.634374 -0.576107
0.249961 0.633028 -0.575370
0.254785 0.633824 -0.576501
0.259693 0.634744 -0.577747
0.264270 0.634846 -0.578285
0.268144 0.633346 -0.577430
0.272872 0.633721 -0.578214
0.277002 0.632762 -0.577836
0.281615 0.632825 -0.578352
0.286563 0.633555 -0.579451
0.290287 0.631718 -0.578305
0.294638 0.631181 -0.578293
0.298723 0.630107 -0.577806
0.302888 0.629204 -0.577465
0.307076 0.628357 -0.577166
0.311141 0.627290 -0.576666
0.315216 0.626267 -0.576195
0.320052 0.626689 -0.576984
0.324202 0.625843 -0.576645
0.329542 0.627189 -0.578225
0.332603 0.624428 -0.576168
0.337132 0.624355 -0.576464
0.340828 0.622854 -0.575479
0.347156 0.625960 -0.578546
0.350759 0.624382 -0.577450
0.355047 0.624033 -0.577417
0.360656 0.625938 -0.579353
0.363636 0.623521 -0.577437
0.369203 0.625422 -0.579316
0.374511 0.626924 -0.580812
0.378894 0.626982 -0.580999
0.382618 0.626070 -0.580293
0.387100 0.626428 -0.580681
0.391184 0.626239 -0.580550
0.394509 0.624971 -0.579428
0.397564 0.623399 -0.578002
0.401412 0.623124 -0.577692
0.405994 0.624027 -0.578390
0.410594 0.625024 -0.579138
0.416012 0.627281 -0.580966
0.418960 0.626016 -0.579640
0.424710 0.628873 -0.581929
0.425991 0.625422 -0.578601
0.428434 0.623752 -0.576817
0.427861 0.617976 -0.571375
-0.978817 1.312263 -1.192860
-0.972068 1.313235 -1.194489
-0.964144 1.312753 -1.194757
-0.960891 1.319060 -1.201008
-0.939912 1.300351 -1.184883
-0.732551 1.013139 -0.929120
-0.711844 0.992148 -0.910706
-0.701825 0.986580 -0.905994
-0.698149 0.990429 -0.909633
-0.690403 0.988402 -0.907970
-0.681959 0.985415 -0.905393
-0.662579 0.965835 -0.887939
-0.654953 0.974231 -0.895349
-0.649129 0.975573 -0.896424
-0.771593 1.221758 -1.115042
-0.769544 1.232842 -1.124476
-0.766394 1.242428 -1.132516
-0.761236 1.248912 -1.137736
-0.755895 1.255311 -1.142829
-0.751255 1.263158 -1.149162
-0.743266 1.265335 -1.150405
-0.734370 1.265988 -1.150256
-0.724109 1.264211 -1.147916
-0.721577 1.276621 -1.158141
-0.713731 1.279474 -1.159850
-0.706178 1.282961 -1.162095
-0.699888 1.288957 -1.166539
-0.695953 1.299679 -1.175142
-0.685381 1.297605 -1.172404
-0.676723 1.299263 -1.172957
-0.670170 1.305196 -1.177276
-0.661727 1.307367 -1.178263
-0.655803 1.314810 -1.183894
-0.648855 1.320247 -1.187748
-0.640206 1.322118 -1.188459
-0.632054 1.325062 -1.190115
-0.626544 1.333889 -1.196944
-0.621999 1.345097 -1.205859
-0.613250 1.346934 -1.206548
-0.603843 1.347205 -1.205873
-0.595779 1.350574 -1.207924
-0.587636 1.353768 -1.209830
-0.580275 1.358889 -1.213432
-0.572403 1.362809 -1.215992
-0.565763 1.369889 -1.221324
-0.559628 1.378415 -1.227925
-0.557474 1.397601 -1.243830
-0.559904 1.429643 -1.270933
-0.571547 1.487851 -1.320807
-0.566568 1.501984 -1.332273
-0.555335 1.498849 -1.328723
-0.544938 1.497881 -1.327080
-0.534988 1.498070 -1.326464
-0.527404 1.505243 -1.331931
-0.517391 1.505155 -1.331109
-0.397219 1.185667 -1.052736
-0.390417 1.188886 -1.054984
-0.467742 1.504217 -1.326874
-0.460693 1.513645 -1.334404
-0.453725 1.523682 -1.342473
-0.440030 1.509627 -1.329729
-0.430524 1.510376 -1.329805
-0.424479 1.524235 -1.341219
-0.416226 1.530051 -1.345700
-0.404541 1.522312 -1.338498
-0.393368 1.516165 -1.332692
-0.383104 1.513418 -1.329839
-0.374708 1.518506 -1.333757
-0.365270 1.519136 -1.333849
-0.355972 1.520339 -1.334450
-0.346686 1.521562 -1.335084
-0.337002 1.520832 -1.334052
-0.327410 1.520412 -1.333303
-0.319428 1.528183 -1.339617
-0.308879 1.522667 -1.334513
-0.298710 1.518775 -1.330824
-0.291500 1.531422 -1.341370
-0.282342 1.533357 -1.342717
-0.271236 1.523373 -1.333837
-0.261534 1.521474 -1.331919
-0.253650 1.531412 -1.340183
-0.244471 1.533126 -1.341396
-0.234912 1.532158 -1.340317
-0.225473 1.531907 -1.339868
-0.215512 1.527404 -1.335782
-0.206064 1.526635 -1.334914
-0.196481 1.524499 -1.332886
-0.186989 1.522892 -1.331325
-0.178632 1.532144 -1.339090
-0.169416 1.533510 -1.340103
-0.160465 1.537925 -1.343741
-0.150433 1.529968 -1.336782
-0.141834 1.539156 -1.344535
-0.133247 1.549971 -1.353694
-0.124136 1.554693 -1.357638
-0.114574 1.552689 -1.355829
-0.104560 1.541689 -1.346319
-0.094917 1.535624 -1.341052
-0.085438 1.531666 -1.337601
-0.076016 1.527899 -1.334325
-0.066541 1.520666 -1.328090
-0.057312 1.520148 -1.327621
-0.048240 1.528259 -1.334558
-0.039094 1.538321 -1.343177
-0.029744 1.532594 -1.338276
-0.020470 1.519176 -1.326793
-0.011262 1.519833 -1.327384
-0.001979 1.525679 -1.332433
0.007373 1.531390 -1.337376
0.016497 1.525117 -1.332059
0.025769 1.525999 -1.332886
0.034809 1.520253 -1.328041
0.043912 1.517509 -1.325780
0.053517 1.525643 -1.332856
0.063316 1.535435 -1.341366
0.071059 1.509528 -1.319276
0.080349 1.511290 -1.320922
0.090701 1.527220 -1.334730
0.100168 1.529449 -1.336801
0.108555 1.518608 -1.327671
0.117823 1.518789 -1.328008
0.128096 1.529200 -1.337135
0.051666 0.659836 -0.591279
0.055218 0.655346 -0.587524
0.058607 0.649934 -0.582982
0.062071 0.645580 -0.579352
0.065746 0.643173 -0.577399
0.070009 0.645148 -0.579216
0.074516 0.648587 -0.582297
0.078810 0.650314 -0.583914
0.083374 0.653583 -0.586862
0.087731 0.655305 -0.588488
0.091316 0.652331 -0.586081
0.095745 0.654309 -0.587941
0.099945 0.654862 -0.588581
0.103601 0.652459 -0.586682
0.107325 0.650517 -0.585187
0.111301 0.649902 -0.584839
0.115435 0.650050 -0.585157
0.119974 0.652038 -0.587067
0.124387 0.653301 -0.588361
0.128726 0.654121 -0.589280
0.132566 0.652710 -0.588281
0.136427 0.651419 -0.587392
0.139952 0.648775 -0.585342
0.143349 0.645713 -0.582935
0.147630 0.646186 -0.583591
0.152081 0.647233 -0.584752
0.155617 0.644803 -0.582912
0.159782 0.644712 -0.583104
0.163474 0.642907 -0.581818
0.167492 0.642263 -0.581546
0.171921 0.642985 -0.582466
0.176018 0.642532 -0.582375
0.179889 0.641319 -0.581633
0.183272 0.638562 -0.579557
0.187357 0.638044 -0.579434
0.191799 0.638589 -0.580242
0.196009 0.638368 -0.580392
0.201261 0.641153 -0.583169
0.205113 0.639769 -0.582325
0.208744 0.637767 -0.580949
0.212999 0.637513 -0.581104
0.217510 0.637911 -0.581837
0.221885 0.637885 -0.582208
0.225362 0.635464 -0.580492
0.229406 0.634536 -0.580089
0.233420 0.633518 -0.579613
0.237145 0.631769 -0.578502
0.239379 0.626396 -0.574219
0.244384 0.627806 -0.575886
0.248598 0.627258 -0.575843
0.253156 0.627486 -0.576486
0.257898 0.628086 -0.577461
0.262174 0.627578 -0.577467
0.265848 0.625719 -0.576285
0.270621 0.626276 -0.577234
0.275009 0.625956 -0.577412
0.278502 0.623725 -0.575903
0.283143 0.623922 -0.576537
0.287760 0.624037 -0.577097
0.292030 0.623429 -0.577015
0.296656 0.623527 -0.577555
0.301672 0.624376 -0.578755
0.305667 0.623213 -0.578165
0.309473 0.621716 -0.577269
0.313789 0.621217 -0.577248
0.318355 0.621198 -0.577643
0.323868 0.622923 -0.579577
0.326896 0.620118 -0.577465
0.331501 0.620220 -0.577923
0.335460 0.619203 -0.577365
0.338761 0.617092 -0.575811
0.343462 0.617472 -0.576457
0.348949 0.619216 -0.578299
0.354502 0.621070 -0.580216
0.357189 0.618173 -0.577861
0.362063 0.618981 -0.578789
0.366375 0.618916 -0.578907
0.372386 0.621637 -0.581489
0.376951 0.622068 -0.581990
0.380506 0.620974 -0.581094
0.383613 0.619276 -0.579623
0.387497 0.618883 -0.579287
0.391514 0.618775 -0.579171
0.394342 0.616957 -0.577490
0.397603 0.615898 -0.576455
0.404031 0.619631 -0.579672
0.407679 0.619301 -0.579218
0.413483 0.622194 -0.581613
0.417262 0.622207 -0.581396
0.421765 0.623339 -0.582145
0.426616 0.625031 -0.583360
0.428963 0.623261 -0.581451
0.432186 0.622826 -0.580704
-0.978284 1.309003 -1.200510
-0.968211 1.305265 -1.197964
-0.961486 1.306340 -1.199673
-0.960065 1.315102 -1.208230
-0.952048 1.314797 -1.208565
-0.728432 1.004933 -0.930111
-0.713482 0.992208 -0.919006
-0.703101 0.986073 -0.913774
-0.696759 0.985920 -0.913875
-0.683848 0.976110 -0.905215
-0.670363 0.965376 -0.895663
-0.665273 0.967310 -0.897476
-0.794448 1.213470 -1.119102
-0.794633 1.227262 -1.131290
-0.785571 1.226511 -1.130309
-0.773597 1.221087 -1.125060
-0.773085 1.234633 -1.136837
-0.771374 1.246587 -1.147119
-0.765030 1.251054 -1.150605
-0.749754 1.240364 -1.140412
-0.747988 1.252975 -1.151123
-0.745180 1.264127 -1.160469
-0.737904 1.267643 -1.162911
-0.730288 1.270675 -1.164881
-0.722998 1.274410 -1.167447
-0.714045 1.275177 -1.167322
-0.706709 1.279016 -1.169921
-0.700031 1.284214 -1.173711
-0.694772 1.292293 -1.180050
-0.686840 1.295337 -1.181869
-0.679456 1.299531 -1.184698
-0.672274 1.304220 -1.187953
-0.664752 1.308308 -1.190661
-0.657341 1.312695 -1.193627
-0.650441 1.318240 -1.197616
-0.642723 1.322135 -1.200131
-0.634815 1.325669 -1.202325
-0.628415 1.332576 -1.207512
-0.621473 1.338405 -1.211740
-0.614220 1.343629 -1.215433
-0.605481 1.345484 -1.216147
-0.597053 1.348041 -1.217492
-0.590429 1.354921 -1.222667
-0.581239 1.355672 -1.222432
-0.573193 1.359190 -1.224654
-0.566040 1.364985 -1.228895
-0.559552 1.372591 -1.234741
-0.555440 1.386583 -1.246218
-0.555501 1.412094 -1.267833
-0.570793 1.479765 -1.326516
-0.559814 1.477233 -1.323436
-0.549232 1.475603 -1.321172
-0.539670 1.476722 -1.321342
-0.532501 1.484769 -1.327609
-0.526342 1.496036 -1.336710
-0.517154 1.498417 -1.338033
-0.496098 1.463895 -1.307057
-0.399612 1.188535 -1.065334
-0.389522 1.181264 -1.058414
-0.379438 1.173609 -1.051181
-0.465692 1.491354 -1.328343
-0.458454 1.499958 -1.335216
-0.448229 1.498273 -1.333119
-0.437070 1.493018 -1.327928
-0.427153 1.492004 -1.326458
-0.420311 1.502500 -1.335044
-0.411034 1.503936 -1.335743
-0.400492 1.500290 -1.332034
-0.389690 1.495284 -1.327159
