ply
format ascii 1.0
comment ---
element vertex 1704
property float x
property float y
property float z
element face 0
property list uchar uint vertex_indices
end_header
0.193090 2.001245 -0.593707
0.202682 1.995085 -0.593258
0.212234 1.989073 -0.592843
0.221590 1.982192 -0.592165
0.230824 1.974977 -0.591381
0.239434 1.964404 -0.589604
0.248805 1.958935 -0.589308
0.258491 1.955575 -0.589622
0.267235 1.947136 -0.588438
0.274558 1.931433 -0.585102
0.282512 1.919858 -0.582965
0.291009 1.911638 -0.581805
0.297739 1.894942 -0.578121
0.305269 1.882938 -0.575810
0.313411 1.874380 -0.574510
0.320096 1.859390 -0.571279
0.328143 1.851230 -0.570073
0.336102 1.842990 -0.568833
0.344066 1.835072 -0.567680
0.350810 1.822240 -0.565039
0.357301 1.808829 -0.562207
0.363943 1.796521 -0.559693
0.372183 1.791028 -0.559229
0.378485 1.778089 -0.556499
0.381936 1.754637 -0.550556
0.387674 1.740623 -0.547462
0.391650 1.720554 -0.542502
0.401655 1.722997 -0.544410
0.411290 1.723951 -0.545866
0.419635 1.720281 -0.545904
0.425437 1.707929 -0.543265
0.431501 1.696805 -0.540992
0.437790 1.686718 -0.539027
0.445310 1.680893 -0.538374
0.448371 1.660900 -0.533314
0.455527 1.654365 -0.532421
0.459826 1.639105 -0.528801
0.466658 1.631960 -0.527700
0.470677 1.616518 -0.523994
0.477081 1.608502 -0.522603
0.483737 1.601371 -0.521482
0.490173 1.593735 -0.520197
0.494729 1.580940 -0.517275
0.500125 1.570766 -0.515170
0.505648 1.561142 -0.513229
0.509587 1.547444 -0.509984
0.514996 1.537945 -0.508062
0.517380 1.520717 -0.503664
0.525517 1.518707 -0.504116
0.532137 1.512803 -0.503320
0.536878 1.502263 -0.501031
0.541885 1.492574 -0.499006
0.545130 1.478765 -0.495642
0.560562 1.494517 -0.501824
0.562648 1.478114 -0.497611
0.564500 1.461506 -0.493313
0.574035 1.462972 -0.494880
0.587297 1.472790 -0.499178
0.578555 1.432805 -0.487212
0.584194 1.425660 -0.485955
0.587056 1.412523 -0.482725
0.589245 1.398173 -0.479081
0.594111 1.389807 -0.477396
0.599276 1.382189 -0.475950
0.605785 1.377466 -0.475458
0.611302 1.370731 -0.474295
0.615907 1.362217 -0.472536
0.618691 1.350167 -0.469591
0.623516 1.342365 -0.468052
0.628382 1.334742 -0.466567
0.631685 1.324186 -0.464092
0.637797 1.319165 -0.463468
0.642998 1.312452 -0.462271
0.647751 1.304974 -0.460811
0.651239 1.295247 -0.458584
0.654977 1.286115 -0.456549
0.659419 1.278378 -0.454979
0.664540 1.271942 -0.453848
0.669132 1.264635 -0.452414
0.672231 1.254808 -0.450110
0.676724 1.247519 -0.448669
0.680337 1.238811 -0.446733
0.685261 1.232424 -0.445589
0.690099 1.225952 -0.444412
0.694744 1.219223 -0.443141
0.698219 1.210651 -0.441225
0.703308 1.204787 -0.440243
0.708111 1.198514 -0.439115
0.711432 1.189956 -0.437183
0.716082 1.183577 -0.436008
0.720268 1.176538 -0.434595
0.724876 1.170214 -0.433429
0.729748 1.164343 -0.432418
0.734276 1.158004 -0.431237
0.736710 1.148616 -0.428969
0.741155 1.142292 -0.427782
0.745866 1.136409 -0.426748
0.750408 1.130327 -0.425638
0.754560 1.123737 -0.424342
0.758594 1.117039 -0.423002
0.762606 1.110370 -0.421666
0.766472 1.103558 -0.420274
0.771902 1.098940 -0.419671
0.774736 1.090834 -0.417799
0.778804 1.084462 -0.416551
0.783230 1.078613 -0.415488
0.787741 1.072917 -0.414478
0.791554 1.066350 -0.413144
0.795371 1.059842 -0.411827
0.799849 1.054225 -0.410833
0.804853 1.049304 -0.410092
0.808856 1.043154 -0.408894
0.812134 1.036151 -0.407375
0.814947 1.028638 -0.405660
0.818898 1.022571 -0.404477
0.823595 1.017437 -0.403639
0.828136 1.012138 -0.402737
0.829867 1.003559 -0.400597
0.833703 0.997516 -0.399406
0.837956 0.991991 -0.398405
0.841847 0.986079 -0.397255
0.845790 0.980258 -0.396135
0.850378 0.975190 -0.395299
0.852465 0.967360 -0.393405
0.855843 0.961017 -0.392073
0.860142 0.955716 -0.391136
0.864806 0.950825 -0.390355
0.868991 0.945432 -0.389379
0.872389 0.939224 -0.388084
0.876048 0.933321 -0.386903
0.880325 0.928085 -0.385979
0.884472 0.922728 -0.385005
0.887873 0.916625 -0.383737
0.890749 0.910019 -0.382267
0.894120 0.903945 -0.381002
0.897027 0.897435 -0.379561
0.900571 0.891582 -0.378376
0.903818 0.885459 -0.377080
0.907585 0.879860 -0.375990
0.911532 0.874446 -0.374971
0.915701 0.869248 -0.374037
0.920576 0.864714 -0.373369
0.921640 0.856639 -0.371273
0.925796 0.851456 -0.370340
0.929159 0.845553 -0.369113
0.932885 0.839989 -0.368022
0.936953 0.834735 -0.367056
0.941669 0.830051 -0.366323
0.943413 0.822755 -0.364518
0.945556 0.815841 -0.362864
0.948441 0.809590 -0.361479
0.953353 0.805075 -0.360813
0.957114 0.799571 -0.359737
0.960164 0.793473 -0.358412
0.963185 0.787360 -0.357079
0.965383 0.780583 -0.355464
0.968163 0.774297 -0.354053
0.971126 0.768170 -0.352706
0.974503 0.762376 -0.351499
0.977179 0.756033 -0.350057
0.981188 0.750736 -0.349061
0.985968 0.746022 -0.348316
0.988151 0.739309 -0.346712
0.991920 0.733808 -0.345628
0.995351 0.728049 -0.344433
0.995663 0.719987 -0.342233
0.999175 0.714310 -0.341069
1.003944 0.709543 -0.340304
1.007039 0.703558 -0.339004
1.009488 0.697124 -0.337504
1.013834 0.692039 -0.336600
1.017857 0.686723 -0.335593
1.021026 0.680820 -0.334324
1.023463 0.674436 -0.332834
1.026280 0.668335 -0.331469
1.028286 0.661719 -0.329865
1.032605 0.656668 -0.328966
1.036306 0.651226 -0.327887
1.040286 0.645990 -0.326898
1.044472 0.640909 -0.325977
1.045451 0.633834 -0.324128
1.048352 0.628034 -0.322859
1.050886 0.622064 -0.321500
1.054754 0.616975 -0.320544
1.059208 0.612295 -0.319770
1.064880 0.608398 -0.319358
1.066974 0.602425 -0.317953
1.069639 0.596881 -0.316736
1.069862 0.590013 -0.314867
1.075950 0.586640 -0.314657
1.080588 0.582507 -0.314069
-0.140931 1.888761 -0.530070
-0.132426 1.889974 -0.531481
-0.123792 1.892819 -0.533363
-0.114974 1.892750 -0.534466
-0.106051 1.897654 -0.536958
-0.096964 1.904998 -0.540146
-0.087730 1.906052 -0.541620
-0.078368 1.908727 -0.543560
-0.068898 1.910623 -0.545300
-0.059295 1.913967 -0.547458
-0.049513 1.920205 -0.550440
-0.039554 1.928032 -0.553884
-0.029508 1.934326 -0.556918
-0.019493 1.936829 -0.558902
-0.009413 1.939156 -0.560847
0.000762 1.942113 -0.562979
0.010990 1.944826 -0.565050
0.021675 1.954382 -0.569069
0.032118 1.958251 -0.571488
0.042558 1.961194 -0.573650
0.053285 1.967432 -0.576760
0.063762 1.969514 -0.578689
0.075080 1.981292 -0.583402
0.085799 1.984912 -0.585787
0.096674 1.989753 -0.588528
0.107281 1.991357 -0.590340
0.117424 1.988333 -0.590815
0.128464 1.993819 -0.593754
0.139014 1.994539 -0.595313
0.149244 1.992507 -0.596070
0.159554 1.991317 -0.597070
0.170077 1.991876 -0.598579
0.180463 1.991397 -0.599782
0.190279 1.986863 -0.599792
0.200105 1.982725 -0.599912
0.210151 1.980358 -0.600549
0.220092 1.977465 -0.601025
0.229352 1.970469 -0.600280
0.238650 1.964135 -0.599722
0.247375 1.954773 -0.598254
0.256745 1.949645 -0.598036
0.265639 1.942130 -0.597098
0.273082 1.927120 -0.593903
0.282040 1.920886 -0.593325
0.291012 1.915015 -0.592847
0.300331 1.911141 -0.592965
0.307275 1.895791 -0.589608
0.314704 1.883453 -0.587146
0.320268 1.862945 -0.582187
0.328003 1.853217 -0.580483
0.334163 1.836860 -0.576745
0.342554 1.830881 -0.576158
0.350508 1.823229 -0.575052
0.351452 1.786601 -0.565049
0.360284 1.783639 -0.565349
0.368954 1.780078 -0.565462
0.375268 1.767351 -0.562743
0.381297 1.753949 -0.559800
0.386885 1.739327 -0.556463
0.392954 1.726958 -0.553810
0.401224 1.722953 -0.553746
0.410508 1.722619 -0.554825
0.418278 1.716920 -0.554228
0.425228 1.708520 -0.552780
0.429987 1.692936 -0.549070
0.436411 1.683322 -0.547219
0.443398 1.675776 -0.546010
0.450320 1.668182 -0.544780
0.455372 1.654863 -0.541730
0.460301 1.641503 -0.538653
0.466189 1.631401 -0.536597
0.469511 1.613837 -0.532154
0.476181 1.606607 -0.530990
0.481546 1.595722 -0.528650
0.488894 1.590742 -0.528193
0.494206 1.580086 -0.525910
0.499750 1.570298 -0.523895
0.504411 1.558291 -0.521155
0.508649 1.545403 -0.518117
0.515553 1.539866 -0.517448
0.519115 1.525654 -0.513959
0.524744 1.517078 -0.512289
0.531069 1.510414 -0.511234
0.536751 1.502234 -0.509679
0.542923 1.495391 -0.508555
0.548127 1.486283 -0.506683
0.557450 1.487225 -0.508108
0.563561 1.480430 -0.506989
0.560289 1.451778 -0.498645
0.564015 1.439940 -0.495831
0.572877 1.440013 -0.496956
0.575911 1.426892 -0.493700
0.580060 1.416489 -0.491335
0.588253 1.415118 -0.491977
0.589212 1.398047 -0.487367
0.593411 1.388232 -0.485171
0.598372 1.380176 -0.483557
0.604577 1.374821 -0.482846
0.612122 1.372261 -0.483076
0.615347 1.360901 -0.480330
0.619871 1.352332 -0.478518
0.623709 1.342523 -0.476278
0.627205 1.332190 -0.473849
0.631845 1.324227 -0.472220
0.637763 1.318809 -0.471454
0.643490 1.313071 -0.470576
0.647060 1.303353 -0.468326
0.651090 1.294623 -0.466408
0.655690 1.287047 -0.464880
0.660186 1.279374 -0.463311
0.664293 1.271096 -0.461527
0.668438 1.262990 -0.459795
0.672467 1.254781 -0.458020
0.677248 1.247968 -0.456725
0.681427 1.240197 -0.455090
0.684981 1.231464 -0.453110
0.689952 1.225202 -0.451991
0.694874 1.218917 -0.450859
0.697761 1.209369 -0.448570
0.702691 1.203243 -0.447483
0.707927 1.197657 -0.446584
0.711811 1.189978 -0.444936
0.715494 1.182068 -0.443199
0.719643 1.174969 -0.441745
0.724152 1.168491 -0.440508
0.729170 1.162839 -0.439562
0.733873 1.156757 -0.438458
0.736470 1.147605 -0.436242
0.741022 1.141431 -0.435093
0.745574 1.135306 -0.433958
0.749725 1.128656 -0.432627
0.754221 1.122554 -0.431491
0.758009 1.115504 -0.430004
0.761961 1.108749 -0.428619
0.766844 1.103337 -0.427722
0.771167 1.097193 -0.426552
0.774481 1.089735 -0.424892
0.778403 1.083160 -0.423552
0.783002 1.077537 -0.422560
0.787849 1.072274 -0.421699
0.792390 1.066640 -0.420696
0.796203 1.060107 -0.419353
0.799837 1.053398 -0.417940
0.804299 1.047786 -0.416932
0.808389 1.041741 -0.415759
0.811172 1.034125 -0.413987
0.815011 1.027870 -0.412724
0.818654 1.021421 -0.411382
0.823293 1.016213 -0.410507
0.827865 1.010947 -0.409608
0.831342 1.004416 -0.408221
0.833380 0.996257 -0.406205
0.838202 0.991384 -0.405445
0.842793 0.986262 -0.404586
0.845665 0.979211 -0.402980
0.849840 0.973675 -0.401954
0.854751 0.968978 -0.401252
0.858211 0.962695 -0.399930
0.862861 0.957743 -0.399125
0.865296 0.950414 -0.397385
0.869492 0.945021 -0.396400
0.873296 0.939232 -0.395256
0.876732 0.933079 -0.393965
0.879996 0.926780 -0.392612
0.884354 0.921637 -0.391714
0.888124 0.915905 -0.390580
0.891893 0.910192 -0.389451
0.894076 0.902915 -0.387690
0.897087 0.896504 -0.386273
0.900505 0.890521 -0.385023
0.904575 0.885193 -0.384036
0.906971 0.878264 -0.382397
0.910803 0.872739 -0.381325
0.915093 0.867657 -0.380431
0.919236 0.862438 -0.379481
0.924997 0.858718 -0.379146
0.927144 0.851660 -0.377437
0.929950 0.845234 -0.375985
0.933523 0.839521 -0.374825
0.938197 0.834796 -0.374075
0.941786 0.829102 -0.372921
0.943720 0.821968 -0.371162
0.946619 0.815701 -0.369763
0.950315 0.810133 -0.368655
0.954125 0.804661 -0.367587
0.956759 0.798199 -0.366099
0.959843 0.792128 -0.364775
0.962872 0.786021 -0.363432
0.965656 0.779721 -0.362006
0.968266 0.773292 -0.360522
0.970362 0.766466 -0.358863
0.973709 0.760650 -0.357639
0.978029 0.755599 -0.356746
0.981633 0.749976 -0.355605
0.984337 0.743659 -0.354161
0.987628 0.737797 -0.352914
0.991551 0.732411 -0.351877
0.995233 0.726838 -0.350758
0.996074 0.719165 -0.348705
0.999398 0.713344 -0.347472
1.003860 0.708347 -0.346607
1.008179 0.703234 -0.345692
1.011591 0.697469 -0.344484
1.015588 0.692119 -0.343463
1.017692 0.685456 -0.341844
1.020322 0.679180 -0.340398
1.023531 0.673321 -0.339138
1.026803 0.667521 -0.337902
1.030320 0.661902 -0.336747
1.034362 0.656648 -0.335758
1.037500 0.650823 -0.334499
1.040526 0.644958 -0.333216
1.044106 0.639484 -0.332110
1.047174 0.633725 -0.330863
1.048741 0.627078 -0.329186
1.052293 0.621728 -0.328113
1.056010 0.616532 -0.327105
1.059039 0.610977 -0.325913
1.061393 0.605090 -0.324548
1.066844 0.601120 -0.324096
1.069526 0.595582 -0.322871
1.072730 0.590439 -0.321822
1.073841 0.584188 -0.320210
1.084424 0.583435 -0.321287
-0.141998 1.883837 -0.538090
-0.133522 1.886100 -0.539815
-0.124883 1.888035 -0.541471
-0.116072 1.887595 -0.542483
-0.107147 1.889127 -0.544066
-0.098091 1.899043 -0.548022
-0.088866 1.901664 -0.549952
-0.079529 1.902750 -0.551467
-0.070034 1.907559 -0.554049
-0.060442 1.910594 -0.556147
-0.050696 1.915580 -0.558813
-0.040774 1.922632 -0.562083
-0.030753 1.928676 -0.565083
-0.020687 1.932958 -0.567595
-0.010595 1.935731 -0.569687
-0.000434 1.938518 -0.571793
0.009856 1.942530 -0.574259
0.020647 1.953977 -0.578879
0.031310 1.961176 -0.582289
0.041932 1.966428 -0.585146
0.052245 1.966515 -0.586514
0.062989 1.971934 -0.589434
0.073778 1.977123 -0.592295
0.084417 1.979948 -0.594473
0.094842 1.980124 -0.595879
0.105306 1.980647 -0.597386
0.116099 1.984301 -0.599816
0.126703 1.985869 -0.601634
0.136999 1.984586 -0.602611
0.147207 1.982691 -0.603405
0.157276 1.979837 -0.603910
0.167994 1.982277 -0.605986
0.177982 1.979084 -0.606384
0.187684 1.974075 -0.606235
0.197921 1.973156 -0.607304
0.208090 1.971846 -0.608253
0.217857 1.968012 -0.608440
0.227934 1.966378 -0.609285
0.236418 1.955107 -0.607216
0.245391 1.947394 -0.606209
0.254439 1.940548 -0.605455
0.263217 1.932559 -0.604344
0.271954 1.924756 -0.603279
0.281261 1.920358 -0.603244
0.290270 1.914621 -0.602794
0.298915 1.907303 -0.601852
0.307104 1.898070 -0.600312
0.315292 1.889230 -0.598882
0.322749 1.877346 -0.596502
0.330583 1.867670 -0.594791
0.339115 1.861490 -0.594151
0.346665 1.851237 -0.592240
0.350283 1.824589 -0.585215
0.352488 1.793108 -0.576649
0.358685 1.779190 -0.573532
0.367319 1.775525 -0.573610
0.375320 1.769448 -0.572927
0.379655 1.749435 -0.567857
0.387303 1.742610 -0.566918
0.392108 1.725448 -0.562708
0.400258 1.720990 -0.562499
0.408558 1.717145 -0.562480
0.416408 1.711781 -0.561976
0.423232 1.702991 -0.560377
0.427724 1.686556 -0.556330
0.434952 1.679672 -0.555318
0.441114 1.669457 -0.553232
0.448125 1.662214 -0.552091
0.454273 1.652402 -0.550116
0.459884 1.641152 -0.547668
0.465565 1.630384 -0.545364
0.470383 1.617278 -0.542292
0.475642 1.605792 -0.539731
0.482826 1.600164 -0.539064
0.486942 1.585834 -0.535557
0.492824 1.576820 -0.533771
0.498598 1.567684 -0.531936
0.504318 1.558571 -0.530101
0.509572 1.548380 -0.527902
0.515282 1.539596 -0.526158
0.521030 1.531069 -0.524490
0.523855 1.515154 -0.520371
0.529970 1.507955 -0.519123
0.535620 1.499695 -0.517517
0.542066 1.493533 -0.516603
0.549944 1.490934 -0.516873
0.550831 1.471508 -0.511518
0.552653 1.454728 -0.507026
0.556576 1.443217 -0.504285
0.560864 1.432759 -0.501886
0.564913 1.421937 -0.499354
0.570641 1.415079 -0.498151
0.579481 1.415209 -0.499311
0.586534 1.411329 -0.499114
0.585608 1.390202 -0.493049
0.590826 1.382636 -0.491581
0.597853 1.378977 -0.491443
0.603974 1.373436 -0.490660
0.609095 1.365884 -0.489184
0.614794 1.359599 -0.488137
0.619495 1.351377 -0.486418
0.623972 1.342819 -0.484577
0.628431 1.334342 -0.482755
0.632280 1.324801 -0.480557
0.637670 1.318343 -0.479422
0.642590 1.311060 -0.477994
0.646456 1.301894 -0.475903
0.650910 1.293941 -0.474228
0.655492 1.286318 -0.472662
0.660632 1.279791 -0.471476
0.664505 1.271069 -0.469510
0.668202 1.262151 -0.467467
0.671123 1.251999 -0.464977
0.676524 1.246264 -0.464046
0.681658 1.240117 -0.462965
0.685754 1.232277 -0.461275
0.689759 1.224377 -0.459558
0.694790 1.218258 -0.458471
0.700183 1.212781 -0.457611
0.702379 1.202190 -0.454905
0.707203 1.195937 -0.453754
0.711097 1.188273 -0.452088
0.714482 1.179896 -0.450157
0.719475 1.174104 -0.449157
0.723472 1.166832 -0.447614
0.728481 1.161165 -0.446651
0.732681 1.154328 -0.445256
0.736343 1.146761 -0.443587
0.741121 1.140906 -0.442541
0.746102 1.135390 -0.441617
0.749234 1.127258 -0.439721
0.753221 1.120430 -0.438301
0.758170 1.115015 -0.437401
0.762069 1.108173 -0.435965
0.766571 1.102223 -0.434857
0.770865 1.096033 -0.433655
0.773898 1.088191 -0.431828
0.777947 1.081784 -0.430533
0.782405 1.075970 -0.429457
0.787406 1.070906 -0.428661
0.792082 1.065443 -0.427712
0.796592 1.059799 -0.426690
0.800208 1.053053 -0.425244
0.804334 1.047004 -0.424059
0.808163 1.040626 -0.422744
0.810931 1.032987 -0.420939
0.814827 1.026796 -0.419684
0.819459 1.021538 -0.418785
0.823536 1.015638 -0.417635
0.827951 1.010175 -0.416651
0.832005 1.004313 -0.415508
0.835601 0.997953 -0.414167
0.839004 0.991412 -0.412750
0.842984 0.985574 -0.411604
0.847055 0.979872 -0.410507
0.850844 0.973880 -0.409293
0.855028 0.968359 -0.408262
0.859608 0.963295 -0.407409
0.863558 0.957561 -0.406287
0.866199 0.950442 -0.404609
0.869796 0.944393 -0.403353
0.873869 0.938877 -0.402308
0.877206 0.932611 -0.400957
0.880149 0.925968 -0.399451
0.884024 0.920322 -0.398343
0.888073 0.914870 -0.397311
0.891783 0.909093 -0.396144
0.894531 0.902375 -0.394591
0.896589 0.895012 -0.392768
0.901721 0.890707 -0.392195
0.905836 0.885406 -0.391212
0.909040 0.879236 -0.389869
0.911799 0.872667 -0.388357
0.914572 0.866140 -0.386859
0.918158 0.860400 -0.385685
0.922897 0.855738 -0.384959
0.928785 0.852119 -0.384673
0.931994 0.846040 -0.383354
0.935375 0.840132 -0.382104
0.938491 0.833998 -0.380758
0.940775 0.827147 -0.379103
0.943305 0.820539 -0.377548
0.946622 0.814633 -0.376290
0.950363 0.809097 -0.375189
0.954053 0.803518 -0.374069
0.957641 0.797854 -0.372912
0.958372 0.789817 -0.370725
0.961236 0.783581 -0.369314
0.965492 0.778490 -0.368402
0.969949 0.773548 -0.367556
0.973189 0.767619 -0.366278
0.974916 0.760496 -0.364473
0.978745 0.755045 -0.363403
0.980104 0.747672 -0.361480
0.982934 0.741459 -0.360069
0.986300 0.735661 -0.358842
0.991269 0.731068 -0.358156
0.995659 0.726019 -0.357269
0.998459 0.719783 -0.355846
0.999928 0.712587 -0.353984
1.004076 0.707354 -0.353013
1.008024 0.701969 -0.351974
1.011154 0.696002 -0.350668
1.013966 0.689821 -0.349261
1.017309 0.684023 -0.348028
1.020178 0.677910 -0.346647
1.024473 0.672783 -0.345723
1.026821 0.666352 -0.344187
1.030327 0.660722 -0.343022
1.034112 0.655294 -0.341949
1.037648 0.649724 -0.340806
1.040626 0.643822 -0.339498
1.043849 0.638117 -0.338277
1.046389 0.632022 -0.336861
1.048950 0.625995 -0.335467
1.053664 0.621355 -0.334736
1.056999 0.615912 -0.333605
1.058056 0.609157 -0.331819
1.060054 0.603060 -0.330337
1.066382 0.599609 -0.330147
1.071458 0.595469 -0.329605
1.074219 0.590053 -0.328415
1.075522 0.583901 -0.326835
1.066631 0.572092 -0.322381
-0.142952 1.873893 -0.544667
-0.134603 1.881137 -0.547826
-0.125988 1.883914 -0.549744
-0.117192 1.884241 -0.550986
-0.108283 1.887714 -0.553142
-0.099225 1.893966 -0.556113
-0.090011 1.897429 -0.558308
-0.080658 1.901232 -0.560618
-0.071174 1.905174 -0.562986
-0.061567 1.909086 -0.565361
-0.051848 1.912840 -0.567707
-0.041972 1.918402 -0.570590
-0.031902 1.926321 -0.574172
-0.021821 1.931016 -0.576834
-0.011661 1.935364 -0.579408
-0.001260 1.942990 -0.582950
0.009426 1.953923 -0.587474
0.019909 1.958917 -0.590274
0.030538 1.965045 -0.593418
0.040758 1.963912 -0.594433
0.050990 1.962884 -0.595480
0.061482 1.965171 -0.597509
0.071929 1.966522 -0.599263
0.082458 1.968576 -0.601229
0.092858 1.968962 -0.602702
0.103184 1.968529 -0.603930
0.113853 1.971462 -0.606165
0.124087 1.970093 -0.607113
0.133942 1.965492 -0.607088
0.143885 1.962057 -0.607408
0.155327 1.971100 -0.611488
0.165475 1.969341 -0.612313
0.175747 1.968667 -0.613464
0.185502 1.964316 -0.613496
0.195329 1.960787 -0.613772
0.205747 1.961497 -0.615336
0.215923 1.960584 -0.616404
0.225070 1.953227 -0.615497
0.233824 1.943912 -0.613978
0.242915 1.937146 -0.613231
0.252365 1.932833 -0.613232
0.261630 1.927702 -0.612975
0.270471 1.920518 -0.612076
0.279615 1.915300 -0.611777
0.287814 1.905434 -0.610026
0.296385 1.897907 -0.608993
0.304524 1.888586 -0.607390
0.313186 1.882175 -0.606686
0.321895 1.876237 -0.606123
0.330166 1.868518 -0.604995
0.338486 1.861309 -0.604018
0.346816 1.854400 -0.603127
0.352765 1.837555 -0.599087
0.358259 1.819460 -0.594630
0.364038 1.803212 -0.590737
0.372008 1.796342 -0.589810
0.378826 1.785145 -0.587496
0.382544 1.762383 -0.581473
0.385078 1.735950 -0.574246
0.392294 1.727785 -0.572850
0.399348 1.719252 -0.571327
0.406643 1.711810 -0.570148
0.413975 1.704682 -0.569062
0.421183 1.697296 -0.567887
0.426369 1.683252 -0.564546
0.433951 1.677557 -0.563902
0.439897 1.666626 -0.561548
0.446331 1.657541 -0.559786
0.451543 1.644811 -0.556822
0.455202 1.627590 -0.552373
0.464183 1.627067 -0.553389
0.470317 1.617921 -0.551570
0.475339 1.605684 -0.548722
0.481105 1.595899 -0.546672
0.487524 1.588185 -0.545298
0.492011 1.575168 -0.542158
0.498512 1.568035 -0.540961
0.503410 1.556634 -0.538335
0.509327 1.548220 -0.536696
0.514483 1.537934 -0.534422
0.517575 1.522450 -0.530394
0.523148 1.513706 -0.528616
0.528536 1.504647 -0.526723
0.534877 1.498132 -0.525681
0.541465 1.492312 -0.524870
0.546302 1.482288 -0.522629
0.551686 1.473757 -0.520886
0.551533 1.452233 -0.514710
0.558835 1.448626 -0.514624
0.570069 1.454098 -0.517644
0.564646 1.421393 -0.507586
0.571660 1.417404 -0.507353
0.578061 1.412063 -0.506654
0.583883 1.405499 -0.505530
0.585194 1.389258 -0.501053
0.591465 1.383922 -0.500338
0.597092 1.377271 -0.499164
0.603659 1.372652 -0.498692
0.608391 1.364282 -0.496910
0.615001 1.359841 -0.496494
0.617653 1.347481 -0.493301
0.623328 1.341319 -0.492272
0.628813 1.334844 -0.491129
0.632871 1.325676 -0.489031
0.637005 1.316782 -0.487021
0.641980 1.309598 -0.485609
0.646384 1.301431 -0.483841
0.651670 1.294993 -0.482683
0.654486 1.284115 -0.479935
0.659880 1.278047 -0.478896
0.665218 1.271933 -0.477836
0.668797 1.262776 -0.475679
0.671817 1.252767 -0.473205
0.675560 1.244145 -0.471222
0.681115 1.238717 -0.470386
0.685925 1.232074 -0.469107
0.689647 1.223684 -0.467187
0.694527 1.217301 -0.465991
0.699103 1.210484 -0.464631
0.703527 1.203488 -0.463201
0.707190 1.195349 -0.461344
0.711970 1.189067 -0.460164
0.715212 1.180442 -0.458115
0.719481 1.173505 -0.456681
0.725188 1.168830 -0.456080
0.728444 1.160473 -0.454108
0.732522 1.153444 -0.452623
0.736404 1.146192 -0.451049
0.740941 1.139971 -0.449854
0.745545 1.133898 -0.448710
0.748867 1.126037 -0.446889
0.753175 1.119657 -0.445619
0.758189 1.114322 -0.444739
0.762868 1.108554 -0.443692
0.766536 1.101434 -0.442127
0.771165 1.095690 -0.441080
0.775770 1.089953 -0.440032
0.778328 1.081522 -0.437948
0.782386 1.075164 -0.436652
0.786460 1.068877 -0.435377
0.790966 1.063196 -0.434332
0.795533 1.057630 -0.433327
0.799926 1.051875 -0.432246
0.804253 1.046073 -0.431143
0.808045 1.039641 -0.429790
0.811667 1.033049 -0.428370
0.815699 1.027006 -0.427159
0.819767 1.021046 -0.425977
0.824166 1.015521 -0.424961
0.828097 1.009467 -0.423735
0.832255 1.003718 -0.422624
0.836031 0.997556 -0.421346
0.839730 0.991344 -0.420043
0.843192 0.984901 -0.418643
0.847480 0.979433 -0.417630
0.851983 0.974228 -0.416718
0.856268 0.968799 -0.415715
0.859717 0.962475 -0.414347
0.862265 0.955210 -0.412594
0.866380 0.949683 -0.411541
0.869998 0.943649 -0.410277
0.873981 0.938029 -0.409179
0.877620 0.932071 -0.407941
0.880231 0.925075 -0.406272
0.884015 0.919328 -0.405112
0.887954 0.913759 -0.404022
0.891867 0.908180 -0.402926
0.894697 0.901539 -0.401387
0.898101 0.895499 -0.400093
0.901602 0.889577 -0.398846
0.905579 0.884137 -0.397797
0.908941 0.878116 -0.396503
0.912641 0.872437 -0.395350
0.914521 0.865058 -0.393476
0.917701 0.858935 -0.392129
0.922473 0.854300 -0.391412
0.927526 0.849913 -0.390803
0.932327 0.845283 -0.390092
0.935083 0.838805 -0.388587
0.938178 0.832651 -0.387219
0.940270 0.825630 -0.385474
0.942759 0.818987 -0.383887
0.946317 0.813288 -0.382708
0.949650 0.807401 -0.381447
0.953727 0.802150 -0.380463
0.957597 0.796720 -0.379400
0.960707 0.790656 -0.378059
0.961371 0.782589 -0.375828
0.965703 0.777552 -0.374937
0.970149 0.772595 -0.374084
0.974021 0.767163 -0.373021
0.976611 0.760712 -0.371500
0.978744 0.753916 -0.369822
0.981780 0.747839 -0.368465
0.982968 0.740351 -0.366467
0.986552 0.734713 -0.365306
0.991435 0.730047 -0.364591
0.996064 0.725168 -0.363782
1.000222 0.719924 -0.362808
1.003265 0.713858 -0.361454
1.005658 0.707330 -0.359885
1.007986 0.700773 -0.358298
1.010856 0.694618 -0.356897
1.014672 0.689137 -0.355810
1.016066 0.681982 -0.353931
1.022472 0.678293 -0.353690
1.025388 0.672211 -0.352315
1.027510 0.665618 -0.350692
1.029284 0.658831 -0.348968
1.033430 0.653642 -0.348006
1.037167 0.648202 -0.346920
1.040791 0.642715 -0.345807
1.043320 0.636563 -0.344362
1.046705 0.630999 -0.343195
1.050724 0.625873 -0.342236
1.055089 0.621000 -0.341394
1.056559 0.614409 -0.339688
1.059166 0.608588 -0.338349
1.061939 0.602943 -0.337082
1.064036 0.596979 -0.335637
1.069525 0.593088 -0.335223
1.076889 0.590338 -0.335376
1.076518 0.583212 -0.333283
1.081158 0.579058 -0.332685
-0.144438 1.886752 -0.557728
-0.135779 1.880932 -0.557183
-0.127112 1.880687 -0.558258
-0.118325 1.881419 -0.559634
-0.109421 1.884888 -0.561819
-0.100368 1.890102 -0.564531
-0.091158 1.895086 -0.567196
-0.081793 1.900779 -0.570088
-0.072292 1.905450 -0.572700
-0.062659 1.910233 -0.575363
-0.052876 1.916167 -0.578379
-0.042988 1.921288 -0.581172
-0.032838 1.931024 -0.585341
-0.022642 1.937943 -0.588697
-0.012400 1.943176 -0.591569
-0.002069 1.948327 -0.594429
0.008323 1.952982 -0.597153
0.018718 1.956343 -0.599501
0.029017 1.957210 -0.601111
0.039156 1.955265 -0.601883
0.048841 1.947085 -0.600784
0.059137 1.947711 -0.602323
0.069847 1.953185 -0.605326
0.080558 1.957954 -0.608124
0.090833 1.957440 -0.609330
0.100817 1.953959 -0.609635
0.111275 1.955439 -0.611443
0.121329 1.953023 -0.612067
0.131221 1.949397 -0.612317
0.141687 1.950978 -0.614156
0.152323 1.953829 -0.616387
0.163356 1.959586 -0.619515
0.173040 1.954755 -0.619387
0.182894 1.951532 -0.619750
0.193100 1.951007 -0.620943
0.202901 1.947788 -0.621299
0.212916 1.946189 -0.622155
0.221879 1.938028 -0.620965
0.230809 1.930171 -0.619859
0.240045 1.924589 -0.619454
0.249097 1.918261 -0.618809
0.259188 1.918100 -0.620093
0.268009 1.910994 -0.619190
0.275246 1.895817 -0.615734
0.284485 1.891764 -0.615774
0.293666 1.887586 -0.615771
0.300897 1.873980 -0.612770
0.309477 1.867463 -0.612008
0.318561 1.863563 -0.612072
0.326836 1.856090 -0.610991
0.335306 1.849766 -0.610271
0.343789 1.843719 -0.609632
0.350862 1.831845 -0.607114
0.356393 1.813950 -0.602643
0.362959 1.800977 -0.599739
0.371109 1.794818 -0.599024
0.379602 1.790176 -0.598795
0.385301 1.774876 -0.595100
0.389953 1.756135 -0.590268
0.392859 1.731555 -0.583508
0.401865 1.729999 -0.584244
0.406834 1.714010 -0.580252
0.412423 1.700686 -0.577118
0.418832 1.690576 -0.575025
0.424783 1.679184 -0.572500
0.432269 1.673194 -0.571746
0.436458 1.656562 -0.567465
0.435264 1.623129 -0.557593
0.442310 1.616712 -0.556657
0.452602 1.620489 -0.559112
0.462049 1.621465 -0.560641
0.467116 1.609166 -0.557735
0.472657 1.598560 -0.555384
0.480035 1.593532 -0.554896
0.487000 1.587382 -0.554027
0.492036 1.575884 -0.551350
0.498069 1.567405 -0.549682
0.502094 1.553588 -0.546197
0.508316 1.546005 -0.544814
0.511350 1.530082 -0.540587
0.516989 1.521339 -0.538790
0.523436 1.514831 -0.537749
0.528429 1.504719 -0.535469
0.534299 1.496988 -0.533997
0.539182 1.486939 -0.531720
0.544891 1.479081 -0.530190
0.551074 1.472483 -0.529087
0.553711 1.457560 -0.525098
0.558615 1.448242 -0.523037
0.565150 1.442843 -0.522330
0.572185 1.438631 -0.522034
0.569598 1.412807 -0.514188
0.578370 1.412758 -0.515330
0.583078 1.403715 -0.513323
0.590228 1.400092 -0.513213
0.592128 1.385261 -0.509153
0.597669 1.378386 -0.507886
0.602649 1.370422 -0.506228
0.608684 1.364733 -0.505370
0.615121 1.359908 -0.504817
0.618100 1.348178 -0.501800
0.622978 1.340403 -0.500184
0.628311 1.333617 -0.498915
0.632512 1.324714 -0.496881
0.636424 1.315384 -0.494685
0.641582 1.308536 -0.493375
0.646805 1.301885 -0.492130
0.651288 1.293937 -0.490411
0.653871 1.282625 -0.487464
0.659001 1.276074 -0.486236
0.664371 1.270017 -0.485184
0.668470 1.261775 -0.483329
0.672144 1.252895 -0.481232
0.675697 1.243923 -0.479092
0.680365 1.236966 -0.477686
0.684920 1.229890 -0.476230
0.689286 1.222575 -0.474679
0.693954 1.215835 -0.473335
0.698325 1.208678 -0.471831
0.703049 1.202163 -0.470560
0.707994 1.196061 -0.469437
0.712231 1.188896 -0.467913
0.715590 1.180434 -0.465896
0.720143 1.173914 -0.464601
0.724686 1.167439 -0.463318
0.728393 1.159759 -0.461574
0.732757 1.153144 -0.460226
0.736894 1.146253 -0.458768
0.740998 1.139380 -0.457311
0.745193 1.132703 -0.455923
0.748984 1.125507 -0.454331
0.753317 1.119150 -0.453054
0.758214 1.113636 -0.452096
0.762843 1.107786 -0.451005
0.766783 1.101031 -0.449561
0.771119 1.094874 -0.448342
0.775719 1.089119 -0.447275
0.780194 1.083236 -0.446155
0.784126 1.076676 -0.444766
0.786759 1.068474 -0.442728
0.790341 1.061584 -0.441198
0.794843 1.055932 -0.440147
0.799584 1.050618 -0.439227
0.803881 1.044773 -0.438094
0.808211 1.039006 -0.436988
0.812097 1.032727 -0.435675
0.816666 1.027326 -0.434706
0.821148 1.021845 -0.433703
0.824715 1.015299 -0.432270
0.828469 1.009023 -0.430940
0.832150 1.002702 -0.429588
0.836041 0.996667 -0.428346
0.839460 0.990126 -0.426895
0.843669 0.984528 -0.425822
0.848228 0.979353 -0.424918
0.852345 0.973701 -0.423817
0.856454 0.968065 -0.422720
0.860147 0.962000 -0.421443
0.862194 0.954180 -0.419439
0.865276 0.947537 -0.417914
0.869584 0.942242 -0.416942
0.873140 0.936170 -0.415646
0.877066 0.930513 -0.414519
0.881289 0.925185 -0.413526
0.884515 0.918848 -0.412108
0.888168 0.912977 -0.410883
0.891679 0.906987 -0.409604
0.895139 0.900969 -0.408310
0.898336 0.894714 -0.406913
0.901744 0.888694 -0.405612
0.904615 0.882175 -0.404095
0.908762 0.876911 -0.403112
0.911654 0.870461 -0.401617
0.915242 0.864692 -0.400413
0.918178 0.858329 -0.398950
0.922675 0.853431 -0.398119
0.926983 0.848355 -0.397211
0.930060 0.842162 -0.395816
0.933708 0.836499 -0.394650
0.937007 0.830533 -0.393351
0.939843 0.824172 -0.391875
0.943427 0.818480 -0.390693
0.947236 0.812987 -0.389598
0.948858 0.805627 -0.387672
0.952078 0.799653 -0.386360
0.956757 0.794908 -0.385597
0.959874 0.788851 -0.384247
0.962790 0.782636 -0.382825
0.964893 0.775772 -0.381107
0.969466 0.770916 -0.380298
0.973492 0.765608 -0.379285
0.976455 0.759451 -0.377886
0.977926 0.752136 -0.375954
0.981399 0.746399 -0.374744
0.984484 0.740362 -0.373395
0.987129 0.733996 -0.371893
0.992140 0.729416 -0.371222
0.996395 0.724248 -0.370281
1.000916 0.719262 -0.369427
1.005134 0.714041 -0.368465
1.006094 0.706464 -0.366389
1.009135 0.700408 -0.365029
1.012861 0.694843 -0.363902
1.015599 0.688591 -0.362446
1.020776 0.684036 -0.361803
1.024592 0.678538 -0.360708
1.025804 0.671285 -0.358759
1.028872 0.665319 -0.357429
1.032791 0.659937 -0.356380
1.031714 0.651302 -0.353728
1.038100 0.647583 -0.353487
1.041965 0.642240 -0.352443
1.044209 0.635896 -0.350893
1.046780 0.629811 -0.349463
1.050552 0.624526 -0.348422
1.052625 0.618244 -0.346868
1.058306 0.614223 -0.346446
1.059538 0.607562 -0.344671
1.060778 0.601000 -0.342925
1.063248 0.595261 -0.341580
1.067978 0.590927 -0.340942
1.074113 0.587470 -0.340743
1.078477 0.583061 -0.340034
1.081972 0.578246 -0.339092
-0.145143 1.866190 -0.561167
-0.136985 1.881789 -0.566872
-0.128300 1.881150 -0.567848
-0.119469 1.878821 -0.568343
-0.110573 1.882955 -0.570754
-0.101526 1.889641 -0.573939
-0.092310 1.895022 -0.576760
-0.082926 1.902273 -0.580154
-0.073295 1.916348 -0.585597
-0.063551 1.924122 -0.589192
-0.053811 1.924677 -0.590653
-0.043919 1.928085 -0.592976
-0.033962 1.930483 -0.595008
-0.023832 1.935477 -0.597831
-0.013633 1.939771 -0.600455
-0.003435 1.942242 -0.602539
0.006798 1.944207 -0.604479
0.016880 1.942619 -0.605348
0.026636 1.935606 -0.604571
0.036423 1.929814 -0.604158
0.046261 1.925312 -0.604133
0.056346 1.924470 -0.605223
0.067346 1.934804 -0.609737
0.078526 1.945929 -0.614508
0.088760 1.945487 -0.615736
0.097330 1.927891 -0.611674
0.108774 1.940215 -0.616835
0.119258 1.942408 -0.618875
0.128906 1.936949 -0.618543
0.138900 1.934933 -0.619275
0.149743 1.940053 -0.622229
0.160248 1.942121 -0.624235
0.170559 1.942588 -0.625744
0.180334 1.939127 -0.626021
0.190033 1.935394 -0.626207
0.200100 1.934422 -0.627259
0.209753 1.930800 -0.627473
0.219234 1.926323 -0.627411
0.228357 1.919912 -0.626731
0.236789 1.909757 -0.624853
0.246035 1.904894 -0.624648
0.255294 1.900363 -0.624542
0.264051 1.893310 -0.623625
0.271949 1.882038 -0.621348
0.281332 1.879017 -0.621706
0.289965 1.872326 -0.620880
0.296326 1.854730 -0.616531
0.306289 1.855260 -0.618016
0.314901 1.849373 -0.617426
0.322013 1.836830 -0.614670
0.330329 1.830192 -0.613819
0.337828 1.820213 -0.611873
0.345883 1.812984 -0.610814
0.350224 1.790437 -0.604734
0.357867 1.782308 -0.603354
0.366480 1.778335 -0.603332
0.374911 1.773732 -0.603099
0.383405 1.769480 -0.602979
0.384432 1.737064 -0.593543
0.392621 1.732382 -0.593255
0.401755 1.731231 -0.594137
0.409430 1.724824 -0.593272
0.411013 1.697201 -0.585327
0.415590 1.680796 -0.581095
0.460334 1.589656 -0.560177
0.471215 1.595106 -0.563245
0.478313 1.589281 -0.562477
0.485984 1.585180 -0.562294
0.490205 1.571378 -0.558785
0.493416 1.555090 -0.554407
0.500907 1.550903 -0.554176
0.505792 1.539718 -0.551529
0.514231 1.538205 -0.552215
0.517417 1.522887 -0.548120
0.523182 1.514566 -0.546437
0.529642 1.508150 -0.545410
0.533975 1.496488 -0.542549
0.537483 1.483012 -0.539042
0.542768 1.474144 -0.537133
0.547321 1.463662 -0.534650
0.552914 1.455836 -0.533091
0.557424 1.445590 -0.530672
0.563129 1.438281 -0.529280
0.564979 1.422288 -0.524808
0.574883 1.424724 -0.526856
0.575219 1.405776 -0.521309
0.581926 1.401175 -0.520851
0.587423 1.393982 -0.519466
0.592453 1.385882 -0.517751
0.597284 1.377474 -0.515918
0.602761 1.370530 -0.514604
0.609033 1.365298 -0.513902
0.613532 1.356508 -0.511912
0.618751 1.349283 -0.510480
0.623228 1.340674 -0.508541
0.628376 1.333498 -0.507114
0.632631 1.324677 -0.505082
0.636799 1.315810 -0.503025
0.640499 1.306183 -0.500680
0.645569 1.299250 -0.499315
0.650557 1.292240 -0.497916
0.654613 1.283608 -0.495913
0.658888 1.275482 -0.494089
0.663749 1.268502 -0.492682
0.668248 1.260959 -0.491060
0.671334 1.251042 -0.488548
0.675615 1.243322 -0.486845
0.680007 1.235880 -0.485238
0.684217 1.228215 -0.483541
0.688794 1.221247 -0.482100
0.692778 1.213374 -0.480311
0.697843 1.207352 -0.479215
0.702974 1.201486 -0.478173
0.707811 1.195199 -0.476967
0.711752 1.187555 -0.475240
0.715250 1.179305 -0.473276
0.719824 1.172811 -0.471974
0.723306 1.164708 -0.470050
0.727925 1.158415 -0.468813
0.732621 1.152289 -0.467636
0.737537 1.146539 -0.466600
0.741450 1.139364 -0.465008
0.745383 1.132289 -0.463449
0.749742 1.125891 -0.462146
0.753470 1.118653 -0.460512
0.757881 1.112444 -0.459272
0.762170 1.106116 -0.457981
0.766666 1.100122 -0.456816
0.770794 1.093673 -0.455468
0.774396 1.086569 -0.453856
0.778788 1.080583 -0.452680
0.783085 1.074513 -0.451466
0.785696 1.066286 -0.449390
0.789746 1.060006 -0.448081
0.793695 1.053645 -0.446735
0.798664 1.048624 -0.445922
0.803692 1.043697 -0.445144
0.807411 1.037166 -0.443717
0.811652 1.031324 -0.442564
0.816520 1.026283 -0.441731
0.821161 1.020988 -0.440793
0.825437 1.015280 -0.439685
0.828327 1.007964 -0.437915
0.831821 1.001419 -0.436455
0.834650 0.994148 -0.434690
0.838926 0.988598 -0.433629
0.844151 0.984156 -0.433022
0.848562 0.978799 -0.432035
0.852493 0.972927 -0.430832
0.856449 0.967114 -0.429651
0.859893 0.960769 -0.428243
0.863246 0.954362 -0.426805
0.865567 0.946884 -0.424913
0.868647 0.940273 -0.423378
0.872682 0.934708 -0.422281
0.877120 0.929584 -0.421368
0.880813 0.923699 -0.420130
0.884707 0.918045 -0.418988
0.888433 0.912240 -0.417779
0.891966 0.906263 -0.416493
0.895188 0.899998 -0.415081
0.899449 0.894787 -0.414120
0.903554 0.889430 -0.413095
0.904895 0.881411 -0.410912
0.909154 0.876244 -0.409964
0.915038 0.872621 -0.409690
0.919550 0.867683 -0.408845
0.919367 0.858377 -0.406078
0.923202 0.852850 -0.404968
0.926786 0.847102 -0.403758
0.928647 0.839808 -0.401862
0.934057 0.835729 -0.401391
0.936648 0.829126 -0.399796
0.939995 0.823212 -0.398507
0.944287 0.818129 -0.397590
0.948741 0.813177 -0.396734
0.951634 0.806885 -0.395273
0.951298 0.797881 -0.392577
0.955404 0.792657 -0.391595
0.959746 0.787620 -0.390699
0.963190 0.781835 -0.389463
0.964616 0.774414 -0.387472
0.968693 0.769156 -0.386477
0.972644 0.763788 -0.385432
0.974882 0.757062 -0.383756
0.976688 0.750018 -0.381929
0.982034 0.745730 -0.381391
0.986572 0.740794 -0.380554
0.989906 0.734929 -0.379281
0.992096 0.728208 -0.377601
0.995909 0.722708 -0.376500
1.000442 0.717729 -0.375650
1.003650 0.711772 -0.374333
1.005542 0.704873 -0.372561
1.009200 0.699256 -0.371405
1.013083 0.693796 -0.370327
1.016599 0.688079 -0.369122
1.020929 0.682928 -0.368195
1.024571 0.677304 -0.367035
1.024215 0.668992 -0.364543
1.028415 0.663788 -0.363582
1.032601 0.658582 -0.362619
1.035273 0.652396 -0.361162
1.038661 0.646709 -0.359949
1.042287 0.641203 -0.358821
1.045691 0.635588 -0.357630
1.047423 0.628965 -0.355917
1.048468 0.621984 -0.354005
1.056178 0.619166 -0.354218
1.057764 0.612634 -0.352511
1.059764 0.606436 -0.350956
1.061635 0.600246 -0.349387
1.065427 0.595276 -0.348435
1.069482 0.590532 -0.347584
1.073746 0.585985 -0.346819
1.078034 0.581531 -0.346084
1.076177 0.573701 -0.343524
-0.146719 1.881514 -0.575093
-0.138137 1.879497 -0.575655
-0.129504 1.881932 -0.577560
-0.120709 1.883893 -0.579342
-0.111775 1.886490 -0.581332
-0.102715 1.896826 -0.585661
-0.093451 1.905792 -0.589604
-0.084014 1.912682 -0.592945
-0.074391 1.921719 -0.596954
-0.064682 1.925502 -0.599395
-0.054887 1.927823 -0.601406
-0.045095 1.926535 -0.602332
-0.035267 1.924728 -0.603106
-0.025442 1.921818 -0.603547
-0.015416 1.923344 -0.605347
-0.005327 1.924973 -0.607185
0.004554 1.921525 -0.607470
0.014482 1.918998 -0.608037
0.024300 1.914693 -0.608055
0.033888 1.907236 -0.607096
0.043351 1.898873 -0.605847
0.053266 1.897374 -0.606721
0.063062 1.894483 -0.607161
0.071938 1.881195 -0.604355
0.081482 1.876650 -0.604264
0.088408 1.845398 -0.595801
0.097921 1.842740 -0.596274
0.111905 1.882294 -0.610027
0.126275 1.921727 -0.623796
0.136311 1.920617 -0.624806
0.146762 1.923021 -0.626927
0.157234 1.925417 -0.629049
0.167187 1.923704 -0.629868
0.177276 1.923136 -0.631050
0.186316 1.915221 -0.629885
0.196585 1.916227 -0.631564
0.206805 1.916842 -0.633121
0.216554 1.914421 -0.633703
0.225698 1.908419 -0.633129
0.234207 1.898971 -0.631435
0.242265 1.887446 -0.629057
0.251771 1.884719 -0.629517
0.260725 1.879097 -0.629035
0.269544 1.873027 -0.628400
0.277677 1.863680 -0.626689
0.285831 1.854882 -0.625147
0.295050 1.851735 -0.625445
0.302902 1.842113 -0.623616
0.311277 1.835357 -0.622719
0.318431 1.823260 -0.620053
0.326399 1.815304 -0.618741
0.335115 1.810922 -0.618604
0.338953 1.785756 -0.611569
0.345082 1.771208 -0.608032
0.353781 1.767762 -0.608175
0.362803 1.765680 -0.608772
0.371445 1.762113 -0.608873
0.374625 1.701759 -0.591192
0.214091 0.968671 -0.349442
0.216098 0.956829 -0.346162
0.220480 0.953099 -0.345639
0.225617 0.951867 -0.345968
0.230726 0.950530 -0.346262
0.236648 0.951705 -0.347420
0.471035 1.595394 -0.572388
0.477488 1.587647 -0.570944
0.483342 1.578327 -0.568947
0.488290 1.566639 -0.566116
0.494004 1.557340 -0.564107
0.498781 1.545655 -0.561254
0.507117 1.543816 -0.561840
0.512074 1.532955 -0.559259
0.517518 1.523589 -0.557194
0.523339 1.515369 -0.555524
0.528701 1.506114 -0.553481
0.533108 1.494630 -0.550640
0.537566 1.483497 -0.547911
0.542744 1.474327 -0.545869
0.543699 1.455160 -0.540254
0.550355 1.449939 -0.539598
0.558031 1.447149 -0.539810
0.562760 1.437535 -0.537574
0.568481 1.430339 -0.536199
0.573779 1.422288 -0.534509
0.575298 1.405965 -0.529824
0.578989 1.394729 -0.526961
0.584921 1.388531 -0.525915
0.591364 1.383486 -0.525283
0.597108 1.377007 -0.524127
0.602937 1.370771 -0.523055
0.609096 1.365278 -0.522251
0.614840 1.358987 -0.521151
0.617299 1.346173 -0.517647
0.623643 1.341274 -0.517047
0.628727 1.333939 -0.515544
0.632780 1.324697 -0.513329
0.635831 1.313673 -0.510443
0.641374 1.307525 -0.509358
0.643785 1.295592 -0.506113
0.649257 1.289493 -0.505033
0.654543 1.283110 -0.503844
0.659476 1.276151 -0.502434
0.663665 1.267944 -0.500548
0.668130 1.260325 -0.498876
0.671419 1.250746 -0.496456
0.675938 1.243417 -0.494878
0.680644 1.236486 -0.493446
0.684638 1.228428 -0.491578
0.689458 1.221840 -0.490264
0.693023 1.213252 -0.488179
0.698015 1.207091 -0.487016
0.703370 1.201566 -0.486094
0.707965 1.194871 -0.484717
0.711542 1.186637 -0.482740
0.715636 1.179307 -0.481104
0.719763 1.172101 -0.479510
0.723205 1.163926 -0.477533
0.727790 1.157569 -0.476256
0.733097 1.152345 -0.475418
0.737617 1.145989 -0.474133
0.741979 1.139456 -0.472773
0.745528 1.131806 -0.470968
0.749481 1.124813 -0.469415
0.753852 1.118478 -0.468116
0.758158 1.112105 -0.466797
0.762064 1.105230 -0.465273
0.766429 1.099048 -0.464020
0.769968 1.091790 -0.462331
0.773394 1.084449 -0.460602
0.777360 1.077899 -0.459184
0.780746 1.070638 -0.457474
0.785083 1.064685 -0.456286
0.788960 1.058180 -0.454869
0.792842 1.051733 -0.453471
0.797332 1.046106 -0.452402
0.801801 1.040485 -0.451333
0.805777 1.034286 -0.450022
0.810042 1.028485 -0.448871
0.815009 1.023574 -0.448082
0.819730 1.018384 -0.447177
0.824568 1.013354 -0.446335
0.828655 1.007456 -0.445131
0.830641 0.999133 -0.442913
0.833839 0.992297 -0.441307
0.838617 0.987324 -0.440475
0.843842 0.982875 -0.439862
0.848146 0.977393 -0.438813
0.852312 0.971781 -0.437707
0.856221 0.965910 -0.436488
0.859785 0.959691 -0.435118
0.863105 0.953243 -0.433646
0.865814 0.946178 -0.431906
0.870069 0.940806 -0.430885
0.874893 0.936049 -0.430127
0.878951 0.930498 -0.429026
0.880143 0.922008 -0.426652
0.884461 0.916787 -0.425687
0.889754 0.912564 -0.425154
0.892661 0.905939 -0.423575
0.896029 0.899808 -0.422207
0.900228 0.894519 -0.421206
0.904533 0.889343 -0.420254
0.907418 0.882801 -0.418698
0.909784 0.875794 -0.416932
0.914244 0.870808 -0.416059
0.917098 0.864316 -0.414515
0.920051 0.857943 -0.413021
0.923425 0.851980 -0.411707
0.927717 0.846869 -0.410775
0.931489 0.841287 -0.409631
0.934695 0.835204 -0.408260
0.938068 0.829284 -0.406961
0.940390 0.822454 -0.405246
0.944596 0.817286 -0.404287
0.948536 0.811884 -0.403222
0.952062 0.806126 -0.401995
0.952821 0.798041 -0.399690
0.956511 0.792450 -0.398536
0.960844 0.787390 -0.397629
0.962630 0.780234 -0.395745
0.968040 0.776042 -0.395248
0.969240 0.768443 -0.393151
0.972573 0.762574 -0.391867
0.974251 0.755404 -0.389966
0.979120 0.750746 -0.389256
0.983355 0.745576 -0.388306
0.986925 0.739884 -0.387108
0.987535 0.731954 -0.384834
0.991192 0.726344 -0.383674
0.996216 0.721741 -0.383004
1.000035 0.716231 -0.381897
1.000597 0.708355 -0.379634
1.003726 0.702363 -0.378288
1.010266 0.698799 -0.378139
1.013827 0.693100 -0.376940
1.015894 0.686366 -0.375226
1.019685 0.680843 -0.374113
1.024048 0.675714 -0.373196
1.023469 0.667256 -0.370602
1.027011 0.661613 -0.369418
1.032976 0.657583 -0.369050
1.036491 0.651942 -0.367862
1.038939 0.645636 -0.366328
1.042393 0.640015 -0.365137
1.046051 0.634555 -0.364022
1.050828 0.629830 -0.363281
1.052040 0.622929 -0.361396
1.055470 0.617462 -0.360245
1.058034 0.611526 -0.358834
1.059139 0.604789 -0.356980
1.062973 0.599765 -0.356015
1.066626 0.594702 -0.355011
1.069837 0.589458 -0.353891
1.072976 0.584261 -0.352774
1.080663 0.581739 -0.353083
1.084324 0.577000 -0.352171
-0.147743 1.874001 -0.582295
-0.139376 1.880977 -0.585581
-0.130747 1.884382 -0.587810
-0.121962 1.888563 -0.590292
-0.113052 1.897930 -0.594373
-0.103934 1.906589 -0.598262
-0.094624 1.914270 -0.601876
-0.085158 1.918651 -0.604501
-0.075613 1.917809 -0.605539
-0.065877 1.923978 -0.608742
-0.056132 1.923899 -0.610036
-0.046352 1.922431 -0.610909
-0.036564 1.919602 -0.611366
-0.028015 1.881181 -0.600786
-0.019139 1.859032 -0.595218
-0.009623 1.854884 -0.595232
0.000690 1.866672 -0.600219
0.012409 1.901118 -0.612315
0.022075 1.895544 -0.611912
0.030383 1.869808 -0.605169
0.041051 1.880937 -0.610002
0.051009 1.881032 -0.611370
0.057872 1.842676 -0.600579
0.066945 1.834514 -0.599307
0.076226 1.829508 -0.599026
0.085639 1.826383 -0.599339
0.100104 1.873560 -0.615692
0.112751 1.899106 -0.625196
0.123628 1.906400 -0.628889
0.133995 1.908677 -0.630982
0.144313 1.910390 -0.632897
0.154609 1.911801 -0.634717
0.164537 1.910316 -0.635605
0.174139 1.906574 -0.635760
0.184225 1.906528 -0.637110
0.192856 1.896573 -0.635239
0.203208 1.898628 -0.637268
0.213027 1.897156 -0.638150
0.221925 1.890073 -0.637195
0.230982 1.884361 -0.636680
0.240109 1.879381 -0.636400
0.248980 1.873219 -0.635725
0.257824 1.867234 -0.635101
0.265481 1.855188 -0.632468
0.272837 1.842184 -0.629502
0.283288 1.845502 -0.631939
0.290990 1.835021 -0.629792
0.299081 1.826884 -0.628414
0.307405 1.820184 -0.627507
0.315917 1.814602 -0.626968
0.324175 1.808080 -0.626108
0.331308 1.796848 -0.623658
0.334587 1.769499 -0.615766
0.341447 1.758303 -0.613292
0.179461 0.963898 -0.348841
0.181772 0.952189 -0.345589
0.186864 0.951015 -0.345932
0.191169 0.947020 -0.345307
0.196950 0.948305 -0.346495
0.202460 0.948555 -0.347331
0.207475 0.947069 -0.347570
0.212662 0.946152 -0.348006
0.218659 0.947865 -0.349355
0.224271 0.948222 -0.350239
0.230216 0.949565 -0.351469
0.235336 0.948241 -0.351773
0.244333 0.958756 -0.356220
0.473062 1.602226 -0.583860
0.478413 1.591120 -0.581218
0.483598 1.579789 -0.578485
0.485065 1.558212 -0.572117
0.492400 1.553507 -0.571700
0.498685 1.545970 -0.570277
0.505452 1.539858 -0.569354
0.512767 1.535288 -0.568977
0.517911 1.525064 -0.566577
0.522157 1.512720 -0.563409
0.527137 1.502499 -0.560988
0.530938 1.489512 -0.557562
0.537559 1.483762 -0.556731
0.544100 1.477880 -0.555849
0.546515 1.462142 -0.551395
0.548595 1.445940 -0.546752
0.558100 1.447453 -0.548534
0.563951 1.440393 -0.547199
0.567990 1.429298 -0.544383
0.570697 1.415406 -0.540532
0.574561 1.404347 -0.537704
0.577814 1.392142 -0.534443
0.583959 1.386408 -0.533553
0.590363 1.381282 -0.532884
0.596087 1.374759 -0.531696
0.602318 1.369361 -0.530921
0.608253 1.363398 -0.529933
0.613435 1.355962 -0.528392
0.617788 1.346955 -0.526258
0.622944 1.339669 -0.524759
0.628322 1.332902 -0.523449
0.632481 1.323852 -0.521275
0.636903 1.315431 -0.519329
0.640921 1.306360 -0.517130
0.643813 1.295314 -0.514173
0.648819 1.288334 -0.512747
0.654175 1.282069 -0.511588
0.658323 1.273687 -0.509616
0.662514 1.265487 -0.507706
0.667933 1.259551 -0.506656
0.673318 1.253604 -0.505597
0.677202 1.245128 -0.503561
0.681567 1.237574 -0.501872
0.686838 1.231631 -0.500799
0.690199 1.222560 -0.498509
0.694101 1.214496 -0.496601
0.699175 1.208432 -0.495464
0.703653 1.201461 -0.493969
0.707412 1.193416 -0.492047
0.711268 1.185618 -0.490214
0.715731 1.178851 -0.488778
0.719594 1.171224 -0.486998
0.723367 1.163544 -0.485189
0.728435 1.157898 -0.484180
0.733818 1.152762 -0.483370
0.738315 1.146348 -0.482047
0.741557 1.138157 -0.480009
0.745009 1.130361 -0.478121
0.749120 1.123590 -0.476637
0.753608 1.117415 -0.475386
0.758223 1.111466 -0.474223
0.763248 1.106129 -0.473302
0.766409 1.098266 -0.471354
0.769650 1.090594 -0.469475
0.773771 1.084183 -0.468102
0.778221 1.078260 -0.466924
0.781953 1.071434 -0.465372
0.785712 1.064702 -0.463852
0.789291 1.057793 -0.462253
0.792080 1.049935 -0.460256
0.796454 1.044161 -0.459113
0.800428 1.037921 -0.457774
0.804087 1.031337 -0.456286
0.808604 1.025856 -0.455254
0.813377 1.020716 -0.454361
0.817905 1.015303 -0.453351
0.822197 1.009635 -0.452231
0.827017 1.004622 -0.451385
0.832145 0.999985 -0.450696
0.834696 0.992374 -0.448743
0.838806 0.986618 -0.447572
0.843832 0.981930 -0.446854
0.848709 0.977085 -0.446069
0.851989 0.970471 -0.444522
0.855936 0.964638 -0.443307
0.859467 0.958378 -0.441904
0.862656 0.951784 -0.440352
0.866675 0.946122 -0.439200
0.871459 0.941294 -0.438408
0.875864 0.936074 -0.437445
0.879886 0.930469 -0.436312
0.883582 0.924547 -0.435038
0.886293 0.917643 -0.433327
0.889714 0.911500 -0.431948
0.892860 0.905109 -0.430455
0.896692 0.899430 -0.429275
0.900605 0.893847 -0.428137
0.903800 0.887580 -0.426690
0.907037 0.881378 -0.425270
0.909915 0.874858 -0.423703
0.913034 0.868596 -0.422249
0.916915 0.863070 -0.421126
0.920095 0.856904 -0.419711
0.923896 0.851327 -0.418562
0.928342 0.846345 -0.417685
0.932107 0.840744 -0.416526
0.935816 0.835100 -0.415345
0.938435 0.828498 -0.413722
0.941223 0.822067 -0.412175
0.944199 0.815820 -0.410711
0.948045 0.810333 -0.409601
0.950952 0.804048 -0.408117
0.952293 0.796459 -0.406018
0.956665 0.791436 -0.405123
0.961742 0.786982 -0.404502
0.964871 0.780911 -0.403117
0.967604 0.774528 -0.401582
