ply
format ascii 1.0
comment ---
element vertex 1687
property float x
property float y
property float z
element face 0
property list uchar uint vertex_indices
end_header
-0.125636 1.929285 -0.072634
-0.116127 1.944133 -0.073721
-0.106914 1.940494 -0.073373
-0.097561 1.942829 -0.073487
-0.088091 1.947895 -0.073810
-0.078574 1.952808 -0.074120
-0.069143 1.954429 -0.074173
-0.059722 1.955372 -0.074173
-0.050103 1.959858 -0.074445
-0.040118 1.969963 -0.075150
-0.030334 1.975066 -0.075466
-0.020675 1.977382 -0.075566
-0.011047 1.978807 -0.075596
-0.001272 1.981895 -0.075752
0.008693 1.986864 -0.076052
0.019075 1.996103 -0.076680
0.029145 2.000711 -0.076949
0.039212 2.004710 -0.077170
0.049298 2.008378 -0.077364
0.058945 2.007315 -0.077194
0.068464 2.005039 -0.076929
0.079025 2.012103 -0.077381
0.089944 2.021530 -0.078012
0.101215 2.032999 -0.078797
0.111336 2.034396 -0.078810
0.121091 2.032787 -0.078591
0.130826 2.031027 -0.078360
0.140586 2.029455 -0.078143
0.150670 2.030091 -0.078094
0.162769 2.043988 -0.079056
0.173273 2.046628 -0.079158
0.183748 2.048824 -0.079224
0.194081 2.049922 -0.079206
0.204157 2.049342 -0.079060
0.212791 2.040418 -0.078277
0.221926 2.034666 -0.077736
0.231054 2.029077 -0.077207
0.239563 2.020400 -0.076444
0.247327 2.008211 -0.075414
0.256054 2.001376 -0.074791
0.265088 1.996288 -0.074300
0.273629 1.988972 -0.073640
0.281675 1.979583 -0.072823
0.289681 1.970342 -0.072018
0.297359 1.959950 -0.071125
0.305423 1.951610 -0.070389
0.313433 1.943308 -0.069655
0.320966 1.933263 -0.068790
0.329700 1.928488 -0.068322
0.337860 1.921504 -0.067688
0.345443 1.912429 -0.066897
0.353411 1.905121 -0.066238
0.363374 1.905607 -0.066166
0.371478 1.899045 -0.065563
0.372345 1.866110 -0.062981
0.381413 1.863820 -0.062700
0.386924 1.848956 -0.061476
0.396291 1.847934 -0.061289
0.405191 1.845275 -0.060979
0.412567 1.837522 -0.060287
0.400987 1.767390 -0.054937
0.407931 1.759624 -0.054248
0.422134 1.775223 -0.055302
0.431618 1.775420 -0.055205
0.439356 1.770141 -0.054699
0.440540 1.745009 -0.052716
0.449095 1.742668 -0.052429
0.456928 1.738195 -0.051983
0.460266 1.720722 -0.050571
0.467019 1.713477 -0.049919
0.474173 1.707502 -0.049361
0.476351 1.687798 -0.047786
0.481235 1.676001 -0.046797
0.487149 1.667249 -0.046034
0.489184 1.648343 -0.044521
0.494595 1.638754 -0.043696
0.501348 1.632833 -0.043141
0.507361 1.625109 -0.042452
0.510079 1.609215 -0.041163
0.515663 1.600800 -0.040424
0.519518 1.588290 -0.039383
0.522501 1.573922 -0.038207
0.527601 1.564910 -0.037424
0.532932 1.556602 -0.036691
0.539390 1.551055 -0.036160
0.542420 1.537687 -0.035057
0.547570 1.529390 -0.034324
0.554958 1.526246 -0.033966
0.570619 1.541434 -0.034940
0.556671 1.491348 -0.031166
0.561139 1.482225 -0.030372
0.569535 1.481637 -0.030196
0.587526 1.501244 -0.031480
0.592521 1.493186 -0.030758
0.571558 1.431697 -0.026175
0.575275 1.421862 -0.025328
0.582219 1.418675 -0.024959
0.579314 1.395858 -0.023176
0.584779 1.389958 -0.022611
0.591051 1.385679 -0.022160
0.598865 1.384378 -0.021921
0.604058 1.378031 -0.021319
0.608321 1.369985 -0.020594
0.611211 1.359472 -0.019692
0.615695 1.352035 -0.019009
0.621025 1.346207 -0.018438
0.625419 1.338731 -0.017749
0.628942 1.329769 -0.016954
0.632231 1.320494 -0.016136
0.635671 1.311586 -0.015342
0.639590 1.303596 -0.014612
0.644114 1.296713 -0.013960
0.646994 1.287102 -0.013113
0.651012 1.279497 -0.012407
0.655986 1.273530 -0.011815
0.661047 1.267729 -0.011232
0.665148 1.260395 -0.010540
0.667940 1.251016 -0.009705
0.672131 1.243946 -0.009029
0.676285 1.236860 -0.008351
0.680157 1.229380 -0.007645
0.684444 1.222587 -0.006984
0.687838 1.214473 -0.006231
0.692370 1.208133 -0.005600
0.696917 1.201843 -0.004970
0.701287 1.195317 -0.004323
0.705562 1.188683 -0.003667
0.709446 1.181519 -0.002975
0.712801 1.173644 -0.002233
0.717636 1.167925 -0.001637
0.721668 1.161100 -0.000966
0.725025 1.153384 -0.000235
0.727999 1.145207 0.000528
0.732845 1.139650 0.001114
0.737952 1.134472 0.001674
0.742086 1.128022 0.002319
0.744570 1.119452 0.003104
0.747968 1.112177 0.003801
0.752074 1.105896 0.004430
0.756619 1.100246 0.005016
0.760936 1.094368 0.005614
0.764839 1.088045 0.006238
0.767212 1.079910 0.006977
0.772015 1.074899 0.007508
0.776630 1.069739 0.008044
0.778894 1.061832 0.008753
0.782364 1.055522 0.009353
0.787147 1.050901 0.009838
0.791717 1.046139 0.010325
0.794534 1.039458 0.010928
0.798578 1.034359 0.011422
0.801729 1.028383 0.011965
0.800507 1.017615 0.012804
-0.673442 1.513257 -0.047940
-0.670771 1.527594 -0.049091
-0.679100 1.577101 -0.053140
-0.662299 1.548548 -0.050775
-0.648530 1.529187 -0.049173
-0.647156 1.550108 -0.050888
-0.639290 1.550322 -0.050906
-0.632755 1.555274 -0.051319
-0.625117 1.556798 -0.051454
-0.617812 1.559712 -0.051707
-0.612080 1.568504 -0.052447
-0.612045 1.598455 -0.054931
-0.600659 1.587596 -0.054061
-0.590959 1.582769 -0.053689
-0.583222 1.585362 -0.053930
-0.575105 1.586608 -0.054061
-0.567694 1.590752 -0.054433
-0.561026 1.598101 -0.055069
-0.553985 1.604182 -0.055601
-0.546882 1.610226 -0.056131
-0.539295 1.614372 -0.056504
-0.531745 1.618795 -0.056900
-0.524130 1.623043 -0.057281
-0.516837 1.628897 -0.057794
-0.509523 1.634825 -0.058312
-0.502654 1.643107 -0.059024
-0.495790 1.651701 -0.059760
-0.488636 1.659104 -0.060396
-0.480830 1.663297 -0.060767
-0.472930 1.667052 -0.061099
-0.465236 1.672000 -0.061529
-0.457304 1.675699 -0.061853
-0.449662 1.681159 -0.062321
-0.441909 1.686088 -0.062743
-0.433393 1.686357 -0.062779
-0.424245 1.682368 -0.062460
-0.415650 1.681636 -0.062409
-0.416134 1.743405 -0.067520
-0.408592 1.751876 -0.068226
-0.397986 1.738076 -0.067088
-0.387422 1.723393 -0.065876
-0.382996 1.756302 -0.068594
-0.375768 1.768414 -0.069592
-0.366724 1.765667 -0.069360
-0.356431 1.751262 -0.068162
-0.352499 1.795116 -0.071776
-0.342487 1.783113 -0.070772
-0.334522 1.790833 -0.071396
-0.326189 1.795169 -0.071738
-0.317420 1.794810 -0.071691
-0.309109 1.799729 -0.072077
-0.301400 1.812753 -0.073131
-0.292814 1.815326 -0.073319
-0.284201 1.817676 -0.073487
-0.276052 1.827395 -0.074262
-0.267636 1.833966 -0.074774
-0.259084 1.839013 -0.075159
-0.250466 1.843485 -0.075494
-0.241738 1.846298 -0.075691
-0.233171 1.853505 -0.076248
-0.224575 1.861567 -0.076873
-0.215817 1.866701 -0.077256
-0.206957 1.869696 -0.077460
-0.198008 1.869790 -0.077423
-0.189020 1.867624 -0.077199
-0.179948 1.857508 -0.076319
-0.171503 1.908599 -0.080475
-0.162354 1.902659 -0.079935
-0.153256 1.901470 -0.079785
-0.144160 1.901970 -0.079772
-0.135022 1.906083 -0.080055
-0.125835 1.910730 -0.080379
-0.115958 1.949142 -0.083476
-0.106603 1.950365 -0.083515
-0.097587 1.939061 -0.082526
-0.087957 1.949388 -0.083310
-0.078464 1.953372 -0.083572
-0.069014 1.955293 -0.083664
-0.059564 1.956677 -0.083710
-0.049875 1.962317 -0.084104
-0.039988 1.970379 -0.084694
-0.030341 1.973131 -0.084848
-0.020656 1.975924 -0.085005
-0.010911 1.979050 -0.085187
-0.001179 1.981478 -0.085311
0.008721 1.985603 -0.085573
0.019176 1.995712 -0.086322
0.029260 2.000455 -0.086631
0.039379 2.004960 -0.086919
0.049344 2.007336 -0.087033
0.059020 2.006567 -0.086889
0.068871 2.007359 -0.086872
0.079148 2.011753 -0.087147
0.090347 2.023532 -0.088022
0.101728 2.035774 -0.088932
0.112052 2.038637 -0.089079
0.122408 2.041414 -0.089217
0.132234 2.039986 -0.089013
0.142019 2.038249 -0.088783
0.152372 2.040411 -0.088869
0.163775 2.049310 -0.089501
0.173919 2.049434 -0.089419
0.183943 2.048693 -0.089267
0.194410 2.050575 -0.089327
0.204368 2.049247 -0.089126
0.212651 2.038287 -0.088145
0.221678 2.031965 -0.087540
0.230733 2.026024 -0.086966
0.239605 2.019322 -0.086330
0.247865 2.009705 -0.085458
0.256625 2.002977 -0.084820
0.265388 1.996489 -0.084201
0.273973 1.989365 -0.083531
0.281750 1.978683 -0.082575
0.290016 1.970636 -0.081831
0.297839 1.960868 -0.080948
0.305900 1.952476 -0.080177
0.314066 1.944808 -0.079463
0.321553 1.934520 -0.078540
0.329387 1.925994 -0.077758
0.337579 1.919172 -0.077113
0.345476 1.911373 -0.076390
0.353723 1.905149 -0.075793
0.361080 1.895695 -0.074937
0.374456 1.908992 -0.075901
0.375561 1.876744 -0.073223
0.379566 1.856025 -0.071468
0.389477 1.856839 -0.071434
0.395718 1.844805 -0.070373
0.401906 1.832932 -0.069326
0.409065 1.824648 -0.068566
0.400792 1.765662 -0.063770
0.408896 1.761680 -0.063354
0.420723 1.769635 -0.063887
0.431303 1.773348 -0.064080
0.438762 1.767228 -0.063492
0.444392 1.755662 -0.062472
0.451429 1.748599 -0.061809
0.458298 1.741180 -0.061118
0.461235 1.722495 -0.059535
0.467219 1.713012 -0.058681
0.472123 1.700690 -0.057602
0.478593 1.693006 -0.056890
0.485016 1.685343 -0.056179
0.484621 1.659420 -0.054029
0.491156 1.652598 -0.053385
0.495757 1.640817 -0.052350
0.501715 1.632801 -0.051612
0.507802 1.625259 -0.050911
0.511492 1.611812 -0.049745
0.515931 1.600508 -0.048748
0.520808 1.590505 -0.047853
0.524986 1.578998 -0.046841
0.526415 1.561145 -0.045331
0.532547 1.554767 -0.044720
0.537236 1.545118 -0.043853
0.542424 1.536783 -0.043088
0.548483 1.530558 -0.042487
0.555822 1.527280 -0.042114
0.573447 1.546791 -0.043514
0.555755 1.488465 -0.038858
0.562195 1.483636 -0.038363
0.574425 1.491210 -0.038830
0.584386 1.493737 -0.038903
0.595534 1.498596 -0.039154
0.598348 1.486081 -0.038058
0.584762 1.440359 -0.034396
0.583195 1.419812 -0.032683
0.581155 1.398710 -0.030928
0.583904 1.387428 -0.029931
0.592250 1.387207 -0.029785
0.599273 1.384361 -0.029435
0.605354 1.379698 -0.028943
0.609487 1.371386 -0.028171
0.611630 1.359467 -0.027121
0.616504 1.352743 -0.026468
0.621785 1.346816 -0.025875
0.626172 1.339317 -0.025161
0.628642 1.328472 -0.024191
0.632411 1.320055 -0.023405
0.636006 1.311420 -0.022602
0.639928 1.303436 -0.021847
0.644037 1.295845 -0.021120
0.646765 1.285984 -0.020221
0.650985 1.278724 -0.019518
0.655696 1.272328 -0.018879
0.660722 1.266479 -0.018279
0.664980 1.259410 -0.017586
0.667629 1.249812 -0.016703
0.671457 1.242176 -0.015965
0.675890 1.235543 -0.015301
0.680187 1.228733 -0.014623
0.684634 1.222189 -0.013964
0.688309 1.214505 -0.013218
0.691711 1.206463 -0.012445
0.696444 1.200462 -0.011823
0.701048 1.194291 -0.011186
0.704475 1.186428 -0.010424
0.708103 1.178915 -0.009687
0.712709 1.172849 -0.009056
0.717203 1.166651 -0.008414
0.721513 1.160224 -0.007755
0.725291 1.153097 -0.007045
0.728675 1.145481 -0.006299
0.733079 1.139316 -0.005659
0.737495 1.133205 -0.005023
0.741092 1.126048 -0.004312
0.744871 1.119198 -0.003624
0.748875 1.112710 -0.002964
0.752877 1.106284 -0.002309
0.757889 1.101219 -0.001755
0.764105 1.097728 -0.001314
0.771282 1.095470 -0.000964
0.789514 1.106955 -0.001595
0.791182 1.097818 -0.000758
0.787222 1.081982 0.000550
0.791099 1.075899 0.001160
0.789633 1.063543 0.002207
0.795628 1.060273 0.002607
0.799062 1.054081 0.003207
0.796346 1.040878 0.004293
0.798351 1.033401 0.004968
0.800870 1.026699 0.005581
0.804998 1.022001 0.006047
-0.675348 1.518347 -0.055821
-0.673252 1.534556 -0.057205
-0.675268 1.564422 -0.059781
-0.664037 1.553415 -0.058809
-0.651794 1.539090 -0.057553
-0.655495 1.576827 -0.060828
-0.649385 1.583358 -0.061395
-0.633181 1.556145 -0.059033
-0.625074 1.556098 -0.059035
-0.617143 1.556834 -0.059110
-0.610464 1.562218 -0.059592
-0.607263 1.580567 -0.061203
-0.599794 1.583903 -0.061512
-0.591942 1.586004 -0.061716
-0.583674 1.586644 -0.061794
-0.575529 1.587827 -0.061920
-0.567577 1.589851 -0.062121
-0.560257 1.594535 -0.062554
-0.554056 1.604067 -0.063409
-0.546859 1.609725 -0.063928
-0.539811 1.616229 -0.064520
-0.532065 1.619841 -0.064860
-0.524711 1.625319 -0.065363
-0.517545 1.631836 -0.065955
-0.510461 1.638954 -0.066599
-0.503695 1.647860 -0.067398
-0.495523 1.650008 -0.067607
-0.488336 1.657214 -0.068255
-0.480834 1.662979 -0.068777
-0.473084 1.667558 -0.069194
-0.465029 1.670522 -0.069468
-0.457100 1.674212 -0.069805
-0.449576 1.680337 -0.070352
-0.441920 1.685856 -0.070845
-0.433503 1.686755 -0.070933
-0.424279 1.682299 -0.070551
-0.416576 1.687547 -0.071015
-0.414833 1.734138 -0.075085
-0.409423 1.757545 -0.077130
-0.398254 1.739803 -0.075582
-0.391781 1.756600 -0.077047
-0.385435 1.775489 -0.078692
-0.378615 1.791758 -0.080107
-0.367905 1.775630 -0.078692
-0.359822 1.781546 -0.079200
-0.351641 1.786870 -0.079654
-0.342759 1.785607 -0.079531
-0.334380 1.789218 -0.079832
-0.325796 1.790786 -0.079952
-0.317531 1.795969 -0.080387
-0.309764 1.807555 -0.081378
-0.301429 1.813081 -0.081838
-0.292977 1.817525 -0.082202
-0.284290 1.818987 -0.082305
-0.275748 1.822737 -0.082605
-0.267652 1.834382 -0.083592
-0.259209 1.841498 -0.084182
-0.250494 1.844329 -0.084397
-0.241749 1.846943 -0.084591
-0.233069 1.851525 -0.084956
-0.224398 1.857366 -0.085428
-0.215732 1.864897 -0.086046
-0.206924 1.869623 -0.086417
-0.198049 1.873145 -0.086683
-0.188987 1.867866 -0.086181
-0.179896 1.856650 -0.085163
-0.171414 1.903672 -0.089205
-0.162318 1.905902 -0.089352
-0.153196 1.913411 -0.089956
-0.143985 1.924673 -0.090885
-0.134672 1.935490 -0.091773
-0.125297 1.943448 -0.092411
-0.115872 1.950026 -0.092927
-0.106519 1.950800 -0.092939
-0.097247 1.948333 -0.092668
-0.087903 1.948562 -0.092631
-0.078421 1.952227 -0.092890
-0.068900 1.955850 -0.093144
-0.059328 1.959700 -0.093416
-0.049555 1.966597 -0.093951
-0.039781 1.972228 -0.094375
-0.030223 1.973302 -0.094404
-0.020610 1.974903 -0.094477
-0.010774 1.979342 -0.094794
-0.000829 1.984527 -0.095175
0.009252 1.990684 -0.095638
0.019372 1.996477 -0.096069
0.029469 2.001268 -0.096412
0.039604 2.005851 -0.096735
0.049616 2.008613 -0.096901
0.059330 2.008104 -0.096784
0.069160 2.008590 -0.096752
0.080386 2.021321 -0.097773
0.091346 2.030627 -0.098498
0.102030 2.036833 -0.098955
0.112414 2.040088 -0.099157
0.122920 2.043909 -0.099407
0.133143 2.045272 -0.099444
0.143216 2.045366 -0.099372
0.153382 2.045977 -0.099344
0.163917 2.048888 -0.099512
0.174029 2.048783 -0.099420
0.184297 2.049554 -0.099403
0.194197 2.047944 -0.099182
0.203654 2.043704 -0.098734
0.212737 2.037454 -0.098114
0.221597 2.030197 -0.097408
0.231054 2.026465 -0.097003
0.239897 2.019573 -0.096328
0.248609 2.012256 -0.095617
0.257049 2.003829 -0.094811
0.265633 1.996425 -0.094092
0.274006 1.988262 -0.093308
0.281847 1.977887 -0.092336
0.290202 1.970244 -0.091598
0.298260 1.961517 -0.090767
0.306109 1.952166 -0.089882
0.314140 1.943905 -0.089091
0.321750 1.934136 -0.088172
0.329613 1.925720 -0.087368
0.337310 1.916891 -0.086529
0.345476 1.910181 -0.085871
0.352974 1.901061 -0.085007
0.362106 1.898419 -0.084694
0.371453 1.896603 -0.084450
0.374853 1.872990 -0.082358
0.384586 1.872932 -0.082263
0.394108 1.872052 -0.082098
0.397609 1.850231 -0.080160
0.401990 1.832090 -0.078535
0.407094 1.816915 -0.077161
0.399574 1.760562 -0.072310
0.408120 1.758082 -0.072012
0.423903 1.778688 -0.073661
0.432266 1.775283 -0.073282
0.439173 1.767414 -0.072527
0.443819 1.752848 -0.071208
0.451617 1.748091 -0.070715
0.460973 1.748001 -0.070614
0.462464 1.725013 -0.068587
0.467342 1.712319 -0.067426
0.472036 1.699410 -0.066248
0.479057 1.693265 -0.065638
0.486573 1.688580 -0.065150
0.491487 1.676938 -0.064078
0.492650 1.655570 -0.062192
0.497206 1.643625 -0.061096
0.502596 1.634092 -0.060202
0.508514 1.626096 -0.059436
0.514417 1.618202 -0.058678
0.518507 1.605942 -0.057556
0.529492 1.610834 -0.057865
0.526838 1.582528 -0.055404
0.531599 1.572584 -0.054475
0.531080 1.550375 -0.052525
0.536996 1.543634 -0.051863
0.542566 1.536189 -0.051142
0.549145 1.531143 -0.050619
0.556193 1.527198 -0.050188
0.561655 1.519759 -0.049465
0.562231 1.501740 -0.047865
0.561506 1.481263 -0.046063
0.564703 1.469570 -0.044988
0.567726 1.457707 -0.043899
0.573919 1.452651 -0.043373
0.586241 1.460258 -0.043889
0.589837 1.449838 -0.042917
0.587529 1.427694 -0.040980
0.581362 1.398293 -0.038447
0.585398 1.389546 -0.037614
0.591440 1.384814 -0.037110
0.599626 1.384223 -0.036944
0.605611 1.379374 -0.036428
0.610321 1.372148 -0.035716
0.612716 1.360687 -0.034656
0.617107 1.353058 -0.033910
0.622406 1.347157 -0.033303
0.626916 1.339871 -0.032582
0.630044 1.330189 -0.031666
0.633215 1.320699 -0.030764
0.637195 1.312725 -0.029985
0.640549 1.303746 -0.029123
0.644565 1.295989 -0.028360
0.648586 1.288307 -0.027602
0.650698 1.277502 -0.026590
0.655605 1.271439 -0.025961
0.659881 1.264372 -0.025250
0.663766 1.256718 -0.024490
0.667308 1.248574 -0.023690
0.671961 1.242254 -0.023036
0.676622 1.235974 -0.022383
0.681299 1.229745 -0.021733
0.685115 1.222220 -0.020979
0.689113 1.215022 -0.020250
0.691672 1.205706 -0.019351
0.695990 1.199092 -0.018667
0.701175 1.193786 -0.018085
0.705313 1.186961 -0.017383
0.707846 1.177858 -0.016499
0.712108 1.171309 -0.015816
0.716860 1.165487 -0.015191
0.721920 1.160115 -0.014601
0.725751 1.153058 -0.013877
0.729770 1.146309 -0.013178
0.733349 1.139011 -0.012435
0.737714 1.132829 -0.011781
0.741811 1.126336 -0.011103
0.745494 1.119350 -0.010387
0.749536 1.112903 -0.009714
0.753909 1.106947 -0.009081
0.759019 1.101993 -0.008526
0.765906 1.099336 -0.008152
0.773377 1.097421 -0.007835
0.787779 1.104113 -0.008184
0.789432 1.094977 -0.007314
0.790651 1.085472 -0.006421
0.775532 1.056428 -0.004035
0.796373 1.070910 -0.004989
0.799247 1.063864 -0.004299
0.803172 1.058204 -0.003720
0.802372 1.047186 -0.002739
0.805480 1.040915 -0.002126
0.818478 1.046109 -0.002390
0.843398 1.064784 -0.003679
-0.670453 1.502751 -0.061860
-0.673803 1.535545 -0.064844
-0.673606 1.558523 -0.066932
-0.667444 1.563555 -0.067378
-0.658095 1.558755 -0.066928
-0.660959 1.594076 -0.070159
-0.651800 1.590764 -0.069853
-0.641333 1.583141 -0.069156
-0.633782 1.585498 -0.069376
-0.625705 1.586267 -0.069454
-0.613124 1.571149 -0.068078
-0.607294 1.580130 -0.068913
-0.599806 1.583414 -0.069229
-0.591575 1.584100 -0.069307
-0.583492 1.585435 -0.069447
-0.576382 1.590680 -0.069946
-0.568085 1.591400 -0.070031
-0.560472 1.594936 -0.070375
-0.554064 1.603635 -0.071193
-0.547117 1.610366 -0.071830
-0.540686 1.619595 -0.072697
-0.533533 1.625943 -0.073300
-0.524842 1.625479 -0.073276
-0.517989 1.633480 -0.074030
-0.511807 1.644969 -0.075102
-0.503659 1.647262 -0.075330
-0.495497 1.649463 -0.075548
-0.487275 1.651331 -0.075735
-0.479956 1.657932 -0.076355
-0.472658 1.664841 -0.077003
-0.464638 1.667942 -0.077299
-0.457124 1.673961 -0.077862
-0.449736 1.680901 -0.078508
-0.442207 1.687227 -0.079097
-0.434024 1.689654 -0.079326
-0.425284 1.688445 -0.079219
-0.418613 1.700806 -0.080358
-0.413043 1.721417 -0.082253
-0.405851 1.731667 -0.083194
-0.397955 1.737246 -0.083705
-0.389316 1.737354 -0.083711
-0.380940 1.739361 -0.083891
-0.373990 1.753152 -0.085151
-0.365578 1.755272 -0.085338
-0.357164 1.757368 -0.085521
-0.350954 1.780145 -0.087602
-0.342572 1.783522 -0.087899
-0.334014 1.785211 -0.088039
-0.325404 1.786319 -0.088125
-0.317301 1.793150 -0.088735
-0.309113 1.799528 -0.089301
-0.301431 1.812962 -0.090514
-0.292933 1.816821 -0.090846
-0.284406 1.820605 -0.091170
-0.275969 1.826163 -0.091655
-0.267847 1.837669 -0.092684
-0.259157 1.840632 -0.092928
-0.250453 1.843685 -0.093178
-0.241778 1.847824 -0.093527
-0.233057 1.851614 -0.093842
-0.224499 1.860662 -0.094638
-0.215733 1.865631 -0.095059
-0.207229 1.881813 -0.096506
-0.198088 1.876167 -0.095951
-0.189079 1.874862 -0.095792
-0.180069 1.872415 -0.095528
-0.171245 1.888801 -0.096988
-0.162277 1.907061 -0.098617
-0.153148 1.912005 -0.099025
-0.143976 1.916288 -0.099372
-0.134808 1.915909 -0.099291
-0.125396 1.932392 -0.100751
-0.116101 1.934597 -0.100904
-0.106761 1.937674 -0.101136
-0.097306 1.943639 -0.101630
-0.087866 1.947302 -0.101913
-0.078464 1.948893 -0.102005
-0.068903 1.953731 -0.102393
-0.059245 1.959524 -0.102867
-0.049542 1.965001 -0.103311
-0.039731 1.971316 -0.103830
-0.030072 1.974048 -0.104021
-0.020440 1.975816 -0.104124
-0.010609 1.980048 -0.104450
-0.000590 1.986123 -0.104943
0.009496 1.992175 -0.105433
0.019548 1.997019 -0.105812
0.029733 2.002714 -0.106267
0.039812 2.006577 -0.106554
0.049711 2.008103 -0.106628
0.059870 2.011888 -0.106907
0.070296 2.017691 -0.107368
0.081084 2.026089 -0.108063
0.091396 2.029637 -0.108318
0.101900 2.034358 -0.108677
0.112060 2.035893 -0.108747
0.122570 2.039855 -0.109036
0.132989 2.042761 -0.109229
0.143342 2.044884 -0.109350
0.153646 2.046424 -0.109417
0.163899 2.047411 -0.109433
0.174243 2.048808 -0.109486
0.184517 2.049586 -0.109483
0.194510 2.048499 -0.109310
0.203831 2.043419 -0.108775
0.213613 2.041154 -0.108495
0.222415 2.033443 -0.107722
0.231623 2.028247 -0.107177
0.240392 2.020895 -0.106436
0.248904 2.012490 -0.105601
0.257251 2.003571 -0.104719
0.265947 1.996695 -0.104022
0.274050 1.987208 -0.103089
0.282654 1.980415 -0.102400
0.291072 1.972979 -0.101652
0.298611 1.961854 -0.100573
0.306064 1.950742 -0.099495
0.314042 1.942266 -0.098654
0.322217 1.934883 -0.097912
0.329749 1.925075 -0.096952
0.337847 1.917859 -0.096225
0.345662 1.909725 -0.095416
0.354087 1.904189 -0.094839
0.363659 1.903139 -0.094666
0.372512 1.899372 -0.094248
0.379446 1.888640 -0.093206
0.387857 1.883529 -0.092667
0.395776 1.876784 -0.091982
0.401695 1.863261 -0.090690
0.405385 1.842530 -0.088754
0.404752 1.807946 -0.085580
0.399087 1.757868 -0.081024
0.407517 1.755043 -0.080693
0.425094 1.781388 -0.082966
0.433273 1.777348 -0.082524
0.440719 1.771097 -0.081885
0.445191 1.755939 -0.080451
0.451063 1.745360 -0.079426
0.458133 1.738563 -0.078738
0.463147 1.725934 -0.077531
0.466912 1.710041 -0.076033
0.473076 1.701298 -0.075172
0.479566 1.693642 -0.074408
0.484135 1.680881 -0.073190
0.489333 1.670105 -0.072148
0.493493 1.656802 -0.070883
0.498454 1.645894 -0.069830
0.503350 1.635047 -0.068783
0.508364 1.624723 -0.067782
0.514726 1.617996 -0.067099
0.517548 1.602584 -0.065648
0.521324 1.589845 -0.064434
0.526893 1.581701 -0.063626
0.531579 1.571584 -0.062643
0.533049 1.554075 -0.061008
0.537838 1.544656 -0.060087
0.542874 1.535965 -0.059231
0.548719 1.529251 -0.058548
0.554996 1.523594 -0.057958
0.562442 1.520583 -0.057599
0.559613 1.495111 -0.055265
0.563103 1.483817 -0.054179
0.563489 1.466092 -0.052527
0.568044 1.457499 -0.051678
0.571387 1.446501 -0.050617
0.583462 1.453658 -0.051147
0.587863 1.444951 -0.050285
0.577847 1.407361 -0.046897
0.579885 1.394518 -0.045675
0.584004 1.385972 -0.044828
0.592375 1.385801 -0.044712
0.599725 1.383585 -0.044416
0.605316 1.377990 -0.043824
0.609244 1.369304 -0.042961
0.612592 1.359644 -0.042014
0.616697 1.351499 -0.041198
0.621274 1.344296 -0.040463
0.625844 1.337146 -0.039731
0.629790 1.328946 -0.038908
0.634262 1.321755 -0.038172
0.638476 1.314173 -0.037400
0.641499 1.304605 -0.036457
0.645161 1.296233 -0.035616
0.649465 1.289022 -0.034874
0.653709 1.281764 -0.034128
0.655168 1.269963 -0.032989
0.659801 1.263490 -0.032309
0.663231 1.255109 -0.031464
0.667658 1.248393 -0.030761
0.672189 1.241878 -0.030074
0.677196 1.236139 -0.029452
0.681989 1.230085 -0.028803
0.686357 1.223398 -0.028098
0.689118 1.214307 -0.027188
0.693375 1.207545 -0.026475
0.695999 1.198392 -0.025558
0.701175 1.193075 -0.024967
0.706063 1.187345 -0.024340
0.709125 1.178998 -0.023490
0.712029 1.170496 -0.022627
0.717109 1.165140 -0.022030
0.721762 1.159197 -0.021382
0.726143 1.152907 -0.020705
0.729354 1.145047 -0.019896
0.733299 1.138252 -0.019176
0.737873 1.132353 -0.018532
0.742522 1.126592 -0.017900
0.746401 1.119858 -0.017187
0.749648 1.112363 -0.016411
0.754060 1.106456 -0.015769
0.759399 1.101791 -0.015232
0.765338 1.097926 -0.014763
0.774624 1.098288 -0.014645
0.779799 1.093509 -0.014103
0.775294 1.076901 -0.012584
0.781217 1.073285 -0.012144
0.791466 1.074948 -0.012142
0.780906 1.051727 -0.010092
0.783921 1.045014 -0.009408
0.789004 1.040873 -0.008941
0.793386 1.036027 -0.008420
0.798023 1.031605 -0.007939
0.806442 1.031635 -0.007827
0.807544 1.023445 -0.007048
-0.676485 1.520346 -0.070960
-0.669337 1.521061 -0.071008
-0.670066 1.546737 -0.073466
-0.664639 1.553949 -0.074147
-0.651822 1.537848 -0.072585
-0.645676 1.543344 -0.073108
-0.639609 1.549524 -0.073700
-0.632781 1.553551 -0.074087
-0.626788 1.560785 -0.074785
-0.619974 1.565571 -0.075251
-0.611010 1.563010 -0.075010
-0.604272 1.568561 -0.075553
-0.599160 1.580440 -0.076707
-0.591288 1.582447 -0.076911
-0.583883 1.586382 -0.077302
-0.576509 1.590629 -0.077725
-0.568799 1.593719 -0.078036
-0.561357 1.598021 -0.078464
-0.554515 1.604994 -0.079151
-0.547091 1.609737 -0.079623
-0.540458 1.618085 -0.080442
-0.533696 1.626162 -0.081235
-0.525535 1.628144 -0.081439
-0.518194 1.633944 -0.082012
-0.511196 1.641553 -0.082758
-0.503408 1.645546 -0.083155
-0.495150 1.647243 -0.083330
-0.487391 1.651456 -0.083746
-0.480103 1.658237 -0.084409
-0.472253 1.662175 -0.084797
-0.465041 1.669733 -0.085534
-0.457684 1.676719 -0.086214
-0.449806 1.680863 -0.086618
-0.442799 1.690384 -0.087541
-0.435545 1.698756 -0.088351
-0.426301 1.694592 -0.087950
-0.420845 1.715294 -0.089948
-0.413703 1.725548 -0.090936
-0.405644 1.729766 -0.091340
-0.398078 1.737747 -0.092106
-0.389720 1.740044 -0.092322
-0.382071 1.747970 -0.093080
-0.373834 1.751464 -0.093409
-0.365911 1.757759 -0.094006
-0.358531 1.769286 -0.095108
-0.350938 1.779644 -0.096095
-0.342436 1.781844 -0.096294
-0.333478 1.779361 -0.096039
-0.325655 1.788736 -0.096927
-0.317245 1.792219 -0.097246
-0.309320 1.801759 -0.098147
-0.300987 1.807052 -0.098638
-0.292684 1.813233 -0.099212
-0.284309 1.819029 -0.099749
-0.276151 1.828856 -0.100672
-0.267799 1.836797 -0.101413
-0.259178 1.840986 -0.101790
-0.250435 1.843377 -0.101993
-0.241796 1.848341 -0.102443
-0.233103 1.852949 -0.102857
-0.224663 1.865521 -0.104038
-0.215645 1.863395 -0.103801
-0.206959 1.872635 -0.104658
-0.198150 1.880026 -0.105335
-0.189070 1.875968 -0.104909
-0.180246 1.888206 -0.106051
-0.171269 1.895813 -0.106745
-0.162232 1.905909 -0.107678
-0.153104 1.910443 -0.108075
-0.143945 1.912873 -0.108268
-0.134745 1.916884 -0.108612
-0.125450 1.924703 -0.109321
-0.116173 1.927622 -0.109558
-0.106862 1.930680 -0.109808
-0.097453 1.935976 -0.110271
-0.087911 1.943671 -0.110964
-0.078339 1.950087 -0.111533
-0.068855 1.952868 -0.111752
-0.059198 1.958632 -0.112257
-0.049526 1.963490 -0.112673
-0.039956 1.965571 -0.112822
-0.029996 1.973599 -0.113541
-0.020258 1.976956 -0.113811
-0.010547 1.979335 -0.113986
-0.000681 1.983339 -0.114316
0.009686 1.993025 -0.115190
0.019789 1.998367 -0.115646
0.029950 2.003659 -0.116097
0.040000 2.007109 -0.116371
0.050133 2.010933 -0.116679
0.060255 2.014173 -0.116931
0.070562 2.018722 -0.117308
0.080923 2.023242 -0.117680
0.091215 2.026688 -0.117950
0.101412 2.028961 -0.118106
0.111892 2.033182 -0.118448
0.122158 2.035343 -0.118593
0.132957 2.041153 -0.119085
0.143387 2.043834 -0.119278
0.153752 2.045784 -0.119401
0.164054 2.047083 -0.119460
0.174313 2.047912 -0.119475
0.184757 2.049738 -0.119584
0.195228 2.051515 -0.119688
0.205009 2.049026 -0.119384
0.213822 2.041027 -0.118557
0.223377 2.037493 -0.118154
0.231456 2.026039 -0.116997
0.240290 2.019063 -0.116267
0.249012 2.011761 -0.115506
0.257907 2.005588 -0.114851
0.266140 1.996370 -0.113908
0.274377 1.987515 -0.113000
0.283120 1.981341 -0.112345
0.292165 1.976735 -0.111840
0.298831 1.961598 -0.110336
0.306199 1.950103 -0.109178
0.314644 1.943624 -0.108495
0.322109 1.933217 -0.107440
0.330088 1.925263 -0.106618
0.337969 1.917147 -0.105781
0.346010 1.909905 -0.105026
0.353844 1.902058 -0.104214
0.362406 1.897196 -0.103685
0.372920 1.899712 -0.103853
0.380245 1.890390 -0.102902
0.386655 1.878040 -0.101664
0.393899 1.868994 -0.100739
0.399790 1.855499 -0.099395
0.407503 1.848601 -0.098673
0.409846 1.823882 -0.096270
0.400709 1.762119 -0.090375
0.408349 1.756648 -0.089791
0.424552 1.778559 -0.091786
0.434211 1.779187 -0.091774
0.441103 1.771187 -0.090950
0.446114 1.757657 -0.089605
0.451414 1.745333 -0.088374
0.457781 1.736457 -0.087467
0.464262 1.728106 -0.086610
0.469904 1.717534 -0.085544
0.473783 1.702240 -0.084035
0.479671 1.692892 -0.083085
0.482561 1.675545 -0.081384
0.488057 1.665640 -0.080381
0.493442 1.655648 -0.079371
0.497634 1.642735 -0.078087
0.502871 1.632806 -0.077083
0.507936 1.622635 -0.076056
0.513057 1.612805 -0.075061
0.520462 1.608832 -0.074613
0.521146 1.588436 -0.072630
0.525193 1.576623 -0.071450
0.529270 1.565115 -0.070299
0.534963 1.557629 -0.069523
0.540921 1.550877 -0.068815
0.543726 1.536981 -0.067441
0.548993 1.528938 -0.066612
0.554593 1.521762 -0.065864
0.558021 1.509880 -0.064677
0.558535 1.491844 -0.062918
0.567346 1.492069 -0.062858
0.569001 1.476953 -0.061370
0.565898 1.452087 -0.058978
0.572554 1.448049 -0.058520
0.577050 1.439579 -0.057651
0.578595 1.425223 -0.056235
0.586790 1.424482 -0.056081
0.580955 1.395796 -0.053338
0.584585 1.386270 -0.052371
0.592658 1.385507 -0.052213
0.599984 1.383242 -0.051915
0.604173 1.374980 -0.051062
0.608354 1.366802 -0.050216
0.613245 1.360031 -0.049500
0.616768 1.350807 -0.048556
0.620215 1.341555 -0.047610
0.624406 1.333749 -0.046797
0.629022 1.326775 -0.046059
0.633792 1.320126 -0.045350
0.638469 1.313362 -0.044631
0.642481 1.305504 -0.043810
0.645297 1.295678 -0.042808
0.649706 1.288646 -0.042061
0.653143 1.280043 -0.041170
0.656998 1.272209 -0.040349
0.659997 1.263042 -0.039405
0.664322 1.256106 -0.038664
0.668594 1.249128 -0.037919
0.672923 1.242283 -0.037186
0.677164 1.235336 -0.036442
0.681874 1.229157 -0.035767
0.686286 1.222545 -0.035052
0.689389 1.213978 -0.034159
0.692540 1.205556 -0.033278
0.696778 1.198816 -0.032550
0.701336 1.192582 -0.031867
0.705891 1.186368 -0.031184
0.710056 1.179616 -0.030453
0.712995 1.171154 -0.029567
0.716860 1.164070 -0.028805
0.721083 1.157534 -0.028092
0.726124 1.152165 -0.027484
0.730002 1.145222 -0.026734
0.733736 1.138134 -0.025972
0.737726 1.131448 -0.025245
0.742220 1.125483 -0.024584
0.746127 1.118791 -0.023858
0.749125 1.110977 -0.023033
0.753558 1.105103 -0.022382
0.759628 1.101377 -0.021923
0.765275 1.097139 -0.021419
0.772247 1.094600 -0.021068
0.780344 1.093471 -0.020842
0.777644 1.079078 -0.019443
0.779025 1.069907 -0.018510
0.782509 1.063437 -0.017819
0.782309 1.052691 -0.016755
0.785831 1.046562 -0.016101
0.790944 1.042432 -0.015628
0.793646 1.035610 -0.014921
0.797433 1.030204 -0.014343
0.804034 1.028158 -0.014065
0.838646 1.057898 -0.016579
-0.674313 1.513003 -0.077711
-0.674702 1.536845 -0.080104
-0.667162 1.536927 -0.080096
-0.660396 1.539763 -0.080370
-0.653141 1.541396 -0.080525
-0.646546 1.545500 -0.080932
-0.639661 1.549012 -0.081281
-0.632996 1.553606 -0.081742
-0.626311 1.558481 -0.082234
-0.619493 1.563234 -0.082715
-0.612182 1.566547 -0.083052
-0.603750 1.566034 -0.083004
-0.597331 1.573050 -0.083718
-0.591257 1.581712 -0.084599
-0.583924 1.585929 -0.085032
-0.576810 1.591208 -0.085573
-0.569195 1.594708 -0.085935
-0.561339 1.597362 -0.086211
-0.554997 1.606422 -0.087135
-0.547322 1.610146 -0.087520
-0.540459 1.617518 -0.088274
-0.533086 1.622873 -0.088823
-0.525430 1.627101 -0.089259
-0.517880 1.631921 -0.089753
-0.511025 1.640179 -0.090595
-0.503191 1.643930 -0.090981
-0.495384 1.647869 -0.091385
-0.488380 1.656015 -0.092213
-0.480876 1.661787 -0.092801
-0.472878 1.665037 -0.093133
-0.465836 1.673644 -0.094006
-0.458011 1.678073 -0.094455
-0.449727 1.679874 -0.094638
-0.443875 1.696409 -0.096310
-0.435963 1.700864 -0.096759
-0.428362 1.707422 -0.097420
-0.420773 1.714301 -0.098113
-0.413329 1.722458 -0.098933
-0.406330 1.734167 -0.100112
-0.398688 1.741762 -0.100874
-0.390060 1.742169 -0.100907
-0.381697 1.744520 -0.101136
-0.374157 1.753674 -0.102052
-0.365854 1.756810 -0.102358
-0.357943 1.763549 -0.103027
-0.350661 1.776606 -0.104334
-0.342305 1.780122 -0.104676
-0.334381 1.788252 -0.105483
-0.325861 1.790567 -0.105700
-0.317718 1.797242 -0.106358
-0.308946 1.796904 -0.106305
-0.300890 1.805477 -0.107153
-0.292160 1.805812 -0.107166
-0.283982 1.814021 -0.107974
-0.276412 1.832676 -0.109837
-0.267823 1.836994 -0.110250
-0.259132 1.840019 -0.110531
-0.250616 1.846892 -0.111200
-0.241725 1.846783 -0.111163
-0.233027 1.851197 -0.111581
-0.224472 1.860487 -0.112491
-0.215835 1.869747 -0.113397
-0.206963 1.873334 -0.113729
-0.198064 1.877097 -0.114078
-0.189133 1.880820 -0.114422
-0.180214 1.887948 -0.115109
-0.171267 1.899299 -0.116221
-0.162188 1.904112 -0.116672
-0.153066 1.907145 -0.116943
-0.143910 1.910890 -0.117284
-0.134686 1.917878 -0.117952
-0.125455 1.920702 -0.118199
-0.116195 1.923458 -0.118439
-0.106806 1.930388 -0.119098
-0.097379 1.936207 -0.119645
-0.087822 1.944171 -0.120407
-0.078238 1.950744 -0.121027
-0.068689 1.954867 -0.121400
-0.058960 1.961855 -0.122061
-0.049460 1.963002 -0.122133
-0.039756 1.967424 -0.122534
-0.029956 1.972604 -0.123011
-0.020136 1.977192 -0.123427
-0.010288 1.981429 -0.123807
-0.000484 1.984422 -0.124061
0.009639 1.990908 -0.124666
0.019957 1.998856 -0.125417
0.030067 2.003489 -0.125834
0.040174 2.007496 -0.126187
0.050132 2.009485 -0.126337
0.060368 2.013838 -0.126724
0.070608 2.017737 -0.127065
0.080821 2.020932 -0.127334
0.091134 2.024602 -0.127651
0.101446 2.027858 -0.127925
0.112058 2.033103 -0.128398
0.122566 2.037070 -0.128742
0.132878 2.039209 -0.128903
0.143580 2.043843 -0.129313
0.153927 2.045629 -0.129437
0.164435 2.048259 -0.129645
0.174615 2.048514 -0.129615
0.184753 2.048378 -0.129545
0.195411 2.051286 -0.129780
0.205321 2.049530 -0.129548
0.214411 2.043077 -0.128845
0.223341 2.035977 -0.128078
0.231786 2.026523 -0.127076
0.240212 2.017358 -0.126103
0.249346 2.012195 -0.125530
0.257939 2.004469 -0.124700
0.266279 1.995785 -0.123776
0.274513 1.986907 -0.122831
0.283214 1.980524 -0.122136
0.291357 1.971789 -0.121207
0.298602 1.959338 -0.119907
0.306884 1.951872 -0.119104
0.315350 1.945423 -0.118403
0.324090 1.940304 -0.117834
0.330379 1.925250 -0.116276
0.338022 1.916161 -0.115312
0.345593 1.907061 -0.114347
0.353320 1.898840 -0.113470
0.361441 1.892348 -0.112765
0.369238 1.884811 -0.111956
0.377381 1.878736 -0.111292
0.384471 1.869028 -0.110268
0.390471 1.855740 -0.108888
0.397461 1.846277 -0.107888
0.404661 1.837776 -0.106983
0.412161 1.830495 -0.106200
0.406739 1.780864 -0.101216
0.412797 1.769951 -0.100074
0.426688 1.784256 -0.101433
0.435059 1.780738 -0.101023
0.442068 1.773063 -0.100202
0.445469 1.754610 -0.098313
0.451795 1.745390 -0.097339
0.457735 1.735243 -0.096273
0.466767 1.734292 -0.096117
0.471438 1.720850 -0.094725
0.475279 1.705393 -0.093135
0.480216 1.693353 -0.091882
0.487205 1.687195 -0.091211
0.489876 1.669508 -0.089402
0.493318 1.654294 -0.087837
0.497793 1.642136 -0.086574
0.500171 1.624823 -0.084802
0.510093 1.627126 -0.084966
0.515868 1.618872 -0.084088
0.516939 1.599102 -0.082075
0.523014 1.592024 -0.081314
0.525682 1.576831 -0.079753
0.530514 1.567113 -0.078731
0.535716 1.558439 -0.077812
0.540679 1.549358 -0.076853
0.544382 1.537538 -0.075624
0.549705 1.529606 -0.074778
0.556751 1.525650 -0.074322
0.560078 1.513493 -0.073060
0.561417 1.497213 -0.071393
0.567066 1.490544 -0.070670
0.570863 1.480007 -0.069568
0.570626 1.461147 -0.067649
0.572450 1.446940 -0.066187
0.577984 1.440612 -0.065497
0.582147 1.431562 -0.064540
0.582890 1.415768 -0.062923
0.581144 1.395308 -0.060850
0.586183 1.388553 -0.060118
0.592945 1.385210 -0.059718
0.599945 1.382311 -0.059360
0.603769 1.373364 -0.058412
0.609141 1.367433 -0.057757
0.614089 1.360757 -0.057030
0.617293 1.350936 -0.055995
0.620853 1.341885 -0.055035
0.624249 1.332642 -0.054056
0.628671 1.325330 -0.053265
0.633580 1.318938 -0.052562
0.638597 1.312773 -0.051881
0.642137 1.304104 -0.050956
0.645744 1.295636 -0.050050
0.649435 1.287391 -0.049166
0.652502 1.278182 -0.048187
0.656596 1.270758 -0.047381
0.661063 1.263997 -0.046639
0.665359 1.257000 -0.045873
0.669230 1.249367 -0.045045
0.672959 1.241567 -0.044200
0.677009 1.234326 -0.043409
0.681622 1.228001 -0.042706
0.685779 1.221005 -0.041937
0.688506 1.211881 -0.040963
0.692800 1.205192 -0.040223
0.697248 1.198763 -0.039507
0.700831 1.191091 -0.038672
0.705254 1.184695 -0.037958
0.709617 1.178240 -0.037239
0.713276 1.170815 -0.036426
0.717194 1.163804 -0.035652
0.721762 1.157747 -0.034970
0.725864 1.151074 -0.034228
0.730623 1.145341 -0.033577
0.734525 1.138475 -0.032817
0.737835 1.130867 -0.031986
0.742295 1.124858 -0.031308
0.745996 1.117894 -0.030540
0.749433 1.110655 -0.029746
0.754491 1.105583 -0.029159
0.759449 1.100425 -0.028565
0.764179 1.095030 -0.027948
0.771531 1.092977 -0.027649
0.787618 1.101754 -0.028375
0.786593 1.089335 -0.027098
0.776441 1.066041 -0.024798
0.778767 1.058204 -0.023961
0.784489 1.054569 -0.023522
0.789027 1.049615 -0.022961
0.792004 1.042945 -0.022242
0.796514 1.038210 -0.021708
0.801986 1.034710 -0.021293
0.817842 1.043167 -0.022003
0.776948 0.987387 -0.016695
-0.681148 1.532983 -0.087294
-0.672212 1.528420 -0.086794
-0.667457 1.537099 -0.087698
-0.660101 1.538088 -0.087790
-0.652876 1.539810 -0.087962
-0.646393 1.544276 -0.088426
-0.639864 1.548972 -0.088915
-0.633133 1.553361 -0.089374
-0.625528 1.555087 -0.089553
-0.618431 1.558822 -0.089945
-0.612102 1.565575 -0.090658
-0.604267 1.567235 -0.090832
-0.597590 1.573336 -0.091478
-0.590497 1.578183 -0.091991
-0.583860 1.585024 -0.092717
-0.576745 1.590299 -0.093276
-0.569289 1.594434 -0.093716
-0.562404 1.601070 -0.094420
-0.554573 1.604013 -0.094734
-0.547525 1.610378 -0.095410
-0.540293 1.616159 -0.096024
-0.533138 1.622476 -0.096694
-0.525423 1.626442 -0.097116
-0.517882 1.631307 -0.097632
-0.510880 1.638871 -0.098433
-0.503284 1.643768 -0.098952
-0.496078 1.650745 -0.099690
-0.489014 1.658670 -0.100529
-0.481197 1.662880 -0.100973
-0.473360 1.667052 -0.101413
-0.465840 1.673062 -0.102046
-0.457703 1.675707 -0.102323
-0.451058 1.687144 -0.103530
-0.443942 1.696226 -0.104486
-0.436319 1.702505 -0.105145
-0.428406 1.707118 -0.105628
-0.420740 1.713497 -0.106296
-0.412857 1.718626 -0.106831
-0.406712 1.736323 -0.108695
-0.398764 1.741760 -0.109261
-0.390347 1.743806 -0.109467
-0.381845 1.745135 -0.109597
-0.373681 1.749186 -0.110014
-0.365595 1.754037 -0.110515
-0.357269 1.756964 -0.110811
-0.350659 1.776056 -0.112817
-0.342101 1.777613 -0.112966
-0.334307 1.786993 -0.113943
-0.325990 1.791481 -0.114401
-0.317447 1.793685 -0.114617
-0.309691 1.805429 -0.115841
-0.301271 1.809924 -0.116297
-0.293131 1.818602 -0.117195
-0.284223 1.817130 -0.117019
-0.275392 1.816473 -0.116929
-0.267664 1.834021 -0.118762
-0.259232 1.841570 -0.119537
-0.250440 1.843183 -0.119684
-0.241716 1.846464 -0.120007
-0.233081 1.852461 -0.120616
-0.224252 1.854491 -0.120805
-0.215905 1.872141 -0.122643
-0.207041 1.876590 -0.123086
-0.198111 1.879825 -0.123400
-0.189145 1.882515 -0.123656
-0.180189 1.887764 -0.124182
-0.171198 1.894501 -0.124863
-0.162143 1.900777 -0.125496
-0.153032 1.904100 -0.125816
-0.143885 1.907953 -0.126191
-0.134661 1.915851 -0.126992
-0.125433 1.918785 -0.127269
-0.116045 1.928412 -0.128251
-0.106650 1.934441 -0.128854
-0.097181 1.940940 -0.129504
-0.087705 1.945635 -0.129964
-0.078212 1.949475 -0.130334
-0.068651 1.953925 -0.130767
-0.058884 1.961695 -0.131549
-0.049275 1.964868 -0.131846
-0.039680 1.967113 -0.132045
-0.029872 1.972355 -0.132559
-0.019973 1.978096 -0.133125
-0.010118 1.982302 -0.133529
-0.000246 1.986073 -0.133886
0.009654 1.989598 -0.134217
0.019946 1.997249 -0.134981
0.030335 2.005036 -0.135759
0.040308 2.007483 -0.135975
0.050473 2.011509 -0.136357
0.060543 2.014126 -0.136589
0.070704 2.017214 -0.136871
0.081028 2.021376 -0.137265
0.091189 2.023679 -0.137464
0.101826 2.029582 -0.138040
0.112358 2.034098 -0.138470
0.122588 2.035873 -0.138611
0.133035 2.039001 -0.138894
0.143355 2.040896 -0.139048
0.153995 2.044747 -0.139406
0.164342 2.046303 -0.139523
0.174611 2.047146 -0.139565
0.184789 2.047268 -0.139531
0.195169 2.048496 -0.139612
0.205115 2.046996 -0.139408
0.214374 2.041551 -0.138789
0.223303 2.034458 -0.137998
0.232137 2.027128 -0.137183
0.240826 2.019303 -0.136315
0.249176 2.010037 -0.135297
0.257866 2.002829 -0.134494
0.266007 1.993185 -0.133437
0.274389 1.985049 -0.132537
0.282886 1.977735 -0.131724
0.291026 1.969031 -0.130765
0.298581 1.958009 -0.129564
0.307244 1.952213 -0.128909
0.316475 1.949008 -0.128525
0.324717 1.941711 -0.127714
0.330346 1.923903 -0.125805
0.338818 1.918155 -0.125155
0.345822 1.906767 -0.123917
0.353796 1.899489 -0.123108
0.361181 1.890173 -0.122087
0.367888 1.878603 -0.120830
0.376445 1.874143 -0.120316
0.383713 1.865139 -0.119327
0.390999 1.856443 -0.118371
0.397903 1.846654 -0.117301
0.404638 1.836551 -0.116198
0.410369 1.823361 -0.114774
0.411371 1.794986 -0.111769
0.419407 1.790225 -0.111223
0.428308 1.788298 -0.110973
0.435615 1.781369 -0.110201
0.441810 1.771165 -0.109089
0.446355 1.756202 -0.107483
0.451549 1.743569 -0.106118
0.459694 1.739922 -0.105689
0.465177 1.728607 -0.104462
0.471959 1.721264 -0.103648
0.477882 1.711649 -0.102598
0.482750 1.699317 -0.101266
0.487440 1.686784 -0.099913
0.488561 1.664929 -0.097593
0.492816 1.651932 -0.096193
0.498640 1.643328 -0.095249
0.503834 1.633263 -0.094153
0.509248 1.623960 -0.093137
0.516025 1.618259 -0.092493
0.521081 1.608370 -0.091416
0.523236 1.591575 -0.089624
0.526450 1.577702 -0.088134
0.531235 1.567854 -0.087062
0.534392 1.554356 -0.085611
0.541526 1.550360 -0.085144
0.544003 1.535711 -0.083575
0.552216 1.534338 -0.083379
0.559514 1.530876 -0.082966
0.566188 1.526044 -0.082410
0.566920 1.508285 -0.080521
0.571132 1.498377 -0.079441
0.578152 1.494608 -0.078995
0.583450 1.487221 -0.078176
0.599959 1.503242 -0.079769
0.604512 1.494233 -0.078781
0.603538 1.474120 -0.076649
0.585693 1.420509 -0.071068
0.582148 1.396426 -0.068530
0.586244 1.387801 -0.067584
0.592900 1.384254 -0.067160
0.600220 1.381973 -0.066865
0.605386 1.375571 -0.066146
0.609367 1.366999 -0.065204
0.614460 1.360591 -0.064483
0.616805 1.349192 -0.063250
0.621196 1.341664 -0.062415
0.625058 1.333256 -0.061488
0.629119 1.325292 -0.060607
0.634026 1.318889 -0.059885
0.638652 1.312041 -0.059118
0.642243 1.303464 -0.058173
0.646182 1.295563 -0.057297
0.649756 1.287117 -0.056364
0.652781 1.277836 -0.055346
0.656430 1.269678 -0.054443
0.661254 1.263506 -0.053742
0.665246 1.256020 -0.052907
0.669374 1.248803 -0.052098
0.673255 1.241244 -0.051254
0.677182 1.233809 -0.050423
0.681574 1.227144 -0.049669
0.685942 1.220474 -0.048915
0.689524 1.212648 -0.048043
0.693481 1.205439 -0.047233
0.696575 1.196994 -0.046297
0.700144 1.189315 -0.045438
0.704290 1.182529 -0.044671
0.709282 1.176997 -0.044030
0.712733 1.169282 -0.043167
0.717459 1.163421 -0.042492
0.722356 1.157822 -0.041843
0.726573 1.151301 -0.041101
0.730653 1.144631 -0.040343
0.734544 1.137752 -0.039565
0.738756 1.131355 -0.038835
0.742639 1.124569 -0.038067
0.747117 1.118623 -0.037383
0.750954 1.111892 -0.036621
0.755072 1.105590 -0.035902
0.759692 1.099994 -0.035255
0.764857 1.095146 -0.034684
0.772742 1.093749 -0.034460
0.789472 1.103297 -0.035336
0.792154 1.095407 -0.034461
0.772409 1.060405 -0.030872
0.777687 1.056168 -0.030369
0.784227 1.053518 -0.030026
0.789644 1.049602 -0.029559
0.793632 1.044110 -0.028935
0.795218 1.035966 -0.028050
0.813442 1.047136 -0.029095
0.823153 1.048464 -0.029159
0.845130 1.063691 -0.030611
-0.682000 1.534785 -0.095063
-0.673117 1.530433 -0.094567
-0.666582 1.533596 -0.094903
-0.660400 1.538273 -0.095408
-0.652987 1.539410 -0.095523
-0.646274 1.543134 -0.095924
-0.639425 1.546766 -0.096317
-0.632889 1.551794 -0.096865
-0.625484 1.554200 -0.097124
-0.618556 1.558531 -0.097596
-0.611844 1.563932 -0.098187
-0.604653 1.567914 -0.098622
-0.596781 1.569630 -0.098807
-0.591471 1.581138 -0.100074
-0.583797 1.584069 -0.100394
-0.576072 1.586954 -0.100709
-0.569814 1.595829 -0.101686
-0.562168 1.599402 -0.102078
-0.554786 1.604202 -0.102604
-0.547047 1.607647 -0.102981
-0.540062 1.614465 -0.103731
-0.532928 1.620854 -0.104433
-0.525822 1.627577 -0.105172
-0.518381 1.632950 -0.105761
-0.510896 1.638263 -0.106344
-0.503016 1.641775 -0.106727
-0.496004 1.649692 -0.107596
-0.489272 1.659318 -0.108654
-0.481346 1.662993 -0.109054
-0.473586 1.667606 -0.109557
-0.465474 1.670354 -0.109854
-0.457809 1.675646 -0.110431
-0.451176 1.687179 -0.111697
-0.443763 1.694469 -0.112494
-0.436212 1.701172 -0.113226
-0.428306 1.705817 -0.113730
-0.420376 1.710414 -0.114227
-0.412896 1.718243 -0.115082
-0.406011 1.730664 -0.116442
-0.398576 1.739718 -0.117431
-0.390312 1.742897 -0.117770
-0.381808 1.744215 -0.117903
-0.373556 1.747519 -0.118254
-0.366115 1.757898 -0.119387
-0.357578 1.759131 -0.119509
-0.350518 1.774128 -0.121150
-0.342207 1.778058 -0.121568
-0.334385 1.787208 -0.122562
-0.325912 1.790066 -0.122861
-0.317363 1.792165 -0.123076
-0.309592 1.803693 -0.124331
-0.301386 1.810863 -0.125104
-0.293327 1.820752 -0.126177
-0.284836 1.825537 -0.126686
-0.276067 1.826523 -0.126775
-0.267631 1.833055 -0.127476
-0.258706 1.831636 -0.127299
-0.250626 1.846565 -0.128924
-0.241779 1.847570 -0.129014
-0.233120 1.853216 -0.129615
-0.224353 1.857164 -0.130028
-0.215612 1.862934 -0.130641
-0.207101 1.878988 -0.132387
-0.198142 1.881642 -0.132656
-0.189159 1.884107 -0.132903
-0.180146 1.885951 -0.133082
-0.171130 1.889274 -0.133423
-0.162085 1.892998 -0.133808
-0.152998 1.905834 -0.135196
-0.143832 1.910925 -0.135730
-0.134637 1.914069 -0.136050
-0.125347 1.921482 -0.136839
-0.116008 1.927688 -0.137494
-0.106588 1.934666 -0.138234
-0.097119 1.940970 -0.138900
-0.087639 1.945632 -0.139384
-0.078207 1.947740 -0.139587
-0.068715 1.950622 -0.139874
-0.058989 1.957742 -0.140627
-0.049246 1.963760 -0.141259
-0.039581 1.967254 -0.141612
-0.029804 1.971904 -0.142093
-0.019893 1.977773 -0.142706
-0.010005 1.982397 -0.143183
-0.000139 1.986008 -0.143548
0.009779 1.989704 -0.143921
0.019963 1.995993 -0.144579
0.030325 2.003480 -0.145369
0.040652 2.009719 -0.146020
0.050709 2.012492 -0.146291
0.060757 2.014791 -0.146509
0.071048 2.019009 -0.146938
0.081216 2.021660 -0.147194
0.091538 2.025273 -0.147555
0.101983 2.029502 -0.147984
0.112521 2.034015 -0.148443
0.122916 2.037006 -0.148735
0.133189 2.038774 -0.148893
0.143699 2.041981 -0.149208
0.154054 2.043808 -0.149371
0.164541 2.046279 -0.149605
0.174946 2.047962 -0.149752
0.185024 2.047401 -0.149652
0.195032 2.046340 -0.149498
0.204777 2.043688 -0.149169
0.214422 2.040510 -0.148783
0.223338 2.033349 -0.147960
0.232485 2.027710 -0.147303
0.241243 2.020212 -0.146444
0.249430 2.010056 -0.145293
0.257847 2.001456 -0.144313
0.265931 1.991543 -0.143189
0.274594 1.984771 -0.142409
0.282937 1.976724 -0.141489
0.290690 1.966253 -0.140304
0.298605 1.956876 -0.139240
0.307623 1.952638 -0.138737
0.316546 1.948083 -0.138200
0.325032 1.941805 -0.137474
0.331513 1.927478 -0.135869
0.338295 1.914849 -0.134449
0.346500 1.908242 -0.133688
0.354129 1.899583 -0.132703
0.361298 1.889432 -0.131554
0.368066 1.878088 -0.130276
0.375580 1.869807 -0.129332
0.383480 1.863132 -0.128564
0.391134 1.855756 -0.127719
0.398297 1.846858 -0.126708
0.403925 1.832977 -0.125154
0.409450 1.819146 -0.123606
0.414342 1.803623 -0.121873
0.421103 1.794583 -0.120847
0.428561 1.787981 -0.120088
0.435549 1.780050 -0.119183
0.442654 1.772653 -0.118337
0.449751 1.765393 -0.117506
0.453872 1.749408 -0.115724
0.458524 1.735397 -0.114158
0.465424 1.728240 -0.113338
0.470758 1.716760 -0.112048
0.477505 1.709518 -0.111220
0.478958 1.687755 -0.108811
0.484515 1.677746 -0.107681
0.491232 1.671070 -0.106914
0.494060 1.654194 -0.105038
0.499262 1.643925 -0.103881
0.506063 1.637990 -0.103195
0.509908 1.624621 -0.101701
0.514919 1.614467 -0.100556
0.519415 1.603236 -0.099295
0.525823 1.596898 -0.098565
0.525224 1.573753 -0.096011
0.531257 1.566920 -0.095227
0.537906 1.561637 -0.094612
0.539523 1.544735 -0.092736
0.542192 1.530593 -0.091160
0.550846 1.530272 -0.091082
0.558331 1.527269 -0.090714
0.567366 1.527682 -0.090715
0.574134 1.523065 -0.090171
0.581177 1.519072 -0.089695
0.589728 1.518303 -0.089567
0.585943 1.491525 -0.086622
0.591936 1.485618 -0.085938
0.602177 1.488491 -0.086203
0.597398 1.460722 -0.083153
0.582308 1.412816 -0.077926
0.581975 1.395197 -0.075976
0.586283 1.386996 -0.075045
0.593370 1.384285 -0.074706
0.600069 1.380804 -0.074284
0.605294 1.374520 -0.073559
0.610376 1.368019 -0.072810
0.612454 1.356004 -0.071466
0.617284 1.349208 -0.070685
0.621601 1.341540 -0.069810
0.625647 1.333459 -0.068890
0.630239 1.326430 -0.068083
0.635027 1.319800 -0.067319
0.639186 1.312125 -0.066443
0.641921 1.302073 -0.065310
0.646411 1.295118 -0.064510
0.651009 1.288394 -0.063735
0.654842 1.280440 -0.062827
0.657830 1.271162 -0.061777
0.661189 1.262582 -0.060802
0.664468 1.253950 -0.059821
0.668949 1.247314 -0.059054
0.672624 1.239439 -0.058154
