ply
format ascii 1.0
comment ---
element vertex 1649
property float x
property float y
property float z
element face 0
property list uchar uint vertex_indices
end_header
-0.495128 1.593680 -0.522912
-0.493397 1.593803 -0.525162
-0.491586 1.594701 -0.528212
-0.489722 1.595515 -0.531213
-0.487800 1.596332 -0.534250
-0.485874 1.596132 -0.536294
-0.483751 1.598536 -0.541008
-0.481663 1.599168 -0.543961
-0.479549 1.599323 -0.546458
-0.477350 1.599938 -0.549456
-0.475064 1.600933 -0.552881
-0.472801 1.600893 -0.555262
-0.470325 1.602773 -0.559679
-0.467923 1.603055 -0.562458
-0.465480 1.603225 -0.565148
-0.462917 1.604089 -0.568601
-0.460089 1.606923 -0.574191
-0.457506 1.606861 -0.576727
-0.454921 1.606451 -0.578911
-0.452517 1.604238 -0.579157
-0.449250 1.608608 -0.586581
-0.446465 1.608709 -0.589397
-0.444859 1.600143 -0.582683
-0.442838 1.594859 -0.579529
-0.440279 1.593272 -0.580454
-0.437745 1.591443 -0.581111
-0.435121 1.590097 -0.582312
-0.432754 1.587173 -0.581732
-0.430167 1.585524 -0.582590
-0.427612 1.583662 -0.583205
-0.425064 1.581747 -0.583758
-0.422683 1.578979 -0.583323
-0.420134 1.577087 -0.583894
-0.417506 1.575575 -0.584907
-0.414789 1.574453 -0.586382
-0.412256 1.572474 -0.586852
-0.409542 1.571298 -0.588275
-0.406764 1.570363 -0.589993
-0.404662 1.566638 -0.588368
-0.402181 1.564537 -0.588681
-0.399611 1.562807 -0.589440
-0.397052 1.561053 -0.590171
-0.394615 1.558863 -0.590367
-0.392115 1.556940 -0.590888
-0.389538 1.555306 -0.591767
-0.387191 1.552904 -0.591689
-0.384872 1.550456 -0.591546
-0.382407 1.548527 -0.592050
-0.380153 1.545955 -0.591737
-0.377992 1.543151 -0.591117
-0.375713 1.540763 -0.591019
-0.373348 1.538671 -0.591297
-0.371539 1.535008 -0.589529
-0.369396 1.532380 -0.589089
-0.366999 1.530497 -0.589619
-0.364730 1.528288 -0.589717
-0.362586 1.525778 -0.589413
-0.360632 1.522817 -0.588495
-0.358624 1.520051 -0.587825
-0.356475 1.517684 -0.587682
-0.354801 1.514196 -0.586007
-0.352129 1.513156 -0.587663
-0.350359 1.509992 -0.586405
-0.348449 1.507206 -0.585653
-0.346354 1.504882 -0.585532
-0.344301 1.502488 -0.585309
-0.342094 1.500458 -0.585593
-0.340015 1.498167 -0.585507
-0.337818 1.496143 -0.585799
-0.335762 1.493844 -0.585695
-0.333816 1.491345 -0.585297
-0.331851 1.488910 -0.584984
-0.330427 1.485451 -0.583163
-0.327807 1.484330 -0.584767
-0.325557 1.482492 -0.585325
-0.323721 1.479896 -0.584754
-0.322110 1.476919 -0.583600
-0.319827 1.475176 -0.584298
-0.318323 1.472071 -0.582925
-0.316137 1.470179 -0.583394
-0.313822 1.468506 -0.584207
-0.311042 1.467596 -0.586217
-0.309513 1.464615 -0.585008
-0.308143 1.461414 -0.583434
-0.306228 1.459116 -0.583270
-0.303973 1.457358 -0.583966
-0.301963 1.455222 -0.584060
-0.300199 1.452722 -0.583568
-0.298114 1.450716 -0.583870
-0.295935 1.448846 -0.584403
-0.293700 1.447055 -0.585071
-0.291544 1.445146 -0.585552
-0.289937 1.442475 -0.584757
-0.288245 1.439941 -0.584184
-0.286290 1.437777 -0.584232
-0.284473 1.435435 -0.583974
-0.283164 1.432444 -0.582590
-0.281163 1.430369 -0.582780
-0.278666 1.428920 -0.584072
-0.276588 1.426934 -0.584434
-0.276510 1.422506 -0.580449
-0.273936 1.421149 -0.581917
-0.271955 1.419071 -0.582104
-0.269945 1.417027 -0.582356
-0.268261 1.414608 -0.581924
-0.266180 1.412649 -0.582337
-0.264067 1.410722 -0.582816
-0.261924 1.408822 -0.583355
-0.260944 1.405665 -0.581518
-0.259262 1.403284 -0.581136
-0.257290 1.401215 -0.581353
-0.255432 1.399028 -0.581343
-0.253867 1.396546 -0.580757
-0.252171 1.394208 -0.580445
-0.250225 1.392121 -0.580631
-0.248461 1.389856 -0.580465
-0.245838 1.388412 -0.581964
-0.244162 1.386061 -0.581635
-0.242459 1.383741 -0.581365
-0.240730 1.381450 -0.581155
-0.239613 1.378617 -0.579803
-0.238122 1.376134 -0.579171
-0.235064 1.375014 -0.581452
-0.233572 1.372529 -0.580828
-0.232507 1.369697 -0.579437
-0.231078 1.367185 -0.578729
-0.229324 1.364947 -0.578619
-0.227408 1.362839 -0.578805
-0.224645 1.361391 -0.580500
-0.223152 1.358941 -0.579933
-0.221518 1.356604 -0.579623
-0.219502 1.354555 -0.579988
-0.217941 1.352166 -0.579561
-0.216512 1.349687 -0.578917
-0.214998 1.347276 -0.578431
-0.212946 1.345246 -0.578869
-0.211111 1.343058 -0.578937
-0.209229 1.340900 -0.579088
-0.207678 1.338518 -0.578685
-0.206051 1.336188 -0.578417
-0.204915 1.333544 -0.577343
-0.202991 1.331409 -0.577579
-0.201404 1.329059 -0.577264
-0.199119 1.327136 -0.578092
-0.197251 1.324948 -0.578237
-0.195482 1.322697 -0.578225
-0.194561 1.319952 -0.576860
-0.192643 1.317787 -0.577096
-0.190284 1.315860 -0.578028
-0.189122 1.313262 -0.577072
-0.186261 1.311585 -0.578784
-0.185384 1.308834 -0.577394
-0.183059 1.306845 -0.578261
-0.181151 1.304629 -0.578478
-0.179706 1.302173 -0.577985
-0.178456 1.299623 -0.577204
-0.177234 1.297063 -0.576389
-0.175334 1.294825 -0.576606
-0.172901 1.292824 -0.577619
-0.171023 1.290553 -0.577796
-0.168594 1.288516 -0.578787
-0.167157 1.286031 -0.578307
-0.166121 1.283375 -0.577245
-0.164089 1.281137 -0.577646
-0.162012 1.278905 -0.578111
-0.160377 1.276484 -0.577931
-0.159070 1.273929 -0.577281
-0.158394 1.271135 -0.575736
-0.155840 1.269048 -0.576878
-0.154760 1.266405 -0.575923
-0.152939 1.264026 -0.576018
-0.151248 1.261593 -0.575930
-0.148896 1.259375 -0.576765
-0.146840 1.257041 -0.577179
-0.145780 1.254375 -0.576211
-0.144734 1.251706 -0.575232
-0.142583 1.249377 -0.575774
-0.140771 1.246932 -0.575846
-0.139157 1.244421 -0.575647
-0.136525 1.242189 -0.576822
-0.135184 1.239585 -0.576248
-0.133841 1.236980 -0.575681
-0.132666 1.234332 -0.574892
-0.130943 1.231823 -0.574833
-0.129369 1.229272 -0.574575
-0.126877 1.226932 -0.575521
-0.125770 1.224265 -0.574645
-0.122636 1.222045 -0.576409
-0.122040 1.219268 -0.574869
-0.119797 1.216841 -0.575460
-0.118207 1.214279 -0.575205
-0.116154 1.211806 -0.575538
-0.113845 1.209378 -0.576190
-0.112181 1.206833 -0.576015
-0.110427 1.204310 -0.575949
-0.108838 1.201766 -0.575675
-0.107640 1.199174 -0.574910
-0.106020 1.196661 -0.574671
-0.103691 1.194260 -0.575307
-0.101902 1.191793 -0.575268
-0.099901 1.189368 -0.575486
-0.098514 1.186883 -0.574948
-0.096966 1.184441 -0.574607
-0.095414 1.182023 -0.574271
-0.093230 1.179694 -0.574694
-0.091569 1.177335 -0.574485
-0.089085 1.175076 -0.575257
-0.087659 1.172749 -0.574763
-0.087002 1.170395 -0.573361
-0.085878 1.168118 -0.572521
-0.082158 1.166052 -0.574733
-0.080005 1.163902 -0.575095
-0.077730 1.161788 -0.575595
-0.075623 1.159696 -0.575897
-0.074256 1.157601 -0.575345
-0.071787 1.155592 -0.576064
-0.071691 1.153526 -0.574066
-0.072718 1.151477 -0.570808
-0.071847 1.149541 -0.569732
-0.070682 1.147656 -0.569000
-0.070238 1.145798 -0.567468
-0.501197 1.591449 -0.517709
-0.499640 1.591382 -0.519702
-0.498061 1.590402 -0.520816
-0.496402 1.590790 -0.523307
-0.494619 1.593352 -0.527999
-0.492890 1.592658 -0.529474
-0.491042 1.593781 -0.532801
-0.489121 1.595207 -0.536472
-0.487184 1.595706 -0.539239
-0.485097 1.597951 -0.543824
-0.483055 1.598199 -0.546404
-0.480938 1.598792 -0.549370
-0.478806 1.598765 -0.551723
-0.476638 1.598528 -0.553883
-0.474280 1.600121 -0.557985
-0.471906 1.601092 -0.561474
-0.469507 1.601666 -0.564577
-0.467068 1.602070 -0.567530
-0.464601 1.602213 -0.570233
-0.462057 1.602636 -0.573262
-0.459214 1.605339 -0.578787
-0.456667 1.604781 -0.580820
-0.453882 1.605889 -0.584692
-0.451132 1.606285 -0.587817
-0.448434 1.605920 -0.590130
-0.447393 1.593230 -0.578773
-0.444808 1.592106 -0.580204
-0.442372 1.589838 -0.580358
-0.439807 1.588354 -0.581392
-0.437339 1.586175 -0.581644
-0.434796 1.584418 -0.582370
-0.432218 1.582811 -0.583270
-0.429591 1.581431 -0.584433
-0.427306 1.578166 -0.583417
-0.424791 1.576170 -0.583859
-0.422213 1.574486 -0.584665
-0.419508 1.573404 -0.586182
-0.417213 1.570361 -0.585383
-0.414479 1.569379 -0.587024
-0.411886 1.567739 -0.587885
-0.409466 1.565364 -0.587863
-0.406877 1.563730 -0.588731
-0.404317 1.561982 -0.589462
-0.401991 1.559335 -0.589093
-0.399638 1.556847 -0.588908
-0.396921 1.555762 -0.590451
-0.394276 1.554396 -0.591654
-0.391862 1.552218 -0.591846
-0.389700 1.549212 -0.590991
-0.387104 1.547731 -0.592051
-0.384788 1.545339 -0.591957
-0.382589 1.542621 -0.591439
-0.380157 1.540684 -0.591913
-0.377900 1.538239 -0.591730
-0.375458 1.536391 -0.592314
-0.372514 1.536013 -0.594828
-0.370920 1.531757 -0.592254
-0.368874 1.528878 -0.591469
-0.366642 1.526561 -0.591420
-0.364387 1.524339 -0.591493
-0.362711 1.520642 -0.589571
-0.360630 1.518062 -0.589140
-0.358515 1.515612 -0.588875
-0.356286 1.513474 -0.589031
-0.354266 1.510859 -0.588526
-0.352198 1.508395 -0.588221
-0.350375 1.505402 -0.587168
-0.348626 1.502292 -0.585934
-0.346249 1.500632 -0.586735
-0.344363 1.497904 -0.586019
-0.342292 1.495611 -0.585916
-0.340092 1.493610 -0.586230
-0.338047 1.491302 -0.586098
-0.335982 1.489056 -0.586053
-0.333666 1.487324 -0.586761
-0.332118 1.484098 -0.585264
-0.330021 1.481974 -0.585386
-0.327823 1.480053 -0.585812
-0.326247 1.476988 -0.584515
-0.324146 1.474920 -0.584713
-0.322242 1.472509 -0.584387
-0.320307 1.470173 -0.584170
-0.318621 1.467424 -0.583309
-0.317022 1.464559 -0.582255
-0.315284 1.461960 -0.581601
-0.312894 1.460453 -0.582662
-0.310535 1.458884 -0.583638
-0.308298 1.457111 -0.584297
-0.306283 1.454989 -0.584403
-0.304326 1.452784 -0.584374
-0.302982 1.449666 -0.582850
-0.300958 1.447593 -0.583026
-0.298428 1.446263 -0.584434
-0.296652 1.443831 -0.584021
-0.294810 1.441509 -0.583786
-0.292257 1.440184 -0.585236
-0.290082 1.438322 -0.585792
-0.288493 1.435669 -0.584993
-0.287166 1.432688 -0.583616
-0.285163 1.430619 -0.583809
-0.283257 1.428428 -0.583789
-0.281159 1.426486 -0.584210
-0.279105 1.424484 -0.584531
-0.277784 1.421587 -0.583246
-0.276456 1.418725 -0.582007
-0.274418 1.416730 -0.582329
-0.272692 1.414369 -0.581985
-0.270875 1.412122 -0.581848
-0.268811 1.410161 -0.582242
-0.266644 1.408310 -0.582852
-0.265378 1.405467 -0.581587
-0.263397 1.403417 -0.581823
-0.261385 1.401399 -0.582125
-0.259495 1.399253 -0.582182
-0.257674 1.397036 -0.582104
-0.256124 1.394548 -0.581489
-0.254208 1.392438 -0.581619
-0.252332 1.390288 -0.581673
-0.250775 1.387830 -0.581105
-0.249065 1.385529 -0.580849
-0.247219 1.383359 -0.580865
-0.245122 1.381423 -0.581369
-0.244744 1.377922 -0.578592
-0.242642 1.376001 -0.579122
-0.240535 1.374078 -0.579661
-0.238636 1.371967 -0.579808
-0.236254 1.370264 -0.580853
-0.234815 1.367759 -0.580150
-0.233612 1.365070 -0.579030
-0.231980 1.362743 -0.578708
-0.230249 1.360501 -0.578574
-0.228182 1.358523 -0.579049
-0.226029 1.356604 -0.579676
-0.223992 1.354587 -0.580091
-0.222308 1.352301 -0.579885
-0.220566 1.350059 -0.579786
-0.219016 1.347678 -0.579357
-0.217462 1.345305 -0.578945
-0.216137 1.342775 -0.578146
-0.214177 1.340691 -0.578446
-0.211950 1.338780 -0.579198
-0.210419 1.336397 -0.578771
-0.208961 1.333968 -0.578228
-0.207487 1.331554 -0.577722
-0.206250 1.328996 -0.576831
-0.203749 1.327227 -0.578038
-0.201725 1.325150 -0.578452
-0.199759 1.323030 -0.578769
-0.198254 1.320632 -0.578338
-0.196925 1.318133 -0.577629
-0.195403 1.315749 -0.577240
-0.193394 1.313637 -0.577636
-0.191463 1.311473 -0.577905
-0.190116 1.308987 -0.577251
-0.188097 1.306858 -0.577662
-0.186349 1.304579 -0.577646
-0.184282 1.302457 -0.578128
-0.182512 1.300175 -0.578146
-0.181351 1.297591 -0.577232
-0.179600 1.295294 -0.577231
-0.177742 1.293041 -0.577393
-0.176329 1.290576 -0.576882
-0.174371 1.288354 -0.577195
-0.171845 1.286372 -0.578356
-0.170273 1.283958 -0.578088
-0.169443 1.281227 -0.576723
-0.166590 1.279340 -0.578352
-0.164826 1.276986 -0.578371
-0.164285 1.274141 -0.576605
-0.162007 1.271980 -0.577378
-0.161417 1.269164 -0.575706
-0.159684 1.266782 -0.575692
-0.157092 1.264700 -0.576904
-0.155378 1.262288 -0.576856
-0.153519 1.259917 -0.577012
-0.151691 1.257525 -0.577123
-0.150077 1.255054 -0.576933
-0.148724 1.252493 -0.576378
-0.147576 1.249866 -0.575541
-0.145741 1.247449 -0.575662
-0.143710 1.245079 -0.576047
-0.142447 1.242478 -0.575377
-0.140852 1.239969 -0.575162
-0.137911 1.237817 -0.576771
-0.136671 1.235195 -0.576068
-0.135204 1.232632 -0.575674
-0.133853 1.230039 -0.575125
-0.132147 1.227530 -0.575051
-0.130689 1.224961 -0.574645
-0.128146 1.222634 -0.575668
-0.127106 1.219969 -0.574708
-0.124142 1.217711 -0.576263
-0.123064 1.215057 -0.575350
-0.120581 1.212684 -0.576258
-0.118478 1.210231 -0.576663
-0.116763 1.207707 -0.576564
-0.114655 1.205255 -0.576962
-0.113015 1.202727 -0.576759
-0.111971 1.200114 -0.575799
-0.110615 1.197567 -0.575235
-0.108629 1.195127 -0.575461
-0.106443 1.192723 -0.575930
-0.104577 1.190287 -0.575993
-0.103078 1.187819 -0.575598
-0.100936 1.185449 -0.575993
-0.099533 1.183012 -0.575477
-0.097932 1.180621 -0.575202
-0.095968 1.178292 -0.575367
-0.094257 1.175962 -0.575222
-0.092648 1.173650 -0.574953
-0.091310 1.171346 -0.574359
-0.090155 1.169063 -0.573551
-0.088473 1.166855 -0.573374
-0.086329 1.164707 -0.573744
-0.083560 1.162626 -0.574846
-0.081733 1.160517 -0.574834
-0.079155 1.158478 -0.575700
-0.077727 1.156417 -0.575222
-0.077158 1.154361 -0.573756
-0.074622 1.152419 -0.574571
-0.072242 1.150501 -0.575203
-0.069994 1.148611 -0.575681
-0.069904 1.146708 -0.573703
-0.069378 1.144863 -0.572238
-0.500782 1.591335 -0.522884
-0.499229 1.589931 -0.523586
-0.497625 1.589010 -0.524786
-0.495918 1.590126 -0.528052
-0.494087 1.593223 -0.533357
-0.492241 1.594800 -0.537175
-0.490395 1.594909 -0.539537
-0.488515 1.594657 -0.541556
-0.486498 1.596126 -0.545372
-0.484458 1.596857 -0.548465
-0.482379 1.597291 -0.551282
-0.480291 1.596986 -0.553357
-0.478103 1.597422 -0.556234
-0.475838 1.598163 -0.559463
-0.473543 1.598538 -0.562337
-0.471114 1.599867 -0.566257
-0.468680 1.600541 -0.569515
-0.466178 1.601335 -0.572934
-0.463672 1.601609 -0.575822
-0.461114 1.601898 -0.578754
-0.458335 1.603729 -0.583404
-0.455658 1.604128 -0.586520
-0.452994 1.604021 -0.589106
-0.451305 1.595972 -0.582874
-0.449267 1.590927 -0.579932
-0.446832 1.588880 -0.580325
-0.444547 1.585723 -0.579460
-0.441991 1.584365 -0.580625
-0.439349 1.583442 -0.582293
-0.436777 1.581968 -0.583338
-0.434245 1.580187 -0.584033
-0.431834 1.577674 -0.583877
-0.429376 1.575442 -0.584041
-0.426785 1.573916 -0.585027
-0.424143 1.572612 -0.586277
-0.421862 1.569495 -0.585382
-0.419420 1.567224 -0.585479
-0.416871 1.565477 -0.586199
-0.414260 1.564002 -0.587246
-0.411685 1.562363 -0.588098
-0.408962 1.561341 -0.589705
-0.406780 1.558087 -0.588582
-0.404374 1.555810 -0.588646
-0.401960 1.553609 -0.588797
-0.399124 1.553024 -0.590959
-0.396660 1.551035 -0.591377
-0.394262 1.548839 -0.591531
-0.391694 1.547271 -0.592476
-0.389466 1.544557 -0.591964
-0.387189 1.542066 -0.591726
-0.384609 1.540602 -0.592804
-0.382317 1.538231 -0.592711
-0.380167 1.535470 -0.592102
-0.377624 1.533945 -0.593103
-0.375292 1.531805 -0.593298
-0.373270 1.528809 -0.592351
-0.371074 1.526364 -0.592125
-0.368794 1.524190 -0.592257
-0.366716 1.521505 -0.591692
-0.364609 1.518944 -0.591287
-0.362692 1.515938 -0.590262
-0.360618 1.513386 -0.589845
-0.358349 1.511355 -0.590141
-0.356117 1.509252 -0.590336
-0.354009 1.506879 -0.590150
-0.353404 1.501044 -0.585079
-0.350427 1.500773 -0.587834
-0.348320 1.498507 -0.587772
-0.346572 1.495480 -0.586612
-0.344472 1.493261 -0.586602
-0.342298 1.491216 -0.586843
-0.340255 1.488915 -0.586708
-0.338350 1.486354 -0.586187
-0.336650 1.483415 -0.585096
-0.334914 1.480591 -0.584160
-0.333093 1.477970 -0.583513
-0.330802 1.476265 -0.584241
-0.328334 1.474889 -0.585476
-0.326260 1.472780 -0.585602
-0.324117 1.470804 -0.585933
-0.322225 1.468393 -0.585592
-0.320711 1.465347 -0.584253
-0.319143 1.462433 -0.583102
-0.317347 1.459938 -0.582598
-0.315389 1.457731 -0.582542
-0.312851 1.456473 -0.584008
-0.311793 1.452842 -0.581660
-0.310443 1.449723 -0.580111
-0.306432 1.450740 -0.585309
-0.305720 1.446670 -0.582194
-0.303477 1.444948 -0.582932
-0.301018 1.443536 -0.584197
-0.299842 1.440258 -0.582338
-0.297783 1.438276 -0.582649
-0.294697 1.437725 -0.585409
-0.293490 1.434551 -0.583696
-0.292000 1.431800 -0.582688
-0.289230 1.430771 -0.584675
-0.287715 1.428073 -0.583753
-0.285649 1.426104 -0.584110
-0.283697 1.423991 -0.584214
-0.282519 1.420916 -0.582589
-0.280226 1.419242 -0.583479
-0.278291 1.417125 -0.583575
-0.276823 1.414456 -0.582656
-0.275149 1.412047 -0.582204
-0.273476 1.409649 -0.581768
-0.271470 1.407639 -0.582055
-0.269958 1.405076 -0.581298
-0.267978 1.403042 -0.581544
-0.265564 1.401477 -0.582699
-0.263412 1.399617 -0.583302
-0.261823 1.397160 -0.582743
-0.260540 1.394400 -0.581575
-0.258008 1.392927 -0.582961
-0.256328 1.390584 -0.582618
-0.254676 1.388222 -0.582232
-0.252474 1.386397 -0.582945
-0.251127 1.383751 -0.581973
-0.249255 1.381612 -0.582044
-0.247969 1.378934 -0.580984
-0.246432 1.376500 -0.580427
-0.244773 1.374184 -0.580115
-0.243000 1.371974 -0.580031
-0.241127 1.369852 -0.580140
-0.239300 1.367689 -0.580166
-0.237914 1.365158 -0.579375
-0.236649 1.362538 -0.578376
-0.234343 1.360776 -0.579307
-0.232321 1.358773 -0.579710
-0.230507 1.356602 -0.579737
-0.228599 1.354502 -0.579935
-0.227025 1.352146 -0.579538
-0.224802 1.350278 -0.580305
-0.223066 1.348041 -0.580205
-0.221240 1.345869 -0.580266
-0.219917 1.343338 -0.579453
-0.218369 1.340973 -0.579043
-0.216489 1.338840 -0.579216
-0.214825 1.336556 -0.579017
-0.213838 1.333825 -0.577672
-0.211841 1.331766 -0.578057
-0.210170 1.329492 -0.577891
-0.208086 1.327476 -0.578422
-0.206495 1.325146 -0.578129
-0.203890 1.323432 -0.579520
-0.202083 1.321220 -0.579583
-0.201861 1.318076 -0.577057
-0.200290 1.315737 -0.576756
-0.197843 1.313891 -0.577877
-0.196096 1.311640 -0.577863
-0.194326 1.309396 -0.577888
-0.192340 1.307263 -0.578258
-0.190914 1.304827 -0.577740
-0.188792 1.302750 -0.578324
-0.187241 1.300372 -0.578011
-0.185530 1.298072 -0.577951
-0.183736 1.295807 -0.578023
-0.182645 1.293201 -0.577012
-0.180980 1.290869 -0.576893
-0.179514 1.288440 -0.576472
-0.177155 1.286410 -0.577412
-0.174869 1.284329 -0.578232
-0.174178 1.281548 -0.576651
-0.172198 1.279319 -0.577011
-0.170385 1.277010 -0.577121
-0.169067 1.274494 -0.576498
-0.166836 1.272335 -0.577223
-0.165085 1.269976 -0.577241
-0.163290 1.267625 -0.577321
-0.161689 1.265193 -0.577118
-0.159858 1.262839 -0.577250
-0.158319 1.260372 -0.576961
-0.156351 1.258047 -0.577285
-0.154331 1.255726 -0.577679
-0.152741 1.253254 -0.577462
-0.151814 1.250566 -0.576312
-0.150150 1.248110 -0.576203
-0.148220 1.245728 -0.576464
-0.146684 1.243219 -0.576174
-0.145255 1.240676 -0.575739
-0.143395 1.238248 -0.575895
-0.141779 1.235747 -0.575715
-0.140056 1.233269 -0.575679
-0.138403 1.230767 -0.575546
-0.136618 1.228294 -0.575588
-0.135605 1.225633 -0.574592
-0.133838 1.223151 -0.574609
-0.131908 1.220701 -0.574838
-0.129919 1.218259 -0.575137
-0.128288 1.215738 -0.574960
-0.125239 1.213497 -0.576637
-0.124957 1.210714 -0.574687
-0.122554 1.208341 -0.575503
-0.121167 1.205784 -0.574994
-0.118300 1.203486 -0.576389
-0.116324 1.201036 -0.576626
-0.114947 1.198498 -0.576092
-0.112949 1.196067 -0.576347
-0.110626 1.193689 -0.577004
-0.109024 1.191221 -0.576745
-0.107547 1.188755 -0.576328
-0.105509 1.186377 -0.576608
-0.103824 1.183973 -0.576445
-0.101457 1.181665 -0.577119
-0.099768 1.179302 -0.576952
-0.098768 1.176899 -0.575940
-0.097001 1.174599 -0.575868
-0.095591 1.172296 -0.575362
-0.094523 1.169999 -0.574443
-0.093338 1.167748 -0.573672
-0.091360 1.165587 -0.573856
-0.088669 1.163499 -0.574886
-0.086525 1.161404 -0.575258
-0.085235 1.159295 -0.574617
-0.085098 1.157172 -0.572626
-0.083519 1.155159 -0.572342
-0.080660 1.153229 -0.573555
-0.078220 1.151310 -0.574273
-0.075071 1.149440 -0.575807
-0.073422 1.147559 -0.575603
-0.073176 1.145689 -0.573795
-0.076825 1.143813 -0.567557
-0.501913 1.591617 -0.526408
-0.500366 1.590479 -0.527388
-0.498766 1.589946 -0.528993
-0.497106 1.590041 -0.531256
-0.495395 1.590205 -0.533618
-0.493510 1.593847 -0.539564
-0.491698 1.593692 -0.541671
-0.489827 1.593774 -0.544046
-0.487917 1.593608 -0.546191
-0.485849 1.595514 -0.550523
-0.483871 1.594631 -0.551976
-0.481728 1.595735 -0.555540
-0.479556 1.596350 -0.558624
-0.477394 1.596023 -0.560736
-0.475076 1.597105 -0.564379
-0.472698 1.598189 -0.568060
-0.470215 1.599782 -0.572328
-0.467936 1.598408 -0.573417
-0.465338 1.599984 -0.577735
-0.462891 1.599447 -0.579777
-0.459982 1.602828 -0.586159
-0.457429 1.602322 -0.588294
-0.454920 1.601112 -0.589662
-0.453746 1.588952 -0.578762
-0.451531 1.585552 -0.577615
-0.449198 1.583020 -0.577434
-0.446515 1.582900 -0.579990
-0.443927 1.581908 -0.581571
-0.441366 1.580593 -0.582789
-0.438771 1.579387 -0.584139
-0.436269 1.577520 -0.584727
-0.433813 1.575344 -0.584953
-0.431302 1.573470 -0.585528
-0.428856 1.571226 -0.585665
-0.426328 1.569410 -0.586306
-0.423860 1.567289 -0.586580
-0.421558 1.564376 -0.585895
-0.419106 1.562235 -0.586131
-0.416655 1.560112 -0.586382
-0.414020 1.558820 -0.587644
-0.411384 1.557511 -0.588892
-0.409191 1.554353 -0.587860
-0.406934 1.551537 -0.587235
-0.404589 1.549140 -0.587119
-0.401891 1.548131 -0.588740
-0.399138 1.547297 -0.590592
-0.396990 1.544253 -0.589649
-0.394155 1.543700 -0.591873
-0.391895 1.541135 -0.591529
-0.389641 1.538604 -0.591219
-0.386744 1.538216 -0.593686
-0.384768 1.534856 -0.592288
-0.382199 1.533423 -0.593403
-0.379955 1.531002 -0.593218
-0.377487 1.529289 -0.593966
-0.375733 1.525521 -0.591969
-0.373533 1.523118 -0.591779
-0.371155 1.521245 -0.592301
-0.368870 1.519136 -0.592501
-0.366843 1.516370 -0.591800
-0.365154 1.512779 -0.589949
-0.362723 1.511158 -0.590802
-0.360435 1.509182 -0.591167
-0.358058 1.507442 -0.591863
-0.355860 1.505279 -0.591966
-0.354304 1.501636 -0.589964
-0.352172 1.499396 -0.589939
-0.349960 1.497356 -0.590199
-0.348580 1.493500 -0.587829
-0.346532 1.491169 -0.587648
-0.344355 1.489139 -0.587902
-0.342446 1.486563 -0.587352
-0.340766 1.483552 -0.586147
-0.338979 1.480803 -0.585315
-0.336818 1.478827 -0.585632
-0.335346 1.475530 -0.583950
-0.333478 1.473038 -0.583472
-0.331432 1.470905 -0.583534
-0.328897 1.469682 -0.585000
-0.326094 1.468922 -0.587202
-0.324074 1.466740 -0.587209
-0.322872 1.463147 -0.584993
-0.321246 1.460339 -0.583990
-0.319475 1.457809 -0.583413
-0.317340 1.455903 -0.583831
-0.315625 1.453317 -0.583153
-0.313742 1.451022 -0.582939
-0.312132 1.448314 -0.582042
-0.310151 1.446205 -0.582123
-0.307753 1.444738 -0.583268
-0.305491 1.443053 -0.584065
-0.304115 1.440058 -0.582663
-0.301807 1.438444 -0.583588
-0.300233 1.435778 -0.582723
-0.298054 1.433981 -0.583344
-0.296910 1.430754 -0.581492
-0.294948 1.428676 -0.581620
-0.292293 1.427525 -0.583383
-0.290094 1.425749 -0.584062
-0.288744 1.422872 -0.582784
-0.287097 1.420400 -0.582216
-0.285373 1.418039 -0.581841
-0.282854 1.416667 -0.583269
-0.280785 1.414729 -0.583676
-0.279061 1.412379 -0.583325
-0.277500 1.409847 -0.582630
-0.275747 1.407553 -0.582370
-0.274022 1.405234 -0.582061
-0.272003 1.403252 -0.582395
-0.270248 1.400978 -0.582170
-0.268710 1.398477 -0.581499
-0.266004 1.397232 -0.583289
-0.264963 1.394217 -0.581600
-0.263059 1.392120 -0.581721
-0.261278 1.389900 -0.581596
-0.259780 1.387400 -0.580903
-0.257302 1.385877 -0.582204
-0.255134 1.384035 -0.582869
-0.252858 1.382287 -0.583746
-0.251315 1.379841 -0.583170
-0.249760 1.377416 -0.582631
-0.248511 1.374722 -0.581509
-0.247025 1.372258 -0.580865
-0.245307 1.370008 -0.580681
-0.243383 1.367938 -0.580897
-0.241438 1.365884 -0.581154
-0.240105 1.363315 -0.580263
-0.238451 1.361022 -0.579986
-0.236498 1.358976 -0.580273
-0.234372 1.357062 -0.580879
-0.232774 1.354726 -0.580516
-0.231161 1.352407 -0.580188
-0.229089 1.350438 -0.580697
-0.227433 1.348152 -0.580458
-0.225719 1.345909 -0.580328
-0.223660 1.343917 -0.580816
-0.222131 1.341540 -0.580367
-0.220588 1.339178 -0.579952
-0.218556 1.337154 -0.580397
-0.217182 1.334679 -0.579701
-0.216057 1.332047 -0.578588
-0.214658 1.329605 -0.577961
-0.212754 1.327492 -0.578204
-0.210481 1.325603 -0.579069
-0.208292 1.323648 -0.579786
-0.207188 1.321025 -0.578686
-0.206036 1.318439 -0.577679
-0.203705 1.316552 -0.578635
-0.202860 1.313797 -0.577143
-0.200950 1.311656 -0.577408
-0.198775 1.309654 -0.578103
-0.197115 1.307360 -0.577961
-0.195395 1.305094 -0.577920
-0.193164 1.303091 -0.578696
-0.191946 1.300554 -0.577857
-0.190285 1.298245 -0.577730
-0.189427 1.295536 -0.576344
-0.186949 1.293621 -0.577506
-0.185633 1.291135 -0.576851
-0.184021 1.288789 -0.576661
-0.182427 1.286430 -0.576447
-0.181220 1.283896 -0.575645
-0.178487 1.282028 -0.577173
-0.176689 1.279736 -0.577272
-0.174266 1.277697 -0.578311
-0.172802 1.275247 -0.577904
-0.171592 1.272693 -0.577122
-0.169781 1.270374 -0.577241
-0.167047 1.268399 -0.578719
-0.165174 1.266077 -0.578918
-0.164042 1.263475 -0.578033
-0.164141 1.260439 -0.575369
-0.162101 1.258167 -0.575822
-0.159774 1.255978 -0.576683
-0.157810 1.253651 -0.577015
-0.155932 1.251285 -0.577220
-0.154549 1.248754 -0.576720
-0.152896 1.246302 -0.576605
-0.151001 1.243916 -0.576828
-0.149370 1.241444 -0.576678
-0.147733 1.238967 -0.576535
-0.146654 1.236334 -0.575621
-0.144823 1.233903 -0.575747
-0.143733 1.231275 -0.574854
-0.141857 1.228845 -0.575038
-0.140098 1.226381 -0.575059
-0.138662 1.223837 -0.574640
-0.137177 1.221306 -0.574287
-0.134703 1.218989 -0.575256
-0.132937 1.216512 -0.575271
-0.131153 1.214037 -0.575305
-0.129849 1.211468 -0.574700
-0.127974 1.209015 -0.574847
-0.125684 1.206637 -0.575529
-0.124329 1.204094 -0.574986
-0.123230 1.201521 -0.574108
-0.119809 1.199330 -0.576231
-0.117682 1.196930 -0.576668
-0.115176 1.194591 -0.577581
-0.112920 1.192219 -0.578162
-0.111736 1.189714 -0.577375
-0.110188 1.187279 -0.577048
-0.108295 1.184904 -0.577155
-0.106405 1.182546 -0.577252
-0.104072 1.180255 -0.577896
-0.102327 1.177922 -0.577802
-0.101305 1.175546 -0.576812
-0.101238 1.173123 -0.574657
-0.098113 1.170994 -0.576256
-0.096708 1.168748 -0.575745
-0.095980 1.166490 -0.574416
-0.094665 1.164312 -0.573805
-0.091514 1.162278 -0.575403
-0.088917 1.160232 -0.576325
-0.087580 1.158150 -0.575738
-0.087219 1.156065 -0.574000
-0.086327 1.154048 -0.572903
-0.083684 1.152133 -0.573876
-0.080856 1.150251 -0.575058
-0.078982 1.148370 -0.575121
-0.076639 1.146532 -0.575731
-0.076238 1.144694 -0.574094
-0.074094 1.142922 -0.574481
-0.501513 1.590338 -0.530515
-0.499932 1.589713 -0.532043
-0.498270 1.590604 -0.535137
-0.496569 1.591015 -0.537775
-0.494792 1.592185 -0.541225
-0.493010 1.591904 -0.543211
-0.491177 1.591730 -0.545332
-0.489305 1.591349 -0.547261
-0.487378 1.591110 -0.549361
-0.485271 1.593319 -0.554070
-0.483141 1.594692 -0.557943
-0.481040 1.594609 -0.560302
-0.478855 1.595016 -0.563211
-0.476585 1.595842 -0.566602
-0.474255 1.596681 -0.570042
-0.471832 1.597934 -0.573966
-0.469371 1.598909 -0.577627
-0.467000 1.598271 -0.579548
-0.464499 1.598541 -0.582491
-0.461694 1.601247 -0.588169
-0.459206 1.600361 -0.589889
-0.458033 1.587764 -0.578467
-0.455680 1.585750 -0.578871
-0.453296 1.583835 -0.579387
-0.450953 1.581491 -0.579412
-0.448503 1.579836 -0.580222
-0.445890 1.579188 -0.582196
-0.443422 1.577395 -0.582857
-0.441060 1.574863 -0.582656
-0.438668 1.572497 -0.582641
-0.435765 1.573133 -0.586156
-0.433334 1.570875 -0.586272
-0.430860 1.568848 -0.586657
-0.428514 1.566144 -0.586228
-0.426054 1.564064 -0.586537
-0.423651 1.561708 -0.586508
-0.421268 1.559290 -0.586395
-0.418725 1.557649 -0.587224
-0.416113 1.556303 -0.588419
-0.413676 1.554183 -0.588661
-0.411553 1.550769 -0.587286
-0.409305 1.547970 -0.586659
-0.406755 1.546441 -0.587616
-0.404068 1.545435 -0.589240
-0.401778 1.542912 -0.588943
-0.399454 1.540568 -0.588865
-0.396657 1.539954 -0.591006
-0.394200 1.538115 -0.591580
-0.391536 1.536994 -0.593090
-0.389485 1.533839 -0.591945
-0.387061 1.531963 -0.592466
-0.384760 1.529723 -0.592505
-0.382041 1.528798 -0.594291
-0.379881 1.526175 -0.593817
-0.377887 1.523122 -0.592751
-0.375708 1.520667 -0.592479
-0.373225 1.519103 -0.593413
-0.370722 1.517593 -0.594430
-0.369288 1.513233 -0.591517
-0.367158 1.510809 -0.591255
-0.365197 1.507991 -0.590433
-0.362599 1.506821 -0.591917
-0.360166 1.505229 -0.592817
-0.358047 1.502885 -0.592652
-0.356118 1.500121 -0.591881
-0.353948 1.497961 -0.591967
-0.352044 1.495219 -0.591208
-0.350427 1.491880 -0.589564
-0.348283 1.489756 -0.589680
-0.346297 1.487311 -0.589321
-0.344507 1.484485 -0.588388
-0.342805 1.481519 -0.587231
-0.340730 1.479355 -0.587263
-0.339154 1.476216 -0.585816
-0.337474 1.473331 -0.584735
-0.335558 1.470938 -0.584394
-0.333553 1.468736 -0.584340
-0.331131 1.467319 -0.585506
-0.328726 1.465858 -0.586615
-0.327156 1.462899 -0.585377
-0.325418 1.460276 -0.584652
-0.323597 1.457822 -0.584187
-0.321827 1.455302 -0.583610
-0.320053 1.452814 -0.583072
-0.317851 1.451046 -0.583701
-0.315740 1.449129 -0.584093
-0.313827 1.446901 -0.583973
-0.312018 1.444524 -0.583605
-0.309894 1.442643 -0.584061
-0.307967 1.440466 -0.584023
-0.306451 1.437692 -0.582970
-0.304455 1.435644 -0.583142
-0.302306 1.433817 -0.583698
-0.301067 1.430708 -0.582035
-0.298952 1.428848 -0.582534
-0.296685 1.427191 -0.583396
-0.294380 1.425575 -0.584344
-0.292882 1.422887 -0.583388
-0.291356 1.420257 -0.582523
-0.289915 1.417541 -0.581486
-0.287677 1.415846 -0.582306
-0.285646 1.413885 -0.582647
-0.283760 1.411748 -0.582665
-0.282126 1.409314 -0.582129
-0.280022 1.407445 -0.582652
-0.278073 1.405392 -0.582834
-0.276285 1.403157 -0.582670
-0.274428 1.401004 -0.582664
-0.272670 1.398747 -0.582454
-0.271065 1.396330 -0.581928
-0.269252 1.394146 -0.581857
-0.267457 1.391946 -0.581756
-0.265680 1.389733 -0.581627
-0.263282 1.388154 -0.582789
-0.261881 1.385563 -0.581894
-0.259888 1.383569 -0.582225
-0.258286 1.381194 -0.581766
-0.255623 1.379838 -0.583450
-0.253878 1.377597 -0.583285
-0.252787 1.374757 -0.581833
-0.251179 1.372409 -0.581424
-0.249541 1.370094 -0.581084
-0.247743 1.367926 -0.581064
-0.245682 1.365986 -0.581556
-0.243733 1.363944 -0.581832
-0.241923 1.361781 -0.581845
-0.240243 1.359512 -0.581618
-0.238419 1.357363 -0.581668
-0.236826 1.355028 -0.581291
-0.235292 1.352651 -0.580815
-0.233287 1.350644 -0.581215
-0.231305 1.348613 -0.581572
-0.229585 1.346381 -0.581453
-0.227523 1.344398 -0.581956
-0.226284 1.341816 -0.580982
-0.224497 1.339634 -0.581001
-0.222523 1.337578 -0.581351
-0.221246 1.335041 -0.580479
-0.219460 1.332854 -0.580508
-0.217934 1.330494 -0.580089
-0.216717 1.327935 -0.579145
-0.215188 1.325585 -0.578750
-0.213570 1.323293 -0.578515
-0.211388 1.321349 -0.579244
-0.209957 1.318937 -0.578699
-0.208515 1.316536 -0.578183
-0.206603 1.314411 -0.578458
-0.204402 1.312444 -0.579212
-0.203153 1.309929 -0.578391
-0.201000 1.307918 -0.579064
-0.199495 1.305544 -0.578675
-0.197943 1.303195 -0.578368
-0.196027 1.301034 -0.578656
-0.194205 1.298816 -0.578789
-0.193327 1.296119 -0.577419
-0.191348 1.293973 -0.577811
-0.189938 1.291543 -0.577303
-0.188099 1.289315 -0.577475
-0.186368 1.287030 -0.577480
-0.184884 1.284626 -0.577101
-0.183597 1.282133 -0.576423
-0.182380 1.279611 -0.575647
-0.179674 1.277722 -0.577151
-0.176765 1.275893 -0.578951
-0.175096 1.273532 -0.578858
-0.174347 1.270799 -0.577384
-0.173198 1.268231 -0.576524
-0.169652 1.266574 -0.579238
-0.169692 1.263550 -0.576616
-0.168618 1.260952 -0.575662
-0.166811 1.258615 -0.575791
-0.164549 1.256425 -0.576581
-0.162432 1.254170 -0.577153
-0.160661 1.251786 -0.577217
-0.158844 1.249409 -0.577348
-0.157211 1.246965 -0.577212
-0.155999 1.244388 -0.576476
-0.154232 1.241975 -0.576531
-0.151781 1.239749 -0.577549
-0.150834 1.237088 -0.576445
-0.149335 1.234581 -0.576118
-0.148383 1.231929 -0.575034
-0.146731 1.229461 -0.574924
-0.145036 1.226999 -0.574871
-0.143230 1.224560 -0.574968
-0.141989 1.221986 -0.574289
-0.139892 1.219607 -0.574775
-0.137315 1.217322 -0.575901
-0.135492 1.214868 -0.575998
-0.134159 1.212315 -0.575435
-0.132270 1.209876 -0.575613
-0.130164 1.207477 -0.576073
-0.128133 1.205063 -0.576423
-0.127190 1.202466 -0.575339
-0.125983 1.199930 -0.574604
-0.122788 1.197718 -0.576456
-0.120569 1.195351 -0.577023
-0.118450 1.192975 -0.577452
-0.117674 1.190427 -0.576149
-0.114494 1.188214 -0.577921
-0.113033 1.185791 -0.577489
-0.110988 1.183456 -0.577794
-0.108733 1.181161 -0.578358
-0.108297 1.178696 -0.576630
-0.107667 1.176290 -0.575156
-0.105432 1.174066 -0.575688
-0.104602 1.171745 -0.574471
-0.100555 1.169714 -0.577228
-0.098862 1.167515 -0.577069
-0.097225 1.165343 -0.576841
-0.097891 1.163062 -0.573814
-0.095786 1.160994 -0.574166
-0.091198 1.159082 -0.577506
-0.089863 1.157025 -0.576914
-0.089094 1.154983 -0.575651
-0.088403 1.152982 -0.574307
-0.087237 1.151041 -0.573539
-0.085025 1.149168 -0.574012
-0.080603 1.147375 -0.577078
-0.079161 1.145538 -0.576637
-0.077201 1.143747 -0.576805
-0.077991 1.141960 -0.573787
-0.502674 1.588842 -0.532276
-0.501083 1.589799 -0.535429
-0.499473 1.589355 -0.537178
-0.497775 1.590531 -0.540622
-0.496057 1.590559 -0.542913
-0.494292 1.590528 -0.545170
-0.492487 1.590260 -0.547204
-0.490623 1.590257 -0.549542
-0.488651 1.591503 -0.553227
-0.486673 1.591688 -0.555824
-0.484664 1.591459 -0.558006
-0.482485 1.593255 -0.562388
-0.480312 1.593925 -0.565599
-0.478078 1.594625 -0.568876
-0.475824 1.594835 -0.571651
-0.473574 1.594329 -0.573670
-0.470950 1.597709 -0.579991
-0.468429 1.599009 -0.584070
-0.465950 1.599207 -0.586963
-0.463499 1.598626 -0.589011
-0.460982 1.598280 -0.591341
-0.459804 1.585598 -0.579731
-0.457442 1.583838 -0.580418
-0.455052 1.582126 -0.581162
-0.452675 1.580149 -0.581605
-0.450343 1.577735 -0.581540
-0.447945 1.575716 -0.581927
-0.445510 1.573874 -0.582519
-0.443102 1.571774 -0.582807
-0.440629 1.570037 -0.583520
-0.438130 1.568394 -0.584344
-0.435332 1.568417 -0.587160
-0.433215 1.564482 -0.585247
-0.430559 1.563566 -0.586949
-0.428252 1.560756 -0.586364
-0.425960 1.557923 -0.585736
-0.423410 1.556399 -0.586701
-0.420790 1.555182 -0.588046
-0.418198 1.553804 -0.589200
-0.415735 1.551835 -0.589621
-0.413592 1.548516 -0.588345
-0.411266 1.546058 -0.588133
-0.408810 1.544165 -0.588630
-0.406426 1.542015 -0.588796
-0.403875 1.540531 -0.589812
-0.401741 1.537501 -0.588838
-0.399434 1.535177 -0.588762
-0.396786 1.534090 -0.590293
-0.394349 1.532266 -0.590868
-0.391671 1.531261 -0.592525
-0.389274 1.529319 -0.592951
-0.386913 1.527286 -0.593253
-0.384430 1.525657 -0.594096
-0.382127 1.523495 -0.594224
-0.379962 1.520953 -0.593831
-0.377732 1.518649 -0.593753
-0.375657 1.515943 -0.593118
-0.373482 1.513567 -0.592926
-0.371711 1.510139 -0.591263
-0.369730 1.507346 -0.590464
-0.367446 1.505391 -0.590832
-0.364933 1.504031 -0.592043
-0.362467 1.502544 -0.593085
-0.360255 1.500440 -0.593250
-0.358122 1.498169 -0.593172
-0.356180 1.495479 -0.592482
-0.354038 1.493288 -0.592508
-0.352221 1.490393 -0.591495
-0.350122 1.488164 -0.591453
-0.348085 1.485824 -0.591243
-0.346527 1.482498 -0.589549
-0.344560 1.480079 -0.589199
-0.342536 1.477803 -0.589059
-0.340197 1.476179 -0.589909
-0.339206 1.471909 -0.586702
-0.337271 1.469548 -0.586403
-0.335332 1.467215 -0.586142
-0.333632 1.464460 -0.585214
-0.331402 1.462705 -0.585850
-0.329868 1.459706 -0.584517
-0.327837 1.457620 -0.584625
-0.325949 1.455299 -0.584353
-0.324188 1.452778 -0.583754
-0.322338 1.450431 -0.583428
-0.320145 1.448663 -0.584046
-0.317904 1.446970 -0.584798
-0.315872 1.444940 -0.584998
-0.314263 1.442258 -0.584104
-0.312206 1.440288 -0.584401
-0.310359 1.438003 -0.584165
-0.308543 1.435687 -0.583872
-0.306713 1.433404 -0.583630
-0.305002 1.430964 -0.583111
-0.302879 1.429119 -0.583629
-0.300851 1.427140 -0.583916
-0.298582 1.425491 -0.584794
-0.296618 1.423422 -0.584934
-0.295172 1.420675 -0.583850
-0.293822 1.417829 -0.582569
-0.291891 1.415751 -0.582680
-0.289888 1.413767 -0.582963
-0.287937 1.411719 -0.583133
-0.286239 1.409365 -0.582733
-0.284405 1.407184 -0.582654
-0.282681 1.404881 -0.582340
-0.281736 1.401684 -0.580306
-0.280114 1.399296 -0.579806
-0.276999 1.398591 -0.582588
-0.275623 1.395928 -0.581560
-0.274079 1.393467 -0.580918
-0.271844 1.391756 -0.581768
-0.269905 1.389723 -0.581984
-0.268138 1.387512 -0.581844
-0.266234 1.385444 -0.581997
-0.264024 1.383682 -0.582789
-0.262379 1.381354 -0.582414
-0.260572 1.379189 -0.582379
-0.258781 1.377012 -0.582320
-0.257101 1.374733 -0.582044
-0.255161 1.372700 -0.582297
-0.253493 1.370416 -0.582012
-0.252353 1.367666 -0.580695
-0.250706 1.365382 -0.580396
-0.249028 1.363128 -0.580164
-0.247257 1.360958 -0.580122
-0.244930 1.359253 -0.581150
-0.242288 1.357793 -0.582771
-0.240656 1.355492 -0.582464
-0.239279 1.352993 -0.581685
-0.238259 1.350225 -0.580254
-0.235868 1.348530 -0.581389
-0.233589 1.346734 -0.582309
-0.232586 1.343976 -0.580884
-0.230897 1.341737 -0.580728
-0.228930 1.339699 -0.581083
-0.226588 1.337919 -0.582110
-0.224215 1.336146 -0.583185
-0.224432 1.332588 -0.579652
-0.221937 1.330894 -0.580950
-0.219856 1.328907 -0.581509
-0.218522 1.326427 -0.580764
-0.217442 1.323792 -0.579591
-0.215737 1.321560 -0.579511
-0.213781 1.319480 -0.579865
-0.212410 1.317039 -0.579224
-0.210775 1.314760 -0.579039
-0.208401 1.312908 -0.580101
-0.206597 1.310714 -0.580200
-0.204378 1.308747 -0.580992
-0.203144 1.306224 -0.580148
-0.201614 1.303866 -0.579803
-0.200779 1.301141 -0.578327
-0.199221 1.298804 -0.578047
-0.196922 1.296843 -0.578970
-0.195524 1.294415 -0.578435
-0.194441 1.291834 -0.577403
-0.192566 1.289639 -0.577645
-0.190604 1.287476 -0.578023
-0.188736 1.285259 -0.578251
-0.187291 1.282842 -0.577816
-0.186346 1.280204 -0.576608
-0.184800 1.277833 -0.576345
-0.182959 1.275582 -0.576540
-0.179355 1.274049 -0.579435
-0.177708 1.271685 -0.579317
-0.176740 1.269048 -0.578172
-0.175506 1.266519 -0.577440
-0.174042 1.264077 -0.577060
-0.172615 1.261619 -0.576628
-0.171362 1.259096 -0.575944
-0.168599 1.257100 -0.577497
-0.165946 1.255042 -0.578871
-0.164887 1.252429 -0.577900
-0.163970 1.249774 -0.576730
-0.162589 1.247272 -0.576242
-0.160329 1.245037 -0.577025
-0.158549 1.242642 -0.577110
-0.156827 1.240223 -0.577110
-0.155155 1.237782 -0.577037
-0.154591 1.235033 -0.575395
-0.153088 1.232545 -0.575087
-0.150855 1.230243 -0.575803
-0.149099 1.227809 -0.575844
-0.147681 1.225288 -0.575413
-0.146042 1.222820 -0.575287
-0.144274 1.220379 -0.575336
-0.142927 1.217843 -0.574805
-0.140169 1.215609 -0.576196
-0.137848 1.213270 -0.576977
-0.136237 1.210784 -0.576789
-0.134370 1.208350 -0.576942
-0.132461 1.205925 -0.577145
-0.131367 1.203361 -0.576257
-0.129768 1.200897 -0.576042
-0.128129 1.198448 -0.575876
-0.125449 1.196167 -0.577070
-0.123427 1.193789 -0.577391
-0.121700 1.191379 -0.577320
-0.119776 1.189009 -0.577499
-0.117029 1.186756 -0.578732
-0.114904 1.184433 -0.579151
-0.113642 1.182028 -0.578460
-0.111771 1.179715 -0.578545
-0.111619 1.177252 -0.576451
-0.110457 1.174927 -0.575644
-0.109043 1.172656 -0.575156
-0.106140 1.170536 -0.576526
-0.104248 1.168355 -0.576625
-0.100992 1.166297 -0.578408
-0.101708 1.163997 -0.575283
-0.100569 1.161865 -0.574458
-0.098425 1.159825 -0.574864
-0.095157 1.157867 -0.576632
-0.092680 1.155893 -0.577426
-0.091804 1.153884 -0.576287
-0.091002 1.151915 -0.575070
-0.089409 1.150012 -0.574807
-0.088297 1.148132 -0.573978
-0.086241 1.146311 -0.574274
-0.080917 1.144574 -0.578421
-0.082966 1.142753 -0.573885
-0.502262 1.587871 -0.536757
-0.500647 1.588828 -0.539963
-0.498987 1.589416 -0.542822
-0.497300 1.589139 -0.544810
-0.495560 1.589098 -0.547069
-0.493740 1.589952 -0.550300
-0.491897 1.589976 -0.552685
-0.490031 1.589395 -0.554451
-0.488059 1.590064 -0.557579
-0.486064 1.590092 -0.560048
-0.483958 1.591173 -0.563684
-0.481801 1.592114 -0.567206
-0.479598 1.592826 -0.570514
-0.477348 1.593395 -0.573698
-0.474940 1.595297 -0.578386
-0.472532 1.596352 -0.582182
-0.470092 1.597063 -0.585631
-0.467674 1.596925 -0.588161
-0.465349 1.595353 -0.589097
-0.463811 1.585832 -0.581025
-0.461660 1.582521 -0.579943
-0.459271 1.581228 -0.581156
-0.456872 1.579794 -0.582216
-0.454541 1.577622 -0.582426
-0.452248 1.575055 -0.582172
-0.449733 1.574032 -0.583718
-0.447377 1.571745 -0.583785
-0.444938 1.569952 -0.584430
-0.442503 1.568059 -0.584957
-0.440110 1.565853 -0.585106
-0.437744 1.563467 -0.585035
-0.435329 1.561359 -0.585290
-0.432739 1.560197 -0.586691
-0.430336 1.557978 -0.586809
-0.427967 1.555596 -0.586718
-0.425485 1.553796 -0.587339
-0.422920 1.552385 -0.588442
-0.420359 1.550928 -0.589492
-0.418004 1.548532 -0.589366
-0.415550 1.546602 -0.589821
-0.413257 1.544014 -0.589435
-0.410948 1.541547 -0.589193
-0.408409 1.540039 -0.590175
-0.406235 1.537124 -0.589341
-0.403848 1.535083 -0.589627
-0.401536 1.532795 -0.589587
-0.399282 1.530341 -0.589321
-0.396708 1.529046 -0.590580
-0.394409 1.526815 -0.590601
-0.391839 1.525510 -0.591855
-0.389118 1.524680 -0.593758
-0.386756 1.522698 -0.594118
-0.384477 1.520489 -0.594167
-0.382189 1.518336 -0.594288
-0.380018 1.515875 -0.593981
-0.377853 1.513442 -0.593703
-0.375787 1.510775 -0.593092
-0.373752 1.508073 -0.592420
-0.371724 1.505403 -0.591780
-0.369486 1.503332 -0.591978
-0.367156 1.501516 -0.592539
-0.364789 1.499801 -0.593248
-0.362499 1.497907 -0.593703
-0.360557 1.495192 -0.592965
-0.358379 1.493076 -0.593093
-0.356223 1.490928 -0.593170
-0.354209 1.488480 -0.592801
-0.352721 1.484904 -0.590741
-0.350800 1.482339 -0.590171
-0.348558 1.480491 -0.590673
-0.346485 1.478298 -0.590654
-0.344491 1.475960 -0.590412
-0.342674 1.473292 -0.589655
-0.340797 1.470778 -0.589124
-0.339239 1.467674 -0.587664
-0.337410 1.465135 -0.587071
-0.335496 1.462783 -0.586761
-0.333569 1.460476 -0.586520
-0.331838 1.457834 -0.585735
-0.329891 1.455605 -0.585605
-0.327904 1.453461 -0.585609
-0.326385 1.450530 -0.584326
-0.324533 1.448197 -0.584007
-0.322514 1.446155 -0.584166
-0.320502 1.444110 -0.584321
-0.318650 1.441817 -0.584060
-0.316762 1.439594 -0.583913
-0.314617 1.437778 -0.584458
-0.312463 1.435974 -0.585029
-0.311042 1.433077 -0.583718
-0.309323 1.430650 -0.583205
-0.307102 1.428961 -0.583982
-0.305147 1.426888 -0.584090
-0.302840 1.425310 -0.585080
-0.300855 1.423279 -0.585273
-0.299093 1.420951 -0.584932
-0.297460 1.418465 -0.584299
-0.295952 1.415835 -0.583389
-0.294042 1.413739 -0.583456
-0.291863 1.411985 -0.584161
-0.290202 1.409583 -0.583660
-0.288482 1.407266 -0.583314
-0.286696 1.405039 -0.583133
-0.285659 1.401937 -0.581266
-0.284301 1.399241 -0.580160
-0.281716 1.397966 -0.581815
-0.280023 1.395668 -0.581480
-0.277887 1.393866 -0.582129
-0.276260 1.391505 -0.581669
-0.274842 1.388930 -0.580771
-0.272924 1.386897 -0.580964
-0.270513 1.385375 -0.582212
-0.268642 1.383285 -0.582307
-0.267024 1.380942 -0.581877
-0.264607 1.379396 -0.583122
-0.262974 1.377072 -0.582737
-0.261504 1.374599 -0.582028
-0.259964 1.372205 -0.581480
-0.258138 1.370084 -0.581522
-0.255603 1.368606 -0.582991
-0.254769 1.365589 -0.581057
-0.253362 1.363104 -0.580291
-0.251698 1.360853 -0.580044
-0.250309 1.358371 -0.579268
-0.249209 1.355660 -0.577949
-0.247373 1.353572 -0.578069
-0.245265 1.351703 -0.578713
-0.243136 1.349840 -0.579390
-0.241401 1.347659 -0.579322
-0.239605 1.345526 -0.579375
-0.237394 1.343705 -0.580201
-0.235713 1.341476 -0.580041
-0.233639 1.339537 -0.580611
-0.231305 1.337775 -0.581653
-0.229791 1.335418 -0.581196
-0.229343 1.332326 -0.578827
-0.226306 1.331028 -0.581131
-0.224089 1.329149 -0.581951
-0.222379 1.326922 -0.581866
-0.220673 1.324692 -0.581778
-0.219873 1.321884 -0.580111
-0.218206 1.319635 -0.579973
-0.216226 1.317577 -0.580381
-0.214198 1.315540 -0.580872
-0.213414 1.312758 -0.579234
-0.211028 1.310921 -0.580339
-0.208400 1.309204 -0.581840
-0.207825 1.306318 -0.579883
-0.205509 1.304405 -0.580855
-0.204212 1.301929 -0.580130
-0.202837 1.299497 -0.579542
-0.201130 1.297240 -0.579508
-0.199291 1.295044 -0.579693
-0.198366 1.292387 -0.578394
-0.196794 1.290055 -0.578155
-0.194673 1.287982 -0.578802
-0.192786 1.285785 -0.579069
-0.191245 1.283421 -0.578787
-0.189984 1.280929 -0.578066
-0.188642 1.278474 -0.577482
-0.187169 1.276075 -0.577110
-0.185342 1.273823 -0.577291
-0.183331 1.271637 -0.577757
-0.180163 1.269902 -0.579999
-0.179018 1.267340 -0.579122
-0.177833 1.264797 -0.578315
-0.176236 1.262409 -0.578140
-0.175076 1.259857 -0.577309
-0.173943 1.257297 -0.576447
-0.172225 1.254943 -0.576463
-0.169061 1.253070 -0.578626
-0.167010 1.250798 -0.579122
-0.166357 1.248063 -0.577559
-0.164593 1.245686 -0.577634
-0.162762 1.243321 -0.577804
-0.160753 1.241000 -0.578228
-0.159394 1.238480 -0.577711
-0.158204 1.235913 -0.576953
-0.157055 1.233337 -0.576143
-0.155683 1.230823 -0.575655
-0.153260 1.228577 -0.576651
-0.151445 1.226165 -0.576782
-0.150313 1.223585 -0.575952
-0.148765 1.221106 -0.575706
-0.146960 1.218685 -0.575814
-0.146984 1.215868 -0.573395
-0.144274 1.213644 -0.574747
-0.141921 1.211334 -0.575595
-0.138293 1.209261 -0.578164
-0.136799 1.206769 -0.577816
-0.135378 1.204270 -0.577368
-0.133833 1.201803 -0.577086
-0.132379 1.199331 -0.576679
-0.129897 1.197031 -0.577637
-0.128419 1.194582 -0.577253
-0.126938 1.192148 -0.576871
-0.124511 1.189859 -0.577727
-0.121773 1.187616 -0.578976
-0.118901 1.185392 -0.580381
-0.117083 1.183050 -0.580407
-0.115279 1.180726 -0.580410
-0.115006 1.178266 -0.578448
-0.114119 1.175907 -0.577282
-0.112941 1.173608 -0.576492
-0.110282 1.171468 -0.577576
-0.108556 1.169271 -0.577473
-0.106934 1.167094 -0.577238
-0.105663 1.164925 -0.576565
-0.103545 1.162844 -0.576947
-0.102603 1.160723 -0.575871
-0.100711 1.158692 -0.575971
-0.097869 1.156735 -0.577232
-0.096751 1.154730 -0.576382
-0.095212 1.152779 -0.576049
-0.093383 1.150873 -0.576069
-0.091720 1.148995 -0.575892
-0.090325 1.147146 -0.575396
-0.089555 1.145322 -0.574160
-0.088359 1.143546 -0.573444
-0.087033 1.141808 -0.572891
-0.501829 1.587270 -0.541680
-0.500198 1.587756 -0.544450
-0.498538 1.587388 -0.546351
-0.496876 1.585552 -0.546724
-0.495006 1.589008 -0.552730
-0.493207 1.588482 -0.554544
-0.491359 1.588075 -0.556506
-0.489452 1.587920 -0.558764
-0.487466 1.588388 -0.561722
-0.485449 1.588421 -0.564236
-0.483342 1.589128 -0.567516
-0.481151 1.590250 -0.571287
-0.478883 1.591587 -0.575335
-0.476456 1.594232 -0.580879
-0.474165 1.594165 -0.583445
-0.471904 1.593144 -0.584964
-0.469412 1.594295 -0.588951
-0.467440 1.589255 -0.585943
-0.466059 1.578358 -0.576209
-0.463672 1.577743 -0.578173
-0.461298 1.576678 -0.579635
-0.458806 1.576359 -0.581973
-0.456409 1.574945 -0.583054
-0.454183 1.572015 -0.582361
-0.451845 1.569883 -0.582595
-0.448877 1.572152 -0.588045
-0.446637 1.569016 -0.587103
-0.444679 1.564055 -0.583955
-0.442045 1.563522 -0.586104
-0.439597 1.561710 -0.586718
-0.437274 1.559129 -0.586393
-0.434863 1.557052 -0.586675
-0.432226 1.556185 -0.588444
-0.429833 1.553962 -0.588544
-0.427494 1.551480 -0.588316
-0.424975 1.549908 -0.589216
-0.422606 1.547608 -0.589201
-0.420202 1.545498 -0.589421
-0.417738 1.543675 -0.589999
-0.415456 1.541082 -0.589591
-0.413037 1.539111 -0.589973
-0.410690 1.536871 -0.590003
-0.408190 1.535262 -0.590848
-0.405837 1.533100 -0.590972
-0.403608 1.530517 -0.590534
-0.401262 1.528407 -0.590713
-0.399012 1.525993 -0.590482
-0.396663 1.523964 -0.590759
-0.394286 1.522057 -0.591197
-0.391998 1.519880 -0.591268
-0.389306 1.519018 -0.593129
-0.387046 1.516791 -0.593132
-0.384935 1.514153 -0.592563
-0.382415 1.512769 -0.593723
-0.379958 1.511199 -0.594632
-0.377935 1.508416 -0.593842
-0.375693 1.506287 -0.593964
-0.373670 1.503598 -0.593286
-0.371593 1.501102 -0.592872
-0.369324 1.499141 -0.593217
-0.367258 1.496685 -0.592847
-0.365135 1.494407 -0.592728
-0.363021 1.492136 -0.592614
-0.360598 1.490623 -0.593613
-0.358851 1.487542 -0.592293
-0.356834 1.485130 -0.591955
-0.355046 1.482241 -0.590889
-0.352932 1.480112 -0.590959
-0.350863 1.477905 -0.590907
-0.348764 1.475779 -0.590977
-0.346873 1.473244 -0.590415
-0.345006 1.470692 -0.589816
-0.343274 1.467903 -0.588836
-0.341474 1.465287 -0.588114
-0.339439 1.463151 -0.588139
-0.337360 1.461113 -0.588320
-0.335449 1.458774 -0.588019
-0.333591 1.456361 -0.587592
-0.331614 1.454182 -0.587537
-0.329590 1.452098 -0.587638
-0.328902 1.447736 -0.583982
-0.326872 1.445720 -0.584170
-0.324960 1.443518 -0.584046
-0.322977 1.441443 -0.584135
-0.321060 1.439272 -0.584061
-0.319132 1.437128 -0.584031
-0.317115 1.435131 -0.584254
-0.315344 1.432766 -0.583840
-0.313460 1.430585 -0.583742
-0.311608 1.428367 -0.583578
-0.309907 1.425943 -0.583044
-0.307354 1.424744 -0.584687
-0.305652 1.422334 -0.584181
-0.303632 1.420376 -0.584484
-0.301802 1.418163 -0.584326
