ply
format ascii 1.0
comment ---
element vertex 1653
property float x
property float y
property float z
element face 0
property list uchar uint vertex_indices
end_header
-0.148080 1.520759 -0.591800
-0.146269 1.517704 -0.591292
-0.144230 1.514890 -0.591111
-0.141629 1.512634 -0.591715
-0.138567 1.510816 -0.592950
-0.139562 1.505095 -0.588607
-0.137098 1.502724 -0.589035
-0.134578 1.500400 -0.589536
-0.132595 1.497575 -0.589309
-0.131337 1.494098 -0.588114
-0.128873 1.491726 -0.588544
-0.126105 1.489618 -0.589375
-0.123871 1.487031 -0.589494
-0.121409 1.484640 -0.589912
-0.119122 1.482095 -0.590100
-0.118047 1.478531 -0.588713
-0.115331 1.476351 -0.589462
-0.113167 1.473710 -0.589497
-0.111376 1.470769 -0.589055
-0.109838 1.467635 -0.588298
-0.109091 1.463894 -0.586551
-0.106275 1.461785 -0.587426
-0.103868 1.459351 -0.587781
-0.101344 1.457000 -0.588280
-0.098620 1.454790 -0.589024
-0.096574 1.452071 -0.588924
-0.095008 1.449007 -0.588239
-0.095140 1.444743 -0.585489
-0.093557 1.441730 -0.584851
-0.090478 1.439765 -0.586027
-0.087591 1.437650 -0.586961
-0.085519 1.434970 -0.586912
-0.084983 1.431268 -0.585036
-0.083161 1.428439 -0.584703
-0.080779 1.425976 -0.585034
-0.077875 1.423840 -0.585975
-0.076039 1.421017 -0.585659
-0.075258 1.417544 -0.584122
-0.072973 1.415010 -0.584338
-0.070616 1.412516 -0.584637
-0.068484 1.409881 -0.584675
-0.066623 1.407085 -0.584402
-0.064200 1.404614 -0.584772
-0.062100 1.401952 -0.584772
-0.060206 1.399171 -0.584540
-0.059389 1.395799 -0.583106
-0.056573 1.393527 -0.583910
-0.054020 1.391099 -0.584415
-0.051968 1.388397 -0.584363
-0.051247 1.385002 -0.582847
-0.048412 1.382702 -0.583657
-0.046601 1.379872 -0.583343
-0.045357 1.376761 -0.582415
-0.042688 1.374351 -0.583033
-0.040268 1.371807 -0.583378
-0.038838 1.368786 -0.582657
-0.036198 1.366329 -0.583231
-0.034839 1.363274 -0.582439
-0.034866 1.359604 -0.580188
-0.031901 1.357274 -0.581101
-0.029857 1.354525 -0.581040
-0.027831 1.351761 -0.580958
-0.025596 1.349077 -0.581091
-0.024026 1.346110 -0.580533
-0.022193 1.343248 -0.580248
-0.019281 1.340807 -0.581067
-0.016700 1.338215 -0.581539
-0.016788 1.334590 -0.579291
-0.013896 1.332100 -0.580074
-0.010219 1.329876 -0.581638
-0.009096 1.326700 -0.580622
-0.009122 1.323121 -0.578461
-0.004993 1.320996 -0.580450
-0.001563 1.318594 -0.581725
-0.001727 1.314969 -0.579437
0.002569 1.312811 -0.581547
0.004274 1.309786 -0.581099
0.006299 1.306854 -0.580961
0.007841 1.303762 -0.580350
0.009200 1.300609 -0.579560
0.011329 1.297676 -0.579514
0.012213 1.294376 -0.578268
0.013900 1.291300 -0.577794
0.018394 1.288975 -0.579986
0.016219 1.284843 -0.575837
0.020872 1.282510 -0.578157
0.024448 1.279860 -0.579440
0.025909 1.276659 -0.578726
0.026356 1.273212 -0.577066
0.029066 1.270296 -0.577514
0.031207 1.267230 -0.577426
0.033849 1.264260 -0.577793
0.036173 1.261203 -0.577859
0.037248 1.257876 -0.576777
0.038367 1.254559 -0.575738
0.041942 1.251717 -0.576925
0.045618 1.248866 -0.578189
0.047154 1.245603 -0.577513
0.049779 1.242530 -0.577813
0.054040 1.239719 -0.579562
0.061976 1.237471 -0.584554
-0.056855 1.212700 -0.475852
-0.056894 1.209917 -0.474199
-0.054286 1.207522 -0.474869
-0.055326 1.204645 -0.472361
-0.059762 1.201384 -0.466932
-0.054566 1.199353 -0.469857
-0.050178 1.197204 -0.472067
-0.050077 1.194576 -0.470593
-0.045773 1.192415 -0.472718
-0.045439 1.189860 -0.471458
-0.043819 1.187461 -0.471302
-0.043521 1.184974 -0.470040
-0.041138 1.182698 -0.470545
-0.034938 1.180733 -0.474250
-0.038815 1.178042 -0.469535
-0.447975 1.633711 -0.441003
-0.445729 1.633900 -0.442877
-0.443298 1.634964 -0.445449
-0.440713 1.636639 -0.448525
-0.438398 1.636186 -0.450004
-0.435946 1.636305 -0.451951
-0.433196 1.637901 -0.455074
-0.430634 1.638060 -0.457113
-0.428090 1.637859 -0.458896
-0.424585 1.642667 -0.464654
-0.421793 1.643224 -0.467103
-0.418793 1.644618 -0.470246
-0.415620 1.646618 -0.473909
-0.412653 1.647341 -0.476580
-0.409588 1.648335 -0.479497
-0.406282 1.650244 -0.483187
-0.403010 1.651767 -0.486595
-0.399505 1.654113 -0.490711
-0.395865 1.656802 -0.495149
-0.392678 1.657381 -0.497873
-0.388614 1.661388 -0.503482
-0.384174 1.666600 -0.510155
-0.380473 1.668635 -0.514208
-0.377447 1.667953 -0.515987
-0.374281 1.667747 -0.518182
-0.369810 1.672183 -0.524372
-0.366182 1.673392 -0.527834
-0.361124 1.679417 -0.535498
-0.357300 1.680963 -0.539327
-0.353947 1.680831 -0.541715
-0.349506 1.684173 -0.547177
-0.345597 1.685636 -0.551022
-0.341231 1.688411 -0.556064
-0.337243 1.689871 -0.559971
-0.332951 1.692132 -0.564628
-0.329588 1.691533 -0.566735
-0.325295 1.693578 -0.571258
-0.320024 1.698259 -0.578228
-0.316604 1.697588 -0.580340
-0.313170 1.696928 -0.582472
-0.309392 1.697157 -0.585443
-0.305212 1.698383 -0.589366
-0.306392 1.685689 -0.580239
-0.303541 1.683599 -0.581019
-0.299799 1.683745 -0.583923
-0.297144 1.681174 -0.584251
-0.293889 1.680078 -0.585990
-0.290908 1.678317 -0.587095
-0.287858 1.676719 -0.588360
-0.285273 1.674053 -0.588587
-0.282810 1.671141 -0.588567
-0.279581 1.669968 -0.590252
-0.276688 1.668041 -0.591199
-0.273945 1.665796 -0.591831
-0.271295 1.663366 -0.592275
-0.268968 1.660279 -0.592053
-0.266557 1.657403 -0.592035
-0.264098 1.654652 -0.592136
-0.261507 1.652187 -0.592524
-0.258855 1.649858 -0.593050
-0.255140 1.649594 -0.595717
-0.253507 1.645310 -0.594213
-0.250544 1.643591 -0.595376
-0.248109 1.640882 -0.595502
-0.246495 1.636693 -0.594052
-0.243659 1.634763 -0.594989
-0.241335 1.631916 -0.594948
-0.238005 1.630850 -0.596824
-0.235689 1.628004 -0.596783
-0.233492 1.624973 -0.596534
-0.231373 1.621833 -0.596157
-0.229132 1.618921 -0.596022
-0.225656 1.618040 -0.598138
-0.223277 1.615355 -0.598259
-0.221934 1.611040 -0.596541
-0.219953 1.607776 -0.595988
-0.217336 1.605520 -0.596572
-0.215058 1.602745 -0.596564
-0.213176 1.599386 -0.595880
-0.210714 1.596913 -0.596210
-0.208925 1.593460 -0.595397
-0.206833 1.590472 -0.595116
-0.204502 1.587840 -0.595249
-0.202011 1.585437 -0.595652
-0.199056 1.583678 -0.596826
-0.197441 1.580070 -0.595787
-0.195027 1.577569 -0.596072
-0.193324 1.574123 -0.595207
-0.191139 1.571335 -0.595135
-0.188839 1.568706 -0.595254
-0.186609 1.565991 -0.595265
-0.184008 1.563751 -0.595867
-0.181808 1.561004 -0.595837
-0.178765 1.559301 -0.597126
-0.178237 1.554525 -0.594512
-0.177163 1.550460 -0.592773
-0.174255 1.548606 -0.593864
-0.171356 1.546723 -0.594930
-0.171631 1.541169 -0.591201
-0.170702 1.537061 -0.589326
-0.165847 1.537399 -0.593325
-0.164766 1.533485 -0.591693
-0.162937 1.530424 -0.591184
-0.161271 1.527200 -0.590445
-0.158199 1.525492 -0.591763
-0.156545 1.522271 -0.591019
-0.154860 1.519102 -0.590333
-0.152918 1.516210 -0.590023
-0.150165 1.514148 -0.590871
-0.147276 1.512208 -0.591902
-0.145016 1.509633 -0.592043
-0.144161 1.505694 -0.590227
-0.142458 1.502605 -0.589609
-0.139762 1.500467 -0.590368
-0.137698 1.497729 -0.590255
-0.137894 1.492914 -0.587067
-0.136092 1.489974 -0.586624
-0.134177 1.487145 -0.586339
-0.130674 1.485730 -0.588189
-0.127275 1.484193 -0.589880
-0.126107 1.480706 -0.588599
-0.124695 1.477450 -0.587655
-0.122624 1.474765 -0.587587
-0.119792 1.472714 -0.588514
-0.119949 1.468205 -0.585555
-0.116114 1.466967 -0.587781
-0.114764 1.463716 -0.586795
-0.112997 1.460810 -0.586354
-0.110355 1.458588 -0.587029
-0.107839 1.456262 -0.587541
-0.107428 1.452341 -0.585402
-0.105377 1.449675 -0.585337
-0.102954 1.447284 -0.585738
-0.099759 1.445443 -0.587091
-0.098464 1.442228 -0.586092
-0.096386 1.439578 -0.586063
-0.094136 1.437048 -0.586245
-0.092691 1.433965 -0.585449
-0.090772 1.431213 -0.585236
-0.088241 1.428872 -0.585759
-0.086275 1.426151 -0.585604
-0.084786 1.423123 -0.584883
-0.081997 1.420934 -0.585709
-0.080441 1.417956 -0.585075
-0.078620 1.415151 -0.584758
-0.076987 1.412234 -0.584225
-0.073638 1.410354 -0.585690
-0.075860 1.405152 -0.580701
-0.073174 1.402886 -0.581408
-0.070706 1.400481 -0.581857
-0.066365 1.399128 -0.584438
-0.065837 1.395607 -0.582668
-0.063914 1.392874 -0.582489
-0.064245 1.388921 -0.579778
-0.062094 1.386327 -0.579868
-0.059918 1.383741 -0.579986
-0.054721 1.382710 -0.583453
-0.054008 1.379343 -0.581936
-0.049983 1.377650 -0.584072
-0.048641 1.374601 -0.583253
-0.046757 1.371820 -0.583030
-0.044741 1.369100 -0.582951
-0.046229 1.364732 -0.579088
-0.043503 1.362356 -0.579787
-0.040713 1.359992 -0.580546
-0.038318 1.357435 -0.580877
-0.036180 1.354753 -0.580931
-0.033838 1.352150 -0.581197
-0.031852 1.349385 -0.581084
-0.029890 1.346602 -0.580943
-0.028494 1.343582 -0.580212
-0.026835 1.340669 -0.579757
-0.024009 1.338211 -0.580509
-0.022439 1.335248 -0.579960
-0.020710 1.332343 -0.579574
-0.018268 1.329698 -0.579917
-0.015392 1.327195 -0.580692
-0.012853 1.324549 -0.581118
-0.011744 1.321384 -0.580094
-0.009648 1.318561 -0.580065
-0.008444 1.315424 -0.579140
-0.005905 1.312729 -0.579548
-0.002739 1.310217 -0.580569
0.000304 1.307638 -0.581455
0.001005 1.304309 -0.580026
0.002383 1.301190 -0.579266
0.006555 1.298893 -0.581232
0.005898 1.295159 -0.578487
0.007664 1.292132 -0.578102
0.009986 1.289248 -0.578248
0.013067 1.286551 -0.579117
0.014305 1.283343 -0.578211
0.014444 1.279851 -0.576261
0.018897 1.277445 -0.578407
0.020001 1.274182 -0.577370
0.021889 1.271103 -0.577071
0.025924 1.268504 -0.578777
0.027451 1.265309 -0.578126
0.027368 1.261760 -0.575979
0.029802 1.258755 -0.576170
0.033652 1.256021 -0.577656
0.035430 1.252847 -0.577224
0.036956 1.249619 -0.576560
0.040764 1.246809 -0.577971
0.042405 1.243584 -0.577402
0.046885 1.240847 -0.579393
0.050544 1.237939 -0.580626
0.060446 1.236002 -0.587430
-0.059854 1.211278 -0.476534
-0.058770 1.208668 -0.475871
-0.058514 1.205959 -0.474482
-0.058174 1.203285 -0.473179
-0.060571 1.200299 -0.469495
-0.054165 1.198402 -0.473500
-0.054261 1.195740 -0.471840
-0.049457 1.193633 -0.474426
-0.050144 1.190959 -0.472275
-0.047261 1.188670 -0.473202
-0.048439 1.186029 -0.470663
-0.047821 1.183595 -0.469676
-0.043670 1.181477 -0.471696
-0.043982 1.179036 -0.469944
-0.023141 1.178096 -0.485994
-0.449438 1.631984 -0.442614
-0.447319 1.631385 -0.443892
-0.445085 1.631249 -0.445551
-0.442094 1.635801 -0.450857
-0.439801 1.635268 -0.452281
-0.437492 1.634562 -0.453595
-0.434482 1.637836 -0.458047
-0.431996 1.637582 -0.459774
-0.429602 1.636567 -0.460923
-0.426509 1.639232 -0.465014
-0.423105 1.643190 -0.470185
-0.420420 1.642982 -0.472063
-0.417235 1.645127 -0.475862
-0.414339 1.645560 -0.478310
-0.411558 1.645264 -0.480188
-0.407582 1.650395 -0.486534
-0.404413 1.651471 -0.489599
-0.401107 1.652971 -0.493044
-0.397439 1.655835 -0.497655
-0.394093 1.657104 -0.500973
-0.390525 1.659122 -0.504948
-0.387388 1.659234 -0.507345
-0.382495 1.666101 -0.515507
-0.379427 1.665619 -0.517460
-0.375164 1.669538 -0.523207
-0.371760 1.670082 -0.526088
-0.368149 1.671273 -0.529552
-0.363186 1.677054 -0.537052
-0.359362 1.678650 -0.540944
-0.356137 1.678125 -0.542993
-0.352569 1.678684 -0.546014
-0.347644 1.683505 -0.552861
-0.344016 1.684015 -0.555900
-0.339013 1.688673 -0.562703
-0.335030 1.690029 -0.566571
-0.331713 1.689311 -0.568576
-0.327368 1.691548 -0.573302
-0.323154 1.693278 -0.577598
-0.318769 1.695369 -0.582263
-0.315270 1.694904 -0.584586
-0.311958 1.693903 -0.586418
-0.309077 1.691746 -0.587171
-0.308823 1.682794 -0.581485
-0.306056 1.680508 -0.582074
-0.303078 1.678779 -0.583191
-0.300004 1.677290 -0.584541
-0.297342 1.674801 -0.584928
-0.294663 1.672383 -0.585378
-0.291837 1.670331 -0.586181
-0.289052 1.668200 -0.586906
-0.286148 1.666354 -0.587911
-0.283069 1.664899 -0.589308
-0.279470 1.664578 -0.591845
-0.276896 1.661997 -0.592128
-0.273899 1.660338 -0.593339
-0.271281 1.657878 -0.593740
-0.269098 1.654539 -0.593240
-0.266842 1.651390 -0.592921
-0.264397 1.648658 -0.593022
-0.262042 1.645770 -0.592955
-0.259097 1.644056 -0.594109
-0.256119 1.642397 -0.595326
-0.253567 1.639923 -0.595688
-0.251254 1.637017 -0.595588
-0.249475 1.633155 -0.594459
-0.246979 1.630639 -0.594758
-0.243959 1.629067 -0.596078
-0.241555 1.626397 -0.596210
-0.238351 1.625126 -0.597872
-0.235794 1.622725 -0.598302
-0.236707 1.614494 -0.592276
-0.235081 1.610641 -0.591049
-0.233015 1.607553 -0.590662
-0.231697 1.603279 -0.588930
-0.227994 1.602857 -0.591539
-0.224223 1.602489 -0.594238
-0.221546 1.600377 -0.594963
-0.218804 1.598359 -0.595801
-0.216940 1.595009 -0.595099
-0.214366 1.592742 -0.595649
-0.211585 1.590775 -0.596555
-0.209171 1.588269 -0.596830
-0.206977 1.585449 -0.596733
-0.205027 1.582298 -0.596233
-0.202606 1.579821 -0.596537
-0.200256 1.577248 -0.596724
-0.197581 1.575118 -0.597453
-0.195513 1.572170 -0.597181
-0.194474 1.567881 -0.595246
-0.193253 1.563875 -0.593635
-0.189307 1.563405 -0.596428
-0.187505 1.560168 -0.595768
-0.186540 1.555909 -0.593799
-0.184252 1.553324 -0.593939
-0.182273 1.550366 -0.593601
-0.180526 1.547144 -0.592911
-0.177232 1.545771 -0.594621
-0.176381 1.541515 -0.592569
-0.175225 1.537655 -0.591011
-0.171905 1.536295 -0.592752
-0.170050 1.533257 -0.592270
-0.168328 1.530087 -0.591600
-0.167322 1.526152 -0.589879
-0.163935 1.524823 -0.591697
-0.161595 1.522348 -0.591959
-0.160303 1.518770 -0.590694
-0.158190 1.516070 -0.590636
-0.155922 1.513534 -0.590804
-0.153733 1.510918 -0.590861
-0.151648 1.508201 -0.590773
-0.149152 1.505893 -0.591270
-0.149201 1.501105 -0.588180
-0.147074 1.498463 -0.588174
-0.144899 1.495869 -0.588238
-0.141048 1.494842 -0.590622
-0.141002 1.490268 -0.587747
-0.139212 1.487334 -0.587293
-0.137322 1.484499 -0.586980
-0.135334 1.481759 -0.586808
-0.132605 1.479671 -0.587635
-0.129869 1.477577 -0.588464
-0.128481 1.474324 -0.587493
-0.126057 1.471959 -0.587905
-0.124197 1.469122 -0.587573
-0.123017 1.465735 -0.586355
-0.119934 1.463904 -0.587630
-0.117812 1.461290 -0.587648
-0.116883 1.457740 -0.586132
-0.114855 1.455067 -0.586041
-0.112600 1.452569 -0.586241
-0.111059 1.449532 -0.585536
-0.109423 1.446576 -0.584958
-0.107145 1.444101 -0.585194
-0.104911 1.441591 -0.585374
-0.101984 1.439572 -0.586415
-0.101365 1.435915 -0.584593
-0.102664 1.430957 -0.580430
-0.098481 1.429811 -0.583021
-0.095330 1.427928 -0.584330
-0.092288 1.425951 -0.585494
-0.092245 1.421993 -0.583031
-0.089506 1.419811 -0.583829
-0.087340 1.417252 -0.583936
-0.086211 1.414040 -0.582809
-0.085518 1.410573 -0.581177
-0.081406 1.409212 -0.583587
-0.081236 1.405447 -0.581355
-0.079195 1.402820 -0.581327
-0.077014 1.400272 -0.581461
-0.074435 1.397949 -0.582055
-0.072921 1.395012 -0.581418
-0.070492 1.392590 -0.581834
-0.069876 1.389165 -0.580181
-0.066962 1.387002 -0.581149
-0.065373 1.384116 -0.580612
-0.063700 1.381279 -0.580173
-0.060852 1.379049 -0.581053
-0.057945 1.376831 -0.581990
-0.057096 1.373567 -0.580635
-0.057698 1.369605 -0.577691
-0.054039 1.367739 -0.579452
-0.050741 1.365672 -0.580803
-0.049223 1.362746 -0.580202
-0.048446 1.359481 -0.578801
-0.046079 1.356948 -0.579127
-0.044450 1.354076 -0.578655
-0.040392 1.352265 -0.580786
-0.038010 1.349696 -0.581110
-0.036746 1.346642 -0.580242
-0.034427 1.344030 -0.580494
-0.032043 1.341432 -0.580810
-0.030467 1.338497 -0.580274
-0.028363 1.335768 -0.580290
-0.026814 1.332814 -0.579728
-0.024937 1.329982 -0.579504
-0.022761 1.327254 -0.579589
-0.020598 1.324509 -0.579656
-0.018860 1.321599 -0.579283
-0.014154 1.319721 -0.581928
-0.013436 1.316427 -0.580509
-0.012078 1.313356 -0.579744
-0.010381 1.310394 -0.579319
-0.008260 1.307561 -0.579319
-0.004713 1.305163 -0.580732
-0.004023 1.301853 -0.579297
-0.002233 1.298879 -0.578955
-0.001570 1.295564 -0.577501
0.001976 1.293083 -0.578878
0.003348 1.289958 -0.578117
0.005819 1.287130 -0.578424
0.005805 1.283618 -0.576320
0.007745 1.280629 -0.576108
0.012771 1.278410 -0.578852
0.013963 1.275191 -0.577905
0.015237 1.271990 -0.577038
0.016980 1.268894 -0.576615
0.021226 1.266359 -0.578551
0.022802 1.263193 -0.577956
0.023783 1.259893 -0.576802
0.027099 1.257081 -0.577829
0.029527 1.254062 -0.578015
0.031264 1.250894 -0.577556
0.033486 1.247813 -0.577542
0.036595 1.244882 -0.578335
0.039688 1.241929 -0.579101
0.041508 1.238742 -0.578699
0.044353 1.235721 -0.579224
0.046614 1.232597 -0.579214
-0.056944 1.213521 -0.484139
-0.062990 1.209839 -0.477072
-0.063106 1.207077 -0.475344
-0.062720 1.204407 -0.474074
-0.062940 1.201684 -0.472280
-0.059646 1.199417 -0.473593
-0.061122 1.196594 -0.470713
-0.052894 1.194881 -0.476336
-0.052111 1.192339 -0.475439
-0.049987 1.189958 -0.475716
-0.051075 1.187296 -0.473220
-0.051352 1.184758 -0.471447
-0.051537 1.182274 -0.469773
-0.049024 1.180045 -0.470422
-0.047945 1.177734 -0.469855
-0.055095 1.174914 -0.462327
-0.451302 1.627251 -0.441912
-0.448749 1.629964 -0.445734
-0.446482 1.630155 -0.447652
-0.443599 1.634136 -0.452550
-0.441331 1.633529 -0.453919
-0.438868 1.633874 -0.456059
-0.435757 1.637881 -0.461120
-0.433327 1.637317 -0.462613
-0.430584 1.638340 -0.465392
-0.427589 1.640463 -0.469086
-0.424465 1.642944 -0.473109
-0.421959 1.641814 -0.474252
-0.418633 1.644756 -0.478723
-0.415339 1.647199 -0.482830
-0.412423 1.647510 -0.485227
-0.409059 1.649771 -0.489257
-0.405984 1.650444 -0.492008
-0.402573 1.652457 -0.495901
-0.399209 1.654045 -0.499473
-0.395750 1.655848 -0.503258
-0.391854 1.659270 -0.508449
-0.387745 1.663291 -0.514199
-0.384280 1.664499 -0.517588
-0.380961 1.665008 -0.520402
-0.376841 1.668426 -0.525757
-0.373576 1.668481 -0.528229
-0.369480 1.671446 -0.533265
-0.365368 1.674274 -0.538224
-0.361164 1.677235 -0.543342
-0.357930 1.676749 -0.545436
-0.354243 1.677716 -0.548840
-0.349423 1.682243 -0.555471
-0.345899 1.682438 -0.558244
-0.341131 1.686420 -0.564478
-0.337058 1.688087 -0.568651
-0.333587 1.687842 -0.571099
-0.329890 1.688217 -0.574134
-0.325806 1.689631 -0.578156
-0.320862 1.693357 -0.584369
-0.317417 1.692763 -0.586579
-0.314157 1.691635 -0.588298
-0.313676 1.683103 -0.582996
-0.311599 1.678992 -0.581844
-0.308439 1.677750 -0.583422
-0.305349 1.676323 -0.584828
-0.302376 1.674603 -0.585955
-0.299887 1.671706 -0.585936
-0.297034 1.669725 -0.586805
-0.294174 1.667771 -0.587700
-0.291509 1.665376 -0.588159
-0.288854 1.662980 -0.588612
-0.286122 1.660781 -0.589260
-0.282559 1.660429 -0.591767
-0.280682 1.656367 -0.590533
-0.277889 1.654337 -0.591347
-0.276118 1.650159 -0.589962
-0.272974 1.648900 -0.591562
-0.270017 1.647242 -0.592758
-0.267250 1.645193 -0.593553
-0.264877 1.642365 -0.593534
-0.261706 1.641120 -0.595175
-0.259943 1.637148 -0.593938
-0.257674 1.634191 -0.593762
-0.253386 1.635028 -0.597646
-0.252323 1.629850 -0.595082
-0.249486 1.627975 -0.596065
-0.247153 1.625195 -0.596065
-0.244683 1.622673 -0.596344
-0.241508 1.621386 -0.597983
-0.240393 1.616546 -0.595693
-0.244140 1.603577 -0.584294
-0.241784 1.601065 -0.584500
-0.239717 1.598088 -0.584177
-0.237061 1.596084 -0.584953
-0.236007 1.591520 -0.582807
-0.233317 1.589592 -0.583663
-0.230447 1.587937 -0.584841
-0.228676 1.584582 -0.584049
-0.226827 1.581375 -0.583419
-0.224579 1.578787 -0.583505
-0.221724 1.577099 -0.584657
-0.220402 1.573173 -0.583149
-0.218777 1.569722 -0.582188
-0.215733 1.568304 -0.583669
-0.212829 1.566667 -0.584898
-0.210282 1.564520 -0.585517
-0.208309 1.561589 -0.585175
-0.205733 1.559480 -0.585843
-0.202892 1.557714 -0.586945
-0.202679 1.552508 -0.583743
-0.195339 1.556531 -0.592152
-0.191847 1.555508 -0.594254
-0.189327 1.553231 -0.594775
-0.186868 1.550874 -0.595199
-0.185848 1.546762 -0.593349
-0.183773 1.543960 -0.593183
-0.181510 1.541390 -0.593316
-0.179616 1.538389 -0.592879
-0.177079 1.536146 -0.593443
-0.174442 1.534009 -0.594156
-0.172355 1.531245 -0.594028
-0.173616 1.524770 -0.588851
-0.170907 1.522748 -0.589697
-0.170644 1.518070 -0.586891
-0.168384 1.515580 -0.587080
-0.164308 1.515002 -0.589946
-0.161514 1.513041 -0.590903
-0.159446 1.510321 -0.590795
-0.157912 1.507066 -0.589918
-0.156183 1.504026 -0.589336
-0.154855 1.500603 -0.588190
-0.153554 1.497177 -0.587021
-0.151270 1.494720 -0.587258
-0.148438 1.492780 -0.588264
-0.148338 1.488270 -0.585444
-0.144855 1.486934 -0.587357
-0.142114 1.484890 -0.588227
-0.141563 1.480867 -0.586082
-0.140483 1.477352 -0.584685
-0.136297 1.476579 -0.587523
-0.133856 1.474254 -0.587976
-0.132579 1.470932 -0.586862
-0.132960 1.466238 -0.583548
-0.132149 1.462589 -0.581854
-0.131159 1.459116 -0.580418
-0.127446 1.457865 -0.582578
-0.123178 1.457020 -0.585442
-0.121185 1.454343 -0.585318
-0.120186 1.450901 -0.583911
-0.118993 1.447631 -0.582771
-0.116202 1.445583 -0.583690
-0.115573 1.441915 -0.581846
-0.113355 1.439441 -0.582038
-0.109111 1.438428 -0.584781
-0.110251 1.433536 -0.580746
-0.106806 1.431929 -0.582475
-0.106460 1.428148 -0.580339
-0.104023 1.425828 -0.580809
-0.101442 1.423597 -0.581452
-0.098693 1.421467 -0.582295
-0.097777 1.418125 -0.580901
-0.094620 1.416248 -0.582234
-0.091654 1.414228 -0.583325
-0.089616 1.411609 -0.583293
-0.089563 1.407763 -0.580893
-0.087890 1.404937 -0.580440
-0.085522 1.402533 -0.580815
-0.082876 1.400285 -0.581512
-0.080437 1.397904 -0.581961
-0.078920 1.394986 -0.581332
-0.077585 1.391971 -0.580498
-0.077124 1.388479 -0.578660
-0.074282 1.386315 -0.579578
-0.071320 1.384198 -0.580624
-0.069463 1.381476 -0.580402
-0.066789 1.379180 -0.581107
-0.064872 1.376481 -0.580952
-0.064360 1.373067 -0.579218
-0.062430 1.370380 -0.579085
-0.061605 1.367148 -0.577721
-0.056901 1.365801 -0.580669
-0.054531 1.363299 -0.581015
-0.053408 1.360204 -0.579985
-0.051875 1.357305 -0.579412
-0.049751 1.354675 -0.579486
-0.047289 1.352185 -0.579924
-0.045569 1.349360 -0.579555
-0.043603 1.346637 -0.579452
-0.040490 1.344390 -0.580575
-0.039706 1.341156 -0.579205
-0.038598 1.338064 -0.578187
-0.034603 1.336127 -0.580225
-0.032947 1.333238 -0.579783
-0.029696 1.330958 -0.581013
-0.028497 1.327877 -0.580089
-0.026571 1.325067 -0.579924
-0.024084 1.322451 -0.580337
-0.022441 1.319519 -0.579874
-0.021048 1.316495 -0.579155
-0.017408 1.314234 -0.580732
-0.015288 1.311431 -0.580746
-0.014157 1.308293 -0.579755
-0.013632 1.304961 -0.578156
-0.012234 1.301911 -0.577443
-0.009081 1.299394 -0.578485
-0.006909 1.296555 -0.578536
-0.005721 1.293414 -0.577607
-0.004498 1.290281 -0.576714
-0.002554 1.287347 -0.576532
0.000586 1.284725 -0.577518
0.002737 1.281812 -0.577524
0.004301 1.278733 -0.576954
0.006438 1.275790 -0.576938
0.009377 1.273029 -0.577688
0.011692 1.270094 -0.577827
0.013426 1.267007 -0.577404
0.014262 1.263709 -0.576124
0.016497 1.260720 -0.576173
0.020775 1.258150 -0.578142
0.023085 1.255135 -0.578241
0.025322 1.252091 -0.578264
0.026926 1.248913 -0.577693
0.028589 1.245743 -0.577174
0.031151 1.242731 -0.577484
0.035780 1.240065 -0.579690
0.039229 1.237164 -0.580791
0.042657 1.234240 -0.581860
-0.066115 1.211159 -0.479232
-0.067016 1.208277 -0.476781
-0.067339 1.205508 -0.474867
-0.068954 1.202600 -0.471811
-0.067960 1.200064 -0.471105
-0.065321 1.197740 -0.471865
-0.060757 1.195633 -0.474322
-0.058534 1.193257 -0.474701
-0.055211 1.191003 -0.476043
-0.053117 1.188633 -0.476306
-0.053778 1.186030 -0.474172
-0.053755 1.183535 -0.472653
-0.053062 1.181138 -0.471730
-0.049387 1.179000 -0.473389
-0.049216 1.176629 -0.472038
-0.053483 1.174020 -0.466915
-0.452122 1.630271 -0.447159
-0.449939 1.630285 -0.448925
-0.447641 1.630742 -0.451065
-0.445320 1.630978 -0.453065
-0.442708 1.632785 -0.456333
-0.440014 1.634691 -0.459721
-0.437436 1.635458 -0.462244
-0.434649 1.637149 -0.465540
-0.432106 1.637048 -0.467434
-0.429309 1.638148 -0.470323
-0.426356 1.639812 -0.473702
-0.423581 1.640218 -0.476092
-0.420762 1.640626 -0.478510
-0.417014 1.645524 -0.484654
-0.413556 1.648557 -0.489316
-0.410904 1.647423 -0.490552
-0.407429 1.650030 -0.494931
-0.404134 1.651556 -0.498441
-0.400464 1.654532 -0.503210
-0.397332 1.654936 -0.505835
-0.393307 1.658954 -0.511571
-0.389867 1.660288 -0.515052
-0.386033 1.663042 -0.519790
-0.382931 1.662736 -0.521910
-0.379462 1.663759 -0.525204
-0.374993 1.668375 -0.531677
-0.371108 1.670590 -0.536091
-0.367495 1.671684 -0.539545
-0.363661 1.673430 -0.543607
-0.359490 1.676184 -0.548604
-0.356102 1.676163 -0.551142
-0.352665 1.676249 -0.553792
-0.347681 1.681201 -0.560894
-0.344723 1.679578 -0.562035
-0.339815 1.683927 -0.568678
-0.335052 1.687618 -0.574773
-0.331715 1.686923 -0.576836
-0.327741 1.688038 -0.580604
-0.323942 1.688564 -0.583847
-0.319654 1.690377 -0.588331
-0.316866 1.687979 -0.588845
-0.317068 1.677613 -0.581730
-0.313827 1.676615 -0.583538
-0.310977 1.674592 -0.584364
-0.307540 1.674074 -0.586651
-0.305834 1.669204 -0.584698
-0.302559 1.668291 -0.586604
-0.299466 1.666918 -0.588066
-0.297175 1.663638 -0.587639
-0.294202 1.661998 -0.588837
-0.291495 1.659748 -0.589426
-0.288734 1.657637 -0.590153
-0.285888 1.655727 -0.591084
-0.284122 1.651462 -0.589611
-0.280570 1.651114 -0.592137
-0.277621 1.649446 -0.593319
-0.275963 1.645082 -0.591706
-0.272800 1.643879 -0.593371
-0.270273 1.641372 -0.593676
-0.267996 1.638384 -0.593471
-0.265476 1.635903 -0.593793
-0.262936 1.633477 -0.594172
-0.260386 1.631082 -0.594582
-0.257710 1.628934 -0.595257
-0.255399 1.626112 -0.595203
-0.253076 1.623337 -0.595191
-0.249976 1.621974 -0.596728
-0.247303 1.619833 -0.597415
-0.245040 1.616979 -0.597313
-0.247339 1.606307 -0.588456
-0.247205 1.599997 -0.584399
-0.244554 1.598004 -0.585177
-0.236896 1.604250 -0.595344
-0.232592 1.604815 -0.599118
-0.234850 1.594800 -0.590739
-0.233398 1.590854 -0.589292
-0.231708 1.587325 -0.588310
-0.230301 1.583397 -0.586842
-0.228742 1.579744 -0.585678
-0.226440 1.577238 -0.585860
-0.224246 1.574580 -0.585857
-0.222599 1.571135 -0.584906
-0.221091 1.567523 -0.583735
-0.218751 1.565121 -0.584022
-0.216102 1.563153 -0.584840
-0.214602 1.559595 -0.583704
-0.212844 1.556416 -0.583022
-0.211875 1.552204 -0.581038
-0.210411 1.548697 -0.579911
-0.207958 1.546509 -0.580435
-0.204951 1.545030 -0.581868
-0.202172 1.543237 -0.582914
-0.200145 1.540486 -0.582735
-0.200160 1.535220 -0.579284
-0.196836 1.534104 -0.581212
-0.194158 1.532177 -0.582094
-0.191442 1.530281 -0.583029
-0.189287 1.527714 -0.583078
-0.188419 1.523662 -0.581130
-0.182687 1.525205 -0.586722
-0.179736 1.523512 -0.587981
-0.176509 1.522104 -0.589647
-0.176119 1.517555 -0.586997
-0.173684 1.515276 -0.587463
-0.171220 1.513022 -0.587971
-0.168651 1.510874 -0.588632
-0.166991 1.507769 -0.587943
-0.165957 1.504039 -0.586346
-0.164142 1.501132 -0.585912
-0.162531 1.498033 -0.585190
-0.158787 1.497053 -0.587557
-0.158791 1.492386 -0.584523
-0.156322 1.490151 -0.585053
-0.153416 1.488324 -0.586200
-0.150707 1.486294 -0.587057
-0.148716 1.483589 -0.586901
-0.147907 1.479812 -0.585101
-0.146680 1.476445 -0.583903
-0.144447 1.473993 -0.584107
-0.141983 1.471741 -0.584629
-0.138796 1.470105 -0.586131
-0.137969 1.466437 -0.584421
-0.136509 1.463331 -0.583583
-0.135386 1.459961 -0.582305
-0.133550 1.457196 -0.581993
-0.131293 1.454779 -0.582246
-0.128194 1.453027 -0.583609
-0.124145 1.452000 -0.586204
-0.123700 1.448142 -0.584069
-0.122716 1.444731 -0.582659
-0.121226 1.441724 -0.581918
-0.118445 1.439689 -0.582846
-0.116880 1.436749 -0.582211
-0.114945 1.434086 -0.582054
-0.112772 1.431595 -0.582201
-0.111543 1.428439 -0.581159
-0.109956 1.425547 -0.580578
-0.107570 1.423210 -0.581000
-0.104966 1.421011 -0.581688
-0.102663 1.418603 -0.582000
-0.101587 1.415386 -0.580801
-0.099203 1.413029 -0.581214
-0.097852 1.410009 -0.580369
-0.095662 1.407526 -0.580547
-0.094062 1.404674 -0.580014
-0.090557 1.402987 -0.581769
-0.088616 1.400334 -0.581642
-0.088815 1.396420 -0.578977
-0.086170 1.394194 -0.579698
-0.083856 1.391767 -0.580022
-0.081506 1.389352 -0.580386
-0.079788 1.386577 -0.580010
-0.078103 1.383787 -0.579600
-0.075317 1.381592 -0.580464
-0.072752 1.379263 -0.581065
-0.071346 1.376317 -0.580336
-0.069285 1.373713 -0.580357
-0.067111 1.371162 -0.580507
-0.065543 1.368303 -0.579971
-0.064537 1.365170 -0.578806
-0.062578 1.362508 -0.578718
-0.059182 1.360520 -0.580228
-0.057129 1.357881 -0.580237
-0.055401 1.355087 -0.579884
-0.053596 1.352325 -0.579618
-0.050100 1.350307 -0.581202
-0.048501 1.347436 -0.580705
-0.047687 1.344229 -0.579360
-0.045150 1.341755 -0.579883
-0.042977 1.339115 -0.580009
-0.042225 1.335890 -0.578611
-0.038738 1.333761 -0.580135
-0.035812 1.331383 -0.581050
-0.034980 1.328182 -0.579742
-0.031429 1.326008 -0.581300
-0.030573 1.322812 -0.580021
-0.028832 1.319941 -0.579673
-0.026688 1.317206 -0.579742
-0.024895 1.314336 -0.579443
-0.024479 1.310992 -0.577726
-0.019747 1.309092 -0.580444
-0.017598 1.306303 -0.580497
-0.018165 1.302636 -0.577786
-0.016084 1.299817 -0.577772
-0.013801 1.297045 -0.577958
-0.011160 1.294364 -0.578497
-0.009251 1.291448 -0.578294
-0.007696 1.288420 -0.577734
-0.005515 1.285559 -0.577796
-0.002303 1.282960 -0.578868
-0.000352 1.280000 -0.578686
0.000978 1.276868 -0.577893
0.002600 1.273805 -0.577384
0.004868 1.270891 -0.577501
0.006764 1.267872 -0.577252
0.009495 1.265034 -0.577802
0.011021 1.261905 -0.577185
0.012203 1.258696 -0.576239
0.015108 1.255848 -0.576935
0.019969 1.253375 -0.579470
0.021866 1.250271 -0.579183
0.022980 1.247011 -0.578157
0.024751 1.243875 -0.577748
0.027785 1.240959 -0.578514
0.029631 1.237821 -0.578167
0.030550 1.234528 -0.576960
0.041508 1.232839 -0.585001
-0.071676 1.209357 -0.477507
-0.070664 1.206775 -0.476795
-0.071464 1.203962 -0.474446
-0.072959 1.201096 -0.471488
-0.070953 1.198704 -0.471699
-0.067827 1.196447 -0.472911
-0.069575 1.193647 -0.469770
-0.067616 1.191289 -0.469947
-0.058410 1.189663 -0.476536
-0.056202 1.187318 -0.476911
-0.057086 1.184716 -0.474573
-0.059006 1.182081 -0.471353
-0.053198 1.180108 -0.474895
-0.050484 1.177897 -0.475733
-0.051842 1.175433 -0.473052
-0.052084 1.173101 -0.471360
-0.453709 1.627525 -0.447965
-0.451335 1.629121 -0.450970
-0.449093 1.629277 -0.452885
-0.446452 1.631849 -0.456739
-0.444142 1.631676 -0.458461
-0.441951 1.630410 -0.459339
-0.438835 1.634768 -0.464742
-0.436251 1.635304 -0.467127
-0.433769 1.634931 -0.468806
-0.430611 1.638218 -0.473486
-0.428019 1.637912 -0.475279
-0.424944 1.640028 -0.479083
-0.422296 1.639567 -0.480799
-0.418752 1.643528 -0.486206
-0.415255 1.646867 -0.491147
-0.412327 1.647106 -0.493537
-0.409133 1.648437 -0.496870
-0.405936 1.649577 -0.500071
-0.402091 1.653420 -0.505606
-0.399001 1.653671 -0.508114
-0.396007 1.653403 -0.510194
-0.391648 1.658676 -0.517089
-0.387839 1.661391 -0.521820
-0.384785 1.660922 -0.523806
-0.381283 1.662114 -0.527265
-0.377157 1.665516 -0.532706
-0.373376 1.667430 -0.536871
-0.368783 1.672093 -0.543530
-0.365202 1.672945 -0.546822
-0.361426 1.674369 -0.550654
-0.357520 1.676107 -0.554802
-0.354439 1.675009 -0.556391
-0.350217 1.677565 -0.561342
-0.345291 1.682173 -0.568230
-0.341726 1.682349 -0.571064
-0.337776 1.683628 -0.574948
-0.333247 1.686519 -0.580375
-0.329540 1.686857 -0.583438
-0.326092 1.686391 -0.585761
-0.322521 1.686233 -0.588392
-0.321800 1.678206 -0.583493
-0.320554 1.671832 -0.580123
-0.317221 1.671158 -0.582232
-0.314654 1.668462 -0.582383
-0.311575 1.667118 -0.583849
-0.308340 1.666159 -0.585701
-0.305839 1.663367 -0.585747
-0.303104 1.661185 -0.586391
-0.300380 1.658996 -0.587026
-0.297578 1.657009 -0.587862
-0.294735 1.655124 -0.588802
-0.291231 1.654748 -0.591280
-0.288945 1.651609 -0.590948
-0.286830 1.648139 -0.590262
-0.283322 1.647731 -0.592731
-0.281026 1.644703 -0.592492
-0.278150 1.642926 -0.593553
-0.276268 1.639095 -0.592456
-0.273282 1.637568 -0.593778
-0.270771 1.635076 -0.594082
-0.268482 1.632166 -0.593933
-0.265781 1.630081 -0.594665
-0.264119 1.626016 -0.593255
-0.260637 1.625436 -0.595618
-0.258152 1.622963 -0.595928
-0.257088 1.617908 -0.593391
-0.254093 1.616414 -0.594766
-0.251719 1.613801 -0.594904
-0.249510 1.610915 -0.594732
-0.252103 1.599771 -0.585238
-0.250186 1.596547 -0.584614
-0.244930 1.598947 -0.590396
-0.238186 1.603677 -0.598917
-0.235785 1.601140 -0.599142
-0.233991 1.597635 -0.598241
-0.232371 1.593890 -0.597045
-0.229460 1.592202 -0.598249
-0.227893 1.588427 -0.596994
-0.225445 1.586031 -0.597361
-0.221827 1.585390 -0.599832
-0.220939 1.580669 -0.597411
-0.218564 1.578179 -0.597664
-0.217529 1.573768 -0.595571
-0.218363 1.566762 -0.590262
-0.216852 1.563161 -0.589091
-0.212588 1.563392 -0.592667
-0.208288 1.563604 -0.596261
-0.211885 1.553140 -0.586453
-0.209989 1.550169 -0.586013
-0.206155 1.549749 -0.588820
-0.203616 1.547606 -0.589448
-0.201881 1.544433 -0.588750
-0.202169 1.538741 -0.584762
-0.200233 1.535891 -0.584442
-0.198791 1.532449 -0.583334
-0.196058 1.530591 -0.584313
-0.198556 1.522493 -0.576962
-0.195222 1.521396 -0.578929
-0.193738 1.518120 -0.577969
-0.185223 1.522908 -0.587995
-0.183049 1.520350 -0.588066
-0.181563 1.517028 -0.587081
-0.178758 1.515180 -0.588133
-0.176810 1.512385 -0.587869
-0.174683 1.509792 -0.587884
-0.172278 1.507494 -0.588319
-0.170816 1.504209 -0.587342
-0.168677 1.501642 -0.587387
-0.166706 1.498907 -0.587187
-0.164923 1.495990 -0.586714
-0.163068 1.493156 -0.586356
-0.161126 1.490416 -0.586132
-0.159894 1.487000 -0.584889
-0.156974 1.485210 -0.586081
-0.154744 1.482756 -0.586280
-0.153175 1.479690 -0.585542
-0.151008 1.477184 -0.585657
-0.148889 1.474635 -0.585706
-0.147057 1.471833 -0.585358
-0.144820 1.469392 -0.585575
-0.142716 1.466836 -0.585609
-0.141944 1.463145 -0.583821
-0.140200 1.460303 -0.583379
-0.138180 1.457700 -0.583318
-0.135567 1.455583 -0.584057
-0.134091 1.452538 -0.583266
-0.131763 1.450185 -0.583622
-0.129783 1.447554 -0.583514
-0.128429 1.444442 -0.582585
-0.125858 1.442275 -0.583261
-0.124529 1.439162 -0.582313
-0.122107 1.436875 -0.582793
-0.122668 1.432399 -0.579421
-0.119036 1.431003 -0.581468
-0.116042 1.429120 -0.582680
-0.114446 1.426237 -0.582106
-0.112684 1.423478 -0.581748
-0.110584 1.420955 -0.581819
-0.108441 1.418459 -0.581945
-0.108031 1.414812 -0.579913
-0.105475 1.412597 -0.580561
-0.102686 1.410521 -0.581490
-0.100734 1.407899 -0.581385
-0.099602 1.404764 -0.580280
-0.097151 1.402457 -0.580788
-0.095358 1.399741 -0.580498
-0.094098 1.396709 -0.579569
-0.091483 1.394486 -0.580271
-0.090321 1.391407 -0.579236
-0.088061 1.388969 -0.579514
-0.085285 1.386814 -0.580398
-0.083146 1.384290 -0.580525
-0.080981 1.381776 -0.580682
-0.078718 1.379307 -0.580951
-0.076806 1.376646 -0.580810
-0.075907 1.373456 -0.579503
-0.072904 1.371356 -0.580622
-0.071040 1.368663 -0.580429
-0.069737 1.365690 -0.579600
-0.066459 1.363686 -0.581013
-0.066031 1.360289 -0.579199
-0.063014 1.358134 -0.580307
-0.060908 1.355534 -0.580386
-0.059042 1.352817 -0.580195
-0.056712 1.350304 -0.580519
-0.053080 1.348354 -0.582275
-0.051815 1.345347 -0.581414
-0.051558 1.341915 -0.579457
-0.049979 1.339054 -0.578954
-0.047265 1.336658 -0.579683
-0.045903 1.333698 -0.578945
-0.043634 1.331098 -0.579186
-0.040213 1.328931 -0.580652
-0.038909 1.325930 -0.579851
-0.037314 1.323037 -0.579361
-0.033005 1.321134 -0.581737
-0.032094 1.317968 -0.580518
-0.030466 1.315061 -0.580057
-0.029046 1.312076 -0.579379
-0.026878 1.309340 -0.579479
-0.025165 1.306441 -0.579104
-0.023661 1.303466 -0.578513
-0.021987 1.300540 -0.578097
-0.020798 1.297457 -0.577185
-0.018528 1.294699 -0.577374
-0.015183 1.292243 -0.578645
-0.012716 1.289501 -0.579016
-0.010972 1.286537 -0.578653
-0.009359 1.283527 -0.578156
-0.007467 1.280585 -0.577937
-0.004532 1.277902 -0.578746
-0.002638 1.274929 -0.578516
-0.001697 1.271708 -0.577346
0.000269 1.268736 -0.577182
0.002308 1.265768 -0.577085
0.004008 1.262710 -0.576654
0.005369 1.259568 -0.575892
0.007608 1.256611 -0.575977
0.010059 1.253684 -0.576258
0.011596 1.250556 -0.575657
0.017526 1.248281 -0.579235
0.019377 1.245177 -0.578913
0.021092 1.242042 -0.578461
0.022854 1.238913 -0.578050
0.027239 1.236225 -0.580093
0.028862 1.233054 -0.579540
-0.073614 1.210828 -0.480706
-0.080149 1.207149 -0.473039
-0.074938 1.205193 -0.476202
-0.076186 1.202347 -0.473440
-0.073169 1.200079 -0.474578
-0.071006 1.197700 -0.474934
-0.072166 1.194947 -0.472287
-0.071407 1.192448 -0.471389
-0.072786 1.189754 -0.468584
-0.068607 1.187651 -0.470761
-0.062003 1.185761 -0.475080
-0.059772 1.183463 -0.475499
-0.061802 1.180840 -0.472163
-0.060681 1.178520 -0.471627
-0.056050 1.176480 -0.474172
-0.058822 1.173960 -0.470253
-0.065601 1.171276 -0.462891
-0.454631 1.629936 -0.452800
-0.452731 1.627941 -0.453004
-0.450599 1.627401 -0.454376
-0.448069 1.629347 -0.457752
-0.445838 1.628765 -0.459148
-0.442844 1.632957 -0.464408
-0.440355 1.633321 -0.466634
-0.437880 1.633276 -0.468558
-0.434830 1.636426 -0.473114
-0.432188 1.636732 -0.475390
-0.429724 1.635769 -0.476645
-0.426273 1.640069 -0.482278
-0.423724 1.639091 -0.483574
-0.420356 1.642232 -0.488332
-0.417608 1.641885 -0.490203
-0.413706 1.647048 -0.496753
-0.411023 1.645970 -0.498060
-0.407127 1.650435 -0.504116
-0.404058 1.650801 -0.506708
-0.400653 1.652511 -0.510482
-0.397220 1.654140 -0.514219
-0.393619 1.656288 -0.518441
-0.389665 1.659672 -0.523785
-0.386692 1.658910 -0.525519
-0.382023 1.664674 -0.533050
-0.378517 1.665692 -0.536420
-0.374758 1.667524 -0.540545
-0.371382 1.667822 -0.543321
-0.367234 1.670767 -0.548514
-0.363678 1.671477 -0.551715
-0.359269 1.674974 -0.557493
-0.356172 1.673929 -0.559139
-0.351532 1.677862 -0.565399
-0.347231 1.680508 -0.570516
-0.343672 1.680682 -0.573365
-0.340236 1.680420 -0.575822
-0.336103 1.682196 -0.580221
-0.331659 1.684761 -0.585406
-0.328451 1.683624 -0.587097
-0.325890 1.680655 -0.587034
-0.326277 1.669592 -0.579136
-0.323234 1.668190 -0.580530
-0.319694 1.668113 -0.583222
-0.316728 1.666483 -0.584407
-0.314355 1.663332 -0.584094
-0.311900 1.660445 -0.584028
-0.307860 1.661539 -0.587927
-0.306761 1.655368 -0.584565
-0.303249 1.655136 -0.587153
-0.300569 1.652898 -0.587723
-0.298227 1.649894 -0.587509
-0.295054 1.648829 -0.589273
-0.292373 1.646639 -0.589890
-0.290035 1.643708 -0.589734
-0.287514 1.641210 -0.590021
-0.284825 1.639094 -0.590703
-0.281512 1.638298 -0.592780
-0.279010 1.635793 -0.593059
-0.276598 1.633121 -0.593155
-0.274179 1.630487 -0.593287
-0.272482 1.626448 -0.591896
-0.269575 1.624829 -0.593110
-0.267143 1.622287 -0.593324
-0.264912 1.619379 -0.593133
-0.262434 1.616961 -0.593474
-0.258976 1.616350 -0.595821
-0.257223 1.612613 -0.594697
-0.254459 1.610726 -0.595634
-0.253941 1.604890 -0.592113
-0.255612 1.595374 -0.584360
-0.253724 1.592137 -0.583693
-0.245429 1.599704 -0.595443
-0.242219 1.598568 -0.597257
-0.238733 1.597853 -0.599578
-0.240510 1.588616 -0.591939
-0.240207 1.582880 -0.588331
-0.233110 1.587882 -0.597405
-0.229972 1.586570 -0.599054
-0.226627 1.585543 -0.601062
-0.223546 1.584087 -0.602573
-0.220817 1.582085 -0.603436
-0.220194 1.576995 -0.600530
-0.220015 1.571340 -0.596889
-0.220840 1.564346 -0.591542
-0.219373 1.560695 -0.590288
-0.214650 1.561581 -0.594705
-0.211421 1.560342 -0.596493
-0.207834 1.559554 -0.598874
-0.209078 1.552307 -0.593027
-0.206536 1.550151 -0.593651
-0.203349 1.548821 -0.595351
-0.201256 1.546068 -0.595215
-0.198504 1.544153 -0.596174
-0.196884 1.540818 -0.595268
-0.196509 1.535983 -0.592353
-0.196186 1.531149 -0.589397
-0.200595 1.520736 -0.578879
-0.198281 1.518446 -0.579239
-0.196181 1.515904 -0.579257
-0.194224 1.513203 -0.579056
-0.190509 1.512497 -0.581612
-0.186315 1.512281 -0.584886
-0.182498 1.511591 -0.587539
-0.179577 1.509882 -0.588786
-0.177910 1.506809 -0.588105
-0.176104 1.503900 -0.587649
-0.173684 1.501643 -0.588126
-0.171699 1.498933 -0.587949
-0.169549 1.496397 -0.588022
-0.167602 1.493659 -0.587797
-0.165861 1.490725 -0.587275
-0.163852 1.488064 -0.587154
-0.161365 1.485868 -0.587732
-0.159454 1.483117 -0.587473
-0.157932 1.480010 -0.586661
-0.155841 1.477444 -0.586673
-0.153340 1.475254 -0.587270
-0.151124 1.472800 -0.587460
-0.149091 1.470182 -0.587393
-0.147266 1.467385 -0.587039
-0.145763 1.464318 -0.586243
-0.144788 1.460816 -0.584729
-0.142784 1.458206 -0.584648
-0.140747 1.455626 -0.584614
-0.138436 1.453272 -0.584955
-0.135845 1.451139 -0.585672
-0.134875 1.447706 -0.584205
-0.132794 1.445170 -0.584242
-0.130482 1.442813 -0.584585
-0.129211 1.439657 -0.583550
-0.126891 1.437307 -0.583907
-0.125793 1.434045 -0.582664
-0.123864 1.431412 -0.582517
-0.121603 1.429020 -0.582802
-0.119374 1.426601 -0.583045
-0.117151 1.424174 -0.583279
-0.116240 1.420837 -0.581839
-0.113016 1.419097 -0.583349
-0.111291 1.416327 -0.582952
-0.110486 1.412953 -0.581406
-0.108579 1.410321 -0.581252
-0.105417 1.408497 -0.582663
-0.103017 1.406167 -0.583116
-0.102670 1.402548 -0.581038
-0.101197 1.399651 -0.580361
-0.100004 1.396592 -0.579350
-0.096639 1.394843 -0.580986
-0.095055 1.392021 -0.580454
-0.093110 1.389412 -0.580362
-0.091396 1.386671 -0.579996
-0.089168 1.384221 -0.580244
-0.086600 1.381952 -0.580893
-0.083885 1.379750 -0.581711
-0.081706 1.377246 -0.581891
-0.080349 1.374301 -0.581108
-0.078821 1.371453 -0.580531
-0.077093 1.368711 -0.580191
-0.075240 1.366031 -0.579997
-0.073524 1.363281 -0.579648
-0.072381 1.360252 -0.578646
-0.067192 1.359168 -0.582254
-0.066146 1.356078 -0.581137
-0.064587 1.353235 -0.580608
-0.062525 1.350622 -0.580647
-0.062667 1.347016 -0.578223
-0.058775 1.345208 -0.580304
-0.057275 1.342332 -0.579718
-0.055646 1.339511 -0.579277
-0.053954 1.336714 -0.578906
-0.052205 1.333937 -0.578599
-0.049943 1.331362 -0.578851
-0.047426 1.328874 -0.579374
-0.045326 1.326209 -0.579441
-0.044644 1.322995 -0.577982
-0.042315 1.320404 -0.578293
-0.038889 1.318197 -0.579767
-0.035370 1.315992 -0.581323
-0.034208 1.312930 -0.580375
-0.032579 1.310030 -0.579923
-0.030718 1.307202 -0.579713
-0.030032 1.303978 -0.578277
-0.027739 1.301278 -0.578515
-0.025643 1.298499 -0.578545
-0.023336 1.295772 -0.578787
-0.022143 1.292694 -0.577881
-0.020370 1.289784 -0.577570
-0.016808 1.287376 -0.579073
-0.015260 1.284371 -0.578522
-0.013270 1.281480 -0.578416
-0.011337 1.278561 -0.578248
-0.009557 1.275590 -0.577923
-0.007543 1.272667 -0.577827
-0.007255 1.269307 -0.576017
-0.004988 1.266430 -0.576169
-0.001612 1.263793 -0.577403
0.000507 1.260843 -0.577392
0.001703 1.257676 -0.576474
0.002687 1.254463 -0.575353
0.004737 1.251472 -0.575265
0.008566 1.248824 -0.576887
0.011322 1.245936 -0.577459
0.011520 1.242553 -0.575578
0.013630 1.239529 -0.575526
0.018502 1.236976 -0.578086
0.021204 1.234019 -0.578573
0.027840 1.231681 -0.582747
-0.082842 1.208472 -0.475460
-0.085069 1.205472 -0.471763
-0.082858 1.203126 -0.472196
-0.078371 1.201072 -0.474720
-0.076696 1.198642 -0.474645
-0.074655 1.196265 -0.474904
-0.075794 1.193538 -0.472267
-0.076013 1.190954 -0.470487
-0.072682 1.188764 -0.471928
-0.073097 1.186217 -0.469990
-0.068687 1.184143 -0.472393
-0.069398 1.181634 -0.470214
-0.066728 1.179438 -0.471060
-0.064015 1.177262 -0.471944
-0.063027 1.174986 -0.471307
-0.061386 1.172789 -0.471255
-0.061114 1.170545 -0.470015
-0.455719 1.631147 -0.456729
-0.453937 1.628225 -0.456200
-0.451788 1.627854 -0.457717
-0.449673 1.626884 -0.458779
-0.447206 1.628087 -0.461615
-0.444418 1.631034 -0.465901
-0.441877 1.631853 -0.468505
-0.439434 1.631696 -0.470343
-0.436727 1.632881 -0.473311
-0.433592 1.636275 -0.478139
-0.431255 1.634608 -0.478816
-0.427812 1.638990 -0.484553
-0.425235 1.638207 -0.486016
-0.422130 1.640050 -0.489709
-0.419247 1.640467 -0.492231
-0.415399 1.645485 -0.498700
-0.412212 1.646874 -0.502123
-0.409073 1.647824 -0.505200
-0.406147 1.647616 -0.507302
-0.402518 1.650420 -0.512041
-0.399003 1.652476 -0.516170
-0.395548 1.654073 -0.519932
-0.391940 1.656119 -0.524123
-0.388245 1.658325 -0.528491
-0.384774 1.659466 -0.531945
-0.380425 1.663826 -0.538319
-0.376951 1.664646 -0.541552
-0.373246 1.666200 -0.545476
-0.369476 1.667846 -0.549516
-0.365804 1.669014 -0.553149
-0.361990 1.670554 -0.557154
-0.356962 1.676021 -0.564833
-0.353700 1.675429 -0.566933
-0.350064 1.676001 -0.570134
-0.345758 1.678589 -0.575259
-0.342093 1.679056 -0.578417
-0.337909 1.681008 -0.583013
-0.334205 1.681414 -0.586166
-0.331090 1.680046 -0.587632
-0.331234 1.669428 -0.580143
-0.328512 1.667137 -0.580672
-0.325334 1.666122 -0.582445
-0.322442 1.664325 -0.583456
-0.320521 1.659981 -0.581947
-0.317358 1.658954 -0.583712
-0.314398 1.657392 -0.584952
-0.312078 1.654233 -0.584589
-0.309520 1.651714 -0.584859
-0.306517 1.650299 -0.586247
-0.303271 1.649453 -0.588222
-0.300429 1.647640 -0.589217
-0.298181 1.644469 -0.588809
-0.295693 1.641886 -0.589000
-0.292963 1.639871 -0.589778
-0.290248 1.637829 -0.590529
-0.287449 1.635975 -0.591480
-0.285071 1.633234 -0.591490
-0.283680 1.628466 -0.589325
-0.280749 1.626945 -0.590622
-0.278361 1.624316 -0.590728
-0.275997 1.621662 -0.590801
-0.273318 1.619648 -0.591568
-0.270421 1.618053 -0.592799
-0.268311 1.614955 -0.592375
-0.266122 1.612036 -0.592140
-0.263050 1.610769 -0.593745
-0.260173 1.609126 -0.594940
-0.258119 1.605999 -0.594464
-0.259880 1.596178 -0.586349
-0.259418 1.590443 -0.582816
-0.255011 1.591563 -0.587141
-0.248215 1.596622 -0.596079
-0.244995 1.595530 -0.597944
-0.247297 1.585351 -0.589161
-0.250336 1.574207 -0.579129
-0.247762 1.572260 -0.579897
-0.244645 1.571158 -0.581681
-0.242526 1.568482 -0.581588
-0.232265 1.578257 -0.596557
-0.226827 1.580435 -0.602458
-0.225702 1.576080 -0.600426
-0.235185 1.556235 -0.579271
-0.233255 1.553366 -0.578905
-0.230384 1.551856 -0.580227
-0.227415 1.550463 -0.581710
-0.224532 1.548926 -0.583026
-0.222444 1.546281 -0.582947
-0.216188 1.549269 -0.590078
-0.211755 1.549688 -0.593986
-0.208194 1.548885 -0.596359
-0.205231 1.547265 -0.597692
-0.202638 1.545152 -0.598393
-0.199433 1.543802 -0.600110
-0.196769 1.541750 -0.600913
-0.195770 1.537644 -0.598970
-0.196593 1.531377 -0.594081
-0.205942 1.515026 -0.575416
-0.200578 1.516388 -0.580735
-0.198920 1.513342 -0.580050
-0.200252 1.506884 -0.574619
-0.194496 1.508557 -0.580473
-0.189975 1.508742 -0.584313
-0.186625 1.507569 -0.586281
-0.183163 1.506485 -0.588401
-0.181587 1.503341 -0.587590
-0.179282 1.500987 -0.587910
-0.176843 1.498771 -0.588433
-0.174664 1.496280 -0.588558
-0.172863 1.493407 -0.588119
-0.171126 1.490479 -0.587590
-0.169147 1.487804 -0.587432
-0.166623 1.485667 -0.588082
-0.165088 1.482567 -0.587275
-0.162138 1.480831 -0.588547
-0.160530 1.477815 -0.587858
-0.158954 1.474784 -0.587134
-0.156792 1.472303 -0.587261
-0.153499 1.470839 -0.589003
-0.151588 1.468120 -0.588766
-0.149999 1.465126 -0.588081
-0.148537 1.462036 -0.587228
-0.146900 1.459109 -0.586629
-0.145221 1.456231 -0.586099
-0.143103 1.453726 -0.586181
-0.141672 1.450659 -0.585322
-0.139056 1.448564 -0.586091
-0.137283 1.445786 -0.585710
-0.135300 1.443181 -0.585619
-0.133188 1.440678 -0.585702
-0.130958 1.438264 -0.585944
-0.130137 1.434786 -0.584315
-0.128142 1.432206 -0.584254
-0.126597 1.429298 -0.583606
-0.123706 1.427371 -0.584724
-0.121616 1.424857 -0.584790
-0.120053 1.421973 -0.584175
-0.117761 1.419602 -0.584508
-0.115788 1.417007 -0.584428
-0.114087 1.414231 -0.584004
-0.112736 1.411229 -0.583142
-0.110859 1.408582 -0.582953
-0.109370 1.405688 -0.582280
-0.107805 1.402850 -0.581709
-0.105621 1.400406 -0.581913
-0.103852 1.397701 -0.581604
-0.102069 1.395009 -0.581316
-0.101110 1.391827 -0.580022
-0.097999 1.389925 -0.581364
-0.095739 1.387509 -0.581661
-0.094283 1.384629 -0.580985
-0.092483 1.381948 -0.580728
-0.089949 1.379672 -0.581352
-0.087171 1.377518 -0.582262
-0.084711 1.375176 -0.582785
-0.083138 1.372355 -0.582257
-0.081628 1.369506 -0.581661
-0.079723 1.366862 -0.581532
-0.077837 1.364205 -0.581380
-0.076739 1.361157 -0.580318
-0.074826 1.358514 -0.580204
-0.073448 1.355612 -0.579475
-0.071877 1.352804 -0.578974
-0.067857 1.351127 -0.581259
-0.067334 1.347827 -0.579567
-0.065133 1.345290 -0.579778
-0.062832 1.342788 -0.580098
-0.060835 1.340142 -0.580073
-0.059063 1.337395 -0.579798
-0.058082 1.334314 -0.578648
-0.055585 1.331859 -0.579175
-0.053028 1.329411 -0.579763
-0.051317 1.326615 -0.579418
-0.049268 1.323943 -0.579442
-0.047340 1.321217 -0.579333
-0.045550 1.318430 -0.579071
-0.043859 1.315600 -0.578704
-0.039462 1.313726 -0.581229
-0.037971 1.310795 -0.580636
-0.036961 1.307697 -0.579536
-0.034470 1.305096 -0.580004
-0.033043 1.302128 -0.579345
-0.031162 1.299302 -0.579163
-0.029259 1.296472 -0.579002
-0.030445 1.292688 -0.575633
-0.025222 1.290849 -0.578910
-0.023903 1.287814 -0.578138
-0.022406 1.284826 -0.577549
-0.020751 1.281876 -0.577123
-0.018872 1.278978 -0.576922
-0.015995 1.276332 -0.577727
-0.014704 1.273252 -0.576923
-0.012416 1.270419 -0.577120
-0.010724 1.267424 -0.576714
-0.008279 1.264597 -0.577055
-0.007986 1.261257 -0.575255
-0.005499 1.258417 -0.575630
-0.002775 1.255610 -0.576228
-0.000753 1.252635 -0.576129
