ply
format ascii 1.0
comment ---
element vertex 1689
property float x
property float y
property float z
element face 0
property list uchar uint vertex_indices
end_header
-0.293404 1.756545 -0.088335
-0.287927 1.761084 -0.086828
-0.282690 1.766967 -0.084950
-0.276817 1.769847 -0.083880
-0.270769 1.771883 -0.083032
-0.265071 1.775815 -0.081662
-0.259772 1.782067 -0.079655
-0.254186 1.786965 -0.078006
-0.248226 1.789870 -0.076891
-0.242182 1.792353 -0.075882
-0.236259 1.795635 -0.074647
-0.230065 1.797294 -0.073846
-0.224561 1.803497 -0.071795
-0.218635 1.807145 -0.070431
-0.212705 1.810906 -0.069027
-0.207087 1.817104 -0.066944
-0.201095 1.820835 -0.065527
-0.194764 1.822086 -0.064780
-0.188611 1.824771 -0.063631
-0.182191 1.825309 -0.063062
-0.175644 1.824663 -0.062812
-0.170214 1.834168 -0.059751
-0.163949 1.836376 -0.058693
-0.157534 1.837176 -0.058014
-0.152103 1.848429 -0.054431
-0.146231 1.855850 -0.051894
-0.139728 1.856500 -0.051225
-0.132921 1.853307 -0.051616
-0.127154 1.863522 -0.048267
-0.122018 1.884054 -0.042025
-0.115048 1.879330 -0.042813
-0.108506 1.880831 -0.041855
-0.102503 1.892211 -0.038121
-0.096063 1.896992 -0.036222
-0.089517 1.900352 -0.034710
-0.082979 1.904582 -0.032942
-0.076352 1.907377 -0.031567
-0.069688 1.909714 -0.030312
-0.063029 1.912967 -0.028788
-0.056343 1.916294 -0.027233
-0.049628 1.919677 -0.025652
-0.042888 1.923478 -0.023942
-0.036135 1.929925 -0.021469
-0.029309 1.933090 -0.019917
-0.022454 1.936322 -0.018336
-0.015568 1.939400 -0.016789
-0.008652 1.942570 -0.015206
-0.001677 1.947438 -0.013126
0.005343 1.952178 -0.011071
0.012427 1.957604 -0.008807
0.019512 1.961240 -0.007047
0.026643 1.965127 -0.005204
0.033835 1.969545 -0.003197
0.041033 1.973071 -0.001436
0.048223 1.975653 0.000060
0.055502 1.979355 0.001892
0.062809 1.982841 0.003671
0.070112 1.985668 0.005269
0.077565 1.990211 0.007377
0.085090 1.995061 0.009586
0.092522 1.998038 0.011259
0.099988 2.001002 0.012937
0.107562 2.004797 0.014869
0.115138 2.008142 0.016680
0.122853 2.012506 0.018802
0.130664 2.017329 0.021071
0.138427 2.021187 0.023066
0.146192 2.024644 0.024953
0.153916 2.027380 0.026637
0.161669 2.030065 0.028315
0.169503 2.033107 0.030110
0.177368 2.036083 0.031895
0.185017 2.037176 0.033126
0.192500 2.036941 0.033966
0.199370 2.032416 0.033522
0.206883 2.032389 0.034436
0.213774 2.028278 0.034123
0.220640 2.024192 0.033820
0.227047 2.017479 0.032722
0.232785 2.007144 0.030521
0.238923 1.999604 0.029167
0.244992 1.992020 0.027797
0.251143 1.985211 0.026662
0.257105 1.977686 0.025307
0.263213 1.971226 0.024277
0.269599 1.966409 0.023752
0.275418 1.958984 0.022425
0.280508 1.948348 0.020102
0.286053 1.940265 0.018565
0.291557 1.932292 0.017059
0.297360 1.925940 0.016055
0.303332 1.920526 0.015343
0.308720 1.912790 0.013907
0.314610 1.907402 0.013204
0.320070 1.900408 0.011998
0.325070 1.891781 0.010278
0.330187 1.883891 0.008787
0.335505 1.877012 0.007613
0.341555 1.873095 0.007377
0.347465 1.868737 0.007005
0.351659 1.858231 0.004679
0.357280 1.853132 0.004073
0.361832 1.844402 0.002308
0.366031 1.834695 0.000226
0.371028 1.827958 -0.000906
0.375988 1.821258 -0.002025
0.380610 1.813609 -0.003451
0.384496 1.803786 -0.005582
0.390358 1.800453 -0.005611
0.395863 1.796051 -0.005982
0.398187 1.781996 -0.009497
0.399053 1.763930 -0.014334
0.404748 1.760655 -0.014342
0.398656 1.723068 -0.025619
0.407217 1.728598 -0.022742
0.417743 1.739438 -0.018088
0.423402 1.736336 -0.018022
0.427623 1.729309 -0.019251
0.431299 1.720942 -0.020927
0.436389 1.716507 -0.021291
0.441272 1.711577 -0.021816
0.444786 1.703174 -0.023502
0.445330 1.687364 -0.027684
0.452248 1.687933 -0.026352
0.456362 1.681462 -0.027388
0.458468 1.670184 -0.030055
0.461932 1.662408 -0.031538
0.466455 1.657280 -0.032116
0.471625 1.653728 -0.032150
0.469539 1.633400 -0.037942
0.474647 1.629958 -0.037941
0.479803 1.626632 -0.037892
0.482591 1.618048 -0.039659
0.483340 1.605129 -0.042938
0.488499 1.602020 -0.042806
0.493972 1.599582 -0.042432
0.497602 1.593233 -0.043422
0.500117 1.584638 -0.045203
0.504800 1.580646 -0.045362
0.505618 1.568812 -0.048297
0.509210 1.562765 -0.049187
0.511892 1.554984 -0.050697
0.516618 1.551326 -0.050736
0.518338 1.541858 -0.052859
0.520295 1.532999 -0.054773
0.525300 1.530046 -0.054561
0.528004 1.522794 -0.055907
0.531290 1.516722 -0.056830
0.534727 1.511003 -0.057632
0.537545 1.504239 -0.058823
0.539466 1.495973 -0.060577
0.544889 1.494015 -0.060017
0.545465 1.483601 -0.062593
0.546763 1.474621 -0.064659
0.546637 1.463371 -0.067594
0.551025 1.459937 -0.067631
0.554525 1.455066 -0.068221
0.549476 1.436182 -0.074109
0.551737 1.429601 -0.075398
0.553724 1.422700 -0.076833
0.552469 1.410763 -0.080214
0.550826 1.388969 -0.086305
0.559686 1.393384 -0.083527
0.568406 1.397505 -0.080870
0.569445 1.389921 -0.082753
0.576370 1.391338 -0.081184
0.586425 1.397406 -0.077827
0.588969 1.392341 -0.078829
0.590864 1.386469 -0.080186
0.595246 1.384340 -0.080118
0.599065 1.381496 -0.080368
0.602795 1.378633 -0.080666
0.606520 1.375873 -0.080964
0.610330 1.373344 -0.081212
0.613401 1.369908 -0.081862
0.615252 1.364930 -0.083168
0.616900 1.359835 -0.084568
0.618866 1.355327 -0.085780
0.621180 1.351432 -0.086792
0.626131 1.351169 -0.086397
0.628818 1.348016 -0.087198
0.630771 1.344036 -0.088373
0.634736 1.342798 -0.088490
-0.485129 1.631879 -0.145530
-0.482356 1.636083 -0.143627
-0.478828 1.638659 -0.142151
-0.475719 1.642561 -0.140361
-0.472300 1.645948 -0.138721
-0.467573 1.646199 -0.137895
-0.464211 1.650262 -0.136128
-0.458704 1.648898 -0.135763
-0.454806 1.652055 -0.134273
-0.449864 1.652633 -0.133466
-0.446362 1.657412 -0.131609
-0.440679 1.656395 -0.131262
-0.437291 1.662063 -0.129223
-0.431415 1.660906 -0.128964
-0.426797 1.663568 -0.127746
-0.423524 1.670460 -0.125457
-0.418844 1.673493 -0.124187
-0.413722 1.675428 -0.123223
-0.408420 1.677009 -0.122372
-0.403010 1.678443 -0.121581
-0.398356 1.682459 -0.120136
-0.395619 1.692936 -0.117022
-0.390108 1.694725 -0.116190
-0.383946 1.694486 -0.115903
-0.378832 1.697893 -0.114677
-0.373982 1.702410 -0.113172
-0.368670 1.705516 -0.112048
-0.363073 1.707758 -0.111160
-0.357996 1.712025 -0.109748
-0.352051 1.713239 -0.109145
-0.347331 1.719184 -0.107303
-0.342130 1.723499 -0.105894
-0.337024 1.728360 -0.104343
-0.331460 1.731557 -0.103232
-0.325621 1.733730 -0.102393
-0.319987 1.736830 -0.101309
-0.313602 1.736781 -0.101056
-0.310075 1.749300 -0.097475
-0.304348 1.752408 -0.096381
-0.298410 1.754632 -0.095518
-0.292477 1.756914 -0.094635
-0.286685 1.759924 -0.093554
-0.281597 1.766506 -0.091518
-0.275831 1.769896 -0.090323
-0.269878 1.772395 -0.089359
-0.264028 1.775501 -0.088226
-0.260066 1.789103 -0.084286
-0.253396 1.788015 -0.084254
-0.247265 1.789911 -0.083419
-0.241137 1.791842 -0.082567
-0.235259 1.795341 -0.081287
-0.229686 1.800912 -0.079441
-0.223788 1.804592 -0.078093
-0.217951 1.808835 -0.076584
-0.211887 1.811654 -0.075447
-0.206420 1.818944 -0.073097
-0.200380 1.822315 -0.071791
-0.194163 1.824443 -0.070810
-0.187711 1.824705 -0.070324
-0.181299 1.825229 -0.069758
-0.175154 1.828065 -0.068558
-0.169357 1.834269 -0.066435
-0.163618 1.841518 -0.064016
-0.157740 1.847953 -0.061806
-0.151499 1.851048 -0.060491
-0.145821 1.860736 -0.057370
-0.139488 1.863599 -0.056096
-0.133245 1.867837 -0.054436
-0.127708 1.882054 -0.050035
-0.121318 1.885805 -0.048483
-0.114676 1.886104 -0.047866
-0.108189 1.888940 -0.046545
-0.101842 1.894709 -0.044407
-0.095367 1.898908 -0.042689
-0.088667 1.898946 -0.042108
-0.082108 1.902336 -0.040593
-0.075670 1.909896 -0.037913
-0.069006 1.912414 -0.036618
-0.062295 1.913944 -0.035586
-0.055595 1.916518 -0.034257
-0.048902 1.920903 -0.032413
-0.042166 1.925029 -0.030630
-0.035410 1.931504 -0.028181
-0.028582 1.934440 -0.026709
-0.021729 1.936420 -0.025494
-0.014838 1.941133 -0.023504
-0.007893 1.946484 -0.021324
-0.000932 1.949691 -0.019735
0.006070 1.953297 -0.018023
0.013157 1.958784 -0.015771
0.020221 1.961721 -0.014227
0.027306 1.964362 -0.012758
0.034569 1.970757 -0.010214
0.041800 1.974988 -0.008272
0.048970 1.977101 -0.006924
0.056114 1.978260 -0.005839
0.063326 1.980314 -0.004490
0.070621 1.983276 -0.002873
0.077958 1.986360 -0.001211
0.085550 1.992427 0.001319
0.093019 1.996106 0.003173
0.100527 1.999749 0.005028
0.108162 2.004351 0.007170
0.115833 2.008797 0.009279
0.123566 2.013358 0.011431
0.131436 2.018748 0.013837
0.139057 2.021244 0.015412
0.146774 2.024312 0.017163
0.154653 2.028438 0.019234
0.162421 2.031237 0.020927
0.170098 2.033029 0.022334
0.178022 2.036495 0.024242
0.185765 2.038303 0.025672
0.193274 2.038248 0.026561
0.200623 2.037020 0.027109
0.207162 2.030417 0.026069
0.214326 2.028174 0.026323
0.221381 2.025309 0.026397
0.227946 2.019575 0.025617
0.233142 2.006039 0.022505
0.239304 1.998718 0.021246
0.245930 1.994305 0.020858
0.251615 1.984956 0.018986
0.257726 1.978269 0.017913
0.263816 1.971742 0.016888
0.269802 1.964945 0.015779
0.275326 1.956154 0.014064
0.280694 1.946961 0.012224
0.286431 1.939845 0.011012
0.291958 1.932025 0.009584
0.298084 1.927152 0.009055
0.303808 1.920667 0.008033
0.309637 1.914840 0.007214
0.315255 1.908309 0.006177
0.320150 1.899021 0.004289
0.325554 1.892082 0.003124
0.330572 1.883832 0.001550
0.336136 1.877935 0.000706
0.342061 1.873557 0.000336
0.347193 1.866340 -0.000918
0.352792 1.861017 -0.001580
0.358102 1.854790 -0.002524
0.361223 1.841051 -0.005830
0.363377 1.824407 -0.010063
0.370816 1.826132 -0.008505
0.378709 1.829234 -0.006498
0.380254 1.811440 -0.011113
0.384604 1.803171 -0.012712
0.388543 1.793808 -0.014662
0.392951 1.786139 -0.016075
0.398128 1.780989 -0.016680
0.401449 1.770358 -0.019045
0.401157 1.749299 -0.024779
0.400073 1.726519 -0.031092
0.406920 1.727102 -0.029859
0.415209 1.731669 -0.027318
0.422785 1.734040 -0.025473
0.427925 1.729593 -0.025839
0.433028 1.725104 -0.026214
0.435821 1.714523 -0.028585
0.441347 1.711336 -0.028526
0.446128 1.706240 -0.029090
0.446231 1.689292 -0.033576
0.450224 1.682514 -0.034702
0.453891 1.675037 -0.036059
0.456995 1.666312 -0.037834
0.461972 1.662258 -0.038046
0.466902 1.658126 -0.038278
0.470080 1.649918 -0.039878
0.472974 1.641190 -0.041656
0.476383 1.633788 -0.042987
0.478406 1.623377 -0.045343
0.482458 1.617669 -0.046100
0.483552 1.605536 -0.049054
0.488254 1.601453 -0.049256
0.492928 1.597335 -0.049464
0.496616 1.591158 -0.050378
0.500595 1.585664 -0.051054
0.503352 1.577709 -0.052584
0.505611 1.568861 -0.054430
0.508565 1.561550 -0.055743
0.512199 1.555691 -0.056551
0.515538 1.549319 -0.057540
0.518784 1.542846 -0.058566
0.522115 1.536619 -0.059509
0.525546 1.530656 -0.060361
0.527465 1.521941 -0.062200
0.531424 1.517130 -0.062651
0.535123 1.511892 -0.063258
0.537336 1.504030 -0.064817
0.540898 1.498697 -0.065472
0.542760 1.490430 -0.067201
0.546151 1.484964 -0.067924
0.548133 1.477142 -0.069520
0.545431 1.461468 -0.074018
0.550552 1.459284 -0.073584
0.553947 1.454237 -0.074215
0.542314 1.414338 -0.086626
0.541672 1.403345 -0.089570
0.544155 1.397557 -0.090599
0.542861 1.385919 -0.093854
0.545225 1.380235 -0.094903
0.560448 1.394552 -0.088409
0.565163 1.392501 -0.088114
0.569606 1.390095 -0.087978
0.578404 1.394286 -0.085350
0.585854 1.396419 -0.083524
0.588083 1.390864 -0.084675
0.590685 1.385996 -0.085600
0.595245 1.384089 -0.085423
0.599439 1.381741 -0.085451
0.603176 1.378843 -0.085731
0.606580 1.375588 -0.086190
0.610283 1.372868 -0.086482
0.612051 1.367595 -0.087814
0.615063 1.364181 -0.088464
0.617896 1.360655 -0.089202
0.620473 1.356918 -0.090066
0.623307 1.353663 -0.090786
0.625255 1.349365 -0.091959
0.628620 1.347075 -0.092385
0.631225 1.343911 -0.093197
0.628850 1.334441 -0.096547
-0.486128 1.634776 -0.150156
-0.481888 1.635413 -0.149169
-0.477874 1.636836 -0.148010
-0.474744 1.640752 -0.146256
-0.471898 1.645688 -0.144269
-0.466761 1.644955 -0.143710
-0.461452 1.643955 -0.143244
-0.458624 1.649770 -0.141103
-0.453965 1.650973 -0.140137
-0.449752 1.653629 -0.138831
-0.445272 1.655810 -0.137669
-0.441289 1.659640 -0.136115
-0.435495 1.658608 -0.135811
-0.430937 1.661295 -0.134594
-0.426859 1.665640 -0.132979
-0.422324 1.668921 -0.131656
-0.418743 1.675329 -0.129559
-0.414416 1.679808 -0.127971
-0.407890 1.677749 -0.128069
-0.403027 1.680993 -0.126835
-0.399766 1.689588 -0.124252
-0.394586 1.692336 -0.123177
-0.389104 1.694281 -0.122324
-0.383273 1.695204 -0.121748
-0.377369 1.695987 -0.121221
-0.373200 1.702899 -0.119132
-0.367759 1.705608 -0.118131
-0.362629 1.709583 -0.116814
-0.357234 1.712758 -0.115709
-0.351848 1.716111 -0.114564
-0.346871 1.721170 -0.112984
-0.341486 1.724837 -0.111765
-0.335826 1.727546 -0.110797
-0.330361 1.731145 -0.109600
-0.324864 1.734731 -0.108405
-0.319246 1.737928 -0.107311
-0.313773 1.741843 -0.106029
-0.308976 1.748882 -0.103932
-0.303630 1.753702 -0.102407
-0.297691 1.755931 -0.101551
-0.291657 1.757752 -0.100797
-0.285911 1.760985 -0.099670
-0.280309 1.765019 -0.098328
-0.274870 1.770017 -0.096728
-0.269111 1.773511 -0.095513
-0.263186 1.776202 -0.094500
-0.257875 1.782355 -0.092574
-0.252056 1.785870 -0.091329
-0.246430 1.790619 -0.089752
-0.240441 1.793363 -0.088691
-0.234899 1.798957 -0.086874
-0.229021 1.802643 -0.085547
-0.222886 1.804760 -0.084624
-0.217315 1.810784 -0.082662
-0.211030 1.812050 -0.081945
-0.205129 1.816118 -0.080479
-0.199412 1.821791 -0.078577
-0.193345 1.825019 -0.077312
-0.186929 1.825519 -0.076760
-0.180510 1.825932 -0.076223
-0.174437 1.829365 -0.074874
-0.168643 1.835605 -0.072769
-0.163402 1.847740 -0.069081
-0.157911 1.858398 -0.065770
-0.151938 1.864845 -0.063569
-0.144890 1.859644 -0.064471
-0.138767 1.864872 -0.062576
-0.132419 1.867764 -0.061295
-0.125969 1.869529 -0.060307
-0.120563 1.886644 -0.055181
-0.113421 1.879037 -0.056693
-0.107264 1.886758 -0.054069
-0.101138 1.896308 -0.050937
-0.094726 1.901795 -0.048889
-0.088035 1.902152 -0.048219
-0.081480 1.905849 -0.046636
-0.074922 1.910391 -0.044811
-0.068306 1.914295 -0.043150
-0.061591 1.915753 -0.042145
-0.054890 1.918379 -0.040812
-0.048201 1.923217 -0.038865
-0.041461 1.927436 -0.037076
-0.034688 1.932634 -0.035009
-0.027861 1.935598 -0.033543
-0.021007 1.937944 -0.032238
-0.014111 1.942990 -0.030179
-0.007161 1.948502 -0.027981
-0.000191 1.951929 -0.026347
0.006795 1.954565 -0.024923
0.013842 1.958418 -0.023152
0.020912 1.961794 -0.021503
0.028027 1.965421 -0.019775
0.035210 1.969791 -0.017829
0.042371 1.972685 -0.016285
0.049590 1.976093 -0.014588
0.056744 1.977635 -0.013404
0.063883 1.978585 -0.012380
0.070995 1.978897 -0.011527
0.078296 1.981823 -0.009931
0.085921 1.988678 -0.007214
0.093743 1.997137 -0.004030
0.101124 1.999237 -0.002635
0.108673 2.002936 -0.000777
0.116444 2.008569 0.001642
0.124135 2.012751 0.003659
0.131959 2.017761 0.005924
0.139755 2.021973 0.007973
0.147419 2.024577 0.009571
0.155232 2.028153 0.011457
0.163135 2.032114 0.013465
0.170847 2.034189 0.014939
0.178527 2.035782 0.016283
0.186247 2.037484 0.017666
0.193971 2.039019 0.019010
0.201274 2.037497 0.019472
0.208122 2.032975 0.019065
0.214832 2.027776 0.018461
0.221943 2.025309 0.018658
0.228605 2.020206 0.018086
0.234329 2.009820 0.015960
0.239948 1.999338 0.013801
0.246357 1.993741 0.013078
0.252508 1.986973 0.012009
0.258108 1.977591 0.010163
0.264259 1.971432 0.009271
0.269940 1.963161 0.007749
0.275441 1.954337 0.006059
0.281233 1.947250 0.004885
0.287041 1.940496 0.003809
0.292950 1.934438 0.002940
0.298582 1.927347 0.001760
0.304426 1.921418 0.000930
0.309909 1.914137 -0.000310
0.315746 1.908566 -0.001033
0.320932 1.900497 -0.002513
0.326160 1.892857 -0.003866
0.331553 1.886094 -0.004953
0.336868 1.879230 -0.006072
0.342182 1.872554 -0.007134
0.347882 1.867489 -0.007702
0.353554 1.862441 -0.008263
0.357955 1.852980 -0.010184
0.360003 1.835557 -0.014572
0.365335 1.829969 -0.015306
0.368809 1.818234 -0.017949
0.374645 1.814668 -0.018055
0.377589 1.801723 -0.021086
0.383372 1.798244 -0.021162
0.387177 1.788573 -0.023177
0.392930 1.785191 -0.023217
0.398815 1.782248 -0.023113
0.402099 1.771514 -0.025467
0.401367 1.749175 -0.031508
0.400997 1.728510 -0.037041
0.408683 1.731493 -0.035059
0.416806 1.735543 -0.032718
0.423078 1.734257 -0.032069
0.428008 1.729259 -0.032603
0.432279 1.722556 -0.033682
0.434701 1.711057 -0.036311
0.438967 1.704644 -0.037298
0.442188 1.695640 -0.039126
0.447073 1.691049 -0.039519
0.449724 1.680901 -0.041723
0.453901 1.674738 -0.042627
0.458129 1.668787 -0.043459
0.462285 1.662750 -0.044316
0.467221 1.658649 -0.044531
0.466397 1.641075 -0.049208
0.471947 1.638633 -0.048872
0.476678 1.634309 -0.049155
0.479433 1.625564 -0.050911
0.481242 1.614864 -0.053326
0.484477 1.607490 -0.054630
0.488407 1.601732 -0.055389
0.491141 1.593480 -0.056991
0.495797 1.589417 -0.057172
0.498755 1.581835 -0.058548
0.502465 1.575912 -0.059359
0.505228 1.568131 -0.060806
0.509145 1.562781 -0.061420
0.512753 1.556871 -0.062226
0.515812 1.549953 -0.063382
0.517431 1.540333 -0.065481
0.521743 1.536029 -0.065735
0.524958 1.529678 -0.066704
0.528294 1.523631 -0.067570
0.530572 1.515706 -0.069103
0.533988 1.509974 -0.069869
0.537206 1.503955 -0.070742
0.540294 1.497781 -0.071678
0.542225 1.489649 -0.073322
0.546803 1.486263 -0.073278
0.540650 1.464400 -0.079893
0.541277 1.454538 -0.082223
0.548083 1.455267 -0.080735
0.551418 1.450155 -0.081371
0.543958 1.427322 -0.088495
0.542011 1.413949 -0.092213
0.543563 1.406483 -0.093798
0.545101 1.399136 -0.095366
0.549402 1.396296 -0.095292
0.568118 1.406412 -0.089316
0.569863 1.399669 -0.090745
0.572202 1.393972 -0.091816
0.582394 1.400182 -0.088442
0.587178 1.398264 -0.088143
0.588840 1.391822 -0.089585
0.591525 1.387028 -0.090443
0.595867 1.384757 -0.090380
0.600081 1.382391 -0.090388
0.603644 1.379200 -0.090749
0.606787 1.375533 -0.091333
0.609681 1.371645 -0.092043
0.612327 1.367550 -0.092876
0.615734 1.364633 -0.093298
0.619503 1.362328 -0.093526
0.623304 1.360178 -0.093736
0.625815 1.356422 -0.094612
0.625416 1.348961 -0.096972
0.628041 1.345662 -0.097759
0.631395 1.343443 -0.098168
0.634643 1.341205 -0.098625
-0.487938 1.639737 -0.154325
-0.481999 1.636244 -0.154353
-0.477777 1.637232 -0.153326
-0.474025 1.639643 -0.151975
-0.471282 1.644926 -0.149947
-0.464632 1.640314 -0.150350
-0.461267 1.644493 -0.148636
-0.457287 1.647327 -0.147272
-0.452889 1.649303 -0.146142
-0.448956 1.652803 -0.144661
-0.445207 1.657098 -0.143006
-0.441232 1.661064 -0.141455
-0.435424 1.660103 -0.141145
-0.430930 1.663091 -0.139882
-0.426311 1.665972 -0.138668
-0.422104 1.670327 -0.137108
-0.417919 1.675035 -0.135481
-0.413500 1.679315 -0.133979
-0.408143 1.680954 -0.133155
-0.402678 1.682430 -0.132391
-0.398105 1.686932 -0.130887
-0.393638 1.692033 -0.129247
-0.387966 1.693408 -0.128556
-0.382213 1.694636 -0.127916
-0.376591 1.696430 -0.127147
-0.372034 1.702057 -0.125422
-0.366982 1.706182 -0.124084
-0.361564 1.709166 -0.123041
-0.356307 1.712885 -0.121819
-0.350801 1.715821 -0.120800
-0.345342 1.719058 -0.119708
-0.340406 1.724462 -0.118070
-0.334525 1.726297 -0.117338
-0.329261 1.730700 -0.115955
-0.323863 1.734698 -0.114674
-0.318793 1.740223 -0.113003
-0.313382 1.744465 -0.111656
-0.307574 1.747075 -0.110720
-0.302739 1.754172 -0.108637
-0.296738 1.756109 -0.107864
-0.291271 1.760611 -0.106432
-0.285376 1.763165 -0.105491
-0.279223 1.764477 -0.104862
-0.274151 1.771325 -0.102810
-0.268312 1.774398 -0.101716
-0.262896 1.779840 -0.100007
-0.257452 1.785332 -0.098276
-0.251207 1.786453 -0.097659
-0.245867 1.792868 -0.095673
-0.239735 1.794769 -0.094839
-0.233524 1.796183 -0.094122
-0.228229 1.803496 -0.091874
-0.221795 1.803598 -0.091478
-0.216157 1.809072 -0.089685
-0.210358 1.813682 -0.088104
-0.204219 1.816001 -0.087107
-0.198494 1.821554 -0.085261
-0.192451 1.824901 -0.083978
-0.186096 1.825826 -0.083314
-0.179697 1.826342 -0.082748
-0.173812 1.831412 -0.080987
-0.168070 1.838181 -0.078770
-0.162799 1.850112 -0.075191
-0.157788 1.865814 -0.070609
-0.151641 1.870698 -0.068844
-0.144489 1.864486 -0.069981
-0.137969 1.865107 -0.069318
-0.131694 1.868860 -0.067822
-0.125078 1.868305 -0.067452
-0.117953 1.860116 -0.069091
-0.111767 1.865404 -0.067164
-0.106476 1.886711 -0.060984
-0.100430 1.897678 -0.057522
-0.094081 1.904480 -0.055150
-0.087427 1.905760 -0.054234
-0.080644 1.904005 -0.054118
-0.074145 1.909789 -0.051985
-0.067550 1.914144 -0.050222
-0.060899 1.917771 -0.048643
-0.054203 1.920848 -0.047201
-0.047487 1.924391 -0.045625
-0.040756 1.929466 -0.043626
-0.033969 1.933248 -0.041965
-0.027146 1.936648 -0.040396
-0.020293 1.939209 -0.039045
-0.013415 1.941616 -0.037727
-0.006455 1.948727 -0.035123
0.000513 1.952344 -0.033456
0.007496 1.954967 -0.032049
0.014502 1.957399 -0.030686
0.021626 1.962796 -0.028504
0.028744 1.966484 -0.026778
0.035857 1.969147 -0.025324
0.043006 1.971935 -0.023826
0.050105 1.973112 -0.022763
0.057404 1.977636 -0.020769
0.064537 1.978591 -0.019751
0.071609 1.978368 -0.019051
0.078777 1.979471 -0.017978
0.086605 1.989259 -0.014486
0.095165 2.007044 -0.008752
0.102633 2.009681 -0.007217
0.109236 2.002179 -0.008504
0.117278 2.010781 -0.005287
0.124901 2.014195 -0.003509
0.132576 2.017721 -0.001690
0.140468 2.022866 0.000595
0.148148 2.025609 0.002214
0.155805 2.027846 0.003699
0.163620 2.031129 0.005489
0.171425 2.034011 0.007176
0.179256 2.036789 0.008842
0.186958 2.038356 0.010173
0.194518 2.038737 0.011174
0.201709 2.036493 0.011430
0.208538 2.031929 0.011026
0.215198 2.026487 0.010371
0.221749 2.020623 0.009594
0.228386 2.015549 0.009045
0.234683 2.008706 0.007986
0.240579 1.999885 0.006351
0.246916 1.993915 0.005541
0.252655 1.984963 0.003863
0.258558 1.977263 0.002545
0.264498 1.970074 0.001374
0.270233 1.962148 -0.000015
0.276062 1.954989 -0.001181
0.282007 1.948653 -0.002107
0.287991 1.942717 -0.002917
0.293071 1.932877 -0.004879
0.299397 1.928942 -0.005100
0.304852 1.921323 -0.006410
0.310592 1.915166 -0.007288
0.316011 1.907867 -0.008507
0.321858 1.902546 -0.009137
0.326956 1.894377 -0.010618
0.332542 1.888372 -0.011453
0.337021 1.878287 -0.013514
0.342194 1.871130 -0.014698
0.348150 1.867067 -0.014950
0.353550 1.861071 -0.015783
0.359048 1.855571 -0.016466
0.362460 1.842909 -0.019325
0.364273 1.825140 -0.023751
0.370401 1.822473 -0.023578
0.374400 1.812773 -0.025554
0.379522 1.806993 -0.026330
0.382077 1.793108 -0.029601
0.386720 1.786194 -0.030731
0.392728 1.783666 -0.030504
0.399100 1.782260 -0.029922
0.398196 1.758987 -0.036133
0.403189 1.753796 -0.036732
0.399513 1.723480 -0.045184
0.406154 1.723568 -0.044143
0.417225 1.736077 -0.039186
0.422873 1.733072 -0.039085
0.428121 1.728989 -0.039319
0.430096 1.716126 -0.042329
0.434614 1.710320 -0.043107
0.439695 1.706079 -0.043384
0.444119 1.700185 -0.044184
0.447540 1.691830 -0.045770
0.451271 1.684410 -0.047057
0.452694 1.671407 -0.050144
0.458780 1.670064 -0.049473
0.463086 1.664394 -0.050194
0.467160 1.658249 -0.051066
0.470224 1.649820 -0.052680
0.470986 1.636212 -0.055991
0.474963 1.630223 -0.056815
0.478749 1.623878 -0.057753
0.481910 1.616229 -0.059121
0.485183 1.608943 -0.060370
0.490692 1.606610 -0.059974
0.490940 1.592999 -0.063327
0.495090 1.587894 -0.063850
0.499489 1.583357 -0.064180
0.502605 1.576213 -0.065383
0.505027 1.567751 -0.067033
0.509421 1.563383 -0.067300
0.513259 1.557940 -0.067930
0.516213 1.550818 -0.069130
0.516927 1.539451 -0.071787
0.520877 1.534478 -0.072262
0.524596 1.529111 -0.072872
0.527513 1.522301 -0.073983
0.529896 1.514593 -0.075410
0.533015 1.508342 -0.076338
0.536727 1.503241 -0.076871
0.538967 1.495567 -0.078310
0.543257 1.491625 -0.078447
0.546756 1.486336 -0.079063
0.539987 1.463408 -0.085938
0.541801 1.455578 -0.087498
0.547055 1.453675 -0.086960
0.546696 1.442416 -0.089777
0.547402 1.433122 -0.091916
0.551734 1.429912 -0.091888
0.555853 1.426402 -0.091981
0.556785 1.417860 -0.093917
0.562236 1.416617 -0.093223
0.573184 1.423980 -0.089396
0.577154 1.420396 -0.089579
0.580217 1.415499 -0.090270
0.582644 1.409746 -0.091305
0.585893 1.405357 -0.091869
0.589309 1.401323 -0.092332
0.592375 1.396881 -0.092980
0.593200 1.389295 -0.094839
0.596439 1.385373 -0.095368
0.600557 1.382825 -0.095419
0.604243 1.379762 -0.095701
0.606900 1.375367 -0.096524
0.610168 1.371959 -0.097016
0.612487 1.367369 -0.097998
0.615654 1.364083 -0.098529
0.619751 1.362182 -0.098574
0.623458 1.359865 -0.098819
0.624682 1.354356 -0.100327
0.625409 1.348360 -0.102067
0.627775 1.344686 -0.102963
0.631124 1.342428 -0.103358
0.635104 1.341101 -0.103435
-0.482953 1.627878 -0.162519
-0.482828 1.638924 -0.159119
-0.478529 1.639824 -0.158134
-0.473451 1.638955 -0.157592
-0.468239 1.637929 -0.157113
-0.466277 1.645591 -0.154584
-0.461693 1.646695 -0.153642
-0.457667 1.649526 -0.152310
-0.452447 1.649395 -0.151713
-0.447255 1.649536 -0.151077
-0.445748 1.660117 -0.147943
-0.439030 1.656498 -0.148263
-0.434341 1.658757 -0.147186
-0.430439 1.663532 -0.145519
-0.425997 1.667031 -0.144184
-0.421300 1.670035 -0.142989
-0.416637 1.673387 -0.141730
-0.412183 1.677623 -0.140273
-0.406428 1.678076 -0.139761
-0.401119 1.680077 -0.138888
-0.397559 1.687870 -0.136608
-0.391710 1.688548 -0.136090
-0.385990 1.689763 -0.135455
-0.381417 1.694970 -0.133849
-0.375737 1.696620 -0.133130
-0.371066 1.701910 -0.131523
-0.365790 1.705277 -0.130397
-0.360519 1.708819 -0.129235
-0.355276 1.712615 -0.128016
-0.350073 1.716720 -0.126724
-0.344659 1.720168 -0.125598
-0.339312 1.724007 -0.124377
-0.334111 1.728569 -0.122976
-0.328439 1.731362 -0.122015
-0.323612 1.737764 -0.120155
-0.317613 1.739404 -0.119478
-0.312985 1.747038 -0.117304
-0.307075 1.749242 -0.116479
-0.301026 1.750852 -0.115800
-0.296010 1.757292 -0.113909
-0.289705 1.757797 -0.113496
-0.284326 1.762792 -0.111954
-0.278485 1.765627 -0.110946
-0.273212 1.771450 -0.109181
-0.267444 1.774875 -0.108010
-0.261800 1.779060 -0.106640
-0.256326 1.784335 -0.104987
-0.251062 1.791019 -0.102970
-0.244444 1.789984 -0.102890
-0.238810 1.794777 -0.101332
-0.232282 1.794150 -0.101133
-0.226771 1.799967 -0.099297
-0.221393 1.806949 -0.097155
-0.215766 1.812575 -0.095346
-0.209762 1.815787 -0.094138
-0.203740 1.818990 -0.092923
-0.197741 1.822494 -0.091622
-0.191959 1.827904 -0.089825
-0.185325 1.826555 -0.089741
-0.178868 1.826510 -0.089318
-0.173259 1.834033 -0.086950
-0.167284 1.838668 -0.085310
-0.161626 1.846768 -0.082770
-0.156349 1.859540 -0.079016
-0.150535 1.867666 -0.076440
-0.143432 1.861697 -0.077483
-0.137087 1.864194 -0.076337
-0.131558 1.877477 -0.072396
-0.125691 1.887731 -0.069221
-0.117255 1.861288 -0.075540
-0.111890 1.879662 -0.070241
-0.106023 1.892272 -0.066419
-0.099513 1.894978 -0.065158
-0.093044 1.898955 -0.063555
-0.086575 1.903695 -0.061743
-0.079947 1.905421 -0.060709
-0.073276 1.906278 -0.059893
-0.066797 1.913760 -0.057332
-0.060172 1.918185 -0.055561
-0.053493 1.921861 -0.053977
-0.046784 1.925845 -0.052301
-0.040033 1.929235 -0.050772
-0.033260 1.934367 -0.048772
-0.026436 1.937431 -0.047310
-0.019585 1.940051 -0.045956
-0.012706 1.942814 -0.044555
-0.005792 1.946188 -0.042982
0.001198 1.951948 -0.040764
0.008154 1.953697 -0.039606
0.015198 1.957971 -0.037763
0.022294 1.962482 -0.035847
0.029420 1.966567 -0.034035
0.036542 1.969541 -0.032512
0.043674 1.972013 -0.031116
0.050822 1.974259 -0.029772
0.057986 1.976336 -0.028465
0.065260 1.979799 -0.026775
0.072259 1.978457 -0.026381
0.079443 1.979860 -0.025235
0.087332 1.990451 -0.021576
0.095892 2.008136 -0.015961
0.103937 2.017620 -0.012567
0.111446 2.019975 -0.011113
0.119231 2.024954 -0.008929
0.126469 2.023805 -0.008422
0.133943 2.024970 -0.007272
0.140882 2.021011 -0.007531
0.149104 2.028669 -0.004570
0.156624 2.029654 -0.003447
0.164163 2.030648 -0.002314
0.172032 2.034072 -0.000497
0.179901 2.037174 0.001240
0.187572 2.038531 0.002498
0.195145 2.039031 0.003524
0.202274 2.036396 0.003675
0.208945 2.030834 0.003005
0.215440 2.024420 0.002096
0.222064 2.019115 0.001498
0.228438 2.012550 0.000544
0.234488 2.004390 -0.000865
0.240903 1.998683 -0.001579
0.247229 1.992725 -0.002365
0.253312 1.985700 -0.003457
0.258785 1.975771 -0.005381
0.264802 1.969052 -0.006391
0.270862 1.962810 -0.007264
0.276690 1.955668 -0.008398
0.282635 1.949351 -0.009296
0.288760 1.944087 -0.009889
0.294519 1.937339 -0.010913
0.299716 1.928322 -0.012598
0.305397 1.921732 -0.013580
0.311322 1.916389 -0.014198
0.316797 1.909332 -0.015318
0.321970 1.901265 -0.016736
0.327923 1.896567 -0.017166
0.333185 1.889283 -0.018356
0.337637 1.879107 -0.020403
0.342875 1.872210 -0.021484
0.348284 1.866139 -0.022321
0.354157 1.861899 -0.022613
0.358847 1.853541 -0.024130
0.363750 1.846159 -0.025359
0.368243 1.837564 -0.026953
0.371089 1.823646 -0.030149
0.376426 1.818390 -0.030747
0.379341 1.805352 -0.033693
0.382562 1.793664 -0.036240
0.387285 1.787020 -0.037265
0.393336 1.784637 -0.036992
0.397209 1.775623 -0.038736
0.399116 1.760924 -0.042222
0.400030 1.743686 -0.046498
0.399386 1.722382 -0.052042
0.407464 1.726622 -0.049736
0.416218 1.732569 -0.046884
0.422811 1.732269 -0.045947
0.427604 1.726978 -0.046549
0.432931 1.723208 -0.046675
0.435343 1.711729 -0.049202
0.440066 1.706558 -0.049762
0.445377 1.702974 -0.049819
0.446802 1.689526 -0.052977
0.452004 1.685857 -0.053057
0.453106 1.672064 -0.056338
0.458415 1.668840 -0.056272
0.461458 1.660170 -0.057935
0.466825 1.657177 -0.057786
0.471487 1.652533 -0.058158
0.470620 1.635150 -0.062622
0.475035 1.630195 -0.063096
0.478345 1.622802 -0.064355
0.481170 1.614443 -0.065929
0.486673 1.612098 -0.065547
0.490424 1.605936 -0.066402
0.491465 1.594052 -0.069130
0.495667 1.589065 -0.069602
0.499734 1.583843 -0.070148
0.502758 1.576521 -0.071386
0.505190 1.568096 -0.072991
0.509057 1.562682 -0.073598
0.512795 1.557068 -0.074271
0.514553 1.547627 -0.076226
0.517119 1.539903 -0.077611
0.521109 1.535014 -0.078044
0.524542 1.529114 -0.078819
0.527314 1.522045 -0.079994
0.529880 1.514689 -0.081271
0.533190 1.508794 -0.082055
0.536159 1.502355 -0.083031
0.540143 1.497810 -0.083360
0.544258 1.493538 -0.083598
0.546896 1.486728 -0.084721
0.547385 1.476310 -0.087113
0.553543 1.475741 -0.086081
0.552991 1.463820 -0.089032
0.553694 1.454214 -0.091195
0.555646 1.446837 -0.092595
0.558856 1.441639 -0.093242
0.562908 1.437882 -0.093392
0.567074 1.434363 -0.093472
0.570602 1.429892 -0.093910
0.575415 1.427509 -0.093617
0.579651 1.424277 -0.093648
0.580918 1.416569 -0.095321
0.584566 1.412627 -0.095661
0.587791 1.408143 -0.096225
0.590575 1.403113 -0.097020
0.593655 1.398640 -0.097645
0.594488 1.391014 -0.099464
0.597148 1.386206 -0.100287
0.599906 1.381669 -0.101047
0.603700 1.378730 -0.101255
0.608170 1.376845 -0.101108
0.611629 1.373648 -0.101487
0.613397 1.368242 -0.102733
0.614471 1.362051 -0.104317
0.618381 1.359872 -0.104442
0.621377 1.356577 -0.105028
0.623769 1.352610 -0.105910
0.625160 1.347464 -0.107280
0.628060 1.344456 -0.107887
0.631212 1.341903 -0.108364
0.633612 1.338504 -0.109202
-0.486119 1.636301 -0.165922
-0.482402 1.638504 -0.164638
-0.478980 1.641703 -0.163142
-0.473266 1.639309 -0.162969
-0.468720 1.640095 -0.162080
-0.465109 1.643555 -0.160588
-0.461941 1.648479 -0.158774
-0.457721 1.650903 -0.157568
-0.451679 1.648645 -0.157490
-0.447615 1.651969 -0.156119
-0.443523 1.655492 -0.154723
-0.440243 1.661587 -0.152739
-0.434622 1.661345 -0.152281
-0.429565 1.662905 -0.151417
-0.425401 1.667303 -0.149899
-0.420716 1.670435 -0.148702
-0.416308 1.674647 -0.147266
-0.411035 1.676471 -0.146419
-0.405736 1.678401 -0.145566
-0.400341 1.680207 -0.144760
-0.395242 1.683127 -0.143701
-0.390610 1.687769 -0.142241
-0.385549 1.691222 -0.141079
-0.380308 1.694252 -0.140031
-0.375861 1.700185 -0.138291
-0.370415 1.702871 -0.137344
-0.364950 1.705624 -0.136388
-0.359528 1.708660 -0.135369
-0.355232 1.715994 -0.133313
-0.349088 1.716633 -0.132884
-0.344080 1.721669 -0.131390
-0.338819 1.725893 -0.130094
-0.333202 1.728838 -0.129110
-0.327571 1.731810 -0.128118
-0.322863 1.738735 -0.126160
-0.316832 1.740249 -0.125520
-0.312177 1.747792 -0.123404
-0.306433 1.750742 -0.122406
-0.300487 1.752839 -0.121612
-0.295070 1.757438 -0.120201
-0.289195 1.759986 -0.119286
-0.283197 1.761969 -0.118504
-0.278361 1.769824 -0.116272
-0.272378 1.772063 -0.115413
-0.266581 1.775316 -0.114298
-0.260879 1.779166 -0.113027
-0.255580 1.785395 -0.111161
-0.249676 1.788390 -0.110084
-0.243463 1.789624 -0.109434
-0.237281 1.791018 -0.108736
-0.232116 1.798806 -0.106446
-0.226640 1.804964 -0.104549
-0.220690 1.808232 -0.103359
-0.214971 1.813216 -0.101732
-0.209292 1.818733 -0.099962
-0.203240 1.821758 -0.098803
-0.197002 1.823465 -0.097963
-0.191107 1.827953 -0.096419
-0.184783 1.829113 -0.095697
-0.178500 1.830613 -0.094882
-0.172607 1.835681 -0.093163
-0.166749 1.841435 -0.091261
-0.160826 1.846993 -0.089396
-0.154974 1.853739 -0.087221
-0.149015 1.859915 -0.085177
-0.142998 1.866000 -0.083144
-0.136418 1.865761 -0.082699
-0.129846 1.865486 -0.082257
-0.124894 1.887669 -0.076107
-0.118208 1.886998 -0.075742
-0.111749 1.889781 -0.074492
-0.105455 1.895782 -0.072411
-0.098867 1.897204 -0.071488
-0.092300 1.899221 -0.070404
-0.085780 1.902687 -0.068941
-0.079208 1.905575 -0.067617
-0.072583 1.907583 -0.066509
-0.065980 1.910930 -0.065048
-0.059399 1.916384 -0.063034
-0.052770 1.921921 -0.060988
-0.046047 1.924612 -0.059666
-0.039336 1.930853 -0.057415
-0.032550 1.934021 -0.055951
-0.025733 1.937784 -0.054322
-0.018885 1.940406 -0.052981
-0.012010 1.943216 -0.051583
-0.005075 1.948305 -0.049579
0.001877 1.951651 -0.048022
0.008854 1.954586 -0.046563
0.015889 1.958504 -0.044836
0.023008 1.963804 -0.042736
0.030129 1.967709 -0.040993
0.037207 1.969594 -0.039774
0.044325 1.971874 -0.038443
0.051564 1.975982 -0.036619
0.058784 1.978992 -0.035077
0.065766 1.977507 -0.034723
0.072884 1.978235 -0.033775
0.080233 1.982074 -0.031988
0.088454 1.996956 -0.027234
0.096001 2.001541 -0.025222
0.103261 2.002125 -0.024276
0.112156 2.020862 -0.018433
0.119771 2.024019 -0.016769
0.128160 2.034608 -0.013087
0.135764 2.036582 -0.011722
0.143221 2.036938 -0.010789
0.150717 2.037528 -0.009785
0.157765 2.034195 -0.009845
0.164922 2.031936 -0.009609
0.172679 2.034463 -0.008060
0.180528 2.037434 -0.006380
0.188224 2.038992 -0.005080
0.195766 2.039293 -0.004117
0.202869 2.036512 -0.004000
0.209552 2.031075 -0.004613
0.215873 2.023588 -0.005796
0.222506 2.018404 -0.006341
0.229016 2.012721 -0.007025
0.234841 2.003288 -0.008755
0.241176 1.997199 -0.009556
0.247572 1.991707 -0.010190
0.253253 1.982588 -0.011843
0.259427 1.976450 -0.012661
0.265233 1.968679 -0.013942
0.271310 1.962563 -0.014757
0.277240 1.955958 -0.015711
0.283256 1.950008 -0.016482
0.289069 1.943317 -0.017463
0.294865 1.936787 -0.018400
0.300133 1.928135 -0.019945
0.305803 1.921534 -0.020906
0.311453 1.915056 -0.021833
0.317193 1.909161 -0.022594
0.322349 1.901059 -0.023991
0.328054 1.895406 -0.024683
0.333672 1.889570 -0.025428
0.338394 1.880456 -0.027125
0.343833 1.874320 -0.027959
0.349289 1.868408 -0.028728
0.354514 1.861811 -0.029698
0.358187 1.849875 -0.032232
0.363947 1.845576 -0.032531
0.368385 1.836832 -0.034136
0.372333 1.826672 -0.036163
0.377560 1.821026 -0.036859
0.380536 1.808179 -0.039692
0.383377 1.795257 -0.042555
0.388914 1.791177 -0.042791
0.394484 1.787262 -0.042975
0.395247 1.768763 -0.047526
0.399152 1.760195 -0.049110
0.404819 1.757025 -0.049071
0.400311 1.724326 -0.057947
0.408634 1.729257 -0.055466
0.416330 1.732202 -0.053569
0.422485 1.730713 -0.053007
0.427830 1.726979 -0.053121
0.431916 1.719891 -0.054257
0.435694 1.712118 -0.055603
0.439884 1.705569 -0.056573
0.444032 1.699024 -0.057541
0.446567 1.688485 -0.059745
0.451171 1.683352 -0.060276
0.455077 1.676559 -0.061320
0.458438 1.668545 -0.062745
0.462423 1.662172 -0.063657
0.465893 1.654670 -0.064922
0.469832 1.648391 -0.065803
0.471524 1.637002 -0.068296
0.475807 1.631745 -0.068854
0.477462 1.620630 -0.071271
0.482011 1.616154 -0.071578
0.484320 1.606798 -0.073442
0.488214 1.601036 -0.074157
0.492172 1.595477 -0.074803
0.496182 1.590088 -0.075392
0.500078 1.584517 -0.076038
0.503424 1.577869 -0.077031
0.506161 1.570067 -0.078401
0.508903 1.562387 -0.079733
0.512402 1.556319 -0.080540
0.514499 1.547568 -0.082231
0.518018 1.541709 -0.082971
0.521262 1.535384 -0.083867
0.524778 1.529650 -0.084568
0.529620 1.526458 -0.084420
0.529611 1.514303 -0.087275
0.531347 1.505549 -0.089002
0.535598 1.501470 -0.089162
0.540197 1.498040 -0.089101
0.543763 1.492802 -0.089655
0.545973 1.485258 -0.091002
0.547592 1.476807 -0.092672
0.550730 1.471081 -0.093420
0.553789 1.465301 -0.094198
0.555020 1.456554 -0.096015
0.558732 1.452046 -0.096378
0.560929 1.445131 -0.097594
0.565083 1.441491 -0.097683
0.568424 1.436602 -0.098224
0.571723 1.431731 -0.098777
0.576022 1.428507 -0.098767
0.579992 1.424833 -0.098935
0.582382 1.418813 -0.099961
0.585590 1.414158 -0.100528
0.588967 1.409859 -0.100995
0.591230 1.404008 -0.102050
0.592818 1.397303 -0.103447
0.595170 1.391867 -0.104423
0.597642 1.386744 -0.105323
0.600240 1.381937 -0.106146
0.603824 1.378661 -0.106449
0.608665 1.377256 -0.106105
0.611791 1.373553 -0.106639
0.614068 1.368808 -0.107597
0.615344 1.362847 -0.109046
0.616043 1.356278 -0.110767
0.619921 1.354154 -0.110888
0.622036 1.349797 -0.111878
0.625150 1.346907 -0.112367
0.627638 1.343324 -0.113155
0.630845 1.340812 -0.113587
0.635307 1.340038 -0.113410
-0.482388 1.627638 -0.173284
-0.480462 1.634327 -0.171015
-0.479196 1.643035 -0.168300
-0.474186 1.642541 -0.167700
-0.469370 1.642748 -0.166963
-0.464857 1.643965 -0.166019
-0.460369 1.645481 -0.165030
-0.455785 1.646985 -0.164066
-0.452410 1.652013 -0.162312
-0.447391 1.652841 -0.161550
-0.443790 1.657837 -0.159845
-0.439645 1.661620 -0.158442
-0.434817 1.663732 -0.157449
-0.429499 1.664656 -0.156755
-0.424748 1.667437 -0.155648
-0.420959 1.673332 -0.153832
-0.415655 1.674958 -0.153034
-0.410254 1.676470 -0.152281
-0.405043 1.678746 -0.151366
-0.400085 1.682011 -0.150234
-0.395454 1.686537 -0.148818
-0.390353 1.689764 -0.147722
-0.385095 1.692651 -0.146717
-0.379591 1.694864 -0.145882
-0.376049 1.703988 -0.143421
-0.370002 1.704671 -0.142965
-0.364428 1.707103 -0.142101
-0.359030 1.710284 -0.141066
-0.353636 1.713609 -0.140000
-0.348487 1.717988 -0.138686
-0.342910 1.720871 -0.137730
-0.337720 1.725376 -0.136388
-0.332282 1.729035 -0.135247
-0.326531 1.731520 -0.134385
-0.321829 1.738475 -0.132453
-0.316321 1.742219 -0.131285
-0.310283 1.743742 -0.130645
-0.305147 1.749319 -0.129030
-0.300594 1.757762 -0.126721
-0.294447 1.759030 -0.126128
-0.288441 1.760957 -0.125371
-0.283195 1.766647 -0.123703
-0.277146 1.768473 -0.122957
-0.271609 1.772959 -0.121564
-0.265812 1.776202 -0.120462
-0.260340 1.781303 -0.118904
-0.254300 1.783392 -0.118066
-0.249244 1.791198 -0.115835
-0.242726 1.790644 -0.115619
-0.236785 1.793500 -0.114569
-0.231766 1.802261 -0.112077
-0.226389 1.809139 -0.110029
-0.219965 1.809294 -0.109608
-0.213728 1.810658 -0.108884
-0.208870 1.821975 -0.105723
-0.202433 1.822177 -0.105263
-0.196446 1.825784 -0.103963
-0.190631 1.830948 -0.102271
-0.184243 1.831612 -0.101672
-0.178003 1.833528 -0.100758
-0.172184 1.839347 -0.098875
-0.166191 1.843920 -0.097288
-0.160475 1.851611 -0.094920
-0.154189 1.853971 -0.093857
-0.148018 1.857756 -0.092433
-0.142352 1.867761 -0.089457
-0.135475 1.863834 -0.089923
-0.129071 1.865535 -0.088987
-0.122330 1.862636 -0.089187
-0.116471 1.872509 -0.086198
-0.110483 1.881695 -0.083367
-0.104485 1.892146 -0.080204
-0.098251 1.899862 -0.077712
-0.091569 1.899587 -0.077211
-0.085032 1.902575 -0.075884
-0.078464 1.905363 -0.074598
-0.071894 1.908813 -0.073136
-0.065276 1.911637 -0.071823
-0.058693 1.916981 -0.069863
-0.052013 1.919780 -0.068537
-0.045327 1.923960 -0.066852
-0.038609 1.928716 -0.065010
-0.031853 1.935048 -0.062757
-0.025036 1.938151 -0.061315
-0.018192 1.940743 -0.059995
-0.011318 1.943716 -0.058570
-0.004379 1.949248 -0.056479
0.002578 1.952832 -0.054877
0.009571 1.956423 -0.053265
0.016639 1.961375 -0.051292
0.023692 1.964340 -0.049822
0.030830 1.968718 -0.047978
0.037867 1.969632 -0.047022
0.044961 1.971491 -0.045814
0.052349 1.978605 -0.043230
0.059493 1.980102 -0.042099
0.066504 1.979122 -0.041609
0.073646 1.980163 -0.040584
0.081160 1.986255 -0.038228
0.089427 2.001469 -0.033461
0.096753 2.003060 -0.032262
0.104047 2.004018 -0.031223
0.111998 2.012105 -0.028292
0.119210 2.011486 -0.027654
0.126312 2.009722 -0.027315
0.133698 2.010785 -0.026221
0.142110 2.021085 -0.022657
0.151409 2.038243 -0.017244
0.158625 2.036356 -0.016905
0.165543 2.032117 -0.017194
0.173247 2.034256 -0.015767
0.181175 2.037853 -0.013940
0.188907 2.039690 -0.012577
0.196404 2.039686 -0.011705
0.203419 2.036334 -0.011735
0.210018 2.030392 -0.012466
0.216531 2.024196 -0.013267
0.223098 2.018628 -0.013898
0.229821 2.014253 -0.014203
0.235025 2.001206 -0.016883
0.241635 1.996773 -0.017207
0.247599 1.988947 -0.018464
0.253597 1.981649 -0.019579
0.259566 1.974504 -0.020654
0.265523 1.967583 -0.021669
0.271674 1.961899 -0.022342
0.277886 1.956710 -0.022879
0.283629 1.949480 -0.023984
0.289331 1.942322 -0.025072
0.294889 1.934771 -0.026272
0.300561 1.927987 -0.027259
0.306189 1.921237 -0.028238
0.311888 1.915010 -0.029072
0.317327 1.907892 -0.030158
0.322207 1.898730 -0.031825
0.327831 1.892832 -0.032570
0.333449 1.887071 -0.033276
0.338925 1.880927 -0.034091
0.344610 1.875733 -0.034635
0.350018 1.869648 -0.035433
0.354368 1.859892 -0.037286
0.358543 1.849806 -0.039240
0.362358 1.838754 -0.041477
0.365313 1.825084 -0.044480
0.371731 1.823471 -0.043995
0.376918 1.817772 -0.044691
0.380002 1.805363 -0.047344
0.386170 1.803159 -0.047022
0.389727 1.792748 -0.049098
0.395300 1.788839 -0.049271
0.394538 1.765708 -0.055101
0.399379 1.760022 -0.055805
0.404075 1.754013 -0.056603
0.400087 1.722913 -0.064848
0.410175 1.732930 -0.060893
0.417065 1.733572 -0.059710
0.423387 1.732550 -0.059013
0.427997 1.726804 -0.059724
0.430613 1.715786 -0.062019
0.434875 1.709381 -0.062928
0.439309 1.703536 -0.063668
0.442973 1.695796 -0.064980
0.447302 1.689891 -0.065735
0.450635 1.681575 -0.067223
0.455260 1.676610 -0.067688
0.458472 1.668256 -0.069189
0.462569 1.662181 -0.069991
0.464318 1.650619 -0.072485
0.469524 1.647384 -0.072408
0.471939 1.637705 -0.074326
0.476345 1.632743 -0.074778
0.478565 1.622909 -0.076749
0.481809 1.615528 -0.077957
0.486539 1.611514 -0.078105
0.489141 1.602916 -0.079695
0.492088 1.595191 -0.081011
0.496637 1.590964 -0.081218
0.500421 1.585169 -0.081919
0.504643 1.580338 -0.082310
0.505438 1.568572 -0.084921
0.508996 1.562571 -0.085689
0.512433 1.556393 -0.086513
0.516511 1.551546 -0.086905
0.518530 1.542747 -0.088580
0.520872 1.534698 -0.090017
0.525402 1.530906 -0.090066
0.526852 1.521368 -0.091999
0.529370 1.513955 -0.093241
0.532204 1.507222 -0.094265
0.535518 1.501439 -0.094979
0.539353 1.496655 -0.095363
0.542644 1.490955 -0.096057
0.545819 1.485120 -0.096801
0.548099 1.477813 -0.098049
0.551876 1.473167 -0.098409
0.554356 1.466385 -0.099500
0.557283 1.460451 -0.100316
0.560560 1.455180 -0.100918
0.561635 1.446391 -0.102740
0.566552 1.443959 -0.102397
0.570068 1.439312 -0.102828
0.572111 1.432413 -0.104056
0.575762 1.428155 -0.104390
0.579703 1.424420 -0.104560
0.581849 1.418010 -0.105688
0.585441 1.413921 -0.106030
0.589038 1.409929 -0.106362
0.591485 1.404321 -0.107293
0.592861 1.397272 -0.108768
0.595156 1.391722 -0.109748
0.597816 1.386837 -0.110526
0.600668 1.382356 -0.111196
0.604048 1.378750 -0.111589
0.607481 1.375335 -0.111951
0.610324 1.371216 -0.112604
0.612593 1.366442 -0.113536
0.613213 1.359568 -0.115272
0.616526 1.356521 -0.115662
0.618839 1.352257 -0.116537
0.623308 1.351003 -0.116356
0.625849 1.347308 -0.117107
0.628041 1.343295 -0.118018
0.630760 1.340110 -0.118667
0.635411 1.339546 -0.118393
-0.484682 1.633990 -0.177244
-0.480762 1.635817 -0.176101
-0.477578 1.639758 -0.174508
-0.474858 1.645185 -0.172601
-0.469220 1.643373 -0.172334
-0.464376 1.643813 -0.171586
-0.459583 1.644609 -0.170783
-0.455361 1.647162 -0.169607
-0.451610 1.651261 -0.168103
-0.447582 1.654899 -0.166724
-0.442878 1.656938 -0.165730
-0.439215 1.662161 -0.164032
-0.434355 1.664275 -0.163062
-0.429107 1.665495 -0.162318
-0.423718 1.666494 -0.161645
-0.419780 1.672015 -0.159955
-0.415110 1.675620 -0.158722
-0.409339 1.676074 -0.158229
-0.404323 1.679026 -0.157179
-0.399991 1.684354 -0.155596
-0.394463 1.686085 -0.154855
-0.388540 1.686659 -0.154393
-0.382478 1.686854 -0.154032
-0.379602 1.697958 -0.151156
-0.373843 1.699519 -0.150496
-0.368989 1.704360 -0.149082
-0.363934 1.708678 -0.147796
-0.358647 1.712324 -0.146669
-0.353199 1.715512 -0.145652
-0.347439 1.717625 -0.144888
-0.341866 1.720529 -0.143941
-0.336408 1.723979 -0.142867
-0.331367 1.729224 -0.141373
-0.325923 1.732978 -0.140225
-0.320144 1.735434 -0.139378
-0.315115 1.741169 -0.137760
-0.309885 1.746210 -0.136300
-0.304018 1.748547 -0.135469
-0.298733 1.753595 -0.133997
-0.293066 1.757001 -0.132904
-0.288186 1.764298 -0.130889
-0.281988 1.765337 -0.130341
-0.276359 1.769225 -0.129114
-0.270232 1.770630 -0.128466
-0.265393 1.778906 -0.126187
-0.259567 1.782108 -0.125098
-0.253806 1.785753 -0.123897
-0.248088 1.789758 -0.122601
-0.242148 1.792557 -0.121583
-0.236186 1.795296 -0.120570
-0.231240 1.804551 -0.117998
-0.224976 1.805650 -0.117357
-0.219435 1.811616 -0.115547
-0.212980 1.811463 -0.115188
-0.206905 1.813951 -0.114189
-0.201958 1.825006 -0.111130
-0.195661 1.826242 -0.110412
-0.189626 1.829593 -0.109177
-0.183550 1.832767 -0.107975
-0.177342 1.834935 -0.107006
-0.171572 1.841212 -0.105038
-0.165852 1.848441 -0.102828
-0.159592 1.850818 -0.101779
-0.153498 1.855096 -0.100260
-0.147309 1.858658 -0.098905
-0.141536 1.867416 -0.096278
-0.135327 1.871683 -0.094731
-0.128635 1.869960 -0.094632
-0.122467 1.875340 -0.092794
-0.116150 1.879111 -0.091339
-0.109697 1.881159 -0.090295
-0.103354 1.885406 -0.088704
-0.097209 1.894179 -0.085991
-0.090980 1.902817 -0.083298
-0.084376 1.904428 -0.082322
-0.077818 1.907568 -0.080962
-0.071203 1.909784 -0.079820
-0.064603 1.913225 -0.078367
-0.057949 1.915652 -0.077157
-0.051308 1.919929 -0.075478
-0.044638 1.924946 -0.073605
-0.037914 1.929119 -0.071932
-0.031159 1.935303 -0.069747
-0.024346 1.938945 -0.068186
-0.017504 1.941254 -0.066951
-0.010635 1.943939 -0.065612
-0.003726 1.947580 -0.064026
0.003263 1.953469 -0.061863
0.010247 1.956741 -0.060350
0.017283 1.960600 -0.058680
0.024392 1.965503 -0.056735
0.031400 1.966419 -0.055793
0.038531 1.969911 -0.054190
0.045675 1.972882 -0.052710
0.052955 1.977839 -0.050714
0.060176 1.980838 -0.049209
0.067192 1.979957 -0.048691
0.074375 1.981634 -0.047511
0.081953 1.988556 -0.044973
0.089912 1.999540 -0.041376
0.097130 1.999961 -0.040492
0.104481 2.001810 -0.039232
0.112036 2.005643 -0.037451
0.119767 2.010859 -0.035300
0.127213 2.012636 -0.034034
0.134794 2.015467 -0.032487
0.142366 2.017887 -0.031038
0.151147 2.030621 -0.026877
0.158667 2.031642 -0.025774
0.166201 2.032616 -0.024678
0.174001 2.035514 -0.023067
0.181687 2.037268 -0.021749
0.189547 2.040085 -0.020143
0.196935 2.039335 -0.019475
0.203933 2.035919 -0.019512
0.210694 2.031093 -0.019923
0.217096 2.024211 -0.020883
0.223945 2.020423 -0.021016
0.229960 2.011797 -0.022447
0.235281 1.999560 -0.024853
0.241780 1.994574 -0.025313
0.247956 1.988017 -0.026197
0.253771 1.979802 -0.027532
0.259704 1.972550 -0.028609
0.265919 1.967029 -0.029218
0.272024 1.961161 -0.029922
0.278133 1.955525 -0.030564
0.284122 1.949520 -0.031307
0.289775 1.942171 -0.032420
0.295202 1.934060 -0.033745
0.301087 1.928266 -0.034435
0.307042 1.922955 -0.034992
0.312592 1.916086 -0.035980
0.317942 1.908615 -0.037137
0.322343 1.897525 -0.039303
0.327899 1.891406 -0.040090
0.333669 1.886296 -0.040596
0.339511 1.881593 -0.040987
0.344876 1.875215 -0.041847
0.349908 1.867783 -0.043005
0.353745 1.856243 -0.045324
0.359663 1.852432 -0.045464
0.361715 1.835227 -0.049399
0.365902 1.825868 -0.051119
0.371717 1.822235 -0.051213
0.376610 1.815614 -0.052156
0.381427 1.808901 -0.053126
0.385125 1.798771 -0.055078
0.391223 1.796443 -0.054790
0.390624 1.773426 -0.060466
0.395798 1.768632 -0.060894
0.397301 1.752931 -0.064484
0.403270 1.750813 -0.064137
0.399569 1.720634 -0.071967
0.411319 1.735450 -0.066676
0.417821 1.734983 -0.065833
0.424643 1.735346 -0.064735
0.427796 1.725608 -0.066604
0.430907 1.715964 -0.068450
0.435221 1.709721 -0.069291
0.439705 1.704026 -0.069969
0.443523 1.696701 -0.071130
0.447286 1.689369 -0.072294
0.450951 1.681917 -0.073495
