ply
format ascii 1.0
comment ---
element vertex 1671
property float x
property float y
property float z
element face 0
property list uchar uint vertex_indices
end_header
0.494427 1.685175 -0.201514
0.498469 1.682230 -0.201670
0.503373 1.681583 -0.202172
0.509465 1.683952 -0.203119
0.511591 1.676977 -0.202812
0.513501 1.669768 -0.202495
-0.657116 1.513391 -0.123302
-0.652605 1.514229 -0.123280
-0.649044 1.516717 -0.123432
-0.647283 1.522299 -0.123880
-0.646237 1.529245 -0.124478
-0.641537 1.530264 -0.124616
-0.637295 1.532158 -0.124866
-0.630779 1.530289 -0.124838
-0.625337 1.530317 -0.125007
-0.623205 1.536167 -0.125706
-0.619500 1.539446 -0.126227
-0.615070 1.541581 -0.126691
-0.611071 1.544594 -0.127267
-0.602667 1.539804 -0.127215
-0.603338 1.551484 -0.128611
-0.596536 1.549737 -0.128891
-0.590489 1.549414 -0.129328
-0.590263 1.560040 -0.130753
-0.585271 1.561917 -0.131451
-0.581860 1.566899 -0.132456
-0.577639 1.570462 -0.133369
-0.571944 1.571260 -0.134066
-0.567506 1.574585 -0.135017
-0.563600 1.579068 -0.136101
-0.558093 1.580441 -0.136928
-0.553091 1.582890 -0.137875
-0.547303 1.583779 -0.138700
-0.544883 1.591725 -0.140199
-0.539221 1.593006 -0.141098
-0.534657 1.596657 -0.142235
-0.530080 1.600355 -0.143393
-0.524834 1.602662 -0.144431
-0.522285 1.610978 -0.146061
-0.516590 1.612420 -0.147038
-0.511524 1.615294 -0.148163
-0.506167 1.617540 -0.149232
-0.501662 1.621787 -0.150504
-0.498827 1.630042 -0.152185
-0.492584 1.630329 -0.153072
-0.486432 1.630796 -0.153974
-0.482130 1.635763 -0.155335
-0.475907 1.636038 -0.156214
-0.471245 1.640198 -0.157493
-0.468061 1.648186 -0.159171
-0.462862 1.651127 -0.160322
-0.457614 1.653959 -0.161459
-0.450926 1.652983 -0.162184
-0.447912 1.661828 -0.163955
-0.442749 1.664984 -0.165114
-0.437311 1.667403 -0.166187
-0.432247 1.670886 -0.167370
-0.427303 1.674750 -0.168590
-0.423398 1.681676 -0.170143
-0.417568 1.683080 -0.171080
-0.411486 1.683707 -0.171920
-0.406008 1.686122 -0.172952
-0.404057 1.699422 -0.175209
-0.399224 1.704053 -0.176484
-0.394069 1.707740 -0.177644
-0.388948 1.711591 -0.178818
-0.383865 1.715628 -0.180005
-0.377903 1.716790 -0.180852
-0.371569 1.716667 -0.181540
-0.366042 1.719261 -0.182535
-0.361443 1.725151 -0.183910
-0.356996 1.731725 -0.185361
-0.351422 1.734362 -0.186340
-0.346460 1.739306 -0.187587
-0.341544 1.744542 -0.188863
-0.336456 1.749251 -0.190070
-0.331272 1.753697 -0.191240
-0.325075 1.754198 -0.191924
-0.318955 1.754971 -0.192632
-0.315675 1.767547 -0.194774
-0.309489 1.768220 -0.195457
-0.303221 1.768501 -0.196082
-0.297818 1.772569 -0.197166
-0.292812 1.778555 -0.198482
-0.288315 1.787105 -0.200112
-0.282046 1.787585 -0.200732
-0.275642 1.787376 -0.201257
-0.271713 1.799374 -0.203308
-0.265449 1.800032 -0.203929
-0.258983 1.799609 -0.204405
-0.253373 1.803682 -0.205442
-0.248352 1.811130 -0.206903
-0.243200 1.818176 -0.208310
-0.237278 1.821105 -0.209187
-0.231004 1.822051 -0.209802
-0.224971 1.824469 -0.210600
-0.219116 1.828089 -0.211546
-0.214370 1.839055 -0.213438
-0.208353 1.842168 -0.214310
-0.202267 1.844940 -0.215132
-0.196407 1.849460 -0.216176
-0.190483 1.853758 -0.217185
-0.184767 1.859895 -0.218432
-0.178179 1.859528 -0.218819
-0.172486 1.866440 -0.220157
-0.166570 1.871938 -0.221306
-0.160312 1.874785 -0.222099
-0.154245 1.879604 -0.223148
-0.148021 1.883270 -0.224039
-0.141703 1.886281 -0.224838
-0.135416 1.889857 -0.225706
-0.129101 1.893450 -0.226571
-0.122865 1.898305 -0.227600
-0.116613 1.903474 -0.228666
-0.110286 1.908217 -0.229671
-0.103857 1.912100 -0.230554
-0.097333 1.915035 -0.231304
-0.090853 1.919065 -0.232196
-0.084397 1.924117 -0.233222
-0.077807 1.927462 -0.234010
-0.071179 1.930592 -0.234764
-0.064614 1.935813 -0.235796
-0.057966 1.940092 -0.236695
-0.051201 1.942009 -0.237265
-0.044369 1.942203 -0.237593
-0.037567 1.943698 -0.238092
-0.030820 1.948524 -0.239041
-0.024024 1.953109 -0.239950
-0.017183 1.957406 -0.240814
-0.010306 1.962401 -0.241768
-0.003382 1.966857 -0.242641
0.003586 1.971679 -0.243559
0.010600 1.976645 -0.244489
0.017626 1.978606 -0.244998
0.024692 1.981823 -0.245673
0.031795 1.985232 -0.246367
0.038964 1.989842 -0.247220
0.046136 1.993078 -0.247875
0.053369 1.997075 -0.248628
0.060600 2.000004 -0.249225
0.067877 2.003264 -0.249859
0.075221 2.007178 -0.250577
0.082707 2.012953 -0.251546
0.089996 2.014333 -0.251893
0.097334 2.016196 -0.252298
0.104902 2.021115 -0.253122
0.112309 2.023057 -0.253521
0.119788 2.025621 -0.253997
0.127369 2.029028 -0.254581
0.135124 2.033995 -0.255375
0.142861 2.038155 -0.256046
0.150441 2.040171 -0.256406
0.158008 2.041760 -0.256697
0.165863 2.045858 -0.257329
0.173476 2.047292 -0.257577
0.181037 2.048056 -0.257721
0.188506 2.047889 -0.257723
0.196248 2.049836 -0.258011
0.203745 2.049633 -0.257987
0.210947 2.047137 -0.257630
0.217528 2.040203 -0.256640
0.224560 2.036786 -0.256133
0.231743 2.034521 -0.255776
0.237549 2.023250 -0.254146
0.244317 2.018694 -0.253447
0.250382 2.009959 -0.252153
0.256638 2.002784 -0.251068
0.263043 1.996782 -0.250137
0.269033 1.988657 -0.248901
0.275483 1.983415 -0.248059
0.281558 1.976340 -0.246952
0.287650 1.969625 -0.245887
0.293741 1.963149 -0.244849
0.299620 1.955845 -0.243687
0.305660 1.949590 -0.242666
0.311751 1.943794 -0.241702
0.317716 1.937595 -0.240677
0.323190 1.929369 -0.239365
0.329094 1.923345 -0.238355
0.335033 1.917667 -0.237390
0.340777 1.911335 -0.236333
0.345854 1.902430 -0.234917
0.352012 1.898245 -0.234155
0.357796 1.892686 -0.233203
0.362500 1.883062 -0.231690
0.367305 1.874159 -0.230281
0.372147 1.865705 -0.228939
0.376884 1.857152 -0.227590
0.381248 1.847536 -0.226101
0.387181 1.843863 -0.225440
0.391455 1.834490 -0.224004
0.396237 1.827203 -0.222866
0.401739 1.822618 -0.222113
0.406092 1.814374 -0.220871
0.410965 1.808137 -0.219921
0.415691 1.801666 -0.218957
0.418259 1.788590 -0.217106
0.422781 1.782084 -0.216176
0.427397 1.776133 -0.215345
0.432559 1.772084 -0.214798
0.437320 1.767035 -0.214138
0.441136 1.759435 -0.213155
0.444546 1.750964 -0.212079
0.448753 1.745110 -0.211390
0.453666 1.741520 -0.211041
0.459776 1.741477 -0.211211
0.466065 1.742047 -0.211497
0.468107 1.731188 -0.210241
0.469616 1.719303 -0.208872
0.473013 1.712844 -0.208283
0.477303 1.709016 -0.208089
0.481848 1.706078 -0.208052
0.485900 1.702089 -0.207901
0.489407 1.696956 -0.207623
0.492328 1.690616 -0.207206
0.494199 1.681959 -0.206493
0.497532 1.677213 -0.206357
0.502426 1.676493 -0.206818
0.507502 1.676370 -0.207396
0.509202 1.668375 -0.206886
0.512731 1.664982 -0.207055
-0.660340 1.515459 -0.128249
-0.654742 1.514613 -0.128105
-0.650657 1.516308 -0.128221
-0.647138 1.519046 -0.128465
-0.644078 1.522677 -0.128826
-0.641388 1.527069 -0.129292
-0.638300 1.530949 -0.129751
-0.633353 1.531818 -0.129982
-0.627924 1.531956 -0.130186
-0.624186 1.535103 -0.130697
-0.620870 1.539119 -0.131325
-0.616436 1.541315 -0.131829
-0.612019 1.543654 -0.132384
-0.608399 1.547538 -0.133117
-0.604357 1.550796 -0.133832
-0.598828 1.551456 -0.134347
-0.595253 1.555801 -0.135234
-0.589868 1.556904 -0.135859
-0.586882 1.562606 -0.136941
-0.583055 1.566868 -0.137925
-0.578771 1.570374 -0.138870
-0.573808 1.572667 -0.139731
-0.567621 1.572624 -0.140398
-0.563367 1.576451 -0.141456
-0.559919 1.582006 -0.142706
-0.555424 1.585561 -0.143789
-0.550467 1.588254 -0.144808
-0.542739 1.585234 -0.145285
-0.540506 1.593721 -0.146910
-0.535585 1.596667 -0.148005
-0.531403 1.601261 -0.149279
-0.527019 1.605506 -0.150532
-0.522164 1.608788 -0.151699
-0.518625 1.615071 -0.153183
-0.508977 1.607631 -0.153262
-0.502682 1.607663 -0.154109
-0.500766 1.617834 -0.156017
-0.497751 1.625636 -0.157690
-0.492069 1.627236 -0.158713
-0.487918 1.632527 -0.160129
-0.482271 1.634246 -0.161165
-0.476841 1.636495 -0.162255
-0.471013 1.637750 -0.163234
-0.467555 1.645020 -0.164868
-0.463647 1.651270 -0.166393
-0.458786 1.655135 -0.167652
-0.452549 1.655397 -0.168506
-0.448822 1.662362 -0.170105
-0.443774 1.665857 -0.171312
-0.438570 1.668955 -0.172468
-0.433006 1.671065 -0.173505
-0.427680 1.673854 -0.174613
-0.422581 1.677317 -0.175792
-0.418630 1.684194 -0.177361
-0.413945 1.689024 -0.178689
-0.409319 1.694118 -0.180043
-0.403524 1.695704 -0.180977
-0.399776 1.703679 -0.182662
-0.394880 1.708191 -0.183931
-0.389697 1.711860 -0.185092
-0.384357 1.715066 -0.186191
-0.378643 1.717068 -0.187137
-0.372523 1.717689 -0.187906
-0.367985 1.723734 -0.189327
-0.362350 1.726065 -0.190288
-0.356906 1.729099 -0.191327
-0.351793 1.733384 -0.192513
-0.346431 1.736835 -0.193590
-0.341475 1.741886 -0.194858
-0.336017 1.745130 -0.195896
-0.331056 1.750387 -0.197179
-0.326206 1.756227 -0.198530
-0.321053 1.761004 -0.199742
-0.315813 1.765549 -0.200920
-0.310221 1.768723 -0.201916
-0.303721 1.768034 -0.202411
-0.298132 1.771291 -0.203402
-0.293296 1.778031 -0.204837
-0.288851 1.786817 -0.206532
-0.282740 1.788065 -0.207247
-0.276674 1.789531 -0.207982
-0.272742 1.801570 -0.210091
-0.266596 1.802912 -0.210798
-0.260146 1.802675 -0.211291
-0.253790 1.802873 -0.211832
-0.249006 1.811611 -0.213494
-0.243761 1.818176 -0.214865
-0.237888 1.821418 -0.215792
-0.231800 1.823508 -0.216559
-0.225619 1.825097 -0.217253
-0.219331 1.826055 -0.217855
-0.214365 1.835559 -0.219598
-0.208647 1.840590 -0.220737
-0.202512 1.843017 -0.221520
-0.196426 1.845898 -0.222358
-0.190490 1.850033 -0.223361
-0.184177 1.851529 -0.224001
-0.178915 1.861381 -0.225772
-0.173072 1.867170 -0.226987
-0.166868 1.870285 -0.227832
-0.160770 1.874540 -0.228828
-0.154713 1.879488 -0.229915
-0.148450 1.882838 -0.230777
-0.142090 1.885463 -0.231533
-0.135775 1.888771 -0.232379
-0.129409 1.891799 -0.233180
-0.123100 1.895772 -0.234107
-0.116885 1.901327 -0.235249
-0.110623 1.906889 -0.236388
-0.104186 1.910649 -0.237270
-0.097624 1.913010 -0.237953
-0.091084 1.916018 -0.238719
-0.084653 1.921363 -0.239808
-0.078053 1.924393 -0.240567
-0.071411 1.927082 -0.241272
-0.064812 1.931260 -0.242181
-0.058183 1.935641 -0.243113
-0.051399 1.936619 -0.243559
-0.044614 1.937794 -0.244026
-0.037837 1.939726 -0.244593
-0.031113 1.945107 -0.245643
-0.024309 1.948517 -0.246407
-0.017476 1.952199 -0.247204
-0.010616 1.956900 -0.248140
-0.003713 1.962424 -0.249187
0.003241 1.967665 -0.250188
0.010235 1.971645 -0.251003
0.017297 1.978061 -0.252159
0.024368 1.981336 -0.252860
0.031542 1.987914 -0.254026
0.038647 1.989384 -0.254454
0.045810 1.992191 -0.255065
0.052994 1.994771 -0.255637
0.060279 1.999205 -0.256467
0.067588 2.003142 -0.257218
0.074947 2.007253 -0.257986
0.082305 2.010545 -0.258627
0.089614 2.012373 -0.259050
0.096991 2.014916 -0.259566
0.104612 2.020625 -0.260532
0.112053 2.023015 -0.261009
0.119461 2.024587 -0.261358
0.127264 2.030725 -0.262359
0.134907 2.034243 -0.262972
0.142542 2.037219 -0.263496
0.150162 2.039643 -0.263931
0.157794 2.041859 -0.264325
0.165479 2.044288 -0.264740
0.173387 2.048446 -0.265396
0.180875 2.048484 -0.265444
0.188450 2.049147 -0.265572
0.196123 2.050454 -0.265783
0.203454 2.048896 -0.265567
0.210520 2.045359 -0.265053
0.217520 2.041490 -0.264480
0.224569 2.038114 -0.263968
0.231310 2.032770 -0.263160
0.238025 2.027485 -0.262350
0.244470 2.020708 -0.261313
0.250343 2.010693 -0.259796
0.256450 2.002568 -0.258544
0.262325 1.993445 -0.257138
0.268668 1.987382 -0.256166
0.274842 1.980611 -0.255083
0.281289 1.975576 -0.254242
0.287110 1.967423 -0.252941
0.293217 1.961047 -0.251890
0.299481 1.955677 -0.250977
0.305637 1.949954 -0.250005
0.311700 1.943974 -0.248990
0.317657 1.937694 -0.247926
0.323209 1.929777 -0.246620
0.328961 1.923021 -0.245478
0.335106 1.918200 -0.244610
0.340937 1.912178 -0.243566
0.346311 1.904439 -0.242273
0.351086 1.894515 -0.240666
0.356209 1.886326 -0.239309
0.361331 1.878406 -0.237992
0.366811 1.872130 -0.236912
0.371811 1.864245 -0.235606
0.376168 1.854242 -0.234002
0.381503 1.848141 -0.232961
0.386329 1.840425 -0.231698
0.390650 1.831200 -0.230229
0.396111 1.826227 -0.229375
0.401182 1.820110 -0.228371
0.406096 1.813692 -0.227337
0.409990 1.804164 -0.225876
0.414172 1.795905 -0.224612
0.418457 1.788275 -0.223455
0.422065 1.778818 -0.222059
0.426936 1.773596 -0.221285
0.432437 1.770503 -0.220835
0.435460 1.760177 -0.219382
0.439934 1.754502 -0.218615
0.444279 1.748704 -0.217856
0.448534 1.742909 -0.217125
0.453255 1.738690 -0.216646
0.459730 1.739579 -0.216924
0.466816 1.742241 -0.217486
0.468637 1.730672 -0.216053
0.469973 1.718223 -0.214524
0.473567 1.712192 -0.213940
0.477763 1.708013 -0.213653
0.482223 1.704753 -0.213531
0.485769 1.699379 -0.213136
0.488933 1.693304 -0.212673
0.492507 1.688534 -0.212428
0.494306 1.679631 -0.211615
0.497412 1.674258 -0.211341
0.502656 1.674313 -0.211887
0.506128 1.670273 -0.211867
0.509455 1.666116 -0.211857
0.513300 1.663401 -0.212088
0.517182 1.660968 -0.212387
-0.664518 1.510987 -0.132732
-0.660571 1.512738 -0.132812
-0.657825 1.516540 -0.133119
-0.653932 1.518625 -0.133302
-0.649449 1.519861 -0.133443
-0.645375 1.521880 -0.133694
-0.641815 1.524875 -0.134074
-0.637859 1.527339 -0.134443
-0.634068 1.530208 -0.134889
-0.629080 1.531163 -0.135195
-0.625124 1.533993 -0.135715
-0.621245 1.537087 -0.136300
-0.617993 1.541414 -0.137040
-0.613541 1.543763 -0.137632
-0.608892 1.545873 -0.138239
-0.603090 1.546001 -0.138693
-0.599024 1.549361 -0.139491
-0.595587 1.554007 -0.140450
-0.591608 1.557788 -0.141360
-0.587896 1.562194 -0.142366
-0.583437 1.565310 -0.143278
-0.578965 1.568504 -0.144228
-0.573890 1.570623 -0.145099
-0.568897 1.572974 -0.146020
-0.564606 1.576790 -0.147112
-0.560549 1.581177 -0.148286
-0.556373 1.585427 -0.149469
-0.551264 1.587858 -0.150488
-0.545110 1.588168 -0.151303
-0.541015 1.592811 -0.152582
-0.538168 1.600207 -0.154165
-0.530886 1.598206 -0.154776
-0.527109 1.603778 -0.156195
-0.524209 1.611393 -0.157844
-0.517117 1.609799 -0.158518
-0.512579 1.613908 -0.159808
-0.506736 1.615091 -0.160786
-0.502298 1.619521 -0.162122
-0.497487 1.623147 -0.163372
-0.493619 1.629061 -0.164880
-0.488677 1.632489 -0.166114
-0.482792 1.633651 -0.167092
-0.476388 1.633506 -0.167918
-0.473131 1.641195 -0.169630
-0.467531 1.643077 -0.170680
-0.463818 1.649816 -0.172285
-0.460272 1.657116 -0.173957
-0.455547 1.661435 -0.175281
-0.450035 1.663694 -0.176359
-0.444721 1.666495 -0.177495
-0.439441 1.669406 -0.178637
-0.434487 1.673253 -0.179885
-0.429062 1.675804 -0.180971
-0.423744 1.678676 -0.182089
-0.419311 1.684164 -0.183517
-0.415183 1.690665 -0.185064
-0.407184 1.685584 -0.185188
-0.403456 1.693404 -0.186885
-0.398155 1.696496 -0.187994
-0.395298 1.707373 -0.190064
-0.388858 1.706984 -0.190727
-0.384061 1.711903 -0.192046
-0.378902 1.715715 -0.193219
-0.374149 1.720963 -0.194567
-0.368529 1.723340 -0.195544
-0.362923 1.725781 -0.196522
-0.357181 1.727762 -0.197432
-0.351831 1.731172 -0.198517
-0.346909 1.736225 -0.199808
-0.342941 1.744996 -0.201576
-0.336193 1.743363 -0.201987
-0.332389 1.753124 -0.203875
-0.326675 1.755581 -0.204805
-0.321384 1.759799 -0.205959
-0.315926 1.763428 -0.207029
-0.310218 1.766087 -0.207963
-0.304676 1.769515 -0.208994
-0.298699 1.771105 -0.209772
-0.295267 1.784188 -0.212080
-0.289169 1.785499 -0.212810
-0.283187 1.787351 -0.213605
-0.276306 1.784897 -0.213811
-0.272975 1.799802 -0.216357
-0.266885 1.801409 -0.217100
-0.260339 1.800674 -0.217517
-0.254025 1.801079 -0.218081
-0.248733 1.807019 -0.219395
-0.244169 1.817292 -0.221299
-0.238171 1.819823 -0.222137
-0.232700 1.825553 -0.223411
-0.226348 1.826203 -0.223978
-0.220299 1.828722 -0.224797
-0.214700 1.834249 -0.226028
-0.208975 1.839225 -0.227178
-0.202834 1.841612 -0.227962
-0.196673 1.843960 -0.228735
-0.190332 1.845096 -0.229332
-0.184123 1.847255 -0.230066
-0.179032 1.858328 -0.232051
-0.172982 1.862350 -0.233040
-0.167105 1.868106 -0.234269
-0.161180 1.873856 -0.235493
-0.155107 1.878681 -0.236582
-0.148662 1.880302 -0.237211
-0.142463 1.884504 -0.238202
-0.136238 1.888787 -0.239200
-0.129863 1.891780 -0.240008
-0.123468 1.894825 -0.240819
-0.117227 1.900068 -0.241940
-0.110887 1.904598 -0.242954
-0.104481 1.908742 -0.243908
-0.097992 1.912157 -0.244752
-0.091449 1.915169 -0.245532
-0.084701 1.915039 -0.245851
-0.078127 1.918110 -0.246628
-0.071285 1.916173 -0.246671
-0.064882 1.923872 -0.248110
-0.058087 1.923272 -0.248335
-0.051288 1.922335 -0.248503
-0.044741 1.929556 -0.249857
-0.038036 1.933092 -0.250667
-0.031403 1.941711 -0.252216
-0.024615 1.945584 -0.253065
-0.017808 1.950911 -0.254122
-0.010948 1.955576 -0.255075
-0.004042 1.959614 -0.255931
0.002908 1.966263 -0.257166
0.009932 1.974386 -0.258612
0.016976 1.977787 -0.259356
0.024083 1.982962 -0.260355
0.031232 1.987732 -0.261288
0.038366 1.990118 -0.261861
0.045490 1.991353 -0.262255
0.052675 1.993891 -0.262835
0.059893 1.996585 -0.263431
0.067320 2.003337 -0.264622
0.074552 2.004732 -0.265009
0.081850 2.007017 -0.265520
0.089286 2.011223 -0.266309
0.096753 2.015192 -0.267054
0.104300 2.019713 -0.267874
0.111795 2.022841 -0.268477
0.119315 2.025803 -0.269046
0.127034 2.030782 -0.269908
0.134802 2.035707 -0.270753
0.142403 2.038168 -0.271220
0.150028 2.040551 -0.271665
0.157684 2.042923 -0.272099
0.165462 2.046139 -0.272650
0.173110 2.047798 -0.272957
0.180821 2.049776 -0.273302
0.188488 2.051125 -0.273541
0.195912 2.050302 -0.273445
0.203279 2.048992 -0.273265
0.210375 2.045638 -0.272768
0.217491 2.042555 -0.272300
0.224568 2.039311 -0.271798
0.230840 2.030709 -0.270481
0.237688 2.026328 -0.269787
0.244406 2.021289 -0.268984
0.250389 2.011905 -0.267520
0.256660 2.004690 -0.266371
0.262021 1.992470 -0.264462
0.267534 1.981687 -0.262760
0.274045 1.976900 -0.261947
0.280532 1.972142 -0.261128
0.286724 1.965984 -0.260092
0.292795 1.959426 -0.258988
0.299344 1.955482 -0.258266
0.305325 1.948877 -0.257139
0.311224 1.942103 -0.255980
0.317303 1.936392 -0.254973
0.322770 1.928078 -0.253573
0.328550 1.921448 -0.252419
0.334480 1.915676 -0.251388
0.340128 1.908883 -0.250202
0.345305 1.900346 -0.248754
0.350594 1.892547 -0.247415
0.356188 1.886231 -0.246294
0.361003 1.877052 -0.244750
0.366244 1.869822 -0.243496
0.371343 1.862292 -0.242200
0.375946 1.853172 -0.240674
0.381064 1.846233 -0.239475
0.386442 1.840448 -0.238452
0.391129 1.832437 -0.237109
0.395990 1.825295 -0.235904
0.400216 1.816248 -0.234429
0.405439 1.810837 -0.233501
0.409470 1.801718 -0.232042
0.413373 1.792506 -0.230585
0.418328 1.786964 -0.229683
0.423018 1.780810 -0.228711
0.427745 1.775012 -0.227810
0.432700 1.770140 -0.227066
0.437298 1.764416 -0.226221
0.440450 1.754685 -0.224812
0.444965 1.749269 -0.224061
0.447882 1.739527 -0.222702
0.452974 1.736287 -0.222324
0.458731 1.735089 -0.222276
0.464505 1.734084 -0.222287
0.466453 1.722860 -0.220825
0.470326 1.717195 -0.220212
0.473780 1.710693 -0.219507
0.477671 1.705625 -0.219044
0.481928 1.701757 -0.218790
0.485815 1.697179 -0.218464
0.486690 1.685259 -0.217078
0.492453 1.685931 -0.217595
0.492649 1.673015 -0.216117
0.497865 1.672760 -0.216559
0.502147 1.670406 -0.216718
0.505607 1.666285 -0.216643
0.509636 1.663738 -0.216833
0.513264 1.660449 -0.216940
0.515826 1.654898 -0.216731
0.518992 1.650980 -0.216794
-0.670040 1.508701 -0.137420
-0.666114 1.510425 -0.137493
-0.661125 1.510564 -0.137446
-0.658095 1.513947 -0.137752
-0.655734 1.518556 -0.138214
-0.651895 1.520910 -0.138493
-0.645670 1.519456 -0.138437
-0.642654 1.523398 -0.138948
-0.640055 1.528192 -0.139581
-0.634466 1.528094 -0.139773
-0.630932 1.531583 -0.140357
-0.625005 1.531092 -0.140587
-0.623383 1.538152 -0.141602
-0.619528 1.541498 -0.142290
-0.611669 1.537888 -0.142323
-0.607468 1.540813 -0.143042
-0.602415 1.542320 -0.143656
-0.599109 1.547099 -0.144635
-0.596191 1.552743 -0.145738
-0.593080 1.558192 -0.146857
-0.588535 1.561100 -0.147750
-0.584177 1.564464 -0.148721
-0.579470 1.567259 -0.149662
-0.573600 1.567885 -0.150405
-0.569530 1.572079 -0.151544
-0.565282 1.576028 -0.152683
-0.560776 1.579558 -0.153800
-0.556079 1.582784 -0.154906
-0.551304 1.585922 -0.156020
-0.543750 1.583357 -0.156534
-0.541162 1.591154 -0.158184
-0.537165 1.596122 -0.159544
-0.531258 1.597079 -0.160474
-0.525769 1.598945 -0.161512
-0.523984 1.608989 -0.163472
-0.518459 1.610903 -0.164532
-0.513272 1.613591 -0.165684
-0.508042 1.616204 -0.166831
-0.502589 1.618325 -0.167924
-0.497695 1.621766 -0.169169
-0.494157 1.628467 -0.170794
-0.489286 1.632081 -0.172063
-0.484025 1.634786 -0.173225
-0.477326 1.633952 -0.173964
-0.473559 1.640382 -0.175561
-0.468891 1.644638 -0.176898
-0.465081 1.651160 -0.178507
-0.460768 1.656487 -0.179970
-0.455397 1.659101 -0.181100
-0.450900 1.664070 -0.182513
-0.445386 1.666345 -0.183591
-0.440317 1.669851 -0.184813
-0.436125 1.675853 -0.186341
-0.430633 1.678266 -0.187416
-0.424743 1.679535 -0.188339
-0.419217 1.681842 -0.189384
-0.414415 1.686306 -0.190695
-0.409313 1.689937 -0.191894
-0.404092 1.693249 -0.193045
-0.401400 1.704481 -0.195209
-0.395181 1.704838 -0.195968
-0.389804 1.707847 -0.197060
-0.384770 1.712013 -0.198296
-0.379974 1.717045 -0.199639
-0.374678 1.720488 -0.200767
-0.368972 1.722574 -0.201709
-0.363020 1.723808 -0.202529
-0.357798 1.727620 -0.203683
-0.353369 1.734382 -0.205225
-0.346870 1.733679 -0.205761
-0.342021 1.739098 -0.207111
-0.337629 1.746403 -0.208711
-0.332382 1.750590 -0.209884
-0.327260 1.755376 -0.211134
-0.321642 1.758275 -0.212120
-0.315825 1.760401 -0.212993
-0.310027 1.762639 -0.213874
-0.305136 1.768823 -0.215292
-0.299295 1.771024 -0.216155
-0.292945 1.770968 -0.216697
-0.289918 1.786141 -0.219349
-0.283763 1.787222 -0.220038
-0.277942 1.789905 -0.220944
-0.272244 1.793260 -0.221938
-0.266754 1.797770 -0.223088
-0.260368 1.797812 -0.223603
-0.256483 1.811057 -0.225977
-0.250115 1.811426 -0.226527
-0.244141 1.813958 -0.227377
-0.238415 1.817992 -0.228435
-0.232492 1.821032 -0.229346
-0.226874 1.826040 -0.230533
-0.220725 1.827978 -0.231275
-0.215380 1.835142 -0.232763
-0.209342 1.838109 -0.233643
-0.203385 1.841763 -0.234617
-0.197211 1.844068 -0.235391
-0.190845 1.845070 -0.235970
-0.185924 1.857044 -0.238137
-0.179439 1.857555 -0.238635
-0.173210 1.860135 -0.239428
-0.167477 1.867075 -0.240854
-0.161674 1.873904 -0.242260
-0.155502 1.877883 -0.243245
-0.149330 1.882155 -0.244269
-0.143026 1.885442 -0.245142
-0.136742 1.889215 -0.246083
-0.130358 1.892212 -0.246904
-0.123962 1.895351 -0.247741
-0.117653 1.899855 -0.248775
-0.111331 1.904703 -0.249857
-0.104890 1.908452 -0.250770
-0.098360 1.911335 -0.251549
-0.091629 1.911364 -0.251896
-0.084262 1.900331 -0.250581
-0.078001 1.908152 -0.252080
-0.071884 1.920419 -0.254244
-0.065290 1.924306 -0.255147
-0.058687 1.928854 -0.256143
-0.051855 1.927945 -0.256313
-0.045309 1.936258 -0.257867
-0.038547 1.939029 -0.258580
-0.031769 1.942213 -0.259349
-0.024998 1.947674 -0.260458
-0.018204 1.955480 -0.261917
-0.011309 1.959115 -0.262739
-0.004385 1.965087 -0.263909
0.002596 1.971773 -0.265184
0.009613 1.974599 -0.265864
0.016662 1.977705 -0.266581
0.023764 1.982286 -0.267516
0.030903 1.986438 -0.268379
0.038044 1.989075 -0.269004
0.045202 1.991399 -0.269574
0.052386 1.993718 -0.270135
0.059668 1.997895 -0.270974
0.066995 2.002134 -0.271815
0.074274 2.004475 -0.272358
0.081572 2.006677 -0.272870
0.088991 2.010511 -0.273626
0.096466 2.014583 -0.274410
0.104010 2.019023 -0.275243
0.111544 2.022657 -0.275943
0.119170 2.026955 -0.276737
0.127039 2.033668 -0.277895
0.134510 2.034898 -0.278198
0.142120 2.037460 -0.278698
0.149854 2.040966 -0.279333
0.157481 2.042974 -0.279728
0.165227 2.045835 -0.280245
0.172975 2.048379 -0.280702
0.180533 2.048949 -0.280845
0.188260 2.050787 -0.281172
0.195727 2.050286 -0.281128
0.203259 2.050230 -0.281142
0.210539 2.048171 -0.280835
0.217434 2.043366 -0.280093
0.224278 2.038418 -0.279317
0.230848 2.031830 -0.278277
0.237266 2.024551 -0.277120
0.243862 2.018754 -0.276182
0.250290 2.012160 -0.275110
0.256128 2.002302 -0.273523
0.260639 1.985146 -0.270798
0.266504 1.976531 -0.269385
0.272888 1.971147 -0.268462
0.279331 1.966270 -0.267609
0.285228 1.958681 -0.266327
0.291904 1.955366 -0.265697
0.298415 1.951300 -0.264942
0.304149 1.943557 -0.263613
0.310509 1.939062 -0.262777
0.316536 1.933142 -0.261715
0.322426 1.926786 -0.260579
0.328179 1.920023 -0.259376
0.333704 1.912481 -0.258047
0.339711 1.907238 -0.257068
0.345076 1.899470 -0.255698
0.350760 1.893257 -0.254564
0.355876 1.884965 -0.253110
0.360500 1.875008 -0.251402
0.365985 1.868701 -0.250252
0.370998 1.860807 -0.248862
0.375573 1.851549 -0.247266
0.381028 1.845801 -0.246211
0.385702 1.837445 -0.244763
0.391015 1.831605 -0.243706
0.395788 1.824100 -0.242403
0.400256 1.815818 -0.240991
0.404847 1.808226 -0.239696
0.409412 1.800815 -0.238442
0.413240 1.791293 -0.236881
0.418207 1.785715 -0.235934
0.423279 1.780678 -0.235087
0.428230 1.775471 -0.234233
0.432468 1.768322 -0.233104
0.435810 1.758776 -0.231635
0.440077 1.752302 -0.230654
0.444077 1.745320 -0.229620
0.448327 1.739334 -0.228763
0.453159 1.735253 -0.228222
0.458076 1.731619 -0.227777
0.462412 1.726601 -0.227151
0.465792 1.719243 -0.226200
0.470163 1.714841 -0.225728
0.473996 1.709258 -0.225108
0.476309 1.699986 -0.223956
0.481128 1.697524 -0.223874
0.483229 1.688343 -0.222797
0.486953 1.683596 -0.222429
0.490294 1.678149 -0.221984
0.493228 1.671969 -0.221457
0.497665 1.669725 -0.221566
0.501961 1.667335 -0.221685
0.505596 1.663569 -0.221621
0.509314 1.660224 -0.221652
0.512900 1.656784 -0.221697
0.515577 1.651455 -0.221473
0.518756 1.647520 -0.221494
-0.671155 1.507351 -0.142108
-0.666755 1.508371 -0.142138
-0.662831 1.510255 -0.142292
-0.658751 1.512005 -0.142469
-0.656015 1.516046 -0.142917
-0.651929 1.518040 -0.143193
-0.646884 1.518575 -0.143358
-0.642079 1.519605 -0.143611
-0.642884 1.530122 -0.144879
-0.637743 1.530871 -0.145182
-0.631158 1.529257 -0.145279
-0.627488 1.532701 -0.145938
-0.625115 1.538532 -0.146884
-0.616432 1.533501 -0.146737
-0.612809 1.537384 -0.147556
-0.607599 1.538574 -0.148130
-0.603225 1.541355 -0.148906
-0.599860 1.546082 -0.149923
-0.597756 1.553275 -0.151238
-0.594055 1.557693 -0.152294
-0.589108 1.559910 -0.153145
-0.584165 1.562212 -0.154035
-0.579858 1.565816 -0.155093
-0.574562 1.567604 -0.155980
-0.567874 1.566721 -0.156595
-0.565277 1.573934 -0.158124
-0.561352 1.578657 -0.159402
-0.556040 1.580678 -0.160399
-0.549709 1.580653 -0.161180
-0.546062 1.586181 -0.162603
-0.542472 1.591946 -0.164069
-0.538156 1.596285 -0.165387
-0.532902 1.598691 -0.166494
-0.529912 1.606047 -0.168184
-0.528287 1.616553 -0.170256
-0.519629 1.611616 -0.170526
-0.513114 1.611349 -0.171342
-0.508756 1.615959 -0.172737
-0.502906 1.617186 -0.173731
-0.497465 1.619355 -0.174837
-0.493339 1.624648 -0.176320
-0.489014 1.629547 -0.177758
-0.484136 1.633174 -0.179039
-0.480112 1.638944 -0.180584
-0.473641 1.638692 -0.181381
-0.468203 1.640989 -0.182487
-0.463664 1.645597 -0.183879
-0.459621 1.651565 -0.185439
-0.454498 1.654778 -0.186648
-0.449479 1.658298 -0.187890
-0.445762 1.665393 -0.189585
-0.441379 1.670789 -0.191060
-0.436851 1.675868 -0.192491
-0.431599 1.678978 -0.193660
-0.425137 1.678624 -0.194369
-0.419976 1.681999 -0.195556
-0.414851 1.685518 -0.196756
-0.410768 1.692219 -0.198370
-0.405783 1.696299 -0.199633
-0.400563 1.699712 -0.200799
-0.396374 1.706427 -0.202402
-0.390757 1.708705 -0.203403
-0.385605 1.712508 -0.204601
-0.380655 1.717045 -0.205893
-0.374506 1.717621 -0.206638
-0.369776 1.723028 -0.208035
-0.363703 1.723863 -0.208797
-0.357921 1.725695 -0.209688
-0.353309 1.731767 -0.211158
-0.348179 1.736088 -0.212380
-0.342668 1.739074 -0.213409
-0.337661 1.744035 -0.214708
-0.332300 1.747749 -0.215827
-0.326413 1.749450 -0.216655
-0.321548 1.755303 -0.218062
-0.317084 1.762985 -0.219725
-0.310605 1.762426 -0.220212
-0.305645 1.768321 -0.221611
-0.299668 1.769934 -0.222393
-0.293898 1.772489 -0.223303
-0.288664 1.777559 -0.224567
-0.284498 1.787819 -0.226577
-0.278926 1.791732 -0.227667
-0.273300 1.795514 -0.228733
-0.266555 1.793782 -0.228991
-0.260729 1.796644 -0.229910
-0.255411 1.802288 -0.231230
-0.250372 1.809679 -0.232802
-0.244460 1.812544 -0.233707
-0.238060 1.812715 -0.234209
-0.231640 1.812719 -0.234679
-0.226436 1.820033 -0.236223
-0.220990 1.826207 -0.237596
-0.215956 1.835345 -0.239407
-0.209909 1.838295 -0.240294
-0.204040 1.842599 -0.241378
-0.197971 1.845719 -0.242280
-0.191933 1.849228 -0.243236
-0.186397 1.856722 -0.244786
-0.180189 1.859452 -0.245616
-0.173806 1.860907 -0.246248
-0.168430 1.870939 -0.248171
-0.162069 1.873068 -0.248897
-0.156146 1.879350 -0.250247
-0.149881 1.882865 -0.251173
-0.143499 1.885468 -0.251956
-0.137029 1.887360 -0.252625
-0.130672 1.890633 -0.253499
-0.124415 1.895390 -0.254596
-0.118264 1.901930 -0.255962
-0.111741 1.904345 -0.256692
-0.105256 1.907560 -0.257539
-0.098673 1.909693 -0.258215
-0.091915 1.909308 -0.258497
-0.084573 1.898713 -0.257195
-0.078874 1.917057 -0.260358
-0.072368 1.922271 -0.261489
-0.066057 1.932931 -0.263460
-0.059458 1.938758 -0.264679
-0.052597 1.938559 -0.264956
-0.046033 1.948094 -0.266743
-0.039218 1.951181 -0.267520
-0.032317 1.951533 -0.267866
-0.025488 1.956416 -0.268912
-0.018583 1.958713 -0.269549
-0.011678 1.963922 -0.270636
-0.004725 1.969476 -0.271772
0.002276 1.973066 -0.272594
0.009296 1.974377 -0.273052
0.016342 1.976808 -0.273679
0.023452 1.981702 -0.274687
0.030581 1.985219 -0.275472
0.037731 1.988212 -0.276168
0.044921 1.991500 -0.276903
0.052134 1.994487 -0.277584
0.059460 1.999533 -0.278584
0.066765 2.002959 -0.279320
0.074078 2.005803 -0.279956
0.081391 2.008056 -0.280491
0.088750 2.010636 -0.281070
0.096210 2.014381 -0.281826
0.103681 2.017668 -0.282501
0.111242 2.021676 -0.283282
0.119071 2.028626 -0.284523
0.126605 2.031037 -0.285034
0.134123 2.032912 -0.285450
0.141640 2.034479 -0.285808
0.149443 2.038805 -0.286597
0.157195 2.042116 -0.287214
0.165149 2.046960 -0.288066
0.172755 2.048105 -0.288319
0.180346 2.048928 -0.288509
0.187842 2.048780 -0.288536
0.195571 2.050437 -0.288839
0.203190 2.051014 -0.288960
0.210437 2.048643 -0.288600
0.217149 2.042452 -0.287619
0.224042 2.037837 -0.286880
0.230758 2.032224 -0.285970
0.237099 2.024389 -0.284695
0.243554 2.017660 -0.283586
0.249826 2.010101 -0.282335
0.255921 2.001810 -0.280957
0.261281 1.989596 -0.278944
0.266271 1.975850 -0.276677
0.272800 1.971254 -0.275859
0.278446 1.962053 -0.274299
0.284445 1.955077 -0.273084
0.291088 1.951649 -0.272426
0.297315 1.946223 -0.271441
0.303482 1.940677 -0.270429
0.309455 1.934372 -0.269288
0.315458 1.928414 -0.268196
0.321832 1.924330 -0.267394
0.327738 1.918259 -0.266271
0.333562 1.912020 -0.265116
0.339388 1.905973 -0.263987
0.345290 1.900429 -0.262933
0.350198 1.890980 -0.261258
0.355232 1.882356 -0.259712
0.360779 1.876020 -0.258527
0.365679 1.867392 -0.256980
0.370792 1.859848 -0.255605
0.375768 1.852032 -0.254189
0.380990 1.845365 -0.252958
0.386133 1.838628 -0.251720
0.390115 1.828032 -0.249881
0.395330 1.822042 -0.248773
0.399823 1.813804 -0.247322
0.404488 1.806417 -0.246014
0.409678 1.801000 -0.245026
0.413045 1.789906 -0.243162
0.417782 1.783534 -0.242053
0.423180 1.779454 -0.241318
0.427069 1.770911 -0.239902
0.431344 1.763847 -0.238738
0.435497 1.756688 -0.237579
0.438828 1.747392 -0.236109
0.443440 1.742147 -0.235295
0.448429 1.738210 -0.234711
0.453059 1.733465 -0.234026
0.457439 1.728254 -0.233296
0.461534 1.722509 -0.232511
0.464826 1.714860 -0.231457
0.470876 1.714880 -0.231634
0.473598 1.706264 -0.230488
0.476660 1.698871 -0.229565
0.479149 1.690324 -0.228490
0.483581 1.687047 -0.228276
0.488161 1.684358 -0.228186
0.490767 1.676978 -0.227387
0.495167 1.674310 -0.227364
0.498230 1.668601 -0.226891
0.501040 1.662554 -0.226393
0.506022 1.661947 -0.226791
0.510973 1.661428 -0.227235
0.512935 1.654102 -0.226619
0.515573 1.648629 -0.226325
0.518583 1.644254 -0.226234
0.522415 1.641970 -0.226507
-0.677012 1.505588 -0.146868
-0.674684 1.509797 -0.147231
-0.666779 1.505374 -0.146705
-0.662414 1.506591 -0.146819
-0.660204 1.511367 -0.147349
-0.655990 1.513075 -0.147589
-0.652354 1.515839 -0.147979
-0.648626 1.518587 -0.148407
-0.645407 1.522309 -0.148977
-0.637655 1.518618 -0.148789
-0.636396 1.525874 -0.149819
-0.633285 1.530194 -0.150572
-0.628273 1.531413 -0.151029
-0.624811 1.535411 -0.151826
-0.614069 1.526845 -0.151291
-0.617258 1.542739 -0.153463
-0.609624 1.539740 -0.153606
-0.605561 1.543160 -0.154487
-0.601581 1.546852 -0.155434
-0.597067 1.549689 -0.156319
-0.595564 1.558209 -0.157872
-0.589930 1.559208 -0.158615
-0.584565 1.560770 -0.159448
-0.579992 1.563908 -0.160485
-0.574975 1.566274 -0.161459
-0.569282 1.567387 -0.162312
-0.566816 1.574914 -0.163925
-0.561362 1.576639 -0.164889
-0.556857 1.580320 -0.166097
-0.550737 1.580776 -0.166943
-0.545743 1.583559 -0.168074
-0.543235 1.591594 -0.169844
-0.534571 1.586758 -0.170087
-0.535627 1.602614 -0.172826
-0.530620 1.605671 -0.174036
-0.522219 1.601310 -0.174346
-0.517873 1.605817 -0.175739
-0.514629 1.612878 -0.177455
-0.509049 1.614746 -0.178532
-0.503376 1.616395 -0.179581
-0.500068 1.623567 -0.181323
-0.494467 1.625441 -0.182399
-0.488654 1.626797 -0.183406
-0.484855 1.633030 -0.185032
-0.480236 1.637347 -0.186413
-0.475280 1.640879 -0.187691
-0.470184 1.644090 -0.188922
-0.464524 1.645877 -0.189963
-0.458985 1.647966 -0.191036
-0.454064 1.651678 -0.192317
-0.450043 1.657836 -0.193917
-0.446124 1.664381 -0.195566
-0.441880 1.670154 -0.197109
-0.436908 1.673994 -0.198389
-0.432417 1.679245 -0.199854
-0.426320 1.679964 -0.200697
-0.420347 1.681001 -0.201574
-0.415641 1.685755 -0.202951
-0.411088 1.691052 -0.204397
-0.406173 1.695337 -0.205698
-0.401674 1.700985 -0.207182
-0.396380 1.704240 -0.208327
-0.391336 1.708332 -0.209583
-0.385513 1.709955 -0.210485
-0.379220 1.710007 -0.211156
-0.375223 1.717738 -0.212903
-0.370072 1.721708 -0.214114
-0.365023 1.726109 -0.215379
-0.359276 1.728126 -0.216298
-0.353162 1.728823 -0.217019
-0.349293 1.737739 -0.218913
-0.344529 1.743572 -0.220361
-0.338535 1.744865 -0.221147
-0.332361 1.745446 -0.221820
-0.326638 1.747775 -0.222740
-0.321007 1.750509 -0.223711
-0.317879 1.763618 -0.226197
-0.311552 1.763738 -0.226775
-0.305410 1.764594 -0.227452
-0.300614 1.771337 -0.228992
-0.295234 1.775697 -0.230175
-0.289129 1.776866 -0.230878
-0.284159 1.783351 -0.232367
-0.279107 1.789678 -0.233829
-0.273332 1.792707 -0.234793
-0.267197 1.794010 -0.235492
-0.261346 1.796783 -0.236405
-0.255568 1.800025 -0.237383
-0.250198 1.805588 -0.238708
-0.244446 1.809265 -0.239742
-0.237959 1.808890 -0.240156
-0.231761 1.810135 -0.240808
-0.226851 1.819175 -0.242646
-0.220992 1.822791 -0.243651
-0.216060 1.832499 -0.245587
-0.210357 1.837679 -0.246825
-0.204517 1.842198 -0.247958
-0.198809 1.847897 -0.249269
-0.192808 1.851796 -0.250299
-0.187055 1.857778 -0.251647
-0.180692 1.859389 -0.252313
-0.173972 1.858178 -0.252534
-0.168870 1.870444 -0.254849
-0.162791 1.875090 -0.255974
-0.156324 1.876535 -0.256595
-0.150154 1.880895 -0.257667
-0.143745 1.883217 -0.258415
-0.137352 1.885878 -0.259211
-0.131017 1.889405 -0.260138
-0.124624 1.892585 -0.261006
-0.118532 1.899766 -0.262502
-0.112153 1.904029 -0.263533
-0.105554 1.905734 -0.264155
-0.099056 1.909124 -0.265038
-0.092253 1.908103 -0.265216
-0.084816 1.895973 -0.263618
-0.079171 1.915139 -0.266998
-0.072811 1.923285 -0.268621
-0.066557 1.935460 -0.270885
-0.060064 1.944409 -0.272631
-0.053497 1.953556 -0.274406
-0.046497 1.951225 -0.274337
-0.039386 1.943722 -0.273429
-0.032571 1.946858 -0.274222
-0.025784 1.953374 -0.275555
-0.018904 1.957164 -0.276444
-0.012022 1.965505 -0.278062
-0.005055 1.970960 -0.279210
0.001957 1.973461 -0.279874
0.008982 1.974146 -0.280239
0.016040 1.977132 -0.280969
0.023130 1.980297 -0.281722
0.030288 1.985203 -0.282752
0.037453 1.988511 -0.283515
0.044635 1.991266 -0.284182
0.051893 1.995393 -0.285066
0.059208 1.999923 -0.286008
0.066530 2.003555 -0.286797
0.073858 2.006512 -0.287469
0.081161 2.008389 -0.287957
0.088525 2.010942 -0.288548
0.095997 2.014754 -0.289337
0.103503 2.018439 -0.290097
0.110940 2.020607 -0.290600
0.118586 2.025148 -0.291484
0.126150 2.028061 -0.292093
0.133646 2.029764 -0.292495
0.141465 2.034784 -0.293432
0.149180 2.038113 -0.294082
0.156951 2.041589 -0.294748
0.164789 2.045310 -0.295444
0.172637 2.048690 -0.296075
0.180136 2.048635 -0.296132
0.187623 2.048377 -0.296145
0.195520 2.051376 -0.296684
0.203039 2.051095 -0.296673
0.210035 2.046788 -0.295989
0.216993 2.042406 -0.295282
0.223815 2.037257 -0.294439
0.230587 2.032006 -0.293568
0.236843 2.023580 -0.292165
0.243282 2.016742 -0.291012
0.250019 2.012057 -0.290204
0.256183 2.004091 -0.288845
0.262194 1.995582 -0.287388
0.269302 1.993684 -0.287006
0.277435 1.997454 -0.287546
0.280904 1.975798 -0.283901
0.285763 1.962452 -0.281612
0.291999 1.956729 -0.280566
0.297738 1.948710 -0.279135
0.303527 1.941229 -0.277783
0.307445 1.925099 -0.275008
0.314095 1.922327 -0.274414
0.321460 1.922847 -0.274351
0.327604 1.917835 -0.273376
0.333135 1.910289 -0.271981
0.339129 1.904957 -0.270942
0.344417 1.896830 -0.269442
0.349377 1.887627 -0.267764
0.355003 1.881391 -0.266567
0.360677 1.875531 -0.265429
0.366218 1.869325 -0.264234
0.371122 1.860901 -0.262678
0.375354 1.850257 -0.260764
0.381414 1.846609 -0.259987
0.386020 1.837870 -0.258388
0.389633 1.825935 -0.256277
0.394898 1.820083 -0.255158
0.399424 1.811922 -0.253672
0.404608 1.806220 -0.252593
0.407656 1.793719 -0.250427
0.412708 1.788086 -0.249382
0.417489 1.781800 -0.248245
0.422463 1.776339 -0.247256
0.428203 1.773432 -0.246695
0.430620 1.760621 -0.244557
0.435368 1.755186 -0.243626
0.439699 1.748748 -0.242555
0.443097 1.739874 -0.241115
0.448971 1.738384 -0.240888
0.452922 1.731622 -0.239837
0.456766 1.724846 -0.238810
0.461201 1.719968 -0.238116
0.465298 1.714418 -0.237343
0.468957 1.707960 -0.236453
0.472053 1.700309 -0.235400
0.477206 1.698315 -0.235291
0.481470 1.694226 -0.234875
0.484965 1.688418 -0.234213
0.487488 1.680453 -0.233231
0.492085 1.677949 -0.233167
0.495570 1.672923 -0.232724
0.498862 1.667689 -0.232279
0.501213 1.660458 -0.231536
0.504712 1.656253 -0.231317
0.513053 1.663654 -0.233037
0.512515 1.650414 -0.231391
0.513524 1.641143 -0.230421
0.518347 1.640895 -0.230970
0.522533 1.639361 -0.231334
-0.681825 1.509955 -0.152230
-0.676349 1.509338 -0.152094
-0.671283 1.509447 -0.152075
-0.665970 1.509256 -0.152058
-0.659208 1.506840 -0.151830
-0.655412 1.509247 -0.152177
-0.653238 1.514414 -0.152872
-0.650492 1.518821 -0.153520
-0.643471 1.516336 -0.153435
-0.640756 1.521057 -0.154197
-0.636814 1.523887 -0.154785
-0.632300 1.525876 -0.155318
-0.630659 1.532892 -0.156459
-0.625841 1.534630 -0.157041
-0.621490 1.537284 -0.157765
-0.615909 1.537893 -0.158291
-0.611634 1.540894 -0.159126
-0.608214 1.545545 -0.160187
-0.604158 1.549191 -0.161166
-0.599578 1.551997 -0.162081
-0.595071 1.555038 -0.163054
-0.591546 1.560011 -0.164284
-0.585719 1.560773 -0.165045
-0.580291 1.562337 -0.165925
-0.575891 1.565936 -0.167070
-0.571362 1.569375 -0.168218
-0.566279 1.571803 -0.169265
-0.562450 1.576789 -0.170640
-0.557617 1.579855 -0.171800
-0.551745 1.580863 -0.172722
-0.547062 1.584332 -0.173957
-0.544261 1.591795 -0.175701
-0.540785 1.597984 -0.177302
-0.536103 1.601711 -0.178605
-0.530712 1.603957 -0.179729
-0.525730 1.607118 -0.180972
-0.520150 1.608985 -0.182054
-0.515165 1.612193 -0.183309
-0.510268 1.615635 -0.184596
-0.504977 1.618204 -0.185770
-0.501310 1.624578 -0.187441
-0.496657 1.628729 -0.188823
-0.491299 1.631240 -0.189986
-0.485781 1.633373 -0.191096
-0.480407 1.635853 -0.192247
-0.476368 1.641667 -0.193841
-0.471167 1.644639 -0.195049
-0.465597 1.646682 -0.196126
-0.459772 1.648054 -0.197105
-0.455166 1.652612 -0.198512
-0.450693 1.657583 -0.199971
-0.447261 1.665453 -0.201828
-0.441690 1.667602 -0.202889
-0.436863 1.671820 -0.204230
-0.431887 1.675675 -0.205514
-0.426014 1.677000 -0.206436
-0.420857 1.680384 -0.207639
-0.416338 1.685694 -0.209109
-0.411511 1.690171 -0.210454
-0.407746 1.697965 -0.212270
-0.402010 1.699827 -0.213229
-0.395981 1.700756 -0.214046
-0.390492 1.703382 -0.215098
-0.385211 1.706702 -0.216243
-0.379450 1.708480 -0.217155
-0.376259 1.718898 -0.219325
-0.371456 1.724091 -0.220726
-0.365791 1.726401 -0.221697
-0.359948 1.728097 -0.222570
-0.355172 1.733641 -0.224005
-0.349289 1.735256 -0.224850
-0.343077 1.735639 -0.225503
-0.338505 1.742222 -0.227076
-0.333219 1.746220 -0.228256
-0.327512 1.748650 -0.229194
-0.322778 1.755041 -0.230724
-0.317620 1.759880 -0.232015
-0.311661 1.761495 -0.232811
-0.305658 1.762932 -0.233573
-0.300693 1.768916 -0.235022
-0.295247 1.772943 -0.236167
-0.288286 1.770168 -0.236262
-0.283744 1.778518 -0.238060
-0.277944 1.781181 -0.238979
-0.272496 1.785633 -0.240168
-0.267699 1.793510 -0.241884
-0.261389 1.793943 -0.242441
-0.255861 1.798459 -0.243627
-0.249892 1.800777 -0.244464
-0.244012 1.803647 -0.245383
-0.238019 1.805978 -0.246212
-0.231431 1.804904 -0.246500
-0.225897 1.810060 -0.247761
-0.220876 1.818636 -0.249560
-0.216013 1.828686 -0.251590
-0.210673 1.836172 -0.253213
-0.205025 1.841993 -0.254570
-0.199473 1.848813 -0.256082
-0.193701 1.854451 -0.257404
-0.187506 1.857263 -0.258271
-0.181204 1.859382 -0.259022
-0.175123 1.863398 -0.260072
-0.169046 1.867715 -0.261167
-0.162929 1.871980 -0.262249
-0.156690 1.875445 -0.263198
-0.150345 1.878153 -0.264021
-0.144101 1.882060 -0.265033
-0.137886 1.886604 -0.266144
-0.131508 1.889770 -0.267027
-0.125252 1.894645 -0.268184
-0.118902 1.898863 -0.269230
-0.112457 1.902303 -0.270146
-0.105941 1.905156 -0.270961
-0.099345 1.907165 -0.271633
-0.092694 1.908537 -0.272196
-0.085515 1.901062 -0.271303
-0.079478 1.913442 -0.273660
-0.073099 1.921164 -0.275251
-0.066768 1.931506 -0.277270
-0.059849 1.929468 -0.277247
-0.053186 1.934109 -0.278319
-0.046576 1.941857 -0.279899
-0.039574 1.937227 -0.279429
-0.032902 1.945956 -0.281163
-0.026081 1.950605 -0.282218
-0.019231 1.956377 -0.283454
-0.012323 1.961614 -0.284597
-0.005370 1.968019 -0.285929
0.001638 1.971985 -0.286851
0.008679 1.975105 -0.287625
0.015744 1.977685 -0.288304
0.022838 1.980452 -0.289008
0.029976 1.984065 -0.289847
0.037161 1.988120 -0.290753
0.044370 1.991614 -0.291560
0.051609 1.994942 -0.292332
0.058879 1.998194 -0.293084
0.066228 2.002478 -0.294003
0.073551 2.005315 -0.294672
0.080896 2.007972 -0.295304
0.088287 2.010908 -0.295975
0.095865 2.016328 -0.297056
0.103294 2.018678 -0.297613
0.110737 2.020812 -0.298126
0.118211 2.023009 -0.298641
0.125763 2.025831 -0.299252
0.133611 2.031705 -0.300371
0.141358 2.035762 -0.301175
0.148972 2.037914 -0.301648
0.156608 2.040001 -0.302101
0.164326 2.042586 -0.302628
0.172277 2.046980 -0.303452
0.179922 2.048234 -0.303736
0.187334 2.047312 -0.303642
0.195007 2.048486 -0.303892
0.202790 2.050336 -0.304246
0.209994 2.047589 -0.303812
0.216801 2.042031 -0.302892
0.223625 2.036876 -0.302029
0.230345 2.031245 -0.301076
0.236835 2.024347 -0.299897
0.243066 2.016122 -0.298483
0.249546 2.009825 -0.297385
0.256357 2.005785 -0.296659
0.262531 1.998150 -0.295315
0.269665 1.996297 -0.294939
0.276546 1.993041 -0.294315
0.282523 1.984985 -0.292870
0.287606 1.972546 -0.290675
0.294329 1.969033 -0.289980
0.299731 1.958999 -0.288175
0.304161 1.944613 -0.285627
0.307064 1.923533 -0.281943
0.313117 1.917991 -0.280873
0.320955 1.920730 -0.281192
0.327604 1.917974 -0.280578
0.333156 1.910480 -0.279158
0.338781 1.903537 -0.277826
0.344237 1.896099 -0.276406
0.349650 1.888721 -0.274993
0.354240 1.878274 -0.273061
0.360083 1.873093 -0.272010
0.365456 1.866240 -0.270677
0.371013 1.860288 -0.269495
0.375820 1.851736 -0.267878
0.380649 1.843531 -0.266320
0.385635 1.836145 -0.264903
0.390173 1.827421 -0.263266
0.394351 1.817739 -0.261475
0.399356 1.811171 -0.260210
0.402188 1.797584 -0.257785
0.408500 1.795831 -0.257340
0.413760 1.790758 -0.256352
0.417085 1.779737 -0.254388
0.422669 1.776125 -0.253669
0.427226 1.769507 -0.252467
0.429554 1.756400 -0.250204
0.434715 1.752161 -0.249433
0.440518 1.749988 -0.249023
0.445050 1.744273 -0.248049
0.450068 1.740179 -0.247365
0.456727 1.740887 -0.247503
0.454758 1.717792 -0.243718
0.459825 1.714627 -0.243266
0.465108 1.712237 -0.242970
0.469695 1.708169 -0.242425
0.472541 1.699754 -0.241188
0.477387 1.696862 -0.240898
0.481621 1.692602 -0.240413
0.484767 1.685827 -0.239539
0.488354 1.680452 -0.238929
0.491977 1.675435 -0.238410
0.496114 1.671930 -0.238176
0.498335 1.664020 -0.237234
0.501423 1.658500 -0.236722
0.505526 1.655651 -0.236690
0.507503 1.648029 -0.235881
0.514580 1.652543 -0.237156
0.513954 1.639422 -0.235469
0.517399 1.635965 -0.235448
0.523001 1.637585 -0.236321
0.517660 1.614880 -0.233054
-0.686370 1.506118 -0.156800
-0.682449 1.507848 -0.156920
-0.677206 1.507639 -0.156849
-0.672540 1.508424 -0.156930
-0.668212 1.509847 -0.157122
-0.662895 1.509809 -0.157180
-0.657283 1.509389 -0.157232
-0.653327 1.511730 -0.157643
-0.650789 1.516513 -0.158379
-0.646343 1.518323 -0.158806
-0.641624 1.519798 -0.159232
-0.637398 1.522207 -0.159807
-0.633786 1.525776 -0.160557
-0.630589 1.530195 -0.161447
-0.626424 1.533103 -0.162197
-0.622142 1.535933 -0.162974
-0.617491 1.538233 -0.163725
-0.613427 1.541679 -0.164648
-0.609756 1.545953 -0.165706
-0.605166 1.548700 -0.166613
-0.600400 1.551227 -0.167524
-0.595732 1.554024 -0.168498
-0.589646 1.554268 -0.169186
-0.585427 1.558064 -0.170335
-0.579921 1.559511 -0.171219
-0.575661 1.563401 -0.172428
-0.573392 1.571267 -0.174157
-0.567408 1.571993 -0.175012
-0.561029 1.571947 -0.175782
-0.558726 1.580101 -0.177609
-0.553046 1.581550 -0.178597
-0.548779 1.585925 -0.179971
-0.545125 1.591659 -0.181534
-0.541198 1.596926 -0.183048
-0.535704 1.598937 -0.184145
-0.530695 1.602009 -0.185386
-0.525963 1.605723 -0.186716
-0.520723 1.608360 -0.187907
-0.515485 1.611016 -0.189101
-0.510851 1.615066 -0.190483
-0.506386 1.619553 -0.191925
-0.502097 1.624510 -0.193432
-0.497420 1.628623 -0.194824
-0.492094 1.631230 -0.196007
-0.486429 1.633026 -0.197074
-0.481324 1.636180 -0.198323
-0.476069 1.638984 -0.199520
-0.472017 1.644833 -0.201137
-0.466329 1.646593 -0.202177
-0.462874 1.654127 -0.204026
-0.458219 1.658650 -0.205447
-0.453168 1.662178 -0.206720
-0.447497 1.664059 -0.207751
-0.442076 1.666615 -0.208871
-0.436919 1.669910 -0.210090
-0.432425 1.675108 -0.211578
-0.427011 1.677755 -0.212689
-0.422079 1.681817 -0.214000
-0.417086 1.685756 -0.215286
-0.414254 1.696231 -0.217531
-0.408234 1.697251 -0.218375
-0.402217 1.698246 -0.219205
-0.396409 1.699862 -0.220118
-0.390709 1.701810 -0.221072
-0.386314 1.707997 -0.222655
-0.380913 1.711001 -0.223753
-0.376684 1.717976 -0.225445
-0.372341 1.724734 -0.227100
-0.365631 1.723441 -0.227525
-0.359667 1.724677 -0.228326
-0.355276 1.731551 -0.229982
-0.349437 1.733310 -0.230848
-0.344178 1.737235 -0.232039
-0.338757 1.740631 -0.233144
-0.333810 1.745930 -0.234537
-0.328581 1.750265 -0.235775
-0.323265 1.754355 -0.236971
-0.317905 1.758370 -0.238148
-0.312077 1.760526 -0.239029
-0.305475 1.759405 -0.239388
-0.301153 1.768136 -0.241290
-0.295663 1.771978 -0.242418
-0.287980 1.765924 -0.241973
-0.282494 1.769788 -0.243091
-0.277711 1.777132 -0.244758
-0.271333 1.776973 -0.245225
-0.265772 1.780837 -0.246328
-0.259993 1.783716 -0.247268
-0.254778 1.789654 -0.248695
-0.248802 1.791734 -0.249497
-0.241716 1.787734 -0.249312
-0.237766 1.801282 -0.251955
-0.231874 1.804184 -0.252875
-0.227827 1.818280 -0.255608
-0.221885 1.821435 -0.256564
-0.218436 1.840598 -0.260124
-0.212028 1.841478 -0.260703
-0.205780 1.843441 -0.261454
-0.199512 1.845338 -0.262188
-0.193966 1.852538 -0.263788
-0.187958 1.856727 -0.264891
-0.181596 1.858428 -0.265580
-0.175302 1.860749 -0.266365
-0.169270 1.865395 -0.267531
-0.163121 1.869339 -0.268576
-0.157150 1.875194 -0.269935
-0.150863 1.878514 -0.270869
-0.144733 1.883651 -0.272102
-0.138355 1.886648 -0.272975
-0.132143 1.891711 -0.274188
-0.125745 1.895131 -0.275123
-0.119264 1.897863 -0.275939
-0.112859 1.901854 -0.276961
-0.106341 1.904763 -0.277797
-0.099760 1.907070 -0.278528
-0.092914 1.905496 -0.278600
-0.085840 1.899734 -0.277958
-0.079715 1.910483 -0.280097
-0.073852 1.928473 -0.283460
-0.067126 1.930889 -0.284187
-0.060138 1.927313 -0.283893
-0.053527 1.933317 -0.285218
-0.046754 1.935877 -0.285954
-0.040201 1.947635 -0.288250
-0.033488 1.956985 -0.290134
-0.026535 1.957298 -0.290474
-0.019573 1.957083 -0.290717
-0.012646 1.961163 -0.291688
-0.005685 1.966508 -0.292870
0.001325 1.971215 -0.293939
0.008371 1.974579 -0.294771
0.015445 1.977553 -0.295532
0.022538 1.979871 -0.296173
0.029670 1.982953 -0.296940
