ply
format ascii 1.0
comment ---
element vertex 1676
property float x
property float y
property float z
element face 0
property list uchar uint vertex_indices
end_header
-0.196572 1.815983 -0.595378
-0.190536 1.820299 -0.595838
-0.184650 1.826082 -0.596541
-0.178417 1.829405 -0.596829
-0.171834 1.829953 -0.596650
-0.162367 1.804630 -0.592135
-0.113472 1.761516 -0.583086
-0.107174 1.761299 -0.582787
-0.100711 1.758594 -0.582076
-0.094968 1.766703 -0.583155
-0.088937 1.771173 -0.583630
-0.082830 1.774970 -0.583990
-0.076765 1.780271 -0.584597
-0.069392 1.757512 -0.580578
-0.063120 1.756696 -0.580179
-0.056090 1.734216 -0.576219
-0.049877 1.731278 -0.575475
-0.026044 1.780403 -0.582453
-0.019614 1.766267 -0.579874
-0.013371 1.773619 -0.580801
-0.007096 1.766016 -0.579291
-0.000856 1.763733 -0.578648
0.005530 1.775900 -0.580352
0.011944 1.782887 -0.581210
0.018524 1.794693 -0.582844
0.025183 1.805261 -0.584273
0.032064 1.819895 -0.586354
0.039300 1.840707 -0.589424
0.046285 1.850349 -0.590685
0.052370 1.837885 -0.588385
0.060555 1.870251 -0.593293
0.067168 1.867994 -0.592630
0.073731 1.865240 -0.591888
0.080156 1.860721 -0.590863
0.086621 1.857394 -0.590029
0.253411 4.050430 -0.939776
0.278931 4.159961 -0.956463
0.297711 4.175169 -0.958086
0.034168 0.922824 -0.440137
0.035691 0.915004 -0.438792
0.038129 0.916951 -0.438997
0.040398 0.917108 -0.438917
0.042620 0.916832 -0.438768
0.045175 0.919439 -0.439074
0.047398 0.919076 -0.438910
0.049708 0.919423 -0.438857
0.052104 0.920399 -0.438902
0.054716 0.922903 -0.439186
0.057013 0.922953 -0.439084
0.059206 0.922263 -0.438865
0.061386 0.921519 -0.438638
0.064173 0.924763 -0.439031
0.066456 0.924602 -0.438893
0.068704 0.924224 -0.438720
0.071023 0.924273 -0.438613
0.073749 0.926667 -0.438868
0.076111 0.926854 -0.438780
0.078620 0.927816 -0.438811
0.081154 0.928850 -0.438851
0.083702 0.929881 -0.438889
0.086030 0.929722 -0.438743
0.088424 0.929873 -0.438643
0.090882 0.930306 -0.438586
0.093559 0.931736 -0.438680
0.095973 0.931857 -0.438571
0.098324 0.931666 -0.438415
0.100777 0.931906 -0.438322
0.103407 0.932882 -0.438340
0.105556 0.931745 -0.438036
0.108124 0.932372 -0.437998
0.110877 0.933701 -0.438065
0.113115 0.932887 -0.437806
0.116042 0.934782 -0.437954
0.118710 0.935573 -0.437934
0.121651 0.937338 -0.438057
0.124318 0.937990 -0.438012
0.126531 0.936938 -0.437710
0.129581 0.938879 -0.437853
0.132239 0.939343 -0.437774
0.135034 0.940231 -0.437755
0.137343 0.939407 -0.437481
0.139881 0.939338 -0.437317
0.142440 0.939309 -0.437158
0.145030 0.939342 -0.437005
0.148439 0.941932 -0.437227
0.151441 0.943133 -0.437241
0.153948 0.942745 -0.437021
0.156645 0.942905 -0.436878
0.159415 0.943239 -0.436759
0.162246 0.943708 -0.436658
0.164865 0.943512 -0.436457
0.167646 0.943746 -0.436318
0.170350 0.943723 -0.436139
0.173743 0.945559 -0.436226
0.176668 0.946038 -0.436116
0.179138 0.945256 -0.435822
0.181676 0.944640 -0.435552
0.184577 0.944952 -0.435412
0.187352 0.944902 -0.435219
0.190379 0.945461 -0.435112
0.193537 0.946302 -0.435042
0.196372 0.946303 -0.434853
0.200281 0.948878 -0.435025
0.201558 0.945080 -0.434301
0.205733 0.948192 -0.434545
0.208553 0.948060 -0.434335
0.211392 0.947963 -0.434130
0.214067 0.947489 -0.433873
0.216573 0.946648 -0.433566
0.222829 0.954106 -0.434407
0.224123 0.950569 -0.433730
0.226118 0.948638 -0.433279
0.229454 0.949621 -0.433230
0.231163 0.947183 -0.432716
0.233911 0.946985 -0.432513
0.237735 0.949035 -0.432618
0.241625 0.951207 -0.432743
0.526604 1.494941 -0.505420
0.532549 1.495540 -0.505192
-0.695382 1.502381 -0.563588
-0.690210 1.504110 -0.563703
-0.685702 1.507033 -0.564049
-0.680723 1.509366 -0.564289
-0.675145 1.510874 -0.564381
-0.671660 1.515905 -0.565139
-0.667755 1.520421 -0.565805
-0.662377 1.522652 -0.566048
-0.657101 1.525155 -0.566346
-0.651097 1.526523 -0.566437
-0.645573 1.528775 -0.566697
-0.640185 1.531335 -0.567017
-0.635301 1.534847 -0.567518
-0.629745 1.537251 -0.567815
-0.625055 1.541251 -0.568411
-0.620437 1.545459 -0.569047
-0.614874 1.548005 -0.569376
-0.609000 1.550003 -0.569603
-0.603818 1.553303 -0.570073
-0.599488 1.558252 -0.570849
-0.595446 1.563818 -0.571739
-0.590091 1.566907 -0.572169
-0.585717 1.571937 -0.572958
-0.578083 1.570527 -0.572555
-0.572938 1.574029 -0.573059
-0.568735 1.579461 -0.573918
-0.561976 1.579669 -0.573811
-0.557169 1.583883 -0.574443
-0.552850 1.589153 -0.575266
-0.547470 1.592196 -0.575678
-0.542740 1.596642 -0.576345
-0.537223 1.599381 -0.576696
-0.531404 1.601428 -0.576918
-0.526388 1.605252 -0.577464
-0.520870 1.607938 -0.577798
-0.515648 1.611290 -0.578253
-0.510390 1.614557 -0.578689
-0.503143 1.613087 -0.578256
-0.499036 1.619064 -0.579184
-0.495027 1.625353 -0.580165
-0.488729 1.626053 -0.580122
-0.485307 1.633912 -0.581384
-0.480223 1.637670 -0.581894
-0.474361 1.639435 -0.582037
-0.469051 1.642614 -0.582436
-0.463567 1.645336 -0.582749
-0.458850 1.650120 -0.583435
-0.453315 1.652728 -0.583722
-0.448054 1.656089 -0.584143
-0.443963 1.662769 -0.585163
-0.438023 1.664283 -0.585244
-0.432154 1.665969 -0.585354
-0.428610 1.674492 -0.586697
-0.423453 1.678370 -0.587197
-0.418737 1.683641 -0.587946
-0.414317 1.689923 -0.588874
-0.408255 1.691173 -0.588891
-0.402463 1.693257 -0.589057
-0.396621 1.695176 -0.589191
-0.390300 1.695513 -0.589039
-0.385824 1.701987 -0.589986
-0.381141 1.707916 -0.590832
-0.376435 1.713909 -0.591686
-0.368211 1.707591 -0.590334
-0.362476 1.709952 -0.590534
-0.356917 1.712988 -0.590853
-0.343812 1.687848 -0.586141
-0.337314 1.686874 -0.585745
-0.333548 1.696424 -0.587223
-0.331967 1.714954 -0.590293
-0.327449 1.722300 -0.591368
-0.317776 1.708620 -0.588706
-0.313367 1.716485 -0.589869
-0.306636 1.714647 -0.589309
-0.300953 1.717282 -0.589541
-0.293841 1.713558 -0.588646
-0.290673 1.727733 -0.590913
-0.286644 1.738462 -0.592565
-0.278095 1.727913 -0.590463
-0.270901 1.723478 -0.589440
-0.265068 1.725648 -0.589580
-0.258376 1.723430 -0.588947
-0.252476 1.725260 -0.589024
-0.254281 1.769100 -0.596464
-0.248791 1.774466 -0.597149
-0.243984 1.784008 -0.598562
-0.238203 1.788293 -0.599053
-0.231885 1.789513 -0.599006
-0.226425 1.796141 -0.599900
-0.220105 1.797581 -0.599888
-0.214077 1.801008 -0.600220
-0.208079 1.804832 -0.600620
-0.201821 1.807013 -0.600732
-0.195628 1.809784 -0.600945
-0.189394 1.812397 -0.601128
-0.183396 1.817045 -0.601663
-0.177640 1.824012 -0.602595
-0.171243 1.825990 -0.602664
-0.163912 1.819709 -0.601307
-0.085301 1.213508 -0.496356
-0.111972 1.744522 -0.586530
-0.105645 1.742888 -0.585989
-0.099960 1.750339 -0.586999
-0.095143 1.772481 -0.590508
-0.087952 1.757874 -0.587754
-0.081801 1.759809 -0.587818
-0.074758 1.744058 -0.584877
-0.068635 1.745442 -0.584848
-0.061769 1.728501 -0.581715
-0.055360 1.719871 -0.579994
-0.042419 1.688105 -0.574113
-0.024938 1.707902 -0.576678
-0.006887 1.738426 -0.581011
-0.000604 1.759344 -0.584244
0.005672 1.763319 -0.584636
0.012369 1.790334 -0.588871
0.018836 1.794761 -0.589330
0.025352 1.799569 -0.589849
0.032124 1.811194 -0.591499
0.038770 1.816265 -0.592055
0.046160 1.838608 -0.595474
0.053569 1.856710 -0.598179
0.067153 1.860883 -0.598272
0.073993 1.863285 -0.598368
0.219450 4.035967 -0.956159
0.235437 4.021910 -0.953080
0.252332 4.022022 -0.952334
0.276846 4.119776 -0.967616
0.296395 4.146329 -0.971179
0.032328 0.926209 -0.443101
0.033820 0.917501 -0.441571
0.035853 0.915208 -0.441093
0.038210 0.916324 -0.441171
0.040486 0.916561 -0.441105
0.043122 0.920006 -0.441560
0.045307 0.919276 -0.441335
0.047709 0.920383 -0.441409
0.049944 0.920071 -0.441251
0.052269 0.920455 -0.441205
0.054831 0.922563 -0.441437
0.057203 0.923153 -0.441422
0.059571 0.923654 -0.441392
0.061937 0.924103 -0.441353
0.064142 0.923462 -0.441138
0.066863 0.926097 -0.441448
0.068991 0.924930 -0.441147
0.071247 0.924569 -0.440975
0.073710 0.925414 -0.440995
0.076242 0.926581 -0.441065
0.078636 0.926911 -0.441000
0.081160 0.927900 -0.441039
0.083738 0.929098 -0.441110
0.086159 0.929422 -0.441041
0.088474 0.929182 -0.440881
0.090908 0.929504 -0.440809
0.093236 0.929292 -0.440652
0.096137 0.931712 -0.440908
0.098440 0.931298 -0.440716
0.100759 0.930946 -0.440534
0.103850 0.933929 -0.440872
0.106385 0.934402 -0.440816
0.108351 0.932463 -0.440381
0.110639 0.931887 -0.440158
0.113532 0.933719 -0.440309
0.116164 0.934433 -0.440284
0.118882 0.935414 -0.440299
0.121191 0.934791 -0.440063
0.124184 0.936690 -0.440216
0.126725 0.936845 -0.440098
0.129867 0.939106 -0.440302
0.132570 0.939718 -0.440249
0.135103 0.939690 -0.440097
0.137459 0.939027 -0.439846
0.140336 0.940087 -0.439856
0.142650 0.939236 -0.439574
0.144968 0.938393 -0.439291
0.148051 0.939959 -0.439372
0.150936 0.940821 -0.439344
0.153665 0.941143 -0.439233
0.156878 0.942876 -0.439332
0.159717 0.943409 -0.439247
0.162314 0.943182 -0.439046
0.165356 0.944206 -0.439031
0.168169 0.944516 -0.438907
0.170701 0.943995 -0.438657
0.173504 0.944199 -0.438513
0.176633 0.945242 -0.438493
0.179264 0.944894 -0.438263
0.181811 0.944301 -0.437997
0.185692 0.947149 -0.438236
0.187959 0.945765 -0.437850
0.191418 0.947391 -0.437905
0.193943 0.946623 -0.437607
0.196771 0.946594 -0.437417
0.200616 0.948999 -0.437580
0.203159 0.948216 -0.437278
0.205930 0.947970 -0.437054
0.208776 0.947891 -0.436855
0.211830 0.948279 -0.436722
0.214975 0.948855 -0.436617
0.217940 0.949011 -0.436452
0.222294 0.952226 -0.436725
0.225349 0.952537 -0.436584
0.226983 0.949798 -0.436010
0.228584 0.947069 -0.435441
0.231190 0.946533 -0.435188
0.234846 0.948214 -0.435251
0.237154 0.947123 -0.434926
0.240440 0.948077 -0.434893
0.512937 1.477603 -0.508663
0.526799 1.493781 -0.510608
0.533769 1.496353 -0.510660
-0.693684 1.498926 -0.568704
-0.691409 1.505181 -0.569700
-0.686967 1.508245 -0.570083
-0.680951 1.508962 -0.570018
-0.676079 1.511630 -0.570335
-0.672267 1.516159 -0.571016
-0.668225 1.520479 -0.571660
-0.663038 1.523053 -0.571972
-0.656911 1.524158 -0.572005
-0.651204 1.526040 -0.572192
-0.646059 1.528960 -0.572582
-0.641140 1.532355 -0.573065
-0.634736 1.533238 -0.573070
-0.629724 1.536606 -0.573553
-0.625057 1.540660 -0.574169
-0.620499 1.544986 -0.574838
-0.616109 1.549693 -0.575581
-0.610209 1.551679 -0.575804
-0.604583 1.554183 -0.576127
-0.599286 1.557324 -0.576572
-0.595932 1.564212 -0.577730
-0.590798 1.567750 -0.578249
-0.586062 1.572090 -0.578921
-0.579244 1.572322 -0.578809
-0.572256 1.572144 -0.578620
-0.567459 1.576354 -0.579264
-0.562513 1.580281 -0.579852
-0.558083 1.585301 -0.580646
-0.552880 1.588728 -0.581135
-0.547686 1.592177 -0.581627
-0.542004 1.594563 -0.581916
-0.535847 1.595879 -0.582001
-0.531437 1.601031 -0.582809
-0.526278 1.604537 -0.583304
-0.520866 1.607467 -0.583688
-0.515734 1.611032 -0.584189
-0.510535 1.614446 -0.584659
-0.505275 1.617714 -0.585100
-0.499640 1.620077 -0.585367
-0.495268 1.625503 -0.586209
-0.490412 1.629790 -0.586833
-0.485840 1.634821 -0.587594
-0.480497 1.637943 -0.587994
-0.474674 1.639824 -0.588159
-0.468944 1.641918 -0.588362
-0.465260 1.649426 -0.589575
-0.459803 1.652288 -0.589916
-0.454612 1.655879 -0.590391
-0.447568 1.654347 -0.589908
-0.441542 1.655562 -0.589936
-0.438499 1.665266 -0.591542
-0.435837 1.676298 -0.593390
-0.429017 1.675329 -0.593004
-0.423347 1.677696 -0.593236
-0.417625 1.679908 -0.593436
-0.413384 1.686697 -0.594483
-0.408159 1.690541 -0.594981
-0.402106 1.691795 -0.594997
-0.395136 1.690044 -0.594456
-0.389855 1.693742 -0.594921
-0.384974 1.698845 -0.595641
-0.378937 1.700107 -0.595651
-0.376720 1.714633 -0.598101
-0.368397 1.707999 -0.596654
-0.359362 1.698489 -0.594679
-0.344206 1.666099 -0.588508
-0.341381 1.678552 -0.590569
-0.331487 1.664476 -0.587765
-0.327522 1.672837 -0.589071
-0.316008 1.651558 -0.584955
-0.320922 1.695776 -0.592806
-0.316913 1.704943 -0.594245
-0.311951 1.710428 -0.595009
-0.305887 1.711349 -0.594939
-0.298245 1.705330 -0.593606
-0.292058 1.705524 -0.593403
-0.285518 1.704055 -0.592898
-0.281526 1.714440 -0.594541
-0.276199 1.718846 -0.595096
-0.269890 1.718577 -0.594803
-0.263503 1.717856 -0.594428
-0.256524 1.713992 -0.593485
-0.248432 1.703971 -0.591433
-0.222769 1.773645 -0.602442
-0.218619 1.788463 -0.604832
-0.213046 1.794681 -0.605679
-0.207364 1.800520 -0.606455
-0.201223 1.803435 -0.606706
-0.194839 1.804719 -0.606666
-0.188424 1.805806 -0.606589
-0.181880 1.805914 -0.606337
-0.175883 1.810505 -0.606881
-0.170019 1.816573 -0.607684
-0.162330 1.806716 -0.605663
-0.110259 1.724722 -0.589329
-0.104680 1.732105 -0.590366
-0.098374 1.729842 -0.589708
-0.092521 1.734292 -0.590226
-0.086386 1.734625 -0.590022
-0.079895 1.728364 -0.588665
-0.073834 1.729548 -0.588610
-0.067312 1.720574 -0.586783
-0.060376 1.698997 -0.582764
-0.052311 1.639364 -0.572133
-0.041763 1.671413 -0.577205
-0.024364 1.679543 -0.577853
-0.018432 1.669553 -0.575872
-0.012658 1.690670 -0.579262
0.006214 1.783724 -0.594482
0.012448 1.777001 -0.593049
0.018811 1.779241 -0.593155
0.025954 1.810280 -0.598192
0.032207 1.803339 -0.596718
0.038971 1.812522 -0.598002
0.046143 1.829645 -0.600636
0.054633 1.872321 -0.607618
0.061387 1.872231 -0.607300
0.067344 1.857581 -0.604507
0.203742 4.040769 -0.974932
0.220692 4.040165 -0.974065
0.235292 4.005507 -0.967426
0.276854 4.106553 -0.982971
0.295868 4.127126 -0.985654
0.032950 0.931680 -0.446348
0.034150 0.919530 -0.444196
0.035987 0.915115 -0.443349
0.038200 0.914792 -0.443191
0.040607 0.916308 -0.443341
0.043022 0.917759 -0.443479
0.045553 0.920080 -0.443762
0.047828 0.920094 -0.443657
0.050159 0.920535 -0.443624
0.052558 0.921454 -0.443669
0.054871 0.921663 -0.443595
0.057327 0.922864 -0.443685
0.059616 0.922823 -0.443568
0.062001 0.923410 -0.443555
0.064307 0.923427 -0.443446
0.066909 0.925297 -0.443643
0.069152 0.924849 -0.443456
0.071563 0.925404 -0.443433
0.074000 0.926057 -0.443426
0.076424 0.926589 -0.443397
0.078787 0.926739 -0.443305
0.081139 0.926805 -0.443199
0.083695 0.927901 -0.443259
0.086202 0.928682 -0.443267
0.088591 0.928816 -0.443169
0.090905 0.928557 -0.443005
0.093571 0.929952 -0.443109
0.095862 0.929529 -0.442916
0.098543 0.930862 -0.443007
0.101213 0.932061 -0.443075
0.104262 0.934825 -0.443394
0.106664 0.934710 -0.443246
0.108942 0.934054 -0.443009
0.111184 0.933252 -0.442749
0.114189 0.935496 -0.442976
0.116707 0.935720 -0.442877
0.118955 0.934866 -0.442604
0.121696 0.935871 -0.442627
0.124166 0.935810 -0.442479
0.127367 0.938369 -0.442745
0.129935 0.938547 -0.442631
0.132396 0.938313 -0.442450
0.134858 0.938061 -0.442265
0.137881 0.939673 -0.442372
0.140625 0.940272 -0.442317
0.143178 0.940194 -0.442154
0.145595 0.939645 -0.441916
0.148407 0.940326 -0.441868
0.150935 0.940068 -0.441672
0.153769 0.940716 -0.441616
0.156838 0.942013 -0.441658
0.160019 0.943567 -0.441738
0.162608 0.943310 -0.441535
0.164493 0.941002 -0.441012
0.168188 0.943844 -0.441285
0.170783 0.943503 -0.441063
0.173376 0.943132 -0.440836
0.176317 0.943677 -0.440747
0.179508 0.944836 -0.440751
0.181966 0.944003 -0.440448
0.184854 0.944278 -0.440313
0.188250 0.945805 -0.440367
0.191095 0.945877 -0.440198
0.194584 0.947515 -0.440265
0.197409 0.947458 -0.440074
0.200670 0.948431 -0.440037
0.202793 0.946647 -0.439584
0.205589 0.946474 -0.439374
0.209229 0.948245 -0.439455
0.212553 0.949236 -0.439417
0.215281 0.948848 -0.439175
0.218267 0.949040 -0.439019
0.220621 0.947837 -0.438658
0.225471 0.952093 -0.439105
0.227946 0.951156 -0.438786
0.230332 0.950068 -0.438447
0.231881 0.947270 -0.437860
0.235083 0.947988 -0.437793
0.238087 0.948312 -0.437671
0.243986 0.954529 -0.438411
0.520063 1.490207 -0.515760
0.526733 1.492106 -0.515720
0.531925 1.491212 -0.515286
-0.702325 1.511480 -0.576985
-0.691188 1.504024 -0.575279
-0.687511 1.508309 -0.575916
-0.684378 1.513646 -0.576765
-0.673454 1.506649 -0.575171
-0.672645 1.516032 -0.576831
-0.666651 1.517168 -0.576860
-0.661855 1.520380 -0.577303
-0.657513 1.524472 -0.577924
-0.651920 1.526575 -0.578154
-0.646665 1.529333 -0.578517
-0.641237 1.531872 -0.578839
-0.635878 1.534599 -0.579200
-0.629629 1.535813 -0.579265
-0.622729 1.535880 -0.579106
-0.622074 1.547232 -0.581169
-0.616470 1.549760 -0.581496
-0.611128 1.552797 -0.581923
-0.604857 1.554122 -0.582015
-0.602846 1.563506 -0.583688
-0.596951 1.565608 -0.583932
-0.591564 1.568683 -0.584366
-0.585126 1.569703 -0.584398
-0.579465 1.572222 -0.584723
-0.573641 1.574403 -0.584980
-0.568403 1.577751 -0.585465
-0.562612 1.579965 -0.585727
-0.556713 1.581922 -0.585938
-0.552139 1.586650 -0.586688
-0.547511 1.591295 -0.587419
-0.542033 1.594126 -0.587795
-0.536441 1.596690 -0.588118
-0.531240 1.600102 -0.588603
-0.526259 1.604007 -0.589182
-0.521240 1.607840 -0.589745
-0.515690 1.610454 -0.590070
-0.510318 1.613464 -0.590469
-0.504811 1.616142 -0.590802
-0.500238 1.621057 -0.591565
-0.494736 1.623745 -0.591895
-0.490060 1.628463 -0.592615
-0.485372 1.633197 -0.593335
-0.480292 1.636976 -0.593868
-0.473910 1.637412 -0.593756
-0.468799 1.641106 -0.594269
-0.464154 1.646060 -0.595021
-0.457796 1.646455 -0.594895
-0.451931 1.648127 -0.595013
-0.446791 1.651783 -0.595509
-0.442162 1.656907 -0.596283
-0.435439 1.656116 -0.595924
-0.432473 1.666137 -0.597628
-0.428619 1.673774 -0.598873
-0.422546 1.674925 -0.598878
-0.416292 1.675487 -0.598769
-0.412349 1.683142 -0.600008
-0.406477 1.684909 -0.600124
-0.400160 1.685243 -0.599966
-0.394369 1.687230 -0.600121
-0.388855 1.690127 -0.600446
-0.383470 1.693489 -0.600857
-0.376929 1.692954 -0.600528
-0.371667 1.696780 -0.601023
-0.365577 1.697750 -0.600977
-0.359045 1.697099 -0.600623
-0.347092 1.676464 -0.596502
-0.335667 1.656965 -0.592602
-0.317220 1.632630 -0.587576
-0.311784 1.634663 -0.587734
-0.241890 1.580755 -0.575435
-0.237003 1.584234 -0.575859
-0.222275 1.595152 -0.577208
-0.216104 1.592042 -0.576407
-0.210776 1.593571 -0.576462
-0.207308 1.606156 -0.578556
-0.203229 1.615714 -0.580086
-0.217221 1.779906 -0.609803
-0.211819 1.787034 -0.610846
-0.205823 1.790497 -0.611213
-0.199817 1.794077 -0.611600
-0.193434 1.795080 -0.611513
-0.186652 1.793053 -0.610871
-0.180466 1.795568 -0.611059
-0.174067 1.796477 -0.610953
-0.167959 1.799920 -0.611308
-0.158630 1.774652 -0.606434
-0.085941 1.221916 -0.505347
-0.081960 1.219274 -0.504710
-0.102943 1.710714 -0.592737
-0.097018 1.712623 -0.592822
-0.091138 1.715465 -0.593074
-0.084483 1.705512 -0.591024
-0.079250 1.720111 -0.593387
-0.073167 1.720170 -0.593136
-0.066515 1.707377 -0.590582
-0.059975 1.694274 -0.587977
-0.083175 3.965044 -0.991492
-0.066427 3.962379 -0.990291
-0.023838 1.654540 -0.579364
-0.018100 1.656812 -0.579516
0.000415 4.006567 -0.995199
0.017420 4.023715 -0.997492
0.018684 1.759338 -0.596071
0.039531 1.818736 -0.605674
0.046054 1.818982 -0.605427
0.062413 1.885287 -0.616449
0.068254 1.867369 -0.613011
0.203991 4.028820 -0.990096
0.222972 4.060379 -0.994835
0.237103 4.017460 -0.986586
0.254113 4.018995 -0.986087
0.277367 4.099773 -0.999352
0.033169 0.932527 -0.448850
0.034243 0.918991 -0.446400
0.036099 0.914796 -0.445570
0.038245 0.913806 -0.445295
0.040828 0.916990 -0.445740
0.043334 0.919206 -0.446017
0.045587 0.919049 -0.445884
0.047917 0.919541 -0.445862
0.050285 0.920283 -0.445882
0.052602 0.920567 -0.445823
0.055028 0.921623 -0.445896
0.057389 0.922135 -0.445874
0.059704 0.922279 -0.445789
0.062132 0.923153 -0.445828
0.064612 0.924297 -0.445912
0.067055 0.925122 -0.445940
0.069390 0.925230 -0.445845
0.071586 0.924482 -0.445605
0.074265 0.926548 -0.445841
0.076668 0.926937 -0.445791
0.078941 0.926572 -0.445614
0.081337 0.926865 -0.445546
0.084039 0.928711 -0.445739
0.086502 0.929231 -0.445708
0.088892 0.929348 -0.445607
0.091014 0.928145 -0.445285
0.093696 0.929612 -0.445409
0.096325 0.930745 -0.445475
0.098358 0.929118 -0.445080
0.101573 0.932750 -0.445560
0.103963 0.932642 -0.445416
0.106109 0.931481 -0.445095
0.108794 0.932571 -0.445147
0.111428 0.933385 -0.445152
0.114404 0.935497 -0.445370
0.117017 0.936081 -0.445333
0.119625 0.936595 -0.445283
0.121946 0.935984 -0.445046
0.125108 0.938460 -0.445316
0.127332 0.937425 -0.445007
0.130011 0.938009 -0.444962
0.132955 0.939465 -0.445058
0.135082 0.938035 -0.444681
0.138425 0.940717 -0.444973
0.140912 0.940440 -0.444781
0.143239 0.939616 -0.444499
0.146146 0.940642 -0.444515
0.148616 0.940219 -0.444295
0.151179 0.940067 -0.444117
0.154519 0.942251 -0.444314
0.157226 0.942428 -0.444185
0.159968 0.942667 -0.444065
0.162999 0.943705 -0.444070
0.165634 0.943539 -0.443881
0.168302 0.943432 -0.443700
0.170926 0.943171 -0.443493
0.174007 0.944134 -0.443479
0.176758 0.944145 -0.443312
0.179095 0.943017 -0.442963
0.182619 0.945000 -0.443104
0.185775 0.945943 -0.443079
0.188498 0.945725 -0.442870
0.191630 0.946510 -0.442816
0.195028 0.947904 -0.442856
0.197969 0.948116 -0.442710
0.200431 0.947147 -0.442379
0.203131 0.946746 -0.442137
0.205835 0.946346 -0.441894
0.209037 0.947095 -0.441829
0.212118 0.947534 -0.441716
0.215467 0.948559 -0.441693
0.218375 0.948570 -0.441514
0.221221 0.948446 -0.441315
0.224524 0.949320 -0.441270
0.227777 0.950074 -0.441208
0.230344 0.949372 -0.440925
0.233928 0.950834 -0.440974
0.236542 0.950280 -0.440719
0.239645 0.950769 -0.440625
0.244348 0.954516 -0.441025
0.521908 1.492318 -0.521422
0.526767 1.490619 -0.520854
0.531988 1.489770 -0.520424
-0.691553 1.493971 -0.579262
-0.687034 1.496719 -0.579600
-0.678630 1.493507 -0.578724
-0.665736 1.493479 -0.578295
-0.663668 1.500704 -0.579561
-0.658811 1.503574 -0.579943
-0.645019 1.491758 -0.577341
-0.639952 1.494357 -0.577676
-0.633550 1.494790 -0.577574
-0.621332 1.485311 -0.575464
-0.616860 1.489042 -0.576038
-0.610796 1.490081 -0.576068
-0.604602 1.490912 -0.576058
-0.602539 1.499141 -0.577544
-0.617471 1.550977 -0.587653
-0.611479 1.552842 -0.587848
-0.607298 1.558099 -0.588727
-0.601691 1.560727 -0.589075
-0.597039 1.565193 -0.589794
-0.591210 1.567421 -0.590061
-0.585233 1.569346 -0.590268
-0.579484 1.571700 -0.590560
-0.574317 1.575210 -0.591083
-0.568015 1.576412 -0.591143
-0.562737 1.579680 -0.591616
-0.558125 1.584336 -0.592365
-0.551206 1.584145 -0.592143
-0.547426 1.590585 -0.593245
-0.542283 1.594146 -0.593770
-0.536550 1.596411 -0.594035
-0.531040 1.599144 -0.594392
-0.527015 1.605205 -0.595409
-0.521345 1.607577 -0.595690
-0.515767 1.610134 -0.596006
-0.509816 1.611793 -0.596142
-0.504913 1.615896 -0.596761
-0.498624 1.616682 -0.596721
-0.494354 1.622333 -0.597642
-0.488357 1.623772 -0.597728
-0.482202 1.624770 -0.597724
-0.478403 1.631702 -0.598892
-0.473305 1.635394 -0.599417
-0.467776 1.637975 -0.599720
-0.462008 1.639913 -0.599895
-0.456258 1.641870 -0.600071
-0.451336 1.646069 -0.600687
-0.446748 1.651240 -0.601491
-0.440793 1.652632 -0.601551
-0.435869 1.656938 -0.602181
-0.429092 1.655918 -0.601764
-0.425859 1.665238 -0.603371
-0.421627 1.671783 -0.604431
-0.414742 1.670393 -0.603937
-0.409280 1.673284 -0.604278
-0.405649 1.681948 -0.605743
-0.397991 1.677970 -0.604741
-0.392969 1.682346 -0.605366
-0.388577 1.688881 -0.606407
-0.381290 1.685854 -0.605588
-0.375212 1.686783 -0.605537
-0.370701 1.693130 -0.606535
-0.365541 1.697345 -0.607117
-0.360104 1.700654 -0.607521
-0.352272 1.695232 -0.606234
-0.344487 1.689725 -0.604933
-0.315039 1.623970 -0.591778
-0.306850 1.614945 -0.589813
-0.281247 1.557585 -0.578335
-0.274631 1.553071 -0.577252
-0.269001 1.552562 -0.576939
-0.264101 1.555186 -0.577226
-0.259157 1.557688 -0.577488
-0.253798 1.558354 -0.577397
-0.247419 1.554215 -0.576387
-0.238323 1.563237 -0.577670
-0.233290 1.565576 -0.577894
-0.217815 1.571025 -0.578260
-0.213111 1.575496 -0.578884
-0.208626 1.581446 -0.579785
-0.204445 1.589495 -0.581081
-0.200642 1.600281 -0.582891
-0.216395 1.775035 -0.615400
-0.210603 1.779449 -0.615964
-0.204610 1.782718 -0.616309
-0.198335 1.784157 -0.616310
-0.191711 1.783073 -0.615835
-0.184402 1.776605 -0.614349
-0.178338 1.779512 -0.614624
-0.173228 1.790522 -0.616414
-0.166190 1.785752 -0.615248
-0.159746 1.785878 -0.614998
-0.082751 1.228875 -0.510267
-0.105681 1.670087 -0.591602
-0.098920 1.657860 -0.589085
-0.096076 1.701423 -0.596896
-0.088981 1.684327 -0.593477
-0.083518 1.692280 -0.594689
-0.077757 1.696044 -0.595126
-0.065866 1.697446 -0.594866
-0.052112 1.645668 -0.584840
-0.082481 3.963712 -1.008223
-0.065771 3.964075 -1.007558
-0.049061 3.964126 -1.006835
-0.032393 3.970108 -1.007192
-0.015664 3.969245 -1.006299
0.001150 3.999122 -1.010999
0.018342 4.041693 -1.017991
0.035285 4.033172 -1.015691
0.052161 4.025698 -1.013583
0.119743 4.018384 -1.009246
0.134146 3.957064 -0.997437
0.154268 4.033389 -1.010434
0.175597 4.119373 -1.025133
0.188681 4.041342 -1.010336
0.210031 4.113509 -1.022515
0.221010 4.014760 -1.004036
0.238635 4.025227 -1.005144
0.255676 4.026454 -1.004593
0.442834 6.184774 -1.389171
0.468993 6.172723 -1.385782
0.034106 0.915976 -0.448162
0.036333 0.915701 -0.448009
0.038648 0.916312 -0.448014
0.041165 0.918735 -0.448339
0.043411 0.918533 -0.448197
0.045736 0.919005 -0.448175
0.048107 0.919815 -0.448212
0.050408 0.919995 -0.448137
0.052737 0.920367 -0.448095
0.055016 0.920330 -0.447980
0.057458 0.921441 -0.448067
0.059907 0.922516 -0.448146
0.062296 0.923108 -0.448140
0.064724 0.923903 -0.448168
0.067232 0.925138 -0.448273
0.069539 0.925054 -0.448146
0.071852 0.925002 -0.448024
0.074379 0.926160 -0.448111
0.076626 0.925671 -0.447912
0.079095 0.926399 -0.447923
0.081446 0.926448 -0.447816
0.084067 0.927868 -0.447945
0.086689 0.929201 -0.448057
0.089068 0.929256 -0.447948
0.091739 0.930691 -0.448075
0.094180 0.930951 -0.447998
0.096435 0.930327 -0.447769
0.099161 0.931818 -0.447902
0.101936 0.933444 -0.448056
0.104101 0.932339 -0.447742
0.106578 0.932576 -0.447656
0.109288 0.933736 -0.447726
0.112069 0.935112 -0.447832
0.114670 0.935689 -0.447800
0.117360 0.936563 -0.447817
0.119854 0.936623 -0.447694
0.122644 0.937759 -0.447752
0.125100 0.937597 -0.447589
0.127725 0.938020 -0.447523
0.130219 0.937926 -0.447369
0.132764 0.937985 -0.447239
0.136169 0.940952 -0.447596
0.138891 0.941483 -0.447541
0.141097 0.940256 -0.447191
0.143647 0.940156 -0.447028
0.146305 0.940368 -0.446916
0.148878 0.940269 -0.446750
0.151837 0.941334 -0.446777
0.154324 0.940889 -0.446550
0.157500 0.942488 -0.446661
0.160177 0.942526 -0.446512
0.163108 0.943266 -0.446476
0.166191 0.944382 -0.446501
0.169732 0.946718 -0.446723
0.172118 0.945741 -0.446400
0.174598 0.945013 -0.446116
0.177290 0.944844 -0.445922
0.180547 0.946143 -0.445967
0.183543 0.946690 -0.445887
0.186342 0.946680 -0.445714
0.189251 0.946918 -0.445581
0.192022 0.946772 -0.445384
0.194867 0.946785 -0.445212
0.198213 0.947993 -0.445231
0.200874 0.947496 -0.444975
0.203530 0.946977 -0.444715
0.206627 0.947485 -0.444620
0.210790 0.950430 -0.444912
0.212846 0.948479 -0.444423
0.215716 0.948402 -0.444233
0.218245 0.947563 -0.443923
0.221751 0.948889 -0.443956
0.225035 0.949705 -0.443910
0.227769 0.949331 -0.443676
0.230315 0.948583 -0.443386
0.234292 0.950863 -0.443573
0.236955 0.950399 -0.443332
0.239739 0.950221 -0.443139
0.246117 0.957339 -0.444085
0.522711 1.492351 -0.526792
0.526853 1.489226 -0.525997
0.528563 1.481578 -0.524514
-0.675017 1.467574 -0.579492
-0.660576 1.454616 -0.576548
-0.657242 1.459017 -0.577254
-0.655037 1.465395 -0.578377
-0.651258 1.469459 -0.579016
-0.645956 1.471213 -0.579174
-0.641055 1.473732 -0.579495
-0.633062 1.471241 -0.578772
-0.627924 1.473523 -0.579049
-0.630324 1.488644 -0.582003
-0.618571 1.479923 -0.579991
-0.614123 1.483654 -0.580575
-0.608869 1.486067 -0.580886
-0.602819 1.487127 -0.580917
-0.598943 1.492085 -0.581758
-0.603833 1.512987 -0.585904
-0.618630 1.552461 -0.593890
-0.613248 1.555488 -0.594322
-0.607111 1.557130 -0.594468
-0.601426 1.559614 -0.594789
-0.596338 1.563245 -0.595345
-0.590690 1.565817 -0.595683
-0.585062 1.568422 -0.596027
-0.581712 1.575546 -0.597302
-0.574331 1.574660 -0.596926
-0.568776 1.577393 -0.597294
-0.563152 1.579970 -0.597629
-0.558660 1.584894 -0.598445
-0.551729 1.584698 -0.598210
-0.546694 1.588469 -0.598787
-0.542235 1.593498 -0.599619
-0.536266 1.595251 -0.599780
-0.531100 1.598743 -0.600294
-0.526542 1.603608 -0.601088
-0.522353 1.609354 -0.602059
-0.515031 1.607910 -0.601561
-0.510048 1.611823 -0.602154
-0.504027 1.613283 -0.602247
-0.500042 1.619595 -0.603324
-0.493070 1.618698 -0.602934
-0.486948 1.619793 -0.602948
-0.481160 1.621668 -0.603119
-0.473042 1.617579 -0.602080
-0.469446 1.624958 -0.603363
-0.466555 1.634309 -0.605042
-0.461320 1.637622 -0.605496
-0.455491 1.639349 -0.605629
-0.450357 1.642945 -0.606136
-0.445333 1.646870 -0.606708
-0.440751 1.652079 -0.607536
-0.432774 1.647662 -0.606425
-0.427491 1.650851 -0.606844
-0.423134 1.656795 -0.607813
-0.419107 1.663835 -0.609000
-0.413389 1.665885 -0.609183
-0.407294 1.666764 -0.609130
-0.402534 1.671791 -0.609905
-0.396682 1.673427 -0.610000
-0.391098 1.675921 -0.610265
-0.386843 1.682817 -0.611407
-0.380779 1.683810 -0.611368
-0.374233 1.683126 -0.610995
-0.370411 1.691821 -0.612487
-0.365127 1.695593 -0.612997
-0.358308 1.693909 -0.612421
-0.350503 1.688483 -0.611103
-0.344015 1.687719 -0.610710
-0.337313 1.686047 -0.610137
-0.328129 1.674616 -0.607634
-0.276216 1.536706 -0.579719
-0.273205 1.546955 -0.581523
-0.268579 1.550650 -0.582032
-0.263910 1.554274 -0.582525
-0.259431 1.558866 -0.583206
-0.256066 1.568735 -0.584920
-0.251582 1.573765 -0.585682
-0.217623 1.742600 -0.615890
-0.211836 1.745977 -0.616280
-0.206675 1.753713 -0.617510
-0.201561 1.762247 -0.618891
-0.197411 1.778214 -0.621703
-0.190494 1.774797 -0.620771
-0.182647 1.763938 -0.618408
-0.176737 1.767640 -0.618850
-0.171561 1.777688 -0.620509
-0.164963 1.776236 -0.619956
-0.158668 1.777348 -0.619895
-0.152903 1.783510 -0.620801
-0.143695 1.756249 -0.615309
-0.082581 1.228028 -0.513929
-0.078753 1.227380 -0.513643
-0.104988 1.663235 -0.596255
-0.099850 1.672945 -0.597848
-0.087531 1.664257 -0.595690
-0.081705 1.664471 -0.595477
-0.130424 3.916596 -1.018549
-0.113734 3.911207 -1.016811
-0.064960 3.955929 -1.023028
-0.031577 3.954197 -1.021233
-0.014919 3.962828 -1.022111
0.001814 3.971181 -1.022932
0.053442 4.052038 -1.035754
0.069906 4.023243 -1.029640
0.086896 4.024014 -1.029026
0.103724 4.019585 -1.027447
0.120041 4.002409 -1.023507
0.137813 4.024482 -1.026836
0.155497 4.040135 -1.028968
0.176705 4.122319 -1.043376
0.194341 4.126151 -1.043297
0.208310 4.068480 -1.031886
0.225289 4.065554 -1.030570
0.239809 4.027718 -1.022839
0.417798 6.191471 -1.419254
0.443093 6.167138 -1.413552
0.467775 6.138199 -1.407014
0.034258 0.916072 -0.450468
0.036553 0.916461 -0.450435
0.038952 0.917827 -0.450580
0.041215 0.917802 -0.450470
0.043534 0.918262 -0.450449
0.045836 0.918532 -0.450392
0.048328 0.920335 -0.450613
0.050640 0.920561 -0.450547
0.052868 0.920129 -0.450361
0.055209 0.920543 -0.450328
0.057544 0.920868 -0.450279
0.060087 0.922591 -0.450480
0.062402 0.922674 -0.450386
0.064788 0.923198 -0.450370
0.067296 0.924433 -0.450480
0.069686 0.924868 -0.450446
0.072028 0.924973 -0.450353
0.074326 0.924803 -0.450209
0.076780 0.925500 -0.450220
0.079106 0.925441 -0.450095
0.081752 0.927065 -0.450269
0.084433 0.928765 -0.450455
0.086731 0.928434 -0.450279
0.089196 0.928920 -0.450247
0.091801 0.930028 -0.450325
0.094211 0.930154 -0.450227
0.096656 0.930407 -0.450151
0.099306 0.931548 -0.450230
0.102106 0.933273 -0.450411
0.104626 0.933693 -0.450361
0.107069 0.933750 -0.450245
0.109677 0.934455 -0.450243
0.112309 0.935200 -0.450245
0.114765 0.935193 -0.450115
0.117380 0.935773 -0.450087
0.120977 0.940049 -0.450701
0.122688 0.937077 -0.450050
0.125436 0.937989 -0.450075
0.127995 0.938156 -0.449969
0.130380 0.937670 -0.449748
0.133114 0.938383 -0.449734
0.135753 0.938712 -0.449651
0.138829 0.940462 -0.449812
0.141291 0.940094 -0.449607
0.143969 0.940402 -0.449516
0.146523 0.940271 -0.449348
0.149275 0.940731 -0.449280
0.152185 0.941628 -0.449286
0.155155 0.942639 -0.449309
0.157345 0.941250 -0.448920
0.160632 0.943101 -0.449083
0.163373 0.943272 -0.448957
0.166246 0.943778 -0.448887
0.169281 0.944687 -0.448883
0.172049 0.944796 -0.448741
0.174673 0.944469 -0.448525
0.177763 0.945370 -0.448514
0.180669 0.945723 -0.448410
0.183693 0.946341 -0.448348
0.186597 0.946598 -0.448224
0.189466 0.946727 -0.448077
0.192285 0.946696 -0.447902
0.195457 0.947511 -0.447867
0.198351 0.947597 -0.447710
0.201149 0.947426 -0.447509
0.204010 0.947389 -0.447330
0.207113 0.947896 -0.447240
0.210112 0.948135 -0.447106
0.214026 0.950438 -0.447310
0.216717 0.949924 -0.447051
0.219609 0.949862 -0.446866
0.223870 0.952802 -0.447173
0.224124 0.946999 -0.446054
0.227735 0.948524 -0.446131
0.231155 0.949623 -0.446140
0.233959 0.949426 -0.445941
0.237036 0.949823 -0.445839
0.239383 0.948748 -0.445503
0.248426 0.961235 -0.447352
0.521686 1.488766 -0.531594
0.526342 1.486663 -0.530950
0.529025 1.480904 -0.529732
-0.660619 1.444514 -0.580166
-0.660344 1.453463 -0.581870
-0.655983 1.456254 -0.582247
-0.650099 1.456776 -0.582139
-0.646534 1.461119 -0.582855
-0.644829 1.468643 -0.584255
-0.639177 1.469924 -0.584315
-0.632139 1.468997 -0.583906
-0.626215 1.469963 -0.583904
-0.621786 1.473513 -0.584457
-0.616942 1.476458 -0.584882
-0.612481 1.480146 -0.585466
-0.607301 1.482667 -0.585802
-0.601809 1.484693 -0.586033
-0.599942 1.493228 -0.587651
-0.604899 1.514269 -0.591927
-0.619479 1.553357 -0.600029
-0.613751 1.555771 -0.600334
-0.607449 1.557122 -0.600414
-0.602151 1.560354 -0.600893
-0.595596 1.561198 -0.600866
-0.589767 1.563408 -0.601129
-0.586561 1.570751 -0.602476
-0.582198 1.575903 -0.603358
-0.575597 1.576607 -0.603300
-0.570514 1.580338 -0.603880
-0.564256 1.581659 -0.603951
-0.556215 1.579209 -0.603229
-0.553587 1.588049 -0.604881
-0.547244 1.589076 -0.604889
-0.541212 1.590714 -0.605024
-0.538111 1.598741 -0.606498
-0.531810 1.599768 -0.606502
-0.525873 1.601552 -0.606664
-0.521455 1.606756 -0.607541
-0.516177 1.610022 -0.608010
-0.509378 1.609718 -0.607732
-0.505368 1.615938 -0.608815
-0.500074 1.619147 -0.609268
-0.493662 1.619626 -0.609150
-0.486644 1.618530 -0.608704
-0.479318 1.616542 -0.608072
-0.470800 1.611380 -0.606781
-0.467108 1.618436 -0.608027
-0.463506 1.625845 -0.609343
-0.460039 1.633741 -0.610757
-0.452470 1.630739 -0.609911
-0.447230 1.633932 -0.610347
-0.445104 1.645777 -0.612569
-0.436508 1.639683 -0.611083
-0.430693 1.641276 -0.611183
-0.424658 1.642201 -0.611145
-0.419576 1.645885 -0.611674
-0.416938 1.656928 -0.613714
-0.411853 1.660808 -0.614277
-0.406184 1.662935 -0.614479
-0.399504 1.661891 -0.614029
-0.393849 1.664011 -0.614227
-0.390293 1.672942 -0.615818
-0.383424 1.671180 -0.615218
-0.378533 1.675928 -0.615948
-0.374130 1.682443 -0.617036
-0.368956 1.686447 -0.617609
-0.363716 1.690296 -0.618149
-0.355227 1.682522 -0.616321
-0.348480 1.680792 -0.615725
-0.343062 1.683902 -0.616111
-0.337890 1.688009 -0.616698
-0.330895 1.685141 -0.615869
-0.323918 1.682175 -0.615021
-0.296997 1.646979 -0.607172
-0.291488 1.649035 -0.607345
-0.286844 1.654927 -0.608290
-0.282401 1.661938 -0.609456
-0.280895 1.682704 -0.613386
-0.273787 1.678063 -0.612203
-0.268414 1.681504 -0.612644
-0.263041 1.685059 -0.613105
-0.258491 1.692898 -0.614423
-0.253802 1.700369 -0.615663
-0.248875 1.706920 -0.616716
-0.244224 1.715285 -0.618129
-0.237874 1.714541 -0.617720
-0.231187 1.711772 -0.616908
-0.223432 1.702476 -0.614798
-0.221780 1.729797 -0.619973
-0.217584 1.742757 -0.622283
-0.210673 1.738898 -0.621250
-0.204759 1.741406 -0.621481
-0.199687 1.749870 -0.622889
-0.194803 1.760214 -0.624666
-0.185805 1.740776 -0.620553
-0.180544 1.748570 -0.621823
-0.175163 1.755962 -0.623011
-0.167830 1.747704 -0.621113
-0.163357 1.763424 -0.623936
-0.157296 1.766157 -0.624199
-0.149407 1.751848 -0.621115
-0.142184 1.742721 -0.619053
-0.082305 1.226016 -0.517363
-0.077069 1.209107 -0.513893
-0.095414 1.614122 -0.592361
-0.086640 1.652955 -0.599425
-0.081013 1.655760 -0.599718
-0.198302 3.958200 -1.046351
-0.178887 3.904010 -1.035110
-0.129494 3.907274 -1.033567
-0.096771 3.918299 -1.034240
-0.080562 3.934774 -1.036684
-0.063901 3.931637 -1.035347
0.035714 3.943473 -1.033195
0.052573 3.957145 -1.035065
0.070012 3.990939 -1.040766
0.086543 3.979898 -1.037910
0.103911 3.998341 -1.040668
0.122100 4.034417 -1.046769
0.139052 4.032535 -1.045646
0.155878 4.028386 -1.044094
0.172347 4.018017 -1.041363
0.207519 4.039149 -1.043825
0.225366 4.051405 -1.045366
0.393450 6.209434 -1.451584
0.418925 6.184611 -1.445664
0.444660 6.165990 -1.440918
0.469970 6.144360 -1.435613
0.032802 0.923463 -0.454252
0.034619 0.918376 -0.453193
0.036539 0.914827 -0.452424
0.039092 0.917734 -0.452864
0.041354 0.917680 -0.452749
0.043598 0.917463 -0.452603
0.045772 0.916658 -0.452348
0.048177 0.917792 -0.452453
0.050817 0.920694 -0.452886
0.053140 0.920954 -0.452827
0.055345 0.920325 -0.452603
0.057667 0.920554 -0.452537
0.060106 0.921558 -0.452615
0.062637 0.923087 -0.452788
0.064860 0.922534 -0.452576
0.067454 0.924313 -0.452793
0.069840 0.924706 -0.452754
0.072151 0.924626 -0.452628
0.074688 0.925825 -0.452735
0.077262 0.927144 -0.452864
0.079617 0.927190 -0.452758
0.082107 0.927929 -0.452778
0.084448 0.927842 -0.452647
0.086931 0.928452 -0.452642
0.089408 0.928986 -0.452622
0.091897 0.929525 -0.452602
0.094242 0.929345 -0.452450
0.096864 0.930418 -0.452525
0.099572 0.931805 -0.452656
0.102363 0.933474 -0.452836
0.104977 0.934286 -0.452859
0.107538 0.934815 -0.452831
0.109837 0.934214 -0.452597
0.112405 0.934701 -0.452558
0.114946 0.935027 -0.452490
0.117816 0.936592 -0.452642
0.120800 0.938504 -0.452855
0.122834 0.936762 -0.452412
0.125794 0.938451 -0.452582
0.128346 0.938577 -0.452471
0.130797 0.938307 -0.452288
0.133545 0.939049 -0.452284
0.136201 0.939417 -0.452212
0.138776 0.939465 -0.452082
0.141816 0.941013 -0.452216
0.143774 0.938963 -0.451712
0.146880 0.940609 -0.451860
0.149827 0.941663 -0.451902
0.152258 0.941058 -0.451650
0.154994 0.941362 -0.451556
0.157694 0.941512 -0.451434
0.160786 0.942773 -0.451505
0.163471 0.942780 -0.451355
0.166104 0.942603 -0.451171
0.169338 0.944081 -0.451274
0.172156 0.944327 -0.451160
0.174491 0.943213 -0.450810
0.177966 0.945158 -0.450988
0.180497 0.944515 -0.450716
0.183137 0.944139 -0.450490
0.186714 0.946148 -0.450673
0.189465 0.945978 -0.450479
0.192274 0.945926 -0.450305
0.195433 0.946708 -0.450272
0.198859 0.948091 -0.450341
0.201109 0.946592 -0.449916
0.204138 0.946952 -0.449808
0.207298 0.947590 -0.449747
0.210574 0.948462 -0.449725
0.213566 0.948652 -0.449587
0.217326 0.950552 -0.449737
0.219957 0.949894 -0.449455
0.222209 0.948423 -0.449038
0.226298 0.950962 -0.449295
0.227592 0.947479 -0.448543
0.230903 0.948347 -0.448522
0.234064 0.948898 -0.448450
0.235416 0.945735 -0.447760
0.241123 0.951540 -0.448566
0.248638 0.960890 -0.449960
0.523458 1.479470 -0.535123
0.527513 1.476417 -0.534326
-0.659811 1.442461 -0.585245
-0.657928 1.448899 -0.586438
-0.652173 1.449476 -0.586337
-0.652425 1.459697 -0.588365
-0.647222 1.461459 -0.588528
-0.644059 1.466641 -0.589444
-0.636829 1.465340 -0.588936
-0.630432 1.465447 -0.588740
-0.625194 1.467541 -0.588982
-0.620196 1.470121 -0.589331
-0.616489 1.474989 -0.590183
-0.612218 1.479006 -0.590848
-0.606744 1.481019 -0.591076
-0.601685 1.483808 -0.591473
-0.596198 1.485883 -0.591716
-0.619063 1.551918 -0.605681
-0.613517 1.554668 -0.606059
-0.608862 1.559103 -0.606804
-0.602812 1.560950 -0.606986
-0.596967 1.563177 -0.607251
-0.591887 1.566876 -0.607834
-0.587000 1.570977 -0.608504
-0.581266 1.573423 -0.608815
-0.575022 1.574829 -0.608900
-0.570043 1.578762 -0.609532
-0.565356 1.583315 -0.610295
-0.559619 1.585707 -0.610592
-0.554091 1.588514 -0.610976
-0.548701 1.591599 -0.611420
-0.543071 1.594154 -0.611749
-0.538293 1.598556 -0.612474
-0.532724 1.601222 -0.612824
-0.526103 1.601498 -0.612661
-0.521506 1.606307 -0.613468
-0.516236 1.609596 -0.613949
-0.511050 1.613081 -0.614469
-0.504939 1.614370 -0.614519
-0.500252 1.619032 -0.615289
-0.495124 1.622655 -0.615835
-0.487942 1.621211 -0.615298
-0.479650 1.616854 -0.614142
-0.471193 1.611867 -0.612853
-0.463118 1.607641 -0.611728
-0.458405 1.612001 -0.612427
-0.453578 1.616102 -0.613069
-0.449466 1.622168 -0.614126
-0.443861 1.624252 -0.614337
-0.440361 1.632151 -0.615777
-0.433400 1.630476 -0.615190
-0.428842 1.635532 -0.616024
-0.421742 1.633297 -0.615318
-0.416395 1.636080 -0.615670
-0.415023 1.650768 -0.618528
-0.408884 1.651363 -0.618414
-0.402086 1.649871 -0.617861
-0.397967 1.656667 -0.619048
-0.391899 1.657400 -0.618961
-0.386258 1.659475 -0.619154
-0.379140 1.656685 -0.618326
-0.374302 1.661378 -0.619066
-0.370450 1.669540 -0.620528
-0.364710 1.671367 -0.620663
-0.356931 1.665985 -0.619293
-0.352208 1.671355 -0.620166
-0.345699 1.670307 -0.619700
-0.342549 1.681719 -0.621827
-0.336413 1.682136 -0.621663
-0.329278 1.678634 -0.620684
-0.323472 1.680199 -0.620758
-0.316445 1.676836 -0.619810
-0.308227 1.668376 -0.617807
-0.302260 1.668985 -0.617683
-0.296316 1.669663 -0.617573
-0.289596 1.666915 -0.616755
-0.287019 1.682595 -0.619738
-0.282412 1.689617 -0.620931
-0.275789 1.687443 -0.620228
-0.269108 1.684839 -0.619436
-0.263424 1.686975 -0.619620
-0.262116 1.711256 -0.624346
-0.253650 1.699680 -0.621711
-0.248166 1.703286 -0.622190
-0.243687 1.712523 -0.623820
-0.237329 1.711697 -0.623388
-0.229839 1.704260 -0.621607
-0.225721 1.716324 -0.623807
-0.222511 1.734601 -0.627266
-0.214781 1.725536 -0.625153
-0.209343 1.730720 -0.625941
-0.203784 1.735393 -0.626622
-0.197924 1.738242 -0.626931
-0.192988 1.747867 -0.628613
-0.183911 1.727442 -0.624204
-0.179007 1.737533 -0.625978
-0.170875 1.722589 -0.622688
-0.167475 1.745704 -0.627087
-0.161901 1.751893 -0.628062
-0.154348 1.740708 -0.625535
-0.147634 1.736392 -0.624395
-0.140839 1.730807 -0.623001
-0.102132 1.630415 -0.601572
-0.094789 1.607708 -0.596786
-0.214058 3.949630 -1.062459
-0.196836 3.940989 -1.060003
-0.178061 3.898486 -1.050819
-0.161403 3.894895 -1.049379
-0.043181 6.253658 -1.507840
-0.015529 6.231780 -1.502308
0.011960 6.223973 -1.499547
0.070039 3.955706 -1.051041
0.087724 3.992060 -1.057395
0.105648 4.025256 -1.063115
0.122955 4.033383 -1.063934
0.140648 4.048955 -1.066198
0.156769 4.027637 -1.061279
0.289050 6.275509 -1.497234
0.315221 6.248805 -1.490798
0.340430 6.210464 -1.482117
0.367566 6.207074 -1.480218
0.393799 6.191278 -1.475918
0.420786 6.187504 -1.473946
0.446466 6.167747 -1.468888
0.472737 6.157151 -1.465602
0.033041 0.924504 -0.456787
0.035073 0.921658 -0.456133
0.036344 0.911366 -0.454051
0.039021 0.915601 -0.454760
0.041609 0.918631 -0.455237
0.043782 0.917725 -0.454958
0.045982 0.917113 -0.454735
0.048496 0.919102 -0.455009
0.050960 0.920542 -0.455177
0.053264 0.920652 -0.455091
0.055498 0.920228 -0.454903
0.057887 0.920916 -0.454926
0.060446 0.922708 -0.455158
0.062738 0.922603 -0.455029
0.065380 0.924740 -0.455324
0.067715 0.924823 -0.455229
0.070016 0.924679 -0.455090
0.072607 0.926229 -0.455272
0.074670 0.924659 -0.454863
0.077437 0.927071 -0.455205
0.079842 0.927375 -0.455148
0.082187 0.927330 -0.455025
0.085072 0.930050 -0.455421
0.087750 0.931573 -0.455590
0.089996 0.930885 -0.455344
0.092076 0.929413 -0.454951
0.094497 0.929581 -0.454864
0.097455 0.932175 -0.455229
0.100263 0.933958 -0.455441
0.102690 0.933970 -0.455321
0.105092 0.933854 -0.455178
0.107578 0.934066 -0.455094
0.109914 0.933629 -0.454889
0.112449 0.933978 -0.454829
0.115408 0.935965 -0.455070
0.117913 0.936085 -0.454965
0.120576 0.936775 -0.454964
0.123341 0.937785 -0.455021
0.126151 0.938895 -0.455094
0.128213 0.937242 -0.454659
0.131314 0.939286 -0.454901
0.133814 0.939139 -0.454740
0.136408 0.939287 -0.454631
0.139268 0.940284 -0.454677
0.141830 0.940233 -0.454530
0.144295 0.939834 -0.454318
0.147336 0.941246 -0.454434
0.149977 0.941325 -0.454307
0.152655 0.941480 -0.454192
0.155167 0.941088 -0.453977
0.158038 0.941745 -0.453949
0.161039 0.942726 -0.453979
0.163483 0.942030 -0.453705
0.166055 0.941683 -0.453493
0.170196 0.945709 -0.454063
0.173263 0.946610 -0.454071
0.174885 0.943518 -0.453364
0.177575 0.943341 -0.453177
0.180810 0.944577 -0.453241
0.183078 0.943223 -0.452842
0.186929 0.945941 -0.453165
0.189634 0.945648 -0.452952
0.192721 0.946287 -0.452903
0.195984 0.947311 -0.452921
0.199032 0.947757 -0.452835
0.201761 0.947403 -0.452608
0.204788 0.947741 -0.452502
0.207994 0.948465 -0.452462
0.211014 0.948726 -0.452341
0.214080 0.949071 -0.452234
0.217307 0.949758 -0.452187
0.220361 0.950038 -0.452068
0.222822 0.949014 -0.451724
0.226102 0.949785 -0.451692
0.228740 0.949177 -0.451422
0.231847 0.949583 -0.451329
0.234090 0.948199 -0.450929
0.238438 0.951201 -0.451285
0.240811 0.950144 -0.450945
0.246836 0.956488 -0.451875
0.435441 1.325688 -0.514791
0.449660 1.343997 -0.517653
0.463712 1.361675 -0.520403
0.499964 1.421812 -0.530366
-0.664525 1.448921 -0.592244
-0.657964 1.448153 -0.591834
-0.654909 1.452985 -0.592692
-0.648530 1.452732 -0.592401
-0.646020 1.458760 -0.593530
-0.642093 1.462693 -0.594186
-0.634961 1.461533 -0.593694
-0.628981 1.462309 -0.593640
-0.624013 1.464840 -0.593982
-0.620534 1.469973 -0.594909
-0.616067 1.473557 -0.595488
-0.609304 1.473277 -0.595201
-0.605967 1.478971 -0.596254
-0.600492 1.481018 -0.596489
-0.594781 1.482678 -0.596638
-0.595639 1.496210 -0.599440
-0.618439 1.550080 -0.611240
-0.613140 1.553280 -0.611721
-0.608183 1.557148 -0.612350
-0.603436 1.561453 -0.613076
-0.598652 1.565732 -0.613796
-0.592201 1.566822 -0.613806
-0.586647 1.569627 -0.614197
-0.581207 1.572655 -0.614637
-0.575263 1.574668 -0.614852
-0.569882 1.577797 -0.615313
-0.564572 1.581066 -0.615804
-0.559484 1.584797 -0.616397
-0.553788 1.587252 -0.616707
-0.548033 1.589555 -0.616983
-0.543975 1.595501 -0.618061
-0.538304 1.597974 -0.618372
-0.532461 1.600037 -0.618592
-0.526848 1.602580 -0.618917
-0.521351 1.605364 -0.619294
-0.516511 1.609649 -0.620000
-0.511578 1.613738 -0.620660
-0.506415 1.617303 -0.621204
-0.501167 1.620668 -0.621703
-0.494993 1.621777 -0.621708
-0.490890 1.627946 -0.622817
-0.484120 1.627515 -0.622484
-0.472943 1.615783 -0.619689
-0.462678 1.605984 -0.617319
-0.455408 1.603652 -0.616577
-0.449158 1.603873 -0.616390
-0.445026 1.609719 -0.617424
-0.437542 1.606506 -0.616491
-0.432383 1.609557 -0.616917
-0.431943 1.625897 -0.620217
-0.421601 1.614385 -0.617488
-0.420482 1.629183 -0.620447
-0.412866 1.625238 -0.619354
-0.407637 1.628234 -0.619760
-0.403830 1.635574 -0.621100
-0.400190 1.643595 -0.622584
-0.394586 1.645647 -0.622780
-0.388510 1.646190 -0.622652
-0.384251 1.652579 -0.623777
-0.377349 1.650401 -0.623062
-0.371716 1.652341 -0.623231
-0.366349 1.655192 -0.623593
-0.359123 1.651623 -0.622581
-0.353419 1.653249 -0.622680
-0.348720 1.658490 -0.623550
-0.341690 1.655318 -0.622623
-0.338880 1.667734 -0.625018
-0.328291 1.650948 -0.621193
-0.326002 1.665676 -0.624075
-0.320955 1.670011 -0.624743
-0.314618 1.669256 -0.624329
-0.307969 1.667135 -0.623626
-0.302136 1.668303 -0.623619
-0.296163 1.668870 -0.623485
-0.290662 1.671483 -0.623783
-0.286173 1.678706 -0.625053
-0.281251 1.684220 -0.625959
-0.275229 1.684774 -0.625817
-0.269109 1.684838 -0.625572
-0.262325 1.681580 -0.624628
-0.255326 1.677038 -0.623415
-0.250480 1.683357 -0.624483
-0.246115 1.692517 -0.626145
-0.238968 1.686957 -0.624719
-0.233487 1.690377 -0.625174
-0.229219 1.700927 -0.627119
-0.226359 1.720387 -0.630919
-0.218447 1.710145 -0.628514
-0.211559 1.705668 -0.627315
-0.204976 1.702843 -0.626462
-0.200195 1.711857 -0.628072
-0.193023 1.704890 -0.626358
-0.180805 1.705096 -0.625869
-0.175124 1.708433 -0.626295
-0.169103 1.709276 -0.626203
-0.163222 1.711302 -0.626354
-0.156301 1.704462 -0.624674
-0.153352 1.732855 -0.630267
-0.146581 1.727692 -0.628930
-0.139736 1.721262 -0.627335
-0.101093 1.618965 -0.605026
-0.094358 1.603953 -0.601704
-0.212803 3.937140 -1.076984
-0.194909 3.915052 -1.071742
-0.177571 3.899884 -1.067919
-0.160690 3.891707 -1.065523
-0.153220 6.273717 -1.545041
-0.097505 6.264984 -1.540798
-0.069705 6.258568 -1.538265
0.013219 6.227000 -1.528196
0.094910 6.181534 -1.515372
0.121726 6.161516 -1.510133
0.090502 4.061327 -1.088463
0.107105 4.043076 -1.084038
0.124012 4.037706 -1.082193
0.234345 6.255328 -1.523951
0.261868 6.253613 -1.522360
0.289309 6.250658 -1.520521
0.315954 6.234106 -1.515977
0.342491 6.218377 -1.511602
0.366528 6.166904 -1.500138
0.394186 6.173688 -1.500244
0.421629 6.176732 -1.499605
0.448329 6.170086 -1.497045
0.473757 6.149145 -1.491660
0.033095 0.923477 -0.458927
0.034787 0.917051 -0.457554
0.036759 0.914075 -0.456864
0.039475 0.918524 -0.457635
0.041794 0.918920 -0.457608
