ply
format ascii 1.0
comment ---
element vertex 1649
property float x
property float y
property float z
element face 0
property list uchar uint vertex_indices
end_header
-0.306379 1.423371 -0.585117
-0.304330 1.421445 -0.585464
-0.302658 1.419005 -0.584875
-0.300919 1.416672 -0.584475
-0.299062 1.414507 -0.584381
-0.297022 1.412585 -0.584743
-0.295199 1.410386 -0.584587
-0.293409 1.408154 -0.584367
-0.291643 1.405900 -0.584103
-0.289833 1.403709 -0.583956
-0.288389 1.401088 -0.582972
-0.286597 1.398896 -0.582814
-0.284723 1.396804 -0.582854
-0.283090 1.394441 -0.582356
-0.281276 1.392293 -0.582283
-0.279518 1.390086 -0.582093
-0.277670 1.387983 -0.582112
-0.275912 1.385786 -0.581941
-0.274331 1.383409 -0.581394
-0.272430 1.381372 -0.581556
-0.270388 1.379477 -0.582023
-0.268797 1.377128 -0.581531
-0.267027 1.374964 -0.581431
-0.265215 1.372842 -0.581426
-0.263405 1.370720 -0.581424
-0.261936 1.368282 -0.580725
-0.260323 1.365987 -0.580337
-0.258131 1.364219 -0.581137
-0.256066 1.362327 -0.581673
-0.254443 1.360045 -0.581325
-0.253448 1.357230 -0.579737
-0.251357 1.355359 -0.580340
-0.249706 1.353115 -0.580077
-0.247848 1.351044 -0.580228
-0.246247 1.348764 -0.579882
-0.244366 1.346708 -0.580085
-0.242669 1.344507 -0.579938
-0.241008 1.342279 -0.579731
-0.239444 1.339980 -0.579346
-0.236659 1.338581 -0.581257
-0.235222 1.336183 -0.580641
-0.233801 1.333780 -0.580007
-0.231417 1.332053 -0.581154
-0.229880 1.329730 -0.580744
-0.227689 1.327850 -0.581530
-0.225728 1.325804 -0.581894
-0.224199 1.323472 -0.581486
-0.223002 1.320929 -0.580492
-0.221207 1.318771 -0.580574
-0.219391 1.316621 -0.580695
-0.217434 1.314551 -0.581065
-0.215589 1.312406 -0.581237
-0.213975 1.310121 -0.581012
-0.212632 1.307680 -0.580327
-0.210591 1.305635 -0.580846
-0.208982 1.303340 -0.580626
-0.207811 1.300809 -0.579673
-0.206056 1.298592 -0.579714
-0.203965 1.296543 -0.580317
-0.202478 1.294176 -0.579913
-0.200452 1.292075 -0.580405
-0.198868 1.289748 -0.580168
-0.197843 1.287151 -0.579023
-0.195197 1.285318 -0.580523
-0.193676 1.282948 -0.580193
-0.192966 1.280211 -0.578566
-0.191116 1.277988 -0.578779
-0.189297 1.275741 -0.578940
-0.187610 1.273430 -0.578892
-0.185961 1.271098 -0.578786
-0.184758 1.268580 -0.577983
-0.183235 1.266191 -0.577688
-0.181733 1.263789 -0.577363
-0.179896 1.261509 -0.577558
-0.177429 1.259449 -0.578713
-0.176022 1.256991 -0.578243
-0.174101 1.254709 -0.578556
-0.172414 1.252338 -0.578512
-0.171258 1.249785 -0.577671
-0.169398 1.247461 -0.577888
-0.167655 1.245090 -0.577928
-0.165486 1.242841 -0.578593
-0.164576 1.240208 -0.577402
-0.163378 1.237665 -0.576641
-0.161071 1.235432 -0.577499
-0.160690 1.232666 -0.575558
-0.158199 1.230468 -0.576672
-0.156550 1.228040 -0.576564
-0.154898 1.225610 -0.576459
-0.153127 1.223207 -0.576520
-0.150965 1.220891 -0.577130
-0.149795 1.218347 -0.576334
-0.148473 1.215844 -0.575755
-0.146573 1.213467 -0.575981
-0.145076 1.211010 -0.575642
-0.141763 1.208906 -0.577805
-0.140362 1.206432 -0.577320
-0.138388 1.204069 -0.577615
-0.136309 1.201729 -0.578046
-0.134429 1.199360 -0.578197
-0.133195 1.196899 -0.577473
-0.131210 1.194568 -0.577755
-0.128936 1.192288 -0.578415
-0.127387 1.189919 -0.578102
-0.125492 1.187613 -0.578242
-0.123227 1.185367 -0.578863
-0.121880 1.183030 -0.578272
-0.120984 1.180671 -0.577093
-0.119469 1.178408 -0.576723
-0.116354 1.176325 -0.578418
-0.115137 1.174081 -0.577654
-0.113517 1.171903 -0.577409
-0.111211 1.169809 -0.578034
-0.109197 1.167715 -0.578283
-0.109631 1.165486 -0.575437
-0.106936 1.163502 -0.576545
-0.104807 1.161507 -0.576934
-0.102861 1.159532 -0.577089
-0.101675 1.157551 -0.576301
-0.100286 1.155617 -0.575769
-0.098508 1.153733 -0.575722
-0.096773 1.151880 -0.575621
-0.095869 1.150038 -0.574511
-0.093901 1.148260 -0.574703
-0.090824 1.146532 -0.576231
-0.087850 1.144825 -0.577626
-0.502582 1.584076 -0.544703
-0.500948 1.585039 -0.548025
-0.499243 1.586830 -0.552273
-0.497506 1.587511 -0.555369
-0.495773 1.586218 -0.556362
-0.493950 1.586520 -0.559103
-0.492054 1.587393 -0.562498
-0.490094 1.588444 -0.566126
-0.488118 1.588571 -0.568770
-0.486105 1.588405 -0.571116
-0.484006 1.588913 -0.574239
-0.481875 1.589043 -0.576969
-0.479691 1.589182 -0.579737
-0.477475 1.589046 -0.582219
-0.475190 1.589183 -0.585037
-0.472865 1.589179 -0.587720
-0.471205 1.580798 -0.580781
-0.469248 1.576146 -0.578081
-0.466961 1.574988 -0.579416
-0.464615 1.574089 -0.581063
-0.462214 1.573390 -0.582958
-0.459917 1.571453 -0.583403
-0.457725 1.568474 -0.582608
-0.455317 1.567181 -0.583815
-0.452946 1.565421 -0.584465
-0.450685 1.562745 -0.584010
-0.448420 1.560067 -0.583540
-0.445982 1.558538 -0.584460
-0.443429 1.557645 -0.586166
-0.440974 1.556021 -0.586979
-0.438513 1.554367 -0.587756
-0.436033 1.552769 -0.588603
-0.433534 1.551224 -0.589520
-0.431183 1.548857 -0.589401
-0.428801 1.546675 -0.589507
-0.426236 1.545403 -0.590769
-0.423879 1.543097 -0.590709
-0.421834 1.539386 -0.588829
-0.419329 1.537851 -0.589744
-0.416545 1.537507 -0.592217
-0.413941 1.536327 -0.593613
-0.411633 1.533915 -0.593392
-0.409345 1.531472 -0.593120
-0.407029 1.529186 -0.593048
-0.404750 1.526801 -0.592835
-0.402418 1.524651 -0.592932
-0.399960 1.522984 -0.593679
-0.397610 1.520950 -0.593927
-0.395561 1.517938 -0.592829
-0.393371 1.515464 -0.592456
-0.391019 1.513550 -0.592851
-0.388749 1.511405 -0.592923
-0.386814 1.508279 -0.591611
-0.384478 1.506413 -0.592061
-0.382303 1.504100 -0.591876
-0.380110 1.501876 -0.591812
-0.377581 1.500611 -0.593124
-0.375658 1.497702 -0.592064
-0.373246 1.496141 -0.592955
-0.371091 1.493918 -0.592880
-0.368960 1.491665 -0.592757
-0.366570 1.490079 -0.593619
-0.364795 1.487007 -0.592269
-0.362594 1.485006 -0.592509
-0.360319 1.483193 -0.593033
-0.359057 1.479086 -0.590066
-0.356861 1.477159 -0.590401
-0.354916 1.474696 -0.589911
-0.353053 1.472088 -0.589187
-0.350936 1.470050 -0.589343
-0.348992 1.467670 -0.588960
-0.347017 1.465381 -0.588714
-0.344796 1.463599 -0.589271
-0.342621 1.461733 -0.589698
-0.340555 1.459661 -0.589798
-0.338818 1.456988 -0.588920
-0.336852 1.454769 -0.588771
-0.334910 1.452523 -0.588575
-0.332903 1.450410 -0.588597
-0.331030 1.448075 -0.588245
-0.329692 1.444846 -0.586384
-0.327688 1.442784 -0.586474
-0.326018 1.440181 -0.585640
-0.324168 1.437897 -0.585344
-0.322225 1.435776 -0.585322
-0.320636 1.433111 -0.584354
-0.319004 1.430540 -0.583536
-0.317014 1.428536 -0.583707
-0.315255 1.426192 -0.583275
-0.314014 1.423108 -0.581512
-0.311117 1.422441 -0.584087
-0.309202 1.420348 -0.584106
-0.307177 1.418413 -0.584415
-0.305142 1.416492 -0.584756
-0.303201 1.414446 -0.584870
-0.301370 1.412258 -0.584720
-0.299311 1.410374 -0.585141
-0.297380 1.408324 -0.585256
-0.295982 1.405609 -0.584094
-0.294174 1.403425 -0.583945
-0.292659 1.400892 -0.583112
-0.290847 1.398731 -0.582999
-0.289015 1.396600 -0.582945
-0.286949 1.394743 -0.583440
-0.285332 1.392372 -0.582908
-0.283678 1.390054 -0.582478
-0.281228 1.388619 -0.583853
-0.279412 1.386481 -0.583799
-0.277508 1.384440 -0.583949
-0.276128 1.381852 -0.582954
-0.274274 1.379768 -0.583015
-0.272464 1.377640 -0.582985
-0.270862 1.375309 -0.582517
-0.269273 1.372974 -0.582037
-0.267579 1.370747 -0.581791
-0.265904 1.368509 -0.581516
-0.264435 1.366083 -0.580821
-0.262399 1.364187 -0.581316
-0.260599 1.362073 -0.581326
-0.258803 1.359955 -0.581331
-0.257259 1.357618 -0.580833
-0.255649 1.355345 -0.580482
-0.254021 1.353092 -0.580175
-0.251975 1.351188 -0.580706
-0.250504 1.348810 -0.580104
-0.248758 1.346659 -0.580053
-0.246887 1.344606 -0.580250
-0.244796 1.342720 -0.580873
-0.243002 1.340598 -0.580925
-0.242624 1.337419 -0.578284
-0.240820 1.335319 -0.578381
-0.238083 1.333887 -0.580229
-0.236167 1.331849 -0.580530
-0.234337 1.329744 -0.580670
-0.233882 1.326697 -0.578279
-0.231521 1.324956 -0.579410
-0.228891 1.323376 -0.581022
-0.227072 1.321248 -0.581151
-0.225778 1.318780 -0.580338
-0.224224 1.316483 -0.580004
-0.222258 1.314438 -0.580407
-0.220396 1.312323 -0.580627
-0.217900 1.310575 -0.581957
-0.216436 1.308209 -0.581478
-0.215084 1.305781 -0.580812
-0.213180 1.303665 -0.581108
-0.211631 1.301346 -0.580796
-0.210570 1.298765 -0.579658
-0.209193 1.296358 -0.579070
-0.206889 1.294432 -0.580053
-0.205002 1.292278 -0.580330
-0.203662 1.289844 -0.579693
-0.202483 1.287334 -0.578800
-0.200030 1.285434 -0.580015
-0.198062 1.283288 -0.580426
-0.196646 1.280879 -0.579934
-0.195136 1.278512 -0.579602
-0.193821 1.276057 -0.578960
-0.192330 1.273678 -0.578608
-0.190786 1.271319 -0.578345
-0.188874 1.269106 -0.578670
-0.187055 1.266845 -0.578844
-0.185742 1.264378 -0.578224
-0.184136 1.262022 -0.578067
-0.181891 1.259898 -0.578904
-0.180189 1.257560 -0.578893
-0.178229 1.255307 -0.579278
-0.176491 1.252965 -0.579318
-0.175253 1.250449 -0.578600
-0.173546 1.248087 -0.578595
-0.172050 1.245652 -0.578273
-0.169953 1.243398 -0.578850
-0.167940 1.241107 -0.579296
-0.166999 1.238492 -0.578147
-0.165904 1.235929 -0.577235
-0.164707 1.233398 -0.576478
-0.162942 1.231022 -0.576556
-0.161511 1.228556 -0.576145
-0.159393 1.226261 -0.576727
-0.158383 1.223690 -0.575706
-0.155402 1.221588 -0.577511
-0.153671 1.219182 -0.577515
-0.152241 1.216711 -0.577090
-0.151003 1.214204 -0.576392
-0.149531 1.211753 -0.576025
-0.147495 1.209419 -0.576445
-0.146515 1.206887 -0.575388
-0.144612 1.204537 -0.575611
-0.141448 1.202409 -0.577565
-0.137087 1.200467 -0.581133
-0.137098 1.197803 -0.578700
-0.135361 1.195441 -0.578657
-0.134007 1.193036 -0.578091
-0.132613 1.190656 -0.577580
-0.130057 1.188448 -0.578622
-0.128093 1.186173 -0.578860
-0.125709 1.183964 -0.579648
-0.124383 1.181649 -0.579026
-0.123657 1.179299 -0.577619
-0.122133 1.177063 -0.577261
-0.119636 1.174945 -0.578170
-0.117316 1.172828 -0.578836
-0.116147 1.170638 -0.578008
-0.114659 1.168507 -0.577594
-0.112950 1.166422 -0.577462
-0.111519 1.164351 -0.576975
-0.109147 1.162368 -0.577682
-0.107790 1.160355 -0.577101
-0.106414 1.158379 -0.576549
-0.104866 1.156446 -0.576215
-0.103836 1.154527 -0.575240
-0.102486 1.152658 -0.574670
-0.100351 1.150848 -0.575072
-0.098662 1.149055 -0.574924
-0.097464 1.147285 -0.574180
-0.094268 1.145584 -0.575874
-0.503722 1.583028 -0.546949
-0.502112 1.584041 -0.550349
-0.500451 1.584949 -0.553673
-0.498760 1.584881 -0.555974
-0.497015 1.585052 -0.558562
-0.495279 1.583352 -0.559126
-0.493397 1.584859 -0.563233
-0.491468 1.586011 -0.566989
-0.489503 1.586625 -0.570186
-0.487516 1.586540 -0.572634
-0.485485 1.586365 -0.575006
-0.483287 1.588259 -0.579741
-0.481173 1.587689 -0.581724
-0.479022 1.587004 -0.583595
-0.476822 1.586397 -0.585573
-0.474715 1.584002 -0.585506
-0.473063 1.575763 -0.578654
-0.470875 1.574131 -0.579432
-0.468643 1.572663 -0.580407
-0.466289 1.572133 -0.582493
-0.463912 1.571442 -0.584406
-0.461624 1.569623 -0.584989
-0.459507 1.566134 -0.583573
-0.457170 1.564451 -0.584309
-0.454749 1.563282 -0.585670
-0.452549 1.560261 -0.584783
-0.450268 1.557829 -0.584602
-0.447889 1.556023 -0.585182
-0.445453 1.554510 -0.586122
-0.442916 1.553544 -0.587746
-0.440550 1.551421 -0.587933
-0.438058 1.550009 -0.589008
-0.435534 1.548711 -0.590232
-0.433090 1.546916 -0.590829
-0.430748 1.544569 -0.590719
-0.428483 1.541853 -0.590127
-0.426092 1.539803 -0.590380
-0.423635 1.538071 -0.591043
-0.421096 1.536705 -0.592185
-0.418575 1.535233 -0.593192
-0.416251 1.532910 -0.593078
-0.414071 1.530029 -0.592213
-0.411835 1.527444 -0.591728
-0.409539 1.525148 -0.591620
-0.407104 1.523422 -0.592274
-0.404502 1.522317 -0.593776
-0.402024 1.520743 -0.594646
-0.399653 1.518801 -0.595015
-0.397474 1.516228 -0.594507
-0.395393 1.513388 -0.593615
-0.393067 1.511404 -0.593908
-0.390752 1.509408 -0.594182
-0.388746 1.506492 -0.593150
-0.386858 1.503291 -0.591692
-0.384582 1.501301 -0.591953
-0.382265 1.499452 -0.592413
-0.380092 1.497217 -0.592317
-0.377949 1.494933 -0.592141
-0.375693 1.492984 -0.592454
-0.373376 1.491211 -0.593025
-0.371085 1.489381 -0.593516
-0.369302 1.486301 -0.592137
-0.367159 1.484160 -0.592154
-0.364941 1.482220 -0.592471
-0.362968 1.479724 -0.591943
-0.360932 1.477408 -0.591679
-0.358953 1.474992 -0.591257
-0.356956 1.472646 -0.590934
-0.355158 1.469901 -0.589980
-0.353327 1.467268 -0.589188
-0.351355 1.464964 -0.588907
-0.349070 1.463322 -0.589675
-0.347187 1.460876 -0.589161
-0.345232 1.458598 -0.588909
-0.342788 1.457279 -0.590214
-0.340852 1.454991 -0.589945
-0.339132 1.452322 -0.589045
-0.336905 1.450606 -0.589713
-0.334680 1.448885 -0.590381
-0.333940 1.444566 -0.586682
-0.331644 1.443009 -0.587615
-0.329740 1.440782 -0.587415
-0.328192 1.437981 -0.586226
-0.326373 1.435657 -0.585843
-0.324349 1.433676 -0.586054
-0.323360 1.430076 -0.583424
-0.321057 1.428564 -0.584449
-0.319096 1.426522 -0.584546
-0.317376 1.424127 -0.584009
-0.315438 1.422070 -0.584075
-0.313509 1.420005 -0.584130
-0.311314 1.418323 -0.584887
-0.309712 1.415809 -0.584118
-0.308124 1.413296 -0.583340
-0.306169 1.411296 -0.583513
-0.303967 1.409627 -0.584315
-0.301952 1.407704 -0.584649
-0.300633 1.404893 -0.583278
-0.299442 1.401948 -0.581630
-0.297181 1.400359 -0.582604
-0.294958 1.398711 -0.583480
-0.293074 1.396649 -0.583548
-0.291248 1.394519 -0.583485
-0.289499 1.392306 -0.583254
-0.287567 1.390309 -0.583459
-0.285914 1.387999 -0.583030
-0.284113 1.385862 -0.582953
-0.281096 1.385044 -0.585629
-0.279877 1.382274 -0.584245
-0.278065 1.380148 -0.584208
-0.276349 1.377926 -0.583968
-0.274443 1.375902 -0.584154
-0.272951 1.373466 -0.583448
-0.271561 1.370941 -0.582537
-0.269914 1.368680 -0.582198
-0.268390 1.366308 -0.581609
-0.266337 1.364438 -0.582149
-0.264473 1.362388 -0.582294
-0.262776 1.360186 -0.582094
-0.260943 1.358109 -0.582185
-0.259231 1.355924 -0.582031
-0.257569 1.353699 -0.581785
-0.256113 1.351304 -0.581132
-0.254232 1.349270 -0.581346
-0.252448 1.347153 -0.581367
-0.250760 1.344959 -0.581205
-0.248927 1.342881 -0.581335
-0.247033 1.340846 -0.581585
-0.245923 1.338213 -0.580323
-0.244501 1.335827 -0.579679
-0.242589 1.333808 -0.579986
-0.240704 1.331764 -0.580241
-0.238706 1.329793 -0.580708
-0.237508 1.327260 -0.579679
-0.236175 1.324829 -0.578917
-0.234070 1.322923 -0.579594
-0.231844 1.321086 -0.580491
-0.230197 1.318860 -0.580323
-0.228467 1.316686 -0.580311
-0.227285 1.314167 -0.579316
-0.225968 1.311741 -0.578578
-0.223767 1.309850 -0.579427
-0.221522 1.307971 -0.580346
-0.219819 1.305762 -0.580303
-0.218607 1.303273 -0.579407
-0.216953 1.301036 -0.579291
-0.216002 1.298412 -0.577965
-0.214112 1.296302 -0.578270
-0.211737 1.294437 -0.579403
-0.209847 1.292304 -0.579702
-0.208008 1.290136 -0.579912
-0.206435 1.287830 -0.579677
-0.204339 1.285773 -0.580319
-0.202145 1.283748 -0.581119
-0.200953 1.281245 -0.580257
-0.199124 1.279034 -0.580453
-0.197684 1.276642 -0.580011
-0.196788 1.274013 -0.578694
-0.195488 1.271564 -0.578043
-0.193659 1.269336 -0.578250
-0.191605 1.267189 -0.578816
-0.189659 1.264986 -0.579204
-0.188105 1.262619 -0.578969
-0.186633 1.260219 -0.578608
-0.184663 1.257998 -0.579030
-0.182300 1.255906 -0.580058
-0.180638 1.253550 -0.579989
-0.179422 1.251037 -0.579234
-0.177502 1.248759 -0.579566
-0.176499 1.246174 -0.578494
-0.175402 1.243625 -0.577574
-0.172626 1.241593 -0.579195
-0.171226 1.239128 -0.578733
-0.170137 1.236572 -0.577808
-0.169897 1.233785 -0.575629
-0.166929 1.231758 -0.577503
-0.165601 1.229274 -0.576942
-0.163338 1.227031 -0.577753
-0.162370 1.224456 -0.576666
-0.161268 1.221923 -0.575779
-0.159982 1.219441 -0.575163
-0.156268 1.217506 -0.578036
-0.155011 1.215011 -0.577364
-0.153686 1.212539 -0.576793
-0.152011 1.210146 -0.576715
-0.150165 1.207789 -0.576876
-0.148461 1.205410 -0.576830
-0.146797 1.203029 -0.576724
-0.144218 1.200813 -0.577882
-0.142220 1.198498 -0.578221
-0.139149 1.196357 -0.580027
-0.137531 1.193994 -0.579822
-0.136059 1.191625 -0.579414
-0.134381 1.189302 -0.579284
-0.133471 1.186899 -0.578112
-0.130238 1.184806 -0.580065
-0.128210 1.182575 -0.580385
-0.126710 1.180305 -0.579993
-0.125810 1.177998 -0.578805
-0.124516 1.175764 -0.578144
-0.121774 1.173690 -0.579382
-0.119690 1.171575 -0.579746
-0.118318 1.169428 -0.579176
-0.117320 1.167286 -0.578126
-0.115678 1.165224 -0.577911
-0.113242 1.163242 -0.578712
-0.112641 1.161180 -0.577163
-0.111048 1.159211 -0.576886
-0.109435 1.157276 -0.576636
-0.107974 1.155368 -0.576195
-0.106866 1.153481 -0.575315
-0.104933 1.151658 -0.575474
-0.102229 1.149885 -0.576586
-0.101865 1.148083 -0.574800
-0.100306 1.146347 -0.574500
-0.503269 1.582504 -0.552088
-0.501650 1.582475 -0.554415
-0.499976 1.582960 -0.557328
-0.498253 1.583403 -0.560229
-0.496500 1.583122 -0.562361
-0.494720 1.582255 -0.563866
-0.492835 1.583151 -0.567354
-0.490880 1.584395 -0.571270
-0.488923 1.584349 -0.573772
-0.486881 1.585009 -0.577101
-0.484771 1.585897 -0.580723
-0.482633 1.586279 -0.583802
-0.480485 1.585955 -0.586099
-0.478390 1.584179 -0.586739
-0.476734 1.575988 -0.579928
-0.474713 1.572900 -0.579003
-0.472506 1.571847 -0.580456
-0.470279 1.570624 -0.581719
-0.468069 1.568867 -0.582357
-0.465681 1.568640 -0.584823
-0.463470 1.566348 -0.584832
-0.461201 1.564422 -0.585277
-0.458910 1.562520 -0.585750
-0.456657 1.560162 -0.585665
-0.454345 1.558182 -0.586035
-0.452075 1.555787 -0.585892
-0.449705 1.554044 -0.586547
-0.447336 1.552198 -0.587073
-0.444907 1.550670 -0.587997
-0.442471 1.549098 -0.588867
-0.440183 1.546580 -0.588540
-0.437685 1.545271 -0.589744
-0.435292 1.543319 -0.590128
-0.432981 1.540911 -0.589922
-0.430646 1.538649 -0.589894
-0.428152 1.537193 -0.590908
-0.425571 1.536117 -0.592425
-0.423183 1.534095 -0.592705
-0.420692 1.532554 -0.593617
-0.418487 1.529754 -0.592855
-0.416249 1.527165 -0.592360
-0.413791 1.525519 -0.593124
-0.411709 1.522394 -0.591883
-0.409365 1.520359 -0.592109
-0.406870 1.518912 -0.593137
-0.404213 1.518046 -0.594973
-0.401829 1.516181 -0.595438
-0.399707 1.513433 -0.594670
-0.397473 1.511125 -0.594505
-0.395022 1.509561 -0.595383
-0.392721 1.507524 -0.595596
-0.390933 1.503929 -0.593577
-0.388748 1.501631 -0.593395
-0.386615 1.499219 -0.593041
-0.384400 1.497083 -0.593081
-0.382186 1.494975 -0.593157
-0.379990 1.492846 -0.593199
-0.378050 1.490054 -0.592256
-0.376146 1.487224 -0.591239
-0.373962 1.485171 -0.591373
-0.371640 1.483484 -0.592058
-0.369701 1.480863 -0.591329
-0.367532 1.478840 -0.591502
-0.365267 1.477061 -0.592049
-0.363075 1.475121 -0.592351
-0.361137 1.472620 -0.591781
-0.359131 1.470304 -0.591491
-0.357360 1.467507 -0.590436
-0.355514 1.464914 -0.589688
-0.353302 1.463122 -0.590210
-0.351290 1.460926 -0.590085
-0.349194 1.458916 -0.590259
-0.347385 1.456355 -0.589535
-0.345654 1.453676 -0.588606
-0.343441 1.451944 -0.589230
-0.341185 1.450294 -0.589995
-0.339674 1.447282 -0.588489
-0.338451 1.443800 -0.586167
-0.336318 1.441979 -0.586635
-0.334008 1.440467 -0.587635
-0.332175 1.438135 -0.587237
-0.330287 1.435915 -0.587028
-0.328100 1.434196 -0.587690
-0.326567 1.431426 -0.586511
-0.324461 1.429592 -0.586974
-0.322642 1.427314 -0.586652
-0.321028 1.424737 -0.585787
-0.319271 1.422400 -0.585343
-0.317359 1.420308 -0.585341
-0.315223 1.418547 -0.585946
-0.313576 1.416085 -0.585264
-0.311772 1.413864 -0.585021
-0.310286 1.411217 -0.583973
-0.308288 1.409286 -0.584267
-0.306451 1.407141 -0.584159
-0.304813 1.404745 -0.583565
-0.303217 1.402310 -0.582889
-0.301918 1.399518 -0.581504
-0.299575 1.398048 -0.582704
-0.297414 1.396339 -0.583451
-0.295264 1.394609 -0.584170
-0.293738 1.392137 -0.583401
-0.291904 1.390036 -0.583381
-0.289983 1.388039 -0.583574
-0.288121 1.385976 -0.583636
-0.286247 1.383929 -0.583735
-0.284052 1.382230 -0.584569
-0.282267 1.380084 -0.584473
-0.280821 1.377587 -0.583625
-0.278451 1.376057 -0.584857
-0.276894 1.373686 -0.584279
-0.275193 1.371470 -0.584035
-0.273645 1.369108 -0.583467
-0.272065 1.366788 -0.582985
-0.270312 1.364640 -0.582889
-0.268586 1.362469 -0.582741
-0.266706 1.360442 -0.582928
-0.264845 1.358396 -0.583078
-0.262808 1.356503 -0.583599
-0.261011 1.354396 -0.583624
-0.259435 1.352098 -0.583200
-0.257975 1.349709 -0.582551
-0.257108 1.346839 -0.580720
-0.254542 1.345373 -0.582328
-0.252761 1.343259 -0.582356
-0.250998 1.341129 -0.582353
-0.249299 1.338949 -0.582230
-0.247759 1.336648 -0.581801
-0.246037 1.334487 -0.581736
-0.244420 1.332250 -0.581476
-0.243298 1.329658 -0.580276
-0.241980 1.327218 -0.579467
-0.240012 1.325238 -0.579904
-0.237905 1.323344 -0.580598
-0.235811 1.321430 -0.581264
-0.234293 1.319127 -0.580859
-0.232585 1.316948 -0.580812
-0.230882 1.314764 -0.580760
-0.229216 1.312554 -0.580645
-0.228136 1.309985 -0.579476
-0.226513 1.307752 -0.579301
-0.224708 1.305624 -0.579456
-0.223777 1.302987 -0.578060
-0.221152 1.301319 -0.579674
-0.219772 1.298938 -0.579087
-0.218284 1.296618 -0.578699
-0.216550 1.294429 -0.578745
-0.214748 1.292271 -0.578910
-0.212737 1.290211 -0.579432
-0.211085 1.287960 -0.579341
-0.209608 1.285620 -0.578957
-0.207956 1.283362 -0.578873
-0.206786 1.280872 -0.577983
-0.205149 1.278602 -0.577884
-0.201906 1.277050 -0.580449
-0.201545 1.274193 -0.578238
-0.200021 1.271856 -0.577959
-0.198740 1.269413 -0.577286
-0.196775 1.267254 -0.577732
-0.194233 1.265314 -0.579105
-0.192324 1.263103 -0.579446
-0.190831 1.260722 -0.579123
-0.189624 1.258231 -0.578347
-0.188972 1.255539 -0.576704
-0.186155 1.253630 -0.578478
-0.183444 1.251657 -0.580067
-0.182038 1.249218 -0.579611
-0.181144 1.246610 -0.578367
-0.181035 1.243759 -0.575929
-0.178039 1.241827 -0.577930
-0.175789 1.239642 -0.578773
-0.174137 1.237265 -0.578700
-0.173132 1.234700 -0.577651
-0.172390 1.232069 -0.576216
-0.171246 1.229557 -0.575391
-0.168584 1.227447 -0.576825
-0.166600 1.225146 -0.577242
-0.164737 1.222809 -0.577471
-0.164218 1.220150 -0.575730
-0.163084 1.217650 -0.574896
-0.159802 1.215632 -0.577177
-0.158202 1.213233 -0.577007
-0.156381 1.210883 -0.577150
-0.154628 1.208521 -0.577191
-0.153258 1.206091 -0.576681
-0.151068 1.203820 -0.577330
-0.149259 1.201483 -0.577431
-0.147603 1.199128 -0.577312
-0.145544 1.196848 -0.577749
-0.142601 1.194709 -0.579401
-0.139427 1.192599 -0.581349
-0.137843 1.190263 -0.581092
-0.137939 1.187725 -0.578535
-0.133848 1.185751 -0.581689
-0.132843 1.183400 -0.580633
-0.131482 1.181118 -0.580058
-0.128991 1.178982 -0.581000
-0.127341 1.176776 -0.580804
-0.126641 1.174507 -0.579346
-0.125702 1.172296 -0.578210
-0.121785 1.170364 -0.580999
-0.120708 1.168219 -0.580040
-0.119762 1.166101 -0.578915
-0.119658 1.163966 -0.576705
-0.117826 1.161981 -0.576744
-0.115139 1.160070 -0.577879
-0.113211 1.158144 -0.578032
-0.111690 1.156229 -0.577661
-0.110860 1.154320 -0.576418
-0.109105 1.152483 -0.576353
-0.107566 1.150671 -0.576019
-0.105960 1.148893 -0.575770
-0.104732 1.147141 -0.575054
-0.102931 1.145432 -0.575056
-0.502843 1.578895 -0.553920
-0.501167 1.581458 -0.559129
-0.499463 1.582257 -0.562441
-0.497747 1.581429 -0.563980
-0.495990 1.580655 -0.565597
-0.494119 1.582044 -0.569661
-0.492235 1.582164 -0.572334
-0.490294 1.582475 -0.575254
-0.488205 1.584863 -0.580573
-0.486182 1.584549 -0.582847
-0.484113 1.584210 -0.585116
-0.482030 1.583326 -0.586775
-0.480356 1.575538 -0.580409
-0.478427 1.571800 -0.578714
-0.476319 1.570291 -0.579622
-0.474143 1.569239 -0.581077
-0.471975 1.567665 -0.581922
-0.469812 1.565727 -0.582338
-0.467554 1.564525 -0.583636
-0.465302 1.562951 -0.584493
-0.463016 1.561464 -0.585461
-0.460705 1.559973 -0.586427
-0.458547 1.557014 -0.585594
-0.456309 1.554653 -0.585483
-0.453935 1.553243 -0.586545
-0.451507 1.552075 -0.587914
-0.449167 1.550148 -0.588337
-0.446784 1.548437 -0.589031
-0.444494 1.546055 -0.588872
-0.442128 1.544123 -0.589278
-0.439824 1.541793 -0.589170
-0.437424 1.539999 -0.589745
-0.434981 1.538407 -0.590580
-0.432575 1.536583 -0.591115
-0.430160 1.534789 -0.591687
-0.427771 1.532855 -0.592073
-0.425336 1.531139 -0.592745
-0.422845 1.529667 -0.593743
-0.420423 1.527873 -0.594312
-0.418233 1.525087 -0.593543
-0.415976 1.522648 -0.593227
-0.413440 1.521371 -0.594489
-0.411330 1.518415 -0.593451
-0.408943 1.516581 -0.593947
-0.406510 1.514933 -0.594700
-0.404207 1.512823 -0.594810
-0.401846 1.510946 -0.595242
-0.399395 1.509389 -0.596128
-0.397193 1.507013 -0.595852
-0.394948 1.504821 -0.595831
-0.392086 1.504593 -0.598635
-0.390310 1.500984 -0.596567
-0.388622 1.497215 -0.594237
-0.386317 1.495347 -0.594661
-0.384013 1.493491 -0.595105
-0.382188 1.490326 -0.593605
-0.380432 1.487043 -0.591908
-0.378335 1.484745 -0.591666
-0.376064 1.482933 -0.592153
-0.373955 1.480721 -0.592033
-0.371917 1.478360 -0.591682
-0.369799 1.476227 -0.591673
-0.367670 1.474146 -0.591743
-0.365877 1.471301 -0.590617
-0.364027 1.468639 -0.589763
-0.361742 1.466991 -0.590497
-0.360196 1.463726 -0.588667
-0.357653 1.462663 -0.590336
-0.355583 1.460584 -0.590387
-0.353410 1.458732 -0.590807
-0.351374 1.456614 -0.590794
-0.349111 1.454959 -0.591542
-0.348105 1.450862 -0.588256
-0.346033 1.448887 -0.588459
-0.343693 1.447419 -0.589518
-0.341833 1.445065 -0.589090
-0.340319 1.442109 -0.587632
-0.338523 1.439694 -0.587080
-0.336272 1.438092 -0.587922
-0.334203 1.436175 -0.588227
-0.332422 1.433781 -0.587702
-0.330845 1.431074 -0.586618
-0.328577 1.429511 -0.587547
-0.326394 1.427807 -0.588237
-0.324417 1.425776 -0.588349
-0.323056 1.422811 -0.586769
-0.321473 1.420218 -0.585845
-0.319202 1.418664 -0.586821
-0.317247 1.416643 -0.586944
-0.315892 1.413772 -0.585482
-0.313979 1.411715 -0.585531
-0.311732 1.410123 -0.586465
-0.310952 1.406537 -0.583601
-0.308755 1.404893 -0.584433
-0.306986 1.402678 -0.584174
-0.305318 1.400344 -0.583676
-0.303328 1.398431 -0.584003
-0.302184 1.395466 -0.582246
-0.299743 1.394119 -0.583704
-0.298177 1.391701 -0.583023
-0.296440 1.389500 -0.582776
-0.294472 1.387575 -0.583093
-0.292282 1.385902 -0.583941
-0.290441 1.383827 -0.583965
-0.288395 1.381979 -0.584472
-0.286482 1.379983 -0.584674
-0.284787 1.377754 -0.584382
-0.283140 1.375481 -0.583994
-0.281424 1.373288 -0.583776
-0.279260 1.371554 -0.584570
-0.277595 1.369313 -0.584254
-0.275813 1.367192 -0.584206
-0.274204 1.364907 -0.583789
-0.272582 1.362642 -0.583414
-0.271340 1.360028 -0.582233
-0.269216 1.358241 -0.582958
-0.267084 1.356451 -0.583698
-0.265057 1.354558 -0.584212
-0.263126 1.352574 -0.584524
-0.261385 1.350423 -0.584444
-0.260266 1.347751 -0.583090
-0.258902 1.345300 -0.582264
-0.257630 1.342785 -0.581267
-0.255325 1.341107 -0.582370
-0.253192 1.339278 -0.583120
-0.251158 1.337362 -0.583668
-0.249340 1.335274 -0.583788
-0.248012 1.332819 -0.582950
-0.246798 1.330289 -0.581907
-0.245742 1.327659 -0.580576
-0.244467 1.325198 -0.579688
-0.242604 1.323153 -0.579938
-0.239815 1.321733 -0.581947
-0.237795 1.319771 -0.582484
-0.236335 1.317432 -0.581970
-0.234790 1.315152 -0.581625
-0.232680 1.313229 -0.582333
-0.231306 1.310838 -0.581683
-0.230169 1.308309 -0.580614
-0.228484 1.306115 -0.580554
-0.226852 1.303888 -0.580403
-0.226173 1.301111 -0.578549
-0.223872 1.299266 -0.579610
-0.221732 1.297315 -0.580377
-0.220243 1.294997 -0.579991
-0.218947 1.292577 -0.579275
-0.217186 1.290402 -0.579379
-0.215887 1.287986 -0.578684
-0.214560 1.285587 -0.578049
-0.212887 1.283359 -0.578015
-0.210763 1.281341 -0.578750
-0.209010 1.279135 -0.578851
-0.207567 1.276781 -0.578433
-0.206116 1.274428 -0.578032
-0.204385 1.272197 -0.578105
-0.202824 1.269886 -0.577896
-0.201258 1.267573 -0.577700
-0.199739 1.265237 -0.577429
-0.196936 1.263410 -0.579250
-0.195709 1.260940 -0.578502
-0.194180 1.258588 -0.578248
-0.193496 1.255919 -0.576646
-0.191441 1.253757 -0.577241
-0.189473 1.251552 -0.577694
-0.187236 1.249427 -0.578564
-0.186139 1.246905 -0.577639
-0.185194 1.244337 -0.576484
-0.182751 1.242251 -0.577664
-0.180573 1.240065 -0.578422
-0.179004 1.237682 -0.578233
-0.176773 1.235489 -0.579057
-0.175729 1.232947 -0.578066
-0.174644 1.230422 -0.577145
-0.173318 1.227969 -0.576591
-0.171073 1.225754 -0.577417
-0.169599 1.223336 -0.577082
-0.168805 1.220757 -0.575740
-0.166983 1.218430 -0.575921
-0.165894 1.215936 -0.575021
-0.163912 1.213647 -0.575431
-0.161545 1.211435 -0.576389
-0.159380 1.209175 -0.577042
-0.157363 1.206884 -0.577471
-0.155568 1.204552 -0.577572
-0.153937 1.202196 -0.577433
-0.152427 1.199828 -0.577117
-0.150965 1.197466 -0.576732
-0.148240 1.195314 -0.578116
-0.146558 1.193005 -0.578025
-0.144808 1.190719 -0.578022
-0.141762 1.188624 -0.579807
-0.137539 1.186679 -0.583190
-0.138158 1.184128 -0.579898
-0.136021 1.181945 -0.580391
-0.134119 1.179752 -0.580554
-0.131835 1.177619 -0.581226
-0.129249 1.175531 -0.582294
-0.129497 1.173201 -0.579552
-0.129343 1.170954 -0.577367
-0.127272 1.168903 -0.577740
-0.124145 1.166953 -0.579498
-0.122886 1.164889 -0.578783
-0.121559 1.162864 -0.578161
-0.120092 1.160881 -0.577724
-0.118369 1.158943 -0.577621
-0.115560 1.157086 -0.578915
-0.114182 1.155190 -0.578361
-0.112968 1.153322 -0.577601
-0.112438 1.151469 -0.575978
-0.112120 1.149652 -0.574102
-0.109562 1.147929 -0.575065
-0.107172 1.146226 -0.575810
-0.504029 1.573431 -0.551306
-0.502352 1.579143 -0.560020
-0.500682 1.579777 -0.563165
-0.498976 1.579764 -0.565620
-0.497234 1.579325 -0.567622
-0.495393 1.580740 -0.571743
-0.493520 1.581336 -0.574976
-0.491525 1.583710 -0.580275
-0.489577 1.583374 -0.582516
-0.487552 1.583673 -0.585513
-0.485458 1.584300 -0.588920
-0.483645 1.579037 -0.585489
-0.481960 1.571738 -0.579630
-0.479933 1.569873 -0.580117
-0.477874 1.568062 -0.580668
-0.475760 1.566577 -0.581610
-0.473569 1.565644 -0.583221
-0.471398 1.564068 -0.584068
-0.469327 1.561124 -0.583264
-0.467169 1.558937 -0.583367
-0.464914 1.557492 -0.584373
-0.462646 1.555930 -0.585241
-0.460395 1.554019 -0.585679
-0.458151 1.551905 -0.585863
-0.455813 1.550420 -0.586828
-0.453360 1.549635 -0.588679
-0.450997 1.548015 -0.589485
-0.448734 1.545617 -0.589302
-0.446380 1.543777 -0.589825
-0.444002 1.542022 -0.590455
-0.441759 1.539407 -0.589971
-0.439387 1.537546 -0.590454
-0.436918 1.536192 -0.591598
-0.434351 1.535296 -0.593349
-0.432027 1.533068 -0.593352
-0.429681 1.530961 -0.593506
-0.427347 1.528804 -0.593589
-0.424815 1.527577 -0.594916
-0.422423 1.525687 -0.595353
-0.420232 1.522933 -0.594611
-0.417893 1.520861 -0.594789
-0.415524 1.518933 -0.595159
-0.413161 1.516993 -0.595511
-0.410985 1.514356 -0.594890
-0.408684 1.512244 -0.594990
-0.406323 1.510377 -0.595430
-0.403922 1.508664 -0.596088
-0.401514 1.506988 -0.596801
-0.399235 1.504886 -0.596906
-0.397046 1.502522 -0.596628
-0.394395 1.501661 -0.598525
-0.392989 1.496922 -0.594776
-0.390586 1.495346 -0.595623
-0.388303 1.493417 -0.595954
-0.385965 1.491668 -0.596553
-0.384327 1.487964 -0.594230
-0.382463 1.484981 -0.592960
-0.380281 1.482914 -0.593057
-0.378204 1.480598 -0.592773
-0.376261 1.477972 -0.592006
-0.374337 1.475344 -0.591224
-0.371998 1.473777 -0.592077
-0.369836 1.471789 -0.592278
-0.368094 1.468830 -0.590953
-0.366174 1.466339 -0.590349
-0.364142 1.464135 -0.590192
-0.361983 1.462233 -0.590515
-0.360580 1.458713 -0.588227
-0.358235 1.457260 -0.589268
-0.356147 1.455265 -0.589432
-0.354856 1.451666 -0.586957
-0.352715 1.449834 -0.587376
-0.350596 1.447963 -0.587733
-0.348802 1.445478 -0.587064
-0.346391 1.444182 -0.588394
-0.344057 1.442728 -0.589473
-0.341906 1.440931 -0.589978
-0.340577 1.437678 -0.587974
-0.338235 1.436244 -0.589106
-0.336479 1.433795 -0.588473
-0.334843 1.431169 -0.587521
-0.333242 1.428516 -0.586506
-0.331531 1.426072 -0.585848
-0.328674 1.425472 -0.588508
-0.326931 1.423090 -0.587968
-0.325568 1.420142 -0.586388
-0.323653 1.418067 -0.586391
-0.321452 1.416423 -0.587195
-0.320371 1.413140 -0.584947
-0.317787 1.412057 -0.586811
-0.316513 1.409106 -0.585155
-0.314491 1.407225 -0.585524
-0.312364 1.405485 -0.586171
-0.310903 1.402850 -0.585090
-0.308998 1.400823 -0.585184
-0.307047 1.398860 -0.585407
-0.305375 1.396542 -0.584930
-0.303882 1.394016 -0.584027
-0.302821 1.390981 -0.582081
-0.300708 1.389249 -0.582765
-0.298797 1.387269 -0.582952
-0.296756 1.385442 -0.583461
-0.294732 1.383591 -0.583929
-0.292839 1.381587 -0.584087
-0.291593 1.378869 -0.582731
-0.288916 1.377731 -0.584746
-0.288113 1.374562 -0.582399
-0.285914 1.372897 -0.583302
-0.283413 1.371532 -0.584886
-0.281709 1.369336 -0.584653
-0.280098 1.367054 -0.584225
-0.278744 1.364526 -0.583238
-0.276676 1.362703 -0.583849
-0.275096 1.360410 -0.583390
-0.273318 1.358309 -0.583375
-0.272077 1.355717 -0.582209
-0.269828 1.354050 -0.583224
-0.267782 1.352190 -0.583800
-0.267311 1.348951 -0.581052
-0.264239 1.347975 -0.583796
-0.262733 1.345644 -0.583250
-0.261894 1.342770 -0.581344
-0.259511 1.341175 -0.582632
-0.257858 1.338979 -0.582423
-0.256026 1.336925 -0.582585
-0.253274 1.335576 -0.584595
-0.251468 1.333484 -0.584698
-0.251251 1.330208 -0.581660
-0.249108 1.328376 -0.582453
-0.247517 1.326137 -0.582164
-0.246527 1.323476 -0.580715
-0.244430 1.321597 -0.581426
-0.242441 1.319634 -0.581925
-0.240348 1.317730 -0.582619
-0.238623 1.315574 -0.582612
-0.237490 1.313035 -0.581499
-0.235682 1.310933 -0.581663
-0.234067 1.308706 -0.581471
-0.233062 1.306107 -0.580160
-0.230587 1.304397 -0.581563
-0.228907 1.302200 -0.581504
-0.227705 1.299727 -0.580584
-0.226547 1.297237 -0.579599
-0.224039 1.295496 -0.581045
-0.222498 1.293212 -0.580755
-0.222022 1.290365 -0.578592
-0.220092 1.288291 -0.579010
-0.218230 1.286172 -0.579306
-0.216702 1.283878 -0.579022
-0.214864 1.281734 -0.579279
-0.213091 1.279549 -0.579422
-0.210968 1.277520 -0.580164
-0.209547 1.275157 -0.579708
-0.208254 1.272736 -0.579042
-0.206764 1.270403 -0.578716
-0.204861 1.268243 -0.579084
-0.203176 1.265982 -0.579088
-0.201245 1.263814 -0.579498
-0.200597 1.261126 -0.577799
-0.198969 1.258831 -0.577717
-0.197730 1.256384 -0.577005
-0.196201 1.254045 -0.576770
-0.193829 1.252005 -0.577892
-0.191509 1.249928 -0.578918
-0.190124 1.247514 -0.578445
-0.189212 1.244943 -0.577230
-0.187516 1.242633 -0.577259
-0.185824 1.240315 -0.577279
-0.184297 1.237942 -0.577042
-0.182357 1.235689 -0.577443
-0.180322 1.233454 -0.577986
-0.178238 1.231222 -0.578595
-0.177062 1.228734 -0.577810
-0.175359 1.226390 -0.577830
-0.174046 1.223945 -0.577258
-0.173087 1.221416 -0.576155
-0.171162 1.219128 -0.576504
-0.170152 1.216627 -0.575485
-0.168450 1.214289 -0.575494
-0.165000 1.212327 -0.578073
-0.163604 1.209917 -0.577613
-0.162473 1.207463 -0.576765
-0.160701 1.205145 -0.576850
-0.158405 1.202928 -0.577685
-0.156627 1.200619 -0.577760
-0.154791 1.198327 -0.577914
-0.152944 1.196045 -0.578074
-0.151124 1.193768 -0.578189
-0.149004 1.191547 -0.578719
-0.147048 1.189311 -0.579008
-0.145500 1.187034 -0.578718
-0.144288 1.184735 -0.577960
-0.142487 1.182531 -0.578015
-0.140318 1.180387 -0.578570
-0.137048 1.178375 -0.580621
-0.136361 1.176109 -0.579128
-0.135907 1.173857 -0.577329
-0.134514 1.171727 -0.576808
-0.131349 1.169772 -0.578667
-0.129528 1.167725 -0.578708
-0.127922 1.165689 -0.578458
-0.125634 1.163726 -0.579111
-0.123658 1.161768 -0.579342
-0.122328 1.159802 -0.578721
-0.120750 1.157882 -0.578428
-0.118875 1.156006 -0.578521
-0.117336 1.154146 -0.578178
-0.116361 1.152299 -0.577111
-0.114891 1.150505 -0.576687
-0.113443 1.148742 -0.576238
-0.113168 1.146989 -0.574306
-0.503523 1.576231 -0.560222
-0.501875 1.577539 -0.564137
-0.500191 1.577814 -0.566927
-0.498390 1.581028 -0.573079
-0.496630 1.580139 -0.574621
-0.494805 1.580035 -0.577079
-0.492931 1.580000 -0.579641
-0.490968 1.580965 -0.583388
-0.488944 1.582002 -0.587258
-0.486964 1.580974 -0.588752
-0.485367 1.572129 -0.581071
-0.483512 1.568256 -0.579184
-0.481536 1.566116 -0.579332
-0.479335 1.566860 -0.582922
-0.477266 1.565082 -0.583519
-0.475139 1.563669 -0.584560
-0.473008 1.561929 -0.585209
-0.471004 1.558470 -0.583765
-0.468847 1.556549 -0.584185
-0.466611 1.555189 -0.585296
-0.464371 1.553597 -0.586126
-0.462155 1.551594 -0.586445
-0.459865 1.550059 -0.587348
-0.457586 1.548267 -0.587929
-0.455251 1.546768 -0.588881
-0.453027 1.544324 -0.588633
-0.450743 1.542255 -0.588854
-0.448306 1.541137 -0.590296
-0.445986 1.539147 -0.590615
-0.443653 1.537190 -0.590973
-0.441315 1.535223 -0.591314
-0.438958 1.533337 -0.591758
-0.436401 1.532510 -0.593602
-0.434019 1.530666 -0.594105
-0.431627 1.528854 -0.594647
-0.429194 1.527227 -0.595438
-0.426880 1.525015 -0.595437
-0.424460 1.523311 -0.596121
-0.422325 1.520342 -0.595070
-0.420167 1.517540 -0.594230
-0.417537 1.516762 -0.596184
-0.415273 1.514454 -0.596017
-0.413055 1.512011 -0.595651
-0.410630 1.510392 -0.596439
-0.408275 1.508518 -0.596867
-0.405993 1.506397 -0.596943
-0.403659 1.504487 -0.597315
-0.401783 1.501043 -0.595470
-0.399389 1.499408 -0.596227
-0.397024 1.497683 -0.596857
-0.394723 1.495769 -0.597212
-0.393053 1.491950 -0.594744
-0.390389 1.491197 -0.596811
-0.388263 1.488848 -0.596505
-0.386061 1.486750 -0.596571
-0.384103 1.484004 -0.595650
-0.382134 1.481344 -0.594843
-0.380269 1.478458 -0.593678
-0.378234 1.476072 -0.593266
-0.376243 1.473612 -0.592732
-0.374374 1.470889 -0.591775
-0.372212 1.468923 -0.591997
-0.370415 1.466111 -0.590877
-0.368356 1.463957 -0.590790
-0.366305 1.461808 -0.590707
-0.364798 1.458474 -0.588704
-0.362743 1.456400 -0.588726
-0.360617 1.454495 -0.589021
-0.358899 1.451751 -0.587935
-0.356812 1.449802 -0.588153
-0.354874 1.447568 -0.587895
-0.352949 1.445330 -0.587626
-0.350824 1.443497 -0.588039
-0.348747 1.441579 -0.588311
-0.346791 1.439445 -0.588214
-0.345049 1.436937 -0.587469
-0.343032 1.434948 -0.587617
-0.341259 1.432541 -0.587031
-0.339092 1.430833 -0.587675
-0.337292 1.428507 -0.587224
-0.335864 1.425583 -0.585696
-0.333681 1.423927 -0.586435
-0.331618 1.422077 -0.586832
-0.329606 1.420146 -0.587087
-0.328262 1.417191 -0.585455
-0.326690 1.414620 -0.584513
-0.325017 1.412225 -0.583887
-0.322593 1.410947 -0.585361
-0.321110 1.408298 -0.584252
-0.318808 1.406831 -0.585391
-0.316759 1.404999 -0.585843
-0.314942 1.402851 -0.585687
-0.312988 1.400893 -0.585905
-0.310965 1.399029 -0.586312
-0.309066 1.397002 -0.586403
-0.307216 1.394917 -0.586380
-0.306164 1.391840 -0.584349
-0.304506 1.389547 -0.583887
-0.303301 1.386719 -0.582318
-0.301320 1.384840 -0.582696
-0.298911 1.383458 -0.584124
-0.297021 1.381461 -0.584279
-0.295532 1.379014 -0.583481
-0.294391 1.376198 -0.581878
-0.292590 1.374128 -0.581867
-0.290123 1.372772 -0.583423
-0.288231 1.370790 -0.583629
-0.285931 1.369230 -0.584778
-0.284748 1.366518 -0.583367
-0.282849 1.364545 -0.583609
-0.281132 1.362391 -0.583443
-0.279503 1.360156 -0.583095
-0.277323 1.358450 -0.583977
-0.275708 1.356205 -0.583611
-0.274100 1.353960 -0.583244
-0.272369 1.351831 -0.583153
-0.270541 1.349790 -0.583281
-0.268751 1.347714 -0.583331
-0.266919 1.345673 -0.583476
-0.265558 1.343235 -0.582637
-0.263811 1.341126 -0.582619
-0.262479 1.338681 -0.581750
-0.259356 1.337674 -0.584579
-0.258394 1.334935 -0.582964
-0.256733 1.332755 -0.582793
-0.255498 1.330255 -0.581773
-0.253043 1.328671 -0.583211
-0.251163 1.326648 -0.583494
-0.249310 1.324600 -0.583722
-0.247860 1.322263 -0.583164
-0.246533 1.319847 -0.582378
-0.244749 1.317748 -0.582492
-0.243520 1.315276 -0.581541
-0.241360 1.313421 -0.582385
-0.239973 1.311057 -0.581756
-0.238433 1.308795 -0.581428
-0.236834 1.306569 -0.581217
-0.235389 1.304250 -0.580729
-0.233816 1.302008 -0.580484
-0.231782 1.300034 -0.581094
-0.230343 1.297708 -0.580613
-0.228794 1.295447 -0.580342
-0.227033 1.293300 -0.580459
-0.225806 1.290860 -0.579620
-0.224492 1.288472 -0.578948
-0.222566 1.286402 -0.579373
-0.220049 1.284620 -0.580837
-0.217832 1.282667 -0.581761
-0.216875 1.280088 -0.580480
-0.215512 1.277712 -0.579920
-0.213987 1.275411 -0.579648
-0.211074 1.273736 -0.581758
-0.210132 1.271157 -0.580487
-0.208963 1.268686 -0.579619
-0.207016 1.266547 -0.580071
-0.204919 1.264459 -0.580769
-0.203835 1.261949 -0.579775
-0.202742 1.259447 -0.578806
-0.201374 1.257055 -0.578301
-0.199804 1.254739 -0.578132
-0.198140 1.252453 -0.578120
-0.196268 1.250235 -0.578444
-0.193821 1.248207 -0.579691
-0.192573 1.245754 -0.579001
-0.191494 1.243247 -0.578048
-0.190106 1.240844 -0.577593
-0.188704 1.238446 -0.577164
-0.187262 1.236059 -0.576801
-0.186000 1.233620 -0.576158
-0.183336 1.231582 -0.577698
-0.181208 1.229376 -0.578390
-0.179808 1.226964 -0.577954
-0.178010 1.224658 -0.578126
-0.176218 1.222346 -0.578285
-0.175315 1.219816 -0.577092
-0.174005 1.217393 -0.576519
-0.172322 1.215062 -0.576508
-0.170901 1.212675 -0.576102
-0.168957 1.210405 -0.576470
-0.165761 1.208387 -0.578678
-0.165838 1.205714 -0.576050
-0.164346 1.203367 -0.575736
-0.161521 1.201269 -0.577359
-0.159244 1.199068 -0.578166
-0.158158 1.196673 -0.577244
-0.154743 1.194664 -0.579663
-0.153093 1.192378 -0.579535
-0.151302 1.190126 -0.579600
-0.149291 1.187918 -0.579971
-0.148428 1.185575 -0.578716
-0.147428 1.183277 -0.577660
-0.145449 1.181122 -0.577969
-0.142438 1.179097 -0.579701
-0.140949 1.176920 -0.579311
-0.139741 1.174741 -0.578534
-0.138340 1.172610 -0.578022
-0.136728 1.170526 -0.577796
-0.133519 1.168595 -0.579730
-0.131385 1.166595 -0.580192
-0.130186 1.164555 -0.579393
-0.128585 1.162573 -0.579134
-0.126642 1.160641 -0.579329
-0.125279 1.158706 -0.578751
-0.123997 1.156800 -0.578072
-0.122729 1.154928 -0.577378
-0.121389 1.153093 -0.576781
-0.119619 1.151305 -0.576749
-0.116867 1.149573 -0.577984
-0.115281 1.147836 -0.577710
-0.114756 1.146110 -0.576079
-0.503023 1.576992 -0.566998
-0.501376 1.576450 -0.568884
-0.499641 1.578134 -0.573331
-0.497876 1.578655 -0.576493
-0.496105 1.577641 -0.577916
-0.494266 1.577490 -0.580355
-0.492371 1.577573 -0.583093
-0.490385 1.578679 -0.587057
-0.488604 1.574107 -0.584375
-0.486983 1.566261 -0.577787
-0.485025 1.564927 -0.578878
-0.483030 1.563622 -0.580012
-0.481029 1.561881 -0.580631
-0.478870 1.561948 -0.583440
-0.476752 1.560844 -0.584850
-0.474681 1.558739 -0.585050
-0.472606 1.556407 -0.584966
-0.470402 1.555262 -0.586343
-0.468206 1.553704 -0.587216
-0.466117 1.550874 -0.586504
-0.463752 1.550468 -0.588821
-0.461538 1.548426 -0.589092
-0.459377 1.545826 -0.588649
-0.457192 1.543341 -0.588342
-0.454943 1.541277 -0.588564
-0.452640 1.539518 -0.589174
-0.450397 1.537252 -0.589126
-0.447971 1.536142 -0.590578
-0.445668 1.534135 -0.590860
-0.443399 1.531890 -0.590824
-0.440863 1.531165 -0.592797
-0.438630 1.528640 -0.592381
-0.436273 1.526799 -0.592871
-0.434049 1.524249 -0.592402
-0.431490 1.523402 -0.594232
-0.428924 1.522507 -0.596012
-0.427005 1.518541 -0.593582
-0.424581 1.516978 -0.594439
-0.422375 1.514449 -0.593955
-0.419693 1.513971 -0.596329
-0.417261 1.512395 -0.597177
-0.415341 1.508786 -0.595153
-0.412735 1.507926 -0.597010
-0.410391 1.506046 -0.597424
-0.407924 1.504624 -0.598494
-0.406176 1.500659 -0.595888
-0.403860 1.498767 -0.596268
-0.401536 1.496921 -0.596713
-0.399245 1.494983 -0.597022
-0.397134 1.492497 -0.596517
-0.394670 1.491147 -0.597697
-0.393142 1.486970 -0.594641
-0.390949 1.484873 -0.594686
-0.388591 1.483276 -0.595488
-0.386069 1.482142 -0.597003
-0.383940 1.479915 -0.596851
-0.382145 1.476826 -0.595359
-0.380049 1.474592 -0.595178
-0.377876 1.472585 -0.595346
-0.376071 1.469680 -0.594096
-0.374535 1.466178 -0.591879
-0.372644 1.463603 -0.591113
-0.370435 1.461815 -0.591601
-0.368421 1.459589 -0.591382
-0.366806 1.456494 -0.589742
-0.364907 1.454084 -0.589203
-0.362798 1.452157 -0.589452
-0.360548 1.450536 -0.590213
-0.359015 1.447439 -0.588509
-0.357094 1.445181 -0.588196
-0.355053 1.443182 -0.588318
-0.353016 1.441190 -0.588452
-0.351055 1.439065 -0.588356
-0.349010 1.437111 -0.588557
-0.347166 1.434800 -0.588134
-0.345389 1.432389 -0.587530
-0.343362 1.430443 -0.587741
-0.341946 1.427450 -0.586086
-0.339820 1.425705 -0.586649
-0.338389 1.422804 -0.585129
-0.336202 1.421177 -0.585908
-0.333838 1.419831 -0.587213
-0.331983 1.417665 -0.587022
-0.330437 1.415035 -0.585965
-0.329130 1.412068 -0.584261
-0.326802 1.410668 -0.585492
-0.324956 1.408545 -0.585365
-0.323089 1.406462 -0.585315
-0.321155 1.404481 -0.585463
-0.319065 1.402722 -0.586045
-0.317237 1.400599 -0.585924
-0.315627 1.398194 -0.585243
-0.313676 1.396255 -0.585483
-0.311138 1.395078 -0.587261
-0.309560 1.392652 -0.586538
-0.307858 1.390399 -0.586158
-0.306398 1.387860 -0.585183
-0.305277 1.384932 -0.583385
-0.303536 1.382774 -0.583176
-0.301419 1.381062 -0.583906
-0.299280 1.379366 -0.584688
-0.298283 1.376373 -0.582695
-0.296968 1.373768 -0.581512
-0.295143 1.371740 -0.581573
-0.292697 1.370378 -0.583112
-0.290373 1.368867 -0.584348
-0.289377 1.365964 -0.582482
-0.287097 1.364399 -0.583620
-0.285192 1.362442 -0.583887
-0.283415 1.360358 -0.583869
-0.281806 1.358112 -0.583479
-0.280594 1.355497 -0.582216
-0.278627 1.353606 -0.582654
-0.276282 1.352054 -0.583924
-0.274732 1.349770 -0.583446
-0.273302 1.347386 -0.582721
-0.270951 1.345815 -0.583998
-0.269384 1.343554 -0.583585
-0.267787 1.341325 -0.583249
-0.266259 1.339042 -0.582779
-0.263821 1.337504 -0.584225
-0.263090 1.334585 -0.582111
-0.259958 1.333573 -0.584985
-0.259295 1.330623 -0.582767
-0.257795 1.328334 -0.582287
-0.255650 1.326527 -0.583123
-0.253130 1.324981 -0.584704
-0.251782 1.322574 -0.583935
-0.249653 1.320724 -0.584726
-0.248840 1.317954 -0.582925
-0.247450 1.315596 -0.582279
-0.245529 1.313594 -0.582675
-0.244111 1.311258 -0.582102
-0.242245 1.309213 -0.582399
-0.241207 1.306641 -0.581121
-0.239602 1.304431 -0.580934
-0.237897 1.302280 -0.580942
-0.236224 1.300106 -0.580893
-0.234702 1.297841 -0.580568
-0.232932 1.295717 -0.580709
-0.231302 1.293509 -0.580594
-0.229942 1.291151 -0.579993
-0.228563 1.288805 -0.579436
-0.227066 1.286524 -0.579101
-0.225045 1.284510 -0.579710
-0.221754 1.283122 -0.582574
-0.220565 1.280660 -0.581689
-0.219316 1.278234 -0.580924
-0.218490 1.275610 -0.579428
-0.216907 1.273349 -0.579269
-0.214089 1.271639 -0.581246
-0.212078 1.269545 -0.581817
-0.211204 1.266949 -0.580439
-0.210590 1.264254 -0.578637
-0.208568 1.262151 -0.579233
-0.206689 1.259979 -0.579585
-0.205089 1.257687 -0.579467
-0.203481 1.255393 -0.579363
-0.201787 1.253127 -0.579403
-0.198856 1.251303 -0.581477
-0.198503 1.248539 -0.579312
-0.197145 1.246139 -0.578803
-0.195277 1.243910 -0.579126
-0.193758 1.241558 -0.578880
-0.192830 1.239017 -0.577692
-0.191842 1.236503 -0.576608
-0.190409 1.234129 -0.576239
-0.188762 1.231818 -0.576208
-0.186612 1.229645 -0.576965
-0.184469 1.227458 -0.577699
-0.183198 1.225031 -0.577070
-0.180671 1.222930 -0.578383
-0.178956 1.220612 -0.578430
-0.177872 1.218142 -0.577510
-0.176229 1.215812 -0.577445
-0.174973 1.213397 -0.576789
-0.173073 1.211130 -0.577105
-0.171040 1.208891 -0.577612
-0.169286 1.206594 -0.577693
-0.168317 1.204151 -0.576603
-0.166509 1.201881 -0.576756
-0.163515 1.199826 -0.578640
-0.161002 1.197679 -0.579800
-0.160620 1.195186 -0.577843
-0.160147 1.192738 -0.576032
-0.155616 1.190919 -0.580070
-0.154043 1.188659 -0.579828
-0.152806 1.186372 -0.579101
-0.151228 1.184152 -0.578859
-0.149843 1.181929 -0.578341
-0.147714 1.179814 -0.578866
-0.145540 1.177720 -0.579442
-0.144526 1.175525 -0.578395
-0.143215 1.173390 -0.577762
-0.140548 1.171404 -0.578999
-0.138065 1.169417 -0.579964
-0.135143 1.167480 -0.581516
-0.133727 1.165449 -0.581004
-0.132668 1.163426 -0.580009
-0.131935 1.161419 -0.578583
-0.130550 1.159487 -0.578040
-0.128972 1.157596 -0.577755
-0.127856 1.155716 -0.576859
-0.125968 1.153901 -0.576988
-0.124263 1.152108 -0.576875
-0.122080 1.150358 -0.577385
-0.118974 1.148657 -0.579093
-0.117952 1.146929 -0.578084
-0.502529 1.576104 -0.571998
-0.500861 1.575534 -0.573890
-0.499128 1.576089 -0.577104
-0.497369 1.575666 -0.579216
-0.495563 1.575395 -0.581529
-0.493717 1.574989 -0.583705
-0.491937 1.571753 -0.582567
-0.490317 1.564391 -0.576521
-0.488489 1.561761 -0.576052
-0.486520 1.561366 -0.578255
-0.484519 1.560778 -0.580247
-0.482518 1.559520 -0.581446
-0.480479 1.558311 -0.582713
-0.478388 1.557346 -0.584288
-0.476342 1.555337 -0.584592
-0.474167 1.554585 -0.586450
-0.472082 1.552395 -0.586533
-0.470053 1.549394 -0.585595
-0.467630 1.550225 -0.589464
-0.465416 1.548587 -0.590245
-0.463280 1.546041 -0.589872
-0.461159 1.543277 -0.589209
-0.459024 1.540577 -0.588614
-0.456678 1.539442 -0.590029
-0.454462 1.537183 -0.589991
-0.452222 1.535028 -0.590078
-0.449876 1.533534 -0.591030
-0.447697 1.530860 -0.590424
-0.445390 1.528987 -0.590867
-0.443046 1.527282 -0.591533
-0.440703 1.525516 -0.592115
-0.438230 1.524427 -0.593614
-0.435814 1.522953 -0.594597
-0.433754 1.519626 -0.593047
-0.431433 1.517668 -0.593355
-0.429167 1.515447 -0.593298
-0.426791 1.513748 -0.593957
