ply
format ascii 1.0
comment ---
element vertex 1662
property float x
property float y
property float z
element face 0
property list uchar uint vertex_indices
end_header
0.264793 1.942092 -0.545932
0.271232 1.938503 -0.544366
0.277412 1.933861 -0.542569
0.283241 1.927787 -0.540458
0.288968 1.921672 -0.538357
0.294617 1.915671 -0.536302
0.300537 1.911478 -0.534684
0.306348 1.907199 -0.533069
0.311440 1.900051 -0.530821
0.317185 1.896442 -0.529408
0.323145 1.894229 -0.528339
0.328303 1.888941 -0.526597
0.333759 1.885457 -0.525293
0.339975 1.885619 -0.524845
0.342758 1.872046 -0.521316
-0.891200 1.341883 -0.471514
-0.892683 1.350118 -0.473682
-0.893844 1.358245 -0.475824
-0.884306 1.356331 -0.474877
-0.880223 1.359696 -0.475573
-0.873623 1.360713 -0.475559
-0.869524 1.364241 -0.476329
-0.867193 1.369614 -0.477677
-0.864055 1.374299 -0.478823
-0.858676 1.376824 -0.479316
-0.853614 1.379727 -0.479934
-0.847783 1.381894 -0.480336
-0.842545 1.384709 -0.480944
-0.837257 1.387512 -0.481556
-0.835962 1.394565 -0.483470
-0.830749 1.397546 -0.484147
-0.824848 1.399809 -0.484609
-0.820333 1.403581 -0.485536
-0.815091 1.406583 -0.486231
-0.809017 1.408670 -0.486651
-0.803982 1.411905 -0.487421
-0.799799 1.416107 -0.488486
-0.795169 1.419817 -0.489402
-0.790821 1.423858 -0.490417
-0.784930 1.426112 -0.490892
-0.779540 1.428926 -0.491535
-0.774393 1.432010 -0.492258
-0.769185 1.435003 -0.492952
-0.764071 1.438092 -0.493674
-0.760899 1.443538 -0.495103
-0.756734 1.447783 -0.496167
-0.751566 1.450780 -0.496852
-0.745998 1.453250 -0.497375
-0.740848 1.456218 -0.498046
-0.736559 1.460270 -0.499038
-0.729159 1.460279 -0.498813
-0.724551 1.463866 -0.499658
-0.720820 1.468606 -0.500845
-0.716565 1.472656 -0.501821
-0.711444 1.475537 -0.502442
-0.706008 1.477963 -0.502924
-0.701021 1.480977 -0.503577
-0.696301 1.484342 -0.504331
-0.691753 1.487939 -0.505150
-0.686310 1.490258 -0.505583
-0.680882 1.492567 -0.506010
-0.675850 1.495420 -0.506595
-0.671186 1.498796 -0.507331
-0.666631 1.502326 -0.508108
-0.662811 1.506955 -0.509207
-0.657927 1.509996 -0.509831
-0.654824 1.515748 -0.511252
-0.648982 1.517320 -0.511432
-0.643175 1.518909 -0.511614
-0.638922 1.522909 -0.512504
-0.634301 1.526337 -0.513221
-0.628426 1.527750 -0.513341
-0.624024 1.531521 -0.514151
-0.620535 1.536807 -0.515402
-0.615382 1.539375 -0.515850
-0.611563 1.544171 -0.516948
-0.605090 1.544501 -0.516732
-0.601311 1.549398 -0.517851
-0.595473 1.550766 -0.517934
-0.590135 1.552976 -0.518260
-0.588098 1.561031 -0.520288
-0.582490 1.562797 -0.520476
-0.576477 1.563805 -0.520442
-0.571219 1.566164 -0.520798
-0.566827 1.570121 -0.521615
-0.562168 1.573608 -0.522292
-0.557824 1.577713 -0.523145
-0.553126 1.581176 -0.523808
-0.548011 1.583853 -0.524239
-0.543123 1.586979 -0.524798
-0.537106 1.587876 -0.524711
-0.533509 1.593611 -0.526016
-0.528597 1.596747 -0.526569
-0.523458 1.599436 -0.526989
-0.518704 1.602936 -0.527641
-0.516057 1.610922 -0.529576
-0.509992 1.611736 -0.529449
-0.504752 1.614305 -0.529824
-0.499450 1.616745 -0.530160
-0.493349 1.617419 -0.529988
-0.488455 1.620771 -0.530580
-0.483266 1.623482 -0.530986
-0.478524 1.627243 -0.531688
-0.473383 1.630116 -0.532136
-0.469035 1.634891 -0.533121
-0.463700 1.637371 -0.533452
-0.458692 1.640658 -0.534009
-0.453494 1.643515 -0.534441
-0.448166 1.646069 -0.534787
-0.442844 1.648656 -0.535139
-0.438743 1.654408 -0.536382
-0.433771 1.657991 -0.537010
-0.428264 1.660210 -0.537252
-0.423185 1.663588 -0.537817
-0.417885 1.666409 -0.538225
-0.412407 1.668765 -0.538499
-0.407563 1.672920 -0.539276
-0.402458 1.676404 -0.539862
-0.397831 1.681322 -0.540847
-0.392198 1.683377 -0.541029
-0.386567 1.685447 -0.541214
-0.381168 1.688233 -0.541597
-0.376464 1.693201 -0.542585
-0.371646 1.697915 -0.543499
-0.366393 1.701343 -0.544053
-0.360589 1.703035 -0.544124
-0.356419 1.710131 -0.545689
-0.350634 1.711982 -0.545799
-0.344579 1.712908 -0.545653
-0.339277 1.716439 -0.546225
-0.333772 1.719315 -0.546614
-0.327944 1.721063 -0.546690
-0.323674 1.728565 -0.548347
-0.318020 1.731091 -0.548633
-0.313021 1.736160 -0.549614
-0.307579 1.739634 -0.550155
-0.301973 1.742532 -0.550535
-0.296388 1.745564 -0.550951
-0.291017 1.749551 -0.551624
-0.285571 1.753320 -0.552235
-0.280208 1.757550 -0.552969
-0.274561 1.760632 -0.553388
-0.269493 1.766421 -0.554539
-0.263610 1.768613 -0.554711
-0.257664 1.770542 -0.554809
-0.251987 1.773803 -0.555266
-0.246386 1.777531 -0.555846
-0.240727 1.781077 -0.556374
-0.234893 1.783814 -0.556681
-0.229298 1.787909 -0.557351
-0.223343 1.790157 -0.557521
-0.218151 1.796805 -0.558869
-0.212194 1.799268 -0.559090
-0.206458 1.803133 -0.559684
-0.201387 1.811294 -0.561422
-0.195230 1.812913 -0.561407
-0.189053 1.814422 -0.561360
-0.183493 1.820179 -0.562442
-0.177473 1.822986 -0.562734
-0.170822 1.821274 -0.561822
-0.165747 1.831365 -0.564041
-0.159698 1.834430 -0.564390
-0.153393 1.835551 -0.564220
-0.147431 1.839618 -0.564826
-0.141407 1.843397 -0.565351
-0.135676 1.850158 -0.566657
-0.130029 1.858297 -0.568319
-0.123887 1.862072 -0.568825
-0.117673 1.865379 -0.569203
-0.111314 1.867308 -0.569216
-0.105118 1.871344 -0.569775
-0.099046 1.877359 -0.570846
-0.092739 1.880883 -0.571259
-0.086564 1.886740 -0.572275
-0.080512 1.895300 -0.573986
-0.073898 1.895687 -0.573564
-0.067380 1.897835 -0.573594
-0.061065 1.904384 -0.574760
-0.054691 1.910975 -0.575928
-0.048166 1.915293 -0.576499
-0.041688 1.922056 -0.577694
-0.034953 1.922533 -0.577259
-0.028406 1.930359 -0.578710
-0.021769 1.937523 -0.579981
-0.014995 1.940535 -0.580176
-0.008177 1.942442 -0.580081
-0.001347 1.945554 -0.580287
0.005502 1.954708 -0.582027
0.012435 1.961388 -0.583124
0.019410 1.964274 -0.583245
0.026425 1.967844 -0.583531
0.033454 1.969838 -0.583409
0.040534 1.973033 -0.583583
0.047651 1.976161 -0.583731
0.054757 1.977719 -0.583474
0.061941 1.980772 -0.583586
0.069231 1.985473 -0.584103
0.076557 1.989760 -0.584505
0.083932 1.993977 -0.584879
0.091273 1.996623 -0.584850
0.098722 2.000449 -0.585105
0.106111 2.002575 -0.584927
0.113503 2.004251 -0.584629
0.120987 2.006769 -0.584530
0.128616 2.010624 -0.584754
0.136161 2.012866 -0.584568
0.143650 2.014062 -0.584115
0.151324 2.016949 -0.584071
0.159079 2.020214 -0.584110
0.166519 2.020000 -0.583288
0.173730 2.017570 -0.581918
0.181147 2.017033 -0.581006
0.188450 2.015474 -0.579842
0.195291 2.010202 -0.577772
0.201976 2.004036 -0.575487
0.208364 1.996025 -0.572759
0.214857 1.989293 -0.570345
0.221140 1.981516 -0.567684
0.227497 1.974730 -0.565269
0.233955 1.969028 -0.563122
0.240321 1.963112 -0.560929
0.246724 1.957809 -0.558892
0.253075 1.952550 -0.556875
0.259371 1.947341 -0.554879
0.265626 1.942280 -0.552930
0.271574 1.935917 -0.550686
0.277633 1.930609 -0.548707
0.283507 1.924768 -0.546618
0.289208 1.918508 -0.544448
0.294873 1.912569 -0.542375
0.300903 1.908877 -0.540848
0.306345 1.902822 -0.538791
0.312012 1.898325 -0.537121
0.317825 1.894956 -0.535738
0.323059 1.889462 -0.533886
0.328805 1.886714 -0.532699
0.334382 1.883680 -0.531472
0.339925 1.880958 -0.530346
0.346738 1.883878 -0.530551
-0.894626 1.343620 -0.477875
-0.892656 1.348654 -0.479075
-0.888445 1.351709 -0.479660
-0.886258 1.356802 -0.480900
-0.879863 1.357980 -0.480917
-0.874133 1.359866 -0.481169
-0.869815 1.363207 -0.481890
-0.866228 1.367358 -0.482875
-0.862128 1.371094 -0.483739
-0.859012 1.375903 -0.484949
-0.853350 1.378220 -0.485385
-0.848571 1.381484 -0.486127
-0.844036 1.385053 -0.486970
-0.841572 1.390840 -0.488511
-0.835948 1.393378 -0.489045
-0.829321 1.394868 -0.489257
-0.824097 1.397860 -0.489941
-0.818540 1.400506 -0.490522
-0.813010 1.403184 -0.491116
-0.808401 1.406884 -0.492029
-0.803585 1.410367 -0.492876
-0.799428 1.414602 -0.493957
-0.795562 1.419187 -0.495146
-0.790475 1.422389 -0.495907
-0.785351 1.425539 -0.496651
-0.779099 1.427352 -0.496981
-0.774028 1.430526 -0.497731
-0.769490 1.434324 -0.498671
-0.765741 1.439072 -0.499901
-0.761430 1.443148 -0.500922
-0.757126 1.447232 -0.501941
-0.751950 1.450227 -0.502623
-0.746399 1.452727 -0.503151
-0.742228 1.456948 -0.504203
-0.735882 1.458377 -0.504395
-0.729045 1.459113 -0.504373
-0.724023 1.462159 -0.505056
-0.721334 1.468272 -0.506672
-0.716549 1.471622 -0.507439
-0.710955 1.473864 -0.507864
-0.706341 1.477408 -0.508682
-0.702050 1.481387 -0.509628
-0.697573 1.485107 -0.510492
-0.692484 1.487964 -0.511088
-0.687607 1.491100 -0.511766
-0.681125 1.491918 -0.511736
-0.676220 1.494961 -0.512378
-0.670745 1.497156 -0.512759
-0.666408 1.501004 -0.513636
-0.661754 1.504384 -0.514368
-0.658498 1.509870 -0.515732
-0.651635 1.509892 -0.515441
-0.647805 1.514520 -0.516537
-0.642852 1.517424 -0.517109
-0.638110 1.520650 -0.517774
-0.634832 1.526206 -0.519135
-0.630340 1.529856 -0.519919
-0.624797 1.531808 -0.520189
-0.620437 1.535678 -0.521031
-0.615987 1.539415 -0.521829
-0.610723 1.541801 -0.522218
-0.606238 1.545495 -0.522996
-0.601252 1.548345 -0.523517
-0.596110 1.550924 -0.523954
-0.591491 1.554413 -0.524660
-0.586730 1.557667 -0.525291
-0.581677 1.560406 -0.525766
-0.576024 1.562060 -0.525915
-0.571315 1.565419 -0.526568
-0.566675 1.568924 -0.527261
-0.561724 1.571866 -0.527783
-0.557821 1.576805 -0.528893
-0.553338 1.580687 -0.529686
-0.548250 1.583427 -0.530138
-0.542896 1.585651 -0.530436
-0.538377 1.589531 -0.531219
-0.533277 1.592278 -0.531665
-0.528236 1.595156 -0.532147
-0.524840 1.601434 -0.533623
-0.519704 1.604184 -0.534061
-0.514803 1.607441 -0.534645
-0.509610 1.610098 -0.535050
-0.504522 1.612994 -0.535523
-0.499207 1.615412 -0.535854
-0.494052 1.618191 -0.536288
-0.488425 1.619927 -0.536416
-0.483739 1.623796 -0.537162
-0.477578 1.624309 -0.536931
-0.473382 1.629375 -0.538019
-0.468336 1.632509 -0.538544
-0.463794 1.636884 -0.539426
-0.458147 1.638634 -0.539546
-0.453114 1.641892 -0.540099
-0.448030 1.645060 -0.540624
-0.443260 1.649059 -0.541387
-0.438771 1.653841 -0.542371
-0.433554 1.656805 -0.542830
-0.429180 1.662032 -0.543936
-0.422843 1.662084 -0.543556
-0.417754 1.665483 -0.544133
-0.413110 1.670165 -0.545075
-0.407708 1.672800 -0.545429
-0.403023 1.677508 -0.546373
-0.397726 1.680534 -0.546834
-0.392469 1.683713 -0.547336
-0.386442 1.684634 -0.547196
-0.381191 1.687887 -0.547716
-0.376071 1.691594 -0.548363
-0.371489 1.697055 -0.549504
-0.366066 1.699957 -0.549918
-0.360608 1.702783 -0.550308
-0.355626 1.707224 -0.551152
-0.350242 1.710406 -0.551639
-0.344721 1.713173 -0.552006
-0.339151 1.715805 -0.552334
-0.332981 1.716341 -0.552072
-0.329236 1.725616 -0.554259
-0.323407 1.727490 -0.554368
-0.317678 1.729749 -0.554583
-0.312849 1.735482 -0.555767
-0.307341 1.738725 -0.556252
-0.301671 1.741389 -0.556574
-0.295735 1.743009 -0.556604
-0.290656 1.748196 -0.557623
-0.285181 1.751860 -0.558216
-0.279346 1.754044 -0.558396
-0.274002 1.758441 -0.559187
-0.268508 1.762288 -0.559823
-0.263206 1.767134 -0.560731
-0.257213 1.768849 -0.560773
-0.251645 1.772650 -0.561387
-0.246302 1.777687 -0.562338
-0.240494 1.780523 -0.562681
-0.234338 1.781604 -0.562539
-0.228603 1.784936 -0.563013
-0.223023 1.789235 -0.563748
-0.217587 1.794525 -0.564751
-0.211855 1.798300 -0.565336
-0.205854 1.800586 -0.565511
-0.201005 1.810124 -0.567659
-0.194983 1.812634 -0.567887
-0.188957 1.815196 -0.568126
-0.183134 1.819239 -0.568765
-0.177110 1.822053 -0.569065
-0.171168 1.825587 -0.569558
-0.165742 1.833229 -0.571156
-0.159554 1.835342 -0.571255
-0.153180 1.836002 -0.570960
-0.147073 1.838924 -0.571270
-0.141122 1.843411 -0.571998
-0.134408 1.841075 -0.570888
-0.129809 1.859139 -0.575249
-0.123581 1.862174 -0.575569
-0.117426 1.866214 -0.576154
-0.111023 1.867782 -0.576072
-0.105007 1.874124 -0.577261
-0.098913 1.880141 -0.578355
-0.092842 1.887188 -0.579716
-0.086851 1.896296 -0.581616
-0.080421 1.899799 -0.582019
-0.073874 1.901813 -0.582022
-0.067844 1.913639 -0.584615
-0.061063 1.912504 -0.583773
-0.054698 1.920344 -0.585294
-0.048044 1.922780 -0.585383
-0.041421 1.926689 -0.585853
-0.034843 1.933284 -0.587021
-0.028154 1.937978 -0.587680
-0.021365 1.940032 -0.587641
-0.014549 1.941691 -0.587493
-0.007724 1.944073 -0.587526
-0.000887 1.948435 -0.588069
0.005988 1.956377 -0.589534
0.012933 1.961003 -0.590126
0.019921 1.964931 -0.590528
0.026934 1.967397 -0.590543
0.033984 1.970304 -0.590664
0.041054 1.972581 -0.590614
0.048121 1.973627 -0.590239
0.055183 1.973961 -0.589674
0.062370 1.977384 -0.589896
0.069699 1.983229 -0.590728
0.077015 1.987331 -0.591103
0.084287 1.989592 -0.590998
0.091658 1.993033 -0.591185
0.099105 1.996969 -0.591488
0.106488 1.999136 -0.591332
0.113717 1.998634 -0.590490
0.121049 1.999372 -0.589956
0.128797 2.005056 -0.590662
0.136292 2.006926 -0.590396
0.143669 2.007119 -0.589700
0.151144 2.008167 -0.589212
0.158989 2.012675 -0.589583
0.166442 2.012862 -0.588863
0.173708 2.011191 -0.587674
0.180954 2.009357 -0.586441
0.188392 2.009174 -0.585614
0.195662 2.007549 -0.584426
0.202692 2.004101 -0.582785
0.209267 1.997440 -0.580350
0.215152 1.986225 -0.576799
0.221483 1.978834 -0.574197
0.228211 1.974567 -0.572367
0.234205 1.965795 -0.569440
0.240555 1.959810 -0.567203
0.246919 1.954303 -0.565090
0.253165 1.948454 -0.562904
0.259667 1.944467 -0.561179
0.265931 1.939458 -0.559217
0.271886 1.933134 -0.556949
0.277926 1.927715 -0.554915
0.283827 1.922000 -0.552825
0.289626 1.916219 -0.550736
0.295540 1.911470 -0.548914
0.301036 1.905148 -0.546735
0.307097 1.901989 -0.545334
0.312842 1.897773 -0.543701
0.318155 1.892066 -0.541738
0.324064 1.889507 -0.540548
0.328304 1.880159 -0.537774
0.334480 1.879681 -0.537129
0.340682 1.879666 -0.536618
0.345783 1.875512 -0.535158
-0.889682 1.337563 -0.481764
-0.893629 1.348126 -0.484777
-0.889778 1.351552 -0.485491
-0.884282 1.353522 -0.485746
-0.881373 1.358062 -0.486840
-0.875396 1.359746 -0.487026
-0.870565 1.362617 -0.487603
-0.866414 1.366238 -0.488430
-0.861917 1.369600 -0.489183
-0.856796 1.372408 -0.489767
-0.853822 1.377453 -0.491075
-0.848497 1.380181 -0.491648
-0.844732 1.384562 -0.492755
-0.841282 1.389339 -0.493994
-0.835381 1.391599 -0.494435
-0.829428 1.393816 -0.494868
-0.824083 1.396693 -0.495515
-0.817719 1.398477 -0.495819
-0.813410 1.402497 -0.496834
-0.808356 1.405719 -0.497599
-0.803890 1.409602 -0.498574
-0.799690 1.413799 -0.499649
-0.795467 1.417987 -0.500720
-0.790230 1.421022 -0.501427
-0.783624 1.422454 -0.501628
-0.778901 1.426049 -0.502510
-0.774918 1.430516 -0.503665
-0.770166 1.434072 -0.504532
-0.766119 1.438472 -0.505661
-0.761543 1.442232 -0.506587
-0.756827 1.445812 -0.507453
-0.752065 1.449323 -0.508295
-0.747340 1.452868 -0.509144
-0.741648 1.455170 -0.509601
-0.735908 1.457373 -0.510024
-0.729695 1.458925 -0.510241
-0.725336 1.462849 -0.511197
-0.722180 1.468360 -0.512643
-0.717056 1.471271 -0.513273
-0.711294 1.473297 -0.513625
-0.706532 1.476646 -0.514385
-0.702524 1.481018 -0.515460
-0.698397 1.485232 -0.516480
-0.693156 1.487889 -0.517013
-0.687387 1.489771 -0.517303
-0.683746 1.494663 -0.518521
-0.676564 1.494450 -0.518156
-0.671729 1.497590 -0.518824
-0.667179 1.501139 -0.519615
-0.662572 1.504602 -0.520375
-0.656749 1.506228 -0.520566
-0.651936 1.509355 -0.521215
-0.647516 1.513081 -0.522045
-0.642169 1.515370 -0.522429
-0.637726 1.519058 -0.523239
-0.634843 1.525235 -0.524807
-0.629784 1.527977 -0.525319
-0.624781 1.530802 -0.525853
-0.620225 1.534353 -0.526605
-0.616153 1.538716 -0.527600
-0.610790 1.540944 -0.527941
-0.606033 1.544181 -0.528586
-0.600863 1.546717 -0.529014
-0.596281 1.550264 -0.529746
-0.591118 1.552808 -0.530170
-0.585930 1.555304 -0.530577
-0.580914 1.558100 -0.531071
-0.576144 1.561342 -0.531698
-0.571558 1.564936 -0.532427
-0.566968 1.568545 -0.533157
-0.562362 1.572146 -0.533882
-0.557274 1.574857 -0.534335
-0.552669 1.578501 -0.535066
-0.547725 1.581511 -0.535603
-0.543108 1.585180 -0.536334
-0.538729 1.589350 -0.537213
-0.533150 1.591151 -0.537379
-0.528120 1.594056 -0.537873
-0.524251 1.599365 -0.539082
-0.520298 1.604572 -0.540257
-0.514592 1.606157 -0.540348
-0.509127 1.608238 -0.540585
-0.503980 1.611005 -0.541024
-0.499080 1.614328 -0.541626
-0.494100 1.617503 -0.542181
-0.489285 1.621078 -0.542852
-0.482840 1.620980 -0.542433
-0.478683 1.626101 -0.543557
-0.472685 1.627001 -0.543431
-0.468998 1.633345 -0.544909
-0.463355 1.635110 -0.545034
-0.458060 1.637719 -0.545406
-0.452799 1.640425 -0.545804
-0.449571 1.648240 -0.547700
-0.443675 1.649453 -0.547655
-0.438131 1.651552 -0.547868
-0.433857 1.656970 -0.549051
-0.428638 1.659991 -0.549530
-0.423605 1.663541 -0.550161
-0.418384 1.666633 -0.550656
-0.412553 1.668073 -0.550668
-0.407536 1.671787 -0.551340
-0.402615 1.675834 -0.552107
-0.397448 1.679238 -0.552684
-0.391984 1.681820 -0.553021
-0.386890 1.685532 -0.553683
-0.381071 1.687105 -0.553725
-0.376169 1.691502 -0.554581
-0.371310 1.696125 -0.555499
-0.365608 1.698152 -0.555667
-0.360757 1.702954 -0.556631
-0.355503 1.706531 -0.557240
-0.349970 1.709233 -0.557596
-0.344503 1.712199 -0.558026
-0.338959 1.714942 -0.558390
-0.334024 1.719889 -0.559382
-0.328890 1.724236 -0.560200
-0.322911 1.725569 -0.560155
-0.317041 1.727297 -0.560223
-0.311795 1.731422 -0.560970
-0.306793 1.736603 -0.562015
-0.300633 1.737308 -0.561786
-0.295367 1.741614 -0.562578
-0.289733 1.744507 -0.562966
-0.284821 1.750523 -0.564235
-0.279131 1.753356 -0.564601
-0.273565 1.756796 -0.565136
-0.268020 1.760419 -0.565720
-0.262519 1.764344 -0.566387
-0.256809 1.767388 -0.566802
-0.250926 1.769662 -0.567000
-0.245854 1.776031 -0.568342
-0.240626 1.781854 -0.569528
-0.234152 1.781342 -0.568937
-0.228559 1.785489 -0.569648
-0.223069 1.790359 -0.570556
-0.217027 1.792275 -0.570637
-0.211194 1.795444 -0.571065
-0.205756 1.801122 -0.572187
-0.200716 1.809546 -0.574066
-0.194734 1.812353 -0.574381
-0.189347 1.819221 -0.575818
-0.183253 1.821599 -0.576007
-0.176816 1.821626 -0.575544
-0.171339 1.828640 -0.577007
-0.165603 1.834110 -0.578037
-0.159813 1.839486 -0.579037
-0.153899 1.844183 -0.579844
-0.147855 1.848056 -0.580420
-0.142118 1.854943 -0.581818
-0.136055 1.859298 -0.582515
-0.129989 1.863953 -0.583290
-0.123629 1.865955 -0.583335
-0.118059 1.876637 -0.585741
-0.111640 1.878692 -0.585790
-0.105861 1.888643 -0.587980
-0.099136 1.887587 -0.587173
-0.092883 1.892753 -0.588051
-0.086499 1.896646 -0.588577
-0.080151 1.901615 -0.589388
-0.073964 1.910050 -0.591127
-0.067384 1.912603 -0.591272
-0.060852 1.916574 -0.591792
-0.054291 1.920671 -0.592340
-0.047635 1.923296 -0.592487
-0.040974 1.926443 -0.592767
-0.034332 1.931169 -0.593463
-0.027612 1.934581 -0.593800
-0.020834 1.936774 -0.593805
-0.014017 1.937888 -0.593516
-0.007190 1.939199 -0.593275
-0.000380 1.945526 -0.594359
0.006498 1.949052 -0.594690
0.013421 1.955129 -0.595689
0.020368 1.956379 -0.595402
0.027364 1.960119 -0.595765
0.034403 1.963961 -0.596147
0.041464 1.966820 -0.596261
0.048496 1.967351 -0.595756
0.055554 1.968262 -0.595345
0.062704 1.971207 -0.595458
0.070011 1.977010 -0.596309
0.077267 1.980307 -0.596496
0.084462 1.981558 -0.596141
0.091744 1.983955 -0.596075
0.099244 1.989342 -0.596776
0.106658 1.992430 -0.596871
0.113915 1.992680 -0.596224
0.121240 1.993616 -0.595747
0.128816 1.997392 -0.595992
0.136435 2.001069 -0.596203
0.143883 2.002277 -0.595770
0.151383 2.003743 -0.595396
0.158889 2.004980 -0.594956
0.166605 2.007957 -0.594952
0.173768 2.005494 -0.593556
0.180872 2.002600 -0.592048
0.188193 2.001646 -0.591029
0.195691 2.002079 -0.590357
0.202810 1.999466 -0.588912
0.209590 1.994443 -0.586860
0.216400 1.989919 -0.584935
0.222920 1.983660 -0.582578
0.229151 1.975843 -0.579838
0.234471 1.962613 -0.575754
0.241065 1.958197 -0.573879
0.247464 1.952874 -0.571785
0.253569 1.946170 -0.569357
0.259841 1.940854 -0.567283
0.265786 1.934090 -0.564862
0.272007 1.929278 -0.562936
0.278286 1.925144 -0.561190
0.284265 1.919812 -0.559163
0.290132 1.914345 -0.557120
0.295398 1.906377 -0.554484
0.301522 1.903090 -0.553011
0.307501 1.899503 -0.551484
0.313535 1.896566 -0.550135
0.319265 1.892662 -0.548574
0.324544 1.887228 -0.546666
0.330218 1.884009 -0.545320
0.334692 1.876179 -0.542886
0.342161 1.881359 -0.543618
0.346832 1.875335 -0.541675
-0.901913 1.347469 -0.490874
-0.894004 1.347037 -0.490314
-0.890458 1.350775 -0.491142
-0.885549 1.353333 -0.491590
-0.879784 1.355161 -0.491809
-0.876018 1.358998 -0.492698
-0.872023 1.362712 -0.493556
-0.867835 1.366330 -0.494390
-0.865639 1.372013 -0.495908
-0.857644 1.371990 -0.495567
-0.851877 1.374227 -0.495973
-0.848895 1.379351 -0.497327
-0.846070 1.384723 -0.498767
-0.840944 1.387779 -0.499457
-0.834691 1.389682 -0.499777
-0.829834 1.393073 -0.500586
-0.826669 1.398305 -0.501994
-0.821993 1.401958 -0.502893
-0.815273 1.403397 -0.503077
-0.810799 1.407289 -0.504057
-0.804705 1.409392 -0.504459
-0.800052 1.413095 -0.505379
-0.795285 1.416674 -0.506260
-0.790240 1.419935 -0.507037
-0.784281 1.422128 -0.507470
-0.780260 1.426558 -0.508622
-0.775241 1.429819 -0.509396
-0.771871 1.435035 -0.510797
-0.767088 1.438570 -0.511655
-0.761722 1.441382 -0.512278
-0.756572 1.444433 -0.512977
-0.752413 1.448694 -0.514060
-0.746976 1.451351 -0.514626
-0.741361 1.453751 -0.515108
-0.736195 1.456691 -0.515760
-0.730951 1.459504 -0.516369
-0.725976 1.462641 -0.517077
-0.722066 1.467164 -0.518223
-0.717779 1.471192 -0.519207
-0.712239 1.473532 -0.519651
-0.706938 1.476162 -0.520185
-0.702778 1.480332 -0.521203
-0.698243 1.483985 -0.522053
-0.691818 1.484981 -0.522059
-0.687213 1.488496 -0.522858
-0.682525 1.491887 -0.523614
-0.677137 1.494257 -0.524045
-0.672223 1.497292 -0.524681
-0.667453 1.500526 -0.525377
-0.662918 1.504104 -0.526177
-0.657971 1.507059 -0.526778
-0.652739 1.509570 -0.527235
-0.647378 1.511862 -0.527621
-0.642256 1.514503 -0.528113
-0.637625 1.517899 -0.528838
-0.633651 1.522342 -0.529886
-0.628727 1.525286 -0.530461
-0.624192 1.528854 -0.531229
-0.620838 1.534370 -0.532598
-0.616080 1.537611 -0.533255
-0.610920 1.540181 -0.533700
-0.605419 1.542166 -0.533961
-0.600859 1.545741 -0.534712
-0.596012 1.548833 -0.535309
-0.591231 1.552047 -0.535941
-0.585857 1.554219 -0.536248
-0.581264 1.557778 -0.536981
-0.576998 1.561945 -0.537897
-0.572329 1.565411 -0.538593
-0.567323 1.568270 -0.539100
-0.562614 1.571692 -0.539777
-0.557894 1.575114 -0.540450
-0.552184 1.576661 -0.540545
-0.547373 1.579927 -0.541165
-0.542703 1.583488 -0.541873
-0.538934 1.588866 -0.543131
-0.533889 1.591755 -0.543626
-0.528333 1.593617 -0.543806
-0.524546 1.599109 -0.545089
-0.519250 1.601536 -0.545435
-0.514718 1.605577 -0.546269
-0.509210 1.607582 -0.546483
-0.504019 1.610267 -0.546901
-0.498979 1.613295 -0.547420
-0.494471 1.617526 -0.548300
-0.489203 1.620104 -0.548679
-0.483997 1.622836 -0.549101
-0.478861 1.625747 -0.549576
-0.473743 1.628723 -0.550067
-0.468254 1.630847 -0.550301
-0.463510 1.634761 -0.551070
-0.458112 1.637137 -0.551375
-0.452570 1.639168 -0.551575
-0.449398 1.647128 -0.553546
-0.443920 1.649412 -0.553816
-0.438226 1.651152 -0.553924
-0.433373 1.655077 -0.554680
-0.428162 1.658117 -0.555171
-0.423394 1.662382 -0.556023
-0.417951 1.664878 -0.556348
-0.412076 1.666198 -0.556322
-0.406657 1.668785 -0.556671
-0.402013 1.673604 -0.557678
-0.396705 1.676596 -0.558142
-0.391647 1.680358 -0.558832
-0.386166 1.682922 -0.559166
-0.381076 1.686698 -0.559855
-0.376264 1.691400 -0.560814
-0.370412 1.692935 -0.560840
-0.365329 1.696919 -0.561583
-0.359647 1.699031 -0.561776
-0.355582 1.706504 -0.563535
-0.350047 1.709238 -0.563904
-0.344121 1.710664 -0.563891
-0.338873 1.714449 -0.564564
-0.333794 1.718910 -0.565431
-0.328159 1.721461 -0.565740
-0.322238 1.722994 -0.565753
-0.316514 1.725263 -0.565977
-0.311387 1.729844 -0.566870
-0.306351 1.734901 -0.567897
-0.300601 1.737246 -0.568137
-0.295758 1.743319 -0.569451
-0.290052 1.745991 -0.569781
-0.284493 1.749333 -0.570302
-0.279315 1.754406 -0.571318
-0.273969 1.758895 -0.572163
-0.268327 1.762173 -0.572657
-0.262661 1.765416 -0.573138
-0.256579 1.766760 -0.573074
-0.250845 1.769796 -0.573492
-0.245271 1.773709 -0.574159
-0.239540 1.776942 -0.574628
-0.235557 1.789474 -0.577741
-0.230552 1.797081 -0.579444
-0.224376 1.798511 -0.579388
-0.218302 1.800527 -0.579497
-0.213001 1.807128 -0.580902
-0.207038 1.810032 -0.581255
-0.201123 1.813329 -0.581717
-0.196191 1.823086 -0.583999
-0.190292 1.826964 -0.584615
-0.184261 1.830106 -0.585021
-0.177835 1.830569 -0.584671
-0.171373 1.830719 -0.584230
-0.165541 1.835604 -0.585117
-0.159707 1.840765 -0.586075
-0.153924 1.846672 -0.587236
-0.148085 1.852507 -0.588372
-0.142401 1.860150 -0.590006
-0.136147 1.863041 -0.590309
-0.129793 1.865133 -0.590385
-0.123680 1.869827 -0.591181
-0.117349 1.872560 -0.591428
-0.111516 1.881215 -0.593310
-0.105154 1.884367 -0.593661
-0.098767 1.887505 -0.594003
-0.092285 1.889652 -0.594068
-0.085945 1.894118 -0.594766
-0.079508 1.897625 -0.595195
-0.073266 1.904971 -0.596672
-0.066781 1.909007 -0.597233
-0.060254 1.912901 -0.597748
-0.053782 1.918823 -0.598812
-0.047077 1.920208 -0.598628
-0.040276 1.919124 -0.597766
-0.033612 1.922254 -0.598049
-0.026906 1.924883 -0.598189
-0.020175 1.927517 -0.598324
-0.013393 1.928492 -0.598003
-0.006600 1.929581 -0.597708
0.000174 1.935714 -0.598770
0.007013 1.939236 -0.599118
0.013880 1.940006 -0.598718
0.020763 1.941390 -0.598476
0.027712 1.946316 -0.599180
0.034701 1.950598 -0.599701
0.041750 1.955407 -0.600354
0.048817 1.958906 -0.600648
0.055904 1.961770 -0.600763
0.062968 1.963021 -0.600441
0.070146 1.966458 -0.600692
0.077459 1.971877 -0.601461
0.084653 1.973762 -0.601282
0.091875 1.975615 -0.601087
0.099168 1.978139 -0.601061
0.106583 1.981938 -0.601363
0.114107 1.986564 -0.601872
0.121477 1.988387 -0.601634
0.128893 1.990385 -0.601434
0.136441 1.993518 -0.601523
0.144084 1.997196 -0.601745
0.151526 1.998230 -0.601267
0.159415 2.003472 -0.601878
0.166665 2.002000 -0.600734
0.173879 2.000194 -0.599499
0.181044 1.997992 -0.598159
0.188203 1.995807 -0.596820
0.195479 1.994625 -0.595737
0.202591 1.992166 -0.594323
0.209693 1.989741 -0.592917
0.216658 1.986437 -0.591285
0.223372 1.981569 -0.589255
0.230088 1.977000 -0.587304
0.236540 1.970999 -0.584994
0.241826 1.958083 -0.580934
0.247852 1.950437 -0.578225
0.254359 1.946100 -0.576362
0.260293 1.938789 -0.573758
0.265958 1.930457 -0.570908
0.272287 1.926249 -0.569110
0.278569 1.922132 -0.567346
0.284640 1.917270 -0.565409
0.290189 1.910192 -0.562933
0.296058 1.905194 -0.560995
0.301803 1.900034 -0.559036
0.307850 1.896739 -0.557559
0.313650 1.892702 -0.555918
0.319257 1.888240 -0.554194
0.324712 1.883576 -0.552443
0.329304 1.875698 -0.549925
0.335803 1.876452 -0.549560
0.343070 1.880678 -0.550071
0.350629 1.886273 -0.550939
-0.909058 1.352620 -0.498545
-0.894459 1.346019 -0.495886
-0.895024 1.353656 -0.498039
-0.886117 1.352473 -0.497232
-0.879978 1.353970 -0.497337
-0.875950 1.357575 -0.498160
-0.872124 1.361474 -0.499088
-0.870170 1.367310 -0.500672
-0.866391 1.371459 -0.501697
-0.857415 1.370481 -0.501019
-0.851529 1.372616 -0.501387
-0.847141 1.376315 -0.502283
-0.846648 1.384087 -0.504537
-0.841188 1.386816 -0.505119
-0.834597 1.388382 -0.505319
-0.829007 1.391007 -0.505875
-0.826169 1.396592 -0.507414
-0.822787 1.401650 -0.508780
-0.816981 1.404109 -0.509288
-0.811137 1.406517 -0.509781
-0.805910 1.409599 -0.510498
-0.800379 1.412335 -0.511102
-0.795485 1.415782 -0.511940
-0.791924 1.420755 -0.513279
-0.786669 1.423790 -0.513980
-0.780340 1.425552 -0.514262
-0.776236 1.429899 -0.515392
-0.771683 1.433719 -0.516346
-0.768365 1.439021 -0.517783
-0.762415 1.441142 -0.518177
-0.757185 1.444107 -0.518845
-0.751928 1.447014 -0.519491
-0.746618 1.449829 -0.520106
-0.741553 1.452926 -0.520809
-0.736414 1.455904 -0.521471
-0.731095 1.458627 -0.522047
-0.725944 1.461539 -0.522682
-0.721777 1.465725 -0.523727
-0.718250 1.470763 -0.525044
-0.713130 1.473678 -0.525669
-0.707545 1.475936 -0.526079
-0.702429 1.478803 -0.526683
-0.697841 1.482379 -0.527512
-0.691407 1.483361 -0.527501
-0.686661 1.486673 -0.528239
-0.681665 1.489619 -0.528855
-0.676495 1.492294 -0.529380
-0.672346 1.496440 -0.530375
-0.667865 1.500105 -0.531211
-0.662968 1.503151 -0.531845
-0.658562 1.506924 -0.532708
-0.654700 1.511533 -0.533834
-0.647296 1.510718 -0.533225
-0.642358 1.513647 -0.533809
-0.637846 1.517236 -0.534599
-0.632650 1.519745 -0.535042
-0.627984 1.523091 -0.535748
-0.625512 1.529993 -0.537579
-0.621078 1.533765 -0.538412
-0.616183 1.536787 -0.539004
-0.610745 1.538899 -0.539304
-0.605579 1.541453 -0.539742
-0.601186 1.545321 -0.540592
-0.596256 1.548280 -0.541151
-0.591561 1.551653 -0.541838
-0.587376 1.555942 -0.542809
-0.582619 1.559241 -0.543466
-0.577860 1.562552 -0.544122
-0.572470 1.564721 -0.544418
-0.567842 1.568290 -0.545150
-0.563215 1.571884 -0.545887
-0.558174 1.574716 -0.546382
-0.553816 1.578866 -0.547285
-0.548193 1.580604 -0.547434
-0.542939 1.583048 -0.547800
-0.538315 1.586743 -0.548553
-0.534765 1.592625 -0.549982
-0.529631 1.595375 -0.550435
-0.523871 1.596849 -0.550490
-0.519181 1.600530 -0.551227
-0.513253 1.601640 -0.551166
-0.508942 1.606170 -0.552160
-0.503746 1.608847 -0.552579
-0.498665 1.611790 -0.553077
-0.493806 1.615246 -0.553731
-0.488953 1.618747 -0.554396
-0.483825 1.621664 -0.554879
-0.478628 1.624440 -0.555318
-0.473465 1.627318 -0.555785
-0.468284 1.630175 -0.556243
-0.463371 1.633699 -0.556903
-0.458396 1.637113 -0.557527
-0.453632 1.641089 -0.558320
-0.448143 1.643308 -0.558575
-0.443554 1.647817 -0.559525
-0.437682 1.649104 -0.559494
-0.432738 1.652789 -0.560189
-0.428150 1.657473 -0.561184
-0.422858 1.660348 -0.561628
-0.417327 1.662603 -0.561884
-0.411783 1.664833 -0.562130
-0.406885 1.668888 -0.562925
-0.402007 1.673072 -0.563756
-0.396801 1.676380 -0.564322
-0.391270 1.678779 -0.564612
-0.386171 1.682491 -0.565294
-0.380604 1.684843 -0.565567
-0.375680 1.689200 -0.566438
-0.370241 1.692026 -0.566849
-0.364500 1.693926 -0.566981
-0.360013 1.699903 -0.568328
-0.355513 1.705989 -0.569703
-0.349591 1.707446 -0.569698
-0.344244 1.710860 -0.570273
-0.338645 1.713458 -0.570604
-0.333263 1.716864 -0.571173
-0.327798 1.720030 -0.571669
-0.323110 1.726121 -0.573027
-0.317155 1.727621 -0.573026
-0.311450 1.730073 -0.573304
-0.306224 1.734428 -0.574142
-0.301181 1.739631 -0.575225
-0.296115 1.744887 -0.576321
-0.290771 1.749140 -0.577119
-0.285321 1.753060 -0.577816
-0.281109 1.762463 -0.580115
-0.275026 1.763900 -0.580079
-0.269096 1.766029 -0.580244
-0.263163 1.768168 -0.580410
-0.257479 1.771528 -0.580930
-0.252549 1.778655 -0.582543
-0.246489 1.780410 -0.582591
-0.240792 1.784037 -0.583179
-0.235733 1.791149 -0.584775
-0.230278 1.796414 -0.585831
-0.224554 1.800399 -0.586512
-0.218912 1.804997 -0.587367
-0.213337 1.810176 -0.588386
-0.207031 1.811153 -0.588191
-0.201311 1.815766 -0.589039
-0.195984 1.823122 -0.590671
-0.189915 1.825935 -0.590994
-0.183857 1.828921 -0.591363
-0.177492 1.829850 -0.591141
-0.171167 1.831045 -0.590993
-0.165125 1.834411 -0.591463
-0.159270 1.839445 -0.592404
-0.153684 1.847013 -0.594061
-0.147774 1.852331 -0.595071
-0.142055 1.859743 -0.596671
-0.135784 1.862553 -0.596958
-0.129285 1.863274 -0.596651
-0.123103 1.867266 -0.597265
-0.117145 1.874029 -0.598658
-0.110883 1.877960 -0.599244
-0.104485 1.880597 -0.599460
-0.097922 1.881338 -0.599140
-0.091612 1.885576 -0.599798
-0.085196 1.888750 -0.600152
-0.078772 1.892212 -0.600581
-0.072332 1.895886 -0.601065
-0.066008 1.902290 -0.602305
-0.059406 1.904186 -0.602279
-0.051518 1.877064 -0.594169
-0.039338 1.904847 -0.600779
-0.032529 1.901073 -0.599164
-0.026097 1.910999 -0.601341
-0.019404 1.912643 -0.601217
-0.012691 1.914088 -0.601032
-0.005843 1.903871 -0.597628
0.000815 1.910687 -0.598916
0.007533 1.926282 -0.602605
0.014377 1.935260 -0.604461
0.021272 1.939723 -0.605068
0.028159 1.940039 -0.604533
0.035087 1.942083 -0.604464
0.042049 1.944519 -0.604495
0.048873 1.940873 -0.602863
0.055764 1.940145 -0.602022
0.062992 1.948339 -0.603596
0.070227 1.954616 -0.604639
0.077613 1.962584 -0.606126
0.084852 1.966055 -0.606387
0.092049 1.967971 -0.606220
0.099386 1.971673 -0.606526
0.106826 1.976187 -0.607040
0.114185 1.978777 -0.607028
0.121484 1.980056 -0.606656
0.128879 1.982180 -0.606503
0.136422 1.985615 -0.606691
0.143874 1.987525 -0.606464
0.151303 1.988832 -0.606069
0.159063 1.993140 -0.606462
0.166429 1.993174 -0.605714
0.174143 1.996217 -0.605755
0.181178 1.992987 -0.604135
0.188354 1.991079 -0.602861
0.195415 1.988298 -0.601356
0.202511 1.985899 -0.599949
0.209505 1.982833 -0.598366
0.216497 1.979901 -0.596819
0.223045 1.974059 -0.594515
0.230386 1.973826 -0.593672
0.237305 1.970871 -0.592123
0.243609 1.964259 -0.589631
0.249567 1.955957 -0.586711
0.255298 1.946842 -0.583592
0.261683 1.942014 -0.581588
0.266423 1.928411 -0.577342
0.272688 1.923842 -0.575429
0.278738 1.918487 -0.573326
0.284744 1.913305 -0.571282
0.290890 1.909230 -0.569535
0.296337 1.902119 -0.567032
0.302225 1.897629 -0.565213
0.307923 1.892677 -0.563296
0.313042 1.885541 -0.560848
0.318820 1.881905 -0.559307
0.324431 1.877961 -0.557709
0.330382 1.875925 -0.556615
0.336951 1.876865 -0.556291
0.342964 1.875809 -0.555488
0.352833 1.890697 -0.558699
-0.895528 1.338621 -0.499714
-0.899221 1.349017 -0.502852
-0.894833 1.352044 -0.503459
-0.887286 1.352179 -0.503081
-0.881077 1.353642 -0.503170
-0.877679 1.357884 -0.504218
-0.873699 1.361665 -0.505116
-0.868683 1.364521 -0.505705
-0.866299 1.370057 -0.507214
-0.860834 1.372618 -0.507715
-0.851668 1.371488 -0.506966
-0.851923 1.379940 -0.509481
-0.847267 1.383481 -0.510331
-0.841293 1.385698 -0.510737
-0.834851 1.387437 -0.510985
-0.829062 1.389868 -0.511471
-0.825075 1.394231 -0.512613
-0.822382 1.400032 -0.514241
-0.818975 1.405114 -0.515628
-0.811763 1.406048 -0.515617
-0.806391 1.408985 -0.516283
-0.800766 1.411629 -0.516851
-0.795871 1.415086 -0.517693
-0.792040 1.419760 -0.518941
-0.786910 1.422946 -0.519690
-0.781607 1.425917 -0.520366
-0.776407 1.428990 -0.521075
-0.771661 1.432586 -0.521957
-0.767678 1.437090 -0.523140
-0.763842 1.441779 -0.524382
-0.757528 1.443434 -0.524611
-0.751907 1.445897 -0.525107
-0.746866 1.449053 -0.525831
-0.741941 1.452333 -0.526594
-0.736368 1.454766 -0.527074
-0.731406 1.457952 -0.527800
-0.726613 1.461338 -0.528589
-0.721796 1.464677 -0.529361
-0.717688 1.468944 -0.530435
-0.713818 1.473533 -0.531611
-0.707631 1.474988 -0.531750
-0.702648 1.478040 -0.532414
-0.695590 1.478200 -0.532123
-0.693284 1.484934 -0.533990
-0.687598 1.486946 -0.534302
-0.680998 1.487615 -0.534172
-0.676611 1.491415 -0.535065
-0.672810 1.496071 -0.536234
-0.668271 1.499660 -0.537050
-0.663077 1.502273 -0.537544
-0.658603 1.505950 -0.538382
-0.655011 1.510970 -0.539653
-0.648517 1.511566 -0.539481
-0.643055 1.513705 -0.539809
-0.638285 1.516903 -0.540478
-0.633113 1.519462 -0.540936
-0.630078 1.525431 -0.542495
-0.625903 1.529614 -0.543471
-0.621792 1.533923 -0.544484
-0.617565 1.538068 -0.545441
-0.612850 1.541420 -0.546138
-0.606950 1.542775 -0.546189
-0.603282 1.547911 -0.547453
-0.597918 1.550167 -0.547789
-0.592295 1.551956 -0.547972
-0.588237 1.556489 -0.549031
-0.583717 1.560233 -0.549835
-0.577207 1.560409 -0.549495
-0.572576 1.563959 -0.550231
-0.567862 1.567377 -0.550922
-0.563407 1.571299 -0.551770
-0.558820 1.575002 -0.552546
-0.553835 1.577973 -0.553085
-0.549062 1.581366 -0.553756
-0.543932 1.584081 -0.554209
-0.539857 1.588896 -0.555324
-0.535005 1.592210 -0.555961
-0.530015 1.595267 -0.556514
-0.524593 1.597457 -0.556791
-0.518902 1.599083 -0.556888
-0.514031 1.602423 -0.557523
-0.507943 1.603195 -0.557349
-0.502691 1.605737 -0.557729
-0.498349 1.610276 -0.558734
-0.493715 1.614232 -0.559552
-0.488630 1.617223 -0.560066
-0.483483 1.620098 -0.560541
-0.479046 1.624628 -0.561531
-0.473407 1.626423 -0.561665
-0.468262 1.629378 -0.562159
-0.463579 1.633463 -0.563001
-0.458450 1.636526 -0.563524
-0.453671 1.640481 -0.564321
-0.448759 1.644161 -0.565030
-0.442922 1.645545 -0.565027
-0.437463 1.647887 -0.565318
-0.432408 1.651295 -0.565937
-0.428346 1.657371 -0.567376
-0.422944 1.659979 -0.567744
-0.417046 1.661255 -0.567700
-0.412407 1.665997 -0.568720
-0.407376 1.669729 -0.569426
-0.401395 1.670810 -0.569319
-0.397496 1.677895 -0.571048
-0.392399 1.681627 -0.571747
-0.386960 1.684400 -0.572151
-0.381448 1.686982 -0.572496
-0.375762 1.689055 -0.572684
-0.370629 1.692871 -0.573401
-0.365373 1.696368 -0.574018
-0.360251 1.700361 -0.574784
-0.354560 1.702550 -0.575001
-0.351019 1.711989 -0.577410
-0.345673 1.715527 -0.578029
-0.339060 1.714712 -0.577332
-0.333904 1.718977 -0.578168
-0.329610 1.726461 -0.579970
-0.324947 1.732808 -0.581425
-0.318480 1.732550 -0.580891
-0.312101 1.732557 -0.580438
-0.307853 1.740830 -0.582461
-0.302606 1.745392 -0.583369
-0.296696 1.747372 -0.583501
-0.290899 1.749837 -0.583777
-0.286926 1.760099 -0.586376
-0.280325 1.759313 -0.585678
-0.274738 1.762935 -0.586291
-0.269214 1.766932 -0.587013
-0.263225 1.768884 -0.587126
-0.257307 1.771190 -0.587342
-0.252641 1.779650 -0.589377
-0.246415 1.780650 -0.589201
-0.240568 1.783570 -0.589591
-0.234893 1.787471 -0.590268
-0.229324 1.792078 -0.591149
-0.223485 1.795359 -0.591637
-0.218237 1.802127 -0.593147
-0.212513 1.806409 -0.593921
-0.206974 1.811986 -0.595071
-0.201004 1.815123 -0.595503
-0.194866 1.817293 -0.595649
-0.188704 1.819355 -0.595761
-0.182706 1.822610 -0.596219
-0.176830 1.826867 -0.596965
-0.170573 1.828530 -0.596952
-0.164466 1.831378 -0.597282
-0.158260 1.833571 -0.597418
-0.152449 1.839129 -0.598526
-0.147030 1.848448 -0.600716
-0.140684 1.850127 -0.600690
-0.134840 1.856610 -0.602048
-0.128799 1.861676 -0.602991
-0.122414 1.863577 -0.603018
-0.116397 1.869612 -0.604229
-0.110086 1.872837 -0.604627
-0.103757 1.876127 -0.605040
-0.097283 1.877851 -0.605000
-0.090872 1.880597 -0.605248
-0.084544 1.884867 -0.605926
-0.078114 1.888076 -0.606296
-0.071624 1.890700 -0.606495
-0.065230 1.895511 -0.607310
-0.058438 1.892978 -0.606034
-0.050977 1.874439 -0.600222
-0.036356 1.830349 -0.586651
-0.018714 1.901755 -0.605101
-0.012022 1.901646 -0.604487
-0.005204 1.888958 -0.600341
0.001383 1.897509 -0.602150
0.008051 1.912295 -0.605692
0.014850 1.923913 -0.608331
0.021688 1.927035 -0.608588
0.028578 1.931412 -0.609187
0.035577 1.939093 -0.610695
0.042326 1.932671 -0.608278
0.048902 1.922070 -0.604705
0.055687 1.920642 -0.603673
0.063031 1.934096 -0.606746
0.069910 1.933429 -0.605909
0.077274 1.942870 -0.607849
0.084981 1.956929 -0.611043
0.092201 1.959890 -0.611175
0.099475 1.963052 -0.611353
0.107006 1.969417 -0.612397
0.114133 1.969105 -0.611608
0.121233 1.968297 -0.610678
0.128718 1.972137 -0.611007
0.136137 1.974594 -0.610951
0.143744 1.978691 -0.611330
0.151408 1.982796 -0.611702
0.158886 1.984516 -0.611421
0.166666 1.988767 -0.611813
0.173949 1.988029 -0.610855
0.181136 1.986401 -0.609654
0.188273 1.984371 -0.608341
0.195423 1.982491 -0.607066
0.202546 1.980453 -0.605747
0.209584 1.977846 -0.604275
0.216458 1.974189 -0.602523
0.223257 1.970207 -0.600687
0.229962 1.965816 -0.598744
0.237125 1.964607 -0.597646
0.244050 1.961983 -0.596176
0.250392 1.956013 -0.593829
0.256980 1.951849 -0.591964
0.263733 1.948899 -0.590424
0.268351 1.934387 -0.585869
0.273237 1.922178 -0.581934
0.278725 1.913856 -0.579031
0.285083 1.910514 -0.577439
0.291308 1.906822 -0.575769
0.296589 1.898885 -0.573015
0.302251 1.893320 -0.570893
0.307532 1.886449 -0.568453
0.313239 1.882042 -0.566670
0.319032 1.878456 -0.565118
0.325071 1.876359 -0.563970
0.331455 1.876106 -0.563315
0.337234 1.873641 -0.562115
0.343614 1.874053 -0.561674
0.351823 1.882147 -0.563214
-0.904413 1.345366 -0.508010
-0.897108 1.345596 -0.507633
-0.892904 1.348799 -0.508310
-0.891357 1.354626 -0.509913
-0.888402 1.359255 -0.511100
-0.881744 1.360434 -0.511089
-0.876544 1.363082 -0.511599
-0.871356 1.365813 -0.512144
-0.866259 1.368699 -0.512750
-0.857521 1.368007 -0.512119
-0.855195 1.373771 -0.513736
-0.850359 1.377078 -0.514505
-0.846928 1.381878 -0.515794
-0.842877 1.386104 -0.516887
-0.838329 1.389859 -0.517821
-0.830013 1.389664 -0.517394
-0.825822 1.393830 -0.518475
-0.822877 1.399373 -0.520032
-0.818681 1.403609 -0.521138
-0.812758 1.405970 -0.521601
-0.806996 1.408493 -0.522122
-0.801337 1.411115 -0.522677
-0.795978 1.414059 -0.523343
-0.792139 1.418728 -0.524598
-0.786969 1.421877 -0.525332
-0.781669 1.424858 -0.526009
-0.776339 1.427785 -0.526665
-0.771788 1.431615 -0.527628
-0.767946 1.436293 -0.528877
-0.763715 1.440508 -0.529966
-0.759003 1.444134 -0.530853
-0.752338 1.445327 -0.530912
-0.747252 1.448434 -0.531619
-0.742420 1.451840 -0.532424
-0.737886 1.455610 -0.533350
-0.732443 1.458199 -0.533873
-0.727325 1.461177 -0.534526
-0.722533 1.464562 -0.535313
-0.717723 1.467906 -0.536084
-0.712803 1.471087 -0.536796
-0.707896 1.474268 -0.537505
-0.702486 1.476743 -0.537975
-0.698771 1.481533 -0.539217
-0.694311 1.485299 -0.540113
-0.689289 1.488269 -0.540739
-0.683864 1.490645 -0.541163
-0.677981 1.492331 -0.541356
-0.673619 1.496191 -0.542270
-0.668668 1.499189 -0.542893
-0.664058 1.502680 -0.543678
-0.660386 1.507580 -0.544926
-0.654507 1.509157 -0.545069
-0.650766 1.513976 -0.546283
-0.645839 1.516984 -0.546893
-0.640472 1.519297 -0.547271
-0.635620 1.522403 -0.547909
-0.630750 1.525479 -0.548533
-0.625809 1.528437 -0.549115
-0.621778 1.532880 -0.550183
-0.617597 1.537103 -0.551174
-0.612743 1.540228 -0.551802
-0.608652 1.544644 -0.552849
-0.604091 1.548291 -0.553640
-0.597898 1.549136 -0.553513
-0.593021 1.552235 -0.554120
-0.588529 1.556019 -0.554948
-0.583742 1.559300 -0.555609
-0.578238 1.561300 -0.555849
-0.572526 1.562904 -0.555960
-0.568081 1.566824 -0.556820
-0.563636 1.570776 -0.557687
-0.559206 1.574787 -0.558570
-0.554190 1.577715 -0.559100
-0.548434 1.579222 -0.559168
-0.543403 1.582126 -0.559685
-0.538849 1.585987 -0.560508
-0.535545 1.592388 -0.562145
-0.530435 1.595225 -0.562632
-0.524395 1.596165 -0.562508
-0.520442 1.601409 -0.563762
-0.513747 1.600961 -0.563190
-0.509147 1.604908 -0.564024
-0.503799 1.607286 -0.564354
-0.498618 1.610035 -0.564800
-0.494774 1.615756 -0.566191
-0.489034 1.617323 -0.566256
-0.483791 1.620005 -0.566674
-0.478996 1.623734 -0.567423
-0.474066 1.627191 -0.568082
-0.469084 1.630566 -0.568714
-0.463188 1.631790 -0.568662
-0.459741 1.638936 -0.570481
-0.453944 1.640444 -0.570516
-0.448822 1.643624 -0.571076
-0.443992 1.647580 -0.571879
-0.437624 1.647644 -0.571456
-0.432692 1.651395 -0.572190
-0.429601 1.660064 -0.574464
-0.424683 1.664036 -0.575261
-0.417808 1.662747 -0.574410
-0.413165 1.667527 -0.575456
-0.407851 1.670518 -0.575941
-0.400972 1.669084 -0.575044
-0.398821 1.681229 -0.578376
-0.393198 1.683498 -0.578629
-0.388232 1.687746 -0.579496
-0.383040 1.691388 -0.580171
-0.376347 1.690459 -0.579428
-0.370896 1.693334 -0.579864
-0.365523 1.696499 -0.580387
-0.360203 1.699885 -0.580976
-0.357094 1.710633 -0.583833
-0.351503 1.713354 -0.584211
-0.345481 1.714638 -0.584146
-0.339688 1.716706 -0.584320
-0.333589 1.717700 -0.584165
-0.328718 1.723109 -0.585361
-0.324637 1.731574 -0.587489
-0.318928 1.734186 -0.587822
-0.312662 1.734698 -0.587512
-0.308100 1.741829 -0.589221
-0.302290 1.744204 -0.589476
-0.297448 1.750553 -0.590939
-0.291291 1.751634 -0.590797
-0.285133 1.752682 -0.590644
-0.279628 1.756548 -0.591344
-0.274142 1.760600 -0.592099
-0.268484 1.763983 -0.592647
-0.262437 1.765642 -0.592674
-0.256243 1.766599 -0.592487
-0.249980 1.767195 -0.592191
-0.244742 1.772881 -0.593425
-0.239242 1.777437 -0.594316
-0.233829 1.782617 -0.595390
-0.227675 1.783976 -0.595316
-0.222012 1.788068 -0.596057
-0.216529 1.793346 -0.597150
-0.211504 1.801554 -0.599113
-0.206098 1.807856 -0.600501
-0.200520 1.813384 -0.601654
-0.194141 1.814004 -0.601343
-0.187964 1.815928 -0.601418
-0.181967 1.819139 -0.601872
-0.176108 1.823471 -0.602655
-0.170082 1.826794 -0.603135
-0.163705 1.827575 -0.602862
-0.157330 1.828350 -0.602584
-0.151226 1.831339 -0.602958
-0.145599 1.838630 -0.604594
-0.139921 1.846005 -0.606247
-0.134022 1.851872 -0.607451
-0.127817 1.855184 -0.607900
-0.121651 1.859132 -0.608531
-0.115170 1.859971 -0.608248
-0.109181 1.866486 -0.609620
-0.102936 1.870544 -0.610269
-0.096658 1.874596 -0.610911
-0.090209 1.876725 -0.610988
-0.083869 1.880677 -0.611591
-0.077539 1.885327 -0.612390
-0.071053 1.887928 -0.612590
-0.064494 1.889561 -0.612506
-0.057891 1.890510 -0.612220
-0.050964 1.884112 -0.609812
-0.043669 1.866466 -0.604167
-0.035968 1.831655 -0.593599
-0.022941 1.819088 -0.588896
-0.011257 1.882504 -0.605922
-0.004746 1.892330 -0.608143
0.001914 1.891315 -0.607262
0.008566 1.901287 -0.609505
0.015248 1.896517 -0.607547
0.021828 1.885319 -0.603764
0.028451 1.884348 -0.602884
0.034985 1.878873 -0.600727
0.041454 1.872688 -0.598369
0.048304 1.881590 -0.600266
0.055971 1.912123 -0.608240
0.062663 1.909309 -0.606808
0.070241 1.927438 -0.611251
0.091628 1.939148 -0.612531
0.099181 1.948263 -0.614392
0.106642 1.954490 -0.615435
0.113693 1.954038 -0.614611
0.121006 1.956849 -0.614688
0.128465 1.960924 -0.615105
0.136013 1.965410 -0.615626
0.143621 1.969891 -0.616135
0.151382 1.975345 -0.616903
0.159245 1.981111 -0.617745
0.166571 1.981172 -0.617011
0.173558 1.978047 -0.615399
0.180824 1.977446 -0.614475
0.188090 1.976773 -0.613528
0.195037 1.973527 -0.611876
0.202477 1.974164 -0.611278
0.209612 1.972433 -0.610034
0.216353 1.967965 -0.608048
0.223207 1.964507 -0.606337
0.229902 1.960178 -0.604393
0.236750 1.957066 -0.602779
0.243563 1.953916 -0.601159
0.250736 1.953108 -0.600169
0.257731 1.951330 -0.598923
0.264535 1.948611 -0.597430
0.271098 1.944769 -0.595644
0.277293 1.939241 -0.593418
0.282130 1.927018 -0.589429
0.286015 1.910698 -0.584374
0.291181 1.901674 -0.581273
0.296659 1.894755 -0.578747
0.302539 1.890238 -0.576871
0.307446 1.881633 -0.573939
0.313903 1.880641 -0.573026
0.320338 1.879842 -0.572181
0.325674 1.874581 -0.570188
0.331372 1.871354 -0.568748
0.337588 1.870710 -0.568005
0.344198 1.872020 -0.567791
0.321479 1.756001 -0.537114
-0.909380 1.348468 -0.515122
-0.899386 1.346261 -0.513857
-0.893457 1.347885 -0.513975
-0.889801 1.351736 -0.514897
-0.886722 1.356250 -0.516061
-0.883282 1.360534 -0.517148
-0.877811 1.362951 -0.517575
-0.873152 1.366230 -0.518315
-0.866400 1.367514 -0.518352
-0.860155 1.369333 -0.518586
-0.854121 1.371398 -0.518913
-0.849871 1.375306 -0.519896
-0.846066 1.379728 -0.521064
-0.841992 1.383933 -0.522157
-0.836566 1.386773 -0.522772
-0.831448 1.389956 -0.523511
-0.826662 1.393512 -0.524383
-0.822515 1.397776 -0.525505
-0.818290 1.401985 -0.526608
-0.813073 1.405127 -0.527337
-0.806827 1.407126 -0.527668
-0.801484 1.410109 -0.528344
-0.797107 1.414174 -0.529397
-0.791588 1.416940 -0.529997
-0.787550 1.421395 -0.531184
-0.781857 1.423932 -0.531702
-0.776816 1.427206 -0.532476
-0.772024 1.430760 -0.533346
-0.767863 1.435060 -0.534472
-0.763651 1.439301 -0.535576
-0.758818 1.442780 -0.536413
-0.753362 1.445473 -0.536977
-0.747143 1.447181 -0.537199
-0.743038 1.451507 -0.538322
-0.738720 1.455563 -0.539348
-0.733623 1.458611 -0.540026
-0.728296 1.461336 -0.540590
-0.723178 1.464308 -0.541236
-0.717697 1.466773 -0.541706
-0.712981 1.470230 -0.542513
-0.708596 1.474125 -0.543467
-0.704066 1.477816 -0.544348
-0.699615 1.481612 -0.545262
-0.694615 1.484639 -0.545909
-0.689450 1.487414 -0.546469
-0.684261 1.490132 -0.547007
-0.679109 1.492881 -0.547552
-0.674249 1.496037 -0.548233
-0.669710 1.499653 -0.549067
-0.666348 1.505018 -0.550488
-0.660649 1.506911 -0.550732
-0.656473 1.511082 -0.551743
-0.652943 1.516256 -0.553088
-0.648476 1.520017 -0.553953
-0.641349 1.519623 -0.553417
-0.636382 1.522567 -0.554003
-0.631378 1.525445 -0.554563
-0.625505 1.526913 -0.554648
-0.620821 1.530287 -0.555369
-0.617514 1.535938 -0.556848
-0.612889 1.539450 -0.557609
-0.608785 1.543851 -0.558662
-0.603721 1.546647 -0.559177
-0.598224 1.548694 -0.559441
-0.593417 1.551926 -0.560096
-0.588884 1.555651 -0.560912
-0.584026 1.558818 -0.561540
-0.578505 1.560801 -0.561773
-0.573685 1.564045 -0.562422
-0.569462 1.568407 -0.563436
-0.564241 1.570946 -0.563846
-0.559414 1.574228 -0.564498
-0.554814 1.577963 -0.565297
-0.548789 1.578975 -0.565198
-0.542950 1.580315 -0.565206
-0.538998 1.585364 -0.566428
-0.534661 1.589707 -0.567415
-0.531644 1.596773 -0.569289
-0.524699 1.595899 -0.568565
-0.518954 1.597439 -0.568629
-0.515808 1.604424 -0.570465
-0.510310 1.606524 -0.570707
-0.505169 1.609392 -0.571196
-0.499927 1.612057 -0.571618
-0.494958 1.615337 -0.572237
-0.489853 1.618345 -0.572765
-0.486635 1.625657 -0.574684
