ply
format ascii 1.0
comment ---
element vertex 1677
property float x
property float y
property float z
element face 0
property list uchar uint vertex_indices
end_header
0.607314 1.384394 -0.501916
0.611766 1.376405 -0.499891
0.615251 1.366948 -0.497481
0.618659 1.357475 -0.495064
0.621686 1.347514 -0.492518
0.627948 1.342654 -0.491303
0.633737 1.337090 -0.489902
0.638124 1.329446 -0.487958
0.642090 1.321258 -0.485871
0.645800 1.312791 -0.483711
0.649250 1.304055 -0.481481
0.653889 1.297161 -0.479733
0.659525 1.291786 -0.478384
0.662616 1.282875 -0.476112
0.665701 1.274104 -0.473879
0.670190 1.267437 -0.472199
0.674384 1.260484 -0.470447
0.679474 1.254887 -0.469055
0.683144 1.247496 -0.467197
0.686832 1.240292 -0.465393
0.691256 1.234233 -0.463895
0.696230 1.229050 -0.462632
0.699961 1.222406 -0.460994
0.703036 1.215108 -0.459190
0.708274 1.210773 -0.458171
0.716675 1.210597 -0.458251
-0.843128 1.405442 -0.473618
-0.835441 1.403803 -0.473473
-0.830054 1.408031 -0.474733
-0.824292 1.411640 -0.475861
-0.818658 1.415870 -0.477149
-0.812061 1.417933 -0.477935
-0.805979 1.421560 -0.479105
-0.799883 1.425404 -0.480337
-0.794044 1.430185 -0.481804
-0.787635 1.433677 -0.482973
-0.780998 1.436745 -0.484049
-0.775038 1.441885 -0.485629
-0.769871 1.449497 -0.487808
-0.762910 1.452229 -0.488825
-0.756082 1.455472 -0.489969
-0.748918 1.457837 -0.490906
-0.742449 1.462382 -0.492372
-0.736137 1.467548 -0.493990
-0.729460 1.471722 -0.495372
-0.722544 1.475241 -0.496598
-0.715966 1.479926 -0.498106
-0.709165 1.483982 -0.499464
-0.702423 1.488309 -0.500888
-0.696414 1.495215 -0.502937
-0.689508 1.499172 -0.504272
-0.683413 1.506055 -0.506317
-0.676730 1.510978 -0.507885
-0.669415 1.513660 -0.508907
-0.661900 1.515587 -0.509743
-0.655433 1.521482 -0.511544
-0.649186 1.528352 -0.513582
-0.642722 1.534524 -0.515449
-0.635082 1.536043 -0.516177
-0.628349 1.541271 -0.517809
-0.621522 1.546193 -0.519365
-0.614654 1.551027 -0.520897
-0.607764 1.555851 -0.522425
-0.600928 1.561011 -0.524033
-0.594474 1.568052 -0.526102
-0.587325 1.571993 -0.527407
-0.579638 1.573377 -0.528080
-0.572545 1.577662 -0.529464
-0.565849 1.584063 -0.531368
-0.560082 1.595555 -0.534528
-0.552758 1.599134 -0.535733
-0.545761 1.604593 -0.537400
-0.538338 1.607805 -0.538510
-0.531529 1.614675 -0.540523
-0.524265 1.619085 -0.541926
-0.516856 1.622739 -0.543138
-0.509581 1.627361 -0.544589
-0.502220 1.631594 -0.545942
-0.494886 1.636179 -0.547380
-0.487854 1.643107 -0.549399
-0.480779 1.650091 -0.551432
-0.473276 1.654240 -0.552758
-0.465442 1.655984 -0.553482
-0.457664 1.658222 -0.554327
-0.450482 1.665633 -0.556462
-0.442790 1.669044 -0.557597
-0.435168 1.673315 -0.558945
-0.427538 1.677819 -0.560351
-0.419981 1.683420 -0.562029
-0.412248 1.687616 -0.563356
-0.404374 1.690611 -0.564379
-0.397022 1.700091 -0.567029
-0.389324 1.706271 -0.568851
-0.381534 1.711950 -0.570546
-0.373385 1.713168 -0.571120
-0.365246 1.714660 -0.571761
-0.357223 1.718284 -0.572937
-0.349410 1.726308 -0.575220
-0.341603 1.735931 -0.577907
-0.333468 1.740358 -0.579285
-0.325268 1.744214 -0.580518
-0.317096 1.749841 -0.582198
-0.308802 1.753347 -0.583342
-0.300756 1.767457 -0.587165
-0.292390 1.773144 -0.588861
-0.283994 1.780450 -0.590967
-0.275525 1.787616 -0.593038
-0.267003 1.797201 -0.595722
-0.258392 1.809477 -0.599090
-0.249666 1.819005 -0.601763
-0.240904 1.819801 -0.602222
-0.232152 1.818622 -0.602179
-0.223163 1.832240 -0.605893
-0.214190 1.838677 -0.607785
-0.205066 1.848359 -0.610503
-0.196143 1.848246 -0.610730
-0.187137 1.850293 -0.611507
-0.178084 1.852837 -0.612409
-0.168846 1.858770 -0.614175
-0.159111 1.873363 -0.618150
-0.149773 1.877969 -0.619580
-0.140384 1.882553 -0.621006
-0.130564 1.893005 -0.623930
-0.121078 1.897038 -0.625216
-0.111592 1.900413 -0.626335
-0.101800 1.907141 -0.628312
-0.092379 1.908522 -0.628921
-0.083031 1.908829 -0.629256
-0.073423 1.911760 -0.630262
-0.063880 1.913637 -0.630998
-0.054225 1.916320 -0.631941
-0.044482 1.919461 -0.633002
-0.033953 1.929194 -0.635755
-0.023736 1.935377 -0.637599
-0.013539 1.940800 -0.639249
-0.004296 1.938238 -0.638847
0.004216 1.930257 -0.637050
0.013374 1.927453 -0.636583
0.022880 1.927200 -0.636772
0.032062 1.924675 -0.636375
0.035860 1.886844 -0.626877
0.040252 1.855082 -0.618935
0.049296 1.853891 -0.618870
0.064652 1.890499 -0.628562
0.077723 1.911624 -0.634264
0.087870 1.914956 -0.635375
0.101000 1.934436 -0.640660
0.111259 1.937431 -0.641686
0.120549 1.935143 -0.641345
0.131178 1.939700 -0.642776
0.141310 1.941493 -0.643491
0.151542 1.943607 -0.644290
0.162497 1.948961 -0.645928
0.172605 1.950085 -0.646471
0.182806 1.951508 -0.647090
0.191962 1.948186 -0.646478
0.201232 1.945427 -0.646010
0.210861 1.944229 -0.645947
0.219983 1.940912 -0.645332
0.227582 1.931500 -0.643130
0.234998 1.921667 -0.640815
0.245385 1.923697 -0.641586
0.256629 1.928843 -0.643169
0.261079 1.908328 -0.638064
0.268029 1.897678 -0.635525
0.277560 1.896640 -0.635491
0.286979 1.895172 -0.635344
0.295127 1.889275 -0.634038
0.304912 1.889094 -0.634224
0.314237 1.887305 -0.633988
0.030512 0.904667 -0.377346
0.035227 0.904411 -0.377389
0.040748 0.906655 -0.378087
0.046424 0.909265 -0.378880
0.052285 0.912316 -0.379790
0.057595 0.913586 -0.380232
0.063330 0.916031 -0.380982
0.068171 0.915773 -0.381023
0.073121 0.915793 -0.381136
0.079517 0.919831 -0.382303
0.084799 0.920629 -0.382620
0.090552 0.922643 -0.383255
0.095881 0.923419 -0.383565
0.101764 0.925597 -0.384243
0.107374 0.926957 -0.384705
0.113022 0.928332 -0.385170
0.118216 0.928471 -0.385310
0.123567 0.928951 -0.385538
0.129244 0.930178 -0.385962
0.135364 0.932402 -0.386649
0.140733 0.932713 -0.386830
0.147035 0.935180 -0.387580
0.152745 0.936143 -0.387932
0.158353 0.936797 -0.388201
0.163996 0.937459 -0.388471
0.169078 0.936787 -0.388388
0.174337 0.936473 -0.388398
0.180499 0.938092 -0.388918
0.186502 0.939270 -0.389321
0.191925 0.939120 -0.389370
0.197542 0.939323 -0.389512
0.204523 0.942314 -0.390392
0.210453 0.943001 -0.390660
0.216802 0.944464 -0.391132
0.222734 0.944990 -0.391355
0.228458 0.945025 -0.391446
0.233556 0.943760 -0.391191
0.537938 1.489097 -0.536299
0.553510 1.501038 -0.539589
0.561712 1.498908 -0.539138
0.564381 1.486559 -0.535967
0.566326 1.473063 -0.532488
0.578142 1.477472 -0.533767
0.577609 1.459758 -0.529157
0.577662 1.443355 -0.524892
0.579659 1.430577 -0.521587
0.582860 1.420035 -0.518875
0.599584 1.432560 -0.522303
0.586570 1.394796 -0.512332
0.593045 1.390094 -0.511165
0.601101 1.387982 -0.510686
0.607692 1.383430 -0.509555
0.612485 1.375985 -0.507650
0.616221 1.366918 -0.505311
0.620962 1.359525 -0.503416
0.622806 1.347689 -0.500334
0.628166 1.341422 -0.498736
0.633707 1.335473 -0.497222
0.637900 1.327537 -0.495177
0.641728 1.319146 -0.493009
0.645476 1.310740 -0.490837
0.649424 1.302734 -0.488772
0.655071 1.297289 -0.487392
0.659536 1.290216 -0.485578
0.664073 1.283347 -0.483820
0.667902 1.275594 -0.481827
0.670530 1.266307 -0.479427
0.675362 1.260219 -0.477885
0.678928 1.252529 -0.475917
0.682732 1.245317 -0.474081
0.687368 1.239373 -0.472589
0.692766 1.234581 -0.471410
0.696949 1.228334 -0.469847
0.700040 1.220840 -0.467956
0.704658 1.215511 -0.466651
0.709657 1.210839 -0.465528
0.714524 1.206169 -0.464414
-0.841818 1.399771 -0.479430
-0.836836 1.404697 -0.480869
-0.831510 1.409125 -0.482201
-0.825945 1.413284 -0.483481
-0.819667 1.415950 -0.484411
-0.813011 1.417905 -0.485180
-0.806544 1.420574 -0.486133
-0.800260 1.423953 -0.487269
-0.794401 1.428699 -0.488748
-0.788166 1.432680 -0.490050
-0.781779 1.436466 -0.491312
-0.776271 1.442896 -0.493228
-0.770042 1.447549 -0.494717
-0.763747 1.452208 -0.496213
-0.756617 1.454604 -0.497160
-0.749866 1.458220 -0.498410
-0.743129 1.461998 -0.499703
-0.737389 1.468941 -0.501777
-0.730429 1.472293 -0.502971
-0.723345 1.475321 -0.504087
-0.716618 1.479558 -0.505501
-0.709781 1.483523 -0.506850
-0.703045 1.487895 -0.508299
-0.696404 1.492666 -0.509848
-0.690214 1.499089 -0.511805
-0.683508 1.503838 -0.513348
-0.677267 1.510340 -0.515325
-0.670069 1.513473 -0.516466
-0.662590 1.515563 -0.517345
-0.655537 1.519248 -0.518619
-0.649535 1.527053 -0.520918
-0.643222 1.533822 -0.522958
-0.636134 1.537606 -0.524252
-0.628632 1.539707 -0.525124
-0.622024 1.545552 -0.526929
-0.615363 1.551298 -0.528708
-0.608327 1.555515 -0.530103
-0.601852 1.562331 -0.532147
-0.594852 1.566899 -0.533626
-0.587696 1.570815 -0.534939
-0.581024 1.577145 -0.536857
-0.574229 1.583042 -0.538664
-0.567200 1.587914 -0.540213
-0.560589 1.595105 -0.542343
-0.553394 1.599404 -0.543744
-0.545987 1.602644 -0.544876
-0.539305 1.610055 -0.547058
-0.531972 1.613961 -0.548354
-0.524636 1.617959 -0.549672
-0.517389 1.622632 -0.551158
-0.510109 1.627268 -0.552633
-0.502853 1.632242 -0.554193
-0.495594 1.637414 -0.555801
-0.488328 1.642775 -0.557456
-0.480953 1.647608 -0.558976
-0.473567 1.652611 -0.560538
-0.465879 1.655514 -0.561565
-0.458084 1.657662 -0.562398
-0.450623 1.662734 -0.563973
-0.443033 1.666993 -0.565340
-0.435330 1.670498 -0.566514
-0.427927 1.677152 -0.568490
-0.420206 1.681127 -0.569782
-0.412352 1.684006 -0.570793
-0.405068 1.693551 -0.573507
-0.397553 1.701348 -0.575774
-0.389834 1.707443 -0.577606
-0.381702 1.708708 -0.578201
-0.373723 1.712278 -0.579385
-0.365535 1.713096 -0.579862
-0.357490 1.716390 -0.580974
-0.349626 1.723471 -0.583056
-0.341615 1.728966 -0.584732
-0.333595 1.735358 -0.586638
-0.325750 1.747513 -0.590027
-0.317382 1.748450 -0.590530
-0.309468 1.764089 -0.594819
-0.301433 1.780873 -0.599405
-0.293000 1.786851 -0.601210
-0.284455 1.789814 -0.602237
-0.275894 1.793924 -0.603560
-0.267359 1.807059 -0.607213
-0.258678 1.814533 -0.609406
-0.249924 1.820986 -0.611336
-0.241154 1.819972 -0.611336
-0.232386 1.819076 -0.611365
-0.223506 1.825329 -0.613244
-0.214656 1.826981 -0.613931
-0.205666 1.833234 -0.615811
-0.196586 1.840226 -0.617883
-0.187596 1.842597 -0.618757
-0.178605 1.844231 -0.619440
-0.169427 1.849495 -0.621066
-0.159729 1.864027 -0.625102
-0.150401 1.869067 -0.626672
-0.141009 1.874219 -0.628272
-0.131683 1.877437 -0.629369
-0.121981 1.885499 -0.631729
-0.113733 1.872744 -0.628665
-0.102362 1.901026 -0.636297
-0.093535 1.895531 -0.635125
-0.084279 1.895362 -0.635341
-0.074548 1.900173 -0.636858
-0.064945 1.903111 -0.637885
-0.055896 1.900278 -0.637405
-0.046411 1.901648 -0.638022
-0.035144 1.918566 -0.642708
-0.024769 1.926419 -0.645025
-0.015061 1.928112 -0.645731
-0.005088 1.931652 -0.646920
0.003548 1.924749 -0.645372
0.012402 1.919838 -0.644344
0.022662 1.925049 -0.645972
0.031064 1.917215 -0.644174
0.039904 1.912674 -0.643240
0.050579 1.920018 -0.645429
0.058396 1.909195 -0.642840
0.067985 1.909539 -0.643188
0.076712 1.904778 -0.642191
0.089334 1.922210 -0.647038
0.100376 1.929930 -0.649331
0.110575 1.932649 -0.650307
0.120528 1.933873 -0.650888
0.129239 1.928646 -0.649767
0.139640 1.931974 -0.650903
0.148736 1.928766 -0.650313
0.158484 1.928705 -0.650553
0.169248 1.933260 -0.652014
0.179521 1.935325 -0.652817
0.187760 1.928265 -0.651204
0.197100 1.926183 -0.650908
0.207110 1.926945 -0.651364
0.214951 1.918647 -0.649417
0.219106 1.895720 -0.643587
0.226559 1.886709 -0.641445
0.237040 1.889740 -0.642496
0.247142 1.891143 -0.643116
0.250288 1.866444 -0.636797
0.238734 1.755391 -0.607736
0.249537 1.761330 -0.609544
0.269581 1.799042 -0.619814
0.272622 1.777429 -0.614286
0.277283 1.761919 -0.610379
0.031367 0.906603 -0.382616
0.036070 0.906260 -0.382640
0.041129 0.907003 -0.382954
0.047822 0.912717 -0.384595
0.052684 0.912661 -0.384696
0.057872 0.913544 -0.385046
0.063282 0.915011 -0.385553
0.068671 0.916333 -0.386020
0.074140 0.917803 -0.386527
0.079878 0.919944 -0.387214
0.085023 0.920342 -0.387433
0.090406 0.921331 -0.387810
0.096119 0.923140 -0.388407
0.101981 0.925244 -0.389082
0.107690 0.926847 -0.389623
0.113322 0.928164 -0.390087
0.119247 0.930140 -0.390727
0.124657 0.930728 -0.390994
0.130568 0.932488 -0.391575
0.135630 0.932088 -0.391575
0.141764 0.934222 -0.392256
0.147503 0.935314 -0.392655
0.152967 0.935684 -0.392860
0.158378 0.935872 -0.393015
0.164768 0.938231 -0.393754
0.170026 0.937930 -0.393775
0.176553 0.940402 -0.394543
0.181675 0.939673 -0.394447
0.187238 0.939862 -0.394597
0.192896 0.940190 -0.394784
0.199145 0.941701 -0.395290
0.205191 0.942692 -0.395654
0.211507 0.944154 -0.396145
0.217742 0.945355 -0.396564
0.223363 0.945227 -0.396622
0.229109 0.945286 -0.396730
0.234637 0.944850 -0.396703
0.543161 1.497372 -0.546776
0.548150 1.489321 -0.544727
0.568024 1.508956 -0.550187
0.566431 1.488666 -0.544811
0.571175 1.480213 -0.542645
0.570298 1.461759 -0.537759
0.577115 1.457245 -0.536654
0.580970 1.447527 -0.534133
0.585981 1.439916 -0.532182
0.593537 1.436722 -0.531428
0.602428 1.435749 -0.531276
0.590987 1.400606 -0.521826
0.594306 1.390590 -0.519207
0.600819 1.385921 -0.518041
0.607818 1.382035 -0.517085
0.615006 1.378430 -0.516205
0.616967 1.366505 -0.513057
0.619841 1.356169 -0.510338
0.624724 1.349078 -0.508503
0.629213 1.341438 -0.506516
0.633689 1.333852 -0.504542
0.638138 1.326302 -0.502577
0.642547 1.318771 -0.500617
0.645950 1.309842 -0.498275
0.650672 1.302955 -0.496489
0.654720 1.295181 -0.494462
0.659319 1.288300 -0.492680
0.664662 1.282569 -0.491213
0.668864 1.275324 -0.489333
0.672281 1.267114 -0.487192
0.674941 1.258016 -0.484810
0.678928 1.250895 -0.482971
0.683126 1.244206 -0.481253
0.688653 1.239435 -0.480064
0.693926 1.234450 -0.478821
0.697392 1.227240 -0.476973
0.700511 1.219770 -0.475058
0.705066 1.214343 -0.473708
0.709580 1.209036 -0.472397
0.714318 1.204192 -0.471219
-0.845598 1.406321 -0.488227
-0.837793 1.404507 -0.488025
-0.832261 1.408465 -0.489264
-0.826893 1.413144 -0.490694
-0.820550 1.415686 -0.491607
-0.814584 1.419446 -0.492832
-0.807824 1.421420 -0.493624
-0.801085 1.423656 -0.494491
-0.795296 1.428620 -0.496045
-0.789770 1.434558 -0.497850
-0.783583 1.438955 -0.499280
-0.777050 1.442607 -0.500531
-0.770487 1.446349 -0.501810
-0.763841 1.450015 -0.503076
-0.758156 1.456629 -0.505083
-0.750943 1.458942 -0.506019
-0.744422 1.463417 -0.507499
-0.738041 1.468453 -0.509124
-0.731099 1.471887 -0.510348
-0.724543 1.476616 -0.511899
-0.717507 1.479911 -0.513091
-0.710675 1.483928 -0.514466
-0.704188 1.489169 -0.516149
-0.697991 1.495506 -0.518110
-0.690665 1.498079 -0.519120
-0.683921 1.502703 -0.520648
-0.677643 1.509072 -0.522617
-0.670558 1.512630 -0.523874
-0.662977 1.514359 -0.524665
-0.655837 1.517721 -0.525868
-0.649452 1.524029 -0.527819
-0.643458 1.532029 -0.530199
-0.636295 1.535500 -0.531426
-0.629625 1.541036 -0.533177
-0.622898 1.546437 -0.534893
-0.615918 1.550855 -0.536356
-0.609090 1.556008 -0.538006
-0.602063 1.560370 -0.539452
-0.595206 1.565590 -0.541115
-0.588397 1.571152 -0.542865
-0.581984 1.578779 -0.545142
-0.574993 1.583777 -0.546745
-0.567861 1.588178 -0.548193
-0.560908 1.593622 -0.549907
-0.553761 1.598177 -0.551391
-0.546341 1.601350 -0.552518
-0.539415 1.607383 -0.554380
-0.532265 1.612324 -0.555959
-0.525260 1.618311 -0.557806
-0.518441 1.625690 -0.560012
-0.510879 1.628669 -0.561081
-0.503440 1.632529 -0.562376
-0.496208 1.637946 -0.564072
-0.488694 1.641631 -0.565319
-0.481133 1.645126 -0.566515
-0.473649 1.649350 -0.567899
-0.466270 1.654620 -0.569552
-0.458669 1.658387 -0.570816
-0.451116 1.662775 -0.572239
-0.443387 1.665879 -0.573327
-0.435649 1.669090 -0.574442
-0.428390 1.677147 -0.576816
-0.420510 1.679594 -0.577731
-0.412480 1.680613 -0.578272
-0.405728 1.696032 -0.582564
-0.398083 1.702520 -0.584530
-0.390122 1.705746 -0.585646
-0.382712 1.716702 -0.588778
-0.374242 1.713927 -0.588325
-0.367260 1.733544 -0.593722
-0.359256 1.739288 -0.595496
-0.350495 1.732335 -0.593947
-0.343129 1.751536 -0.599242
-0.334934 1.756676 -0.600858
-0.326516 1.757588 -0.601366
-0.318279 1.763725 -0.603243
-0.310087 1.773134 -0.605979
-0.301626 1.775969 -0.606990
-0.293230 1.782995 -0.609102
-0.284647 1.783300 -0.609448
-0.276123 1.788688 -0.611131
-0.267641 1.806662 -0.616125
-0.258875 1.788282 -0.611552
-0.250225 1.801321 -0.615249
-0.241535 1.800617 -0.615327
-0.232677 1.814841 -0.619341
-0.223909 1.814713 -0.619571
-0.215021 1.820126 -0.621263
-0.205959 1.830007 -0.624136
-0.196939 1.835171 -0.625764
-0.188054 1.834927 -0.625963
-0.179161 1.834750 -0.626179
-0.169960 1.841303 -0.628176
-0.160351 1.854605 -0.631962
-0.150926 1.862038 -0.634196
-0.141936 1.860801 -0.634132
-0.132812 1.861710 -0.634637
-0.123526 1.864677 -0.635687
-0.113542 1.876580 -0.639112
-0.103810 1.883694 -0.641267
-0.094860 1.880511 -0.640685
-0.085224 1.885318 -0.642228
-0.075507 1.890370 -0.643837
-0.065991 1.892774 -0.644743
-0.057085 1.888924 -0.643982
-0.047829 1.888557 -0.644148
-0.036187 1.909261 -0.649933
-0.027003 1.907273 -0.649669
-0.018417 1.900482 -0.648122
-0.007921 1.909079 -0.650683
0.000868 1.904069 -0.649610
0.011001 1.909100 -0.651220
0.014691 1.868453 -0.640610
0.025684 1.880009 -0.643963
0.037381 1.895353 -0.648333
0.047972 1.902617 -0.650542
0.057680 1.903913 -0.651153
0.065466 1.893548 -0.648636
0.073818 1.886988 -0.647137
0.083712 1.889433 -0.648054
0.094632 1.897296 -0.650427
0.107943 1.917453 -0.656107
0.115386 1.905925 -0.653271
0.124586 1.903830 -0.652969
0.136382 1.914608 -0.656132
0.145877 1.913678 -0.656145
0.153736 1.905005 -0.654071
0.165582 1.915029 -0.657034
0.170999 1.895585 -0.652052
0.179655 1.891186 -0.651124
0.189014 1.889938 -0.651045
0.199307 1.892609 -0.652024
0.205886 1.879774 -0.648813
0.210160 1.858090 -0.643205
0.218521 1.853382 -0.642184
0.228701 1.855854 -0.643104
0.240162 1.863032 -0.645299
0.249060 1.860302 -0.644811
0.230917 1.725792 -0.608832
0.246434 1.748857 -0.615322
0.255682 1.749305 -0.615677
0.265297 1.750916 -0.616349
0.274172 1.749934 -0.616315
0.031729 0.906940 -0.387484
0.036246 0.905975 -0.387343
0.041145 0.906204 -0.387525
0.048046 0.912542 -0.389371
0.053035 0.912856 -0.389577
0.057926 0.912828 -0.389689
0.063475 0.914691 -0.390317
0.069108 0.916702 -0.390985
0.074831 0.918868 -0.391695
0.080062 0.919550 -0.392000
0.085446 0.920594 -0.392404
0.090809 0.921507 -0.392771
0.096217 0.922474 -0.393153
0.101237 0.922344 -0.393235
0.107932 0.926535 -0.394498
0.113120 0.926695 -0.394658
0.119014 0.928594 -0.395294
0.125619 0.932171 -0.396390
0.131058 0.932728 -0.396658
0.136476 0.933174 -0.396895
0.142193 0.934273 -0.397310
0.147938 0.935360 -0.397722
0.153252 0.935364 -0.397835
0.159252 0.936894 -0.398367
0.164820 0.937351 -0.398604
0.171150 0.939454 -0.399292
0.176729 0.939784 -0.399493
0.182609 0.940708 -0.399856
0.187827 0.940119 -0.399802
0.193739 0.940973 -0.400144
0.199685 0.941816 -0.400483
0.205783 0.942896 -0.400886
0.211680 0.943475 -0.401150
0.218151 0.945147 -0.401715
0.223752 0.944966 -0.401768
0.228889 0.943802 -0.401548
0.235135 0.944779 -0.401919
0.517562 1.464289 -0.545774
0.542738 1.494900 -0.554392
0.550377 1.491829 -0.553695
0.564812 1.501309 -0.556469
0.564042 1.482612 -0.551441
0.565686 1.468598 -0.547704
0.567274 1.454686 -0.543992
0.571018 1.444791 -0.541389
0.576679 1.438361 -0.539743
0.583351 1.433711 -0.538589
0.592094 1.432597 -0.538414
0.592151 1.416692 -0.534131
0.591169 1.399285 -0.529426
0.595692 1.391263 -0.527325
0.601336 1.385145 -0.525750
0.608462 1.381453 -0.524847
0.613461 1.374327 -0.522988
0.615958 1.363285 -0.520037
0.621347 1.356915 -0.518384
0.625474 1.348624 -0.516195
0.630646 1.342022 -0.514474
0.633613 1.332121 -0.511833
0.638368 1.325029 -0.509974
0.643488 1.318552 -0.508285
0.647704 1.310804 -0.506241
0.651872 1.303082 -0.504204
0.655223 1.294282 -0.501866
0.659866 1.287453 -0.500079
0.663893 1.279851 -0.498076
0.668535 1.273227 -0.496347
0.672390 1.265624 -0.494347
0.676385 1.258349 -0.492439
0.679467 1.249977 -0.490227
0.683903 1.243593 -0.488573
0.689201 1.238496 -0.487282
0.694020 1.232896 -0.485854
0.697786 1.226070 -0.484086
0.700601 1.218195 -0.482029
0.704375 1.211755 -0.480377
0.708277 1.205669 -0.478829
0.709636 1.196577 -0.476443
-0.846492 1.405919 -0.495355
-0.838958 1.404803 -0.495322
-0.832765 1.407179 -0.496182
-0.826678 1.410092 -0.497189
-0.821394 1.415303 -0.498789
-0.815417 1.419067 -0.500033
-0.808934 1.421795 -0.501024
-0.802397 1.424606 -0.502045
-0.796483 1.429289 -0.503549
-0.790501 1.434039 -0.505079
-0.784524 1.439043 -0.506680
-0.777799 1.442196 -0.507817
-0.771173 1.445791 -0.509072
-0.765131 1.451216 -0.510799
-0.758619 1.455474 -0.512233
-0.752064 1.459754 -0.513676
-0.744668 1.461643 -0.514511
-0.738000 1.465804 -0.515929
-0.731800 1.471533 -0.517751
-0.724912 1.475237 -0.519056
-0.718478 1.480479 -0.520757
-0.711508 1.484088 -0.522039
-0.704766 1.488510 -0.523531
-0.698107 1.493294 -0.525116
-0.692315 1.501163 -0.527497
-0.685253 1.504753 -0.528775
-0.678347 1.508940 -0.530206
-0.671180 1.512224 -0.531403
-0.663854 1.514932 -0.532449
-0.656559 1.517749 -0.533522
-0.649642 1.522025 -0.534971
-0.643966 1.531266 -0.537706
-0.637106 1.535978 -0.539267
-0.630288 1.540941 -0.540891
-0.623566 1.546393 -0.542642
-0.616535 1.550623 -0.544073
-0.609448 1.554666 -0.545454
-0.602520 1.559476 -0.547033
-0.595538 1.564129 -0.548570
-0.588756 1.569818 -0.550376
-0.582424 1.577835 -0.552788
-0.575543 1.583391 -0.554558
-0.568395 1.587744 -0.556011
-0.561370 1.592834 -0.557656
-0.554175 1.597153 -0.559098
-0.546826 1.600737 -0.560346
-0.539632 1.605270 -0.561840
-0.532889 1.612569 -0.564060
-0.526209 1.620551 -0.566459
-0.519093 1.626204 -0.568246
-0.511815 1.631060 -0.569822
-0.504599 1.636521 -0.571557
-0.496778 1.638119 -0.572273
-0.489153 1.641087 -0.573348
-0.481505 1.643993 -0.574405
-0.473329 1.643017 -0.574436
-0.466190 1.649987 -0.576564
-0.459225 1.658820 -0.579183
-0.451481 1.661676 -0.580223
-0.443928 1.666370 -0.581748
-0.436476 1.672310 -0.583602
-0.428922 1.677741 -0.585321
-0.420921 1.679087 -0.585957
-0.413430 1.685918 -0.588047
-0.406096 1.695167 -0.590778
-0.398501 1.702290 -0.592947
-0.391316 1.715361 -0.596697
-0.383694 1.724197 -0.599322
-0.375819 1.730575 -0.601295
-0.367829 1.736065 -0.603032
-0.359692 1.739964 -0.604345
-0.351375 1.741248 -0.604961
-0.342849 1.738666 -0.604544
-0.335138 1.753141 -0.608678
-0.326803 1.755917 -0.609690
-0.318205 1.752237 -0.608977
-0.310179 1.765417 -0.612769
-0.301785 1.769695 -0.614183
-0.293201 1.767441 -0.613848
-0.284723 1.770083 -0.614823
-0.276199 1.771294 -0.615414
-0.267708 1.778672 -0.617659
-0.259133 1.782990 -0.619083
-0.250526 1.779461 -0.618402
-0.241844 1.792055 -0.622049
-0.233210 1.789187 -0.621544
-0.224441 1.796067 -0.623658
-0.215468 1.809309 -0.627485
-0.206258 1.826585 -0.632401
-0.197263 1.831111 -0.633888
-0.188699 1.821989 -0.631697
-0.179655 1.826832 -0.633269
-0.170784 1.826619 -0.633478
-0.161885 1.826854 -0.633807
-0.152753 1.831167 -0.635237
-0.143141 1.842707 -0.638620
-0.133702 1.849677 -0.640770
-0.124210 1.856305 -0.642830
-0.114658 1.862752 -0.644843
-0.105601 1.861999 -0.644907
-0.095897 1.868935 -0.647054
-0.086989 1.866010 -0.646529
-0.076343 1.881887 -0.651103
-0.066898 1.883852 -0.651906
-0.057841 1.881769 -0.651610
-0.049005 1.877726 -0.650782
-0.038955 1.884678 -0.652940
-0.029106 1.889246 -0.654451
-0.020504 1.883197 -0.653076
-0.011601 1.879874 -0.652440
0.008652 1.825452 -0.638409
0.017161 1.821504 -0.637592
0.025716 1.818032 -0.636905
0.044503 1.879751 -0.654014
0.052688 1.872276 -0.652239
0.059357 1.856093 -0.648083
0.068461 1.854912 -0.648023
0.081212 1.874302 -0.653591
0.090451 1.873281 -0.653578
0.098637 1.866607 -0.652016
0.108154 1.867135 -0.652425
0.119917 1.878950 -0.655929
0.133720 1.900202 -0.662024
0.141520 1.891377 -0.659871
0.149235 1.882498 -0.657701
0.157015 1.874257 -0.655703
0.163367 1.859895 -0.652020
0.173941 1.864670 -0.653595
0.184162 1.867651 -0.654678
0.193428 1.866411 -0.654600
0.199125 1.850449 -0.650466
0.203992 1.831721 -0.645566
0.211237 1.823083 -0.643442
0.219835 1.819969 -0.642838
0.225526 1.805854 -0.639198
0.228277 1.781252 -0.632658
0.223349 1.729420 -0.618589
0.231072 1.724861 -0.617569
0.236309 1.711637 -0.614153
0.243523 1.705667 -0.612739
0.253181 1.708150 -0.613663
0.264402 1.715708 -0.615992
0.031716 0.906057 -0.392031
0.036664 0.906455 -0.392267
0.043150 0.911609 -0.393823
0.048209 0.912173 -0.394105
0.053576 0.913614 -0.394630
0.058583 0.913899 -0.394835
0.063508 0.913897 -0.394959
0.069223 0.916135 -0.395706
0.074858 0.918038 -0.396360
0.080690 0.920392 -0.397140
0.086346 0.922153 -0.397755
0.091518 0.922507 -0.397977
0.096898 0.923363 -0.398339
0.102418 0.924521 -0.398786
0.107978 0.925707 -0.399239
0.113800 0.927485 -0.399858
0.118994 0.927580 -0.400007
0.125894 0.931886 -0.401332
0.131677 0.933276 -0.401843
0.137238 0.934043 -0.402179
0.142499 0.934020 -0.402293
0.148067 0.934673 -0.402596
0.154321 0.936861 -0.403329
0.159632 0.936767 -0.403422
0.165190 0.937183 -0.403657
0.170831 0.937723 -0.403927
0.177067 0.939512 -0.404547
0.182253 0.938904 -0.404493
0.188466 0.940474 -0.405050
0.194337 0.941216 -0.405374
0.200079 0.941609 -0.405600
0.205966 0.942234 -0.405890
0.211809 0.942694 -0.406133
0.217715 0.943208 -0.406391
0.223904 0.944214 -0.406786
0.229875 0.944700 -0.407035
0.235926 0.945266 -0.407305
0.527758 1.482175 -0.558942
0.542080 1.491963 -0.561872
0.552971 1.494991 -0.562896
0.556433 1.484092 -0.559987
0.560948 1.475256 -0.557657
0.563732 1.463378 -0.554464
0.566744 1.452062 -0.551426
0.570779 1.442699 -0.548937
0.576886 1.437053 -0.547496
0.586615 1.437685 -0.547829
0.588274 1.424392 -0.544219
0.588078 1.408142 -0.539769
0.589549 1.394926 -0.536173
0.595277 1.388931 -0.534620
0.602145 1.384822 -0.533600
0.608143 1.379287 -0.532174
0.611858 1.370112 -0.529713
0.617738 1.364460 -0.528250
0.623135 1.358070 -0.526576
0.627063 1.349444 -0.524265
0.631207 1.341238 -0.522072
0.633736 1.330668 -0.519205
0.638062 1.322930 -0.517142
0.643289 1.316613 -0.515482
0.648559 1.310417 -0.513856
0.653787 1.304221 -0.512230
0.658492 1.297341 -0.510409
0.659193 1.284847 -0.506988
0.663459 1.277589 -0.505059
0.667734 1.270455 -0.503166
0.672373 1.263943 -0.501451
0.676363 1.256656 -0.499517
0.679810 1.248775 -0.497414
0.684216 1.242338 -0.495726
0.689169 1.236772 -0.494288
0.693875 1.231015 -0.492798
0.697920 1.224547 -0.491108
0.701430 1.217561 -0.489273
0.704694 1.210451 -0.487406
0.708285 1.203959 -0.485718
0.712212 1.198088 -0.484212
-0.846478 1.403329 -0.501936
-0.838757 1.401776 -0.501786
-0.832322 1.403560 -0.502505
-0.827485 1.409567 -0.504324
-0.821521 1.413094 -0.505515
-0.816196 1.418528 -0.507207
-0.809772 1.421438 -0.508256
-0.803185 1.424152 -0.509263
-0.796413 1.426585 -0.510205
-0.790636 1.431884 -0.511896
-0.784634 1.436820 -0.513500
-0.778474 1.441546 -0.515056
-0.772025 1.445663 -0.516459
-0.765423 1.449518 -0.517798
-0.758831 1.453550 -0.519188
-0.751745 1.456264 -0.520237
-0.745391 1.461262 -0.521885
-0.738377 1.464396 -0.523049
-0.731744 1.468785 -0.524542
-0.725700 1.475139 -0.526552
-0.718861 1.479112 -0.527939
-0.711976 1.483005 -0.529307
-0.705134 1.487110 -0.530730
-0.698758 1.492854 -0.532584
-0.692762 1.500034 -0.534815
-0.686071 1.504945 -0.536451
-0.678923 1.508297 -0.537677
-0.671844 1.511926 -0.538974
-0.664795 1.515693 -0.540307
-0.657440 1.518329 -0.541340
-0.652176 1.529049 -0.544506
-0.644916 1.532197 -0.545672
-0.637783 1.535863 -0.546974
-0.630881 1.540508 -0.548533
-0.623946 1.545088 -0.550074
-0.616796 1.548808 -0.551386
-0.609717 1.552879 -0.552789
-0.603163 1.559369 -0.554833
-0.596358 1.564872 -0.556614
-0.589157 1.568637 -0.557933
-0.581751 1.571465 -0.559000
-0.576100 1.582993 -0.562382
-0.568975 1.587489 -0.563892
-0.562102 1.593403 -0.565779
-0.554715 1.596756 -0.566981
-0.547336 1.600205 -0.568207
-0.540387 1.606157 -0.570101
-0.533548 1.612958 -0.572222
-0.526614 1.619476 -0.574267
-0.518960 1.621830 -0.575196
-0.511412 1.624884 -0.576311
-0.504889 1.634738 -0.579248
-0.497184 1.637127 -0.580183
-0.489388 1.638925 -0.580957
-0.481550 1.640434 -0.581652
-0.473599 1.641101 -0.582119
-0.465953 1.644097 -0.583211
-0.459194 1.654420 -0.586275
-0.452805 1.668624 -0.590386
-0.445517 1.676020 -0.592663
-0.437452 1.676835 -0.593167
-0.429932 1.682881 -0.595080
-0.422299 1.688279 -0.596819
-0.414326 1.690560 -0.597715
-0.406393 1.693447 -0.598774
-0.398984 1.702771 -0.601575
-0.391646 1.714038 -0.604903
-0.383810 1.720053 -0.606809
-0.375920 1.726057 -0.608714
-0.367948 1.731637 -0.610504
-0.359453 1.729446 -0.610185
-0.350992 1.727461 -0.609920
-0.342604 1.726483 -0.609926
-0.333975 1.720091 -0.608460
-0.326221 1.733268 -0.612313
-0.318034 1.738111 -0.613901
-0.309547 1.735061 -0.613340
-0.301063 1.731091 -0.612526
-0.293223 1.754211 -0.619097
-0.284641 1.747978 -0.617666
-0.276120 1.742098 -0.616328
-0.267411 1.706451 -0.606858
-0.259149 1.703784 -0.606388
-0.250882 1.718312 -0.610619
-0.242576 1.716246 -0.610313
-0.234348 1.708536 -0.608462
-0.225862 1.721339 -0.612225
-0.216636 1.763658 -0.624079
-0.207710 1.778052 -0.628289
-0.189925 1.792491 -0.632782
-0.180287 1.815467 -0.639358
-0.171290 1.819030 -0.640607
-0.162498 1.817593 -0.640481
-0.153332 1.823141 -0.642277
-0.144547 1.821211 -0.642015
-0.134514 1.838872 -0.647147
-0.125200 1.843512 -0.648696
-0.116074 1.844867 -0.649342
-0.107866 1.834271 -0.646691
-0.097528 1.850260 -0.651373
-0.088687 1.847461 -0.650872
-0.079317 1.850508 -0.651985
-0.068020 1.872754 -0.658404
-0.058917 1.871514 -0.658336
-0.050541 1.863551 -0.656408
-0.040431 1.871537 -0.658891
-0.030781 1.874861 -0.660086
-0.021723 1.872988 -0.659841
-0.013305 1.866162 -0.658223
0.004105 1.792956 -0.638715
0.014837 1.805084 -0.642347
0.025570 1.816355 -0.645743
0.040130 1.851157 -0.655687
0.047522 1.839592 -0.652739
0.055685 1.833243 -0.651240
0.066756 1.844063 -0.654522
0.078672 1.858962 -0.658943
0.089145 1.865054 -0.660913
0.097151 1.857574 -0.659098
0.107039 1.860196 -0.660101
0.121855 1.887588 -0.668021
0.130237 1.881746 -0.666664
0.137328 1.869890 -0.663624
0.144956 1.861051 -0.661424
0.153750 1.857917 -0.660818
0.167358 1.876489 -0.666288
0.172688 1.857789 -0.661322
0.183955 1.865353 -0.663712
0.191127 1.855298 -0.661163
0.194799 1.831182 -0.654667
0.199930 1.813876 -0.650074
0.208037 1.808963 -0.648957
0.213410 1.793582 -0.644898
0.220005 1.783378 -0.642289
0.225677 1.770058 -0.638800
0.225262 1.734928 -0.629169
0.227680 1.711193 -0.622737
0.233385 1.699832 -0.619783
0.239645 1.690735 -0.617464
0.250385 1.697114 -0.619505
0.263027 1.709558 -0.623260
0.032487 0.907697 -0.397295
0.037459 0.908123 -0.397546
0.042957 0.910140 -0.398246
0.048612 0.912537 -0.399055
0.053866 0.913605 -0.399488
0.059087 0.914507 -0.399874
0.064029 0.914524 -0.400009
0.069418 0.915790 -0.400498
0.075016 0.917572 -0.401133
0.081844 0.922696 -0.402717
0.086600 0.921923 -0.402628
0.092187 0.923384 -0.403172
0.097476 0.923963 -0.403467
0.102903 0.924848 -0.403848
0.109423 0.928503 -0.405016
0.114634 0.928658 -0.405190
0.120150 0.929533 -0.405568
0.125824 0.930729 -0.406037
0.132260 0.933723 -0.407019
0.137513 0.933716 -0.407145
0.142694 0.933489 -0.407208
0.147880 0.933228 -0.407261
0.154932 0.937274 -0.408544
0.160433 0.937594 -0.408762
0.165554 0.936991 -0.408716
0.171096 0.937293 -0.408929
0.176556 0.937352 -0.409071
0.182020 0.937361 -0.409199
0.189291 0.941215 -0.410427
0.195149 0.941903 -0.410748
0.200817 0.942113 -0.410933
0.206559 0.942414 -0.411143
0.212158 0.942352 -0.411248
0.217975 0.942671 -0.411462
0.224306 0.943952 -0.411952
0.230812 0.945486 -0.412514
0.237040 0.946372 -0.412889
0.526812 1.478671 -0.566179
0.546046 1.497755 -0.571854
0.547647 1.483315 -0.567885
0.554678 1.479133 -0.566866
0.560114 1.472022 -0.565001
0.566303 1.466320 -0.563540
0.571595 1.459031 -0.561618
0.573450 1.445724 -0.557959
0.578749 1.438616 -0.556084
0.593222 1.447396 -0.558792
0.595237 1.434592 -0.555270
0.585344 1.401848 -0.545983
0.588842 1.392077 -0.543328
0.595247 1.387212 -0.542087
0.601824 1.382626 -0.540926
0.608641 1.378419 -0.539873
0.612713 1.369811 -0.537545
0.617865 1.362990 -0.535732
0.623051 1.356270 -0.533946
0.627503 1.348458 -0.531843
0.632031 1.340833 -0.529793
0.634283 1.329834 -0.526762
0.638520 1.321954 -0.524634
0.643223 1.314852 -0.522730
0.648460 1.308605 -0.521075
0.653880 1.302686 -0.519514
0.658434 1.295585 -0.517609
0.660430 1.284938 -0.514673
0.663550 1.276047 -0.512247
0.668228 1.269469 -0.510494
0.672777 1.262821 -0.508721
0.677013 1.255862 -0.506859
0.680426 1.247923 -0.504711
0.684196 1.240622 -0.502751
0.689087 1.234966 -0.501271
0.694283 1.229846 -0.499950
0.698586 1.223702 -0.498333
0.702969 1.217827 -0.496796
0.706898 1.211543 -0.495142
0.709936 1.204318 -0.493216
0.719463 1.205445 -0.493735
-0.841374 1.388582 -0.505318
-0.838908 1.399589 -0.508459
-0.833258 1.403305 -0.509696
-0.827912 1.408077 -0.511220
-0.822999 1.414259 -0.513126
-0.816295 1.416232 -0.513932
-0.810319 1.420303 -0.515300
-0.803654 1.422836 -0.516269
-0.796621 1.424597 -0.517041
-0.790088 1.427864 -0.518217
-0.784994 1.435253 -0.520489
-0.778856 1.440048 -0.522081
-0.772411 1.444190 -0.523506
-0.765756 1.447901 -0.524820
-0.758884 1.451130 -0.526010
-0.752262 1.455209 -0.527429
-0.745873 1.460118 -0.529071
-0.739174 1.464225 -0.530502
-0.732422 1.468274 -0.531920
-0.726808 1.476005 -0.534321
-0.719854 1.479654 -0.535635
-0.712557 1.482247 -0.536668
-0.706365 1.488527 -0.538686
-0.699992 1.494339 -0.540580
-0.692973 1.498051 -0.541912
-0.685974 1.501871 -0.543273
-0.679050 1.506002 -0.544716
-0.672256 1.510655 -0.546300
-0.665215 1.514463 -0.547655
-0.658763 1.520532 -0.549618
-0.651879 1.525054 -0.551164
-0.645754 1.532633 -0.553532
-0.638540 1.536017 -0.554771
-0.631632 1.540675 -0.556351
-0.624679 1.545213 -0.557898
-0.616510 1.544599 -0.558052
-0.610243 1.552181 -0.560419
-0.604446 1.562085 -0.563415
-0.597378 1.566479 -0.564919
-0.589584 1.567529 -0.565516
-0.582050 1.569754 -0.566430
-0.576002 1.579298 -0.569328
-0.569365 1.586220 -0.571514
-0.562490 1.592129 -0.573425
-0.555401 1.597083 -0.575076
-0.547959 1.600247 -0.576240
-0.540899 1.605610 -0.578000
-0.533705 1.610384 -0.579600
-0.526349 1.614352 -0.580979
-0.518933 1.618068 -0.582289
-0.511141 1.619508 -0.582976
-0.503693 1.623182 -0.584272
-0.496808 1.630792 -0.586642
-0.489422 1.635312 -0.588169
-0.481769 1.638099 -0.589220
-0.476507 1.658937 -0.595214
-0.468371 1.658857 -0.595480
-0.461113 1.665778 -0.597664
-0.453360 1.668993 -0.598832
-0.445894 1.674916 -0.600743
-0.438287 1.679969 -0.602415
-0.430370 1.682432 -0.603375
-0.422564 1.686168 -0.604684
-0.414741 1.690017 -0.606024
-0.406711 1.691904 -0.606823
-0.398944 1.697020 -0.608512
-0.391776 1.710154 -0.612411
-0.383501 1.710228 -0.612710
-0.375552 1.714854 -0.614264
-0.367810 1.723265 -0.616864
-0.359505 1.723709 -0.617264
-0.351083 1.722111 -0.617098
-0.342687 1.720714 -0.616986
-0.332321 1.676732 -0.605082
-0.323164 1.651565 -0.598376
-0.315338 1.655846 -0.599823
-0.300872 1.712230 -0.615987
-0.292526 1.709330 -0.615449
-0.284439 1.719449 -0.618526
-0.275920 1.704176 -0.614548
-0.267625 1.698715 -0.613293
-0.259402 1.699817 -0.613862
-0.251160 1.704258 -0.615360
-0.242876 1.707734 -0.616590
-0.234631 1.704197 -0.615866
-0.226655 1.685355 -0.610872
-0.203528 1.637281 -0.598215
-0.195726 1.632362 -0.597090
-0.172415 1.797594 -0.643811
-0.162906 1.812483 -0.648250
-0.155451 1.786808 -0.641333
-0.144719 1.820494 -0.651042
-0.136254 1.813591 -0.649382
-0.126922 1.820093 -0.651479
-0.118405 1.814572 -0.650204
-0.108926 1.821835 -0.652516
-0.100125 1.820012 -0.652278
-0.090388 1.828868 -0.655041
-0.082055 1.821649 -0.653285
-0.072658 1.825860 -0.654744
-0.061931 1.842473 -0.659696
-0.051286 1.856712 -0.663983
-0.042444 1.853653 -0.663399
-0.031914 1.865071 -0.666897
-0.023473 1.858463 -0.665313
-0.014790 1.854174 -0.664380
0.013378 1.794545 -0.648623
0.024854 1.810939 -0.653533
0.033571 1.808699 -0.653170
0.042382 1.807091 -0.652985
0.054415 1.824758 -0.658264
0.064573 1.830445 -0.660151
0.075624 1.840771 -0.663355
0.086568 1.849869 -0.666214
0.100298 1.873273 -0.673141
0.112024 1.884965 -0.676744
0.121689 1.885551 -0.677193
0.129113 1.874965 -0.674464
0.134159 1.853358 -0.668594
0.141207 1.842126 -0.665672
0.154586 1.860441 -0.671167
0.163707 1.858728 -0.670957
0.179075 1.884453 -0.678574
0.181687 1.854197 -0.670220
0.189298 1.846176 -0.668207
0.194236 1.827426 -0.663126
0.199811 1.811941 -0.658973
0.208226 1.808233 -0.658183
0.213129 1.791010 -0.653525
0.219413 1.779636 -0.650536
0.228812 1.780221 -0.650969
0.227342 1.741027 -0.640001
0.228147 1.711368 -0.631756
0.230306 1.687493 -0.625162
0.235228 1.673957 -0.621528
0.247475 1.685699 -0.625149
0.268744 1.727062 -0.637285
0.033562 0.910309 -0.402868
0.038060 0.909164 -0.402675
0.043041 0.909530 -0.402916
0.048369 0.910907 -0.403448
0.054421 0.914390 -0.404588
0.059526 0.914912 -0.404874
0.064400 0.914703 -0.404950
0.069753 0.915842 -0.405414
0.076179 0.919947 -0.406735
0.081445 0.920650 -0.407074
0.087026 0.922156 -0.407646
0.091974 0.921861 -0.407696
0.097946 0.924267 -0.408528
0.103797 0.926242 -0.409236
0.110029 0.929110 -0.410202
0.115289 0.929360 -0.410411
0.120434 0.929269 -0.410520
0.126185 0.930643 -0.411054
0.132307 0.932842 -0.411828
0.137930 0.933727 -0.412220
0.142716 0.932535 -0.412009
0.149928 0.937050 -0.413456
0.154913 0.936210 -0.413347
0.160971 0.937807 -0.413946
0.166050 0.937088 -0.413872
0.171271 0.936651 -0.413878
0.176972 0.937233 -0.414182
0.183049 0.938565 -0.414703
0.189465 0.940537 -0.415412
0.195356 0.941285 -0.415763
0.201555 0.942605 -0.416282
0.207636 0.943586 -0.416701
0.213063 0.943139 -0.416703
0.218473 0.942607 -0.416680
0.225081 0.944423 -0.417343
0.231949 0.946649 -0.418126
0.238007 0.947170 -0.418410
0.526201 1.475792 -0.573583
0.539623 1.483878 -0.576155
0.546770 1.479947 -0.575205
0.552968 1.474245 -0.573734
0.558263 1.466912 -0.571781
0.565355 1.462879 -0.570796
0.575209 1.463752 -0.571250
0.579929 1.455435 -0.569003
0.584705 1.447287 -0.566803
0.592789 1.444913 -0.566299
0.596426 1.434894 -0.563543
0.589147 1.406567 -0.555393
0.589017 1.390678 -0.550900
0.595407 1.385784 -0.549643
0.603134 1.383070 -0.549028
0.608217 1.376038 -0.547138
0.613427 1.369257 -0.545321
0.618507 1.362311 -0.543453
0.622645 1.353942 -0.541163
0.627289 1.346434 -0.539126
0.632054 1.339177 -0.537161
0.635996 1.330737 -0.534845
0.639904 1.322339 -0.532539
0.643740 1.313929 -0.530229
0.647622 1.305688 -0.527967
0.652961 1.299662 -0.526361
0.657845 1.293047 -0.524580
0.661323 1.284517 -0.522230
0.665029 1.276434 -0.520013
0.668927 1.268748 -0.517912
0.673942 1.262728 -0.516307
0.678437 1.256103 -0.514522
0.681826 1.248109 -0.512330
0.684689 1.239573 -0.509978
0.689218 1.233427 -0.508336
0.694949 1.229000 -0.507209
0.700256 1.224146 -0.505955
0.704577 1.218164 -0.504367
0.708579 1.211949 -0.502711
0.712301 1.205564 -0.501006
0.711967 1.194298 -0.497845
-0.847313 1.400187 -0.515625
-0.840196 1.400136 -0.515862
-0.834962 1.404904 -0.517401
-0.829141 1.408554 -0.518648
-0.823248 1.412314 -0.519934
-0.817523 1.416784 -0.521419
-0.810480 1.418151 -0.522077
-0.804763 1.423160 -0.523722
-0.798484 1.426957 -0.525047
-0.791155 1.428161 -0.525679
-0.785436 1.433877 -0.527533
-0.779455 1.439120 -0.529265
-0.773007 1.443269 -0.530706
-0.766285 1.446810 -0.531987
-0.759794 1.451161 -0.533490
-0.753236 1.455462 -0.534983
-0.746273 1.458685 -0.536186
-0.739562 1.462768 -0.537624
-0.734065 1.470704 -0.540110
-0.727606 1.475844 -0.541839
-0.720779 1.479931 -0.543283
-0.714187 1.484859 -0.544957
-0.707632 1.490011 -0.546693
-0.700273 1.492551 -0.547717
-0.693068 1.495624 -0.548886
-0.686098 1.499535 -0.550284
-0.679588 1.505130 -0.552141
-0.672547 1.508901 -0.553499
-0.665786 1.513746 -0.555150
-0.659131 1.519063 -0.556931
-0.652781 1.525648 -0.559059
-0.646337 1.532012 -0.561126
-0.639586 1.537282 -0.562893
-0.632182 1.539961 -0.563948
-0.625075 1.543875 -0.565340
-0.618651 1.550761 -0.567549
-0.611775 1.555838 -0.569261
-0.604884 1.560949 -0.570981
-0.597825 1.565396 -0.572518
-0.590305 1.567753 -0.573476
-0.583082 1.571521 -0.574823
-0.576162 1.576843 -0.576598
-0.569402 1.583113 -0.578635
-0.562784 1.590319 -0.580931
-0.555569 1.594596 -0.582416
-0.548257 1.598450 -0.583783
-0.540691 1.600966 -0.584778
-0.533436 1.605302 -0.586277
-0.526071 1.609116 -0.587631
-0.518743 1.613264 -0.589076
-0.511228 1.616372 -0.590231
-0.503786 1.620046 -0.591543
-0.496522 1.625046 -0.593224
-0.489314 1.630662 -0.595076
-0.481972 1.635602 -0.596739
-0.474986 1.643464 -0.599218
-0.468597 1.656456 -0.603129
-0.460925 1.660004 -0.604405
-0.453394 1.664938 -0.606069
-0.445840 1.669989 -0.607765
-0.437983 1.672619 -0.608784
-0.430025 1.674437 -0.609575
-0.422159 1.677278 -0.610652
-0.414438 1.681854 -0.612215
-0.406736 1.687052 -0.613952
-0.398862 1.690750 -0.615268
-0.391131 1.696602 -0.617189
-0.382222 1.687565 -0.614930
-0.375001 1.701077 -0.619003
-0.367630 1.714228 -0.622978
-0.359434 1.715920 -0.623732
-0.351190 1.717032 -0.624322
-0.342981 1.718979 -0.625147
-0.334131 1.707640 -0.622227
-0.323845 1.659527 -0.608932
-0.314867 1.634147 -0.602035
-0.298132 1.601279 -0.593270
-0.290287 1.597448 -0.592440
-0.267853 1.692402 -0.620076
-0.259620 1.685491 -0.618384
-0.243811 1.593333 -0.592778
-0.236101 1.590214 -0.592142
-0.204166 1.622234 -0.602235
-0.196043 1.628252 -0.604198
-0.184016 1.730742 -0.633623
-0.174274 1.759661 -0.642126
-0.165268 1.767879 -0.644739
-0.156470 1.770644 -0.645800
-0.147085 1.782743 -0.649524
-0.137538 1.795388 -0.653408
-0.127875 1.807812 -0.657232
-0.119357 1.802945 -0.656119
-0.111137 1.794763 -0.654057
-0.100849 1.812182 -0.659315
-0.092723 1.803112 -0.656998
-0.083512 1.806506 -0.658247
-0.074000 1.812522 -0.660247
-0.063234 1.830016 -0.665540
-0.054741 1.824788 -0.664322
-0.044866 1.832144 -0.666712
-0.036209 1.828460 -0.665936
-0.027259 1.827366 -0.665902
0.032556 1.801474 -0.660403
0.042314 1.805841 -0.661939
0.051518 1.806562 -0.662425
0.063520 1.823388 -0.667561
0.068388 1.798988 -0.660793
0.082127 1.824477 -0.668437
0.099671 1.868816 -0.681541
0.110965 1.878306 -0.684575
0.120914 1.880431 -0.685479
0.124570 1.851305 -0.677332
0.130083 1.832472 -0.672159
0.139395 1.832327 -0.672399
0.160898 1.844765 -0.676574
0.167003 1.830076 -0.672592
0.173292 1.816755 -0.669003
0.188137 1.839863 -0.676001
0.194343 1.826417 -0.672373
0.200258 1.812281 -0.668540
0.204665 1.792704 -0.663119
0.208488 1.771574 -0.657239
0.213124 1.754288 -0.652473
0.220700 1.748529 -0.651063
0.228650 1.744287 -0.650095
0.214762 1.631342 -0.617639
0.224017 1.633744 -0.618592
0.222486 1.599413 -0.608805
0.227212 1.587067 -0.605439
0.033718 0.909948 -0.407612
0.038368 0.909271 -0.407555
0.043133 0.908940 -0.407598
0.049197 0.912558 -0.408800
0.054704 0.914346 -0.409466
0.059601 0.914229 -0.409573
0.065183 0.916078 -0.410258
0.070832 0.918024 -0.410971
0.076197 0.919066 -0.411419
0.081424 0.919653 -0.411733
0.086714 0.920351 -0.412080
0.092817 0.923191 -0.413058
0.097989 0.923421 -0.413268
0.104940 0.928281 -0.414843
0.110387 0.929058 -0.415215
0.115601 0.929173 -0.415391
0.120843 0.929312 -0.415574
0.126471 0.930357 -0.416025
0.132576 0.932497 -0.416800
0.138398 0.933847 -0.417342
0.144173 0.935000 -0.417826
0.150038 0.936286 -0.418349
0.156114 0.937976 -0.418992
0.160809 0.936399 -0.418667
0.166359 0.936748 -0.418913
0.172381 0.938091 -0.419453
0.178032 0.938525 -0.419724
0.184188 0.939992 -0.420302
0.189984 0.940591 -0.420622
0.196063 0.941720 -0.421100
0.201388 0.941179 -0.421081
0.207978 0.943215 -0.421828
0.213406 0.942758 -0.421834
0.219442 0.943482 -0.422191
0.225697 0.944561 -0.422655
0.232073 0.945791 -0.423163
0.238935 0.947877 -0.423927
0.525825 1.473343 -0.581106
0.538219 1.479479 -0.583158
0.548114 1.480704 -0.583744
0.550596 1.468120 -0.580201
0.557940 1.464575 -0.579358
0.564305 1.459235 -0.577977
0.568289 1.449661 -0.575326
0.573566 1.442467 -0.573385
0.580742 1.438629 -0.572448
0.581791 1.424209 -0.568336
0.587725 1.418316 -0.566779
0.589490 1.405418 -0.563118
0.591608 1.393281 -0.559681
0.596872 1.386483 -0.557845
0.603153 1.381381 -0.556517
0.609977 1.377158 -0.555453
0.614661 1.369505 -0.553355
0.619077 1.361492 -0.551147
0.623051 1.352858 -0.548750
0.627274 1.344696 -0.546494
0.630768 1.335499 -0.543923
0.635298 1.327969 -0.541854
0.639573 1.320132 -0.539690
0.643779 1.312276 -0.537519
0.647291 1.303494 -0.535067
0.652575 1.297391 -0.533424
0.657851 1.291340 -0.531796
0.661217 1.282652 -0.529369
0.665652 1.275596 -0.527435
0.670821 1.269666 -0.525841
0.674641 1.261971 -0.523713
0.678673 1.254702 -0.521713
0.681502 1.245950 -0.519263
0.684798 1.237995 -0.517055
0.689976 1.232699 -0.515653
0.695865 1.228463 -0.514575
0.701124 1.223530 -0.513285
0.705200 1.217217 -0.511577
0.708990 1.210720 -0.509812
0.711761 1.203126 -0.507715
0.713578 1.194559 -0.505321
-0.849425 1.402630 -0.523571
-0.841695 1.401167 -0.523424
-0.835529 1.403705 -0.524378
-0.829545 1.406967 -0.525537
-0.823870 1.411284 -0.526993
-0.817402 1.413888 -0.527987
-0.811591 1.418414 -0.529514
-0.804778 1.420604 -0.530408
-0.799001 1.425724 -0.532111
-0.792433 1.428983 -0.533308
-0.786066 1.432980 -0.534714
-0.779932 1.437817 -0.536355
-0.773826 1.442938 -0.538078
-0.767270 1.446981 -0.539509
-0.760564 1.450742 -0.540865
-0.753842 1.454585 -0.542246
-0.746965 1.458087 -0.543535
-0.739985 1.461375 -0.544767
-0.733873 1.467417 -0.546762
-0.727096 1.471533 -0.548226
-0.721214 1.478592 -0.550505
-0.714840 1.484235 -0.552395
-0.707756 1.487658 -0.553669
-0.700649 1.491040 -0.554932
-0.693588 1.494614 -0.556249
-0.687032 1.499986 -0.558065
-0.680979 1.507248 -0.560407
-0.673834 1.510717 -0.561694
-0.666856 1.514825 -0.563158
-0.660192 1.520160 -0.564964
-0.653508 1.525515 -0.566776
-0.646692 1.530445 -0.568468
-0.639784 1.535085 -0.570079
-0.632762 1.539322 -0.571578
-0.625796 1.543850 -0.573156
-0.619129 1.549725 -0.575112
-0.612165 1.554432 -0.576740
-0.604886 1.557811 -0.577994
-0.598104 1.563491 -0.579894
-0.591001 1.567802 -0.581410
-0.583831 1.571875 -0.582857
-0.576734 1.576373 -0.584423
-0.569598 1.580775 -0.585962
-0.562521 1.585578 -0.587613
-0.555413 1.590345 -0.589254
-0.548150 1.594397 -0.590693
-0.540788 1.597997 -0.592003
-0.533337 1.601169 -0.593192
-0.526039 1.605308 -0.594654
-0.518635 1.608935 -0.595970
-0.511595 1.614968 -0.597966
-0.504175 1.618793 -0.599338
-0.496676 1.622229 -0.600599
-0.489146 1.625571 -0.601833
-0.481301 1.626771 -0.602459
-0.473073 1.625091 -0.602266
-0.467685 1.645198 -0.608259
-0.460407 1.651551 -0.610349
-0.452868 1.656144 -0.611939
-0.445385 1.661523 -0.613752
-0.437203 1.660908 -0.613860
-0.429009 1.660029 -0.613891
-0.421677 1.667611 -0.616332
-0.413927 1.671497 -0.617720
-0.406078 1.674611 -0.618888
-0.398676 1.683251 -0.621634
-0.390665 1.685298 -0.622498
-0.382964 1.691622 -0.624584
-0.374933 1.694117 -0.625576
-0.366717 1.694139 -0.625861
-0.358234 1.689758 -0.624884
-0.351223 1.710601 -0.631131
-0.342403 1.700371 -0.628476
-0.334124 1.699557 -0.628519
-0.325672 1.694442 -0.627325
-0.317121 1.685383 -0.624997
-0.308624 1.675314 -0.622376
-0.298423 1.600616 -0.601171
-0.290509 1.594184 -0.599577
-0.274563 1.559044 -0.589968
-0.266963 1.555960 -0.589328
-0.244240 1.560240 -0.591306
-0.236345 1.588242 -0.599638
-0.209940 1.714669 -0.636957
-0.201390 1.720892 -0.639028
-0.193007 1.720372 -0.639148
-0.184387 1.725776 -0.640985
-0.175335 1.739528 -0.645242
-0.166340 1.749285 -0.648346
-0.156949 1.764417 -0.653011
-0.148006 1.769364 -0.654725
-0.139487 1.766777 -0.654251
-0.131263 1.760156 -0.652605
-0.122669 1.759295 -0.652631
-0.113971 1.759747 -0.653039
-0.104889 1.764633 -0.654737
-0.095199 1.775740 -0.658249
-0.084655 1.794729 -0.664061
-0.074890 1.803780 -0.666982
-0.066788 1.795735 -0.664918
-0.058964 1.785756 -0.662288
-0.049479 1.791253 -0.664173
-0.040081 1.795449 -0.665681
-0.031828 1.789904 -0.664342
-0.070211 1.366163 -0.540900
-0.064819 1.355625 -0.538030
-0.020035 1.515275 -0.585491
0.031407 1.793409 -0.667342
0.041740 1.801474 -0.669992
0.050825 1.801539 -0.670295
0.058304 1.792208 -0.667837
0.066350 1.786528 -0.666449
0.072952 1.773177 -0.662804
0.090623 1.819473 -0.676711
0.108043 1.861976 -0.689517
0.115993 1.854328 -0.687557
0.121107 1.833000 -0.681562
0.130078 1.831201 -0.681321
0.137303 1.821214 -0.678664
0.146750 1.821823 -0.679132
0.154752 1.815852 -0.677656
0.164929 1.819611 -0.679055
0.172906 1.813704 -0.677596
0.178723 1.798921 -0.673509
0.193092 1.819824 -0.679983
0.195989 1.793635 -0.672514
0.192622 1.743748 -0.658012
0.194842 1.717365 -0.650464
