ply
format ascii 1.0
comment ---
element vertex 1672
property float x
property float y
property float z
element face 0
property list uchar uint vertex_indices
end_header
-0.850838 1.388403 -0.221370
-0.845068 1.394550 -0.222358
-0.838330 1.398577 -0.222906
-0.831816 1.403164 -0.223568
-0.824933 1.406929 -0.224061
-0.818287 1.411284 -0.224676
-0.811889 1.416272 -0.225423
-0.805610 1.421598 -0.226241
-0.799741 1.427999 -0.227282
-0.792890 1.431993 -0.227830
-0.785888 1.435607 -0.228303
-0.779102 1.439777 -0.228894
-0.772325 1.443983 -0.229496
-0.765767 1.448788 -0.230225
-0.759148 1.453452 -0.230928
-0.752479 1.458003 -0.231613
-0.745733 1.462358 -0.232262
-0.739105 1.467068 -0.232988
-0.732357 1.471455 -0.233652
-0.726854 1.479529 -0.235072
-0.720512 1.485230 -0.236013
-0.713364 1.488545 -0.236473
-0.706136 1.491605 -0.236886
-0.699937 1.497879 -0.237957
-0.693341 1.502979 -0.238794
-0.686429 1.507110 -0.239438
-0.679689 1.511836 -0.240209
-0.672829 1.516207 -0.240912
-0.666044 1.520880 -0.241681
-0.659116 1.525111 -0.242365
-0.652747 1.531365 -0.243463
-0.645763 1.535522 -0.244141
-0.639231 1.541392 -0.245169
-0.631854 1.544209 -0.245586
-0.624892 1.548623 -0.246329
-0.617524 1.551521 -0.246770
-0.610527 1.555912 -0.247517
-0.603943 1.562054 -0.248621
-0.597927 1.570699 -0.250234
-0.590371 1.573113 -0.250595
-0.582621 1.574705 -0.250793
-0.575539 1.579212 -0.251584
-0.568666 1.584774 -0.252590
-0.561260 1.588045 -0.253139
-0.553570 1.590039 -0.253434
-0.546934 1.597135 -0.254760
-0.542204 1.613903 -0.258033
-0.535800 1.622947 -0.259756
-0.528699 1.628748 -0.260829
-0.522928 1.641854 -0.263374
-0.515298 1.645420 -0.264004
-0.506600 1.643105 -0.263457
-0.498807 1.645812 -0.263921
-0.492675 1.658467 -0.266386
-0.489012 1.686887 -0.272016
-0.478423 1.673343 -0.269228
-0.470390 1.675491 -0.269591
-0.462747 1.680321 -0.270495
-0.454627 1.682107 -0.270791
-0.446455 1.683579 -0.271027
-0.439962 1.697556 -0.273772
-0.431514 1.697467 -0.273700
-0.423905 1.704011 -0.274960
-0.415868 1.707463 -0.275602
-0.409085 1.721996 -0.278467
-0.401126 1.727116 -0.279447
-0.393194 1.732898 -0.280562
-0.384927 1.735871 -0.281116
-0.376835 1.740899 -0.282084
-0.368521 1.743988 -0.282666
-0.361028 1.756800 -0.285196
-0.352940 1.763828 -0.286570
-0.344418 1.766068 -0.286986
-0.336027 1.770362 -0.287816
-0.327260 1.769685 -0.287652
-0.318110 1.762817 -0.286251
-0.309494 1.763934 -0.286450
-0.302865 1.802169 -0.294079
-0.294219 1.806633 -0.294950
-0.285572 1.812009 -0.296005
-0.277059 1.822022 -0.297989
-0.268299 1.827652 -0.299098
-0.259402 1.830490 -0.299650
-0.250692 1.841780 -0.301894
-0.241912 1.854875 -0.304500
-0.232849 1.857900 -0.305092
-0.223771 1.862192 -0.305940
-0.214657 1.867484 -0.306989
-0.205489 1.870035 -0.307491
-0.196294 1.873196 -0.308116
-0.187002 1.884568 -0.310385
-0.177705 1.887682 -0.311003
-0.168377 1.890849 -0.311633
-0.159044 1.892809 -0.312023
-0.149550 1.899956 -0.313451
-0.139998 1.906737 -0.314808
-0.130378 1.913542 -0.316171
-0.120800 1.917713 -0.317008
-0.111161 1.922300 -0.317930
-0.101869 1.919118 -0.317299
-0.092485 1.918101 -0.317102
-0.082026 1.935004 -0.320491
-0.071609 1.948744 -0.323250
-0.061677 1.953610 -0.324234
-0.051796 1.957122 -0.324949
-0.041971 1.959440 -0.325427
-0.031673 1.967074 -0.326970
-0.020934 1.978796 -0.329333
-0.010844 1.982345 -0.330062
-0.000929 1.983718 -0.330357
0.009221 1.987175 -0.331071
0.019764 1.993922 -0.332446
0.030228 1.999339 -0.333556
0.040618 2.003631 -0.334443
0.050974 2.007246 -0.335197
0.061300 2.010305 -0.335842
0.072197 2.017402 -0.337297
0.082363 2.018606 -0.337575
0.092840 2.021861 -0.338266
0.103976 2.029341 -0.339805
0.114431 2.031784 -0.340339
0.125484 2.037843 -0.341599
0.136312 2.042069 -0.342495
0.147373 2.047396 -0.343615
0.157681 2.047937 -0.343779
0.167326 2.044598 -0.343168
0.177306 2.043232 -0.342955
0.187376 2.042349 -0.342843
0.197381 2.041097 -0.342659
0.206445 2.034999 -0.341508
0.215869 2.030931 -0.340766
0.225338 2.027199 -0.340095
0.233104 2.015430 -0.337815
0.242638 2.012366 -0.337284
0.252219 2.009576 -0.336812
0.258703 1.993008 -0.333578
0.262079 1.963503 -0.327749
0.273352 1.968897 -0.328931
0.281819 1.962240 -0.327696
0.288038 1.946550 -0.324650
0.291517 1.920389 -0.319502
0.298578 1.909266 -0.317379
0.309784 1.914494 -0.318548
0.320115 1.916110 -0.318996
0.328042 1.908633 -0.317619
0.335529 1.899727 -0.315959
0.343307 1.892082 -0.314556
0.351675 1.886687 -0.313612
0.358461 1.875904 -0.311585
0.365036 1.864672 -0.309472
0.372422 1.856428 -0.307966
0.380329 1.850061 -0.306843
0.388365 1.844213 -0.305830
0.392497 1.826043 -0.302332
0.399361 1.816884 -0.300659
0.406690 1.809334 -0.299315
0.414494 1.803342 -0.298291
0.419156 1.788059 -0.295392
0.426016 1.779574 -0.293873
0.434437 1.775739 -0.293301
0.438874 1.760562 -0.290435
0.445560 1.752017 -0.288917
0.452034 1.743016 -0.287312
0.460712 1.740148 -0.286957
0.470203 1.739419 -0.287043
0.465930 1.702204 -0.279717
0.472365 1.693816 -0.278253
0.480626 1.690227 -0.277771
0.481565 1.668067 -0.273511
0.487080 1.657820 -0.271680
0.492425 1.647308 -0.269799
0.492847 1.624995 -0.265512
0.502545 1.625388 -0.265864
0.501061 1.599207 -0.260788
0.509610 1.597003 -0.260618
0.517929 1.594205 -0.260331
0.523068 1.584137 -0.258559
0.527092 1.571710 -0.256304
0.532499 1.562547 -0.254721
0.536810 1.551113 -0.252673
0.542881 1.543658 -0.251444
0.544052 1.525849 -0.248084
0.550945 1.520422 -0.247273
0.553388 1.505793 -0.244564
0.557054 1.493945 -0.242426
0.561853 1.484605 -0.240804
0.567905 1.477925 -0.239730
0.572281 1.468029 -0.237986
0.578424 1.461767 -0.236992
0.582375 1.451374 -0.235136
0.586980 1.442439 -0.233575
0.590790 1.432187 -0.231734
0.593700 1.420480 -0.229580
0.599826 1.414971 -0.228706
0.607645 1.412687 -0.228496
0.612074 1.404370 -0.227016
0.616202 1.395738 -0.225458
0.619519 1.385918 -0.223637
0.623115 1.376861 -0.221959
0.627942 1.370206 -0.220767
0.632005 1.362477 -0.219333
0.637407 1.357281 -0.218411
0.642129 1.351171 -0.217279
0.648822 1.348583 -0.216866
0.654015 1.343725 -0.215956
-0.964724 1.307303 -0.215521
-0.961280 1.314406 -0.216981
-0.956557 1.319482 -0.217983
-0.952750 1.326529 -0.219388
-0.947412 1.331018 -0.220222
-0.940748 1.333240 -0.220550
-0.934239 1.335943 -0.220963
-0.928316 1.339963 -0.221640
-0.922269 1.343941 -0.222292
-0.916167 1.347997 -0.222946
-0.909944 1.351987 -0.223570
-0.903930 1.356558 -0.224307
-0.896922 1.359254 -0.224630
-0.891161 1.364640 -0.225518
-0.885094 1.369542 -0.226293
-0.877860 1.372091 -0.226559
-0.870482 1.374390 -0.226765
-0.863672 1.377973 -0.227240
-0.857102 1.382149 -0.227836
-0.851070 1.387601 -0.228699
-0.844928 1.392900 -0.229527
-0.839077 1.398952 -0.230512
-0.832314 1.402975 -0.231066
-0.825431 1.406748 -0.231568
-0.818677 1.410855 -0.232140
-0.812191 1.415637 -0.232856
-0.806864 1.423315 -0.234185
-0.799826 1.426838 -0.234639
-0.792787 1.430357 -0.235095
-0.786594 1.436045 -0.236011
-0.779636 1.439796 -0.236522
-0.772664 1.443508 -0.237030
-0.765904 1.447785 -0.237660
-0.759644 1.453435 -0.238582
-0.753079 1.458297 -0.239342
-0.746835 1.464093 -0.240303
-0.739825 1.467761 -0.240823
-0.733098 1.472247 -0.241519
-0.727040 1.478723 -0.242635
-0.720589 1.484113 -0.243529
-0.713658 1.488096 -0.244134
-0.706957 1.492807 -0.244896
-0.700528 1.498405 -0.245847
-0.693487 1.502122 -0.246412
-0.686365 1.505583 -0.246929
-0.679409 1.509600 -0.247566
-0.672924 1.515222 -0.248542
-0.666583 1.521423 -0.249642
-0.660372 1.528188 -0.250864
-0.652790 1.530233 -0.251112
-0.646052 1.535286 -0.251988
-0.639499 1.541103 -0.253027
-0.632528 1.545471 -0.253770
-0.624814 1.547067 -0.253945
-0.617671 1.550844 -0.254575
-0.610860 1.555992 -0.255494
-0.605294 1.566286 -0.257479
-0.598067 1.570050 -0.258120
-0.590893 1.574093 -0.258822
-0.583520 1.577363 -0.259369
-0.576203 1.580927 -0.259981
-0.569435 1.587035 -0.261121
-0.561371 1.587363 -0.261073
-0.553657 1.589266 -0.261355
-0.547401 1.598206 -0.263090
-0.543957 1.621378 -0.267759
-0.536693 1.626287 -0.268669
-0.528179 1.624879 -0.268283
-0.520884 1.629811 -0.269205
-0.512153 1.627076 -0.268553
-0.505173 1.633946 -0.269880
-0.498742 1.644294 -0.271926
-0.491186 1.648487 -0.272709
-0.488809 1.684497 -0.280034
-0.478653 1.673660 -0.277733
-0.470383 1.674322 -0.277798
-0.463185 1.682139 -0.279336
-0.455184 1.684861 -0.279831
-0.447655 1.691074 -0.281045
-0.439724 1.694700 -0.281730
-0.432066 1.700624 -0.282889
-0.423918 1.703038 -0.283330
-0.416904 1.714997 -0.285733
-0.408925 1.719546 -0.286617
-0.401120 1.725998 -0.287894
-0.393257 1.732446 -0.289172
-0.385244 1.737960 -0.290260
-0.376969 1.741256 -0.290895
-0.368961 1.747757 -0.292190
-0.361294 1.758850 -0.294428
-0.352795 1.761059 -0.294847
-0.344504 1.766182 -0.295864
-0.336420 1.774780 -0.297596
-0.327152 1.767134 -0.296000
-0.318214 1.763530 -0.295234
-0.309469 1.762592 -0.295016
-0.303186 1.807236 -0.304142
-0.294516 1.811801 -0.305055
-0.285434 1.808027 -0.304261
-0.277015 1.820107 -0.306717
-0.268178 1.823408 -0.307376
-0.259413 1.830153 -0.308742
-0.250775 1.844460 -0.311658
-0.241923 1.854951 -0.313794
-0.232844 1.857340 -0.314272
-0.223747 1.860184 -0.314843
-0.214640 1.865882 -0.316001
-0.205480 1.872140 -0.317276
-0.196256 1.879040 -0.318682
-0.187002 1.881516 -0.319184
-0.177710 1.884952 -0.319884
-0.168260 1.895524 -0.322047
-0.159058 1.890340 -0.320984
-0.149491 1.900419 -0.323049
-0.139903 1.908083 -0.324621
-0.130347 1.912798 -0.325589
-0.120728 1.917910 -0.326641
-0.111071 1.922724 -0.327632
-0.101766 1.919647 -0.327009
-0.092775 1.911396 -0.325327
-0.081296 1.945658 -0.332356
-0.071477 1.949320 -0.333118
-0.061427 1.955744 -0.334447
-0.051475 1.959988 -0.335331
-0.041493 1.964041 -0.336178
-0.031033 1.973254 -0.338084
-0.020895 1.977815 -0.339038
-0.010978 1.979495 -0.339404
-0.001077 1.980788 -0.339692
0.009441 1.987887 -0.341172
0.019917 1.993918 -0.342435
0.030378 1.999248 -0.343557
0.040781 2.003592 -0.344479
0.051003 2.006061 -0.345018
0.061511 2.010534 -0.345971
0.072197 2.015972 -0.347124
0.082651 2.019272 -0.347841
0.093073 2.022071 -0.348458
0.103692 2.025957 -0.349300
0.114787 2.032688 -0.350729
0.125341 2.035466 -0.351350
0.136516 2.041877 -0.352719
0.147164 2.044670 -0.353349
0.157509 2.045458 -0.353571
0.167542 2.044354 -0.353407
0.177268 2.041536 -0.352895
0.187480 2.041422 -0.352941
0.197124 2.038252 -0.352363
0.206145 2.031971 -0.351149
0.215522 2.027701 -0.350351
0.224751 2.022831 -0.349434
0.233275 2.014749 -0.347860
0.242425 2.009875 -0.346949
0.253812 2.015328 -0.348164
0.256638 1.982301 -0.341471
0.262842 1.965342 -0.338084
0.272599 1.964180 -0.337950
0.282185 1.962266 -0.337666
0.288455 1.946755 -0.334587
0.293471 1.926741 -0.330583
0.300483 1.915272 -0.328343
0.310596 1.916123 -0.328644
0.320638 1.916581 -0.328870
0.329500 1.912537 -0.328172
0.336821 1.902918 -0.326330
0.344061 1.893261 -0.324483
0.350794 1.882060 -0.322322
0.358755 1.875392 -0.321102
0.365757 1.865592 -0.319238
0.373403 1.858168 -0.317871
0.380831 1.850169 -0.316389
0.387486 1.839832 -0.314428
0.393890 1.828923 -0.312353
0.401623 1.822403 -0.311192
0.407446 1.810109 -0.308839
0.415108 1.803647 -0.307699
0.419444 1.787366 -0.304529
0.427050 1.781052 -0.303429
0.434723 1.775004 -0.302390
0.439273 1.760137 -0.299525
0.444143 1.746488 -0.296917
0.451433 1.739794 -0.295758
0.460065 1.736817 -0.295379
0.469038 1.734713 -0.295188
0.491551 1.768296 -0.302440
0.479477 1.710765 -0.290709
0.483776 1.696741 -0.288048
0.492475 1.694113 -0.287770
0.496322 1.679321 -0.284956
0.503788 1.673713 -0.284065
0.501200 1.643723 -0.278076
0.499722 1.617074 -0.272784
0.492450 1.577328 -0.264744
0.508042 1.591807 -0.268074
0.516356 1.589042 -0.267795
0.526729 1.590905 -0.268493
0.526847 1.569625 -0.264330
0.532160 1.560267 -0.262674
0.536909 1.549807 -0.260787
0.541903 1.540034 -0.259046
0.545534 1.527501 -0.256722
0.549217 1.515295 -0.254466
0.554554 1.506731 -0.252979
0.555804 1.489917 -0.249744
0.562404 1.484264 -0.248869
0.568132 1.476937 -0.247637
0.572812 1.467653 -0.245987
0.577985 1.459498 -0.244571
0.583814 1.452758 -0.243451
0.588169 1.443336 -0.241754
0.591466 1.432114 -0.239665
0.593515 1.418818 -0.237122
0.600304 1.414557 -0.236498
0.606693 1.409680 -0.235732
0.613190 1.405136 -0.235026
0.614202 1.390963 -0.232245
0.618891 1.383635 -0.230913
0.625106 1.379194 -0.230185
0.628328 1.369766 -0.228370
0.634191 1.365143 -0.227568
0.637323 1.356106 -0.225798
0.642034 1.350016 -0.224641
0.647429 1.345315 -0.223762
0.658043 1.349424 -0.224758
-0.968894 1.314038 -0.224207
-0.962383 1.315600 -0.224486
-0.957166 1.319747 -0.225311
-0.951978 1.324205 -0.226183
-0.946911 1.329143 -0.227139
-0.941100 1.332931 -0.227821
-0.935032 1.336447 -0.228424
-0.929330 1.340875 -0.229208
-0.923266 1.344807 -0.229866
-0.916622 1.347779 -0.230297
-0.910685 1.352318 -0.231057
-0.903181 1.353862 -0.231147
-0.897737 1.359716 -0.232168
-0.892200 1.365562 -0.233176
-0.885627 1.369400 -0.233735
-0.878446 1.372056 -0.234027
-0.871404 1.375076 -0.234392
-0.864548 1.378565 -0.234853
-0.857887 1.382551 -0.235418
-0.851661 1.387577 -0.236205
-0.846262 1.394564 -0.237415
-0.839576 1.398726 -0.238009
-0.833017 1.403229 -0.238676
-0.826436 1.407732 -0.239342
-0.819415 1.411227 -0.239790
-0.813861 1.418289 -0.241011
-0.807050 1.422365 -0.241588
-0.799722 1.425171 -0.241893
-0.792856 1.429125 -0.242448
-0.786791 1.435141 -0.243451
-0.780221 1.439910 -0.244188
-0.773414 1.444083 -0.244801
-0.766847 1.448908 -0.245558
-0.760673 1.454834 -0.246556
-0.754113 1.459755 -0.247342
-0.747386 1.464241 -0.248039
-0.740402 1.468014 -0.248588
-0.733534 1.472120 -0.249214
-0.727134 1.477615 -0.250142
-0.721052 1.484115 -0.251289
-0.713934 1.487560 -0.251789
-0.707156 1.492049 -0.252517
-0.700273 1.496241 -0.253186
-0.693053 1.499381 -0.253637
-0.685840 1.502534 -0.254096
-0.679500 1.508558 -0.255172
-0.673000 1.514143 -0.256158
-0.667738 1.524039 -0.258066
-0.660557 1.527507 -0.258612
-0.653406 1.531095 -0.259189
-0.646054 1.533983 -0.259623
-0.639372 1.539335 -0.260584
-0.632920 1.545640 -0.261752
-0.625675 1.549062 -0.262314
-0.617955 1.550671 -0.262496
-0.611930 1.558962 -0.264098
-0.605167 1.564505 -0.265122
-0.598439 1.570323 -0.266209
-0.591248 1.574337 -0.266919
-0.584667 1.581056 -0.268204
-0.577106 1.583665 -0.268625
-0.569192 1.584712 -0.268721
-0.561535 1.586896 -0.269062
-0.553549 1.587547 -0.269083
-0.546523 1.592770 -0.270072
-0.546367 1.632056 -0.278248
-0.536341 1.623304 -0.276298
-0.526516 1.615063 -0.274460
-0.519167 1.619491 -0.275296
-0.512271 1.626543 -0.276688
-0.505579 1.635051 -0.278390
-0.499027 1.644772 -0.280350
-0.491583 1.649685 -0.281301
-0.487166 1.673295 -0.286189
-0.478872 1.673883 -0.286235
-0.471063 1.677589 -0.286941
-0.463411 1.682517 -0.287906
-0.455493 1.685863 -0.288542
-0.447404 1.688158 -0.288960
-0.440197 1.697087 -0.290775
-0.432498 1.702832 -0.291923
-0.424371 1.705547 -0.292436
-0.417344 1.717547 -0.294903
-0.409030 1.719364 -0.295233
-0.400982 1.723681 -0.296091
-0.393184 1.730681 -0.297514
-0.385390 1.738327 -0.299075
-0.377095 1.741508 -0.299701
-0.368964 1.746752 -0.300762
-0.360920 1.753516 -0.302144
-0.352732 1.759263 -0.303314
-0.344624 1.766713 -0.304844
-0.336451 1.774206 -0.306385
-0.327921 1.777458 -0.307037
-0.318324 1.764297 -0.304247
-0.309681 1.765260 -0.304423
-0.303144 1.805514 -0.312844
-0.294840 1.817502 -0.315336
-0.286056 1.821203 -0.316091
-0.277137 1.822335 -0.316309
-0.268333 1.827070 -0.317284
-0.259730 1.839987 -0.319977
-0.250664 1.839432 -0.319845
-0.241974 1.856889 -0.323493
-0.232858 1.857888 -0.323691
-0.223752 1.860715 -0.324273
-0.214638 1.866524 -0.325482
-0.205467 1.871934 -0.326609
-0.196240 1.878707 -0.328024
-0.186988 1.880333 -0.328360
-0.177733 1.880893 -0.328474
-0.168355 1.888053 -0.329974
-0.158913 1.894977 -0.331426
-0.149491 1.898680 -0.332203
-0.139756 1.911025 -0.334794
-0.130204 1.915112 -0.335655
-0.120582 1.919863 -0.336657
-0.110907 1.924744 -0.337688
-0.101538 1.922629 -0.337253
-0.092561 1.913776 -0.335406
-0.081258 1.944795 -0.341923
-0.071411 1.948861 -0.342789
-0.061506 1.953151 -0.343704
-0.051434 1.959087 -0.344965
-0.041288 1.965166 -0.346259
-0.031422 1.967199 -0.346705
-0.020970 1.975526 -0.348474
-0.011061 1.977172 -0.348843
-0.000604 1.984159 -0.350335
0.009654 1.988518 -0.351277
0.019872 1.992068 -0.352052
0.030211 1.996332 -0.352979
0.040839 2.002643 -0.354337
0.051268 2.006785 -0.355243
0.061978 2.012756 -0.356535
0.072647 2.017931 -0.357663
0.083048 2.020724 -0.358293
0.093211 2.021582 -0.358520
0.104164 2.027717 -0.359858
0.114752 2.030982 -0.360596
0.125251 2.033419 -0.361163
0.135543 2.034354 -0.361417
0.146834 2.041192 -0.362915
0.157185 2.042064 -0.363163
0.167340 2.041705 -0.363155
0.177689 2.042370 -0.363366
0.187755 2.041402 -0.363237
0.197574 2.039109 -0.362834
0.206879 2.034221 -0.361888
0.216448 2.030813 -0.361256
0.226037 2.027588 -0.360667
0.233260 2.013154 -0.357723
0.242582 2.009081 -0.356963
0.253129 2.010682 -0.357401
0.261117 2.000731 -0.355411
0.264444 1.970808 -0.349218
0.274142 1.969241 -0.349001
0.282363 1.961477 -0.347482
0.289449 1.949298 -0.345036
0.293707 1.926166 -0.340284
0.301177 1.916482 -0.338371
0.311369 1.917575 -0.338736
0.320918 1.916098 -0.338564
0.329435 1.910747 -0.337579
0.337641 1.904358 -0.336380
0.343904 1.891145 -0.333744
0.351111 1.881620 -0.331891
0.358752 1.873821 -0.330407
0.366771 1.867470 -0.329235
0.373954 1.858439 -0.327500
0.381340 1.850268 -0.325953
0.387886 1.839548 -0.323870
0.394928 1.830640 -0.322175
0.402199 1.822623 -0.320675
0.409201 1.813918 -0.319034
0.414216 1.799363 -0.316156
0.421143 1.790836 -0.314562
0.428206 1.782847 -0.313087
0.434978 1.774146 -0.311466
0.438005 1.754942 -0.307616
0.443236 1.742356 -0.305178
0.450864 1.736627 -0.304203
0.459364 1.733307 -0.303749
0.468518 1.731709 -0.303668
0.476407 1.726691 -0.302865
0.476876 1.702389 -0.297948
0.485125 1.698589 -0.297414
0.482635 1.667622 -0.291075
0.492277 1.667627 -0.291364
0.504868 1.674750 -0.293186
0.512965 1.670655 -0.292612
0.493207 1.599909 -0.277739
0.491103 1.572598 -0.272177
0.505034 1.583230 -0.274770
0.515169 1.584740 -0.275411
0.522478 1.579681 -0.274643
0.528446 1.571638 -0.273236
0.531746 1.557792 -0.270580
0.536282 1.546886 -0.268558
0.543016 1.540881 -0.267596
0.544096 1.522909 -0.264046
0.550148 1.515725 -0.262829
0.556580 1.509418 -0.261803
0.558222 1.493374 -0.258662
0.562871 1.483726 -0.256906
0.568632 1.476466 -0.255665
0.573185 1.466935 -0.253927
0.578306 1.458689 -0.252463
0.583741 1.451202 -0.251158
0.589082 1.443680 -0.249839
0.593214 1.434039 -0.248048
0.596471 1.422981 -0.245938
0.602239 1.416805 -0.244884
0.608112 1.410976 -0.243895
0.609871 1.397902 -0.241304
0.614019 1.389415 -0.239703
0.619272 1.383117 -0.238567
0.625441 1.378623 -0.237811
0.633331 1.377279 -0.237730
0.634461 1.364524 -0.235120
0.637946 1.356122 -0.233446
0.641753 1.348548 -0.231933
0.647619 1.344671 -0.231213
0.646937 1.330268 -0.228149
-0.967865 1.311424 -0.230864
-0.963630 1.317056 -0.232071
-0.957264 1.319076 -0.232440
-0.951568 1.322552 -0.233115
-0.946129 1.326743 -0.233929
-0.941278 1.332288 -0.235025
-0.935339 1.336014 -0.235691
-0.929760 1.340647 -0.236542
-0.924708 1.346527 -0.237654
-0.918455 1.350269 -0.238268
-0.910635 1.351053 -0.238203
-0.904647 1.355632 -0.238975
-0.898333 1.359710 -0.239621
-0.892795 1.365537 -0.240646
-0.886147 1.369210 -0.241179
-0.879111 1.372166 -0.241543
-0.872065 1.375174 -0.241910
-0.865478 1.379250 -0.242510
-0.858731 1.383054 -0.243044
-0.853144 1.389517 -0.244166
-0.846968 1.394772 -0.245014
-0.840592 1.399656 -0.245778
-0.833909 1.403892 -0.246396
-0.826774 1.407110 -0.246788
-0.820656 1.412766 -0.247720
-0.814278 1.417866 -0.248530
-0.807577 1.422223 -0.249177
-0.800349 1.425293 -0.249542
-0.793344 1.428917 -0.250033
-0.787178 1.434692 -0.251000
-0.780963 1.440398 -0.251956
-0.774335 1.445071 -0.252688
-0.767603 1.449495 -0.253369
-0.760944 1.454132 -0.254101
-0.754465 1.459290 -0.254952
-0.748024 1.464595 -0.255840
-0.741236 1.468961 -0.256526
-0.734104 1.472345 -0.257003
-0.727924 1.478516 -0.258095
-0.720884 1.482198 -0.258648
-0.714125 1.486730 -0.259392
-0.707066 1.490372 -0.259947
-0.700454 1.495412 -0.260812
-0.693239 1.498586 -0.261276
-0.686253 1.502491 -0.261905
-0.680962 1.512001 -0.263760
-0.674806 1.518828 -0.265035
-0.667720 1.522610 -0.265653
-0.660620 1.526366 -0.266270
-0.653431 1.529835 -0.266831
-0.647183 1.536710 -0.268136
-0.640407 1.541794 -0.269057
-0.634193 1.549069 -0.270458
-0.627133 1.553297 -0.271204
-0.619471 1.555251 -0.271461
-0.611947 1.557725 -0.271836
-0.605538 1.564705 -0.273192
-0.598452 1.569085 -0.273990
-0.592332 1.577621 -0.275691
-0.585203 1.582086 -0.276515
-0.577206 1.582837 -0.276542
-0.569247 1.583697 -0.276596
-0.561347 1.584781 -0.276704
-0.553683 1.586936 -0.277048
-0.545880 1.588441 -0.277256
-0.546386 1.630898 -0.286304
-0.540756 1.644376 -0.289100
-0.526201 1.612216 -0.282058
-0.519511 1.620105 -0.283658
-0.513260 1.630735 -0.285851
-0.506970 1.641649 -0.288108
-0.499905 1.648632 -0.289522
-0.484127 1.653563 -0.290413
-0.478947 1.673171 -0.294554
-0.470625 1.673575 -0.294563
-0.463332 1.680816 -0.296047
-0.455008 1.681348 -0.296091
-0.447472 1.687493 -0.297345
-0.440340 1.696997 -0.299324
-0.432469 1.701470 -0.300224
-0.425040 1.709755 -0.301946
-0.416876 1.712542 -0.302489
-0.409177 1.719518 -0.303934
-0.400983 1.722575 -0.304540
-0.393340 1.731048 -0.306312
-0.385299 1.736343 -0.307403
-0.377384 1.743409 -0.308877
-0.369127 1.747448 -0.309703
-0.360968 1.753003 -0.310857
-0.352688 1.757680 -0.311824
-0.344668 1.766245 -0.313628
-0.336459 1.773287 -0.315107
-0.327574 1.771351 -0.314660
-0.318494 1.765996 -0.313482
-0.309651 1.763781 -0.312980
-0.303198 1.805560 -0.321923
-0.294602 1.811707 -0.323218
-0.286097 1.821213 -0.325237
-0.277225 1.823701 -0.325750
-0.268196 1.822321 -0.325436
-0.259327 1.825810 -0.326168
-0.250502 1.832342 -0.327555
-0.242067 1.860881 -0.333665
-0.232870 1.858321 -0.333104
-0.223712 1.857104 -0.332833
-0.214628 1.865935 -0.334719
-0.205450 1.868716 -0.335309
-0.196234 1.874964 -0.336644
-0.186984 1.877869 -0.337263
-0.177678 1.882904 -0.338341
-0.168322 1.887933 -0.339419
-0.158859 1.895557 -0.341055
-0.149104 1.911252 -0.344425
-0.139635 1.913165 -0.344839
-0.130062 1.917364 -0.345745
-0.120451 1.921457 -0.346630
-0.110886 1.923658 -0.347110
-0.101310 1.925599 -0.347537
-0.091677 1.928182 -0.348103
-0.081410 1.940784 -0.350820
-0.071442 1.946911 -0.352150
-0.061584 1.950571 -0.352952
-0.051718 1.953817 -0.353667
-0.041426 1.961975 -0.355438
-0.031004 1.970699 -0.357333
-0.020850 1.975418 -0.358370
-0.010652 1.980078 -0.359397
-0.000428 1.984486 -0.360372
0.009596 1.986507 -0.360836
0.019735 1.989346 -0.361478
0.030561 1.997971 -0.363365
0.041041 2.002904 -0.364462
0.051501 2.007221 -0.365429
0.062242 2.013363 -0.366790
0.072849 2.017985 -0.367828
0.083299 2.021075 -0.368540
0.093989 2.025587 -0.369559
0.104780 2.030433 -0.370654
0.114971 2.030939 -0.370819
0.125384 2.032772 -0.371273
0.136524 2.038938 -0.372661
0.146880 2.039957 -0.372946
0.157273 2.041062 -0.373253
0.167626 2.041813 -0.373487
0.178121 2.043236 -0.373869
0.188410 2.043399 -0.373985
0.198502 2.042446 -0.373864
0.207726 2.037019 -0.372784
0.216906 2.031557 -0.371700
0.225141 2.021668 -0.369666
0.233604 2.013249 -0.367953
0.242571 2.007477 -0.366813
0.251920 2.003619 -0.366089
0.260760 1.997583 -0.364901
0.268695 1.987774 -0.362903
0.275503 1.973490 -0.359944
0.283635 1.965232 -0.358288
0.290224 1.950909 -0.355327
0.294923 1.929494 -0.350840
0.300367 1.911747 -0.347147
0.311308 1.915778 -0.348159
0.320901 1.914463 -0.348024
0.329092 1.907896 -0.346758
0.337421 1.901974 -0.345637
0.344961 1.893345 -0.343936
0.352245 1.884017 -0.342088
0.359708 1.875532 -0.340427
0.366917 1.866374 -0.338625
0.374067 1.857218 -0.336828
0.380970 1.847454 -0.334905
0.387945 1.838133 -0.333083
0.395564 1.831050 -0.331750
0.402893 1.823174 -0.330252
0.408152 1.809083 -0.327409
0.414307 1.798025 -0.325229
0.420817 1.788246 -0.323332
0.427998 1.780616 -0.321907
0.435595 1.774295 -0.320773
0.441734 1.763904 -0.318758
0.446946 1.751107 -0.316224
0.451590 1.736998 -0.313408
0.459891 1.733101 -0.312825
0.471849 1.738969 -0.314380
0.475374 1.722316 -0.311024
0.478903 1.706017 -0.307747
0.481673 1.688102 -0.304120
0.478997 1.656806 -0.297564
0.486817 1.652391 -0.296897
0.496562 1.652698 -0.297272
0.520625 1.687555 -0.305242
0.493413 1.598801 -0.286066
0.489523 1.567292 -0.279456
0.506093 1.584097 -0.283477
0.514781 1.582245 -0.283400
0.523381 1.580122 -0.283270
0.529758 1.572969 -0.282034
0.531848 1.556425 -0.278725
0.537430 1.547803 -0.277168
0.538832 1.530303 -0.273646
0.545601 1.524542 -0.272722
0.550794 1.515526 -0.271077
0.556658 1.508034 -0.269770
0.557793 1.490970 -0.266334
0.562992 1.482459 -0.264794
0.568761 1.475226 -0.263536
0.574190 1.467438 -0.262150
0.578995 1.458570 -0.260518
0.584610 1.451435 -0.259266
0.589817 1.443661 -0.257864
0.594009 1.434142 -0.256062
0.598700 1.425766 -0.254506
0.602995 1.416858 -0.252818
0.608755 1.410837 -0.251765
0.611202 1.399026 -0.249398
0.615241 1.390355 -0.247720
0.620970 1.384906 -0.246749
0.626867 1.379943 -0.245870
0.632280 1.374338 -0.244828
0.634474 1.363462 -0.242578
0.638282 1.355646 -0.240995
0.642494 1.348787 -0.239605
0.647973 1.344300 -0.238728
0.658171 1.347789 -0.239630
-0.969017 1.312735 -0.238406
-0.964204 1.317291 -0.239398
-0.958154 1.319856 -0.239906
-0.951348 1.321249 -0.240120
-0.946068 1.325690 -0.241014
-0.941580 1.331876 -0.242286
-0.936173 1.336581 -0.243196
-0.930247 1.340520 -0.243908
-0.923485 1.343031 -0.244273
-0.916652 1.345564 -0.244625
-0.911144 1.350891 -0.245602
-0.904757 1.354641 -0.246202
-0.898906 1.359636 -0.247072
-0.892752 1.364174 -0.247825
-0.886159 1.367933 -0.248389
-0.879613 1.371904 -0.248991
-0.873218 1.376304 -0.249683
-0.866102 1.379239 -0.250033
-0.859956 1.384368 -0.250877
-0.853686 1.389324 -0.251678
-0.847740 1.395098 -0.252660
-0.841210 1.399639 -0.253359
-0.834531 1.403894 -0.253991
-0.827327 1.406962 -0.254353
-0.820646 1.411283 -0.255000
-0.814877 1.417849 -0.256156
-0.808506 1.423031 -0.256999
-0.801165 1.425853 -0.257311
-0.793878 1.428792 -0.257652
-0.787442 1.433890 -0.258484
-0.781409 1.440079 -0.259566
-0.774791 1.444797 -0.260319
-0.767856 1.448697 -0.260892
-0.760960 1.452702 -0.261493
-0.754513 1.457951 -0.262379
-0.748434 1.464276 -0.263511
-0.741737 1.468922 -0.264271
-0.735073 1.473685 -0.265062
-0.727814 1.476737 -0.265476
-0.721080 1.481332 -0.266240
-0.713800 1.484304 -0.266648
-0.707512 1.490310 -0.267739
-0.701210 1.496350 -0.268842
-0.694683 1.501759 -0.269810
-0.688333 1.507809 -0.270926
-0.681757 1.513206 -0.271902
-0.674892 1.517710 -0.272685
-0.667498 1.520454 -0.273081
-0.660430 1.524316 -0.273732
-0.654073 1.530719 -0.274953
-0.647377 1.536032 -0.275937
-0.641125 1.543060 -0.277307
-0.634561 1.549081 -0.278458
-0.627576 1.553630 -0.279287
-0.620268 1.556996 -0.279860
-0.613137 1.561097 -0.280600
-0.605818 1.564507 -0.281193
-0.599002 1.570029 -0.282258
-0.592700 1.577852 -0.283836
-0.585427 1.581739 -0.284548
-0.577400 1.582390 -0.284550
-0.569832 1.585037 -0.284998
-0.561731 1.585265 -0.284916
-0.553283 1.583790 -0.284463
-0.545683 1.586233 -0.284881
-0.548457 1.639822 -0.296588
-0.533765 1.607802 -0.289408
-0.529256 1.626787 -0.293485
-0.524934 1.647667 -0.297981
-0.518412 1.657589 -0.300065
-0.510366 1.659437 -0.300372
-0.505880 1.681804 -0.305203
-0.497599 1.682907 -0.305353
-0.485022 1.657809 -0.299739
-0.477517 1.662978 -0.300792
-0.470599 1.672204 -0.302743
-0.462726 1.675574 -0.303407
-0.454678 1.677886 -0.303842
-0.446894 1.682184 -0.304717
-0.440107 1.694104 -0.307271
-0.432438 1.700071 -0.308518
-0.424441 1.703820 -0.309281
-0.417004 1.712450 -0.311119
-0.408967 1.716562 -0.311967
-0.401002 1.721611 -0.313024
-0.392908 1.725859 -0.313906
-0.385543 1.737627 -0.316444
-0.377258 1.740996 -0.317138
-0.369505 1.750457 -0.319173
-0.361053 1.752889 -0.319666
-0.352884 1.758977 -0.320965
-0.344739 1.766088 -0.322490
-0.336498 1.772755 -0.323920
-0.327679 1.771852 -0.323689
-0.318435 1.764056 -0.321948
-0.309645 1.762696 -0.321622
-0.302643 1.794247 -0.328522
-0.294514 1.808949 -0.331725
-0.285765 1.812774 -0.332542
-0.277826 1.837975 -0.338052
-0.268004 1.815956 -0.333201
-0.259699 1.837384 -0.337887
-0.250645 1.837251 -0.337843
-0.242005 1.857255 -0.342219
-0.232847 1.856411 -0.342022
-0.223754 1.860843 -0.342984
-0.214616 1.864777 -0.343839
-0.205438 1.868038 -0.344548
-0.196227 1.871950 -0.345402
-0.186966 1.877266 -0.346565
-0.177651 1.882758 -0.347768
-0.168294 1.887544 -0.348818
-0.158888 1.892451 -0.349896
-0.149234 1.904689 -0.352584
-0.139644 1.911197 -0.354017
-0.129993 1.917637 -0.355436
-0.120379 1.921628 -0.356320
-0.110747 1.925120 -0.357096
-0.101073 1.928720 -0.357897
-0.091296 1.933512 -0.358962
-0.081521 1.937451 -0.359842
-0.071369 1.946528 -0.361851
-0.061504 1.950225 -0.362681
-0.051483 1.955481 -0.363855
-0.041123 1.964306 -0.365814
-0.030886 1.970628 -0.367227
-0.020764 1.974921 -0.368196
-0.010367 1.981639 -0.369700
-0.000237 1.984957 -0.370459
0.009674 1.985794 -0.370676
0.019817 1.988637 -0.371336
0.030790 1.998528 -0.373546
0.041068 2.001652 -0.374273
0.051354 2.004548 -0.374952
0.062181 2.011399 -0.376502
0.072836 2.016399 -0.377649
0.083513 2.021143 -0.378743
0.094144 2.025181 -0.379685
0.104749 2.028716 -0.380519
0.115547 2.033230 -0.381572
0.126402 2.037759 -0.382632
0.136846 2.039409 -0.383062
0.147317 2.041056 -0.383495
0.157456 2.040594 -0.383467
0.168184 2.043443 -0.384172
0.178715 2.044974 -0.384591
0.188945 2.044724 -0.384621
0.198681 2.041824 -0.384073
0.207956 2.036626 -0.383023
0.216186 2.026393 -0.380867
0.224825 2.018561 -0.379244
0.233835 2.012776 -0.378076
0.242390 2.005059 -0.376486
0.250800 1.996946 -0.374812
0.259210 1.989103 -0.373202
0.267492 1.980954 -0.371529
0.276047 1.974219 -0.370171
0.283929 1.964871 -0.368241
0.290778 1.951588 -0.365448
0.296014 1.932284 -0.361328
0.299609 1.907198 -0.355935
0.311259 1.914001 -0.357588
0.321365 1.914618 -0.357881
0.329757 1.908758 -0.356749
0.336903 1.898481 -0.354644
0.344604 1.890455 -0.353042
0.352470 1.883193 -0.351615
0.360018 1.874979 -0.349981
0.366288 1.862617 -0.347434
0.373678 1.854295 -0.345787
0.379978 1.842575 -0.343392
0.387112 1.833817 -0.341658
0.395200 1.828255 -0.340639
0.403352 1.822958 -0.339684
0.408756 1.809289 -0.336876
0.415229 1.799157 -0.334858
0.420763 1.786438 -0.332270
0.427109 1.776363 -0.330275
0.435365 1.771971 -0.329551
0.443314 1.766720 -0.328642
0.448902 1.754904 -0.326276
0.454835 1.744265 -0.324177
0.463696 1.741746 -0.323896
0.471588 1.736586 -0.323032
0.475265 1.720346 -0.319697
0.478179 1.702457 -0.315996
0.482345 1.688149 -0.313100
0.477178 1.650563 -0.304988
0.486747 1.650558 -0.305301
0.501615 1.663427 -0.308514
0.492238 1.594365 -0.293655
0.489789 1.566310 -0.287674
0.506143 1.582581 -0.291677
0.515958 1.583306 -0.292187
0.525613 1.583533 -0.292592
0.530866 1.573807 -0.290754
0.531961 1.555049 -0.286876
0.538916 1.549417 -0.285966
0.542549 1.536687 -0.283450
0.545024 1.521721 -0.280425
0.551610 1.515649 -0.279416
0.556013 1.505124 -0.277396
0.560562 1.495073 -0.275480
0.564081 1.483118 -0.273127
0.567458 1.471103 -0.270755
0.574650 1.466838 -0.270146
0.580416 1.459851 -0.268910
0.584465 1.449692 -0.266943
0.588410 1.439545 -0.264968
0.594578 1.433799 -0.263992
0.596930 1.421091 -0.261409
0.606783 1.422464 -0.262045
0.608200 1.408506 -0.259146
0.613227 1.401380 -0.257802
0.619976 1.397522 -0.257195
0.622534 1.386444 -0.254906
0.627788 1.380370 -0.253751
0.631500 1.371860 -0.252014
0.636524 1.365866 -0.250836
0.640294 1.357994 -0.249202
0.644261 1.350738 -0.247686
0.650699 1.347851 -0.247157
0.659881 1.349671 -0.247691
-0.968692 1.311396 -0.245343
-0.965472 1.318787 -0.247033
-0.958684 1.319978 -0.247233
-0.952106 1.321758 -0.247548
-0.946348 1.325273 -0.248248
-0.941656 1.331032 -0.249453
-0.937009 1.337145 -0.250718
-0.930042 1.339050 -0.250970
-0.923357 1.341667 -0.251370
-0.916940 1.344979 -0.251914
-0.910692 1.348797 -0.252560
-0.905552 1.355020 -0.253754
-0.899672 1.359942 -0.254628
-0.893149 1.363702 -0.255215
-0.886330 1.366971 -0.255675
-0.879984 1.371343 -0.256383
-0.873651 1.375862 -0.257116
-0.867311 1.380475 -0.257863
-0.860275 1.383657 -0.258270
-0.854149 1.388925 -0.259158
-0.847734 1.393637 -0.259912
-0.841721 1.399348 -0.260895
-0.834866 1.403198 -0.261443
-0.827755 1.406485 -0.261860
-0.820881 1.410352 -0.262411
-0.815465 1.417773 -0.263786
-0.809230 1.423302 -0.264724
-0.801230 1.424508 -0.264664
-0.794290 1.428323 -0.265210
-0.788276 1.434515 -0.266308
-0.781671 1.439248 -0.267073
-0.775322 1.444685 -0.268003
-0.768303 1.448382 -0.268537
-0.761155 1.451725 -0.268995
-0.754676 1.456896 -0.269877
-0.748374 1.462605 -0.270888
-0.741957 1.468047 -0.271843
-0.734867 1.471597 -0.272369
-0.728610 1.477582 -0.273458
-0.721145 1.480044 -0.273746
-0.714204 1.484052 -0.274395
-0.707816 1.489772 -0.275440
-0.701965 1.497245 -0.276890
-0.695448 1.502732 -0.277893
-0.688809 1.507894 -0.278826
-0.681935 1.512345 -0.279604
-0.674803 1.515972 -0.280200
-0.667686 1.519666 -0.280817
-0.660977 1.524791 -0.281765
-0.654377 1.530377 -0.282823
-0.647874 1.536409 -0.283988
-0.641354 1.542495 -0.285171
-0.634438 1.547226 -0.286051
-0.627661 1.552565 -0.287074
-0.620676 1.557200 -0.287943
-0.613878 1.562657 -0.289004
-0.606672 1.566592 -0.289724
-0.599238 1.569646 -0.290251
-0.592726 1.576614 -0.291668
-0.585462 1.580548 -0.292404
-0.578172 1.584449 -0.293137
-0.570617 1.587239 -0.293624
-0.562313 1.586631 -0.293348
-0.553681 1.584363 -0.292703
-0.546451 1.588641 -0.293541
-0.543750 1.615334 -0.299439
-0.533730 1.606346 -0.297292
-0.528181 1.619946 -0.300243
-0.522806 1.635090 -0.303545
-0.518789 1.658358 -0.308680
-0.512329 1.669144 -0.311005
-0.500865 1.651677 -0.306972
-0.495183 1.667340 -0.310402
-0.487553 1.671990 -0.311357
-0.477759 1.663267 -0.309306
-0.470193 1.668349 -0.310365
-0.462728 1.674368 -0.311638
-0.454652 1.676500 -0.312041
-0.447173 1.682976 -0.313423
-0.439764 1.690369 -0.315015
-0.432356 1.698254 -0.316720
-0.424585 1.703782 -0.317898
-0.416760 1.709254 -0.319067
-0.408950 1.715247 -0.320355
-0.401049 1.720877 -0.321564
-0.393493 1.730205 -0.323606
-0.385208 1.733183 -0.324225
-0.377279 1.740085 -0.325727
-0.369900 1.753614 -0.328720
-0.361557 1.757535 -0.329558
-0.353265 1.762493 -0.330631
-0.344966 1.767909 -0.331809
-0.336439 1.770872 -0.332438
-0.327635 1.770137 -0.332240
-0.318522 1.764373 -0.330916
-0.309658 1.761893 -0.330331
-0.303282 1.805090 -0.339996
-0.294824 1.814267 -0.342030
-0.286522 1.828884 -0.345287
-0.277622 1.831886 -0.345939
-0.268664 1.834002 -0.346395
-0.259612 1.833665 -0.346302
-0.250883 1.845893 -0.349030
-0.241892 1.851079 -0.350180
-0.232847 1.855971 -0.351265
-0.223718 1.857428 -0.351582
-0.214607 1.864080 -0.353066
-0.205428 1.868161 -0.353975
-0.196208 1.872560 -0.354957
-0.186935 1.878322 -0.356247
-0.177623 1.882635 -0.357213
-0.168299 1.885280 -0.357807
-0.158817 1.893768 -0.359713
-0.149328 1.899495 -0.361001
-0.139802 1.904584 -0.362149
-0.130087 1.913439 -0.364142
-0.120297 1.922003 -0.366073
-0.110550 1.927819 -0.367388
-0.100835 1.931842 -0.368304
-0.091202 1.933669 -0.368728
-0.081373 1.938379 -0.369802
-0.071439 1.943959 -0.371072
-0.061439 1.949653 -0.372370
-0.051435 1.954629 -0.373510
-0.041177 1.962136 -0.375218
-0.030947 1.968409 -0.376653
-0.020853 1.972427 -0.377584
-0.010630 1.977352 -0.378720
-0.000046 1.985403 -0.380561
0.010100 1.988421 -0.381275
0.020475 1.993222 -0.382391
0.030868 1.997720 -0.383442
0.041193 2.001220 -0.384272
0.051369 2.003164 -0.384755
0.061746 2.006488 -0.385550
0.072992 2.016070 -0.387754
0.083616 2.020378 -0.388777
0.094211 2.024134 -0.389679
0.104905 2.028249 -0.390665
0.115814 2.033450 -0.391899
0.126076 2.034135 -0.392121
0.137160 2.039808 -0.393468
0.147336 2.039612 -0.393500
0.157696 2.040437 -0.393765
0.168281 2.042423 -0.394295
0.178932 2.044595 -0.394871
0.188942 2.043125 -0.394631
0.198726 2.040472 -0.394130
0.207903 2.034767 -0.392946
0.216488 2.026309 -0.391146
0.225247 2.019021 -0.389613
0.234204 2.012933 -0.388355
0.242304 2.003060 -0.386248
0.250337 1.993237 -0.384156
0.259077 1.986907 -0.382855
0.267534 1.979525 -0.381321
0.274988 1.968100 -0.378881
0.283157 1.960038 -0.377202
0.290752 1.949865 -0.375052
0.297789 1.937777 -0.372474
0.304161 1.923456 -0.369396
0.312994 1.919059 -0.368563
0.322432 1.917017 -0.368267
0.330370 1.909395 -0.366716
0.337077 1.897478 -0.364199
0.344745 1.889319 -0.362537
0.352055 1.880088 -0.360637
0.358846 1.869292 -0.358388
0.365745 1.859125 -0.356287
0.372475 1.848634 -0.354116
0.379480 1.839287 -0.352210
0.386555 1.830362 -0.350405
0.394659 1.824872 -0.349385
0.402520 1.818688 -0.348215
0.409010 1.808388 -0.346114
0.416112 1.800135 -0.344485
0.421910 1.788157 -0.342014
0.427200 1.774940 -0.339266
0.435285 1.770046 -0.338418
0.443213 1.764731 -0.337481
0.448371 1.751721 -0.334795
0.454497 1.741630 -0.332780
0.463216 1.738733 -0.332414
0.472262 1.736664 -0.332245
0.474355 1.716234 -0.327883
0.481390 1.709072 -0.326560
0.485180 1.693689 -0.323360
0.489653 1.680326 -0.320626
0.500609 1.683320 -0.321649
0.521244 1.709831 -0.328083
0.520272 1.683244 -0.322329
0.491534 1.591024 -0.301470
0.490935 1.567364 -0.296371
0.505515 1.579458 -0.299512
0.516917 1.583831 -0.300883
0.525456 1.581501 -0.300715
0.528475 1.566798 -0.297692
0.533190 1.556099 -0.295594
0.538472 1.546801 -0.293822
0.544782 1.539839 -0.292592
0.547947 1.526291 -0.289834
0.551381 1.513553 -0.287262
0.557036 1.505634 -0.285807
0.560443 1.493245 -0.283309
0.567570 1.488585 -0.282609
0.565777 1.466209 -0.277771
0.575023 1.466041 -0.278109
0.580716 1.458923 -0.276819
0.582697 1.444807 -0.273884
0.587955 1.437221 -0.272467
0.593224 1.429823 -0.271084
0.599461 1.424389 -0.270151
0.603013 1.414168 -0.268080
0.608375 1.407486 -0.266827
0.613745 1.401008 -0.265606
0.617963 1.392680 -0.263932
0.624754 1.389120 -0.263363
0.627917 1.379409 -0.261323
0.632733 1.372841 -0.260004
0.638268 1.367739 -0.259008
0.642742 1.361072 -0.257619
0.645087 1.351112 -0.255426
0.652068 1.349155 -0.255102
0.658369 1.346274 -0.254533
-0.977626 1.326683 -0.256287
-0.965701 1.318404 -0.254238
-0.959514 1.320652 -0.254704
-0.953216 1.322916 -0.255147
-0.947466 1.326419 -0.255864
-0.943138 1.332839 -0.257259
-0.937455 1.336959 -0.258076
-0.931817 1.341391 -0.258945
-0.925036 1.343817 -0.259310
-0.917904 1.345716 -0.259529
-0.911739 1.349683 -0.260226
-0.906140 1.354964 -0.261222
-0.900795 1.360957 -0.262371
-0.894319 1.364809 -0.262993
-0.887123 1.367288 -0.263273
-0.880614 1.371308 -0.263912
-0.874309 1.375877 -0.264671
-0.867830 1.380185 -0.265360
-0.860804 1.383383 -0.265777
-0.853832 1.386760 -0.266231
-0.848787 1.394541 -0.267729
-0.842410 1.399433 -0.268536
-0.835496 1.403159 -0.269062
-0.828143 1.405885 -0.269351
-0.821565 1.410462 -0.270078
-0.815581 1.416522 -0.271158
-0.808591 1.420200 -0.271674
-0.801153 1.422778 -0.271932
-0.794973 1.428504 -0.272937
-0.788930 1.434643 -0.274041
-0.782839 1.440732 -0.275137
-0.775959 1.444815 -0.275763
-0.768839 1.448268 -0.276246
-0.761812 1.451964 -0.276792
-0.755157 1.456680 -0.277582
-0.748559 1.461584 -0.278421
-0.741767 1.465973 -0.279144
-0.735341 1.471434 -0.280124
-0.728202 1.474864 -0.280634
-0.721627 1.479961 -0.281540
-0.715357 1.486028 -0.282678
-0.708382 1.490006 -0.283335
-0.702028 1.495941 -0.284453
-0.695392 1.501058 -0.285387
-0.688478 1.505337 -0.286131
-0.681949 1.510908 -0.287182
-0.675077 1.515415 -0.287991
-0.667994 1.519248 -0.288649
-0.661231 1.524215 -0.289577
-0.654616 1.529768 -0.290647
-0.648279 1.536420 -0.291977
-0.641493 1.541564 -0.292963
-0.635259 1.548857 -0.294452
-0.627965 1.552299 -0.295054
-0.620476 1.555014 -0.295493
-0.613897 1.561329 -0.296772
-0.606858 1.565946 -0.297663
-0.599796 1.570557 -0.298557
-0.592859 1.575789 -0.299601
-0.585741 1.580374 -0.300499
-0.578465 1.584370 -0.301267
-0.570686 1.586194 -0.301538
-0.562259 1.585042 -0.301128
-0.555174 1.590039 -0.302142
-0.547788 1.593741 -0.302862
-0.542440 1.607562 -0.305919
-0.538146 1.627295 -0.310341
-0.531944 1.638085 -0.312705
-0.522637 1.632884 -0.311390
-0.514985 1.636339 -0.312074
-0.508203 1.644765 -0.313905
-0.500718 1.649542 -0.314901
-0.492706 1.651410 -0.315231
-0.486197 1.662457 -0.317676
-0.478015 1.663610 -0.317850
-0.470101 1.666499 -0.318426
-0.463178 1.676124 -0.320554
-0.455572 1.681609 -0.321734
-0.447271 1.682443 -0.321849
-0.439538 1.687475 -0.322931
-0.432493 1.698081 -0.325297
-0.424857 1.704739 -0.326759
-0.416992 1.709972 -0.327896
-0.409247 1.716608 -0.329359
-0.401669 1.725263 -0.331288
-0.393385 1.728009 -0.331863
-0.385222 1.732153 -0.332761
-0.377002 1.736053 -0.333607
-0.369153 1.744349 -0.335463
-0.361750 1.758602 -0.338689
-0.353555 1.764867 -0.340084
-0.344980 1.766955 -0.340523
-0.336473 1.770214 -0.341234
-0.327580 1.768234 -0.340746
-0.318464 1.762389 -0.339374
-0.309779 1.762896 -0.339461
-0.303417 1.806545 -0.349440
-0.294772 1.812159 -0.350701
-0.286054 1.817317 -0.351859
-0.277201 1.820260 -0.352513
-0.268368 1.824584 -0.353484
-0.259617 1.832949 -0.355384
-0.250737 1.839332 -0.356832
-0.241785 1.845196 -0.358162
-0.232773 1.850788 -0.359432
-0.223686 1.854365 -0.360242
-0.214586 1.861436 -0.361855
-0.205420 1.870018 -0.363815
-0.196190 1.873070 -0.364511
-0.186910 1.878636 -0.365784
-0.177609 1.881535 -0.366448
-0.168250 1.886066 -0.367488
-0.158755 1.894709 -0.369471
-0.149330 1.897656 -0.370152
-0.139889 1.900157 -0.370732
-0.130152 1.910009 -0.372999
-0.120415 1.917549 -0.374737
-0.110503 1.927259 -0.376975
-0.100795 1.931077 -0.377865
-0.091071 1.934469 -0.378659
-0.081175 1.940123 -0.379973
-0.071321 1.944244 -0.380939
-0.061431 1.948261 -0.381882
-0.051442 1.953035 -0.383002
-0.041323 1.958803 -0.384351
-0.031048 1.965707 -0.385963
-0.020966 1.969661 -0.386901
-0.010754 1.974533 -0.388052
-0.000153 1.982809 -0.389987
0.010276 1.988605 -0.391355
0.020558 1.992475 -0.392284
0.030945 1.996884 -0.393340
0.041756 2.004472 -0.395128
0.051993 2.006725 -0.395695
0.061993 2.006897 -0.395787
0.072768 2.012842 -0.397208
0.083782 2.020048 -0.398921
0.094233 2.022744 -0.399602
0.105245 2.029012 -0.401107
0.115664 2.030903 -0.401611
0.126402 2.034654 -0.402545
0.137138 2.038096 -0.403412
0.147612 2.039692 -0.403860
0.157925 2.040190 -0.404059
0.168224 2.040509 -0.404221
0.178458 2.040375 -0.404283
0.189514 2.044595 -0.405350
0.198886 2.039697 -0.404326
0.207948 2.033378 -0.402978
0.216891 2.026698 -0.401552
0.225814 2.020159 -0.400162
0.234785 2.014073 -0.398881
0.242785 2.003667 -0.396609
0.250643 1.993002 -0.394282
0.259253 1.986053 -0.392815
0.267831 1.979178 -0.391369
0.274944 1.966275 -0.388539
0.283090 1.958115 -0.386806
0.291611 1.951728 -0.385486
0.298447 1.938763 -0.382654
0.306822 1.932244 -0.381314
0.315692 1.927780 -0.380453
0.324384 1.922720 -0.379460
0.330007 1.906387 -0.375869
0.337629 1.897816 -0.374075
0.345332 1.889739 -0.372401
0.352779 1.880951 -0.370568
0.359031 1.868248 -0.367833
0.366252 1.859159 -0.365941
0.372994 1.848673 -0.363730
0.380114 1.839669 -0.361868
0.387379 1.831314 -0.360162
0.394599 1.822979 -0.358466
0.402874 1.818081 -0.357574
0.409082 1.806893 -0.355228
0.415844 1.797611 -0.353329
0.423027 1.789748 -0.351767
0.428680 1.777540 -0.349200
0.435872 1.770003 -0.347725
0.443405 1.763538 -0.346506
0.446239 1.744041 -0.342256
0.454106 1.738819 -0.341338
0.462717 1.735636 -0.340904
0.474765 1.741580 -0.342611
0.479081 1.726905 -0.339506
0.481521 1.707659 -0.335335
0.482707 1.685623 -0.330512
0.498676 1.701301 -0.334532
0.508720 1.701702 -0.334982
0.512651 1.686991 -0.331891
0.499644 1.631640 -0.319250
0.492167 1.590837 -0.310016
0.491762 1.567630 -0.304916
0.507157 1.581568 -0.308570
0.516192 1.580465 -0.308688
0.524798 1.578304 -0.308563
0.531443 1.571715 -0.307397
0.535189 1.558806 -0.304738
0.538632 1.545463 -0.301976
0.544663 1.537908 -0.300584
0.548789 1.526413 -0.298258
0.550443 1.509946 -0.294748
0.556494 1.502883 -0.293469
0.562775 1.496386 -0.292324
0.564861 1.481528 -0.289182
0.571666 1.476359 -0.288345
0.575183 1.464798 -0.285977
0.580503 1.456975 -0.284493
0.585064 1.447847 -0.282690
0.588835 1.437414 -0.280563
0.593695 1.429256 -0.278969
0.598346 1.420902 -0.277316
0.603074 1.412894 -0.275732
0.608895 1.407079 -0.274660
0.611493 1.395655 -0.272221
0.617011 1.389716 -0.271084
0.623533 1.385740 -0.270402
0.629270 1.380569 -0.269410
0.630827 1.368417 -0.266710
0.638168 1.366466 -0.266451
0.641897 1.358592 -0.264736
0.646065 1.351739 -0.263242
0.648758 1.342724 -0.261198
0.654814 1.339539 -0.260538
-0.966785 1.306489 -0.258648
-0.966794 1.319592 -0.261835
-0.959713 1.320174 -0.261906
-0.953888 1.323267 -0.262569
-0.949114 1.328554 -0.263746
-0.943670 1.332850 -0.264653
-0.938529 1.337965 -0.265737
-0.932444 1.341513 -0.266412
-0.925994 1.344552 -0.266938
-0.919075 1.346850 -0.267262
-0.912858 1.350699 -0.267947
-0.907200 1.355846 -0.268933
-0.901836 1.361786 -0.270096
-0.895303 1.365514 -0.270701
-0.888513 1.368836 -0.271193
-0.881679 1.372174 -0.271677
-0.874976 1.375892 -0.272244
-0.868345 1.379861 -0.272863
-0.861052 1.382466 -0.273142
-0.853798 1.385204 -0.273449
-0.849866 1.395472 -0.275582
-0.843183 1.399683 -0.276236
-0.836029 1.402861 -0.276638
-0.829077 1.406537 -0.277159
-0.822569 1.411300 -0.277943
-0.815499 1.414763 -0.278413
-0.808610 1.418679 -0.278993
-0.802553 1.424681 -0.280079
-0.796055 1.429651 -0.280918
-0.789823 1.435343 -0.281934
-0.783612 1.441152 -0.282980
-0.776640 1.445025 -0.283565
-0.769689 1.448957 -0.284168
-0.762520 1.452303 -0.284635
-0.756042 1.457538 -0.285561
-0.749372 1.462283 -0.286375
-0.742624 1.466835 -0.287147
-0.735225 1.469538 -0.287483
-0.728447 1.474022 -0.288251
-0.722925 1.482265 -0.289923
-0.716328 1.487411 -0.290861
-0.709402 1.491598 -0.291575
-0.702385 1.495519 -0.292233
-0.695167 1.498814 -0.292748
-0.689314 1.506512 -0.294317
-0.682602 1.511538 -0.295256
-0.675702 1.515993 -0.296065
-0.668478 1.519393 -0.296630
-0.661303 1.522970 -0.297244
-0.654683 1.528521 -0.298331
-0.648353 1.535207 -0.299694
-0.641706 1.540875 -0.300821
-0.635261 1.547403 -0.302157
-0.628169 1.551618 -0.302951
-0.620123 1.552200 -0.302892
-0.614398 1.561869 -0.304987
-0.606745 1.564061 -0.305320
-0.599753 1.568960 -0.306298
-0.593774 1.578218 -0.308311
-0.586537 1.582384 -0.309126
-0.578741 1.584186 -0.309389
-0.570532 1.584122 -0.309218
-0.563191 1.587943 -0.309968
-0.555560 1.590487 -0.310423
-0.548454 1.595586 -0.311484
-0.546819 1.627732 -0.318917
-0.537653 1.623456 -0.317779
-0.530196 1.627705 -0.318653
-0.523986 1.638697 -0.321116
-0.514916 1.634634 -0.320044
-0.507199 1.637830 -0.320683
-0.500902 1.649289 -0.323268
-0.493019 1.651952 -0.323790
-0.486002 1.659970 -0.325574
-0.478183 1.663370 -0.326277
-0.470097 1.665190 -0.326612
-0.463011 1.673730 -0.328530
-0.455715 1.681322 -0.330227
-0.447552 1.683188 -0.330585
-0.440175 1.690926 -0.332324
-0.432823 1.699362 -0.334229
-0.424929 1.704071 -0.335264
-0.417171 1.710219 -0.336638
-0.409808 1.720209 -0.338917
-0.401881 1.725943 -0.340201
-0.393531 1.728167 -0.340665
-0.385257 1.731292 -0.341343
-0.377180 1.736697 -0.342558
-0.370251 1.755077 -0.346816
-0.361984 1.760098 -0.347946
-0.353781 1.766433 -0.349386
-0.345587 1.773601 -0.351024
-0.336828 1.773930 -0.351063
-0.328189 1.776017 -0.351516
-0.319414 1.776241 -0.351535
-0.310813 1.779416 -0.352248
-0.303014 1.797970 -0.356564
-0.294508 1.805717 -0.358351
-0.285794 1.810407 -0.359425
-0.277076 1.816115 -0.360739
-0.268328 1.822443 -0.362201
-0.259664 1.833591 -0.364793
-0.250686 1.836465 -0.365450
-0.241703 1.840460 -0.366371
-0.232725 1.847124 -0.367919
-0.223659 1.851648 -0.368969
-0.214602 1.864506 -0.371970
-0.205408 1.868269 -0.372845
-0.196177 1.872224 -0.373768
-0.186915 1.875257 -0.374476
-0.177582 1.881397 -0.375913
-0.168122 1.891383 -0.378252
-0.158708 1.894981 -0.379098
-0.149315 1.896472 -0.379453
-0.139747 1.902920 -0.380971
-0.130012 1.912193 -0.383151
-0.120454 1.914995 -0.383819
-0.110696 1.921490 -0.385353
-0.100814 1.929129 -0.387158
-0.090984 1.934479 -0.388428
-0.080892 1.943251 -0.390502
-0.071007 1.947516 -0.391523
-0.061245 1.949376 -0.391983
-0.051367 1.952504 -0.392743
-0.041349 1.956956 -0.393815
