ply
format ascii 1.0
comment ---
element vertex 1651
property float x
property float y
property float z
element face 0
property list uchar uint vertex_indices
end_header
-0.449314 1.577276 -0.678000
-0.444801 1.576998 -0.679778
-0.440077 1.579480 -0.683857
-0.435631 1.578049 -0.684691
-0.431511 1.572984 -0.682484
-0.427531 1.480904 -0.610788
-0.424672 1.470588 -0.603843
-0.421923 1.460337 -0.596904
-0.418451 1.456916 -0.595741
-0.415128 1.452613 -0.593813
-0.412083 1.446592 -0.590394
-0.408755 1.443037 -0.589072
-0.405759 1.437470 -0.586000
-0.402383 1.434778 -0.585396
-0.398361 1.436283 -0.588435
-0.394224 1.438319 -0.591955
-0.390287 1.438993 -0.594301
-0.386725 1.437462 -0.594725
-0.383451 1.434421 -0.593817
-0.379894 1.433006 -0.594337
-0.375798 1.434363 -0.597318
-0.372742 1.430460 -0.595635
-0.369185 1.429127 -0.596233
-0.365788 1.427073 -0.596187
-0.362702 1.423680 -0.594936
-0.359437 1.421200 -0.594497
-0.356057 1.419283 -0.594563
-0.352920 1.416403 -0.593754
-0.349084 1.416441 -0.595595
-0.346032 1.413325 -0.594565
-0.342994 1.410254 -0.593569
-0.339675 1.408322 -0.593611
-0.336263 1.406767 -0.594001
-0.332165 1.407672 -0.596670
-0.329693 1.402799 -0.593989
-0.326767 1.399632 -0.592878
-0.323533 1.397574 -0.592796
-0.320271 1.395636 -0.592826
-0.318304 1.389580 -0.588978
-0.315830 1.385305 -0.586785
-0.311940 1.385485 -0.588801
-0.309073 1.382530 -0.587847
-0.306178 1.379710 -0.587016
-0.303081 1.377528 -0.586789
-0.300516 1.373862 -0.585134
-0.296973 1.372992 -0.586165
-0.294049 1.370411 -0.585545
-0.290704 1.368990 -0.586050
-0.286714 1.369251 -0.588197
-0.283780 1.366726 -0.587633
-0.279855 1.366734 -0.589554
-0.276730 1.364699 -0.589474
-0.274042 1.361611 -0.588352
-0.271361 1.358553 -0.587253
-0.268340 1.356340 -0.586988
-0.265423 1.353905 -0.586499
-0.262918 1.350554 -0.585087
-0.260355 1.347387 -0.583851
-0.257729 1.344405 -0.582793
-0.254914 1.341870 -0.582181
-0.252465 1.338581 -0.580797
-0.249353 1.336729 -0.580872
-0.246711 1.333907 -0.579954
-0.244255 1.330743 -0.578676
-0.241839 1.327540 -0.577349
-0.237206 1.328735 -0.580576
-0.234324 1.326450 -0.580204
-0.230808 1.325386 -0.581105
-0.228317 1.322374 -0.579970
-0.226090 1.318909 -0.578350
-0.222697 1.317614 -0.579013
-0.219088 1.316690 -0.580075
-0.216394 1.314119 -0.579392
-0.213147 1.312533 -0.579757
-0.209224 1.312096 -0.581360
-0.206775 1.309125 -0.580244
-0.203831 1.307009 -0.580046
-0.200529 1.305487 -0.580493
-0.197382 1.303701 -0.580656
-0.194992 1.300704 -0.579494
-0.193383 1.296504 -0.577002
-0.188385 1.297632 -0.580374
-0.185725 1.295093 -0.579709
-0.182630 1.293227 -0.579789
-0.179510 1.291397 -0.579910
-0.176628 1.289212 -0.579635
-0.173498 1.287393 -0.579772
-0.170460 1.285438 -0.579757
-0.167722 1.283058 -0.579261
-0.163494 1.282765 -0.581143
-0.159757 1.281752 -0.582218
-0.158007 1.278018 -0.580172
-0.154545 1.276618 -0.580808
-0.151489 1.274668 -0.580812
-0.148691 1.272378 -0.580423
-0.146089 1.269844 -0.579745
-0.142972 1.267976 -0.579848
-0.139669 1.266337 -0.580223
-0.136627 1.264365 -0.580208
-0.133442 1.262564 -0.580401
-0.131445 1.259324 -0.578874
-0.127560 1.258362 -0.580075
-0.123605 1.257454 -0.581355
-0.119768 1.256379 -0.582447
-0.117700 1.253250 -0.581047
-0.114990 1.250872 -0.580558
-0.112907 1.247799 -0.579213
-0.109937 1.245731 -0.579099
-0.105912 1.244810 -0.580413
-0.102778 1.242898 -0.580507
-0.098734 1.241948 -0.581811
-0.097733 1.237772 -0.579069
-0.095180 1.235254 -0.578402
-0.092002 1.233385 -0.578559
-0.090280 1.230033 -0.576828
-0.087077 1.228189 -0.577020
-0.083909 1.226302 -0.577163
-0.082219 1.222963 -0.575432
-0.080144 1.220022 -0.574207
-0.076217 1.218859 -0.575303
-0.072539 1.217436 -0.576073
-0.071422 1.213612 -0.573684
-0.069956 1.210145 -0.571750
-0.067709 1.207414 -0.570786
-0.065595 1.204572 -0.569670
-0.063135 1.202049 -0.568981
-0.060887 1.199343 -0.568044
-0.056318 1.198650 -0.569851
-0.055046 1.195103 -0.567771
-0.053133 1.192124 -0.566460
-0.051670 1.188783 -0.564643
-0.052983 1.183183 -0.559666
-0.049199 1.181796 -0.560550
-0.047212 1.178942 -0.559384
-0.044073 1.177010 -0.559524
-0.044759 1.172071 -0.555388
-0.045499 1.167150 -0.551241
-0.042848 1.164875 -0.550875
-0.042032 1.161211 -0.548501
-0.037508 1.160335 -0.550179
-0.039474 1.154645 -0.544824
-0.039425 1.150496 -0.541691
-0.038153 1.147262 -0.539895
-0.036737 1.144145 -0.538267
-0.035924 1.140620 -0.536017
-0.035878 1.136588 -0.532986
-0.034848 1.133262 -0.531008
-0.029982 1.132534 -0.533005
-0.018254 1.136315 -0.542006
-0.015306 1.134172 -0.541937
-0.010938 1.132933 -0.543298
-0.008638 1.130332 -0.542552
-0.012576 1.123792 -0.535565
-0.021953 1.113963 -0.523247
-0.023242 1.109287 -0.519062
-0.018767 1.108155 -0.520579
-0.034168 1.095093 -0.502669
-0.039765 1.088091 -0.494478
-0.044554 1.081675 -0.487156
-0.048209 1.076012 -0.480998
-0.051155 1.070834 -0.475582
-0.050858 1.067538 -0.473291
-0.049398 1.064903 -0.472111
-0.047681 1.062411 -0.471176
-0.046325 1.059723 -0.469907
-0.043880 1.057615 -0.469650
-0.040372 1.056047 -0.470363
-0.040266 1.052708 -0.467951
-0.038746 1.050106 -0.466842
-0.034370 1.048932 -0.468313
-0.030042 1.047698 -0.469715
-0.027565 1.045531 -0.469441
-0.025826 1.043005 -0.468509
-0.025117 1.040000 -0.466672
-0.023172 1.037587 -0.465932
-0.011534 1.039595 -0.473633
-0.009572 1.037132 -0.472863
-0.009238 1.033956 -0.470696
-0.009778 1.030432 -0.467802
-0.006441 1.028614 -0.468235
-0.001929 1.027287 -0.469656
0.003097 1.026157 -0.471490
0.004975 1.023718 -0.470672
0.006021 1.020965 -0.469173
0.009248 1.019113 -0.469496
0.012876 1.017428 -0.470150
0.021298 1.017595 -0.474720
0.027617 1.016922 -0.477539
0.021744 1.011687 -0.470475
0.026033 1.010309 -0.471671
0.026921 1.007715 -0.470145
0.026390 1.004669 -0.467517
0.027660 1.002325 -0.466357
0.033417 1.001583 -0.468758
-0.563738 1.539074 -0.600953
-0.560585 1.540653 -0.603820
-0.557317 1.541890 -0.606447
-0.554108 1.544913 -0.610471
-0.550664 1.546062 -0.613075
-0.547225 1.548417 -0.616635
-0.543743 1.551470 -0.620761
-0.540147 1.554138 -0.624615
-0.536413 1.555856 -0.627751
-0.532586 1.557161 -0.630585
-0.528757 1.559968 -0.634617
-0.524806 1.561647 -0.637784
-0.520856 1.565381 -0.642597
-0.516792 1.567942 -0.646506
-0.512687 1.571860 -0.651519
-0.508473 1.573887 -0.655050
-0.504202 1.575969 -0.658642
-0.499884 1.579868 -0.663716
-0.495495 1.582890 -0.668110
-0.491060 1.584075 -0.671039
-0.486555 1.587710 -0.675973
-0.482013 1.589948 -0.679793
-0.477454 1.591134 -0.682773
-0.472835 1.593226 -0.686508
-0.468699 1.581227 -0.678669
-0.464514 1.573346 -0.674172
-0.459772 1.578485 -0.680421
-0.455491 1.573936 -0.678658
-0.451055 1.572653 -0.679597
-0.446364 1.575255 -0.683785
-0.441604 1.578261 -0.688334
-0.436420 1.586081 -0.696954
-0.431979 1.583938 -0.697216
-0.428169 1.575062 -0.691773
-0.419757 1.455324 -0.599105
-0.416432 1.450958 -0.597103
-0.413079 1.447147 -0.595562
-0.410019 1.441516 -0.592429
-0.406960 1.436306 -0.589637
-0.403638 1.433187 -0.588653
-0.400400 1.429734 -0.587366
-0.397766 1.422809 -0.583012
-0.394142 1.422144 -0.584154
-0.389276 1.428504 -0.591525
-0.385781 1.426878 -0.591843
-0.382339 1.425031 -0.591963
-0.378833 1.423569 -0.592426
-0.374205 1.427709 -0.597918
-0.371798 1.420859 -0.593547
-0.368497 1.418528 -0.593229
-0.365069 1.416849 -0.593497
-0.361789 1.414555 -0.593206
-0.358224 1.413553 -0.594091
-0.355073 1.410817 -0.593391
-0.352077 1.407532 -0.592183
-0.348635 1.406128 -0.592697
-0.344969 1.405593 -0.594018
-0.342004 1.402390 -0.592870
-0.339431 1.397836 -0.590457
-0.335667 1.397711 -0.592164
-0.332209 1.396461 -0.592826
-0.328964 1.394477 -0.592802
-0.326124 1.391163 -0.591522
-0.323406 1.387535 -0.589935
-0.320441 1.384794 -0.589180
-0.317310 1.382627 -0.588966
-0.314332 1.380022 -0.588331
-0.311313 1.377586 -0.587853
-0.308358 1.375000 -0.587229
-0.305490 1.372204 -0.586395
-0.302563 1.369626 -0.585768
-0.299519 1.367411 -0.585489
-0.296476 1.365221 -0.585233
-0.293248 1.363546 -0.585479
-0.290100 1.361664 -0.585524
-0.286244 1.361616 -0.587380
-0.282697 1.360729 -0.588417
-0.280873 1.355530 -0.585175
-0.277399 1.354484 -0.586055
-0.273516 1.354396 -0.587900
-0.270179 1.352968 -0.588411
-0.267533 1.349926 -0.587300
-0.264787 1.347156 -0.586455
-0.262458 1.343486 -0.584690
-0.259199 1.341928 -0.585066
-0.256943 1.338190 -0.583214
-0.254469 1.334980 -0.581891
-0.251465 1.332928 -0.581754
-0.248585 1.330628 -0.581359
-0.246503 1.326723 -0.579294
-0.244421 1.322885 -0.577284
-0.240966 1.321809 -0.578151
-0.238556 1.318687 -0.576874
-0.235055 1.317685 -0.577825
-0.232720 1.314467 -0.576438
-0.229038 1.313784 -0.577735
-0.225442 1.312907 -0.578837
-0.222315 1.311159 -0.579014
-0.219506 1.308847 -0.578587
-0.216157 1.307486 -0.579184
-0.212504 1.306633 -0.580338
-0.209072 1.305377 -0.581062
-0.206107 1.303323 -0.580921
-0.202409 1.302477 -0.582106
-0.199978 1.299548 -0.581007
-0.198232 1.295553 -0.578721
-0.195324 1.293445 -0.578514
-0.191968 1.292039 -0.579088
-0.189078 1.289903 -0.578851
-0.186752 1.286922 -0.577662
-0.183738 1.284994 -0.577654
-0.179548 1.284793 -0.579604
-0.176559 1.282804 -0.579538
-0.174087 1.280076 -0.578627
-0.170782 1.278543 -0.579082
-0.167728 1.276650 -0.579127
-0.164662 1.274771 -0.579190
-0.161441 1.273097 -0.579494
-0.157970 1.271751 -0.580184
-0.155045 1.269666 -0.580016
-0.153075 1.266340 -0.578387
-0.149462 1.265159 -0.579283
-0.145899 1.263893 -0.580087
-0.142243 1.262724 -0.581017
-0.139399 1.260529 -0.580727
-0.136968 1.257832 -0.579834
-0.133408 1.256513 -0.580601
-0.131738 1.252925 -0.578621
-0.128658 1.251033 -0.578696
-0.126373 1.248213 -0.577637
-0.122898 1.246774 -0.578271
-0.119404 1.245341 -0.578921
-0.116517 1.243214 -0.578717
-0.112468 1.242367 -0.580113
-0.109484 1.240328 -0.580032
-0.106524 1.238261 -0.579918
-0.103418 1.236346 -0.580000
-0.101218 1.233476 -0.578871
-0.098739 1.230911 -0.578126
-0.095774 1.228852 -0.578028
-0.092867 1.226731 -0.577853
-0.090452 1.224117 -0.577043
-0.088406 1.221148 -0.575768
-0.086115 1.218437 -0.574822
-0.082057 1.217435 -0.576122
-0.079606 1.214876 -0.575381
-0.078385 1.211169 -0.573115
-0.074347 1.210109 -0.574365
-0.072301 1.207193 -0.573145
-0.069096 1.205341 -0.573354
-0.066796 1.202668 -0.572458
-0.065172 1.199406 -0.570758
-0.061780 1.197707 -0.571191
-0.060323 1.194325 -0.569317
-0.057772 1.191897 -0.568753
-0.056103 1.188729 -0.567159
-0.057259 1.183234 -0.562298
-0.056556 1.179338 -0.559646
-0.053540 1.177350 -0.559676
-0.047797 1.177531 -0.562808
-0.046889 1.173828 -0.560419
-0.047222 1.169186 -0.556662
-0.047900 1.164330 -0.552563
-0.046263 1.161294 -0.551081
-0.041486 1.160630 -0.553072
-0.039823 1.157608 -0.551621
-0.039059 1.153938 -0.549203
-0.041203 1.148190 -0.543666
-0.039266 1.145438 -0.542577
-0.038096 1.142149 -0.540676
-0.038587 1.137718 -0.537029
-0.040065 1.132655 -0.532382
-0.038925 1.129431 -0.530526
-0.033511 1.129089 -0.533131
-0.028000 1.128752 -0.535795
-0.018026 1.131269 -0.543001
-0.013520 1.130125 -0.544527
-0.016690 1.124053 -0.538238
-0.012338 1.122791 -0.539600
-0.015574 1.116785 -0.533334
-0.019660 1.110343 -0.526288
-0.013964 1.109902 -0.528998
-0.019364 1.102790 -0.520754
-0.034988 1.089786 -0.502605
-0.037321 1.084763 -0.497581
-0.042463 1.078198 -0.489895
-0.046232 1.072513 -0.483610
-0.051281 1.066201 -0.476169
-0.051925 1.062408 -0.472987
-0.049902 1.060092 -0.472346
-0.049727 1.056784 -0.469971
-0.049150 1.053711 -0.467991
-0.044892 1.052560 -0.469431
-0.043461 1.049927 -0.468244
-0.042164 1.047231 -0.466938
-0.038483 1.045724 -0.467808
-0.034889 1.044148 -0.468578
-0.031782 1.042312 -0.468894
-0.031647 1.039050 -0.466544
-0.029687 1.036668 -0.465835
-0.027422 1.034429 -0.465395
-0.017875 1.035490 -0.471344
-0.012363 1.034651 -0.473697
-0.016618 1.029478 -0.467549
-0.011791 1.028329 -0.469298
-0.010086 1.025824 -0.468348
-0.006115 1.024287 -0.469337
-0.001291 1.023091 -0.471037
-0.000393 1.020282 -0.469409
0.003503 1.018707 -0.470314
0.003808 1.015717 -0.468220
0.007073 1.013922 -0.468605
0.010718 1.012286 -0.469304
0.014113 1.010567 -0.469798
0.013880 1.007523 -0.467339
0.019379 1.006630 -0.469562
0.022242 1.004790 -0.469647
0.023857 1.002540 -0.468742
0.024940 1.000152 -0.467437
0.026058 0.997830 -0.466187
-0.565738 1.544849 -0.610181
-0.561785 1.537706 -0.606356
-0.558682 1.540575 -0.610264
-0.555415 1.542622 -0.613563
-0.552118 1.545452 -0.617495
-0.548700 1.547890 -0.621150
-0.545190 1.550282 -0.624793
-0.541567 1.552255 -0.628131
-0.537868 1.554279 -0.631532
-0.534095 1.556370 -0.635007
-0.530278 1.559170 -0.639067
-0.526296 1.559836 -0.641452
-0.522394 1.564435 -0.646992
-0.518377 1.568352 -0.652018
-0.514233 1.570398 -0.655571
-0.510035 1.572768 -0.659403
-0.505758 1.573715 -0.662105
-0.501455 1.577471 -0.667100
-0.497081 1.580662 -0.671661
-0.492649 1.582702 -0.675307
-0.488161 1.585571 -0.679650
-0.483660 1.585966 -0.681982
-0.479276 1.580345 -0.679363
-0.474779 1.580237 -0.681282
-0.470601 1.570627 -0.675322
-0.466315 1.566115 -0.673562
-0.461925 1.564677 -0.674351
-0.457383 1.566208 -0.677628
-0.452496 1.573106 -0.685431
-0.448053 1.571743 -0.686312
-0.443257 1.575455 -0.691487
-0.438758 1.574609 -0.692820
-0.433952 1.577491 -0.697332
-0.428664 1.585290 -0.706065
-0.424261 1.582724 -0.705968
-0.419649 1.582450 -0.707836
-0.414166 1.447128 -0.600272
-0.410702 1.444271 -0.599541
-0.407842 1.437413 -0.595286
-0.404854 1.431914 -0.592198
-0.401513 1.429048 -0.591417
-0.398524 1.424186 -0.588857
-0.395345 1.420758 -0.587553
-0.392317 1.416649 -0.585630
-0.388931 1.414750 -0.585673
-0.384281 1.419667 -0.591845
-0.380691 1.418736 -0.592778
-0.376777 1.419430 -0.595186
-0.373681 1.416058 -0.593914
-0.370611 1.412713 -0.592657
-0.366897 1.412440 -0.594198
-0.363553 1.410488 -0.594208
-0.360286 1.408251 -0.593953
-0.357133 1.405594 -0.593308
-0.353938 1.403192 -0.592894
-0.350428 1.402111 -0.593703
-0.348237 1.395906 -0.589737
-0.344629 1.395310 -0.590994
-0.341395 1.393303 -0.590932
-0.337977 1.391994 -0.591526
-0.334608 1.390512 -0.591960
-0.331395 1.388501 -0.591896
-0.328660 1.384912 -0.590328
-0.325335 1.383365 -0.590699
-0.322123 1.381458 -0.590726
-0.319008 1.379266 -0.590479
-0.316144 1.376332 -0.589515
-0.313181 1.373759 -0.588892
-0.310143 1.371450 -0.588523
-0.307625 1.367665 -0.586711
-0.304683 1.365176 -0.586154
-0.301673 1.362910 -0.585812
-0.298509 1.361097 -0.585914
-0.295574 1.358676 -0.585416
-0.292773 1.355931 -0.584593
-0.289190 1.355252 -0.585822
-0.286091 1.353308 -0.585795
-0.283662 1.349706 -0.584105
-0.280321 1.348406 -0.584721
-0.277146 1.346692 -0.584924
-0.273759 1.345479 -0.585635
-0.270261 1.344509 -0.586600
-0.267558 1.341696 -0.585690
-0.264966 1.338674 -0.584560
-0.261944 1.336640 -0.584437
-0.259450 1.333472 -0.583144
-0.256503 1.331313 -0.582888
-0.253428 1.329438 -0.582925
-0.250700 1.326850 -0.582218
-0.248950 1.322298 -0.579448
-0.246327 1.319578 -0.578585
-0.243699 1.316897 -0.577757
-0.240660 1.315040 -0.577799
-0.238211 1.312059 -0.576644
-0.234320 1.311821 -0.578412
-0.231526 1.309506 -0.577967
-0.228523 1.307585 -0.577945
-0.225603 1.305517 -0.577762
-0.222399 1.303959 -0.578134
-0.219248 1.302299 -0.578397
-0.216699 1.299598 -0.577525
-0.213061 1.298764 -0.578697
-0.210103 1.296767 -0.578598
-0.207301 1.294516 -0.578217
-0.204037 1.293023 -0.578677
-0.201504 1.290350 -0.577824
-0.198523 1.288405 -0.577782
-0.195782 1.286087 -0.577321
-0.192769 1.284198 -0.577342
-0.189541 1.282632 -0.577731
-0.186112 1.281355 -0.578453
-0.183179 1.279331 -0.578328
-0.180250 1.277304 -0.578200
-0.177523 1.274989 -0.577741
-0.173812 1.274073 -0.578899
-0.170523 1.272541 -0.579352
-0.167584 1.270517 -0.579236
-0.164644 1.268495 -0.579123
-0.161542 1.266690 -0.579266
-0.158406 1.264925 -0.579460
-0.155663 1.262644 -0.579044
-0.152504 1.260903 -0.579272
-0.148436 1.260307 -0.580875
-0.145346 1.258451 -0.580979
-0.142201 1.256657 -0.581160
-0.139054 1.254861 -0.581342
-0.137296 1.251385 -0.579479
-0.133960 1.249820 -0.579945
-0.131009 1.247791 -0.579846
-0.128353 1.245419 -0.579325
-0.126003 1.242704 -0.578375
-0.122544 1.241257 -0.579004
-0.118201 1.240780 -0.580858
-0.115633 1.238306 -0.580217
-0.112039 1.236958 -0.580998
-0.109085 1.234902 -0.580890
-0.107663 1.231219 -0.578706
-0.104791 1.229092 -0.578503
-0.101882 1.227003 -0.578352
-0.098879 1.225007 -0.578324
-0.096099 1.222782 -0.578003
-0.093038 1.220837 -0.578050
-0.091203 1.217678 -0.576505
-0.088576 1.215311 -0.575998
-0.085560 1.213321 -0.575993
-0.083695 1.210233 -0.574527
-0.080946 1.207994 -0.574192
-0.077646 1.206262 -0.574545
-0.074517 1.204361 -0.574677
-0.071171 1.202645 -0.575072
-0.066510 1.202086 -0.577064
-0.065509 1.198260 -0.574582
-0.064168 1.194765 -0.572541
-0.064600 1.189774 -0.568403
-0.061114 1.188171 -0.568972
-0.060057 1.184513 -0.566663
-0.058795 1.181055 -0.564622
-0.057372 1.177753 -0.562790
-0.054722 1.175464 -0.562397
-0.051150 1.173905 -0.563061
-0.050339 1.170149 -0.560563
-0.050969 1.165303 -0.556458
-0.049945 1.161785 -0.554263
-0.046802 1.159900 -0.554463
-0.043547 1.158083 -0.554776
-0.041028 1.155703 -0.554267
-0.039407 1.152662 -0.552773
-0.041295 1.147100 -0.547468
-0.041051 1.143131 -0.544532
-0.041014 1.139051 -0.541404
-0.042949 1.133639 -0.536200
-0.043949 1.128938 -0.532048
-0.041737 1.126465 -0.531329
-0.037320 1.125462 -0.532924
-0.032416 1.124738 -0.534997
-0.029663 1.122563 -0.534809
-0.024869 1.121686 -0.536713
-0.023143 1.118815 -0.535449
-0.019784 1.116969 -0.535849
-0.021766 1.111801 -0.530843
-0.014045 1.112609 -0.535625
-0.013524 1.108992 -0.533158
-0.019864 1.101326 -0.523910
-0.036801 1.087591 -0.504328
-0.033202 1.086007 -0.505080
-0.029733 1.084319 -0.505686
-0.038840 1.075543 -0.494112
-0.039807 1.071442 -0.490494
-0.045903 1.064581 -0.482007
-0.050745 1.058515 -0.474805
-0.054356 1.053201 -0.468842
-0.051009 1.051606 -0.469469
-0.047605 1.050016 -0.470134
-0.044053 1.048475 -0.470917
-0.043359 1.045475 -0.469049
-0.044082 1.041793 -0.465896
-0.040400 1.040289 -0.466782
-0.038892 1.037718 -0.465682
-0.035538 1.036024 -0.466249
-0.032750 1.034049 -0.466295
-0.030970 1.031604 -0.465437
-0.027052 1.030128 -0.466474
-0.020983 1.029587 -0.469384
-0.017465 1.027883 -0.470025
-0.015768 1.025383 -0.469073
-0.011589 1.023951 -0.470273
-0.009183 1.021764 -0.469936
-0.006725 1.019610 -0.469645
-0.002669 1.018114 -0.470715
-0.001468 1.015478 -0.469364
0.000648 1.013234 -0.468800
0.003648 1.011355 -0.468984
0.004802 1.008793 -0.467639
0.005163 1.005975 -0.465660
0.015043 1.006713 -0.471531
0.015272 1.003901 -0.469462
0.017677 1.001924 -0.469196
0.021593 1.000514 -0.470166
0.023456 0.998417 -0.469490
0.023979 0.995907 -0.467762
-0.565432 1.526463 -0.600756
-0.563371 1.539010 -0.612189
-0.560118 1.540067 -0.614721
-0.556869 1.542151 -0.618078
-0.553556 1.544558 -0.621713
-0.550085 1.546047 -0.624650
-0.546604 1.548568 -0.628423
-0.543000 1.550535 -0.631781
-0.539336 1.552856 -0.635444
-0.535644 1.556207 -0.639951
-0.531813 1.558503 -0.643641
-0.527931 1.561412 -0.647847
-0.524041 1.566311 -0.653680
-0.519945 1.567693 -0.656705
-0.515813 1.569938 -0.660447
-0.511587 1.570641 -0.662954
-0.507337 1.572728 -0.666603
-0.503061 1.578686 -0.673440
-0.498677 1.580578 -0.676976
-0.494246 1.582200 -0.680308
-0.489777 1.583148 -0.683099
-0.485330 1.580534 -0.682949
-0.481014 1.572200 -0.678035
-0.476696 1.566938 -0.675647
-0.472399 1.562450 -0.673885
-0.468157 1.557518 -0.671735
-0.463841 1.555278 -0.671832
-0.458556 1.572302 -0.688205
-0.454348 1.566677 -0.685474
-0.449250 1.576083 -0.695504
-0.444660 1.576339 -0.697786
-0.439992 1.577487 -0.700840
-0.435079 1.581374 -0.706260
-0.430101 1.585362 -0.711798
-0.425180 1.588131 -0.716311
-0.421144 1.581584 -0.712771
-0.417595 1.571095 -0.705774
-0.407056 1.582404 -0.719896
-0.408626 1.439321 -0.601695
-0.405987 1.431248 -0.596297
-0.402588 1.428676 -0.595771
-0.399446 1.424654 -0.593941
-0.396201 1.421487 -0.592864
-0.393658 1.414451 -0.588289
-0.390383 1.411923 -0.587760
-0.388350 1.402833 -0.581272
-0.385453 1.398775 -0.579318
-0.380187 1.406857 -0.588435
-0.375913 1.409541 -0.592667
-0.372395 1.408427 -0.593432
-0.369599 1.404001 -0.591146
-0.366145 1.402710 -0.591744
-0.362338 1.402964 -0.593780
-0.359057 1.400927 -0.593693
-0.356137 1.397457 -0.592265
-0.353333 1.393641 -0.590502
-0.350348 1.390666 -0.589518
-0.346641 1.390524 -0.591200
-0.343753 1.387293 -0.589967
-0.340482 1.385547 -0.590135
-0.337011 1.384526 -0.590997
-0.334002 1.381895 -0.590322
-0.330504 1.380980 -0.591289
-0.327926 1.377002 -0.589312
-0.324311 1.376486 -0.590669
-0.321085 1.374707 -0.590809
-0.318564 1.370756 -0.588834
-0.314959 1.370198 -0.590161
-0.312126 1.367307 -0.589210
-0.309832 1.362907 -0.586767
-0.306878 1.360501 -0.586276
-0.303666 1.358852 -0.586531
-0.300568 1.356895 -0.586482
-0.297866 1.353886 -0.585383
-0.295693 1.349537 -0.582935
-0.292129 1.348889 -0.584188
-0.289171 1.346667 -0.583863
-0.285970 1.345074 -0.584173
-0.282998 1.342915 -0.583910
-0.279858 1.341180 -0.584078
-0.276276 1.340492 -0.585320
-0.273449 1.338014 -0.584732
-0.270538 1.335753 -0.584364
-0.267651 1.333458 -0.583959
-0.264765 1.331178 -0.583566
-0.261455 1.329839 -0.584153
-0.258376 1.327990 -0.584210
-0.255504 1.325711 -0.583817
-0.253242 1.322186 -0.582109
-0.250854 1.318973 -0.580719
-0.248248 1.316240 -0.579828
-0.245427 1.313963 -0.579417
-0.243237 1.310475 -0.577708
-0.240404 1.308266 -0.577360
-0.237031 1.307085 -0.578120
-0.233521 1.306138 -0.579139
-0.231438 1.302563 -0.577311
-0.228663 1.300283 -0.576883
-0.225238 1.299164 -0.577723
-0.222639 1.296585 -0.576966
-0.218873 1.296031 -0.578439
-0.216040 1.293860 -0.578133
-0.212566 1.292766 -0.579024
-0.209746 1.290575 -0.578697
-0.207057 1.288181 -0.578141
-0.204184 1.286094 -0.577927
-0.201996 1.282933 -0.576498
-0.198888 1.281237 -0.576722
-0.195190 1.280438 -0.577972
-0.191984 1.278864 -0.578347
-0.188925 1.277062 -0.578464
-0.185712 1.275484 -0.578841
-0.183037 1.273115 -0.578307
-0.180007 1.271266 -0.578374
-0.177357 1.268878 -0.577814
-0.174685 1.266533 -0.577300
-0.171761 1.264543 -0.577204
-0.168214 1.263397 -0.578107
-0.164080 1.263013 -0.579926
-0.162672 1.258996 -0.577423
-0.158368 1.258797 -0.579481
-0.154954 1.257408 -0.580126
-0.152131 1.255255 -0.579853
-0.148469 1.254156 -0.580860
-0.146329 1.251152 -0.579555
-0.142655 1.250043 -0.580563
-0.140088 1.247580 -0.579915
-0.136521 1.246313 -0.580745
-0.133407 1.244495 -0.580900
-0.130938 1.241924 -0.580119
-0.128197 1.239677 -0.579739
-0.124340 1.238693 -0.580952
-0.122436 1.235505 -0.579389
-0.120409 1.232479 -0.578021
-0.116712 1.231290 -0.578992
-0.113800 1.229236 -0.578865
-0.110375 1.227723 -0.579439
-0.108078 1.225014 -0.578471
-0.105087 1.223036 -0.578452
-0.102197 1.220949 -0.578295
-0.099256 1.218912 -0.578207
-0.096668 1.216519 -0.577652
-0.093074 1.215119 -0.578417
-0.090626 1.212587 -0.577682
-0.088894 1.209375 -0.576035
-0.086446 1.206864 -0.575322
-0.083839 1.204510 -0.574820
-0.081196 1.202189 -0.574366
-0.078107 1.200276 -0.574472
-0.073891 1.199368 -0.575972
-0.068298 1.199650 -0.579143
-0.065682 1.197251 -0.578624
-0.065747 1.192527 -0.574852
-0.064454 1.189023 -0.572764
-0.063052 1.185639 -0.570834
-0.060949 1.182865 -0.569759
-0.059880 1.179246 -0.567472
-0.058253 1.176110 -0.565865
-0.055631 1.173793 -0.565435
-0.053915 1.170752 -0.563957
-0.051741 1.168084 -0.563020
-0.050519 1.164682 -0.561002
-0.049765 1.160944 -0.558473
-0.048403 1.157695 -0.556658
-0.046049 1.155205 -0.555970
-0.043060 1.153183 -0.555992
-0.042457 1.149408 -0.553369
-0.046160 1.142566 -0.546045
-0.046922 1.137920 -0.542017
-0.045628 1.134767 -0.540262
-0.047262 1.129602 -0.535369
-0.045486 1.126833 -0.534179
-0.043426 1.124259 -0.533299
-0.039810 1.122721 -0.534066
-0.035270 1.121761 -0.535785
-0.030802 1.120710 -0.537399
-0.029104 1.117843 -0.536111
-0.027413 1.114976 -0.534824
-0.023393 1.113564 -0.535928
-0.019648 1.111947 -0.536729
-0.018707 1.108598 -0.534675
-0.015444 1.106653 -0.534969
-0.012923 1.104248 -0.534509
-0.014134 1.099657 -0.530340
-0.020678 1.092050 -0.520950
-0.018208 1.089683 -0.520503
-0.033834 1.077191 -0.502414
-0.036817 1.071938 -0.496782
-0.039127 1.067124 -0.491857
-0.043254 1.061397 -0.485242
-0.053897 1.052317 -0.472498
-0.052703 1.049587 -0.471091
-0.048712 1.048299 -0.472320
-0.046731 1.045959 -0.471646
-0.047047 1.042473 -0.468840
-0.045583 1.039891 -0.467701
-0.043934 1.037404 -0.466736
-0.041381 1.035351 -0.466600
-0.039794 1.032837 -0.465582
-0.035627 1.031522 -0.466894
-0.031494 1.030163 -0.468154
-0.029241 1.027936 -0.467718
-0.025555 1.026344 -0.468551
-0.020336 1.025403 -0.470720
-0.016987 1.023628 -0.471224
-0.015040 1.021256 -0.470498
-0.013349 1.018794 -0.469557
-0.009403 1.017272 -0.470567
-0.007113 1.015080 -0.470149
-0.004384 1.013078 -0.470111
-0.004321 1.010055 -0.467821
-0.000373 1.008570 -0.468830
0.004467 1.007427 -0.470579
0.003072 1.003968 -0.467129
0.013395 1.004865 -0.473423
0.013768 1.002124 -0.471467
0.011929 0.998656 -0.467733
0.018865 0.998333 -0.471198
0.022714 0.996940 -0.472139
0.013127 0.991022 -0.462253
-0.568092 1.538847 -0.615206
-0.564579 1.536191 -0.614829
-0.561721 1.541384 -0.620637
-0.558375 1.542237 -0.623056
-0.554846 1.541774 -0.624449
-0.551445 1.543873 -0.627891
-0.547986 1.546374 -0.631676
-0.544594 1.551270 -0.637402
-0.540914 1.553213 -0.640795
-0.537201 1.556004 -0.644892
-0.533341 1.557524 -0.647988
-0.529417 1.559142 -0.651181
-0.525574 1.564643 -0.657547
-0.521495 1.566160 -0.660704
-0.517395 1.569119 -0.665057
-0.513193 1.570748 -0.668342
-0.508968 1.574402 -0.673312
-0.504662 1.577444 -0.677804
-0.500283 1.579006 -0.681093
-0.495858 1.581128 -0.684864
-0.491408 1.579696 -0.685692
-0.487051 1.570775 -0.680255
-0.482726 1.564615 -0.677096
-0.478452 1.558552 -0.673991
-0.474188 1.553996 -0.672134
-0.469839 1.552796 -0.673102
-0.465472 1.552009 -0.674422
-0.460874 1.555908 -0.679738
-0.455550 1.571916 -0.695437
-0.450704 1.576784 -0.701675
-0.445755 1.582145 -0.708372
-0.440935 1.584730 -0.712709
-0.436413 1.583052 -0.713376
-0.431453 1.586632 -0.718611
-0.426933 1.584837 -0.719188
-0.422210 1.585254 -0.721699
-0.417193 1.588390 -0.726606
-0.411873 1.593847 -0.733584
-0.407161 1.593418 -0.735403
-0.402131 1.438390 -0.609232
-0.400090 1.426951 -0.600717
-0.396866 1.423465 -0.599350
-0.394648 1.414325 -0.592832
-0.391861 1.408965 -0.589716
-0.388343 1.407887 -0.590495
-0.385543 1.403054 -0.587831
-0.382958 1.397388 -0.584380
-0.380055 1.393584 -0.582625
-0.375614 1.397290 -0.587820
-0.371626 1.398621 -0.590838
-0.367798 1.399100 -0.593079
-0.364815 1.395805 -0.591800
-0.362355 1.390408 -0.588537
-0.358834 1.389630 -0.589605
-0.355554 1.387867 -0.589747
-0.352296 1.386044 -0.589832
-0.348792 1.385199 -0.590848
-0.345732 1.382675 -0.590266
-0.342393 1.381230 -0.590714
-0.339225 1.379188 -0.590590
-0.335953 1.377539 -0.590844
-0.332598 1.376191 -0.591390
-0.329569 1.373757 -0.590885
-0.326838 1.370406 -0.589481
-0.323647 1.368596 -0.589576
-0.320998 1.365121 -0.588035
-0.318898 1.360063 -0.584925
-0.314459 1.362117 -0.588825
-0.311625 1.359348 -0.587966
-0.308974 1.356104 -0.586629
-0.306154 1.353403 -0.585824
-0.303105 1.351374 -0.585688
-0.300253 1.348834 -0.585037
-0.297504 1.346058 -0.584143
-0.294490 1.344013 -0.583984
-0.291370 1.342255 -0.584116
-0.288430 1.340052 -0.583795
-0.284673 1.339877 -0.585550
-0.282734 1.335262 -0.582753
-0.279913 1.332842 -0.582200
-0.276407 1.332042 -0.583322
-0.273704 1.329373 -0.582511
-0.270387 1.328120 -0.583172
-0.267308 1.326324 -0.583268
-0.264251 1.324483 -0.583319
-0.260127 1.324925 -0.585782
-0.258194 1.320688 -0.583304
-0.255754 1.317581 -0.582012
-0.252893 1.315371 -0.581668
-0.250091 1.313059 -0.581212
-0.247550 1.310248 -0.580218
-0.244857 1.307764 -0.579568
-0.242224 1.305186 -0.578814
-0.238919 1.303895 -0.579455
-0.235820 1.302207 -0.579668
-0.233582 1.298946 -0.578158
-0.231056 1.296244 -0.577253
-0.228180 1.294186 -0.577053
-0.225342 1.292069 -0.576788
-0.222448 1.290058 -0.576639
-0.218622 1.289627 -0.578258
-0.215866 1.287370 -0.577840
-0.213049 1.285224 -0.577546
-0.210081 1.283333 -0.577537
-0.207024 1.281581 -0.577690
-0.204140 1.279554 -0.577529
-0.201826 1.276647 -0.576361
-0.198996 1.274556 -0.576123
-0.194933 1.274333 -0.578043
-0.191548 1.273054 -0.578755
-0.188772 1.270863 -0.578411
-0.185257 1.269749 -0.579328
-0.182713 1.267225 -0.578596
-0.179816 1.265215 -0.578466
-0.176783 1.263396 -0.578562
-0.173789 1.261520 -0.578595
-0.171124 1.259197 -0.578093
-0.168997 1.256163 -0.576737
-0.166122 1.254144 -0.576595
-0.161836 1.253961 -0.578677
-0.157709 1.253525 -0.580471
-0.156451 1.249417 -0.577798
-0.153388 1.247619 -0.577937
-0.148671 1.247856 -0.580590
-0.145447 1.246215 -0.580943
-0.143226 1.243361 -0.579792
-0.140701 1.240887 -0.579111
-0.135990 1.240985 -0.581653
-0.133661 1.238273 -0.580679
-0.131340 1.235569 -0.579708
-0.128668 1.233276 -0.579256
-0.125878 1.231119 -0.578977
-0.122481 1.229631 -0.579557
-0.119980 1.227154 -0.578872
-0.116258 1.225995 -0.579893
-0.114912 1.222299 -0.577621
-0.110680 1.221655 -0.579330
-0.107790 1.219589 -0.579188
-0.106000 1.216402 -0.577566
-0.103145 1.214310 -0.577389
-0.099822 1.212681 -0.577834
-0.099375 1.208216 -0.574482
-0.095108 1.207507 -0.576170
-0.092546 1.205130 -0.575618
-0.089290 1.203411 -0.575965
-0.086524 1.201223 -0.575679
-0.083694 1.199090 -0.575473
-0.080650 1.197149 -0.575537
-0.077823 1.195004 -0.575325
-0.075547 1.192366 -0.574429
-0.072074 1.190783 -0.575016
-0.067323 1.190289 -0.577158
-0.066937 1.186015 -0.573957
-0.064373 1.183627 -0.573425
-0.062214 1.180900 -0.572411
-0.061272 1.177179 -0.569957
-0.060005 1.173753 -0.567915
-0.058581 1.170478 -0.566081
-0.055929 1.168197 -0.565699
-0.053462 1.165766 -0.565102
-0.051129 1.163230 -0.564354
-0.049257 1.160342 -0.563082
-0.050149 1.155378 -0.558681
-0.048531 1.152344 -0.557163
-0.046084 1.149932 -0.556589
-0.045168 1.146404 -0.554310
-0.046712 1.141136 -0.549332
-0.049896 1.134776 -0.542607
-0.050812 1.130096 -0.538439
-0.049117 1.127271 -0.537152
-0.047031 1.124719 -0.536295
-0.044893 1.122200 -0.535497
-0.042657 1.119743 -0.534805
-0.037417 1.119249 -0.537292
-0.033340 1.117947 -0.538516
-0.033230 1.114079 -0.535573
-0.029125 1.112755 -0.536804
-0.026973 1.110182 -0.535996
-0.024374 1.107877 -0.535646
-0.023459 1.104544 -0.533576
-0.018830 1.103439 -0.535283
-0.017322 1.100454 -0.533817
-0.018451 1.095943 -0.529722
-0.018543 1.092073 -0.526697
-0.018560 1.088275 -0.523773
-0.020877 1.083226 -0.518616
-0.034516 1.072030 -0.502459
-0.037842 1.066649 -0.496493
-0.039520 1.062226 -0.492180
-0.042386 1.057229 -0.486769
-0.050631 1.049516 -0.476290
-0.051689 1.045621 -0.472733
-0.053729 1.041275 -0.468285
-0.051381 1.039158 -0.467988
-0.049253 1.036927 -0.467481
-0.046868 1.034815 -0.467209
-0.044632 1.032626 -0.466797
-0.042212 1.030519 -0.466549
-0.038206 1.029136 -0.467738
-0.033398 1.028091 -0.469630
-0.030272 1.026261 -0.469985
-0.028089 1.024009 -0.469490
-0.024412 1.022408 -0.470321
-0.021211 1.020592 -0.470719
-0.020523 1.017720 -0.468907
-0.017666 1.015774 -0.469004
-0.013995 1.014164 -0.469807
-0.010820 1.012354 -0.470173
-0.011326 1.009105 -0.467382
-0.009493 1.006816 -0.466618
-0.006168 1.005123 -0.467133
-0.003051 1.003366 -0.467473
-0.000682 1.001352 -0.467189
0.005290 1.000676 -0.469922
0.009065 0.999206 -0.470812
0.009884 0.996715 -0.469265
0.013501 0.995248 -0.470043
0.019789 0.994718 -0.473008
0.027675 0.994726 -0.477256
-0.568936 1.532659 -0.615182
-0.566058 1.536254 -0.619741
-0.562942 1.538402 -0.623183
-0.559659 1.539696 -0.625969
-0.556245 1.540378 -0.628286
-0.552866 1.542510 -0.631782
-0.549629 1.547811 -0.637850
-0.546002 1.549046 -0.640676
-0.542404 1.551970 -0.644888
-0.538638 1.553507 -0.647999
-0.534807 1.555191 -0.651248
-0.531094 1.560997 -0.657885
-0.527077 1.562103 -0.660709
-0.523096 1.565903 -0.665764
-0.518980 1.568058 -0.669489
-0.514784 1.569585 -0.672716
-0.510571 1.573238 -0.677724
-0.506260 1.575138 -0.681300
-0.501892 1.576419 -0.684376
-0.497481 1.580114 -0.689490
-0.493088 1.567177 -0.680647
-0.488742 1.561491 -0.677858
-0.484454 1.555128 -0.674474
-0.480192 1.550110 -0.672203
-0.475889 1.547977 -0.672370
-0.471451 1.549969 -0.676056
-0.467000 1.551374 -0.679257
-0.462292 1.557611 -0.686627
-0.457473 1.564308 -0.694435
-0.452242 1.576411 -0.706966
-0.447437 1.579561 -0.711800
-0.443087 1.575643 -0.710504
-0.437991 1.581882 -0.718069
-0.433004 1.585794 -0.723636
-0.428372 1.585103 -0.725187
-0.423410 1.587860 -0.729784
-0.417625 1.598286 -0.741193
-0.412221 1.603916 -0.748413
-0.407486 1.603001 -0.749845
-0.394410 1.421480 -0.604081
-0.392496 1.410798 -0.596066
-0.389749 1.405358 -0.592833
-0.386767 1.401467 -0.591012
-0.383725 1.398083 -0.589649
-0.381002 1.393273 -0.586946
-0.377790 1.391050 -0.586642
-0.375942 1.382547 -0.580442
-0.372073 1.383626 -0.583221
-0.369232 1.380070 -0.581639
-0.364636 1.384152 -0.587284
-0.360823 1.384703 -0.589608
-0.357505 1.383161 -0.589950
-0.354245 1.381410 -0.590093
-0.350833 1.380271 -0.590824
-0.348353 1.375638 -0.588192
-0.345213 1.373585 -0.588036
-0.341465 1.373739 -0.590020
-0.338706 1.370380 -0.588597
-0.335666 1.368069 -0.588188
-0.332507 1.366201 -0.588210
-0.329514 1.363816 -0.587724
-0.326516 1.361490 -0.587291
-0.323854 1.358155 -0.585856
-0.320875 1.355867 -0.585452
-0.316699 1.357194 -0.588651
-0.313734 1.354861 -0.588210
-0.310848 1.352333 -0.587569
-0.308084 1.349506 -0.586621
-0.305137 1.347232 -0.586228
-0.302400 1.344419 -0.585283
-0.299205 1.342868 -0.585619
-0.296058 1.341190 -0.585828
-0.293562 1.337856 -0.584339
-0.292352 1.331357 -0.579578
-0.289613 1.328801 -0.578860
-0.286604 1.326929 -0.578848
-0.282867 1.326795 -0.580646
-0.279264 1.326295 -0.582075
-0.277046 1.322580 -0.580142
-0.273388 1.322177 -0.581683
-0.269935 1.321279 -0.582713
-0.266555 1.320192 -0.583552
-0.263848 1.317643 -0.582840
-0.260942 1.315539 -0.582598
-0.257987 1.313549 -0.582479
-0.255218 1.311186 -0.581957
-0.252178 1.309387 -0.582043
-0.249215 1.307436 -0.581964
-0.246577 1.304858 -0.581202
-0.243602 1.302950 -0.581168
-0.241243 1.299885 -0.579864
-0.238585 1.297413 -0.579205
-0.236717 1.293517 -0.576966
-0.233366 1.292352 -0.577745
-0.230411 1.290465 -0.577725
-0.227527 1.288456 -0.577569
-0.224008 1.287543 -0.578646
-0.221791 1.284399 -0.577214
-0.218971 1.282297 -0.576952
-0.215907 1.280606 -0.577157
-0.213042 1.278585 -0.576988
-0.209659 1.277398 -0.577775
-0.206195 1.276317 -0.578693
-0.205380 1.271100 -0.574835
-0.201352 1.270897 -0.576770
-0.198010 1.269610 -0.577459
-0.195866 1.266524 -0.576047
-0.193062 1.264439 -0.575802
-0.188316 1.265168 -0.578882
-0.185293 1.263366 -0.578987
-0.182093 1.261811 -0.579388
-0.178894 1.260242 -0.579778
-0.176739 1.257233 -0.578443
-0.174262 1.254689 -0.577658
-0.171547 1.252477 -0.577271
-0.168852 1.250244 -0.576859
-0.166446 1.247644 -0.575995
-0.161565 1.248233 -0.579043
-0.159420 1.245293 -0.577767
-0.156032 1.243931 -0.578436
-0.153438 1.241572 -0.577874
-0.149111 1.241330 -0.579957
-0.145708 1.239934 -0.580611
-0.143671 1.236902 -0.579211
-0.140503 1.235219 -0.579510
-0.137175 1.233711 -0.580038
-0.135513 1.230290 -0.578128
-0.130875 1.230253 -0.580551
-0.130860 1.225028 -0.576302
-0.126517 1.224628 -0.578278
-0.122414 1.223927 -0.579883
-0.119582 1.221831 -0.579680
-0.117141 1.219320 -0.578935
-0.114898 1.216614 -0.577928
-0.111914 1.214684 -0.577947
-0.108842 1.212838 -0.578084
-0.106143 1.210609 -0.577713
-0.104087 1.207745 -0.576487
-0.101491 1.205425 -0.575992
-0.098563 1.203429 -0.575940
-0.096161 1.200926 -0.575198
-0.093146 1.199007 -0.575261
-0.089265 1.197887 -0.576435
-0.086320 1.195876 -0.576391
-0.082976 1.194222 -0.576851
-0.080217 1.192027 -0.576563
-0.078452 1.188948 -0.575031
-0.076332 1.186199 -0.573959
-0.073063 1.184452 -0.574317
-0.069301 1.183109 -0.575268
-0.066690 1.180772 -0.574802
-0.064220 1.178315 -0.574167
-0.062165 1.175518 -0.573038
-0.062170 1.171060 -0.569463
-0.060675 1.167851 -0.567707
-0.058161 1.165468 -0.567169
-0.055823 1.162946 -0.566427
-0.053475 1.160432 -0.565702
-0.056455 1.153858 -0.558837
-0.050334 1.154232 -0.562480
-0.049231 1.150806 -0.560359
-0.048041 1.147466 -0.558359
-0.046827 1.144163 -0.556405
-0.046602 1.140172 -0.553366
-0.049005 1.134361 -0.547447
-0.049281 1.130115 -0.543940
-0.049329 1.126067 -0.540720
-0.047698 1.123196 -0.539357
-0.046258 1.120204 -0.537799
-0.044820 1.117220 -0.536249
-0.048319 1.111025 -0.529447
-0.046392 1.108416 -0.528471
-0.039069 1.109235 -0.533181
-0.038168 1.105935 -0.531103
-0.036231 1.103294 -0.530120
-0.032927 1.101484 -0.530553
-0.028620 1.100255 -0.532001
-0.025817 1.098091 -0.531886
-0.020934 1.097130 -0.533873
-0.019333 1.094223 -0.532516
-0.019167 1.090502 -0.529729
-0.019432 1.086565 -0.526536
-0.018571 1.083284 -0.524487
-0.025158 1.075951 -0.515126
-0.031339 1.068966 -0.506265
-0.037180 1.062284 -0.497833
-0.043418 1.055510 -0.489108
-0.042107 1.052748 -0.487726
-0.047675 1.046499 -0.479788
-0.055089 1.039436 -0.470184
-0.054069 1.036667 -0.468639
-0.052563 1.034146 -0.467560
-0.051107 1.031606 -0.466438
-0.047718 1.029984 -0.467112
-0.044792 1.028128 -0.467346
-0.042005 1.026196 -0.467442
-0.037059 1.025228 -0.469495
-0.033464 1.023625 -0.470297
-0.030854 1.021577 -0.470199
-0.029442 1.019016 -0.469027
-0.026741 1.017017 -0.469011
-0.023395 1.015290 -0.469562
-0.020200 1.013499 -0.469974
-0.017749 1.011410 -0.469731
-0.015549 1.009235 -0.469273
-0.014552 1.006610 -0.467783
-0.013886 1.003896 -0.466030
-0.011216 1.001983 -0.466013
-0.007837 1.000354 -0.466603
-0.003793 0.998986 -0.467757
0.000872 0.997852 -0.469429
0.005285 0.996635 -0.470882
0.007411 0.994632 -0.470429
0.008662 0.992366 -0.469269
0.008096 0.989536 -0.466640
0.013013 0.988606 -0.468540
-0.570556 1.534234 -0.621285
-0.567378 1.534657 -0.623357
-0.564283 1.536787 -0.626812
-0.560986 1.537677 -0.629296
-0.557798 1.540809 -0.633605
-0.554515 1.543995 -0.637987
-0.551030 1.545803 -0.641279
-0.547468 1.547683 -0.644651
-0.543826 1.549604 -0.648077
-0.540126 1.551901 -0.651832
-0.536336 1.554026 -0.655469
-0.532617 1.559248 -0.661678
-0.528690 1.562110 -0.665974
-0.524600 1.562710 -0.668418
-0.520517 1.565203 -0.672449
-0.516400 1.569085 -0.677661
-0.512175 1.571662 -0.681809
-0.507851 1.571933 -0.684042
-0.503547 1.578812 -0.691854
-0.499116 1.578970 -0.694028
-0.494700 1.564488 -0.683795
-0.490359 1.557990 -0.680284
-0.486099 1.549687 -0.675204
-0.481827 1.545798 -0.673864
-0.477466 1.546254 -0.676244
-0.472931 1.551343 -0.682626
-0.468337 1.556007 -0.688674
-0.463512 1.564262 -0.697870
-0.458831 1.567508 -0.702762
-0.453908 1.574082 -0.710584
-0.449400 1.572640 -0.711432
-0.444814 1.572453 -0.713383
-0.440391 1.569996 -0.713341
-0.434214 1.589323 -0.732549
-0.429460 1.589598 -0.734981
-0.424457 1.592401 -0.739672
-0.419150 1.597802 -0.746708
-0.413659 1.604239 -0.754711
-0.408537 1.606598 -0.759100
-0.403199 1.610453 -0.764859
-0.398837 1.606012 -0.763151
-0.394260 1.603568 -0.763240
-0.390925 1.592212 -0.755216
-0.390077 1.408806 -0.600729
-0.387714 1.401395 -0.595618
-0.384353 1.399561 -0.595698
-0.381761 1.393952 -0.592226
-0.378533 1.391705 -0.591903
-0.376235 1.385178 -0.587524
-0.374028 1.378558 -0.583026
-0.371084 1.375524 -0.581914
-0.367677 1.374593 -0.582804
-0.364803 1.371425 -0.581554
-0.359878 1.376722 -0.588441
-0.356060 1.377291 -0.590809
-0.353063 1.374600 -0.590033
-0.350267 1.371229 -0.588589
-0.347244 1.368793 -0.588048
-0.344179 1.366570 -0.587711
-0.340971 1.364893 -0.587907
-0.337793 1.363130 -0.588020
-0.334905 1.360416 -0.587192
-0.331841 1.358341 -0.586994
-0.328297 1.357829 -0.588350
-0.325937 1.353578 -0.585979
-0.322590 1.352468 -0.586741
-0.319557 1.350406 -0.586550
-0.316107 1.349591 -0.587618
-0.312935 1.347949 -0.587856
-0.310317 1.344751 -0.586513
-0.307870 1.341148 -0.584746
-0.304765 1.339408 -0.584876
-0.301134 1.339073 -0.586452
-0.297947 1.337533 -0.586797
-0.295603 1.333835 -0.584909
-0.293746 1.328990 -0.581816
-0.291312 1.325685 -0.580307
-0.288099 1.324329 -0.580828
-0.284492 1.323899 -0.582328
-0.281909 1.321034 -0.581270
-0.279165 1.318581 -0.580642
-0.276387 1.316231 -0.580118
-0.273669 1.313769 -0.579472
-0.270915 1.311412 -0.578934
-0.267508 1.310479 -0.579924
-0.264354 1.308983 -0.580314
-0.260611 1.308703 -0.582025
-0.258108 1.305845 -0.580947
-0.254071 1.306104 -0.583263
-0.252040 1.302332 -0.581182
-0.248591 1.301381 -0.582189
-0.245550 1.299624 -0.582314
-0.243219 1.296528 -0.580957
-0.240464 1.294257 -0.580509
-0.238086 1.291312 -0.579305
-0.235432 1.288899 -0.578689
-0.232787 1.286487 -0.578071
-0.229908 1.284501 -0.577929
-0.226802 1.282909 -0.578236
-0.223802 1.281132 -0.578335
-0.221294 1.278531 -0.577493
-0.218607 1.276245 -0.577008
-0.215346 1.274903 -0.577609
-0.212158 1.273430 -0.578063
-0.209854 1.270554 -0.576892
-0.206448 1.269416 -0.577742
-0.204443 1.266112 -0.576061
-0.200842 1.265257 -0.577251
-0.198961 1.261814 -0.575392
-0.195705 1.260432 -0.575965
-0.192010 1.259670 -0.577286
-0.190154 1.256253 -0.575439
-0.185531 1.256772 -0.578312
-0.183693 1.253358 -0.576460
-0.180510 1.251824 -0.576877
-0.177312 1.250302 -0.577312
-0.174635 1.248073 -0.576888
-0.171449 1.246522 -0.577296
-0.168852 1.244194 -0.576752
-0.165986 1.242222 -0.576645
-0.162910 1.240514 -0.576869
-0.159815 1.238822 -0.577118
-0.156323 1.237613 -0.577978
-0.153745 1.235271 -0.577419
-0.152345 1.231527 -0.575079
-0.149126 1.229980 -0.575520
-0.144702 1.229827 -0.577754
-0.140252 1.229658 -0.579989
-0.139417 1.225325 -0.576870
-0.135756 1.224226 -0.577923
-0.132177 1.223010 -0.578837
-0.129823 1.220432 -0.577979
-0.125112 1.220414 -0.580487
-0.122969 1.217603 -0.579329
-0.120196 1.215473 -0.579069
-0.116778 1.214013 -0.579707
-0.114518 1.211348 -0.578737
-0.112907 1.208036 -0.576891
-0.109739 1.206313 -0.577185
-0.107820 1.203344 -0.575790
-0.103792 1.202454 -0.577235
-0.101080 1.200262 -0.576909
-0.099076 1.197394 -0.575650
-0.096114 1.195445 -0.575661
-0.092409 1.194178 -0.576634
-0.089543 1.192116 -0.576508
-0.088182 1.188687 -0.574454
-0.084528 1.187336 -0.575340
-0.081772 1.185168 -0.575077
-0.079065 1.182954 -0.574752
-0.076252 1.180827 -0.574559
-0.072629 1.179385 -0.575367
-0.069121 1.177822 -0.576018
-0.065563 1.176280 -0.576715
-0.064769 1.172451 -0.574054
-0.063159 1.169317 -0.572405
-0.061928 1.165897 -0.570321
-0.059778 1.163226 -0.569350
-0.058076 1.160210 -0.567858
-0.057572 1.156286 -0.564980
-0.054987 1.153979 -0.564553
-0.052591 1.151524 -0.563906
-0.049824 1.149341 -0.563687
-0.049437 1.145410 -0.560754
-0.048575 1.141855 -0.558390
-0.048125 1.138032 -0.555587
-0.048442 1.133702 -0.551958
-0.048346 1.129702 -0.548825
-0.046960 1.126621 -0.547148
-0.046126 1.123180 -0.544880
-0.045647 1.119522 -0.542246
-0.049906 1.112772 -0.534515
-0.050167 1.108727 -0.531168
-0.046377 1.107318 -0.532183
-0.042200 1.106121 -0.533586
-0.040045 1.103624 -0.532831
-0.038754 1.100589 -0.531172
-0.028350 1.103101 -0.539013
-0.027506 1.099741 -0.536855
-0.025672 1.096983 -0.535731
-0.024479 1.093851 -0.533957
-0.021293 1.091875 -0.534220
-0.021423 1.087996 -0.531121
-0.018520 1.085845 -0.531093
-0.017629 1.082566 -0.529049
-0.021922 1.076484 -0.521881
-0.022546 1.072464 -0.518406
-0.019197 1.070577 -0.518852
-0.042241 1.054934 -0.493596
-0.043385 1.050898 -0.489821
-0.041162 1.048607 -0.489319
-0.044965 1.043310 -0.483054
-0.046726 1.039098 -0.478796
-0.050025 1.034197 -0.473127
-0.050799 1.030573 -0.469889
-0.050264 1.027602 -0.467903
-0.047530 1.025667 -0.467973
-0.043260 1.024422 -0.469453
-0.040305 1.022560 -0.469704
-0.038035 1.020388 -0.469321
-0.035767 1.018219 -0.468937
-0.033516 1.016048 -0.468538
-0.030258 1.014308 -0.469043
-0.026306 1.012851 -0.470159
-0.022504 1.011322 -0.471126
-0.020822 1.008939 -0.470218
-0.017914 1.007064 -0.470394
-0.017568 1.004207 -0.468340
-0.017587 1.001256 -0.465996
-0.016313 0.998843 -0.464797
-0.012322 0.997473 -0.465943
-0.007620 0.996369 -0.467688
-0.003491 0.995065 -0.468939
0.001929 0.994228 -0.471273
0.005352 0.992700 -0.471921
0.005160 0.989962 -0.469560
0.002946 0.986609 -0.465562
-0.004386 0.981645 -0.457396
-0.571419 1.528480 -0.621549
-0.568866 1.534758 -0.628346
-0.565592 1.534858 -0.630195
-0.562284 1.535389 -0.632406
-0.559453 1.542336 -0.639852
-0.556027 1.543654 -0.642754
-0.552481 1.544452 -0.645248
-0.548930 1.546233 -0.648566
-0.545460 1.550459 -0.653917
-0.541738 1.552269 -0.657306
-0.537929 1.553918 -0.660581
-0.534157 1.557752 -0.665690
-0.530198 1.559517 -0.669105
-0.526184 1.561603 -0.672806
-0.522161 1.565503 -0.678050
-0.518049 1.569330 -0.683261
-0.513769 1.569339 -0.685277
-0.509526 1.573804 -0.691077
-0.505191 1.577647 -0.696379
-0.500762 1.577903 -0.698652
-0.496307 1.572497 -0.696090
-0.491916 1.563322 -0.690273
-0.487631 1.552544 -0.683033
-0.483377 1.545899 -0.679310
-0.479004 1.546503 -0.681839
-0.474485 1.551075 -0.687826
-0.469601 1.563649 -0.700821
-0.464882 1.568483 -0.707126
-0.460285 1.569371 -0.710002
-0.455679 1.570007 -0.712670
-0.451103 1.569837 -0.714637
-0.446962 1.563068 -0.710765
-0.441494 1.575382 -0.723824
-0.435950 1.586642 -0.736022
-0.430764 1.591992 -0.743006
-0.425999 1.591932 -0.745176
-0.421042 1.593749 -0.749045
-0.415796 1.598030 -0.755160
-0.409589 1.610466 -0.768698
-0.405055 1.607140 -0.767993
-0.400158 1.607031 -0.770213
-0.396107 1.600292 -0.766377
-0.390768 1.603630 -0.771762
-0.385865 1.603511 -0.773995
-0.376923 1.597487 -0.773133
-0.384939 1.401346 -0.602094
-0.382085 1.396887 -0.599692
-0.380357 1.387157 -0.592257
-0.377107 1.385159 -0.592153
-0.374081 1.382195 -0.591120
-0.371448 1.377593 -0.588507
-0.368691 1.373728 -0.586586
-0.366514 1.367579 -0.582439
-0.364005 1.363064 -0.579852
-0.361106 1.360281 -0.578934
-0.357368 1.360843 -0.581278
-0.353187 1.362996 -0.585197
-0.349542 1.363006 -0.587034
-0.345853 1.363114 -0.588980
-0.343072 1.359966 -0.587712
-0.339745 1.358777 -0.588384
-0.336757 1.356444 -0.587920
-0.333647 1.354560 -0.587901
-0.330752 1.352005 -0.587208
-0.328112 1.348703 -0.585756
-0.324805 1.347534 -0.586453
-0.321688 1.345780 -0.586560
-0.318318 1.344785 -0.587443
-0.315701 1.341598 -0.586091
-0.313181 1.338204 -0.584516
-0.310172 1.336240 -0.584403
-0.306789 1.335311 -0.585360
-0.303880 1.333095 -0.584989
-0.301183 1.330350 -0.584065
-0.297948 1.329031 -0.584624
-0.295545 1.325606 -0.582980
-0.292878 1.322899 -0.582081
-0.290288 1.320046 -0.581020
-0.286379 1.320381 -0.583333
-0.283411 1.318443 -0.583244
-0.281705 1.313610 -0.580064
-0.278885 1.311407 -0.579680
-0.275885 1.309620 -0.579742
-0.272598 1.308465 -0.580488
-0.269962 1.305892 -0.579702
-0.266762 1.304541 -0.580241
-0.263917 1.302437 -0.579963
-0.261233 1.300019 -0.579339
-0.258178 1.298369 -0.579557
-0.254571 1.297806 -0.580978
-0.251661 1.295850 -0.580866
-0.249181 1.293075 -0.579843
-0.245243 1.293080 -0.581920
-0.241995 1.291749 -0.582516
-0.239321 1.289353 -0.581916
-0.237399 1.285622 -0.579802
-0.234835 1.283089 -0.579034
-0.232234 1.280639 -0.578355
-0.229215 1.278928 -0.578519
-0.226624 1.276490 -0.577848
-0.223082 1.275656 -0.579026
-0.221270 1.271946 -0.576880
-0.217967 1.270708 -0.577595
-0.214863 1.269134 -0.577925
-0.212049 1.267095 -0.577713
-0.210152 1.263638 -0.575831
-0.207038 1.262087 -0.576189
-0.203893 1.260576 -0.576599
-0.200833 1.258926 -0.576849
-0.198032 1.256892 -0.576642
-0.195122 1.255018 -0.576628
-0.192032 1.253399 -0.576924
-0.189606 1.250840 -0.576081
-0.186698 1.248967 -0.576071
-0.183248 1.247834 -0.576970
-0.180347 1.245939 -0.576939
-0.177244 1.244311 -0.577242
-0.174538 1.242154 -0.576892
-0.171250 1.240756 -0.577488
-0.168068 1.239208 -0.577904
-0.165396 1.237006 -0.577503
-0.162616 1.234943 -0.577278
-0.159279 1.233568 -0.577926
-0.157527 1.230253 -0.576110
-0.154751 1.228200 -0.575895
-0.151307 1.226937 -0.576699
-0.147156 1.226479 -0.578554
-0.145056 1.223619 -0.577310
-0.142276 1.221553 -0.577094
-0.138092 1.221063 -0.578947
-0.134889 1.219447 -0.579336
-0.131661 1.217846 -0.579754
-0.128554 1.216102 -0.579990
-0.125840 1.213930 -0.579660
-0.122963 1.211931 -0.579565
-0.122129 1.207807 -0.576606
-0.118332 1.206772 -0.577811
-0.115005 1.205234 -0.578349
-0.112798 1.202560 -0.577341
-0.109496 1.200980 -0.577834
-0.106422 1.199162 -0.578010
-0.103839 1.196864 -0.577524
-0.101667 1.194175 -0.576495
-0.099213 1.191763 -0.575852
