ply
format ascii 1.0
comment ---
element vertex 1673
property float x
property float y
property float z
element face 0
property list uchar uint vertex_indices
end_header
-0.570700 1.514384 -1.307713
-0.562755 1.520924 -1.312012
-0.553916 1.524723 -1.313945
-0.541476 1.516664 -1.305614
-0.525000 1.494501 -1.285105
-0.518093 1.504266 -1.292281
-0.398074 1.168498 -0.998878
-0.389011 1.162712 -0.992961
-0.466341 1.529585 -1.306842
-0.457727 1.534185 -1.309648
-0.447038 1.530221 -1.305113
-0.438378 1.534655 -1.307811
-0.431787 1.548353 -1.318468
-0.423507 1.555043 -1.323122
-0.413745 1.555076 -1.322086
-0.403503 1.552680 -1.318992
-0.393442 1.550919 -1.316465
-0.382084 1.542295 -1.308095
-0.370647 1.532578 -1.298822
-0.363633 1.546256 -1.309537
-0.358739 1.572749 -1.331176
-0.347877 1.566084 -1.324559
-0.338194 1.565969 -1.323543
-0.330019 1.575233 -1.330524
-0.319275 1.568285 -1.323730
-0.306425 1.546252 -1.304145
-0.297477 1.550006 -1.306496
-0.289474 1.561011 -1.315012
-0.279957 1.561138 -1.314309
-0.271172 1.567155 -1.318616
-0.262806 1.577276 -1.326409
-0.253660 1.581309 -1.329054
-0.244684 1.587317 -1.333384
-0.234783 1.584515 -1.330275
-0.225587 1.588873 -1.333237
-0.214988 1.577430 -1.322863
-0.206004 1.584293 -1.327972
-0.185930 1.570369 -1.314898
-0.174894 1.545162 -1.293013
-0.167534 1.579748 -1.321547
-0.158000 1.579209 -1.320486
-0.148663 1.582830 -1.322943
-0.139125 1.582170 -1.321812
-0.129722 1.585272 -1.323861
-0.120223 1.585962 -1.323896
-0.101060 1.577006 -1.315328
-0.091592 1.575779 -1.313802
-0.082162 1.582413 -1.318892
-0.072670 1.584348 -1.320052
-0.063173 1.584475 -1.319709
-0.053610 1.588867 -1.322959
-0.044002 1.592930 -1.325948
-0.034385 1.595507 -1.327705
-0.025221 1.583299 -1.317087
-0.015994 1.576388 -1.310930
-0.006623 1.574467 -1.308972
0.003623 1.590246 -1.321851
0.013485 1.595839 -1.326213
0.022783 1.591255 -1.322073
0.032722 1.596765 -1.326398
0.051631 1.593017 -1.322741
0.062120 1.603395 -1.331186
0.072529 1.611464 -1.337715
0.081122 1.599986 -1.327917
0.091327 1.605186 -1.332081
0.007585 0.717201 -0.589664
0.011297 0.711571 -0.584901
0.014552 0.702854 -0.577568
0.018422 0.699452 -0.574685
0.022141 0.695226 -0.571121
0.027543 0.702807 -0.577431
0.033727 0.714878 -0.587498
0.037752 0.712340 -0.585370
0.041486 0.708173 -0.581889
0.046237 0.710223 -0.583610
0.051039 0.712372 -0.585422
0.055002 0.709734 -0.583243
0.059345 0.709232 -0.582858
0.064354 0.712133 -0.585323
0.069116 0.713580 -0.586582
0.073977 0.715368 -0.588134
0.078500 0.715420 -0.588244
0.083737 0.718673 -0.591037
0.087033 0.713104 -0.586463
0.092428 0.716834 -0.589671
0.096628 0.715305 -0.588489
0.100707 0.713310 -0.586924
0.104998 0.712220 -0.586122
0.109724 0.712830 -0.586749
0.112830 0.707214 -0.582171
0.117459 0.707470 -0.582512
0.122553 0.709358 -0.584225
0.128301 0.713440 -0.587780
0.133724 0.716180 -0.590217
0.137191 0.712135 -0.586973
0.141008 0.709388 -0.584819
0.144620 0.706059 -0.582179
0.149089 0.705564 -0.581913
0.151821 0.699644 -0.577099
0.156249 0.699122 -0.576809
0.161078 0.699802 -0.577527
0.165855 0.700288 -0.578080
0.171224 0.702453 -0.580038
0.175767 0.702186 -0.579951
0.179605 0.699960 -0.578212
0.183334 0.697515 -0.576280
0.188349 0.698613 -0.577317
0.192697 0.697918 -0.576837
0.195949 0.694410 -0.573981
0.200176 0.693526 -0.573318
0.204599 0.693185 -0.573095
0.207756 0.689748 -0.570254
0.212312 0.689855 -0.570376
0.218638 0.694240 -0.574076
0.224802 0.698152 -0.577357
0.229607 0.698831 -0.577899
0.231872 0.693714 -0.573544
0.239831 0.701675 -0.580159
0.243346 0.699566 -0.578283
0.247749 0.699531 -0.578123
0.252833 0.701043 -0.579235
0.257309 0.701287 -0.579252
0.261392 0.700769 -0.578599
0.266006 0.701455 -0.578925
0.272155 0.705375 -0.581932
0.277038 0.706709 -0.582735
0.280475 0.705187 -0.581112
0.284138 0.704240 -0.579940
0.288284 0.704362 -0.579629
0.293785 0.707217 -0.581570
0.294869 0.701594 -0.576392
0.295957 0.696196 -0.571377
0.302477 0.701258 -0.575061
0.307782 0.704047 -0.576812
0.314185 0.708914 -0.580256
0.320568 0.713752 -0.583636
0.325826 0.716558 -0.585289
-1.052802 1.267492 -1.173240
-1.049767 1.274034 -1.179609
-1.046897 1.281046 -1.186342
-1.040878 1.284068 -1.189278
-1.032422 1.283962 -1.189219
-1.025268 1.285781 -1.190875
-1.018827 1.288758 -1.193531
-1.011532 1.290728 -1.195168
-1.004897 1.293800 -1.197749
-0.999151 1.298329 -1.201605
-0.993453 1.303142 -1.205644
-0.994287 1.317677 -1.218651
-0.987456 1.321360 -1.221467
-0.977565 1.320690 -1.220152
-0.967320 1.319579 -1.218353
-0.958998 1.321466 -1.219264
-0.949358 1.321465 -1.218349
-0.721980 0.995108 -0.913892
-0.712307 0.991506 -0.909715
-0.704525 0.990906 -0.908276
-0.686362 0.973457 -0.891226
-0.671159 0.972558 -0.888460
-0.671498 0.985525 -0.899384
-0.772597 1.234614 -1.121842
-0.768796 1.244652 -1.129549
-0.758768 1.243425 -1.126927
-0.746106 1.237193 -1.119728
-0.743520 1.249909 -1.129790
-0.742913 1.266760 -1.143571
-0.734705 1.269178 -1.144197
-0.726013 1.270650 -1.143954
-0.716892 1.271241 -1.142908
-0.711943 1.280313 -1.149534
-0.706259 1.288061 -1.154944
-0.695801 1.285916 -1.151417
-0.683743 1.280205 -1.144689
-0.675826 1.283226 -1.145840
-0.681248 1.315693 -1.173452
-0.667642 1.306451 -1.163572
-0.664728 1.321172 -1.175202
-0.656851 1.324793 -1.176878
-0.644898 1.318841 -1.170004
-0.637188 1.322744 -1.171959
-0.629858 1.327602 -1.174773
-0.621660 1.330377 -1.175741
-0.616552 1.340926 -1.183634
-0.608905 1.345233 -1.185979
-0.600972 1.348843 -1.187718
-0.591884 1.349409 -1.186772
-0.588261 1.364664 -1.198844
-0.580107 1.367900 -1.200282
-0.573894 1.376592 -1.206554
-0.571037 1.395107 -1.221492
-0.572838 1.427814 -1.248919
-0.581951 1.483442 -1.296476
-0.576916 1.498273 -1.308086
-0.565382 1.493473 -1.302454
-0.557276 1.499184 -1.306073
-0.550010 1.507727 -1.312187
-0.539913 1.507183 -1.310356
-0.526145 1.494140 -1.297617
-0.518507 1.501493 -1.302742
-0.508797 1.501769 -1.301702
-0.400435 1.174050 -1.013696
-0.391879 1.170444 -1.009605
-0.459201 1.497313 -1.291754
-0.455656 1.521854 -1.311911
-0.445301 1.519138 -1.308411
-0.435704 1.519411 -1.307526
-0.429605 1.534995 -1.319920
-0.420787 1.539024 -1.322315
-0.408748 1.528147 -1.311838
-0.400161 1.533090 -1.315062
-0.390942 1.535091 -1.315759
-0.379379 1.525127 -1.306155
-0.367943 1.515068 -1.296499
-0.363546 1.542596 -1.319247
-0.356298 1.555837 -1.329685
-0.347234 1.559303 -1.331718
-0.337327 1.557802 -1.329497
-0.327773 1.558284 -1.329000
-0.315628 1.541730 -1.313898
-0.304313 1.529348 -1.302412
-0.295796 1.535678 -1.306995
-0.286514 1.536775 -1.307107
-0.277933 1.543320 -1.311899
-0.269353 1.550400 -1.317160
-0.261867 1.567511 -1.331008
-0.252781 1.571859 -1.333949
-0.243365 1.573431 -1.334532
-0.232975 1.565159 -1.326726
-0.223247 1.562866 -1.324047
-0.213921 1.564795 -1.324986
-0.204951 1.571314 -1.329852
-0.195344 1.570182 -1.328212
-0.183578 1.537074 -1.299361
-0.175873 1.562712 -1.320552
-0.166366 1.561640 -1.319017
-0.157069 1.564346 -1.320711
-0.147458 1.560550 -1.316893
-0.137779 1.553632 -1.310443
-0.128596 1.559342 -1.314736
-0.119440 1.568493 -1.321963
-0.109904 1.564173 -1.317770
-0.100387 1.557369 -1.311487
-0.091028 1.559311 -1.312643
-0.081664 1.567032 -1.318710
-0.072220 1.571211 -1.321789
-0.062711 1.577212 -1.326425
-0.053162 1.581188 -1.329359
-0.043632 1.582017 -1.329644
-0.034159 1.580356 -1.327838
-0.024433 1.586879 -1.332974
-0.015310 1.575939 -1.323353
-0.006365 1.563885 -1.312812
0.003824 1.578943 -1.325213
0.013227 1.576985 -1.323243
0.022733 1.576957 -1.322922
0.032712 1.583707 -1.328344
0.042446 1.586027 -1.330040
0.050317 1.564903 -1.311955
0.060624 1.574625 -1.319938
0.070203 1.575163 -1.320182
0.079335 1.571028 -1.316500
0.088712 1.569607 -1.315127
0.100002 1.585489 -1.328375
0.011584 0.709409 -0.588954
0.015321 0.704449 -0.584724
0.017989 0.691969 -0.574157
0.022192 0.691397 -0.573646
0.026883 0.694149 -0.575947
0.031330 0.695035 -0.576682
0.035507 0.694118 -0.575904
0.041415 0.703689 -0.583982
0.045360 0.701080 -0.581793
0.049704 0.700851 -0.581620
0.054357 0.702277 -0.582852
0.058589 0.701343 -0.582101
0.062989 0.701275 -0.582089
0.067663 0.702520 -0.583193
0.072984 0.706749 -0.586822
0.077051 0.704843 -0.585283
0.081729 0.705766 -0.586138
0.087445 0.711166 -0.590782
0.090904 0.706553 -0.586979
0.095334 0.706188 -0.586769
0.099870 0.706231 -0.586910
0.103545 0.702812 -0.584134
0.108296 0.703683 -0.584987
0.112426 0.702124 -0.583792
0.116402 0.700028 -0.582148
0.120843 0.699670 -0.581977
0.126147 0.702331 -0.584363
0.131321 0.704396 -0.586250
0.135507 0.703004 -0.585216
0.139117 0.699735 -0.582594
0.144170 0.701244 -0.584017
0.147150 0.696096 -0.579805
0.150964 0.693721 -0.577939
0.154858 0.691663 -0.576338
0.159488 0.691864 -0.576649
0.164432 0.692965 -0.577719
0.169616 0.694707 -0.579329
0.174801 0.696383 -0.580876
0.178785 0.694664 -0.579540
0.182744 0.692940 -0.578189
0.187053 0.692220 -0.577680
0.190701 0.689797 -0.575714
0.194893 0.688877 -0.575011
0.199390 0.688781 -0.574993
0.203662 0.688153 -0.574508
0.207070 0.685442 -0.572238
0.211279 0.684793 -0.571700
0.215697 0.684703 -0.571616
0.221576 0.688099 -0.574469
0.227036 0.690469 -0.576430
0.233841 0.695904 -0.580965
0.236721 0.692392 -0.577885
0.241271 0.692753 -0.578063
0.244865 0.691076 -0.576485
0.250177 0.693232 -0.578129
0.255144 0.694668 -0.579132
0.257943 0.691574 -0.576267
0.262340 0.691967 -0.576324
0.268756 0.696590 -0.579930
0.273517 0.697823 -0.580632
0.277888 0.698334 -0.580690
0.282026 0.698461 -0.580390
0.286987 0.700297 -0.581500
0.290096 0.698588 -0.579584
0.295328 0.701095 -0.581191
0.298203 0.699161 -0.579023
0.298473 0.692455 -0.572813
0.303604 0.695050 -0.574397
0.311035 0.701940 -0.579551
0.318884 0.709565 -0.585280
0.325002 0.714009 -0.588299
-1.048868 1.271298 -1.187267
-1.046481 1.278857 -1.194628
-1.041249 1.282846 -1.198558
-1.032442 1.282182 -1.198032
-1.023769 1.281826 -1.197718
-1.017091 1.284361 -1.200044
-1.008956 1.285041 -1.200543
-1.002972 1.288899 -1.203951
-0.997142 1.293179 -1.207673
-0.995534 1.303739 -1.217215
-0.993254 1.313658 -1.226067
-0.989990 1.322455 -1.233777
-0.979100 1.320243 -1.231068
-0.966026 1.314823 -1.225274
-0.958645 1.318011 -1.227481
-0.955576 1.327970 -1.235953
-0.719332 0.988539 -0.916528
-0.709261 0.984199 -0.911671
-0.706469 0.991474 -0.917620
-0.692508 0.980856 -0.906820
-0.797023 1.209216 -1.115005
-0.795261 1.221904 -1.125467
-0.787248 1.224009 -1.126058
-0.784734 1.235910 -1.135682
-0.778146 1.240813 -1.138780
-0.770310 1.243569 -1.139861
-0.761278 1.244177 -1.138933
-0.754236 1.248496 -1.141404
-0.749420 1.257123 -1.147812
-0.744455 1.265672 -1.154114
-0.737489 1.270520 -1.156994
-0.725974 1.266458 -1.151692
-0.724716 1.282811 -1.165074
-0.714327 1.280986 -1.161806
-0.704383 1.279963 -1.159276
-0.698818 1.288027 -1.165032
-0.691440 1.292403 -1.167417
-0.685288 1.299491 -1.172265
-0.671617 1.290183 -1.162224
-0.668870 1.304899 -1.173989
-0.663506 1.314061 -1.180705
-0.656680 1.320057 -1.184549
-0.646052 1.317237 -1.180437
-0.636745 1.317375 -1.179015
-0.631321 1.326840 -1.186005
-0.624565 1.333242 -1.190238
-0.615391 1.333693 -1.189130
-0.609263 1.341839 -1.194942
-0.597799 1.336296 -1.188492
-0.592507 1.346784 -1.196419
-0.583306 1.347010 -1.195173
-0.577054 1.355237 -1.201089
-0.569691 1.360557 -1.204417
-0.562716 1.367081 -1.208828
-0.575817 1.460758 -1.289332
-0.569610 1.471674 -1.297590
-0.565192 1.488437 -1.311036
-0.556414 1.492044 -1.312820
-0.548351 1.497985 -1.316685
-0.537970 1.496441 -1.313947
-0.529731 1.501904 -1.317422
-0.521311 1.506866 -1.320470
-0.512008 1.508836 -1.320895
-0.401408 1.174410 -1.024139
-0.398771 1.193232 -1.039710
-0.456128 1.481228 -1.290449
-0.452351 1.504514 -1.309702
-0.444686 1.512716 -1.315732
-0.436322 1.518252 -1.319438
-0.427548 1.522177 -1.321748
-0.419405 1.529062 -1.326658
-0.407108 1.516902 -1.314957
-0.396679 1.512853 -1.310367
-0.388637 1.520225 -1.315756
-0.379984 1.524839 -1.318753
-0.370100 1.523160 -1.316288
-0.362971 1.536237 -1.326677
-0.355180 1.546380 -1.334517
-0.346124 1.549762 -1.336496
-0.335447 1.543476 -1.330099
-0.324869 1.537207 -1.323743
-0.316024 1.541644 -1.326690
-0.306446 1.541339 -1.325545
-0.295046 1.527954 -1.313098
-0.286786 1.536552 -1.319697
-0.276833 1.532686 -1.315531
-0.267727 1.535233 -1.316926
-0.260238 1.551801 -1.330441
-0.251459 1.558392 -1.335349
-0.241450 1.553845 -1.330662
-0.230821 1.542300 -1.319967
-0.221427 1.542501 -1.319417
-0.212440 1.547336 -1.322873
-0.203714 1.556032 -1.329665
-0.194101 1.554042 -1.327275
-0.185418 1.565223 -1.336226
-0.175451 1.557777 -1.329180
-0.165799 1.554209 -1.325486
-0.156046 1.547616 -1.319217
-0.146206 1.537148 -1.309643
-0.136905 1.537341 -1.309237
-0.127558 1.536025 -1.307555
-0.118585 1.548209 -1.317459
-0.109185 1.546274 -1.315276
-0.099813 1.544468 -1.313221
-0.090531 1.550618 -1.317994
-0.081192 1.563216 -1.328299
-0.071743 1.565320 -1.329635
-0.062282 1.566172 -1.329917
-0.052781 1.568940 -1.331853
-0.043393 1.564970 -1.328046
-0.033860 1.567894 -1.330147
-0.023965 1.580500 -1.340536
-0.014156 1.587096 -1.345802
0.003899 1.565132 -1.326375
0.022414 1.558434 -1.320059
0.032485 1.567530 -1.327543
0.042005 1.567806 -1.327521
0.048834 1.534936 -1.299256
0.058159 1.535010 -1.299102
0.068792 1.548965 -1.310796
0.077327 1.540062 -1.303026
0.088715 1.559108 -1.319090
0.097917 1.556423 -1.316654
0.107096 1.553715 -1.314217
0.014095 0.690587 -0.578794
0.018047 0.688128 -0.576665
0.021984 0.685728 -0.574596
0.026090 0.684622 -0.573636
0.029789 0.680919 -0.570474
0.034019 0.680766 -0.570343
0.039984 0.691011 -0.579076
0.044542 0.692321 -0.580208
0.048945 0.692629 -0.580494
0.053299 0.692607 -0.580507
0.058019 0.694452 -0.582119
0.062295 0.693886 -0.581685
0.066638 0.693632 -0.581525
0.071192 0.694362 -0.582211
0.076302 0.697577 -0.585022
0.080684 0.697290 -0.584857
0.085640 0.699485 -0.586814
0.090069 0.699273 -0.586727
0.094295 0.698183 -0.585898
0.098407 0.696648 -0.584695
0.102771 0.696140 -0.584374
0.107266 0.696121 -0.584475
0.111791 0.696180 -0.584648
0.115757 0.694139 -0.583034
0.119574 0.691626 -0.581020
0.123445 0.689381 -0.579237
0.127722 0.688591 -0.578698
0.133364 0.692393 -0.582085
0.138681 0.694939 -0.584402
0.142750 0.693334 -0.583171
0.147046 0.692489 -0.582590
0.150054 0.687675 -0.578614
0.153915 0.685619 -0.576992
0.158160 0.684770 -0.576399
0.162831 0.685187 -0.576884
0.168073 0.687216 -0.578743
0.173280 0.689069 -0.580445
0.176784 0.686158 -0.578061
0.180417 0.683704 -0.576058
0.183912 0.680976 -0.573809
0.187922 0.679704 -0.572794
0.194898 0.686138 -0.578367
0.198860 0.684743 -0.577218
0.202599 0.682866 -0.575640
0.206791 0.682191 -0.575074
0.211760 0.683455 -0.576149
0.215680 0.682225 -0.575066
0.220153 0.682376 -0.575145
0.224745 0.682848 -0.575474
0.229753 0.684310 -0.576627
0.232341 0.680353 -0.573113
0.237873 0.683093 -0.575307
0.242663 0.684206 -0.576079
0.247336 0.685110 -0.576642
0.251005 0.683927 -0.575390
0.254625 0.682748 -0.574112
0.259362 0.684002 -0.574882
0.264930 0.687015 -0.577121
0.269506 0.688032 -0.577622
0.274730 0.690413 -0.579253
0.279116 0.691172 -0.579466
0.282198 0.689448 -0.577531
0.288353 0.693818 -0.580752
0.294157 0.697516 -0.583361
0.296881 0.695384 -0.580983
0.299469 0.693135 -0.578477
0.303003 0.692789 -0.577557
0.309221 0.697497 -0.580886
0.316089 0.703402 -0.585187
-1.037051 1.264709 -1.191519
-1.035764 1.273817 -1.200393
-1.032820 1.280968 -1.207336
-1.024397 1.280872 -1.207327
-1.019310 1.285522 -1.211740
-1.011293 1.286303 -1.212403
-1.004724 1.289269 -1.215059
-1.000561 1.295839 -1.221051
-0.997116 1.303698 -1.228179
-0.992432 1.310038 -1.233784
-0.986424 1.314687 -1.237703
-0.977785 1.315659 -1.238054
-0.966509 1.312817 -1.234717
-0.962237 1.320607 -1.241364
-0.958954 1.330179 -1.249610
-0.717123 0.982739 -0.919781
-0.708097 0.979950 -0.916394
-0.708341 0.991971 -0.926919
-0.833872 1.221710 -1.141273
-0.821902 1.217022 -1.135705
-0.808817 1.210386 -1.128271
-0.804931 1.219241 -1.135332
-0.806405 1.237566 -1.151206
-0.796689 1.236883 -1.149218
-0.791231 1.243709 -1.154214
-0.785024 1.249378 -1.158085
-0.773565 1.245671 -1.153174
-0.761086 1.239975 -1.146394
-0.756838 1.249439 -1.153707
-0.752572 1.259109 -1.161170
-0.746550 1.265654 -1.165697
-0.744713 1.280483 -1.177869
-0.740663 1.291332 -1.186315
-0.727202 1.283617 -1.177578
-0.711466 1.270993 -1.164328
-0.704864 1.276756 -1.168050
-0.700376 1.287052 -1.175930
-0.696815 1.299566 -1.185826
-0.688245 1.301583 -1.186064
-0.676053 1.295645 -1.179014
-0.668402 1.299546 -1.180993
-0.663615 1.309970 -1.188936
-0.656212 1.314631 -1.191605
-0.646763 1.314566 -1.189969
-0.638115 1.316311 -1.189994
-0.630984 1.321685 -1.193332
-0.625534 1.331278 -1.200506
-0.618190 1.336367 -1.203589
-0.609544 1.338218 -1.203748
-0.600947 1.340156 -1.203999
-0.587964 1.330487 -1.193776
-0.587926 1.355142 -1.214576
-0.577657 1.352606 -1.210829
-0.569140 1.354751 -1.211324
-0.561345 1.358920 -1.213657
-0.550271 1.353640 -1.207511
-0.576030 1.456909 -1.298819
-0.576001 1.486467 -1.323862
-0.569841 1.498253 -1.332957
-0.558197 1.493186 -1.326977
-0.547274 1.490095 -1.322797
-0.538455 1.493644 -1.324572
-0.528839 1.494559 -1.324017
-0.521069 1.501716 -1.329043
-0.410941 1.206106 -1.062525
-0.406918 1.220558 -1.074333
-0.451824 1.460305 -1.284710
-0.448438 1.484730 -1.305163
-0.443283 1.502979 -1.320140
-0.434494 1.506595 -1.322182
-0.426894 1.515513 -1.328919
-0.415472 1.507579 -1.320801
-0.405361 1.505152 -1.317569
-0.394588 1.499296 -1.311341
-0.386709 1.507226 -1.317274
-0.379123 1.517035 -1.324867
-0.369607 1.517233 -1.324023
-0.360406 1.519037 -1.324609
-0.352387 1.527495 -1.331050
-0.343363 1.530599 -1.332807
-0.332087 1.520215 -1.322762
-0.323037 1.522874 -1.324167
-0.314769 1.530725 -1.330132
-0.306352 1.538110 -1.335697
-0.296593 1.536500 -1.333415
-0.285659 1.525921 -1.323321
-0.275925 1.523528 -1.320401
-0.266440 1.522813 -1.318964
-0.258523 1.535354 -1.329100
-0.249619 1.540230 -1.332565
-0.240142 1.540062 -1.331650
-0.230346 1.536502 -1.327803
-0.220987 1.537091 -1.327584
-0.211492 1.536069 -1.325981
-0.202365 1.539338 -1.328126
-0.192946 1.539086 -1.327228
-0.184361 1.550911 -1.336827
-0.174867 1.550239 -1.335594
-0.165349 1.548873 -1.333777
-0.155677 1.543959 -1.328903
-0.146081 1.539276 -1.324250
-0.127308 1.537199 -1.321314
-0.117764 1.529121 -1.313783
-0.108523 1.531133 -1.314999
-0.099297 1.535706 -1.318446
-0.090020 1.540554 -1.322145
-0.080683 1.543082 -1.323852
-0.071300 1.549891 -1.329274
-0.061845 1.555834 -1.333960
-0.052411 1.555982 -1.333659
-0.042841 1.562234 -1.338642
-0.033289 1.565107 -1.340724
-0.023730 1.567110 -1.342073
-0.013817 1.577313 -1.350507
-0.004202 1.578300 -1.351012
0.004654 1.564413 -1.338717
0.013437 1.552062 -1.327770
0.022960 1.553509 -1.328728
0.032600 1.556278 -1.330843
0.048422 1.518266 -1.297635
0.068855 1.538588 -1.314720
0.078374 1.539827 -1.315608
0.086983 1.532268 -1.308945
0.096980 1.537783 -1.313549
0.107617 1.548041 -1.322250
0.020985 0.674516 -0.570740
0.025456 0.676215 -0.572187
0.029386 0.674245 -0.570487
0.033259 0.672022 -0.568579
0.038429 0.677677 -0.573452
0.043689 0.683404 -0.578397
0.048119 0.684068 -0.578994
0.052719 0.685557 -0.580310
0.057002 0.685259 -0.580097
0.061172 0.684356 -0.579371
0.065861 0.686007 -0.580850
0.070502 0.687286 -0.582016
0.075141 0.688440 -0.583083
0.080008 0.690509 -0.584945
0.084316 0.689980 -0.584578
0.088338 0.688223 -0.583160
0.093449 0.691020 -0.585668
0.097839 0.690727 -0.585524
0.102056 0.689733 -0.584780
0.106580 0.689922 -0.585060
0.110690 0.688518 -0.583972
0.115243 0.688762 -0.584309
0.118787 0.685357 -0.581503
0.121912 0.680610 -0.577542
0.126142 0.679814 -0.576989
0.130299 0.678784 -0.576235
0.136542 0.684595 -0.581383
0.141568 0.686246 -0.582944
0.145127 0.683207 -0.580456
0.148408 0.679412 -0.577311
0.152963 0.679599 -0.577601
0.157606 0.680028 -0.578095
0.161797 0.679123 -0.577432
0.166183 0.678804 -0.577268
0.172086 0.682741 -0.580775
0.175908 0.680827 -0.579215
0.179281 0.677772 -0.576659
0.183038 0.675856 -0.575074
0.187710 0.676411 -0.575613
0.192839 0.678143 -0.577154
0.198353 0.680818 -0.579495
0.200167 0.674242 -0.573819
0.205561 0.676669 -0.575909
0.211894 0.681325 -0.579905
0.215699 0.679886 -0.578609
0.218451 0.676076 -0.575240
0.221866 0.673959 -0.573311
0.225477 0.672402 -0.571843
0.230565 0.674262 -0.573300
0.235169 0.675068 -0.573817
0.240628 0.677787 -0.575958
0.244510 0.677113 -0.575139
0.247512 0.674662 -0.572758
0.252452 0.676419 -0.573976
0.257709 0.678870 -0.575760
0.262892 0.681198 -0.577403
0.266962 0.681304 -0.577099
0.271215 0.681863 -0.577153
0.275208 0.681985 -0.576799
0.277793 0.679442 -0.574123
0.282249 0.680669 -0.574654
0.287365 0.683226 -0.576292
0.293527 0.687811 -0.579631
0.298777 0.690687 -0.581469
0.303387 0.692412 -0.582288
0.309624 0.697197 -0.585685
-1.030868 1.265675 -1.202913
-1.029154 1.274345 -1.211426
-1.024867 1.279780 -1.216769
-1.017686 1.281452 -1.218432
-1.012497 1.286059 -1.222826
-1.008459 1.292502 -1.228896
-1.004318 1.299052 -1.234985
-0.999479 1.304854 -1.240275
-0.991532 1.306397 -1.241409
-0.982310 1.306230 -1.240827
-0.973873 1.307336 -1.241381
-0.969960 1.315328 -1.248433
-0.966768 1.324686 -1.256701
-0.959183 1.327654 -1.258788
-0.708318 0.977957 -0.923195
-0.707638 0.988409 -0.932373
-0.827159 1.207587 -1.138810
-0.820703 1.211813 -1.141711
-0.812297 1.212923 -1.141602
-0.810414 1.225146 -1.151965
-0.803211 1.228584 -1.153950
-0.799144 1.237583 -1.161142
-0.791415 1.240385 -1.162430
-0.786750 1.248733 -1.168905
-0.776660 1.247497 -1.166310
-0.760605 1.235292 -1.153377
-0.755849 1.243724 -1.159827
-0.749553 1.249472 -1.163721
-0.746122 1.260826 -1.172833
-0.744358 1.275702 -1.185199
-0.738902 1.283711 -1.191102
-0.720679 1.266443 -1.173396
-0.712153 1.268239 -1.173488
-0.704851 1.272547 -1.175910
-0.701469 1.285100 -1.185982
-0.698106 1.298013 -1.196359
-0.689764 1.300548 -1.197090
-0.677844 1.295268 -1.190587
-0.668746 1.296005 -1.189666
-0.662039 1.302074 -1.193676
-0.654885 1.307234 -1.196842
-0.645867 1.308130 -1.196082
-0.638085 1.311894 -1.197972
-0.630451 1.316047 -1.200225
-0.621787 1.317723 -1.200211
-0.615517 1.325328 -1.205642
-0.610949 1.337422 -1.215180
-0.602049 1.338657 -1.214785
-0.591025 1.334243 -1.209252
-0.585649 1.344693 -1.217298
-0.579559 1.353479 -1.223825
-0.570664 1.354690 -1.223465
-0.564264 1.362911 -1.229492
-0.557118 1.369189 -1.233760
-0.559542 1.403803 -1.263719
-0.575671 1.480900 -1.332089
-0.570441 1.495523 -1.343833
-0.557881 1.487679 -1.335276
-0.549487 1.492703 -1.338371
-0.538639 1.489809 -1.334341
-0.528945 1.490520 -1.333588
-0.518666 1.489145 -1.330980
-0.504990 1.475726 -1.317574
-0.414691 1.216420 -1.082382
-0.402891 1.202082 -1.068488
-0.402800 1.231874 -1.094146
-0.447352 1.438760 -1.278180
-0.447000 1.474972 -1.309373
-0.440650 1.488132 -1.319948
-0.432366 1.493656 -1.323712
-0.419828 1.480760 -1.311071
-0.410973 1.483587 -1.312472
-0.402735 1.489314 -1.316472
-0.395127 1.498280 -1.323365
-0.386268 1.501532 -1.325189
-0.377373 1.504690 -1.326946
-0.366388 1.496987 -1.319085
-0.355505 1.489200 -1.311179
-0.348354 1.501675 -1.321251
-0.329715 1.502938 -1.320456
-0.320238 1.502483 -1.319125
-0.310797 1.502107 -1.317884
-0.302995 1.512708 -1.326353
-0.294369 1.518277 -1.330390
-0.285197 1.520197 -1.331222
-0.275213 1.515881 -1.326576
-0.265900 1.516475 -1.326277
-0.256107 1.512911 -1.322336
-0.247905 1.523210 -1.330611
-0.239594 1.533546 -1.338924
-0.230455 1.536633 -1.340878
-0.220583 1.532058 -1.336119
-0.210874 1.528604 -1.332367
-0.200914 1.521374 -1.325324
-0.191267 1.517057 -1.320858
-0.181945 1.516616 -1.319811
-0.173262 1.526259 -1.327612
-0.164592 1.538081 -1.337330
-0.155057 1.535309 -1.334286
-0.145257 1.525571 -1.325171
-0.135951 1.525637 -1.324650
-0.126537 1.522188 -1.321076
-0.117248 1.521777 -1.320174
-0.107959 1.520884 -1.318870
-0.098905 1.536222 -1.331751
-0.089517 1.531690 -1.327302
-0.080197 1.533880 -1.328736
-0.070855 1.535188 -1.329417
-0.061421 1.543917 -1.336584
-0.051986 1.546367 -1.338292
-0.042291 1.559016 -1.348901
-0.033209 1.544744 -1.336076
-0.023839 1.543752 -1.334839
-0.014336 1.546266 -1.336672
-0.004471 1.555867 -1.344688
0.004996 1.555594 -1.344128
0.014461 1.555282 -1.343553
0.024032 1.556573 -1.344390
0.033144 1.551068 -1.339336
0.041535 1.536949 -1.326815
0.049344 1.517769 -1.309919
0.059964 1.532761 -1.322738
0.070023 1.539831 -1.328691
0.096088 1.519617 -1.310671
0.107677 1.538412 -1.326879
0.119242 1.555083 -1.341257
0.127102 1.541911 -1.329739
0.025426 0.671883 -0.574190
0.029589 0.671474 -0.573833
0.033648 0.670417 -0.572921
0.037648 0.669042 -0.571740
0.042426 0.672176 -0.574484
0.047363 0.675938 -0.577780
0.052337 0.679601 -0.580999
0.056635 0.679478 -0.580937
0.060751 0.678411 -0.580064
0.064923 0.677632 -0.579449
0.069205 0.677375 -0.579293
0.073775 0.678415 -0.580272
0.078721 0.681030 -0.582626
0.082716 0.679334 -0.581241
0.086774 0.677957 -0.580139
0.091676 0.680080 -0.582085
0.097161 0.684395 -0.585943
0.101394 0.683564 -0.585332
0.105268 0.681366 -0.583537
0.110349 0.683735 -0.585719
0.112572 0.675565 -0.578734
0.116278 0.673005 -0.576631
0.120262 0.671497 -0.575445
0.124857 0.672108 -0.576106
0.129279 0.672091 -0.576221
0.133756 0.672233 -0.576474
0.138266 0.672454 -0.576794
0.143235 0.674086 -0.578342
0.147257 0.672737 -0.577290
0.151164 0.671086 -0.575970
0.157237 0.675874 -0.580258
0.161169 0.674289 -0.578983
0.164749 0.671763 -0.576880
0.167797 0.667852 -0.573557
0.174321 0.673604 -0.578656
0.178563 0.673031 -0.578224
0.183337 0.673899 -0.579038
0.187776 0.673890 -0.579070
0.191850 0.672973 -0.578295
0.195079 0.669988 -0.575698
0.200670 0.672983 -0.578301
0.203327 0.668772 -0.574594
0.210026 0.674436 -0.579485
0.213764 0.672976 -0.578135
0.216811 0.670001 -0.575441
0.220059 0.667629 -0.573248
0.224699 0.668537 -0.573889
0.227750 0.665934 -0.571444
0.231764 0.665589 -0.570938
0.234983 0.663598 -0.568971
0.238830 0.663077 -0.568255
0.243743 0.664908 -0.569557
0.250084 0.669760 -0.573455
0.255852 0.673392 -0.576256
0.261561 0.676903 -0.578916
0.266083 0.678019 -0.579462
0.270475 0.678941 -0.579805
0.272568 0.675391 -0.576238
0.275754 0.674146 -0.574641
0.280335 0.675714 -0.575449
0.286456 0.680289 -0.578822
0.290053 0.680086 -0.578031
0.293270 0.679265 -0.576677
0.302073 0.688928 -0.584328
-1.034114 1.268563 -1.215917
-1.029538 1.273303 -1.220770
-1.024495 1.277618 -1.225138
-1.018682 1.281081 -1.228607
-1.010164 1.280976 -1.228554
-1.007788 1.289623 -1.236867
-1.005445 1.298607 -1.245424
-1.001672 1.305846 -1.252213
-0.998546 1.314287 -1.260079
-0.984075 1.306463 -1.252175
-0.975931 1.307927 -1.253147
-0.970658 1.313811 -1.258298
-0.968955 1.325303 -1.268767
-0.961046 1.327708 -1.270399
-0.943358 1.315225 -1.257630
-0.710982 0.979871 -0.933716
-0.709784 0.989453 -0.942191
-0.841765 1.228320 -1.169514
-0.818212 1.204558 -1.145680
-0.814888 1.214017 -1.153616
-0.811357 1.223403 -1.161415
-0.794609 1.210449 -1.147821
-0.780150 1.201155 -1.137702
-0.789801 1.233963 -1.167669
-0.782206 1.236975 -1.169178
-0.768688 1.229398 -1.160583
-0.763551 1.236926 -1.166315
-0.752107 1.232970 -1.161115
-0.744919 1.236879 -1.163349
-0.742432 1.249832 -1.174107
-0.742286 1.267647 -1.189410
-0.733488 1.268988 -1.189116
-0.725753 1.272440 -1.190796
-0.715076 1.270013 -1.186928
-0.706469 1.271697 -1.186923
-0.699766 1.277335 -1.190622
-0.697851 1.293194 -1.203885
-0.689965 1.296676 -1.205526
-0.679279 1.294097 -1.201497
-0.670185 1.294883 -1.200622
-0.664117 1.302419 -1.206045
-0.655325 1.303894 -1.205816
-0.646734 1.305798 -1.205993
-0.640652 1.313603 -1.211657
-0.629017 1.308245 -1.205108
-0.619175 1.306988 -1.202385
-0.613701 1.316449 -1.209597
-0.609840 1.330226 -1.220790
-0.602114 1.334447 -1.223151
-0.592184 1.332939 -1.220241
-0.584727 1.337877 -1.223286
-0.574825 1.336242 -1.220297
-0.571886 1.353739 -1.234902
-0.565661 1.362521 -1.241496
-0.560446 1.374447 -1.250973
-0.559545 1.399409 -1.272377
-0.554867 1.413948 -1.284223
-0.554546 1.472715 -1.334979
-0.538059 1.483443 -1.341868
-0.526321 1.477350 -1.334915
-0.512628 1.464210 -1.321594
-0.500766 1.456721 -1.313449
-0.481655 1.422948 -1.281511
-0.409865 1.195350 -1.074100
-0.400673 1.190408 -1.068581
-0.450088 1.445559 -1.297003
-0.445214 1.463799 -1.312267
-0.438870 1.476817 -1.322814
-0.426419 1.464504 -1.310545
-0.416815 1.463804 -1.308769
-0.408404 1.468306 -1.311694
-0.403358 1.488504 -1.328736
-0.393724 1.487964 -1.327152
-0.385751 1.495430 -1.332772
-0.377302 1.500840 -1.336559
-0.364260 1.482474 -1.319065
-0.354277 1.479286 -1.315200
-0.345643 1.483300 -1.317800
-0.338312 1.495050 -1.327330
-0.326826 1.482570 -1.315225
-0.317971 1.485442 -1.316857
-0.309269 1.489427 -1.319496
-0.301163 1.497664 -1.325940
-0.292964 1.505848 -1.332347
-0.284262 1.510940 -1.336011
-0.275344 1.514737 -1.338537
-0.264373 1.502089 -1.326458
-0.254066 1.493681 -1.318179
-0.246177 1.506061 -1.328385
-0.238457 1.521388 -1.341212
-0.229103 1.521897 -1.340900
-0.218603 1.509956 -1.329570
-0.208786 1.504109 -1.323669
-0.199376 1.502317 -1.321382
-0.189067 1.487981 -1.308013
-0.179714 1.484996 -1.304714
-0.171543 1.500396 -1.317693
-0.163880 1.528093 -1.341543
-0.154653 1.531013 -1.343502
-0.144920 1.523003 -1.335825
-0.135584 1.522808 -1.335070
-0.126408 1.527435 -1.338587
-0.116857 1.519407 -1.330959
-0.107593 1.520901 -1.331748
-0.098358 1.525645 -1.335417
-0.089073 1.531098 -1.339726
-0.079703 1.520920 -1.330285
-0.070418 1.519012 -1.328148
-0.061033 1.528695 -1.336229
-0.051571 1.535960 -1.342196
-0.042122 1.538803 -1.344289
-0.024007 1.518950 -1.326077
-0.014491 1.524527 -1.330628
-0.004989 1.528303 -1.333612
0.014216 1.536730 -1.340400
0.024087 1.543763 -1.346294
0.033073 1.537096 -1.340180
0.041864 1.528871 -1.332719
0.050664 1.521859 -1.326342
0.060354 1.525658 -1.329472
0.079071 1.525095 -1.328626
0.086337 1.505311 -1.311126
0.095975 1.508385 -1.313694
0.108765 1.537317 -1.338953
0.117048 1.527611 -1.330350
0.124369 1.511421 -1.316082
0.133739 1.511382 -1.315994
0.030220 0.671410 -0.579558
0.033830 0.667502 -0.576141
0.037197 0.662397 -0.571681
0.040571 0.657653 -0.567547
0.044945 0.658693 -0.568490
0.050132 0.663948 -0.573137
0.056467 0.674743 -0.582651
0.060504 0.673345 -0.581480
0.064153 0.670113 -0.578708
0.068183 0.668821 -0.577644
0.072603 0.669339 -0.578174
0.077042 0.669876 -0.578727
0.081847 0.671918 -0.580609
0.086128 0.671614 -0.580436
0.090643 0.672247 -0.581092
0.095803 0.675381 -0.583949
0.100242 0.675522 -0.584183
0.104578 0.675230 -0.584041
0.108327 0.672748 -0.581979
0.112060 0.670291 -0.579940
0.115358 0.666374 -0.576621
0.119434 0.665302 -0.575801
0.123657 0.664749 -0.575438
0.128661 0.666781 -0.577348
0.132231 0.664062 -0.575079
0.136579 0.663909 -0.575065
0.141423 0.665295 -0.576401
0.146866 0.668440 -0.579282
0.150431 0.665841 -0.577103
0.153315 0.661340 -0.573242
0.159178 0.665584 -0.577073
0.162521 0.662555 -0.574491
0.165312 0.658109 -0.570650
0.171263 0.662450 -0.574537
0.176662 0.665177 -0.576991
0.182193 0.668180 -0.579673
0.186995 0.669220 -0.580611
0.189518 0.664449 -0.576413
0.194595 0.666266 -0.578000
0.198819 0.665960 -0.577697
0.203311 0.666355 -0.577991
0.208347 0.668088 -0.579440
0.212525 0.667796 -0.579083
0.215428 0.664606 -0.576149
0.220429 0.666371 -0.577552
0.222173 0.660792 -0.572465
0.225883 0.659811 -0.571398
0.229035 0.657699 -0.569310
0.232219 0.655782 -0.567364
0.236741 0.656855 -0.568018
0.242634 0.660876 -0.571229
0.248859 0.665572 -0.574997
0.253988 0.667975 -0.576719
0.259039 0.670248 -0.578292
0.264875 0.674136 -0.581245
0.269089 0.674794 -0.581334
0.271105 0.671193 -0.577667
0.274317 0.670092 -0.576159
0.278948 0.671843 -0.577110
0.284361 0.675145 -0.579379
0.288159 0.675417 -0.578973
0.293228 0.678158 -0.580685
-1.033303 1.276912 -1.234597
-1.028491 1.281501 -1.239329
-1.020906 1.282483 -1.240476
-1.013309 1.283598 -1.241674
-1.001985 1.279639 -1.237854
-1.001965 1.291729 -1.249574
-1.003460 1.306342 -1.263665
-0.997417 1.310489 -1.267490
-0.990011 1.312857 -1.269501
-0.976422 1.306294 -1.262745
-0.970747 1.311479 -1.267333
-0.966810 1.319496 -1.274588
-0.960480 1.324157 -1.278500
-0.948730 1.320704 -1.274453
-0.726030 1.001269 -0.963159
-0.716558 0.997894 -0.959194
-0.825460 1.213417 -1.165102
-0.816733 1.213925 -1.164517
-0.813030 1.222957 -1.172102
-0.799944 1.216246 -1.164449
-0.782143 1.201247 -1.148785
-0.779851 1.213033 -1.158867
-0.783144 1.235053 -1.178718
-0.773199 1.233878 -1.176229
-0.759090 1.225091 -1.166414
-0.756049 1.236496 -1.175920
-0.745223 1.233635 -1.171734
-0.747924 1.256358 -1.191962
-0.738528 1.256412 -1.190497
-0.733120 1.264226 -1.196407
-0.726994 1.270812 -1.201115
-0.720025 1.275853 -1.204330
-0.708674 1.272053 -1.199135
-0.702168 1.278127 -1.203301
-0.696213 1.285486 -1.208665
-0.688769 1.289832 -1.211163
-0.679254 1.289751 -1.209472
-0.673638 1.298192 -1.215820
-0.665818 1.301895 -1.217692
-0.658217 1.306135 -1.220068
-0.651710 1.312967 -1.224875
-0.643716 1.316441 -1.226528
-0.632633 1.312547 -1.221285
-0.622289 1.310229 -1.217537
-0.616379 1.318722 -1.223911
-0.610959 1.328654 -1.231623
-0.605313 1.338266 -1.239030
-0.596478 1.339791 -1.238906
-0.584994 1.334220 -1.232198
-0.575314 1.333226 -1.229774
-0.568477 1.339948 -1.234527
-0.564525 1.354946 -1.246951
-0.558304 1.363910 -1.253781
-0.554191 1.379297 -1.266549
-0.549819 1.394420 -1.279063
-0.544416 1.406910 -1.289140
-0.543707 1.434421 -1.313051
-0.543134 1.463416 -1.338296
-0.536014 1.472290 -1.345011
-0.525796 1.471157 -1.342543
-0.511450 1.455844 -1.327094
-0.496363 1.437140 -1.308589
-0.411370 1.197364 -1.086666
-0.399802 1.183759 -1.073167
-0.389119 1.172760 -1.062089
-0.447853 1.432794 -1.298230
-0.444872 1.458420 -1.320373
-0.437315 1.466426 -1.326454
-0.424230 1.451345 -1.311546
-0.415946 1.456201 -1.314803
-0.409050 1.467435 -1.323864
-0.401003 1.473908 -1.328611
-0.390205 1.467593 -1.321777
-0.381644 1.471720 -1.324433
-0.374944 1.485393 -1.335743
-0.365275 1.484365 -1.333760
-0.354343 1.476332 -1.325470
-0.345002 1.476506 -1.324622
-0.337411 1.486695 -1.332831
-0.325157 1.469546 -1.316397
-0.315762 1.468772 -1.314760
-0.308461 1.481409 -1.325219
-0.302089 1.501271 -1.342184
-0.291836 1.495371 -1.335979
-0.274032 1.502392 -1.340551
-0.264089 1.497793 -1.335582
-0.253348 1.485777 -1.323983
-0.244885 1.492848 -1.329529
-0.236337 1.499827 -1.335002
-0.226447 1.493931 -1.328959
-0.216480 1.486298 -1.321385
-0.208103 1.495883 -1.329238
-0.199093 1.498903 -1.331232
-0.189067 1.488591 -1.321329
-0.178862 1.473644 -1.307315
-0.170815 1.490520 -1.321737
-0.162721 1.510106 -1.338582
-0.153515 1.511971 -1.339624
-0.143419 1.493771 -1.322798
-0.134475 1.500246 -1.327989
-0.125756 1.516241 -1.341674
-0.116382 1.513875 -1.339017
-0.106989 1.508825 -1.333992
-0.097991 1.528901 -1.351342
-0.079215 1.513954 -1.337074
-0.069966 1.506325 -1.329836
-0.060670 1.511262 -1.333785
-0.051358 1.513718 -1.335546
-0.042402 1.499471 -1.322492
-0.033399 1.492735 -1.316132
-0.024532 1.484373 -1.308351
-0.014803 1.499202 -1.321165
-0.005155 1.508475 -1.329063
0.004160 1.509351 -1.329530
0.013095 1.503617 -1.324155
0.022255 1.502265 -1.322684
0.031926 1.508174 -1.327668
0.051309 1.517672 -1.335629
0.060755 1.518601 -1.336252
0.069898 1.516172 -1.333920
0.079511 1.518535 -1.335851
0.087690 1.507311 -1.325769
0.096631 1.503847 -1.322579
0.117306 1.519659 -1.336386
0.123809 1.497510 -1.316711
0.153806 1.510509 -1.328126
0.034599 0.668149 -0.582518
0.037194 0.658414 -0.573920
0.040363 0.652580 -0.568781
0.044259 0.651079 -0.567486
0.048863 0.653385 -0.569569
0.054461 0.660596 -0.576002
0.059929 0.666668 -0.581435
0.062891 0.660269 -0.575832
0.066783 0.658554 -0.574383
0.070849 0.657685 -0.573689
0.076226 0.662609 -0.578133
0.080896 0.664195 -0.579626
0.085734 0.666361 -0.581640
0.088820 0.661249 -0.577208
0.093830 0.663996 -0.579746
0.099539 0.669274 -0.584533
0.103121 0.666239 -0.581953
0.107224 0.665235 -0.581177
0.111655 0.665433 -0.581468
0.115019 0.661840 -0.578398
0.118952 0.660343 -0.577187
0.123791 0.661940 -0.578722
0.126995 0.658060 -0.575393
0.131673 0.659087 -0.576419
0.135477 0.657292 -0.574936
0.140360 0.658904 -0.576476
0.146404 0.663970 -0.581079
0.150242 0.662270 -0.579664
0.153043 0.657604 -0.575606
0.157323 0.657358 -0.575468
0.160438 0.653848 -0.572418
0.166595 0.658883 -0.576953
0.170782 0.658408 -0.576577
0.175310 0.658879 -0.577029
0.179781 0.659209 -0.577340
0.183845 0.658504 -0.576714
0.187952 0.657965 -0.576217
0.191123 0.655142 -0.573672
0.196644 0.658225 -0.576356
0.203387 0.664218 -0.581605
0.207989 0.664974 -0.582175
0.212026 0.664433 -0.581567
0.215002 0.661508 -0.578816
0.217593 0.657846 -0.575385
0.222223 0.658940 -0.576152
0.225076 0.656127 -0.573422
0.227300 0.652079 -0.569570
0.231021 0.651448 -0.568722
0.236161 0.653939 -0.570612
0.242262 0.658472 -0.574277
0.247776 0.661751 -0.576796
0.251957 0.662290 -0.576857
0.256426 0.663487 -0.577468
0.262886 0.668750 -0.581636
0.267259 0.669831 -0.582074
0.270164 0.668086 -0.579990
0.272987 0.666310 -0.577849
0.275533 0.664128 -0.575324
0.280983 0.667619 -0.577758
0.285769 0.669875 -0.579072
0.287735 0.666907 -0.575771
-1.033959 1.287459 -1.255591
-1.025464 1.287171 -1.255565
-1.016511 1.286373 -1.254960
-1.010579 1.289921 -1.258540
-1.002190 1.290191 -1.258826
-0.997199 1.295440 -1.263915
-0.995998 1.306373 -1.274502
-0.985098 1.303539 -1.271498
-0.976088 1.303545 -1.271199
-0.966715 1.303128 -1.270407
-0.970485 1.322523 -1.288953
-0.964391 1.327491 -1.293269
-0.953891 1.325924 -1.291104
-0.710396 0.985873 -0.956338
-0.834389 1.225058 -1.187401
-0.818497 1.213765 -1.175359
-0.816128 1.224970 -1.185187
-0.807130 1.225221 -1.184287
-0.789144 1.210025 -1.168328
-0.782858 1.214890 -1.171829
-0.781519 1.228656 -1.183909
-0.772108 1.228337 -1.182280
-0.762990 1.228553 -1.181131
-0.749002 1.219810 -1.171293
-0.753166 1.244702 -1.193915
-0.744284 1.245590 -1.193309
-0.739217 1.253806 -1.199737
-0.728831 1.251879 -1.196369
-0.726513 1.265806 -1.208219
-0.719198 1.270088 -1.210769
-0.709181 1.268958 -1.208112
-0.700047 1.269571 -1.207119
-0.694223 1.277090 -1.212718
-0.687840 1.283596 -1.217329
-0.679206 1.285372 -1.217415
-0.674805 1.296443 -1.226347
-0.665339 1.296486 -1.224771
-0.661320 1.308821 -1.234871
-0.652736 1.310949 -1.235270
-0.643146 1.310706 -1.233427
-0.635384 1.314730 -1.235631
-0.626598 1.316318 -1.235537
-0.618111 1.318608 -1.236116
-0.612467 1.328030 -1.243423
-0.606609 1.337150 -1.250439
-0.599984 1.344500 -1.255789
-0.589547 1.341910 -1.251806
-0.576083 1.330940 -1.239989
-0.569736 1.339051 -1.246088
-0.562025 1.343540 -1.248798
-0.555742 1.352187 -1.255405
-0.548483 1.358223 -1.259577
-0.545025 1.375713 -1.274435
-0.537901 1.411917 -1.305246
-0.533421 1.428098 -1.318845
-0.531179 1.452109 -1.339702
-0.520512 1.449190 -1.335564
-0.510602 1.448582 -1.333596
-0.498603 1.440596 -1.324825
-0.484191 1.423580 -1.307743
-0.397395 1.171393 -1.072466
-0.384794 1.152944 -1.054415
-0.450542 1.439255 -1.317066
-0.444203 1.451694 -1.327275
-0.424032 1.446601 -1.320175
-0.417064 1.457201 -1.328727
-0.407612 1.457195 -1.327561
-0.396328 1.448656 -1.318600
-0.386220 1.445050 -1.314190
-0.377888 1.449779 -1.317429
-0.371331 1.463639 -1.329027
-0.362012 1.463917 -1.328224
-0.354221 1.472321 -1.334856
-0.346829 1.483425 -1.343960
-0.334715 1.467959 -1.328863
-0.325854 1.470697 -1.330380
-0.314615 1.458728 -1.318534
-0.307452 1.472070 -1.329735
-0.301331 1.493451 -1.348242
-0.289815 1.478586 -1.333836
-0.272539 1.488648 -1.341217
-0.252471 1.476495 -1.328537
-0.244009 1.483385 -1.333971
-0.233804 1.474334 -1.324998
-0.224193 1.470055 -1.320368
-0.214631 1.465616 -1.315616
-0.207197 1.485072 -1.332465
-0.198705 1.494185 -1.339979
-0.189439 1.494227 -1.339321
-0.180064 1.492545 -1.337127
-0.170334 1.484645 -1.329350
-0.161634 1.493377 -1.336580
-0.152133 1.487951 -1.331074
-0.142145 1.469653 -1.314005
-0.124464 1.484564 -1.326283
-0.115656 1.498485 -1.338253
-0.106563 1.506148 -1.344608
-0.097220 1.501447 -1.339872
-0.087978 1.502703 -1.340505
-0.078703 1.477679 -1.317570
-0.069513 1.493678 -1.331475
-0.060289 1.495788 -1.332931
-0.051161 1.490928 -1.328156
-0.041895 1.494388 -1.330859
-0.033076 1.481347 -1.318792
-0.024114 1.476668 -1.314241
-0.014660 1.485039 -1.321398
-0.004941 1.496712 -1.331529
0.004026 1.491800 -1.326824
0.011872 1.469185 -1.306295
0.019857 1.452751 -1.291324
0.031163 1.484838 -1.319790
0.041376 1.497934 -1.331277
0.050692 1.498469 -1.331542
0.059796 1.496505 -1.329592
0.069139 1.497156 -1.329999
0.079103 1.503670 -1.335666
0.088017 1.499741 -1.332016
0.098078 1.506077 -1.337561
0.116526 1.503535 -1.335107
0.124590 1.493642 -1.326202
0.132311 1.482072 -1.315817
0.141134 1.478929 -1.312982
0.150407 1.478886 -1.312936
0.038645 0.662920 -0.583729
0.040686 0.650508 -0.572664
0.044151 0.646655 -0.569255
0.048249 0.646340 -0.569016
0.052925 0.648954 -0.571402
0.057240 0.649587 -0.572024
0.061448 0.649625 -0.572121
0.065667 0.649678 -0.572238
0.070819 0.653899 -0.576088
0.075334 0.655056 -0.577205
0.080452 0.658687 -0.580541
0.084170 0.656269 -0.578470
0.088283 0.655548 -0.577920
0.091916 0.652931 -0.575678
0.096959 0.655843 -0.578389
0.101142 0.655354 -0.578058
0.106456 0.659014 -0.581444
0.111204 0.660448 -0.582840
0.115193 0.659135 -0.581775
0.118418 0.655247 -0.578402
0.122146 0.653190 -0.576668
0.125984 0.651570 -0.575324
0.130448 0.652013 -0.575825
0.134963 0.652591 -0.576444
0.138726 0.650820 -0.574952
0.144111 0.654017 -0.577910
0.149036 0.655728 -0.579527
0.153149 0.655017 -0.578963
0.155996 0.650726 -0.575178
0.161702 0.654615 -0.578721
0.167023 0.657321 -0.581192
0.170731 0.655589 -0.579665
0.174285 0.653528 -0.577829
0.177416 0.650459 -0.575071
0.180871 0.648358 -0.573164
0.184972 0.647991 -0.572795
0.189935 0.649821 -0.574378
0.194811 0.651426 -0.575736
0.200957 0.656093 -0.579819
0.206207 0.658541 -0.581886
0.210029 0.657629 -0.580914
0.213303 0.655536 -0.578858
0.217029 0.654594 -0.577808
0.220844 0.653944 -0.576992
0.223540 0.650900 -0.574004
0.226067 0.647637 -0.570794
0.230072 0.647723 -0.570554
0.235438 0.650783 -0.572941
0.241257 0.654796 -0.576146
0.245743 0.656025 -0.576829
0.249675 0.656167 -0.576512
0.254436 0.658074 -0.577736
0.259773 0.661180 -0.579994
0.265053 0.664190 -0.582130
0.268733 0.664080 -0.581458
0.272092 0.663438 -0.580282
0.275071 0.662167 -0.578520
0.278770 0.662383 -0.578048
0.282581 0.662895 -0.577808
-1.022333 1.281369 -1.260323
-1.016320 1.284522 -1.263685
-1.013237 1.291961 -1.271210
-1.011027 1.300895 -1.280138
-0.996562 1.292667 -1.272003
-0.986033 1.290069 -1.269359
-0.984698 1.300892 -1.279914
-0.972032 1.295433 -1.274278
-0.974117 1.311834 -1.290185
-0.977530 1.330674 -1.308413
-0.838455 1.228759 -1.202092
-0.831502 1.232292 -1.204578
-0.810055 1.211668 -1.183265
-0.803650 1.216109 -1.186541
-0.798062 1.222112 -1.191289
-0.786603 1.218080 -1.186147
-0.774869 1.213487 -1.180419
-0.773288 1.226939 -1.192303
-0.755964 1.212255 -1.176640
-0.749604 1.217305 -1.180228
-0.746066 1.227746 -1.189027
-0.744064 1.241375 -1.200877
-0.733894 1.239744 -1.197834
-0.730005 1.250241 -1.206551
-0.721274 1.251484 -1.206247
-0.719881 1.267395 -1.220134
-0.706015 1.258446 -1.209917
-0.700100 1.265555 -1.215228
-0.693907 1.272253 -1.220117
-0.683491 1.270140 -1.216493
-0.684054 1.291578 -1.235539
-0.676052 1.294873 -1.237092
-0.668569 1.299360 -1.239783
-0.658903 1.298984 -1.237803
-0.650913 1.302374 -1.239436
-0.643712 1.307643 -1.242866
-0.635065 1.309572 -1.243100
-0.627036 1.312973 -1.244746
-0.618908 1.316162 -1.246194
-0.612201 1.322933 -1.251056
-0.606176 1.331593 -1.257712
-0.598272 1.335594 -1.259940
-0.589202 1.336560 -1.259298
-0.581099 1.340068 -1.261079
-0.570706 1.337319 -1.256952
-0.563888 1.344365 -1.262103
-0.553943 1.342664 -1.259004
-0.549841 1.357790 -1.271790
-0.545355 1.372281 -1.283964
-0.542338 1.391715 -1.300778
-0.533068 1.392506 -1.300061
-0.524843 1.427149 -1.329676
-0.515268 1.427426 -1.328506
-0.505762 1.427836 -1.327482
-0.499199 1.438302 -1.335878
-0.486302 1.426776 -1.323747
-0.383285 1.143880 -1.056497
-0.442287 1.439958 -1.329535
-0.427814 1.419413 -1.309231
-0.423254 1.439377 -1.326549
-0.415471 1.446392 -1.331860
-0.405722 1.444935 -1.329339
-0.395058 1.439083 -1.322777
-0.385357 1.437309 -1.320015
-0.379346 1.453275 -1.333659
-0.368650 1.446609 -1.326419
-0.359896 1.449462 -1.327986
-0.352356 1.458914 -1.335651
-0.343276 1.460356 -1.335949
-0.334876 1.465702 -1.339858
-0.326045 1.468761 -1.341679
-0.313722 1.450245 -1.323699
-0.306088 1.460423 -1.332102
-0.298437 1.471219 -1.341080
-0.287841 1.462142 -1.331848
-0.278724 1.462989 -1.331738
-0.269672 1.464308 -1.332080
-0.262015 1.476924 -1.342774
-0.251223 1.464034 -1.330155
-0.242773 1.470665 -1.335407
-0.232736 1.462836 -1.327466
-0.223684 1.463877 -1.327649
-0.215152 1.470546 -1.332983
-0.205727 1.467711 -1.329666
-0.197392 1.477918 -1.338254
-0.189011 1.489058 -1.347703
-0.179187 1.480829 -1.339528
-0.168458 1.456153 -1.316414
-0.160787 1.480950 -1.338335
-0.151435 1.477722 -1.334777
-0.141546 1.461032 -1.319010
-0.132696 1.466666 -1.323550
-0.124265 1.487888 -1.342255
-0.115128 1.491002 -1.344532
-0.105976 1.495098 -1.347716
-0.087392 1.482420 -1.335213
-0.078223 1.485306 -1.337355
-0.069154 1.464861 -1.318380
-0.059904 1.480812 -1.332395
-0.050768 1.479585 -1.330868
-0.041693 1.476388 -1.327578
-0.032461 1.479626 -1.330131
-0.023623 1.470885 -1.321865
-0.014106 1.480594 -1.330307
-0.004653 1.486478 -1.335305
0.004052 1.477272 -1.326680
0.012180 1.460364 -1.311118
0.021713 1.467454 -1.317262
0.028694 1.438354 -1.290730
0.040602 1.475871 -1.324395
0.049395 1.471417 -1.320166
0.059084 1.477257 -1.325250
0.068509 1.479580 -1.327177
0.077274 1.475176 -1.323050
0.088018 1.489153 -1.335534
0.107453 1.495845 -1.341363
0.124839 1.485744 -1.332112
0.140042 1.462164 -1.310772
0.041921 0.653523 -0.581153
0.044079 0.642427 -0.571175
0.047452 0.638381 -0.567567
0.051113 0.636009 -0.565474
0.056063 0.640077 -0.569202
0.059985 0.638970 -0.568266
0.065799 0.646634 -0.575254
0.070983 0.650997 -0.579269
0.075268 0.651159 -0.579495
0.079053 0.649154 -0.577770
0.082233 0.644721 -0.573854
0.086721 0.645751 -0.574877
0.091402 0.647460 -0.576518
0.095437 0.646583 -0.575824
0.099748 0.646756 -0.576082
0.105233 0.651179 -0.580185
0.110297 0.653876 -0.582728
0.114643 0.653927 -0.582878
0.117402 0.648551 -0.578118
0.120463 0.644400 -0.574462
0.125085 0.645507 -0.575561
0.129751 0.646700 -0.576735
0.134333 0.647574 -0.577615
0.137515 0.644116 -0.574568
0.141625 0.643583 -0.574161
0.146919 0.646572 -0.576935
0.151444 0.647226 -0.577585
0.154714 0.644301 -0.574984
0.158777 0.643707 -0.574481
0.162895 0.643306 -0.574141
0.167954 0.645476 -0.576114
0.172460 0.646135 -0.576702
0.175670 0.643426 -0.574222
0.179800 0.643195 -0.573970
0.184559 0.644599 -0.575178
0.189302 0.645959 -0.576324
0.193998 0.647208 -0.577348
0.198176 0.647221 -0.577229
0.203715 0.650516 -0.580056
0.205609 0.645257 -0.575117
0.212072 0.650730 -0.579860
0.216602 0.651723 -0.580521
0.218993 0.647968 -0.576864
0.222343 0.646502 -0.575249
0.226063 0.645952 -0.574433
0.230365 0.646744 -0.574798
0.235007 0.648316 -0.575836
0.239265 0.649123 -0.576152
0.243638 0.650227 -0.576704
0.247552 0.650450 -0.576430
0.251962 0.651753 -0.577097
0.258497 0.657372 -0.581607
0.262168 0.657277 -0.580950
0.267231 0.660001 -0.582791
0.274289 0.666627 -0.588089
0.277057 0.664964 -0.585931
0.280669 0.665029 -0.585292
-1.012071 1.277144 -1.266835
-1.006689 1.281223 -1.271135
-1.005249 1.291059 -1.281102
-0.984451 1.273670 -1.263825
-0.973569 1.270313 -1.260471
-0.972330 1.280991 -1.271042
-0.850607 1.245724 -1.230015
-0.830986 1.228468 -1.211945
-0.811694 1.211401 -1.194030
-0.798532 1.204342 -1.186003
-0.795843 1.215110 -1.195581
-0.787407 1.216211 -1.195531
-0.779104 1.217609 -1.195725
-0.768775 1.215459 -1.192370
-0.762423 1.220454 -1.196024
-0.751476 1.217188 -1.191494
-0.746847 1.225560 -1.198386
-0.742980 1.235601 -1.206869
-0.736648 1.241214 -1.210954
-0.731477 1.249223 -1.217351
-0.724725 1.254339 -1.220876
-0.710859 1.245409 -1.210631
-0.717395 1.277432 -1.240395
-0.704464 1.270431 -1.231997
-0.688846 1.257569 -1.217894
-0.684882 1.268926 -1.227384
-0.679085 1.276645 -1.233306
-0.672663 1.283188 -1.238063
-0.665441 1.288101 -1.241225
