ply
format ascii 1.0
comment ---
element vertex 1677
property float x
property float y
property float z
element face 0
property list uchar uint vertex_indices
end_header
0.035425 0.918362 -0.478824
0.040325 0.919912 -0.479601
0.045237 0.921386 -0.480340
0.050314 0.924923 -0.482100
0.055159 0.924955 -0.482127
0.060117 0.926342 -0.482824
0.064908 0.925644 -0.482490
0.069888 0.927042 -0.483193
0.074875 0.928346 -0.483850
0.080007 0.930905 -0.485127
0.085019 0.932087 -0.485724
0.090165 0.934329 -0.486846
0.094988 0.933631 -0.486513
0.100066 0.935027 -0.487217
0.105270 0.937268 -0.488339
0.110212 0.937359 -0.488397
0.115109 0.937102 -0.488284
0.120069 0.937275 -0.488384
0.125394 0.939837 -0.489666
0.130509 0.940854 -0.490184
0.135303 0.939780 -0.489668
0.140382 0.940467 -0.490024
0.145528 0.941473 -0.490538
0.150757 0.942862 -0.491241
0.155978 0.944097 -0.491870
0.161234 0.945424 -0.492543
0.166246 0.945374 -0.492537
0.171572 0.946882 -0.493301
0.176817 0.947882 -0.493815
0.181907 0.948055 -0.493920
0.187010 0.948244 -0.494033
0.192308 0.949280 -0.494566
0.197529 0.949888 -0.494888
0.202488 0.949289 -0.494613
0.208028 0.951148 -0.495555
0.213468 0.952467 -0.496231
0.218415 0.951688 -0.495869
0.223407 0.951075 -0.495589
0.229073 0.953073 -0.496603
0.237391 0.965056 -0.502561
0.247318 0.982522 -0.511235
0.257355 0.999649 -0.519742
0.263124 1.000733 -0.520307
0.268696 1.001026 -0.520483
0.272661 0.995708 -0.517879
0.279561 1.000486 -0.520277
0.289716 1.015866 -0.527926
0.298108 1.024871 -0.532421
0.298229 1.006954 -0.523581
0.298657 0.990574 -0.515501
0.324434 1.035207 -0.537687
0.419330 1.238601 -0.638653
0.429391 1.246905 -0.642821
0.435916 1.245107 -0.641984
0.443203 1.245346 -0.642158
0.450639 1.245892 -0.642485
0.458210 1.246686 -0.642938
0.464857 1.244973 -0.642148
0.471950 1.244357 -0.641904
0.478705 1.242817 -0.641202
0.483200 1.235629 -0.637701
0.489511 1.232993 -0.636459
0.497509 1.234402 -0.637224
0.504211 1.232600 -0.636399
0.509261 1.226892 -0.633636
0.516595 1.226517 -0.633521
0.522414 1.222615 -0.631656
0.528512 1.219351 -0.630109
0.535514 1.218087 -0.629556
0.542897 1.217595 -0.629388
0.546054 1.207931 -0.624666
0.554030 1.208674 -0.625113
0.562000 1.209298 -0.625502
0.570233 1.210367 -0.626113
0.580273 1.215017 -0.628504
0.587048 1.212892 -0.627531
0.593062 1.209238 -0.625798
0.600142 1.207703 -0.625118
0.606678 1.205091 -0.623903
0.612015 1.200193 -0.621551
0.616528 1.193810 -0.618460
0.621860 1.189074 -0.616187
0.627743 1.185438 -0.614460
0.635099 1.184549 -0.614098
0.648229 1.194066 -0.618913
0.653775 1.189860 -0.616899
0.659561 1.186182 -0.615146
0.664797 1.181649 -0.612964
0.669574 1.176463 -0.610454
0.677714 1.177150 -0.610865
0.684397 1.175429 -0.610074
0.691071 1.173796 -0.609324
0.696551 1.170313 -0.607648
0.701516 1.166155 -0.605631
0.704953 1.159724 -0.602478
0.708038 1.152973 -0.599161
-0.865554 1.300614 -0.678103
-0.856009 1.298459 -0.677003
-0.847249 1.297641 -0.676568
-0.842195 1.302802 -0.679129
-0.838174 1.309843 -0.682628
-0.828804 1.308511 -0.681917
-0.821662 1.310884 -0.683061
-0.817147 1.317726 -0.686444
-0.812846 1.325146 -0.690113
-0.806665 1.329621 -0.692299
-0.798559 1.330960 -0.692906
-0.791849 1.334766 -0.694749
-0.785304 1.338968 -0.696788
-0.780119 1.345670 -0.700079
-0.774903 1.352470 -0.703416
-0.769001 1.358173 -0.706200
-0.760675 1.359548 -0.706813
-0.752411 1.361029 -0.707477
-0.745313 1.364683 -0.709231
-0.739113 1.370074 -0.711856
-0.733417 1.376503 -0.715000
-0.728229 1.384013 -0.718686
-0.721118 1.387838 -0.720525
-0.713764 1.391191 -0.722128
-0.707709 1.397171 -0.725048
-0.701220 1.402319 -0.727552
-0.694896 1.407851 -0.730249
-0.686240 1.408511 -0.730505
-0.679038 1.412190 -0.732276
-0.672004 1.416224 -0.734226
-0.665889 1.422274 -0.737187
-0.660171 1.429263 -0.740620
-0.652266 1.431404 -0.741626
-0.645232 1.435484 -0.743604
-0.639007 1.441442 -0.746525
-0.633053 1.448097 -0.749796
-0.626136 1.452529 -0.751956
-0.617769 1.453467 -0.752368
-0.611412 1.459260 -0.755212
-0.604756 1.464367 -0.757714
-0.602565 1.480812 -0.765892
-0.622984 1.555735 -0.803335
-0.614406 1.557207 -0.804020
-0.606193 1.559575 -0.805156
-0.598293 1.562746 -0.806696
-0.591310 1.568415 -0.809487
-0.584559 1.574799 -0.812637
-0.576392 1.577286 -0.813839
-0.568024 1.579172 -0.814743
-0.560082 1.582256 -0.816248
-0.552601 1.586712 -0.818440
-0.545058 1.591028 -0.820564
-0.537883 1.596522 -0.823279
-0.530312 1.600876 -0.825425
-0.521752 1.602145 -0.826030
-0.513194 1.603374 -0.826617
-0.500538 1.591067 -0.820436
-0.487508 1.576958 -0.813356
-0.478312 1.575327 -0.812518
-0.474202 1.591254 -0.820460
-0.466674 1.595585 -0.822605
-0.467621 1.630682 -0.840135
-0.458430 1.629680 -0.839616
-0.453266 1.643731 -0.846624
-0.441185 1.631682 -0.840585
-0.428694 1.617427 -0.833444
-0.422288 1.626911 -0.838173
-0.412990 1.624873 -0.837143
-0.403838 1.623281 -0.836337
-0.392456 1.611977 -0.830676
-0.389233 1.635924 -0.842640
-0.384815 1.655584 -0.852461
-0.376979 1.660390 -0.854857
-0.366910 1.654815 -0.852066
-0.357846 1.653761 -0.851534
-0.286825 1.380744 -0.715048
-0.275655 1.360687 -0.705020
-0.264879 1.341560 -0.695458
-0.244167 1.265922 -0.657647
-0.236082 1.258102 -0.653738
-0.228819 1.254612 -0.651995
-0.220996 1.247441 -0.648412
-0.213319 1.240669 -0.645029
-0.207950 1.248472 -0.648933
-0.201654 1.250528 -0.649964
-0.194713 1.248170 -0.648789
-0.188109 1.248053 -0.648735
-0.181277 1.246167 -0.647797
-0.174042 1.240918 -0.645178
-0.165150 1.221541 -0.635497
-0.158188 1.216988 -0.633227
-0.152722 1.225442 -0.637459
-0.146841 1.230785 -0.640137
-0.137979 1.206996 -0.628251
-0.132456 1.215614 -0.632567
-0.126983 1.225755 -0.637644
-0.118782 1.204951 -0.627251
-0.112182 1.201512 -0.625539
-0.105938 1.202342 -0.625963
-0.099568 1.201451 -0.625526
-0.093480 1.204803 -0.627210
-0.074461 1.085240 -0.567446
-0.067942 1.068033 -0.558851
-0.051911 0.939840 -0.494767
-0.046582 0.927467 -0.488588
-0.041665 0.925427 -0.487576
-0.036763 0.923100 -0.486420
-0.032060 0.931125 -0.490442
-0.027206 0.933343 -0.491559
-0.022304 0.931439 -0.490616
-0.017421 0.929326 -0.489568
-0.012532 0.934149 -0.491989
-0.007601 0.938097 -0.493973
-0.002686 0.938081 -0.493974
0.002182 0.935703 -0.492795
0.007195 0.940146 -0.495027
0.012127 0.940336 -0.495131
0.016873 0.935213 -0.492579
0.021403 0.926090 -0.488026
0.025866 0.917568 -0.483774
0.030628 0.916637 -0.483319
0.035513 0.918029 -0.484026
0.040474 0.920416 -0.485230
0.045401 0.921905 -0.485986
0.050270 0.922362 -0.486226
0.055298 0.924800 -0.487457
0.060184 0.925190 -0.487664
0.065080 0.925638 -0.487900
0.069968 0.925926 -0.488056
0.075052 0.928164 -0.489188
0.080201 0.930782 -0.490511
0.085274 0.932429 -0.491348
0.090275 0.933277 -0.491786
0.095273 0.934006 -0.492164
0.100223 0.934267 -0.492309
0.105408 0.936298 -0.493340
0.110442 0.937026 -0.493719
0.115359 0.936847 -0.493644
0.120401 0.937514 -0.493993
0.125718 0.939932 -0.495219
0.130724 0.940173 -0.495356
0.135824 0.940957 -0.495765
0.141203 0.943335 -0.496973
0.146204 0.943341 -0.496994
0.151132 0.942906 -0.496794
0.156343 0.944018 -0.497369
0.161635 0.945469 -0.498115
0.166705 0.945662 -0.498231
0.171785 0.945862 -0.498351
0.177203 0.947678 -0.499281
0.182127 0.947006 -0.498967
0.187174 0.946903 -0.498937
0.192485 0.947972 -0.499495
0.197752 0.948762 -0.499914
0.203378 0.951031 -0.501074
0.208766 0.952153 -0.501661
0.213694 0.951275 -0.501247
0.218672 0.950596 -0.500933
0.223948 0.951088 -0.501207
0.230094 0.954896 -0.503142
0.237771 0.964330 -0.507897
0.246596 0.977615 -0.514582
0.254205 0.985881 -0.518755
0.264465 1.003272 -0.527501
0.270952 1.006686 -0.529246
0.276600 1.007027 -0.529452
0.297052 1.000884 -0.526523
0.304827 1.007717 -0.529989
0.313936 1.000933 -0.526672
0.404081 1.212111 -0.632717
0.415511 1.224883 -0.639181
0.425280 1.232519 -0.643071
0.431787 1.230852 -0.642297
0.438318 1.229216 -0.641539
0.448913 1.238387 -0.646206
0.456431 1.239105 -0.646634
0.462570 1.236146 -0.645217
0.467038 1.228927 -0.641664
0.473222 1.226138 -0.640336
0.479880 1.224512 -0.639593
0.486409 1.222529 -0.638673
0.491204 1.216344 -0.635644
0.496865 1.212293 -0.633687
0.503989 1.211678 -0.633459
0.507601 1.202908 -0.629134
0.518090 1.209891 -0.632726
0.525143 1.208905 -0.632315
0.531617 1.206574 -0.631230
0.537030 1.201907 -0.628971
0.544659 1.202035 -0.629125
0.551557 1.200527 -0.628457
0.557717 1.197428 -0.626991
0.566612 1.199975 -0.628364
0.573947 1.199198 -0.628067
0.582634 1.201084 -0.629111
0.587568 1.195403 -0.626349
0.594668 1.194046 -0.625762
0.602995 1.195035 -0.626356
0.609234 1.191955 -0.624903
0.614030 1.186185 -0.622094
0.617633 1.178295 -0.618216
0.623952 1.175562 -0.616935
0.629841 1.172091 -0.615279
0.638218 1.173159 -0.615910
0.648797 1.178109 -0.618494
0.655062 1.175381 -0.617209
0.660518 1.171332 -0.615254
0.666511 1.168327 -0.613822
0.670926 1.162757 -0.611093
0.678800 1.163164 -0.611375
0.686802 1.163843 -0.611789
0.691847 1.159732 -0.609783
0.696368 1.154948 -0.607433
0.700968 1.150492 -0.605242
0.699208 1.136117 -0.598041
-0.864859 1.296327 -0.684338
-0.853316 1.291071 -0.681640
-0.846434 1.293136 -0.682659
-0.843228 1.301178 -0.686711
-0.835786 1.302762 -0.687471
-0.830497 1.307958 -0.690061
-0.823122 1.309970 -0.691026
-0.817882 1.315625 -0.693837
-0.813099 1.322234 -0.697128
-0.807533 1.327736 -0.699851
-0.800630 1.331132 -0.701499
-0.793121 1.333593 -0.702668
-0.786853 1.338290 -0.704970
-0.780744 1.343382 -0.707469
-0.775913 1.350866 -0.711182
-0.770380 1.357244 -0.714329
-0.764010 1.362218 -0.716762
-0.754567 1.361595 -0.716350
-0.747657 1.365644 -0.718311
-0.741328 1.370837 -0.720852
-0.734941 1.375982 -0.723368
-0.728695 1.381458 -0.726052
-0.721882 1.385878 -0.728201
-0.714939 1.390067 -0.730232
-0.708533 1.395360 -0.732824
-0.702757 1.401983 -0.736092
-0.695536 1.405689 -0.737881
-0.688780 1.410364 -0.740163
-0.680240 1.411263 -0.740531
-0.673655 1.416296 -0.742997
-0.668843 1.425241 -0.747448
-0.661649 1.429034 -0.749288
-0.654947 1.433928 -0.751688
-0.647011 1.436031 -0.752676
-0.641029 1.442601 -0.755929
-0.634620 1.448244 -0.758714
-0.627771 1.452889 -0.760995
-0.619291 1.453616 -0.761293
-0.611719 1.456478 -0.762675
-0.609123 1.471686 -0.770313
-0.602748 1.477702 -0.773295
-0.623418 1.553099 -0.811419
-0.615303 1.555796 -0.812722
-0.607275 1.558689 -0.814127
-0.599724 1.562842 -0.816171
-0.591202 1.564369 -0.816888
-0.584238 1.570148 -0.819760
-0.577463 1.576540 -0.822944
-0.569308 1.579085 -0.824183
-0.565099 1.593087 -0.831222
-0.554389 1.588231 -0.828719
-0.548202 1.596712 -0.832967
-0.540188 1.599795 -0.834486
-0.530280 1.596992 -0.833027
-0.520645 1.594858 -0.831909
-0.513176 1.599537 -0.834241
-0.507076 1.608791 -0.838890
-0.485533 1.566645 -0.817532
-0.481283 1.581750 -0.825145
-0.468526 1.567806 -0.818061
-0.472312 1.611809 -0.840298
-0.467135 1.625110 -0.847001
-0.460009 1.631686 -0.850304
-0.446667 1.615081 -0.841881
-0.434802 1.603373 -0.835938
-0.424747 1.598182 -0.833293
-0.415994 1.597909 -0.833137
-0.411324 1.614268 -0.841395
-0.400331 1.604824 -0.836603
-0.394390 1.616512 -0.842502
-0.392646 1.647090 -0.857956
-0.388301 1.667395 -0.868215
-0.379313 1.667277 -0.868145
-0.359364 1.657274 -0.863068
-0.345955 1.634717 -0.851652
-0.235062 1.249347 -0.656721
-0.226838 1.240008 -0.651997
-0.217518 1.223353 -0.643573
-0.209490 1.213684 -0.638683
-0.206345 1.235122 -0.649527
-0.193245 1.235001 -0.649470
-0.185277 1.224586 -0.644205
-0.180035 1.233889 -0.648914
-0.171560 1.218500 -0.641134
-0.163552 1.205589 -0.634608
-0.156338 1.198276 -0.630914
-0.149546 1.194049 -0.628780
-0.144076 1.201831 -0.632722
-0.137327 1.197713 -0.630645
-0.129908 1.186085 -0.624769
-0.123827 1.187917 -0.625702
-0.118186 1.195113 -0.629350
-0.111735 1.193074 -0.628325
-0.104378 1.178561 -0.620991
-0.097904 1.174571 -0.618981
-0.090561 1.156328 -0.609760
-0.083997 1.148065 -0.605589
-0.074553 1.084334 -0.573358
-0.068666 1.080434 -0.571393
-0.052202 0.945201 -0.502997
-0.046688 0.928382 -0.494496
-0.041621 0.921439 -0.490991
-0.036871 0.925542 -0.493075
-0.032147 0.933713 -0.497217
-0.027333 0.941379 -0.501104
-0.022345 0.934422 -0.497593
-0.017454 0.948362 -0.504655
-0.012493 0.943650 -0.502280
-0.007530 0.944497 -0.502717
-0.002547 0.946163 -0.503570
0.002399 0.945047 -0.503015
0.007334 0.943923 -0.502456
0.012317 0.944781 -0.502900
0.017086 0.939350 -0.500162
0.021359 0.923139 -0.491969
0.025839 0.915121 -0.487922
0.030739 0.916901 -0.488834
0.035643 0.918429 -0.489618
0.040574 0.920119 -0.490484
0.045469 0.920990 -0.490936
0.050364 0.921716 -0.491315
0.055291 0.922749 -0.491850
0.060297 0.924590 -0.492794
0.065199 0.925013 -0.493021
0.070067 0.925004 -0.493029
0.075264 0.928317 -0.494719
0.080361 0.930313 -0.495743
0.085409 0.931654 -0.496435
0.090382 0.932197 -0.496724
0.095510 0.933963 -0.497633
0.100605 0.935294 -0.498321
0.105557 0.935398 -0.498390
0.110561 0.935856 -0.498637
0.115705 0.937253 -0.499361
0.120836 0.938439 -0.499978
0.125788 0.938333 -0.499941
0.130888 0.939153 -0.500374
0.136204 0.941233 -0.501445
0.141493 0.942987 -0.502352
0.146454 0.942706 -0.502229
0.151441 0.942560 -0.502175
0.156645 0.943579 -0.502711
0.161955 0.945073 -0.503489
0.167259 0.946421 -0.504193
0.172447 0.947083 -0.504551
0.177620 0.947608 -0.504839
0.182519 0.946760 -0.504434
0.187393 0.945806 -0.503975
0.192994 0.948163 -0.505194
0.198281 0.948978 -0.505633
0.203667 0.950146 -0.506251
0.208983 0.950926 -0.506674
0.214067 0.950671 -0.506573
0.219106 0.950208 -0.506368
0.224584 0.951455 -0.507030
0.230226 0.953247 -0.507969
0.238700 0.965670 -0.514298
0.245425 0.971038 -0.517053
0.252871 0.978774 -0.521009
0.275273 1.019533 -0.541748
0.285922 1.036777 -0.550532
0.302529 1.073434 -0.569162
0.293906 1.006517 -0.535313
0.298800 1.004163 -0.534164
0.311181 1.025335 -0.544949
0.312859 1.012701 -0.538588
0.310223 0.987360 -0.525780
0.401526 1.201924 -0.634825
0.412862 1.214513 -0.641279
0.420181 1.215411 -0.641803
0.425827 1.211603 -0.639938
0.433872 1.214314 -0.641386
0.437927 1.206239 -0.637358
0.447183 1.211953 -0.640335
0.456329 1.217121 -0.643037
0.462577 1.214679 -0.641875
0.468910 1.212433 -0.640815
0.476704 1.213768 -0.641577
0.483055 1.211461 -0.640490
0.488785 1.207644 -0.638637
0.494816 1.204553 -0.637154
0.500196 1.199942 -0.634901
0.506247 1.196910 -0.633451
0.513805 1.197282 -0.633734
0.520899 1.196514 -0.633440
0.527652 1.194927 -0.632731
0.535755 1.196227 -0.633492
0.542054 1.193538 -0.632225
0.547387 1.188792 -0.629912
0.556114 1.191168 -0.631226
0.561268 1.186046 -0.628724
0.570689 1.189648 -0.630664
0.576661 1.186166 -0.628999
0.583072 1.183573 -0.627787
0.591026 1.183995 -0.628111
0.599025 1.184435 -0.628445
0.605648 1.182187 -0.627410
0.611029 1.177613 -0.625187
0.615545 1.171504 -0.622182
0.621222 1.167645 -0.620321
0.630293 1.170013 -0.621635
0.635255 1.164947 -0.619156
0.643841 1.166417 -0.620009
0.648564 1.161099 -0.617396
0.652898 1.155252 -0.614509
0.660983 1.155984 -0.614976
0.668490 1.155764 -0.614954
0.674350 1.152850 -0.613552
0.681735 1.152590 -0.613501
0.689167 1.152492 -0.613527
0.694668 1.149358 -0.611997
0.699134 1.144732 -0.609698
0.705068 1.142643 -0.608688
-0.899656 1.346241 -0.718485
-0.857935 1.294970 -0.692039
-0.846343 1.289757 -0.689314
-0.840712 1.293953 -0.691429
-0.839108 1.304762 -0.696942
-0.832473 1.307831 -0.698460
-0.824121 1.308280 -0.698622
-0.818183 1.312787 -0.700867
-0.813949 1.320293 -0.704650
-0.808179 1.325448 -0.707216
-0.803073 1.331895 -0.710442
-0.797814 1.338257 -0.713620
-0.788438 1.337640 -0.713202
-0.782297 1.342695 -0.715699
-0.776131 1.347819 -0.718229
-0.770764 1.354485 -0.721549
-0.764757 1.360118 -0.724336
-0.758695 1.365748 -0.727119
-0.749637 1.365877 -0.727073
-0.743276 1.371045 -0.729617
-0.737056 1.376548 -0.732333
-0.732398 1.385146 -0.736639
-0.723946 1.386434 -0.737189
-0.716067 1.388811 -0.738299
-0.710957 1.396735 -0.742259
-0.704328 1.401672 -0.744686
-0.696863 1.404911 -0.746242
-0.690418 1.410272 -0.748889
-0.683883 1.415480 -0.751459
-0.678410 1.423008 -0.755221
-0.671263 1.426979 -0.757159
-0.662671 1.427749 -0.757456
-0.656347 1.433519 -0.760321
-0.649801 1.438832 -0.762954
-0.642989 1.443568 -0.765292
-0.636381 1.448804 -0.767889
-0.628841 1.451862 -0.769372
-0.622797 1.458499 -0.772692
-0.615842 1.462994 -0.774915
-0.610113 1.470549 -0.778709
-0.603018 1.474781 -0.780802
-0.620337 1.541445 -0.814896
-0.616887 1.556132 -0.822349
-0.610579 1.563623 -0.826115
-0.599982 1.559752 -0.824062
-0.592964 1.565383 -0.826879
-0.585578 1.570067 -0.829214
-0.578043 1.574376 -0.831359
-0.570422 1.578472 -0.833397
-0.562383 1.581386 -0.834833
-0.556232 1.589868 -0.839121
-0.548481 1.593731 -0.841047
-0.540835 1.597950 -0.843156
-0.531950 1.598373 -0.843324
-0.524505 1.603261 -0.845781
-0.514169 1.598931 -0.843520
-0.515554 1.632749 -0.860792
-0.470797 1.542355 -0.814437
-0.471660 1.574958 -0.831092
-0.472071 1.607154 -0.847540
-0.468753 1.627109 -0.857722
-0.456208 1.613872 -0.850917
-0.443418 1.599093 -0.843324
-0.432908 1.592350 -0.839846
-0.414862 1.555773 -0.821101
-0.413247 1.583185 -0.835108
-0.405857 1.588156 -0.837631
-0.401509 1.605987 -0.846736
-0.395541 1.617648 -0.852686
-0.389735 1.630502 -0.859246
-0.385372 1.650376 -0.869401
-0.380853 1.670450 -0.879659
-0.371274 1.667659 -0.878217
-0.359895 1.655970 -0.872223
-0.346897 1.635575 -0.861776
-0.331306 1.600803 -0.843974
-0.321852 1.596152 -0.841587
-0.257305 1.332875 -0.706859
-0.245547 1.306321 -0.693267
-0.215915 1.210756 -0.644363
-0.206966 1.194994 -0.636297
-0.199015 1.184600 -0.630978
-0.192230 1.181274 -0.629276
-0.186333 1.183874 -0.630607
-0.176452 1.204003 -0.640909
-0.169997 1.203392 -0.640599
-0.162022 1.190234 -0.633869
-0.155326 1.186811 -0.632121
-0.148590 1.182683 -0.630012
-0.140873 1.168873 -0.622950
-0.135471 1.176522 -0.626869
-0.128756 1.171265 -0.624184
-0.122578 1.171309 -0.624212
-0.116376 1.171048 -0.624084
-0.110302 1.172322 -0.624742
-0.103089 1.158500 -0.617676
-0.096430 1.150542 -0.613611
-0.089655 1.139443 -0.607938
-0.083194 1.131673 -0.603969
-0.075177 1.093338 -0.584359
-0.068875 1.082110 -0.578621
-0.046880 0.931926 -0.501785
-0.041768 0.924443 -0.497963
-0.036973 0.927682 -0.499628
-0.032079 0.927087 -0.499332
-0.027180 0.925419 -0.498486
-0.022315 0.926299 -0.498945
-0.017455 0.939849 -0.505889
-0.012490 0.944558 -0.508308
-0.007499 0.946704 -0.509416
-0.002501 0.947799 -0.509986
0.002480 0.947447 -0.509815
0.007408 0.945130 -0.508640
0.012401 0.945726 -0.508955
0.017208 0.940924 -0.506507
0.021685 0.929270 -0.500552
0.025992 0.916553 -0.494052
0.030852 0.917207 -0.494398
0.035776 0.918860 -0.495255
0.040677 0.919846 -0.495771
0.045565 0.920465 -0.496100
0.050512 0.921808 -0.496800
0.055461 0.922973 -0.497409
0.060445 0.924388 -0.498146
0.065404 0.925346 -0.498649
0.070381 0.926371 -0.499187
0.075349 0.927174 -0.499612
0.080562 0.930234 -0.501194
0.085551 0.930932 -0.501565
0.090556 0.931681 -0.501964
0.095846 0.934731 -0.503541
0.100914 0.935723 -0.504065
0.105768 0.934966 -0.503694
0.110724 0.935006 -0.503731
0.115948 0.936919 -0.504728
0.121108 0.938230 -0.505417
0.126031 0.937863 -0.505248
0.131154 0.938773 -0.505732
0.136531 0.941163 -0.506977
0.141691 0.942078 -0.507465
0.146674 0.941882 -0.507385
0.151660 0.941688 -0.507308
0.156961 0.943197 -0.508103
0.162416 0.945405 -0.509257
0.167537 0.945736 -0.509450
0.172833 0.946897 -0.510069
0.178014 0.947407 -0.510355
0.182941 0.946640 -0.509989
0.188116 0.947031 -0.510215
0.193417 0.947936 -0.510707
0.198528 0.947927 -0.510731
0.203711 0.948184 -0.510891
0.209093 0.949236 -0.511461
0.214446 0.950079 -0.511925
0.219728 0.950555 -0.512201
0.225138 0.951476 -0.512706
0.230700 0.952902 -0.513472
0.240346 0.969697 -0.522120
0.247185 0.975347 -0.525055
0.255511 0.986131 -0.530625
0.265634 1.002853 -0.539243
0.275633 1.018446 -0.547284
0.287255 1.038960 -0.557852
0.297435 1.053801 -0.565513
0.302510 1.013655 -0.545061
0.312285 1.026404 -0.551656
0.313302 1.011702 -0.544163
0.398140 1.189360 -0.635624
0.407326 1.195991 -0.639101
0.414285 1.196130 -0.639247
0.420463 1.194043 -0.638251
0.427789 1.195033 -0.638839
0.434492 1.194254 -0.638519
0.442534 1.196913 -0.639969
0.449801 1.197411 -0.640310
0.458531 1.201516 -0.642508
0.460293 1.188004 -0.635651
0.473317 1.202517 -0.643206
0.480704 1.202844 -0.643469
0.487191 1.200921 -0.642577
0.492225 1.195537 -0.639907
0.498844 1.193895 -0.639164
0.504642 1.190328 -0.637431
0.508030 1.181328 -0.632905
0.514094 1.178444 -0.631526
0.522250 1.180144 -0.632511
0.531985 1.185130 -0.635189
0.537992 1.181927 -0.633653
0.543700 1.178096 -0.631795
0.547734 1.170799 -0.628151
0.552698 1.165525 -0.625550
0.559849 1.164743 -0.625265
0.573236 1.176378 -0.631384
0.577195 1.169035 -0.627719
0.586535 1.172302 -0.629525
0.592915 1.169731 -0.628322
0.601570 1.171494 -0.629354
0.605644 1.164573 -0.625905
0.613231 1.164294 -0.625883
0.619599 1.161758 -0.624694
0.623757 1.155266 -0.621461
0.637068 1.165279 -0.626750
0.638667 1.154365 -0.621227
0.644907 1.151816 -0.620023
0.649704 1.146857 -0.617569
0.657880 1.147807 -0.618165
0.664401 1.145987 -0.617324
0.669797 1.142387 -0.615558
0.677020 1.141947 -0.615421
0.686769 1.145721 -0.617458
0.692903 1.143665 -0.616473
0.698340 1.140640 -0.614979
0.708117 1.144661 -0.617124
-0.900041 1.343461 -0.725832
-0.867792 1.306881 -0.706710
-0.851322 1.294242 -0.700071
-0.844744 1.297010 -0.701460
-0.840328 1.303390 -0.704724
-0.832958 1.305286 -0.705640
-0.827131 1.309822 -0.707925
-0.819212 1.311122 -0.708515
-0.814186 1.317310 -0.711647
-0.809581 1.324401 -0.715243
-0.804949 1.331656 -0.718918
-0.801155 1.340544 -0.723438
-0.792329 1.340945 -0.723530
-0.783720 1.341741 -0.723826
-0.776688 1.345346 -0.725581
-0.770148 1.349904 -0.727830
-0.765646 1.358244 -0.732046
-0.758503 1.361894 -0.733818
-0.751820 1.366441 -0.736056
-0.744903 1.370604 -0.738093
-0.739778 1.378226 -0.741929
-0.734236 1.385163 -0.745407
-0.726614 1.388124 -0.746819
-0.719635 1.392353 -0.748890
-0.713233 1.397759 -0.751574
-0.706300 1.402131 -0.753721
-0.699644 1.407091 -0.756175
-0.691919 1.409845 -0.757485
-0.685742 1.415850 -0.760485
-0.678896 1.420471 -0.762768
-0.671684 1.424312 -0.764648
-0.663104 1.425126 -0.764958
-0.656849 1.431058 -0.767929
-0.651061 1.438099 -0.771477
-0.643853 1.441960 -0.773377
-0.636454 1.445372 -0.775045
-0.629441 1.449681 -0.777182
-0.622949 1.455255 -0.779978
-0.617954 1.464530 -0.784696
-0.610889 1.468844 -0.786843
-0.603423 1.472169 -0.788479
-0.614899 1.523791 -0.815166
-0.617395 1.553631 -0.830555
-0.611042 1.561015 -0.834299
-0.602393 1.562384 -0.834928
-0.594255 1.565071 -0.836242
-0.586948 1.570024 -0.838734
-0.579206 1.573810 -0.840623
-0.570310 1.574327 -0.840821
-0.564757 1.584432 -0.845991
-0.556847 1.587836 -0.847689
-0.549352 1.592498 -0.850043
-0.541538 1.596245 -0.851924
-0.534297 1.601802 -0.854746
-0.525173 1.601522 -0.854546
-0.518777 1.609893 -0.858830
-0.513504 1.622145 -0.865126
-0.471922 1.572112 -0.839076
-0.472553 1.605028 -0.856082
-0.468229 1.621357 -0.864500
-0.460252 1.624871 -0.866283
-0.441249 1.587189 -0.846736
-0.421459 1.544843 -0.824777
-0.412713 1.543707 -0.824159
-0.410991 1.570449 -0.837978
-0.412804 1.612711 -0.859832
-0.402087 1.604605 -0.855611
-0.396671 1.618654 -0.862861
-0.388196 1.619947 -0.863508
-0.381637 1.670113 -0.889439
-0.368693 1.651623 -0.879850
-0.359071 1.648116 -0.878018
-0.348385 1.639092 -0.873333
-0.337541 1.628721 -0.867952
-0.320683 1.586305 -0.845984
-0.247281 1.313141 -0.704563
-0.238525 1.302903 -0.699259
-0.203968 1.173400 -0.632219
-0.197642 1.172915 -0.631966
-0.191216 1.171695 -0.631332
-0.184696 1.169694 -0.630295
-0.177248 1.160799 -0.625691
-0.174974 1.190065 -0.640839
-0.166386 1.172282 -0.631636
-0.160172 1.172325 -0.631659
-0.154057 1.173186 -0.632107
-0.145554 1.152746 -0.621530
-0.139115 1.149624 -0.619917
-0.133064 1.149969 -0.620099
-0.127629 1.156752 -0.623614
-0.121095 1.152183 -0.621254
-0.115098 1.153308 -0.621841
-0.108000 1.140809 -0.615376
-0.102309 1.145316 -0.617715
-0.095957 1.140991 -0.615482
-0.089168 1.129137 -0.609353
-0.082509 1.117335 -0.603250
-0.075877 1.103698 -0.596198
-0.068961 1.081231 -0.584575
-0.046619 0.921571 -0.501945
-0.041723 0.920377 -0.501334
-0.036894 0.921660 -0.502006
-0.032058 0.923192 -0.502807
-0.027194 0.923787 -0.503123
-0.022324 0.924312 -0.503403
-0.017465 0.939006 -0.511019
-0.012497 0.942876 -0.513032
-0.007496 0.945809 -0.514560
-0.002471 0.948303 -0.515860
0.002546 0.949040 -0.516252
0.007476 0.946042 -0.514709
0.012424 0.944635 -0.513991
0.017250 0.940232 -0.511722
0.021516 0.923234 -0.502931
0.026042 0.915742 -0.499062
0.030952 0.917255 -0.499857
0.035910 0.919298 -0.500926
0.040776 0.919510 -0.501048
0.045732 0.920995 -0.501829
0.050706 0.922515 -0.502628
0.055677 0.923765 -0.503289
0.060656 0.924948 -0.503914
0.065659 0.926234 -0.504594
0.070591 0.926600 -0.504798
0.075575 0.927437 -0.505246
0.080727 0.929788 -0.506478
0.085735 0.930578 -0.506903
0.090868 0.932357 -0.507840
0.096178 0.935438 -0.509453
0.101074 0.934937 -0.509210
0.105920 0.934067 -0.508776
0.110943 0.934550 -0.509044
0.116251 0.936990 -0.510327
0.121356 0.937842 -0.510787
0.126477 0.938719 -0.511261
0.131535 0.939107 -0.511483
0.136625 0.939640 -0.511780
0.141836 0.940835 -0.512421
0.146974 0.941510 -0.512792
0.152178 0.942483 -0.513320
0.157389 0.943408 -0.513823
0.162465 0.943538 -0.513915
0.167609 0.943976 -0.514168
0.172959 0.945394 -0.514929
0.178212 0.946229 -0.515389
0.183402 0.946688 -0.515655
0.188291 0.945695 -0.515169
0.193348 0.945474 -0.515084
0.198962 0.947683 -0.516261
0.204197 0.948116 -0.516518
0.209225 0.947623 -0.516295
0.214897 0.949760 -0.517437
0.220036 0.949617 -0.517399
0.225532 0.950846 -0.518072
0.231147 0.952435 -0.518935
0.240412 0.967712 -0.526899
0.250448 0.985178 -0.536002
0.259633 0.998810 -0.543118
0.268406 1.010392 -0.549173
0.276485 1.019055 -0.553716
0.282056 1.018751 -0.553608
0.283833 1.005658 -0.546862
0.284766 0.990208 -0.538893
0.310953 1.002111 -0.545294
0.315263 0.997934 -0.543184
0.394923 1.177310 -0.636574
0.403939 1.183588 -0.639915
0.412372 1.187967 -0.642272
0.416397 1.180079 -0.638257
0.421453 1.175127 -0.635769
0.427749 1.173529 -0.635027
0.436854 1.179224 -0.638079
0.439039 1.166886 -0.631755
0.449643 1.176131 -0.636659
0.456379 1.175374 -0.636364
0.463779 1.176180 -0.636884
0.472336 1.179673 -0.638805
0.475523 1.170172 -0.633966
0.485558 1.176947 -0.637602
0.495000 1.182065 -0.640378
0.501049 1.179199 -0.638999
0.503909 1.169140 -0.633876
0.509987 1.166416 -0.632575
0.519222 1.170595 -0.634873
0.526124 1.169531 -0.634441
0.532482 1.167250 -0.633377
0.538265 1.163736 -0.631671
0.543902 1.159931 -0.629815
0.550072 1.157239 -0.628540
0.557337 1.156754 -0.628418
0.564716 1.156437 -0.628385
0.571296 1.154488 -0.627501
0.577400 1.151599 -0.626127
0.585054 1.151701 -0.626315
0.592177 1.150743 -0.625949
0.598168 1.147645 -0.624465
0.606764 1.149403 -0.625517
0.612844 1.146492 -0.624129
0.619566 1.144791 -0.623371
0.625956 1.142527 -0.622316
0.634990 1.144976 -0.623723
0.640877 1.141896 -0.622236
0.648565 1.142010 -0.622415
0.651611 1.134251 -0.618471
0.656114 1.129163 -0.615918
0.662297 1.127039 -0.614910
0.671157 1.129436 -0.616264
0.679791 1.131494 -0.617434
0.689095 1.134680 -0.619189
0.695202 1.132803 -0.618283
0.700330 1.129531 -0.616639
-0.907765 1.351823 -0.739073
-0.896770 1.348042 -0.737033
-0.854050 1.295192 -0.709061
-0.847898 1.298650 -0.710825
-0.841295 1.301595 -0.712308
-0.836612 1.307785 -0.715494
-0.828461 1.308610 -0.715839
-0.822647 1.313358 -0.718246
-0.815810 1.316597 -0.719848
-0.810658 1.322782 -0.722999
-0.806415 1.330689 -0.727051
-0.801859 1.338276 -0.730928
-0.794251 1.340791 -0.732123
-0.786167 1.342540 -0.732910
-0.777809 1.343843 -0.733459
-0.770894 1.347739 -0.735372
-0.765157 1.353837 -0.738444
-0.759703 1.360567 -0.741845
-0.753781 1.366546 -0.744850
-0.747621 1.372169 -0.747665
-0.742679 1.380189 -0.751742
-0.734331 1.381772 -0.752428
-0.728315 1.387871 -0.755493
-0.721006 1.391483 -0.757250
-0.714764 1.397239 -0.760135
-0.707773 1.401528 -0.762250
-0.700246 1.404730 -0.763794
-0.695320 1.413337 -0.768183
-0.685984 1.412751 -0.767739
-0.678696 1.416427 -0.769539
-0.671984 1.421347 -0.771994
-0.664990 1.425670 -0.774139
-0.659659 1.433714 -0.778241
-0.650639 1.433517 -0.778015
-0.643810 1.438233 -0.780373
-0.636407 1.441631 -0.782042
-0.629407 1.445966 -0.784206
-0.623417 1.452738 -0.787652
-0.618153 1.461359 -0.792071
-0.610629 1.464545 -0.793639
-0.604298 1.470704 -0.796771
-0.613797 1.517210 -0.821078
-0.616389 1.547191 -0.836712
-0.611701 1.558889 -0.842753
-0.603674 1.561947 -0.844264
-0.594565 1.562061 -0.844234
-0.589349 1.572772 -0.849765
-0.581679 1.576864 -0.851827
-0.572456 1.576574 -0.851594
-0.563060 1.575665 -0.851039
-0.558168 1.587845 -0.857351
-0.550260 1.591335 -0.859108
-0.543252 1.597577 -0.862311
-0.535667 1.602154 -0.864643
-0.525927 1.600019 -0.863460
-0.516857 1.599854 -0.863313
-0.510717 1.609145 -0.868124
-0.491888 1.576548 -0.850987
-0.477385 1.557268 -0.840833
-0.475013 1.578999 -0.852170
-0.466104 1.578508 -0.851866
-0.467629 1.615326 -0.871109
-0.461422 1.625266 -0.876273
-0.452026 1.623628 -0.875374
-0.426625 1.560848 -0.842450
-0.418412 1.562211 -0.843129
-0.428686 1.637084 -0.882312
-0.412276 1.606734 -0.866383
-0.408095 1.625772 -0.876324
-0.396368 1.613527 -0.869882
-0.383359 1.633620 -0.880353
-0.372986 1.626638 -0.876674
-0.371723 1.661912 -0.895123
-0.356604 1.632366 -0.879632
-0.350690 1.646593 -0.887063
-0.336329 1.618733 -0.872459
-0.326243 1.611528 -0.868671
-0.239273 1.304223 -0.707729
-0.229681 1.288389 -0.699432
-0.197120 1.166779 -0.635752
-0.189380 1.156635 -0.630438
-0.182024 1.148375 -0.626110
-0.175847 1.147953 -0.625887
-0.169564 1.146674 -0.625217
-0.164630 1.155793 -0.629990
-0.158828 1.158605 -0.631463
-0.152402 1.156314 -0.630264
-0.144844 1.143686 -0.623654
-0.137679 1.133444 -0.618293
-0.131669 1.133500 -0.618326
-0.125903 1.136062 -0.619670
-0.120197 1.139557 -0.621503
-0.113848 1.135947 -0.619617
-0.107918 1.137056 -0.620202
-0.101375 1.130123 -0.616577
-0.095022 1.124842 -0.613818
-0.088720 1.119450 -0.611001
-0.082520 1.114800 -0.608572
-0.075217 1.088752 -0.594940
-0.069552 1.090706 -0.595970
-0.046627 0.919453 -0.506321
-0.041761 0.919368 -0.506283
-0.036912 0.919957 -0.506599
-0.032067 0.921129 -0.507220
-0.027210 0.922328 -0.507856
-0.022348 0.924669 -0.509090
-0.017474 0.937049 -0.515582
-0.012499 0.942303 -0.518342
-0.007491 0.945085 -0.519808
-0.002456 0.947784 -0.521231
0.002582 0.949160 -0.521962
0.007538 0.946688 -0.520677
0.012513 0.945695 -0.520167
0.017284 0.939291 -0.516824
0.021600 0.923394 -0.508509
0.026088 0.914837 -0.504038
0.030998 0.916223 -0.504775
0.035966 0.918348 -0.505900
0.040906 0.919645 -0.506592
0.045828 0.920463 -0.507033
0.050829 0.922219 -0.507965
0.055834 0.923784 -0.508799
0.060849 0.925259 -0.509585
0.065857 0.926457 -0.510227
0.070837 0.927206 -0.510634
0.075885 0.928537 -0.511346
0.080798 0.928428 -0.511305
0.085924 0.930251 -0.512276
0.091066 0.932021 -0.513220
0.096137 0.933028 -0.513764
0.101145 0.933433 -0.513994
0.106104 0.933401 -0.513996
0.111384 0.935710 -0.515225
0.116542 0.936958 -0.515899
0.121583 0.937292 -0.516094
0.126693 0.938036 -0.516504
0.131710 0.938114 -0.516567
0.136700 0.937989 -0.516524
0.141899 0.939094 -0.517126
0.147334 0.941465 -0.518393
0.152585 0.942632 -0.519029
0.157666 0.942781 -0.519133
0.162622 0.942228 -0.518870
0.167737 0.942489 -0.519034
0.173068 0.943789 -0.519744
0.178626 0.946085 -0.520977
0.183658 0.945740 -0.520827
0.188815 0.945955 -0.520971
0.194291 0.947561 -0.521845
0.199714 0.948819 -0.522539
0.204839 0.948700 -0.522511
0.210273 0.949844 -0.523148
0.214914 0.947641 -0.522029
0.220308 0.948515 -0.522526
0.225622 0.949000 -0.522820
0.231870 0.953011 -0.524966
0.243412 0.976777 -0.537481
0.249573 0.979651 -0.539034
0.259833 0.997203 -0.548294
0.268456 1.008209 -0.554120
0.273361 1.005795 -0.552905
0.280374 1.010616 -0.555489
0.282228 0.997918 -0.548876
0.283558 0.983902 -0.541572
0.292406 0.994622 -0.547259
0.301213 1.004775 -0.552651
0.306044 1.002118 -0.551317
0.311416 1.001148 -0.550871
0.316546 0.999421 -0.550029
0.376453 1.140432 -0.624280
0.391684 1.165221 -0.637392
0.398080 1.164249 -0.636968
0.404504 1.163310 -0.636563
0.411645 1.164275 -0.637161
0.416586 1.159225 -0.634598
0.425939 1.165906 -0.638209
0.431274 1.161843 -0.636171
0.437313 1.159624 -0.635104
0.443141 1.156852 -0.633750
0.454187 1.167048 -0.639224
0.461014 1.166525 -0.639059
0.461680 1.151056 -0.631026
0.469874 1.153854 -0.632614
0.481057 1.163489 -0.637808
0.488079 1.163144 -0.637747
0.489332 1.149576 -0.630721
0.497884 1.152696 -0.632491
0.505637 1.153871 -0.633239
0.512024 1.151942 -0.632353
0.516319 1.145468 -0.629071
0.524630 1.147627 -0.630345
0.535009 1.153982 -0.633837
0.541193 1.151403 -0.632616
0.541258 1.136315 -0.624793
0.554295 1.147698 -0.630946
0.561646 1.147401 -0.630934
0.567140 1.143398 -0.628965
0.573006 1.140154 -0.627398
0.579137 1.137447 -0.626113
0.586061 1.136252 -0.625628
0.593436 1.135889 -0.625583
0.599913 1.133840 -0.624645
0.607538 1.133906 -0.624824
0.613742 1.131393 -0.623638
0.621655 1.131970 -0.624084
0.626452 1.127057 -0.621620
0.637247 1.132688 -0.624737
0.642482 1.128664 -0.622736
0.647741 1.124807 -0.620818
0.651572 1.118681 -0.617693
0.658150 1.117307 -0.617078
0.665022 1.116514 -0.616765
0.673584 1.118566 -0.617953
0.683327 1.122565 -0.620165
0.690996 1.123281 -0.620630
0.687922 1.107170 -0.612160
-0.917809 1.363636 -0.754316
-0.896711 1.344536 -0.744051
-0.855567 1.294240 -0.717090
-0.851451 1.300877 -0.720570
-0.845748 1.305279 -0.722842
-0.836902 1.304881 -0.722537
-0.831841 1.310674 -0.725532
-0.824838 1.313523 -0.726943
-0.818335 1.317333 -0.728860
-0.812092 1.321726 -0.731080
-0.806753 1.327789 -0.734185
-0.800567 1.332583 -0.736605
-0.796946 1.341930 -0.741450
-0.790595 1.346747 -0.743871
-0.780571 1.345197 -0.742889
-0.773080 1.348115 -0.744289
-0.766599 1.352900 -0.746682
-0.761254 1.359844 -0.750225
-0.756056 1.367186 -0.753977
-0.750459 1.373908 -0.757397
-0.742671 1.376572 -0.758653
-0.736724 1.382772 -0.761793
-0.727975 1.383595 -0.762069
-0.722200 1.390222 -0.765437
-0.715215 1.394515 -0.767563
-0.708908 1.400196 -0.770429
-0.701959 1.404613 -0.772624
-0.694752 1.408507 -0.774543
-0.686184 1.409533 -0.774937
-0.678619 1.412622 -0.776432
-0.672336 1.418462 -0.779392
-0.668455 1.429632 -0.785190
-0.661058 1.433166 -0.786929
-0.651979 1.432889 -0.786644
-0.643856 1.434679 -0.787462
-0.636697 1.438646 -0.789441
-0.629538 1.442616 -0.791423
-0.622736 1.447439 -0.793863
-0.616441 1.453521 -0.796973
-0.610099 1.459557 -0.800063
-0.606140 1.471618 -0.806354
-0.610488 1.505013 -0.823975
-0.617673 1.546633 -0.845961
-0.610856 1.552793 -0.849122
-0.604061 1.559092 -0.852360
-0.597305 1.565582 -0.855703
-0.589204 1.568478 -0.857141
-0.582030 1.573945 -0.859947
-0.574804 1.579335 -0.862714
-0.565933 1.580060 -0.863011
-0.557185 1.581066 -0.863460
-0.551449 1.590972 -0.868631
-0.543822 1.595391 -0.870896
-0.536489 1.600773 -0.873674
-0.527528 1.601139 -0.873796
-0.516439 1.594624 -0.870272
-0.508824 1.599075 -0.872566
-0.491659 1.571961 -0.858130
-0.487961 1.589193 -0.867204
-0.477924 1.585192 -0.865027
-0.469964 1.588230 -0.866582
-0.462051 1.591474 -0.868250
-0.463477 1.628849 -0.888005
-0.453029 1.623456 -0.885100
-0.441901 1.615173 -0.880666
-0.441979 1.649974 -0.899061
-0.424233 1.615495 -0.880754
-0.419148 1.630753 -0.888799
-0.408614 1.624035 -0.885204
-0.402081 1.633911 -0.890402
-0.391455 1.626405 -0.886394
-0.368054 1.600282 -0.872501
-0.359696 1.643304 -0.895238
-0.350195 1.640246 -0.893596
-0.343407 1.650670 -0.899096
-0.333707 1.646490 -0.896863
-0.329483 1.671286 -0.909977
-0.319000 1.663038 -0.905593
-0.229516 1.284336 -0.705013
-0.218564 1.258933 -0.691553
-0.187141 1.138926 -0.627993
-0.181133 1.139473 -0.628278
-0.174384 1.134700 -0.625747
-0.168018 1.132385 -0.624519
-0.162752 1.138417 -0.627711
-0.156466 1.136640 -0.626768
-0.150297 1.135673 -0.626256
-0.144655 1.139277 -0.628165
-0.136951 1.123944 -0.620046
-0.130060 1.114980 -0.615301
-0.124794 1.121851 -0.618941
-0.119160 1.125455 -0.620852
-0.112250 1.114603 -0.615109
-0.105762 1.107553 -0.611379
-0.099913 1.107972 -0.611605
-0.093621 1.102090 -0.608495
-0.088387 1.111579 -0.613525
-0.082621 1.113781 -0.614697
-0.075092 1.083767 -0.598808
-0.068696 1.070471 -0.591774
-0.046799 0.922322 -0.513338
-0.041850 0.920189 -0.512215
-0.036981 0.920599 -0.512439
-0.032110 0.921070 -0.512696
-0.027233 0.921474 -0.512917
-0.022355 0.922258 -0.513340
-0.017486 0.937310 -0.521321
-0.012501 0.941914 -0.523768
-0.007477 0.945354 -0.525600
-0.002445 0.946987 -0.526474
0.002575 0.947056 -0.526520
0.007561 0.945799 -0.525865
0.012512 0.943787 -0.524810
0.017310 0.938099 -0.521808
0.021587 0.921181 -0.512857
0.026212 0.915622 -0.509924
0.031084 0.915948 -0.510108
0.036061 0.918063 -0.511241
0.041004 0.919253 -0.511883
0.045952 0.920310 -0.512457
0.050986 0.922385 -0.513569
0.055975 0.923594 -0.514223
0.061001 0.925066 -0.515018
0.066049 0.926594 -0.515842
0.071088 0.927841 -0.516518
0.076087 0.928528 -0.516898
0.081059 0.928874 -0.517097
0.086050 0.929338 -0.517360
0.091157 0.930749 -0.518125
0.096197 0.931453 -0.518516
0.101191 0.931714 -0.518673
0.106407 0.933629 -0.519708
0.111557 0.934882 -0.520392
0.116615 0.935370 -0.520671
0.121725 0.936152 -0.521107
0.126839 0.936880 -0.521515
0.131954 0.937547 -0.521892
0.137010 0.937772 -0.522035
0.142157 0.938498 -0.522444
0.147442 0.939952 -0.523241
0.152692 0.941084 -0.523867
0.157930 0.942063 -0.524414
0.163028 0.942214 -0.524523
0.168260 0.943018 -0.524978
0.174141 0.946976 -0.527108
0.179221 0.946805 -0.527049
0.184211 0.946182 -0.526751
0.189139 0.945273 -0.526303
0.194477 0.946213 -0.526837
0.200149 0.948541 -0.528108
0.205587 0.949713 -0.528767
0.210546 0.948788 -0.528315
0.215574 0.948144 -0.528014
0.220357 0.946504 -0.527185
0.226051 0.948470 -0.528272
0.233729 0.957925 -0.533335
0.244719 0.979407 -0.544784
0.254524 0.995601 -0.553430
0.253416 0.971683 -0.540784
0.259908 0.975566 -0.542897
0.272820 1.001543 -0.556746
0.278350 1.001333 -0.556692
0.283439 0.999600 -0.555831
0.286639 0.991676 -0.551683
0.293095 0.994477 -0.553233
0.302468 1.006350 -0.559606
0.309486 1.010423 -0.561839
0.311538 0.999122 -0.555902
0.388299 1.152737 -0.637890
0.396641 1.157386 -0.640455
0.401332 1.151718 -0.637536
0.408158 1.151958 -0.637762
0.414588 1.151046 -0.637379
0.419324 1.145618 -0.634594
0.426780 1.147331 -0.635613
0.432153 1.143585 -0.633728
0.436606 1.137551 -0.630627
0.445835 1.143455 -0.633887
0.453169 1.144467 -0.634545
0.459224 1.142286 -0.633504
0.465617 1.140879 -0.632879
0.474490 1.145226 -0.635323
0.479819 1.141192 -0.633304
0.485926 1.138951 -0.632242
0.494855 1.143011 -0.634543
0.503087 1.145328 -0.635919
0.509237 1.142958 -0.634797
0.514489 1.138636 -0.632635
0.518734 1.132211 -0.629352
0.527337 1.134994 -0.630987
0.534333 1.134307 -0.630772
0.540484 1.131841 -0.629608
0.546627 1.129348 -0.628430
0.556142 1.133541 -0.630828
0.563686 1.133702 -0.631072
0.569764 1.130960 -0.629765
0.573924 1.124570 -0.626506
0.580770 1.123354 -0.626014
0.590086 1.126728 -0.627979
0.597264 1.126052 -0.627775
0.603546 1.123735 -0.626691
0.610217 1.122155 -0.626000
0.615098 1.117431 -0.623621
0.622864 1.117873 -0.624007
0.629692 1.116693 -0.623519
0.637358 1.116999 -0.623824
0.643978 1.115558 -0.623187
0.650883 1.114673 -0.622842
0.654905 1.109091 -0.619970
0.660744 1.106674 -0.618789
0.669294 1.108783 -0.620028
0.678071 1.111306 -0.621481
0.685188 1.111243 -0.621538
0.698237 1.120618 -0.626653
-0.924848 1.370825 -0.767255
-0.900438 1.346802 -0.754193
-0.860900 1.299148 -0.728324
-0.853491 1.300710 -0.729092
-0.848713 1.306573 -0.732176
-0.838017 1.303272 -0.730287
-0.832254 1.307928 -0.732695
-0.827646 1.314656 -0.736213
-0.821139 1.318489 -0.738155
-0.814486 1.322233 -0.740039
-0.807983 1.326364 -0.742125
-0.802844 1.332941 -0.745526
-0.798431 1.340943 -0.749690
-0.792297 1.346151 -0.752338
-0.785873 1.350970 -0.754771
-0.776830 1.351228 -0.754735
-0.770452 1.356269 -0.757281
-0.763274 1.359937 -0.759083
-0.757079 1.365464 -0.761886
-0.751290 1.371835 -0.765142
-0.744873 1.377112 -0.767808
-0.736597 1.378885 -0.768583
-0.729859 1.383617 -0.770954
-0.722120 1.386413 -0.772283
-0.716197 1.392814 -0.775556
-0.709503 1.397733 -0.778031
-0.702864 1.402794 -0.780584
-0.694581 1.404478 -0.781320
-0.686320 1.406150 -0.782053
-0.679335 1.410478 -0.784219
-0.674367 1.419176 -0.788739
-0.667444 1.423719 -0.791025
-0.660618 1.428491 -0.793437
-0.652941 1.431367 -0.794833
-0.645902 1.435669 -0.796998
-0.637216 1.436163 -0.797119
-0.629611 1.439099 -0.798557
-0.623654 1.445935 -0.802095
-0.616829 1.450761 -0.804555
-0.610909 1.457839 -0.808229
-0.603966 1.462468 -0.810590
-0.601847 1.479338 -0.819529
-0.621000 1.551284 -0.858049
-0.612126 1.552199 -0.858420
-0.604612 1.556636 -0.860685
-0.596977 1.560775 -0.862793
-0.589762 1.566086 -0.865535
-0.582358 1.570930 -0.868029
-0.574836 1.575495 -0.870376
-0.566208 1.576926 -0.871046
-0.559299 1.583320 -0.874381
-0.551833 1.588177 -0.876895
-0.545073 1.595234 -0.880592
-0.536323 1.596316 -0.881088
-0.528431 1.600026 -0.882996
-0.519620 1.600843 -0.883356
-0.506432 1.587393 -0.876069
-0.503405 1.606934 -0.886475
-0.490686 1.594487 -0.879734
-0.484686 1.604531 -0.885053
-0.479137 1.616457 -0.891383
-0.467736 1.607890 -0.886732
-0.457694 1.603841 -0.884505
-0.452703 1.618311 -0.892207
-0.446933 1.630350 -0.898607
-0.437978 1.630485 -0.898630
-0.424282 1.611786 -0.888564
-0.415939 1.613840 -0.889621
-0.416436 1.652485 -0.910285
-0.405514 1.644512 -0.905974
-0.395680 1.640802 -0.903950
-0.374124 1.584832 -0.873931
-0.365846 1.586405 -0.874742
-0.358824 1.635200 -0.900823
-0.356543 1.667490 -0.918092
-0.349458 1.677245 -0.923292
-0.338557 1.667701 -0.918158
-0.328680 1.663014 -0.915626
-0.324195 1.687598 -0.928774
-0.220175 1.265956 -0.702898
-0.211835 1.255991 -0.697553
-0.180266 1.130765 -0.630475
-0.173783 1.127680 -0.628818
-0.164422 1.102834 -0.615508
-0.157579 1.095468 -0.611560
-0.154903 1.121250 -0.625364
-0.148107 1.114395 -0.621692
-0.142468 1.117137 -0.623159
-0.134739 1.100642 -0.614325
-0.129188 1.103753 -0.615991
-0.122770 1.098220 -0.613029
-0.116409 1.092630 -0.610037
-0.110486 1.091412 -0.609388
-0.103948 1.082405 -0.604567
-0.098676 1.088872 -0.608033
-0.092101 1.077724 -0.602067
-0.086321 1.076982 -0.601674
-0.080388 1.073512 -0.599820
-0.074755 1.074890 -0.600563
-0.068033 1.054236 -0.589508
-0.046827 0.920797 -0.518061
-0.041889 0.919176 -0.517199
-0.036998 0.918846 -0.517029
-0.032193 0.923315 -0.519430
-0.027299 0.924205 -0.519914
-0.022377 0.922231 -0.518865
-0.017493 0.933572 -0.524948
-0.012506 0.940501 -0.528668
-0.007483 0.943510 -0.530289
-0.002454 0.944775 -0.530976
0.002574 0.945306 -0.531270
0.007546 0.943388 -0.530253
0.012502 0.941600 -0.529306
0.017284 0.935478 -0.526038
0.021751 0.923264 -0.519506
0.026315 0.915923 -0.515585
0.031212 0.916482 -0.515896
0.036230 0.919062 -0.517291
0.041176 0.920032 -0.517823
0.046184 0.921749 -0.518757
0.051108 0.922054 -0.518934
0.056088 0.923013 -0.519462
0.061168 0.925036 -0.520561
0.066177 0.926001 -0.521093
0.071147 0.926418 -0.521333
0.076173 0.927342 -0.521844
0.081268 0.928805 -0.522646
0.086300 0.929542 -0.523058
0.091318 0.930063 -0.523356
0.096386 0.930938 -0.523844
0.101444 0.931631 -0.524235
0.106517 0.932366 -0.524649
0.111592 0.933033 -0.525028
0.116730 0.934071 -0.525606
0.121774 0.934367 -0.525788
0.127120 0.936603 -0.527010
0.132348 0.937908 -0.527734
0.137407 0.938071 -0.527847
0.142429 0.937972 -0.527820
0.147492 0.938091 -0.527911
0.153092 0.941164 -0.529587
0.158151 0.941102 -0.529583
0.163557 0.942832 -0.530541
0.169211 0.945708 -0.532115
0.174392 0.946043 -0.532328
0.179612 0.946513 -0.532614
0.184554 0.945612 -0.532166
0.189429 0.944414 -0.531559
0.194480 0.944030 -0.531391
0.200519 0.947954 -0.533535
0.205841 0.948586 -0.533915
0.210854 0.947862 -0.533568
0.215701 0.946443 -0.532850
0.221401 0.948463 -0.533979
0.226736 0.948921 -0.534271
0.234641 0.959164 -0.539818
0.244254 0.975349 -0.548558
0.253565 0.989721 -0.556328
0.257849 0.985354 -0.554039
0.263171 0.984777 -0.553786
0.265123 0.972494 -0.547248
0.278701 1.000135 -0.562156
0.285753 1.004928 -0.564795
0.287537 0.992243 -0.558046
0.294174 0.995556 -0.559894
0.302471 1.003937 -0.564468
0.310731 1.011846 -0.568793
0.316972 1.013267 -0.569633
0.318966 1.001855 -0.563575
0.370733 1.118344 -0.626390
0.377182 1.118259 -0.626439
0.393067 1.144540 -0.640676
0.401251 1.148670 -0.643002
0.404962 1.140453 -0.638686
0.410944 1.138477 -0.637732
0.417255 1.137348 -0.637236
0.422309 1.132913 -0.634963
0.427304 1.128381 -0.632640
0.432642 1.124765 -0.630813
0.440285 1.126872 -0.632072
0.447821 1.128568 -0.633113
0.452171 1.122480 -0.629962
0.463661 1.133380 -0.635971
0.470168 1.132257 -0.635503
0.477089 1.132029 -0.635522
0.482460 1.128208 -0.633604
0.483690 1.115147 -0.626703
0.499480 1.134459 -0.637275
0.505519 1.131957 -0.636078
0.510047 1.126196 -0.633123
0.516580 1.124751 -0.632501
0.523144 1.123329 -0.631893
0.529722 1.121894 -0.631280
0.535280 1.118347 -0.629528
0.544977 1.123122 -0.632277
0.549661 1.117781 -0.629557
0.558934 1.121478 -0.631727
0.562145 1.113329 -0.627488
0.570448 1.115031 -0.628580
0.576543 1.112488 -0.627374
0.586214 1.116610 -0.629777
0.594982 1.118939 -0.631209
0.599612 1.113687 -0.628532
0.605685 1.111128 -0.627312
0.611622 1.108382 -0.625986
0.618479 1.107311 -0.625565
0.625835 1.107139 -0.625627
0.631625 1.104320 -0.624248
0.639597 1.105285 -0.624917
0.648017 1.107022 -0.625999
0.647373 1.093806 -0.618954
0.657875 1.099159 -0.621985
0.665541 1.099895 -0.622499
0.673477 1.101137 -0.623280
0.680815 1.101512 -0.623580
0.674980 1.081337 -0.612699
-0.924140 1.366272 -0.773899
-0.911264 1.359840 -0.770315
-0.861789 1.297174 -0.735895
-0.857264 1.303208 -0.739117
-0.848295 1.302523 -0.738644
-0.840209 1.303347 -0.738985
-0.833714 1.306843 -0.740778
-0.829385 1.314016 -0.744573
-0.824191 1.320011 -0.747711
-0.817639 1.323957 -0.749718
-0.811996 1.329567 -0.752627
-0.805568 1.334014 -0.754890
-0.799065 1.338462 -0.757148
-0.793324 1.344345 -0.760183
-0.786624 1.348685 -0.762370
-0.779799 1.352895 -0.764481
-0.771441 1.354427 -0.765125
-0.764442 1.358433 -0.767118
-0.758436 1.364321 -0.770137
-0.752492 1.370419 -0.773269
-0.745531 1.374685 -0.775399
-0.737893 1.377695 -0.776844
-0.729550 1.379339 -0.777544
-0.722485 1.383449 -0.779590
-0.715597 1.387929 -0.781839
-0.710131 1.395298 -0.785665
-0.703366 1.400114 -0.788101
-0.696077 1.403873 -0.789962
-0.687713 1.405373 -0.790595
-0.680955 1.410219 -0.793054
-0.673734 1.414092 -0.794986
-0.666824 1.418643 -0.797289
-0.660925 1.425445 -0.800822
-0.653280 1.428404 -0.802266
-0.644981 1.429844 -0.802886
-0.638639 1.435732 -0.805931
-0.631095 1.438861 -0.807478
-0.624960 1.445316 -0.810838
-0.618000 1.449858 -0.813161
-0.610182 1.452319 -0.814355
-0.605360 1.462193 -0.819583
-0.599119 1.468673 -0.822969
-0.621534 1.548701 -0.866316
-0.613763 1.552519 -0.868257
-0.605410 1.554802 -0.869367
-0.597616 1.558545 -0.871274
-0.590325 1.563668 -0.873935
-0.583648 1.570553 -0.877556
-0.575501 1.573410 -0.878993
-0.569362 1.582010 -0.883552
-0.558940 1.578315 -0.881440
-0.552335 1.585699 -0.885346
-0.545639 1.592967 -0.889192
-0.537957 1.597360 -0.891480
-0.529139 1.598265 -0.891881
-0.520348 1.599193 -0.892297
-0.512523 1.603185 -0.894378
-0.499326 1.589523 -0.886890
-0.490570 1.590172 -0.887166
-0.488881 1.614946 -0.900526
-0.480721 1.618017 -0.902121
-0.469669 1.610833 -0.898158
-0.456583 1.595885 -0.889993
-0.449691 1.603195 -0.893894
-0.443374 1.612906 -0.899101
-0.433144 1.607836 -0.896298
-0.422354 1.600253 -0.892137
-0.416937 1.613947 -0.899509
-0.414270 1.639537 -0.913329
-0.408606 1.653583 -0.920894
-0.368337 1.593874 -0.888426
-0.361397 1.601971 -0.892779
-0.358392 1.629200 -0.907497
-0.360314 1.681943 -0.936038
-0.351658 1.684279 -0.937274
-0.340145 1.671906 -0.930544
-0.330796 1.670277 -0.929638
-0.324211 1.683635 -0.936849
-0.213183 1.261636 -0.708211
-0.203187 1.240239 -0.696612
-0.163989 1.096959 -0.618995
-0.157473 1.092018 -0.616315
-0.151004 1.087004 -0.613595
