ply
format ascii 1.0
comment ---
element vertex 1649
property float x
property float y
property float z
element face 0
property list uchar uint vertex_indices
end_header
-0.221977 1.246564 -0.578481
-0.220795 1.244158 -0.577865
-0.219631 1.241747 -0.577226
-0.217908 1.239523 -0.577539
-0.216303 1.237252 -0.577649
-0.215024 1.234871 -0.577216
-0.213300 1.232625 -0.577527
-0.211304 1.230450 -0.578286
-0.210422 1.227941 -0.577203
-0.209563 1.225432 -0.576095
-0.207588 1.223231 -0.576814
-0.205488 1.221048 -0.577726
-0.203996 1.218698 -0.577650
-0.202383 1.216374 -0.577766
-0.201060 1.213975 -0.577416
-0.199384 1.211656 -0.577629
-0.197212 1.209439 -0.578621
-0.195812 1.207046 -0.578386
-0.194386 1.204659 -0.578191
-0.193076 1.202249 -0.577815
-0.191519 1.199887 -0.577820
-0.190171 1.197487 -0.577499
-0.188573 1.195132 -0.577562
-0.186812 1.192804 -0.577866
-0.185718 1.190372 -0.577149
-0.185006 1.187895 -0.575854
-0.183005 1.185611 -0.576509
-0.181004 1.183324 -0.577150
-0.179451 1.180982 -0.577111
-0.177565 1.178684 -0.577558
-0.176024 1.176354 -0.577485
-0.176067 1.173876 -0.575075
-0.175216 1.171514 -0.573990
-0.172242 1.169353 -0.576000
-0.170656 1.167078 -0.575972
-0.169258 1.164803 -0.575663
-0.167323 1.162581 -0.576121
-0.165970 1.160337 -0.575734
-0.165048 1.158092 -0.574729
-0.162140 1.155962 -0.576541
-0.160485 1.153789 -0.576560
-0.159258 1.151622 -0.575969
-0.158313 1.149475 -0.574982
-0.155696 1.147391 -0.576324
-0.153897 1.145308 -0.576514
-0.152506 1.143245 -0.576131
-0.151702 1.141208 -0.574940
-0.148467 1.139199 -0.577077
-0.148315 1.137224 -0.574994
-0.148611 1.135298 -0.572318
-0.144247 1.133332 -0.575942
-0.143144 1.131443 -0.575154
-0.139852 1.129524 -0.577291
-0.137594 1.127652 -0.578032
-0.136136 1.125833 -0.577704
-0.135351 1.124072 -0.576490
-0.138056 1.122510 -0.570707
-0.485227 1.568968 -0.587226
-0.484173 1.560526 -0.579838
-0.482667 1.558063 -0.579593
-0.481011 1.557083 -0.581147
-0.479388 1.555287 -0.581723
-0.477755 1.553273 -0.582042
-0.475927 1.552971 -0.584477
-0.474158 1.551635 -0.585657
-0.472304 1.550779 -0.587449
-0.470457 1.549487 -0.588714
-0.468685 1.547244 -0.588792
-0.466745 1.546180 -0.590366
-0.464861 1.544380 -0.591015
-0.463356 1.539473 -0.587682
-0.461300 1.538631 -0.589556
-0.459245 1.537515 -0.591093
-0.457280 1.535561 -0.591547
-0.455245 1.533908 -0.592400
-0.453261 1.531767 -0.592612
-0.451591 1.527625 -0.590161
-0.449702 1.524788 -0.589421
-0.447248 1.525078 -0.592871
-0.445044 1.523760 -0.594183
-0.442644 1.523343 -0.596729
-0.441326 1.517266 -0.591546
-0.439175 1.515473 -0.592197
-0.437327 1.512170 -0.590756
-0.435284 1.509797 -0.590587
-0.432744 1.509617 -0.593484
-0.430407 1.508412 -0.594964
-0.428629 1.504797 -0.593031
-0.426802 1.501453 -0.591452
-0.424548 1.499851 -0.592353
-0.422260 1.498341 -0.593391
-0.420157 1.496107 -0.593378
-0.418257 1.493145 -0.592292
-0.415914 1.491795 -0.593562
-0.413511 1.490613 -0.595092
-0.411440 1.488283 -0.594916
-0.409504 1.485541 -0.594115
-0.408056 1.481296 -0.591022
-0.405682 1.480030 -0.592418
-0.403546 1.478024 -0.592691
-0.401421 1.475995 -0.592927
-0.399569 1.473199 -0.591968
-0.397085 1.472221 -0.593832
-0.394991 1.470141 -0.593982
-0.392886 1.468111 -0.594208
-0.390677 1.466368 -0.594887
-0.389604 1.461734 -0.590933
-0.387482 1.459844 -0.591354
-0.385154 1.458465 -0.592605
-0.383027 1.456594 -0.593065
-0.381096 1.454276 -0.592789
-0.379217 1.451868 -0.592355
-0.377125 1.449967 -0.592760
-0.375180 1.447753 -0.592640
-0.373288 1.445448 -0.592360
-0.372013 1.441875 -0.589909
-0.369939 1.440019 -0.590370
-0.368266 1.437362 -0.589451
-0.366947 1.434046 -0.587364
-0.365109 1.431797 -0.587120
-0.363157 1.429786 -0.587290
-0.361094 1.427991 -0.587847
-0.358826 1.426574 -0.589087
-0.357155 1.424077 -0.588390
-0.355953 1.420785 -0.586233
-0.354345 1.418251 -0.585434
-0.352715 1.415782 -0.584741
-0.351509 1.412637 -0.582777
-0.349504 1.410841 -0.583315
-0.347605 1.408878 -0.583544
-0.346258 1.406056 -0.582138
-0.344659 1.403658 -0.581525
-0.342871 1.401567 -0.581495
-0.340989 1.399627 -0.581760
-0.339262 1.397464 -0.581590
-0.337537 1.395310 -0.581433
-0.335583 1.393488 -0.581942
-0.333939 1.391239 -0.581595
-0.332113 1.389248 -0.581769
-0.330148 1.387447 -0.582335
-0.328788 1.384852 -0.581270
-0.327396 1.382323 -0.580325
-0.325848 1.380013 -0.579825
-0.323922 1.378186 -0.580343
-0.322218 1.376084 -0.580285
-0.320489 1.374019 -0.580303
-0.318666 1.372069 -0.580577
-0.316632 1.370364 -0.581396
-0.315129 1.368047 -0.580872
-0.313470 1.365916 -0.580760
-0.311696 1.363917 -0.580945
-0.310107 1.361719 -0.580681
-0.308542 1.359504 -0.580376
-0.306997 1.357276 -0.580039
-0.305213 1.355299 -0.580287
-0.303570 1.353180 -0.580209
-0.301922 1.351070 -0.580151
-0.299840 1.349383 -0.581120
-0.298395 1.347078 -0.580604
-0.297109 1.344634 -0.579738
-0.295485 1.342514 -0.579665
-0.293888 1.340372 -0.579542
-0.291748 1.338714 -0.580653
-0.290076 1.336635 -0.580709
-0.288363 1.334591 -0.580862
-0.287347 1.331961 -0.579482
-0.285468 1.330061 -0.580022
-0.284101 1.327740 -0.579447
-0.282519 1.325597 -0.579349
-0.281078 1.323346 -0.578960
-0.279830 1.320953 -0.578171
-0.278139 1.318902 -0.578336
-0.275881 1.317266 -0.579697
-0.274273 1.315142 -0.579691
-0.272914 1.312839 -0.579172
-0.271306 1.310716 -0.579181
-0.269457 1.308756 -0.579688
-0.267556 1.306824 -0.580301
-0.266337 1.304433 -0.579533
-0.265212 1.301990 -0.578593
-0.263329 1.300035 -0.579180
-0.261619 1.297965 -0.579424
-0.260070 1.295790 -0.579351
-0.258634 1.293547 -0.579063
-0.256921 1.291467 -0.579324
-0.255455 1.289240 -0.579109
-0.253882 1.287071 -0.579106
-0.252399 1.284851 -0.578937
-0.251432 1.282351 -0.577790
-0.249969 1.280123 -0.577600
-0.248161 1.278072 -0.578067
-0.246213 1.276081 -0.578791
-0.243831 1.274292 -0.580318
-0.243508 1.271488 -0.578028
-0.241858 1.269332 -0.578205
-0.240665 1.266959 -0.577549
-0.239465 1.264592 -0.576915
-0.236769 1.262885 -0.578994
-0.235373 1.260592 -0.578719
-0.234077 1.258255 -0.578271
-0.232716 1.255944 -0.577945
-0.232073 1.253345 -0.576357
-0.230149 1.251258 -0.577040
-0.229128 1.248814 -0.576140
-0.227102 1.246747 -0.576997
-0.224812 1.244758 -0.578304
-0.223512 1.242404 -0.577897
-0.222183 1.240059 -0.577544
-0.219884 1.238031 -0.578845
-0.218650 1.235642 -0.578333
-0.217655 1.233179 -0.577424
-0.216056 1.230903 -0.577537
-0.213714 1.228837 -0.578887
-0.213464 1.226157 -0.576752
-0.212549 1.223678 -0.575737
-0.211058 1.221359 -0.575679
-0.208629 1.219276 -0.577151
-0.206133 1.217189 -0.578716
-0.205908 1.214537 -0.576590
-0.203819 1.212334 -0.577485
-0.201864 1.210088 -0.578152
-0.199816 1.207852 -0.578960
-0.198295 1.205496 -0.578921
-0.196692 1.203155 -0.579007
-0.195186 1.200793 -0.578938
-0.193626 1.198440 -0.578949
-0.192574 1.195999 -0.578165
-0.191267 1.193609 -0.577778
-0.189939 1.191228 -0.577423
-0.189096 1.188780 -0.576321
-0.187845 1.186404 -0.575846
-0.185250 1.184216 -0.577413
-0.183195 1.181950 -0.578141
-0.181431 1.179648 -0.578418
-0.179971 1.177317 -0.578229
-0.178608 1.174987 -0.577891
-0.178924 1.172509 -0.575057
-0.177177 1.170251 -0.575287
-0.175094 1.168031 -0.576001
-0.173376 1.165790 -0.576167
-0.172419 1.163511 -0.575217
-0.170617 1.161307 -0.575490
-0.169294 1.159091 -0.575062
-0.168107 1.156891 -0.574433
-0.165582 1.154770 -0.575716
-0.163429 1.152645 -0.576450
-0.162464 1.150500 -0.575486
-0.161123 1.148394 -0.575054
-0.161665 1.146282 -0.571977
-0.157857 1.144267 -0.574995
-0.156646 1.142238 -0.574368
-0.155413 1.140238 -0.573772
-0.152775 1.138260 -0.575110
-0.151583 1.136313 -0.574449
-0.151863 1.134421 -0.571779
-0.148598 1.132501 -0.573943
-0.145196 1.130587 -0.576268
-0.145242 1.128790 -0.573929
-0.141186 1.126890 -0.577102
-0.138626 1.125055 -0.578248
-0.137250 1.123293 -0.577810
-0.485018 1.564247 -0.587830
-0.483825 1.557676 -0.582620
-0.482358 1.554597 -0.581623
-0.480769 1.552723 -0.582099
-0.479144 1.550924 -0.582675
-0.477406 1.549991 -0.584334
-0.475520 1.550176 -0.587410
-0.473745 1.548805 -0.588564
-0.472043 1.546433 -0.588467
-0.470644 1.541154 -0.584674
-0.468599 1.541408 -0.587907
-0.467180 1.536156 -0.584098
-0.464836 1.538186 -0.589657
-0.463033 1.535640 -0.589327
-0.461096 1.533928 -0.590082
-0.459039 1.532851 -0.591676
-0.456886 1.532183 -0.593826
-0.455036 1.529336 -0.593096
-0.453525 1.524331 -0.589461
-0.451343 1.523407 -0.591276
-0.449017 1.523123 -0.593975
-0.446742 1.522340 -0.596018
-0.444975 1.518671 -0.594121
-0.442729 1.517507 -0.595652
-0.440987 1.513702 -0.593528
-0.439226 1.510042 -0.591573
-0.437234 1.507514 -0.591178
-0.434970 1.506206 -0.592495
-0.432421 1.506070 -0.595488
-0.431131 1.500429 -0.590630
-0.428996 1.498467 -0.591004
-0.426473 1.498036 -0.593593
-0.424309 1.496101 -0.594015
-0.422376 1.493276 -0.593128
-0.420222 1.491303 -0.593479
-0.417623 1.490912 -0.596179
-0.415540 1.488640 -0.596093
-0.413343 1.486766 -0.596596
-0.411530 1.483626 -0.595183
-0.410021 1.479575 -0.592357
-0.407974 1.477315 -0.592234
-0.405562 1.476193 -0.593860
-0.403570 1.473787 -0.593506
-0.401592 1.471371 -0.593125
-0.399857 1.468301 -0.591703
-0.397605 1.466723 -0.592622
-0.395877 1.463727 -0.591284
-0.393667 1.462058 -0.592057
-0.391405 1.460523 -0.593049
-0.389710 1.457554 -0.591717
-0.387358 1.456260 -0.593105
-0.385199 1.454485 -0.593717
-0.383259 1.452197 -0.593478
-0.381265 1.450062 -0.593489
-0.379387 1.447685 -0.593088
-0.377367 1.445650 -0.593258
-0.375879 1.442481 -0.591490
-0.374012 1.440176 -0.591179
-0.372327 1.437518 -0.590250
-0.370515 1.435159 -0.589825
-0.368836 1.432560 -0.588970
-0.366884 1.430531 -0.589109
-0.365256 1.427893 -0.588162
-0.363290 1.425927 -0.588406
-0.361359 1.423903 -0.588548
-0.359584 1.421612 -0.588202
-0.357791 1.419372 -0.587944
-0.356149 1.416890 -0.587231
-0.354529 1.414399 -0.586489
-0.353208 1.411434 -0.584844
-0.351464 1.409208 -0.584573
-0.349538 1.407289 -0.584882
-0.347874 1.404963 -0.584412
-0.346755 1.401812 -0.582335
-0.345261 1.399281 -0.581436
-0.343477 1.397208 -0.581425
-0.341809 1.394975 -0.581096
-0.339944 1.393040 -0.581357
-0.338093 1.391088 -0.581590
-0.336320 1.389032 -0.581614
-0.334188 1.387472 -0.582657
-0.332635 1.385126 -0.582092
-0.330876 1.383068 -0.582120
-0.329350 1.380715 -0.581528
-0.327828 1.378374 -0.580951
-0.326178 1.376206 -0.580739
-0.324351 1.374264 -0.581010
-0.322548 1.372295 -0.581229
-0.320775 1.370291 -0.581378
-0.319007 1.368284 -0.581525
-0.317207 1.366316 -0.581762
-0.315483 1.364262 -0.581814
-0.313647 1.362336 -0.582160
-0.312196 1.359991 -0.581551
-0.310855 1.357543 -0.580693
-0.309278 1.355357 -0.580437
-0.307589 1.353292 -0.580467
-0.306285 1.350843 -0.579579
-0.305127 1.348265 -0.578367
-0.302658 1.346979 -0.580289
-0.300769 1.345114 -0.580828
-0.299448 1.342712 -0.580043
-0.297840 1.340587 -0.579942
-0.296149 1.338538 -0.580041
-0.294484 1.336468 -0.580090
-0.292170 1.334962 -0.581614
-0.290844 1.332592 -0.580904
-0.288922 1.330733 -0.581543
-0.287457 1.328488 -0.581167
-0.286112 1.326152 -0.580539
-0.284907 1.323713 -0.579622
-0.283562 1.321396 -0.579028
-0.282250 1.319061 -0.578379
-0.280149 1.317327 -0.579434
-0.277992 1.315619 -0.580600
-0.276453 1.313449 -0.580452
-0.275206 1.311072 -0.579699
-0.273620 1.308940 -0.579669
-0.271951 1.306864 -0.579817
-0.270008 1.304969 -0.580535
-0.269067 1.302404 -0.579201
-0.267411 1.300314 -0.579340
-0.265985 1.298076 -0.579019
-0.264600 1.295814 -0.578627
-0.263049 1.293655 -0.578574
-0.261322 1.291600 -0.578877
-0.260230 1.289167 -0.577930
-0.257729 1.287548 -0.579755
-0.256447 1.285222 -0.579194
-0.255471 1.282732 -0.578054
-0.254096 1.280467 -0.577697
-0.252252 1.278448 -0.578245
-0.250373 1.276436 -0.578856
-0.248814 1.274254 -0.578860
-0.248006 1.271699 -0.577462
-0.246322 1.269575 -0.577714
-0.244455 1.267532 -0.578309
-0.243341 1.265131 -0.577510
-0.242287 1.262707 -0.576614
-0.239895 1.260875 -0.578171
-0.237701 1.258936 -0.579355
-0.237382 1.256197 -0.577148
-0.236140 1.253853 -0.576622
-0.235272 1.251362 -0.575439
-0.234257 1.248936 -0.574531
-0.232069 1.246955 -0.575704
-0.229853 1.244967 -0.576915
-0.228221 1.242751 -0.577097
-0.226350 1.240610 -0.577693
-0.224565 1.238429 -0.578134
-0.222911 1.236194 -0.578347
-0.221448 1.233891 -0.578233
-0.220428 1.231446 -0.577368
-0.220763 1.228600 -0.574219
-0.217613 1.226795 -0.576967
-0.216580 1.224359 -0.576142
-0.215290 1.221997 -0.575754
-0.214324 1.219550 -0.574832
-0.212896 1.217225 -0.574679
-0.210628 1.215104 -0.575904
-0.208768 1.212870 -0.576450
-0.207473 1.210497 -0.576069
-0.203623 1.208685 -0.579821
-0.204136 1.205912 -0.576514
-0.201348 1.203838 -0.578521
-0.199358 1.201588 -0.579234
-0.198137 1.199186 -0.578715
-0.196956 1.196783 -0.578135
-0.195965 1.194354 -0.577258
-0.194810 1.191962 -0.576640
-0.193110 1.189661 -0.576869
-0.191987 1.187277 -0.576199
-0.190822 1.184910 -0.575592
-0.187731 1.182803 -0.577936
-0.185808 1.180536 -0.578471
-0.185125 1.178130 -0.577110
-0.182508 1.175951 -0.578677
-0.180772 1.173679 -0.578896
-0.180035 1.171323 -0.577612
-0.178753 1.169037 -0.577142
-0.177012 1.166804 -0.577350
-0.176594 1.164489 -0.575596
-0.175356 1.162257 -0.575052
-0.173342 1.160092 -0.575640
-0.171707 1.157919 -0.575664
-0.169988 1.155768 -0.575800
-0.168135 1.153640 -0.576120
-0.166376 1.151526 -0.576294
-0.164506 1.149435 -0.576617
-0.164279 1.147331 -0.574594
-0.163486 1.145273 -0.573385
-0.162747 1.143249 -0.572103
-0.158025 1.141270 -0.576406
-0.159270 1.139297 -0.572342
-0.156921 1.137352 -0.573298
-0.154325 1.135422 -0.574581
-0.152829 1.133529 -0.574334
-0.149687 1.131624 -0.576337
-0.148221 1.129779 -0.576034
-0.147204 1.127977 -0.575123
-0.146851 1.126234 -0.573318
-0.142822 1.124372 -0.576468
-0.485195 1.554248 -0.581933
-0.483650 1.552510 -0.582564
-0.482043 1.551144 -0.583666
-0.480484 1.548850 -0.583626
-0.478863 1.546940 -0.584068
-0.477120 1.546002 -0.585738
-0.475267 1.545783 -0.588337
-0.473619 1.543187 -0.587941
-0.471889 1.541126 -0.588223
-0.469968 1.540497 -0.590351
-0.467948 1.540360 -0.593138
-0.466529 1.535034 -0.589199
-0.464569 1.533936 -0.590749
-0.462738 1.531627 -0.590717
-0.460779 1.530076 -0.591686
-0.458725 1.528972 -0.593259
-0.456984 1.525608 -0.591815
-0.455065 1.523327 -0.591809
-0.452893 1.522474 -0.593736
-0.450644 1.521880 -0.596033
-0.448767 1.518978 -0.595183
-0.446793 1.516576 -0.595006
-0.445001 1.513156 -0.593406
-0.442991 1.510867 -0.593360
-0.441073 1.508074 -0.592598
-0.439160 1.505255 -0.591782
-0.437121 1.503018 -0.591778
-0.435225 1.500117 -0.590814
-0.433206 1.497764 -0.590621
-0.430936 1.496459 -0.591938
-0.428822 1.494452 -0.592240
-0.426617 1.492783 -0.593034
-0.424511 1.490704 -0.593225
-0.422384 1.488693 -0.593511
-0.420308 1.486491 -0.593509
-0.417335 1.487459 -0.598275
-0.416052 1.482472 -0.594064
-0.414159 1.479677 -0.593137
-0.411621 1.479024 -0.595482
-0.409824 1.475963 -0.594128
-0.407730 1.473878 -0.594267
-0.405807 1.471292 -0.593618
-0.403937 1.468593 -0.592775
-0.401488 1.467591 -0.594610
-0.400033 1.463778 -0.591971
-0.398190 1.461123 -0.591154
-0.396424 1.458308 -0.590061
-0.394204 1.456725 -0.590957
-0.392603 1.453562 -0.589267
-0.389951 1.453078 -0.591976
-0.387551 1.451931 -0.593614
-0.385256 1.450508 -0.594808
-0.383756 1.447228 -0.592883
-0.382362 1.443776 -0.590634
-0.380142 1.442237 -0.591621
-0.377669 1.441245 -0.593562
-0.376086 1.438323 -0.592179
-0.374641 1.435165 -0.590361
-0.372746 1.432989 -0.590242
-0.371162 1.430207 -0.589043
-0.369427 1.427766 -0.588434
-0.366888 1.426903 -0.590651
-0.365516 1.423804 -0.588847
-0.363834 1.421331 -0.588159
-0.362009 1.419149 -0.587992
-0.360129 1.417080 -0.588031
-0.357920 1.415596 -0.589161
-0.356489 1.412772 -0.587786
-0.355293 1.409596 -0.585721
-0.353271 1.407830 -0.586317
-0.351205 1.406135 -0.587059
-0.349907 1.403220 -0.585443
-0.348557 1.400428 -0.584042
-0.347205 1.397675 -0.582695
-0.345795 1.395042 -0.581565
-0.343873 1.393193 -0.581988
-0.341855 1.391484 -0.582700
-0.340063 1.389450 -0.582763
-0.338273 1.387419 -0.582833
-0.336934 1.384780 -0.581644
-0.335395 1.382436 -0.581053
-0.333582 1.380470 -0.581251
-0.331296 1.379120 -0.582759
-0.329618 1.376977 -0.582597
-0.328181 1.374543 -0.581803
-0.326487 1.372442 -0.581724
-0.324785 1.370358 -0.581682
-0.323074 1.368289 -0.581677
-0.321260 1.366346 -0.581952
-0.319559 1.364273 -0.581945
-0.317629 1.362461 -0.582534
-0.315858 1.360469 -0.582721
-0.314814 1.357692 -0.581089
-0.313248 1.355497 -0.580794
-0.311676 1.353316 -0.580533
-0.309974 1.351276 -0.580605
-0.308278 1.349231 -0.580673
-0.307107 1.346668 -0.579479
-0.305489 1.344560 -0.579385
-0.303625 1.342690 -0.579891
-0.301480 1.341077 -0.581057
-0.300042 1.338799 -0.580561
-0.298433 1.336683 -0.580476
-0.296366 1.334977 -0.581460
-0.294735 1.332878 -0.581440
-0.292877 1.330975 -0.581944
-0.291518 1.328646 -0.581320
-0.289741 1.326671 -0.581654
-0.287982 1.324677 -0.581946
-0.286685 1.322312 -0.581223
-0.285736 1.319685 -0.579755
-0.284346 1.317416 -0.579275
-0.282352 1.315605 -0.580114
-0.280175 1.313918 -0.581342
-0.278849 1.311599 -0.580744
-0.277649 1.309198 -0.579896
-0.276196 1.306981 -0.579594
-0.274770 1.304750 -0.579250
-0.273654 1.302313 -0.578269
-0.272009 1.300235 -0.578400
-0.270078 1.298337 -0.579123
-0.268488 1.296212 -0.579145
-0.267410 1.293769 -0.578137
-0.265979 1.291550 -0.577858
-0.264132 1.289579 -0.578418
-0.263207 1.287061 -0.577143
-0.261680 1.284900 -0.577081
-0.259441 1.283133 -0.578419
-0.258905 1.280418 -0.576424
-0.256458 1.278743 -0.578164
-0.254211 1.276940 -0.579501
-0.252358 1.274916 -0.580073
-0.251621 1.272323 -0.578515
-0.250372 1.269995 -0.577950
-0.248674 1.267885 -0.578241
-0.246995 1.265757 -0.578496
-0.245719 1.263439 -0.578001
-0.244840 1.260945 -0.576781
-0.243657 1.258592 -0.576137
-0.242187 1.256363 -0.576029
-0.239939 1.254453 -0.577341
-0.238809 1.252072 -0.576616
-0.237885 1.249613 -0.575533
-0.236916 1.247178 -0.574542
-0.235259 1.245006 -0.574791
-0.232881 1.243088 -0.576316
-0.231983 1.240624 -0.575218
-0.229894 1.238577 -0.576220
-0.228247 1.236366 -0.576442
-0.226991 1.234020 -0.575986
-0.225283 1.231816 -0.576314
-0.223989 1.229477 -0.575931
-0.221755 1.227415 -0.577154
-0.221296 1.224826 -0.575350
-0.219099 1.222734 -0.576501
-0.218103 1.220303 -0.575621
-0.216922 1.217924 -0.575058
-0.215160 1.215694 -0.575465
-0.213385 1.213458 -0.575890
-0.211777 1.211175 -0.576031
-0.210852 1.208735 -0.575050
-0.209344 1.206428 -0.575027
-0.208351 1.204013 -0.574165
-0.204322 1.202208 -0.578210
-0.203396 1.199770 -0.577226
-0.201659 1.197490 -0.577545
-0.200413 1.195120 -0.577073
-0.199298 1.192736 -0.576394
-0.197921 1.190401 -0.576128
-0.196177 1.188127 -0.576434
-0.195415 1.185714 -0.575200
-0.192358 1.183626 -0.577535
-0.191591 1.181231 -0.576303
-0.190112 1.178939 -0.576168
-0.187908 1.176737 -0.577138
-0.185655 1.174540 -0.578166
-0.184265 1.172259 -0.577868
-0.181896 1.170079 -0.579041
-0.181313 1.167755 -0.577513
-0.181321 1.165413 -0.575109
-0.179281 1.163248 -0.575763
-0.177916 1.161050 -0.575405
-0.175490 1.158931 -0.576605
-0.173433 1.156801 -0.577245
-0.171843 1.154664 -0.577187
-0.170672 1.152533 -0.576513
-0.168670 1.150452 -0.577039
-0.167259 1.148374 -0.576703
-0.165579 1.146326 -0.576746
-0.164840 1.144289 -0.575440
-0.162876 1.142294 -0.575878
-0.161711 1.140319 -0.575177
-0.160976 1.138376 -0.573871
-0.159156 1.136456 -0.574090
-0.156716 1.134550 -0.575164
-0.154669 1.132669 -0.575678
-0.152478 1.130807 -0.576382
-0.150325 1.128967 -0.577022
-0.149813 1.127207 -0.575410
-0.149013 1.125472 -0.574202
-0.486449 1.552013 -0.582673
-0.484791 1.552094 -0.585557
-0.483224 1.550471 -0.586349
-0.481821 1.546511 -0.584225
-0.480311 1.543643 -0.583453
-0.478523 1.543564 -0.586208
-0.476817 1.542172 -0.587321
-0.475150 1.540059 -0.587523
-0.473310 1.539329 -0.589508
-0.471488 1.538081 -0.590844
-0.469749 1.535820 -0.590874
-0.467933 1.533997 -0.591474
-0.466149 1.531699 -0.591454
-0.464311 1.529644 -0.591752
-0.462424 1.527775 -0.592298
-0.460499 1.525990 -0.592959
-0.458544 1.524231 -0.593659
-0.456589 1.522314 -0.594146
-0.454454 1.521379 -0.595977
-0.452488 1.519233 -0.596159
-0.450480 1.517231 -0.596536
-0.448618 1.514321 -0.595648
-0.446731 1.511513 -0.594885
-0.444791 1.508955 -0.594458
-0.442862 1.506309 -0.593893
-0.441025 1.503196 -0.592650
-0.439167 1.500200 -0.591550
-0.437234 1.497556 -0.590938
-0.434908 1.496649 -0.592833
-0.432993 1.493882 -0.592026
-0.430868 1.492007 -0.592514
-0.428766 1.490006 -0.592812
-0.426588 1.488286 -0.593526
-0.424526 1.486095 -0.593534
-0.422147 1.485070 -0.595295
-0.420234 1.482320 -0.594452
-0.418493 1.479007 -0.592730
-0.416142 1.477829 -0.594263
-0.413895 1.476269 -0.595217
-0.411850 1.474039 -0.595132
-0.409808 1.471818 -0.595053
-0.407737 1.469705 -0.595138
-0.405825 1.467134 -0.594490
-0.403707 1.465195 -0.594838
-0.402069 1.461908 -0.593014
-0.400358 1.458898 -0.591610
-0.398436 1.456516 -0.591205
-0.396451 1.454330 -0.591112
-0.394478 1.452138 -0.591000
-0.392411 1.450203 -0.591313
-0.389856 1.449476 -0.593650
-0.388709 1.445328 -0.590239
-0.387038 1.442519 -0.589053
-0.385023 1.440550 -0.589285
-0.382981 1.438652 -0.589638
-0.379892 1.439067 -0.594009
-0.378127 1.436543 -0.593300
-0.376667 1.433412 -0.591508
-0.375474 1.429790 -0.588815
-0.373922 1.426971 -0.587517
-0.372181 1.424575 -0.586957
-0.369918 1.423217 -0.588269
-0.368002 1.421186 -0.588369
-0.365870 1.419569 -0.589231
-0.364257 1.417001 -0.588340
-0.362419 1.414869 -0.588250
-0.360384 1.413097 -0.588832
-0.359038 1.410141 -0.587177
-0.357385 1.407747 -0.586571
-0.355424 1.405889 -0.586985
-0.353183 1.404488 -0.588294
-0.351943 1.401477 -0.586470
-0.350256 1.399210 -0.586086
-0.349195 1.396000 -0.583820
-0.347230 1.394204 -0.584350
-0.345134 1.392601 -0.585282
-0.343395 1.390472 -0.585154
-0.341658 1.388350 -0.585041
-0.340279 1.385738 -0.583911
-0.338940 1.383097 -0.582702
-0.337544 1.380563 -0.581698
-0.335789 1.378529 -0.581740
-0.333911 1.376658 -0.582135
-0.332051 1.374766 -0.582492
-0.330231 1.372823 -0.582746
-0.328922 1.370252 -0.581623
-0.327605 1.367716 -0.580558
-0.325790 1.365792 -0.580851
-0.323859 1.364003 -0.581454
-0.322308 1.361774 -0.581069
-0.321021 1.359260 -0.580019
-0.318872 1.357717 -0.581213
-0.317374 1.355453 -0.580739
-0.315565 1.353531 -0.581071
-0.313790 1.351572 -0.581323
-0.312179 1.349443 -0.581172
-0.310319 1.347572 -0.581651
-0.308864 1.345293 -0.581140
-0.307482 1.342954 -0.580471
-0.306015 1.340708 -0.580028
-0.304437 1.338573 -0.579864
-0.302312 1.336948 -0.581010
-0.300750 1.334797 -0.580822
-0.298802 1.332995 -0.581549
-0.296932 1.331114 -0.582090
-0.296016 1.328410 -0.580440
-0.294340 1.326369 -0.580557
-0.291992 1.324880 -0.582201
-0.290248 1.322881 -0.582473
-0.288749 1.320683 -0.582202
-0.287675 1.318158 -0.580999
-0.286257 1.315911 -0.580576
-0.284570 1.313872 -0.580756
-0.282935 1.311791 -0.580827
-0.282106 1.309126 -0.579166
-0.280509 1.307026 -0.579178
-0.278742 1.305042 -0.579560
-0.277450 1.302729 -0.578938
-0.276276 1.300343 -0.578084
-0.274518 1.298349 -0.578465
-0.272473 1.296533 -0.579441
-0.270899 1.294405 -0.579439
-0.269573 1.292123 -0.578939
-0.268459 1.289717 -0.578018
-0.267230 1.287387 -0.577345
-0.265544 1.285328 -0.577604
-0.263909 1.283233 -0.577763
-0.262697 1.280899 -0.577087
-0.261040 1.278812 -0.577300
-0.259197 1.276817 -0.577878
-0.256591 1.275210 -0.579942
-0.255483 1.272812 -0.579084
-0.255281 1.269969 -0.576499
-0.253419 1.267960 -0.577123
-0.251323 1.266052 -0.578189
-0.249610 1.263948 -0.578523
-0.248357 1.261628 -0.577989
-0.247281 1.259231 -0.577136
-0.246749 1.256604 -0.575283
-0.244351 1.254780 -0.576905
-0.242629 1.252655 -0.577268
-0.241170 1.250416 -0.577149
-0.240460 1.247880 -0.575671
-0.239210 1.245561 -0.575189
-0.237625 1.243367 -0.575317
-0.236250 1.241091 -0.575068
-0.235272 1.238673 -0.574120
-0.233825 1.236420 -0.574010
-0.232347 1.234173 -0.573958
-0.230195 1.232139 -0.575088
-0.228543 1.229931 -0.575334
-0.226953 1.227697 -0.575471
-0.225828 1.225321 -0.574807
-0.224034 1.223137 -0.575295
-0.222055 1.220994 -0.576092
-0.220709 1.218670 -0.575807
-0.219525 1.216303 -0.575250
-0.217602 1.214122 -0.575939
-0.215636 1.211941 -0.576690
-0.216291 1.209146 -0.573073
-0.213108 1.207235 -0.575839
-0.211866 1.204881 -0.575378
-0.211052 1.202443 -0.574219
-0.208934 1.200271 -0.575192
-0.207191 1.198018 -0.575543
-0.205284 1.195791 -0.576151
-0.203458 1.193546 -0.576618
-0.202229 1.191200 -0.576122
-0.200177 1.188989 -0.576932
-0.199001 1.186646 -0.576342
-0.196762 1.184460 -0.577425
-0.195667 1.182119 -0.576699
-0.193691 1.179900 -0.577346
-0.192470 1.177595 -0.576808
-0.190525 1.175382 -0.577386
-0.188555 1.173175 -0.577987
-0.188241 1.170819 -0.576044
-0.187529 1.168527 -0.574717
-0.186561 1.166281 -0.573781
-0.184245 1.164154 -0.574876
-0.182385 1.162002 -0.575270
-0.180223 1.159880 -0.576102
-0.177860 1.157779 -0.577216
-0.175724 1.155675 -0.577974
-0.174173 1.153561 -0.577857
-0.173472 1.151440 -0.576488
-0.172038 1.149371 -0.576192
-0.169321 1.147352 -0.577752
-0.167660 1.145327 -0.577764
-0.165955 1.143325 -0.577833
-0.164682 1.141344 -0.577275
-0.163434 1.139392 -0.576681
-0.162540 1.137472 -0.575584
-0.161185 1.135578 -0.575144
-0.158717 1.133692 -0.576262
-0.157417 1.131850 -0.575733
-0.155051 1.130008 -0.576688
-0.153286 1.128204 -0.576798
-0.151820 1.126436 -0.576491
-0.485929 1.551533 -0.588374
-0.484440 1.549130 -0.588197
-0.483088 1.544740 -0.585513
-0.481607 1.541771 -0.584604
-0.479924 1.540843 -0.586290
-0.478228 1.539669 -0.587679
-0.476626 1.537179 -0.587386
-0.474997 1.534737 -0.587151
-0.473166 1.533945 -0.589066
-0.471245 1.533607 -0.591598
-0.469481 1.531585 -0.591933
-0.467717 1.529346 -0.591982
-0.465901 1.527341 -0.592340
-0.464043 1.525465 -0.592872
-0.462106 1.523968 -0.593919
-0.460217 1.521943 -0.594257
-0.458296 1.519987 -0.594687
-0.456421 1.517601 -0.594525
-0.454252 1.516909 -0.596701
-0.452152 1.515608 -0.598049
-0.450096 1.513897 -0.598834
-0.448418 1.510002 -0.596541
-0.446524 1.507289 -0.595890
-0.444558 1.504919 -0.595712
-0.442946 1.500758 -0.592953
-0.440983 1.498353 -0.592692
-0.438736 1.497240 -0.594297
-0.436813 1.494575 -0.593644
-0.434811 1.492255 -0.593483
-0.432847 1.489763 -0.593058
-0.430843 1.487438 -0.592868
-0.428673 1.485767 -0.593648
-0.426479 1.484152 -0.594518
-0.424433 1.481951 -0.594498
-0.422667 1.478733 -0.592917
-0.420609 1.476608 -0.592990
-0.418271 1.475451 -0.594556
-0.416066 1.473804 -0.595370
-0.414031 1.471587 -0.595294
-0.411951 1.469525 -0.595455
-0.410039 1.466954 -0.594804
-0.408291 1.463928 -0.593407
-0.406412 1.461347 -0.592702
-0.404419 1.459127 -0.592569
-0.402408 1.456982 -0.592550
-0.400533 1.454484 -0.591945
-0.398606 1.452162 -0.591618
-0.396636 1.449978 -0.591511
-0.394361 1.448593 -0.592738
-0.392121 1.447105 -0.593805
-0.390558 1.443965 -0.592070
-0.388982 1.440921 -0.590471
-0.387060 1.438740 -0.590335
-0.385316 1.436176 -0.589527
-0.383879 1.432971 -0.587580
-0.382125 1.430516 -0.586928
-0.379825 1.429257 -0.588384
-0.377778 1.427453 -0.588884
-0.376207 1.424683 -0.587648
-0.374586 1.422059 -0.586657
-0.372481 1.420417 -0.587445
-0.370068 1.419362 -0.589324
-0.368259 1.417148 -0.589076
-0.366745 1.414412 -0.587848
-0.364645 1.412771 -0.588662
-0.362976 1.410365 -0.588034
-0.361169 1.408223 -0.587902
-0.359316 1.406175 -0.587947
-0.357442 1.404173 -0.588081
-0.355786 1.401823 -0.587535
-0.354034 1.399648 -0.587325
-0.352490 1.397160 -0.586489
-0.350778 1.394959 -0.586213
-0.348753 1.393245 -0.586920
-0.346962 1.391181 -0.586923
-0.345272 1.388977 -0.586640
-0.343564 1.386812 -0.586433
-0.342217 1.384153 -0.585189
-0.340760 1.381675 -0.584307
-0.338927 1.379729 -0.584543
-0.337224 1.377612 -0.584417
-0.336055 1.374809 -0.582804
-0.334185 1.372935 -0.583194
-0.332472 1.370865 -0.583160
-0.331227 1.368222 -0.581854
-0.329902 1.365703 -0.580806
-0.328458 1.363348 -0.580110
-0.326606 1.361485 -0.580527
-0.325162 1.359153 -0.579873
-0.323962 1.356559 -0.578601
-0.322007 1.354826 -0.579328
-0.319677 1.353492 -0.581022
-0.318873 1.350506 -0.578794
-0.316268 1.349447 -0.581185
-0.314029 1.347977 -0.582625
-0.313682 1.344576 -0.579334
-0.311073 1.343471 -0.581701
-0.309737 1.341094 -0.580919
-0.308243 1.338880 -0.580542
-0.306789 1.336637 -0.580085
-0.305032 1.334681 -0.580369
-0.303037 1.332938 -0.581226
-0.302157 1.330194 -0.579448
-0.299953 1.328630 -0.580806
-0.298396 1.326495 -0.580648
-0.296588 1.324573 -0.581079
-0.294381 1.322975 -0.582428
-0.292696 1.320937 -0.582577
-0.291266 1.318694 -0.582156
-0.289407 1.316790 -0.582710
-0.288787 1.313932 -0.580507
-0.287088 1.311912 -0.580728
-0.285893 1.309517 -0.579845
-0.284719 1.307118 -0.578934
-0.283085 1.305055 -0.579040
-0.281220 1.303150 -0.579650
-0.280140 1.300701 -0.578578
-0.278535 1.298615 -0.578642
-0.276705 1.296673 -0.579186
-0.274894 1.294711 -0.579690
-0.273166 1.292688 -0.580018
-0.271842 1.290411 -0.579514
-0.270758 1.287992 -0.578528
-0.269612 1.285620 -0.577689
-0.268232 1.283390 -0.577339
-0.265840 1.281734 -0.579038
-0.264682 1.279371 -0.578249
-0.263568 1.276991 -0.577387
-0.261824 1.274952 -0.577787
-0.260017 1.272937 -0.578310
-0.258745 1.270641 -0.577785
-0.257435 1.268366 -0.577346
-0.256114 1.266098 -0.576936
-0.255272 1.263603 -0.575615
-0.253170 1.261703 -0.576720
-0.251409 1.259631 -0.577167
-0.250313 1.257257 -0.576357
-0.249115 1.254932 -0.575753
-0.247462 1.252799 -0.576006
-0.245186 1.250913 -0.577415
-0.243974 1.248583 -0.576847
-0.242906 1.246199 -0.576025
-0.241740 1.243856 -0.575391
-0.239723 1.241828 -0.576313
-0.238774 1.239403 -0.575297
-0.237837 1.236979 -0.574271
-0.236270 1.234775 -0.574385
-0.234798 1.232534 -0.574329
-0.232847 1.230441 -0.575119
-0.230696 1.228397 -0.576253
-0.229749 1.225975 -0.575272
-0.228835 1.223550 -0.574241
-0.227204 1.221332 -0.574462
-0.225335 1.219173 -0.575090
-0.223757 1.216927 -0.575211
-0.222834 1.214510 -0.574215
-0.220815 1.212369 -0.575082
-0.219921 1.209950 -0.574043
-0.217043 1.207990 -0.576339
-0.215895 1.205626 -0.575723
-0.214748 1.203268 -0.575107
-0.213217 1.200992 -0.575128
-0.212155 1.198625 -0.574374
-0.210510 1.196373 -0.574576
-0.209416 1.194024 -0.573874
-0.207486 1.191823 -0.574529
-0.205142 1.189684 -0.575838
-0.203201 1.187474 -0.576481
-0.200277 1.185403 -0.578680
-0.198315 1.183186 -0.579325
-0.199430 1.180576 -0.575092
-0.197153 1.178421 -0.576230
-0.195190 1.176227 -0.576854
-0.193089 1.174051 -0.577680
-0.191735 1.171805 -0.577334
-0.190720 1.169543 -0.576459
-0.190321 1.167251 -0.574638
-0.189076 1.165052 -0.574120
-0.186418 1.162971 -0.575744
-0.184449 1.160847 -0.576301
-0.182931 1.158709 -0.576165
-0.181758 1.156574 -0.575508
-0.179211 1.154521 -0.576894
-0.177543 1.152443 -0.576954
-0.176678 1.150361 -0.575821
-0.175881 1.148307 -0.574591
-0.174000 1.146305 -0.574948
-0.171138 1.144333 -0.576724
-0.168472 1.142368 -0.578191
-0.167462 1.140414 -0.577249
-0.166192 1.138491 -0.576683
-0.163588 1.136581 -0.578021
-0.162567 1.134711 -0.577091
-0.161870 1.132879 -0.575707
-0.159357 1.131035 -0.576887
-0.158019 1.129244 -0.576406
-0.155851 1.127451 -0.577081
-0.154158 1.125698 -0.577088
-0.485657 1.547514 -0.589690
-0.484290 1.543497 -0.587458
-0.482764 1.541293 -0.587519
-0.481171 1.539580 -0.588211
-0.479424 1.539215 -0.590656
-0.477950 1.535568 -0.588862
-0.476372 1.532839 -0.588248
-0.474598 1.531778 -0.589817
-0.472716 1.531385 -0.592286
-0.470875 1.530260 -0.593810
-0.469165 1.527761 -0.593510
-0.467376 1.525730 -0.593833
-0.465531 1.523944 -0.594489
-0.463838 1.520846 -0.593362
-0.462005 1.518657 -0.593462
-0.460084 1.516928 -0.594192
-0.458536 1.512611 -0.591338
-0.456006 1.514480 -0.597071
-0.453883 1.513499 -0.598870
-0.452065 1.510559 -0.597918
-0.450271 1.507455 -0.596716
-0.448226 1.505687 -0.597400
-0.446440 1.502477 -0.596013
-0.444635 1.499370 -0.594751
-0.442588 1.497451 -0.595193
-0.440529 1.495528 -0.595629
-0.438544 1.493212 -0.595483
-0.436640 1.490515 -0.594763
-0.434622 1.488314 -0.594765
-0.432686 1.485756 -0.594224
-0.430652 1.483599 -0.594275
-0.428568 1.481626 -0.594597
-0.426491 1.479612 -0.594855
-0.424565 1.477026 -0.594226
-0.422724 1.474162 -0.593149
-0.420597 1.472337 -0.593675
-0.418169 1.471520 -0.595783
-0.416142 1.469319 -0.595724
-0.414551 1.465726 -0.593439
-0.412494 1.463682 -0.593600
-0.410595 1.461162 -0.592989
-0.408516 1.459213 -0.593292
-0.406566 1.456897 -0.592991
-0.404860 1.453917 -0.591588
-0.402824 1.451904 -0.591763
-0.400884 1.449646 -0.591526
-0.399028 1.447192 -0.590951
-0.396714 1.445946 -0.592407
-0.394470 1.444504 -0.593545
-0.393046 1.441043 -0.591230
-0.391028 1.439082 -0.591470
-0.388808 1.437605 -0.592550
-0.386848 1.435523 -0.592583
-0.385762 1.431502 -0.589190
-0.383904 1.429273 -0.588929
-0.381776 1.427645 -0.589739
-0.380117 1.425032 -0.588779
-0.378560 1.422247 -0.587492
-0.376809 1.419898 -0.586980
-0.375441 1.416820 -0.585114
-0.373189 1.415505 -0.586493
-0.371975 1.412212 -0.584188
-0.368727 1.412750 -0.589073
-0.367218 1.410041 -0.587858
-0.365331 1.408044 -0.587988
-0.363392 1.406147 -0.588311
-0.361199 1.404690 -0.589494
-0.359339 1.402663 -0.589577
-0.358210 1.399444 -0.587306
-0.356539 1.397154 -0.586848
-0.354714 1.395126 -0.586908
-0.352645 1.393486 -0.587756
-0.350829 1.391456 -0.587819
-0.349204 1.389147 -0.587312
-0.347403 1.387115 -0.587370
-0.345760 1.384864 -0.586970
-0.344250 1.382439 -0.586198
-0.342753 1.380019 -0.585424
-0.340891 1.378114 -0.585743
-0.338990 1.376264 -0.586189
-0.337929 1.373312 -0.584236
-0.336263 1.371178 -0.584052
-0.334615 1.369030 -0.583837
-0.333104 1.366721 -0.583258
-0.331756 1.364229 -0.582256
-0.330370 1.361804 -0.581389
-0.329160 1.359191 -0.580077
-0.327670 1.356925 -0.579551
-0.326249 1.354594 -0.578864
-0.324541 1.352596 -0.578958
-0.322755 1.350686 -0.579266
-0.321002 1.348738 -0.579493
-0.319308 1.346729 -0.579578
-0.317648 1.344686 -0.579587
-0.315748 1.342889 -0.580211
-0.313862 1.341072 -0.580802
-0.311843 1.339377 -0.581723
-0.310590 1.336938 -0.580753
-0.309049 1.334786 -0.580512
-0.307764 1.332402 -0.579665
-0.305890 1.330565 -0.580255
-0.304210 1.328549 -0.580384
-0.302675 1.326406 -0.580177
-0.300604 1.324725 -0.581241
-0.298728 1.322867 -0.581843
-0.297097 1.320799 -0.581878
-0.296407 1.317968 -0.579756
-0.294471 1.316157 -0.580517
-0.292047 1.314714 -0.582380
-0.290392 1.312660 -0.582495
-0.289340 1.310151 -0.581268
-0.288370 1.307597 -0.579885
-0.286804 1.305490 -0.579841
-0.285214 1.303399 -0.579855
-0.284088 1.300986 -0.578870
-0.282241 1.299073 -0.579460
-0.280804 1.296879 -0.579169
-0.279264 1.294754 -0.579109
-0.277369 1.292854 -0.579805
-0.275947 1.290647 -0.579504
-0.275165 1.288049 -0.577879
-0.273132 1.286221 -0.578874
-0.271488 1.284149 -0.579059
-0.270186 1.281875 -0.578549
-0.269307 1.279365 -0.577188
-0.267241 1.277524 -0.578250
-0.265473 1.275506 -0.578705
-0.263778 1.273442 -0.579015
-0.262935 1.270930 -0.577631
-0.261889 1.268532 -0.576669
-0.259845 1.266635 -0.577684
-0.258464 1.264403 -0.577395
-0.256986 1.262216 -0.577302
-0.255791 1.259894 -0.576667
-0.254301 1.257710 -0.576612
-0.252655 1.255589 -0.576856
-0.250849 1.253530 -0.577403
-0.249935 1.251087 -0.576265
-0.247798 1.249151 -0.577437
-0.246528 1.246853 -0.576981
-0.245943 1.244291 -0.575264
-0.244083 1.242222 -0.575917
-0.242696 1.239969 -0.575698
-0.242158 1.237411 -0.573935
-0.239374 1.235644 -0.576265
-0.238609 1.233169 -0.574930
-0.238194 1.230591 -0.572983
-0.234607 1.229030 -0.576714
-0.233459 1.226678 -0.576079
-0.232601 1.224242 -0.574939
-0.231133 1.221990 -0.574880
-0.229486 1.219784 -0.575135
-0.227867 1.217564 -0.575337
-0.226419 1.215294 -0.575240
-0.224980 1.213020 -0.575127
-0.223261 1.210812 -0.575491
-0.221394 1.208632 -0.576101
-0.220693 1.206184 -0.574729
-0.219099 1.203939 -0.574869
-0.216976 1.201802 -0.575892
-0.216204 1.199387 -0.574648
-0.215528 1.196967 -0.573254
-0.213620 1.194784 -0.573901
-0.211875 1.192568 -0.574269
-0.210113 1.190354 -0.574655
-0.207993 1.188195 -0.575613
-0.206218 1.185979 -0.575998
-0.205597 1.183604 -0.574515
-0.203664 1.181422 -0.575140
-0.202221 1.179179 -0.574971
-0.201677 1.176842 -0.573370
-0.199115 1.174749 -0.574961
-0.196284 1.172677 -0.576950
-0.194078 1.170539 -0.577936
-0.192895 1.168315 -0.577313
-0.191835 1.166099 -0.576496
-0.191212 1.163874 -0.575007
-0.189219 1.161766 -0.575621
-0.186813 1.159694 -0.576850
-0.185956 1.157546 -0.575709
-0.184827 1.155439 -0.574981
-0.183478 1.153365 -0.574581
-0.180939 1.151353 -0.575956
-0.179941 1.149308 -0.575016
-0.178912 1.147293 -0.574125
-0.176469 1.145327 -0.575317
-0.174012 1.143373 -0.576510
-0.172722 1.141429 -0.575984
-0.170662 1.139511 -0.576572
-0.168464 1.137611 -0.577347
-0.165272 1.135715 -0.579540
-0.165249 1.133886 -0.577168
-0.163947 1.132068 -0.576637
-0.163063 1.130290 -0.575512
-0.160742 1.128496 -0.576422
-0.159458 1.126761 -0.575865
-0.485368 1.543654 -0.591185
-0.484002 1.539616 -0.588897
-0.482245 1.540118 -0.592457
-0.480891 1.535515 -0.589416
-0.479208 1.534411 -0.590918
-0.477581 1.532390 -0.591231
-0.475971 1.529929 -0.590966
-0.474216 1.528631 -0.592242
-0.472357 1.527958 -0.594369
-0.470571 1.526336 -0.595240
-0.468768 1.524610 -0.595979
-0.466835 1.523681 -0.597809
-0.465791 1.515818 -0.590148
-0.463567 1.516754 -0.594529
-0.461603 1.515505 -0.595927
-0.459725 1.513475 -0.596246
-0.457896 1.511002 -0.595940
-0.455903 1.509451 -0.596928
-0.454182 1.506139 -0.595419
-0.452201 1.504306 -0.595999
-0.449982 1.503678 -0.598315
-0.448118 1.500982 -0.597656
-0.446288 1.498077 -0.596679
-0.444372 1.495594 -0.596300
-0.442292 1.493869 -0.597028
-0.440379 1.491299 -0.596502
-0.438351 1.489231 -0.596711
-0.436514 1.486297 -0.595614
-0.434768 1.483003 -0.593950
-0.432697 1.481087 -0.594356
-0.430667 1.478981 -0.594466
-0.428559 1.477164 -0.595018
-0.426538 1.474997 -0.595025
-0.424692 1.472186 -0.594018
-0.422781 1.469648 -0.593420
-0.420474 1.468495 -0.594999
-0.418214 1.467137 -0.596267
-0.416179 1.465013 -0.596314
-0.414346 1.462257 -0.595335
-0.412146 1.460677 -0.596247
-0.410178 1.458385 -0.596000
-0.408682 1.454730 -0.593497
-0.406693 1.452576 -0.593445
-0.404601 1.450727 -0.593895
-0.402971 1.447621 -0.592232
-0.401148 1.445095 -0.591523
-0.399046 1.443329 -0.592096
-0.397075 1.441234 -0.592105
-0.395340 1.438572 -0.591131
-0.393215 1.436896 -0.591855
-0.391069 1.435268 -0.592669
-0.389322 1.432715 -0.591857
-0.387558 1.430236 -0.591162
-0.385331 1.428818 -0.592353
-0.384112 1.425205 -0.589597
-0.382358 1.422807 -0.589006
-0.380861 1.419907 -0.587485
-0.379456 1.416871 -0.585687
-0.377514 1.414957 -0.585946
-0.375671 1.412860 -0.585862
-0.374070 1.410317 -0.584936
-0.372098 1.408501 -0.585374
-0.369760 1.407357 -0.587107
-0.367940 1.405263 -0.587029
-0.365659 1.403991 -0.588551
-0.364163 1.401351 -0.587409
-0.363119 1.397981 -0.584806
-0.360732 1.396897 -0.586718
-0.359056 1.394633 -0.586287
-0.357345 1.392443 -0.586001
-0.355010 1.391244 -0.587731
-0.352985 1.389546 -0.588465
-0.351188 1.387502 -0.588492
-0.349643 1.385094 -0.587758
-0.347925 1.382960 -0.587590
-0.346577 1.380311 -0.586323
-0.345083 1.377895 -0.585535
-0.343226 1.375996 -0.585856
-0.341377 1.374088 -0.586163
-0.339773 1.371860 -0.585772
-0.338291 1.369487 -0.585054
-0.336683 1.367291 -0.584721
-0.335086 1.365093 -0.584379
-0.333297 1.363140 -0.584594
-0.332048 1.360543 -0.583328
-0.330769 1.358004 -0.582179
-0.329508 1.355469 -0.581017
-0.328069 1.353157 -0.580367
-0.326554 1.350944 -0.579943
-0.324710 1.349100 -0.580410
-0.323051 1.347055 -0.580396
-0.321418 1.344987 -0.580328
-0.319622 1.343089 -0.580689
-0.317768 1.341249 -0.581205
-0.315861 1.339457 -0.581861
-0.314224 1.337393 -0.581834
-0.312737 1.335187 -0.581445
-0.311648 1.332615 -0.580089
-0.310256 1.330343 -0.579509
-0.308536 1.328378 -0.579745
-0.306338 1.326837 -0.581140
-0.304581 1.324893 -0.581468
-0.303150 1.322665 -0.581023
-0.301264 1.320827 -0.581668
-0.299860 1.318582 -0.581182
-0.298654 1.316184 -0.580252
-0.297109 1.314068 -0.580127
-0.295051 1.312353 -0.581186
-0.292654 1.310884 -0.583012
-0.292951 1.307370 -0.578731
-0.290684 1.305795 -0.580269
-0.288899 1.303854 -0.580722
-0.287613 1.301552 -0.580070
-0.286441 1.299178 -0.579183
-0.284988 1.297006 -0.578929
-0.282923 1.295241 -0.580010
-0.281430 1.293089 -0.579853
-0.279996 1.290899 -0.579578
-0.278484 1.288759 -0.579479
-0.276631 1.286828 -0.580106
-0.274690 1.284939 -0.580915
-0.273558 1.282562 -0.580034
-0.273821 1.279391 -0.576280
-0.270451 1.278306 -0.580055
-0.269075 1.276076 -0.579711
-0.267368 1.274026 -0.580049
-0.266186 1.271690 -0.579326
-0.265553 1.269078 -0.577515
-0.263632 1.267131 -0.578300
-0.262173 1.264945 -0.578166
-0.260374 1.262919 -0.578705
-0.259016 1.260676 -0.578378
-0.257911 1.258317 -0.577566
-0.256752 1.255987 -0.576872
-0.255040 1.253902 -0.577254
-0.253649 1.251672 -0.577020
-0.253239 1.249033 -0.574925
-0.250413 1.247389 -0.577426
-0.249011 1.245152 -0.577225
-0.248579 1.242542 -0.575212
-0.247287 1.240270 -0.574824
-0.245269 1.238260 -0.575785
-0.243441 1.236168 -0.576387
-0.243190 1.233526 -0.574098
-0.242113 1.231179 -0.573337
-0.240800 1.228911 -0.573013
-0.238446 1.226968 -0.574566
-0.236744 1.224807 -0.574937
-0.234984 1.222655 -0.575405
-0.233203 1.220499 -0.575905
-0.231314 1.218365 -0.576589
-0.230060 1.216052 -0.576153
-0.228716 1.213763 -0.575874
-0.227138 1.211533 -0.576004
-0.225418 1.209333 -0.576373
-0.224181 1.207016 -0.575907
-0.223317 1.204621 -0.574806
-0.221319 1.202476 -0.575639
-0.219156 1.200355 -0.576739
-0.217948 1.198038 -0.576217
-0.217218 1.195639 -0.574894
-0.215635 1.193406 -0.575001
-0.213484 1.191269 -0.576042
-0.211533 1.189094 -0.576737
-0.210432 1.186786 -0.576023
-0.209346 1.184488 -0.575287
-0.209509 1.182032 -0.572523
-0.208028 1.179821 -0.572434
-0.205843 1.177703 -0.573471
-0.203912 1.175555 -0.574082
-0.201343 1.173478 -0.575696
-0.198910 1.171384 -0.577069
-0.196977 1.169242 -0.577632
-0.195299 1.167087 -0.577782
-0.194379 1.164885 -0.576738
-0.193652 1.162694 -0.575394
-0.191810 1.160600 -0.575780
-0.189956 1.158520 -0.576170
-0.189261 1.156396 -0.574775
-0.187663 1.154341 -0.574759
-0.185569 1.152323 -0.575485
-0.184435 1.150289 -0.574750
-0.183292 1.148282 -0.574027
-0.181443 1.146314 -0.574356
-0.177809 1.144387 -0.577327
-0.174927 1.142453 -0.579148
-0.175344 1.140526 -0.576094
-0.173147 1.138632 -0.576888
-0.170331 1.136749 -0.578570
-0.169796 1.134913 -0.576922
-0.167931 1.133085 -0.577204
-0.167637 1.131319 -0.575222
-0.166223 1.129556 -0.574854
-0.164309 1.127803 -0.575199
-0.485667 1.532085 -0.582675
-0.484134 1.530501 -0.583496
-0.482531 1.529397 -0.584956
-0.480696 1.530492 -0.589329
-0.479013 1.529404 -0.590861
-0.477521 1.526054 -0.589394
-0.475752 1.525232 -0.591298
-0.474483 1.519492 -0.586590
-0.472334 1.521574 -0.592434
-0.470295 1.522181 -0.596333
-0.468513 1.520303 -0.596865
-0.467059 1.515704 -0.593640
-0.464970 1.515833 -0.596942
-0.463023 1.514621 -0.598405
-0.461558 1.509918 -0.594971
-0.459792 1.507249 -0.594369
-0.457833 1.505722 -0.595378
-0.456334 1.501251 -0.592177
-0.454375 1.499543 -0.592912
-0.451836 1.500982 -0.598213
-0.449677 1.500028 -0.600080
-0.447946 1.496669 -0.598433
-0.446192 1.493451 -0.596967
-0.444260 1.491114 -0.596784
-0.441685 1.491794 -0.601106
-0.440181 1.487336 -0.597738
-0.438703 1.482875 -0.594315
-0.436720 1.480700 -0.594325
-0.434551 1.479281 -0.595489
-0.432460 1.477484 -0.596076
-0.430717 1.474287 -0.594486
-0.428828 1.471698 -0.593819
-0.426653 1.470188 -0.594834
-0.424699 1.467842 -0.594531
-0.422617 1.465958 -0.594953
-0.420162 1.465333 -0.597395
-0.418526 1.461923 -0.595361
-0.416109 1.461102 -0.597505
-0.414008 1.459229 -0.597948
-0.412477 1.455617 -0.595522
-0.410385 1.453758 -0.595968
-0.408836 1.450329 -0.593788
-0.406605 1.448905 -0.594948
-0.404491 1.447141 -0.595543
-0.403124 1.443367 -0.592708
-0.401322 1.440831 -0.591956
-0.400108 1.436825 -0.588644
-0.397429 1.436590 -0.591856
-0.396100 1.432988 -0.589197
-0.393862 1.431643 -0.590486
-0.391931 1.429566 -0.590487
-0.389705 1.428176 -0.591717
-0.388117 1.425351 -0.590367
-0.386633 1.422348 -0.588669
-0.384609 1.420554 -0.589161
-0.383301 1.417267 -0.586900
-0.381647 1.414756 -0.586045
-0.379332 1.413603 -0.587722
-0.377411 1.411653 -0.587916
-0.375893 1.408941 -0.586661
-0.374290 1.406430 -0.585768
-0.372250 1.404755 -0.586479
-0.370124 1.403234 -0.587499
-0.368112 1.401502 -0.588118
-0.366855 1.398463 -0.586159
-0.365016 1.396462 -0.586239
-0.363439 1.394035 -0.585463
-0.361563 1.392122 -0.585715
-0.359769 1.390084 -0.585716
-0.357835 1.388275 -0.586188
-0.355440 1.387177 -0.588146
-0.353493 1.385374 -0.588662
-0.351751 1.383268 -0.588543
-0.350528 1.380419 -0.586842
-0.348913 1.378167 -0.586396
-0.347260 1.375984 -0.586090
-0.345401 1.374096 -0.586426
-0.343428 1.372363 -0.587113
-0.342096 1.369779 -0.585918
-0.340519 1.367537 -0.585473
-0.339062 1.365157 -0.584708
-0.337412 1.363038 -0.584526
-0.335636 1.361079 -0.584715
-0.333883 1.359097 -0.584853
-0.332737 1.356400 -0.583319
-0.331207 1.354176 -0.582881
-0.329422 1.352253 -0.583158
-0.327796 1.350154 -0.583017
-0.326986 1.347166 -0.580703
-0.325134 1.345337 -0.581211
-0.323269 1.343518 -0.581754
-0.321666 1.341421 -0.581616
-0.319717 1.339682 -0.582388
-0.318229 1.337474 -0.581975
-0.316891 1.335126 -0.581197
-0.315229 1.333105 -0.581263
-0.314148 1.330536 -0.579884
-0.312754 1.328277 -0.579311
-0.310984 1.326369 -0.579685
-0.308273 1.325297 -0.582363
-0.307317 1.322654 -0.580753
-0.305661 1.320634 -0.580862
-0.304056 1.318570 -0.580854
-0.302298 1.316634 -0.581220
-0.300806 1.314477 -0.580963
-0.299262 1.312365 -0.580838
-0.297538 1.310395 -0.581143
-0.296305 1.308045 -0.580321
-0.295014 1.305749 -0.579650
-0.293692 1.303484 -0.579067
-0.291348 1.301961 -0.580801
-0.290102 1.299640 -0.580064
-0.288783 1.297377 -0.579504
-0.287156 1.295330 -0.579639
-0.285333 1.293409 -0.580209
-0.283491 1.291492 -0.580819
-0.282032 1.289321 -0.580598
-0.280467 1.287217 -0.580617
-0.278519 1.285344 -0.581455
-0.276988 1.283210 -0.581407
-0.276645 1.280378 -0.578862
-0.275425 1.278076 -0.578192
-0.272996 1.276457 -0.580047
-0.271333 1.274393 -0.580302
-0.269933 1.272183 -0.580020
-0.268357 1.270064 -0.580105
-0.267217 1.267717 -0.579309
-0.265950 1.265439 -0.578782
-0.263693 1.263649 -0.580251
-0.264061 1.260584 -0.576480
-0.261915 1.258730 -0.577733
-0.260405 1.256568 -0.577722
-0.259389 1.254183 -0.576749
-0.257685 1.252103 -0.577130
-0.256190 1.249926 -0.577104
-0.254960 1.247636 -0.576572
-0.254181 1.245167 -0.575188
-0.251802 1.243333 -0.576861
-0.250822 1.240945 -0.575874
-0.249529 1.238680 -0.575489
-0.247479 1.236685 -0.576522
-0.245827 1.234536 -0.576807
-0.244517 1.232265 -0.576459
-0.243358 1.229942 -0.575836
-0.242116 1.227649 -0.575373
-0.240515 1.225468 -0.575566
-0.238836 1.223304 -0.575899
-0.237718 1.220970 -0.575219
-0.235194 1.219035 -0.577060
-0.233533 1.216843 -0.577344
-0.232518 1.214476 -0.576481
-0.231337 1.212158 -0.575917
-0.230077 1.209862 -0.575496
-0.228832 1.207566 -0.575050
-0.227598 1.205270 -0.574585
-0.226392 1.202972 -0.574073
-0.222709 1.201194 -0.577811
-0.220794 1.199026 -0.578490
-0.219735 1.196689 -0.577703
-0.218708 1.194356 -0.576866
-0.217247 1.192109 -0.576760
-0.214591 1.190063 -0.578648
-0.213815 1.187707 -0.577383
-0.212997 1.185375 -0.576195
-0.213315 1.182900 -0.573140
-0.211388 1.180759 -0.573786
-0.209826 1.178573 -0.573823
-0.208100 1.176414 -0.574118
-0.205406 1.174368 -0.575962
-0.203308 1.172254 -0.576825
-0.202004 1.170068 -0.576401
-0.201097 1.167863 -0.575341
-0.198667 1.165803 -0.576691
-0.197141 1.163678 -0.576597
-0.195920 1.161549 -0.576018
-0.193719 1.159500 -0.576961
-0.192073 1.157429 -0.577026
-0.192129 1.155296 -0.574456
-0.190985 1.153251 -0.573744
-0.186456 1.151344 -0.578200
-0.185750 1.149316 -0.576795
-0.185468 1.147311 -0.574754
-0.184265 1.145356 -0.574110
-0.181233 1.143446 -0.576205
-0.179450 1.141536 -0.576410
-0.177284 1.139647 -0.577174
-0.175491 1.137776 -0.577374
-0.174413 1.135937 -0.576516
-0.172435 1.134111 -0.576975
-0.172772 1.132358 -0.574059
-0.171065 1.130592 -0.574123
-0.170010 1.128870 -0.573242
-0.486847 1.530370 -0.583919
-0.485261 1.529747 -0.586002
-0.483964 1.525189 -0.582919
-0.482756 1.519581 -0.578406
-0.481185 1.518012 -0.579232
-0.479509 1.517241 -0.581137
-0.477962 1.514830 -0.580850
