ply
format ascii 1.0
comment ---
element vertex 1665
property float x
property float y
property float z
element face 0
property list uchar uint vertex_indices
end_header
-0.037640 1.937740 -0.198045
-0.030945 1.941217 -0.197512
-0.024227 1.945378 -0.196953
-0.017496 1.951962 -0.196330
-0.010683 1.955970 -0.195747
-0.003837 1.962863 -0.195090
0.003070 1.966199 -0.194496
0.009998 1.967401 -0.193937
0.016943 1.968726 -0.193365
0.023965 1.973868 -0.192695
0.031039 1.978966 -0.192013
0.038099 1.981420 -0.191381
0.045273 1.986796 -0.190667
0.052392 1.988951 -0.190020
0.059600 1.992730 -0.189323
0.066816 1.995792 -0.188634
0.074088 1.999294 -0.187923
0.081445 2.003712 -0.187180
0.088763 2.006654 -0.186466
0.096049 2.008572 -0.185773
0.103457 2.011997 -0.185032
0.110936 2.015920 -0.184271
0.118467 2.020013 -0.183500
0.125865 2.021969 -0.182786
0.133327 2.024463 -0.182054
0.140613 2.024748 -0.181387
0.148086 2.026997 -0.180663
0.155701 2.030492 -0.179903
0.163107 2.031722 -0.179216
0.170400 2.031861 -0.178569
0.177834 2.033317 -0.177890
0.185009 2.032551 -0.177292
0.191669 2.027742 -0.176838
0.198440 2.024277 -0.176359
0.205205 2.021141 -0.175888
0.211479 2.014764 -0.175546
0.217721 2.008741 -0.175218
0.224162 2.004636 -0.174851
0.230315 1.999057 -0.174562
0.235916 1.990438 -0.174409
0.241638 1.983277 -0.174238
0.247897 1.980026 -0.173963
0.254293 1.977996 -0.173678
0.260023 1.972464 -0.173554
0.265536 1.966231 -0.173492
0.270976 1.960165 -0.173462
0.276810 1.956787 -0.173375
0.282505 1.953105 -0.173339
0.288428 1.951049 -0.173284
0.293410 1.944629 -0.173429
0.297948 1.936575 -0.173676
0.303488 1.933995 -0.173764
0.308889 1.931158 -0.173903
0.314041 1.927567 -0.174112
0.318601 1.921702 -0.174445
0.323283 1.916899 -0.174780
0.327958 1.912524 -0.175139
0.333192 1.911028 -0.175434
0.338015 1.908116 -0.175819
0.341782 1.901149 -0.176387
0.345355 1.893881 -0.177000
0.350015 1.891547 -0.177475
-0.802705 1.411582 -0.206228
-0.800954 1.416129 -0.205718
-0.798073 1.419455 -0.205267
-0.792211 1.419306 -0.204928
-0.784697 1.417215 -0.204669
-0.780811 1.419583 -0.204337
-0.777013 1.422155 -0.204033
-0.777770 1.430472 -0.203621
-0.771510 1.430209 -0.203453
-0.766783 1.431928 -0.203271
-0.759606 1.430617 -0.203198
-0.755583 1.433372 -0.203058
-0.752124 1.436948 -0.202930
-0.746323 1.437580 -0.202910
-0.741593 1.439669 -0.202885
-0.739958 1.445930 -0.202788
-0.737405 1.451107 -0.202749
-0.734085 1.455374 -0.202763
-0.731094 1.460189 -0.202794
-0.726024 1.462261 -0.202921
-0.720473 1.463722 -0.203090
-0.715277 1.465719 -0.203271
-0.709348 1.466725 -0.203499
-0.705950 1.471358 -0.203664
-0.702577 1.476112 -0.203847
-0.698616 1.480099 -0.204069
-0.693316 1.482189 -0.204352
-0.688570 1.485126 -0.204633
-0.684177 1.488626 -0.204915
-0.678676 1.490500 -0.205247
-0.673927 1.493530 -0.205564
-0.669295 1.496770 -0.205888
-0.664375 1.499589 -0.206229
-0.658587 1.501064 -0.206604
-0.655167 1.506286 -0.206910
-0.653028 1.513625 -0.207181
-0.646148 1.513386 -0.207603
-0.641030 1.515975 -0.207971
-0.636706 1.519879 -0.208317
-0.632500 1.524007 -0.208660
-0.627983 1.527640 -0.209011
-0.623348 1.531089 -0.209365
-0.616463 1.530668 -0.209780
-0.612403 1.535106 -0.210111
-0.608220 1.539360 -0.210443
-0.603499 1.542681 -0.210785
-0.598548 1.545597 -0.211129
-0.593687 1.548674 -0.211465
-0.589655 1.553280 -0.211773
-0.584967 1.556699 -0.212092
-0.580374 1.560307 -0.212403
-0.575074 1.562581 -0.212726
-0.569570 1.564443 -0.213046
-0.564369 1.566872 -0.213350
-0.561053 1.573003 -0.213601
-0.556484 1.576709 -0.213875
-0.552790 1.582199 -0.214121
-0.547872 1.585250 -0.214388
-0.542287 1.586925 -0.214663
-0.536787 1.588750 -0.214928
-0.531624 1.591263 -0.215176
-0.527296 1.595556 -0.215397
-0.522577 1.599037 -0.215619
-0.517652 1.602087 -0.215837
-0.510643 1.600517 -0.216093
-0.507956 1.608556 -0.216245
-0.503331 1.612319 -0.216432
-0.498749 1.616212 -0.216609
-0.494473 1.620851 -0.216772
-0.490189 1.625524 -0.216927
-0.485438 1.629137 -0.217084
-0.480285 1.631801 -0.217242
-0.474814 1.633692 -0.217398
-0.470171 1.637629 -0.217529
-0.465083 1.640485 -0.217661
-0.459498 1.642085 -0.217795
-0.455289 1.647235 -0.217893
-0.450301 1.650415 -0.218000
-0.446197 1.655975 -0.218080
-0.440218 1.656565 -0.218192
-0.434963 1.659094 -0.218281
-0.430381 1.663504 -0.218348
-0.425757 1.667867 -0.218409
-0.420363 1.670091 -0.218479
-0.415353 1.673434 -0.218533
-0.410099 1.676101 -0.218585
-0.405417 1.680498 -0.218617
-0.399695 1.681813 -0.218665
-0.395283 1.687152 -0.218677
-0.389844 1.689380 -0.218704
-0.386279 1.697590 -0.218682
-0.380544 1.698981 -0.218702
-0.375391 1.702273 -0.218701
-0.370275 1.705740 -0.218693
-0.365497 1.710417 -0.218669
-0.360400 1.714092 -0.218646
-0.354950 1.716590 -0.218624
-0.349976 1.720824 -0.218583
-0.345313 1.726287 -0.218527
-0.339642 1.728146 -0.218490
-0.334211 1.730923 -0.218440
-0.329099 1.734975 -0.218374
-0.323776 1.738295 -0.218307
-0.318457 1.741702 -0.218232
-0.313448 1.746448 -0.218141
-0.308437 1.751320 -0.218043
-0.302669 1.753118 -0.217960
-0.297039 1.755533 -0.217866
-0.291287 1.757448 -0.217769
-0.286569 1.764068 -0.217630
-0.281655 1.770018 -0.217488
-0.276260 1.773901 -0.217356
-0.271049 1.778794 -0.217208
-0.265501 1.782194 -0.217065
-0.259710 1.784462 -0.216924
-0.254445 1.789519 -0.216753
-0.248568 1.791515 -0.216600
-0.242897 1.794678 -0.216430
-0.236942 1.796357 -0.216265
-0.231088 1.798651 -0.216088
-0.226428 1.808086 -0.215842
-0.220756 1.811838 -0.215636
-0.215060 1.815598 -0.215423
-0.209169 1.818274 -0.215211
-0.203253 1.820898 -0.214992
-0.197120 1.822131 -0.214778
-0.192367 1.833192 -0.214463
-0.186417 1.836167 -0.214216
-0.180516 1.839666 -0.213954
-0.174648 1.843626 -0.213680
-0.169485 1.853594 -0.213336
-0.163256 1.855244 -0.213066
-0.156672 1.853832 -0.212820
-0.150942 1.860119 -0.212484
-0.144928 1.864186 -0.212162
-0.138768 1.867111 -0.211842
-0.132666 1.870890 -0.211504
-0.126668 1.876163 -0.211138
-0.120739 1.882766 -0.210746
-0.114362 1.884546 -0.210400
-0.108119 1.888261 -0.210020
-0.101967 1.893679 -0.209609
-0.095861 1.900509 -0.209168
-0.089590 1.905655 -0.208736
-0.083196 1.909492 -0.208310
-0.076750 1.912988 -0.207876
-0.070338 1.917841 -0.207413
-0.063815 1.921202 -0.206959
-0.057245 1.924144 -0.206499
-0.050658 1.927402 -0.206022
-0.044115 1.933156 -0.205497
-0.037489 1.937805 -0.204975
-0.030798 1.941484 -0.204455
-0.024090 1.946373 -0.203904
-0.017327 1.950636 -0.203350
-0.010508 1.953153 -0.202812
-0.003668 1.957375 -0.202233
0.003229 1.967984 -0.201531
0.010166 1.969272 -0.200976
0.017133 1.971764 -0.200389
0.024123 1.973931 -0.199796
0.031154 1.976881 -0.199177
0.038245 1.980871 -0.198527
0.045347 1.983835 -0.197885
0.052623 1.990923 -0.197150
0.059785 1.993218 -0.196498
0.066979 1.995646 -0.195834
0.074246 1.998990 -0.195141
0.081610 2.003493 -0.194413
0.088913 2.006099 -0.193716
0.096201 2.008017 -0.193028
0.103633 2.011741 -0.192291
0.111115 2.015626 -0.191544
0.118616 2.019240 -0.190796
0.126176 2.023133 -0.190037
0.133606 2.025064 -0.189321
0.140995 2.026337 -0.188620
0.148426 2.027939 -0.187911
0.155979 2.030630 -0.187176
0.163332 2.031194 -0.186498
0.170709 2.031980 -0.185820
0.177997 2.031986 -0.185171
0.185106 2.030540 -0.184570
0.192037 2.027854 -0.184017
0.198815 2.024269 -0.183504
0.205304 2.018864 -0.183062
0.211714 2.013387 -0.182643
0.218140 2.008523 -0.182229
0.224343 2.002605 -0.181871
0.230534 1.997146 -0.181526
0.236322 1.989595 -0.181274
0.242208 1.983292 -0.181015
0.248373 1.979256 -0.180719
0.254723 1.976764 -0.180408
0.260484 1.971234 -0.180226
0.266207 1.966013 -0.180071
0.271939 1.961359 -0.179936
0.277662 1.957141 -0.179825
0.283262 1.952747 -0.179760
0.288863 1.948834 -0.179719
0.293737 1.941717 -0.179823
0.298817 1.936209 -0.179917
0.304072 1.932060 -0.180008
0.309679 1.930039 -0.180073
0.314201 1.923361 -0.180329
0.318906 1.918059 -0.180583
0.324046 1.915200 -0.180799
0.328992 1.911882 -0.181070
0.333366 1.906501 -0.181448
0.338011 1.902748 -0.181813
0.341619 1.895064 -0.182340
0.346057 1.891326 -0.182779
0.350056 1.886204 -0.183298
0.353363 1.878741 -0.183923
-0.805402 1.406696 -0.211544
-0.801799 1.408983 -0.211086
-0.801950 1.415811 -0.210577
-0.798082 1.418007 -0.210180
-0.792535 1.418284 -0.209850
-0.784252 1.415316 -0.209614
-0.781303 1.418869 -0.209290
-0.781819 1.426792 -0.208914
-0.776327 1.427459 -0.208711
-0.772453 1.430213 -0.208501
-0.768649 1.433153 -0.208322
-0.764188 1.435361 -0.208190
-0.760806 1.439034 -0.208063
-0.755515 1.440354 -0.208017
-0.752173 1.444273 -0.207951
-0.746998 1.445897 -0.207964
-0.741605 1.447296 -0.208012
-0.737691 1.450727 -0.208051
-0.733618 1.454031 -0.208121
-0.727815 1.455069 -0.208265
-0.723770 1.458554 -0.208388
-0.720448 1.463118 -0.208517
-0.716025 1.466240 -0.208698
-0.710536 1.467921 -0.208929
-0.705471 1.470239 -0.209170
-0.701302 1.473884 -0.209406
-0.695996 1.475939 -0.209689
-0.691990 1.479926 -0.209955
-0.689331 1.485965 -0.210202
-0.683476 1.487326 -0.210542
-0.677439 1.488412 -0.210898
-0.673774 1.493104 -0.211205
-0.669003 1.496153 -0.211549
-0.663839 1.498616 -0.211908
-0.658858 1.501373 -0.212269
-0.654154 1.504582 -0.212629
-0.650817 1.510002 -0.212961
-0.646602 1.514062 -0.213316
-0.642266 1.517956 -0.213676
-0.637105 1.520512 -0.214053
-0.632676 1.524287 -0.214415
-0.629033 1.529413 -0.214759
-0.621414 1.527797 -0.215181
-0.616582 1.530893 -0.215544
-0.612225 1.534823 -0.215894
-0.607943 1.538906 -0.216239
-0.603036 1.541897 -0.216591
-0.598233 1.545076 -0.216935
-0.594015 1.549325 -0.217264
-0.589229 1.552552 -0.217597
-0.584820 1.556487 -0.217918
-0.580186 1.560017 -0.218235
-0.575050 1.562600 -0.218554
-0.569509 1.564394 -0.218871
-0.565236 1.568631 -0.219161
-0.560979 1.572930 -0.219445
-0.556656 1.577127 -0.219721
-0.552040 1.580760 -0.219995
-0.547858 1.585297 -0.220254
-0.542408 1.587250 -0.220523
-0.537054 1.589383 -0.220781
-0.532267 1.592699 -0.221024
-0.527560 1.596198 -0.221258
-0.522697 1.599377 -0.221486
-0.518922 1.604952 -0.221694
-0.512515 1.604752 -0.221922
-0.507505 1.607623 -0.222127
-0.503606 1.613028 -0.222312
-0.498947 1.616749 -0.222497
-0.494378 1.620712 -0.222674
-0.490169 1.625562 -0.222839
-0.485343 1.628993 -0.223002
-0.479521 1.630037 -0.223166
-0.474186 1.632237 -0.223318
-0.469496 1.636039 -0.223456
-0.464390 1.638831 -0.223590
-0.459466 1.642101 -0.223715
-0.455140 1.646946 -0.223828
-0.450354 1.650655 -0.223937
-0.444826 1.652428 -0.224044
-0.440292 1.656876 -0.224136
-0.435381 1.660355 -0.224224
-0.431579 1.666957 -0.224296
-0.425460 1.667153 -0.224379
-0.421203 1.672624 -0.224440
-0.415571 1.674203 -0.224505
-0.409949 1.675801 -0.224562
-0.403868 1.676010 -0.224615
-0.399923 1.682662 -0.224647
-0.394466 1.684792 -0.224682
-0.390893 1.692840 -0.224698
-0.384187 1.691104 -0.224728
-0.380907 1.700345 -0.224728
-0.375199 1.701840 -0.224738
-0.370289 1.705995 -0.224736
-0.366356 1.713560 -0.224720
-0.360123 1.713361 -0.224714
-0.354339 1.714679 -0.224698
-0.349185 1.718244 -0.224671
-0.344766 1.724559 -0.224632
-0.339621 1.728348 -0.224591
-0.333924 1.730132 -0.224549
-0.328768 1.734009 -0.224495
-0.323518 1.737607 -0.224436
-0.318224 1.741107 -0.224370
-0.312901 1.744573 -0.224298
-0.307605 1.748231 -0.224219
-0.301932 1.750378 -0.224137
-0.297534 1.758091 -0.224034
-0.292335 1.762522 -0.223933
-0.287056 1.766725 -0.223825
-0.281173 1.768258 -0.223719
-0.275941 1.772887 -0.223597
-0.270649 1.777376 -0.223468
-0.265020 1.780353 -0.223337
-0.259032 1.781593 -0.223205
-0.253862 1.787084 -0.223052
-0.248529 1.791923 -0.222894
-0.242710 1.794303 -0.222737
-0.237930 1.802578 -0.222551
-0.231599 1.802303 -0.222390
-0.225745 1.804781 -0.222211
-0.220560 1.811419 -0.222008
-0.214783 1.814680 -0.221810
-0.209030 1.818229 -0.221604
-0.202987 1.820011 -0.221398
-0.198093 1.829750 -0.221147
-0.192394 1.834361 -0.220911
-0.186329 1.836544 -0.220678
-0.180228 1.838553 -0.220438
-0.174608 1.844441 -0.220170
-0.169593 1.855668 -0.219863
-0.162786 1.852489 -0.219626
-0.156528 1.853862 -0.219356
-0.150644 1.858743 -0.219056
-0.144837 1.864761 -0.218739
-0.138741 1.868369 -0.218428
-0.132529 1.871048 -0.218113
-0.126363 1.874472 -0.217783
-0.120646 1.883488 -0.217404
-0.114170 1.884084 -0.217074
-0.107910 1.887564 -0.216713
-0.101803 1.893579 -0.216322
-0.095569 1.898501 -0.215928
-0.089372 1.904706 -0.215512
-0.082938 1.907771 -0.215110
-0.076464 1.910616 -0.214700
-0.070108 1.916394 -0.214252
-0.063603 1.920020 -0.213811
-0.057035 1.922885 -0.213366
-0.050499 1.927448 -0.212893
-0.043898 1.931283 -0.212415
-0.037250 1.934741 -0.211928
-0.030654 1.942292 -0.211385
-0.023942 1.947190 -0.210857
-0.017156 1.949819 -0.210342
-0.010350 1.953643 -0.209801
-0.003501 1.955523 -0.209271
0.003388 1.966424 -0.208617
0.010343 1.971329 -0.208022
0.017312 1.973137 -0.207455
0.024288 1.973956 -0.206890
0.031303 1.976100 -0.206296
0.038368 1.979160 -0.205679
0.045518 1.983952 -0.205023
0.052773 1.990344 -0.204331
0.059941 1.992809 -0.203686
0.067141 1.995366 -0.203030
0.074482 2.000196 -0.202326
0.081757 2.002838 -0.201648
0.089111 2.006324 -0.200945
0.096431 2.008656 -0.200255
0.103779 2.010995 -0.199556
0.111275 2.015029 -0.198819
0.118845 2.019489 -0.198067
0.126301 2.021989 -0.197346
0.133833 2.025066 -0.196609
0.141319 2.027295 -0.195886
0.148811 2.029375 -0.195164
0.156267 2.030898 -0.194455
0.163597 2.031099 -0.193775
0.170895 2.031019 -0.193107
0.178221 2.031248 -0.192438
0.185377 2.030084 -0.191808
0.192417 2.028140 -0.191208
0.199204 2.024452 -0.190663
0.205719 2.019072 -0.190174
0.212220 2.014077 -0.189697
0.218656 2.009090 -0.189240
0.224710 2.001956 -0.188861
0.231050 1.997317 -0.188446
0.236954 1.990319 -0.188118
0.242891 1.984129 -0.187799
0.248992 1.979479 -0.187472
0.255022 1.974877 -0.187175
0.260929 1.970036 -0.186919
0.266751 1.965201 -0.186698
0.272838 1.962310 -0.186460
0.278802 1.959157 -0.186268
0.283903 1.951902 -0.186227
0.289127 1.945871 -0.186194
0.294367 1.940464 -0.186184
0.299245 1.933793 -0.186250
0.304179 1.927959 -0.186336
0.309814 1.925954 -0.186355
0.315381 1.924008 -0.186414
0.319899 1.917670 -0.186639
0.324966 1.914314 -0.186821
0.329628 1.909598 -0.187083
0.333902 1.903666 -0.187418
0.337977 1.897381 -0.187803
0.342662 1.894139 -0.188142
0.347322 1.891184 -0.188511
0.350832 1.883955 -0.189034
0.355017 1.879906 -0.189505
-0.805187 1.404903 -0.216375
-0.803902 1.409948 -0.215911
-0.800505 1.412633 -0.215506
-0.797425 1.415798 -0.215125
-0.791710 1.415914 -0.214816
-0.788490 1.419110 -0.214499
-0.785986 1.423288 -0.214202
-0.782362 1.426216 -0.213954
-0.775231 1.424913 -0.213800
-0.773168 1.429962 -0.213589
-0.766496 1.429356 -0.213494
-0.765893 1.436480 -0.213320
-0.763532 1.441526 -0.213209
-0.758896 1.443772 -0.213172
-0.749549 1.439978 -0.213256
-0.745711 1.443377 -0.213267
-0.742026 1.447070 -0.213304
-0.738377 1.450908 -0.213369
-0.733904 1.453732 -0.213478
-0.726901 1.453193 -0.213662
-0.722650 1.456432 -0.213818
-0.719175 1.460814 -0.213985
-0.715516 1.465030 -0.214177
-0.711372 1.468644 -0.214400
-0.706204 1.470867 -0.214662
-0.701531 1.473837 -0.214933
-0.697190 1.477334 -0.215215
-0.692645 1.480582 -0.215515
-0.690081 1.486803 -0.215796
-0.681584 1.484262 -0.216188
-0.677265 1.487940 -0.216521
-0.672873 1.491549 -0.216864
-0.669210 1.496315 -0.217205
-0.664138 1.498947 -0.217573
-0.659646 1.502499 -0.217938
-0.654610 1.505214 -0.218314
-0.650460 1.509355 -0.218681
-0.647893 1.516096 -0.219030
-0.641862 1.517252 -0.219425
-0.636879 1.520108 -0.219805
-0.631954 1.523063 -0.220184
-0.626907 1.525814 -0.220562
-0.621215 1.527459 -0.220943
-0.617868 1.533125 -0.221297
-0.612655 1.535593 -0.221666
-0.607154 1.537539 -0.222032
-0.602607 1.541165 -0.222385
-0.598586 1.545750 -0.222728
-0.594365 1.550004 -0.223067
-0.589482 1.553063 -0.223405
-0.585174 1.557194 -0.223733
-0.580326 1.560332 -0.224057
-0.574981 1.562523 -0.224377
-0.570041 1.565474 -0.224687
-0.565614 1.569426 -0.224987
-0.561136 1.573296 -0.225280
-0.556825 1.577521 -0.225565
-0.552218 1.581179 -0.225843
-0.547433 1.584489 -0.226114
-0.542391 1.587276 -0.226378
-0.537295 1.589950 -0.226633
-0.532499 1.593252 -0.226880
-0.527801 1.596777 -0.227118
-0.521773 1.597437 -0.227349
-0.516397 1.599476 -0.227571
-0.513958 1.608022 -0.227786
-0.507874 1.608516 -0.227992
-0.503275 1.612338 -0.228191
-0.498855 1.616603 -0.228382
-0.494274 1.620536 -0.228565
-0.489372 1.623746 -0.228740
-0.484481 1.627001 -0.228907
-0.478812 1.628388 -0.229064
-0.473896 1.631598 -0.229216
-0.469369 1.635800 -0.229361
-0.464432 1.639017 -0.229498
-0.459694 1.642766 -0.229628
-0.455069 1.646849 -0.229751
-0.450196 1.650330 -0.229867
-0.444580 1.651866 -0.229970
-0.439122 1.653809 -0.230068
-0.434800 1.658864 -0.230165
-0.430216 1.663274 -0.230254
-0.424909 1.665711 -0.230331
-0.420625 1.671088 -0.230409
-0.416865 1.678089 -0.230484
-0.409905 1.675800 -0.230529
-0.406622 1.684393 -0.230594
-0.400422 1.684322 -0.230631
-0.394552 1.685210 -0.230664
-0.388601 1.685813 -0.230689
-0.386841 1.699732 -0.230743
-0.380360 1.698754 -0.230751
-0.374761 1.700588 -0.230760
-0.370591 1.707207 -0.230776
-0.366830 1.715383 -0.230789
-0.361306 1.717680 -0.230780
-0.354534 1.715602 -0.230753
-0.348768 1.716995 -0.230730
-0.344716 1.724635 -0.230716
-0.339391 1.727766 -0.230684
-0.333861 1.730183 -0.230644
-0.328195 1.732102 -0.230596
-0.323537 1.738000 -0.230552
-0.318164 1.741202 -0.230495
-0.312779 1.744429 -0.230432
-0.307127 1.746610 -0.230360
-0.301332 1.748217 -0.230281
-0.297108 1.756651 -0.230210
-0.292401 1.763244 -0.230128
-0.286539 1.764836 -0.230029
-0.280802 1.767016 -0.229926
-0.275520 1.771393 -0.229819
-0.269897 1.774259 -0.229704
-0.264586 1.778750 -0.229584
-0.259564 1.784863 -0.229460
-0.253587 1.786254 -0.229322
-0.247960 1.789524 -0.229180
-0.242593 1.794323 -0.229032
-0.236912 1.797557 -0.228876
-0.231468 1.802273 -0.228714
-0.225950 1.806757 -0.228544
-0.220293 1.810587 -0.228366
-0.214584 1.814262 -0.228181
-0.208771 1.817428 -0.227987
-0.203058 1.821400 -0.227787
-0.197480 1.826492 -0.227578
-0.192310 1.834771 -0.227361
-0.185682 1.832843 -0.227136
-0.180380 1.840814 -0.226901
-0.173907 1.840065 -0.226662
-0.168665 1.849294 -0.226407
-0.162578 1.852000 -0.226149
-0.156720 1.856910 -0.225879
-0.151071 1.864108 -0.225596
-0.144576 1.863735 -0.225315
-0.138611 1.868636 -0.225017
-0.132477 1.872172 -0.224711
-0.126193 1.874353 -0.224399
-0.120246 1.880680 -0.224068
-0.114471 1.889820 -0.223718
-0.107902 1.889586 -0.223382
-0.101646 1.893663 -0.223024
-0.095371 1.897985 -0.222655
-0.089087 1.902769 -0.222273
-0.082709 1.906664 -0.221882
-0.076299 1.910617 -0.221481
-0.069888 1.915302 -0.221065
-0.063396 1.919093 -0.220641
-0.056898 1.923635 -0.220202
-0.050332 1.927444 -0.219754
-0.043715 1.930772 -0.219297
-0.037048 1.933392 -0.218833
-0.030376 1.937049 -0.218350
-0.023723 1.944095 -0.217834
-0.017012 1.951990 -0.217297
-0.010196 1.955759 -0.216774
-0.003343 1.960149 -0.216234
0.003557 1.965794 -0.215671
0.010500 1.969313 -0.215112
0.017485 1.973332 -0.214535
0.024474 1.974869 -0.213968
0.031504 1.977492 -0.213380
0.038617 1.982188 -0.212760
0.045734 1.985352 -0.212143
0.052923 1.989584 -0.211502
0.060131 1.993102 -0.210857
0.067380 1.996692 -0.210200
0.074734 2.001615 -0.209516
0.081993 2.003780 -0.208853
0.089302 2.006339 -0.208176
0.096632 2.008747 -0.207492
0.104003 2.011364 -0.206797
0.111582 2.016449 -0.206060
0.119075 2.019720 -0.205340
0.126540 2.022220 -0.204625
0.133927 2.023500 -0.203923
0.141402 2.025586 -0.203206
0.149085 2.029645 -0.202455
0.156494 2.030570 -0.201752
0.163856 2.030965 -0.201060
0.171119 2.030443 -0.200387
0.178403 2.030191 -0.199714
0.185606 2.029321 -0.199060
0.192594 2.026837 -0.198445
0.199407 2.023247 -0.197864
0.205968 2.018100 -0.197328
0.212621 2.014091 -0.196788
0.219035 2.008773 -0.196295
0.225196 2.002205 -0.195849
0.231356 1.996189 -0.195417
0.237425 1.990109 -0.195013
0.243582 1.985109 -0.194614
0.249664 1.980128 -0.194244
0.255499 1.974161 -0.193928
0.261023 1.966936 -0.193673
0.267246 1.964235 -0.193352
0.273490 1.962023 -0.193054
0.279498 1.958908 -0.192814
0.284735 1.952168 -0.192696
0.289513 1.943662 -0.192660
0.294917 1.938929 -0.192576
0.299638 1.931333 -0.192601
0.304449 1.924772 -0.192643
0.310145 1.922919 -0.192615
0.315740 1.920973 -0.192631
0.320817 1.917047 -0.192736
0.325704 1.912724 -0.192892
0.330230 1.907272 -0.193116
0.334674 1.901953 -0.193378
0.339652 1.899364 -0.193615
0.344387 1.896146 -0.193907
0.348334 1.890090 -0.194304
0.352504 1.885410 -0.194705
0.357076 1.882750 -0.195097
0.362080 1.882132 -0.195479
-0.809470 1.401907 -0.221649
-0.806434 1.404839 -0.221213
-0.803079 1.407503 -0.220808
-0.801036 1.411821 -0.220421
-0.796998 1.413894 -0.220082
-0.791992 1.414904 -0.219784
-0.790414 1.420128 -0.219484
-0.786704 1.422903 -0.219236
-0.780083 1.422212 -0.219052
-0.773874 1.422079 -0.218898
-0.773671 1.429478 -0.218710
-0.769031 1.431481 -0.218604
-0.759972 1.427978 -0.218583
-0.762207 1.438873 -0.218461
-0.757309 1.440820 -0.218455
-0.749601 1.439193 -0.218513
-0.743750 1.440006 -0.218580
-0.743132 1.447777 -0.218614
-0.738966 1.450987 -0.218719
-0.732381 1.451028 -0.218879
-0.732530 1.460223 -0.218988
-0.724910 1.458966 -0.219211
-0.719126 1.460230 -0.219436
-0.715443 1.464453 -0.219660
-0.711671 1.468630 -0.219905
-0.707062 1.471692 -0.220179
-0.702965 1.475538 -0.220465
-0.698415 1.478788 -0.220771
-0.693376 1.481364 -0.221096
-0.689362 1.485482 -0.221425
-0.684607 1.488548 -0.221772
-0.676893 1.487180 -0.222151
-0.673987 1.493072 -0.222501
-0.670635 1.498357 -0.222862
-0.665082 1.500286 -0.223245
-0.659905 1.502798 -0.223628
-0.654891 1.505570 -0.224013
-0.650592 1.509493 -0.224397
-0.646389 1.513600 -0.224781
-0.643142 1.519302 -0.225163
-0.635940 1.518522 -0.225557
-0.631309 1.521963 -0.225940
-0.626783 1.525593 -0.226321
-0.623627 1.531576 -0.226698
-0.618478 1.534183 -0.227073
-0.612466 1.535273 -0.227444
-0.607161 1.537568 -0.227808
-0.602104 1.540289 -0.228167
-0.597868 1.544482 -0.228521
-0.593044 1.547625 -0.228868
-0.589622 1.553354 -0.229213
-0.585411 1.557671 -0.229549
-0.580812 1.561285 -0.229878
-0.574093 1.560869 -0.230189
-0.571011 1.567385 -0.230511
-0.565849 1.569925 -0.230814
-0.560627 1.572336 -0.231108
-0.556148 1.576215 -0.231400
-0.551985 1.580753 -0.231686
-0.546651 1.582936 -0.231956
-0.541645 1.585779 -0.232220
-0.537231 1.589860 -0.232481
-0.532297 1.592870 -0.232729
-0.526424 1.593875 -0.232960
-0.521946 1.597857 -0.233197
-0.518139 1.603345 -0.233434
-0.511649 1.602941 -0.233631
-0.507670 1.608107 -0.233851
-0.502907 1.611550 -0.234053
-0.498701 1.616300 -0.234256
-0.493748 1.619359 -0.234441
-0.488351 1.621386 -0.234612
-0.483252 1.624112 -0.234779
-0.478519 1.627733 -0.234944
-0.473821 1.631473 -0.235103
-0.469635 1.636525 -0.235263
-0.464813 1.640043 -0.235405
-0.459808 1.643124 -0.235538
-0.454939 1.646582 -0.235665
-0.449048 1.647386 -0.235767
-0.444210 1.650956 -0.235881
-0.439450 1.654778 -0.235990
-0.435486 1.660833 -0.236109
-0.429775 1.662140 -0.236186
-0.425545 1.667604 -0.236286
-0.420527 1.670913 -0.236364
-0.415786 1.675065 -0.236442
-0.411433 1.680427 -0.236522
-0.406531 1.684247 -0.236584
-0.401210 1.686853 -0.236631
-0.395100 1.687045 -0.236653
-0.390442 1.691737 -0.236702
-0.384736 1.693183 -0.236720
-0.380260 1.698600 -0.236763
-0.374086 1.698545 -0.236757
-0.369858 1.704946 -0.236794
-0.366554 1.714647 -0.236849
-0.361362 1.718088 -0.236852
-0.355402 1.718885 -0.236828
-0.350027 1.721749 -0.236813
-0.344548 1.724277 -0.236790
-0.339189 1.727287 -0.236764
-0.333875 1.730519 -0.236734
-0.329080 1.735815 -0.236713
-0.323562 1.738415 -0.236665
-0.317737 1.739828 -0.236604
-0.312617 1.744118 -0.236557
-0.306484 1.744300 -0.236474
-0.300994 1.747170 -0.236405
-0.295788 1.751333 -0.236338
-0.290466 1.755098 -0.236262
-0.285850 1.762171 -0.236202
-0.281105 1.768894 -0.236133
-0.274210 1.765691 -0.235992
-0.269639 1.773535 -0.235917
-0.264369 1.778224 -0.235815
-0.258555 1.780321 -0.235689
-0.253684 1.787369 -0.235588
-0.246995 1.785012 -0.235422
-0.242229 1.793002 -0.235312
-0.236585 1.796421 -0.235167
-0.231063 1.800671 -0.235021
-0.226057 1.808162 -0.234885
-0.220876 1.814955 -0.234737
-0.214524 1.814732 -0.234544
-0.208664 1.817624 -0.234360
-0.202781 1.820486 -0.234169
-0.196585 1.821315 -0.233961
-0.191055 1.826876 -0.233767
-0.186326 1.838655 -0.233593
-0.179718 1.836903 -0.233350
-0.173805 1.840453 -0.233123
-0.167818 1.843606 -0.232885
-0.163002 1.856931 -0.232678
-0.156829 1.859270 -0.232419
-0.150634 1.861534 -0.232151
-0.144511 1.864653 -0.231878
-0.138674 1.870905 -0.231605
-0.132348 1.872537 -0.231309
-0.125809 1.871906 -0.230999
-0.120189 1.881964 -0.230705
-0.114030 1.886424 -0.230387
-0.107877 1.891472 -0.230060
-0.101490 1.893853 -0.229717
-0.095166 1.897467 -0.229367
-0.088797 1.900862 -0.229006
-0.082512 1.906237 -0.228635
-0.076127 1.910633 -0.228253
-0.069670 1.914368 -0.227859
-0.063218 1.919009 -0.227453
-0.056694 1.922893 -0.227036
-0.050169 1.927791 -0.226606
-0.043556 1.931303 -0.226165
-0.036883 1.933805 -0.225713
-0.030271 1.940442 -0.225244
-0.023556 1.944642 -0.224765
-0.016856 1.953782 -0.224263
-0.010025 1.956568 -0.223761
-0.003167 1.960355 -0.223244
0.003730 1.963893 -0.222715
0.010665 1.967444 -0.222173
0.017642 1.971396 -0.221618
0.024674 1.976208 -0.221045
0.031752 1.980768 -0.220461
0.038841 1.983859 -0.219870
0.045959 1.986784 -0.219268
0.053118 1.989907 -0.218654
0.060331 1.993497 -0.218024
0.067641 1.998386 -0.217375
0.074925 2.001641 -0.216724
0.082199 2.004032 -0.216068
0.089459 2.005662 -0.215409
0.096773 2.007821 -0.214736
0.104256 2.012090 -0.214037
0.111788 2.016393 -0.213327
0.119272 2.019484 -0.212620
0.126629 2.020589 -0.211926
0.134048 2.022239 -0.211221
0.141456 2.023561 -0.210516
0.148938 2.025492 -0.209801
0.156901 2.032046 -0.209030
0.164221 2.031862 -0.208337
0.171462 2.030989 -0.207654
0.178642 2.029669 -0.206983
0.185704 2.027499 -0.206329
0.192620 2.024363 -0.205699
0.199347 2.020052 -0.205096
0.206223 2.017247 -0.204487
0.212714 2.011925 -0.203930
0.218973 2.005430 -0.203411
0.225390 2.000548 -0.202889
0.231691 1.995347 -0.202394
0.237884 1.989913 -0.201928
0.244191 1.985676 -0.201468
0.250327 1.980817 -0.201047
0.256147 1.974560 -0.200681
0.261751 1.967600 -0.200361
0.267392 1.961424 -0.200061
0.273750 1.959701 -0.199714
0.279630 1.955753 -0.199444
0.285032 1.949761 -0.199250
0.290572 1.945002 -0.199072
0.295166 1.936008 -0.199016
0.300323 1.930422 -0.198935
0.305489 1.925390 -0.198885
0.310945 1.922210 -0.198840
0.316473 1.919773 -0.198822
0.321185 1.914047 -0.198911
0.325644 1.907707 -0.199054
0.330827 1.905037 -0.199166
0.335388 1.900097 -0.199364
0.340570 1.898237 -0.199542
0.345139 1.894192 -0.199803
0.348665 1.886311 -0.200177
0.353101 1.882618 -0.200508
0.358318 1.882412 -0.200810
0.363055 1.880621 -0.201180
0.368194 1.880704 -0.201551
-0.813079 1.398176 -0.226927
-0.810360 1.401408 -0.226492
-0.806088 1.402948 -0.226089
-0.802032 1.404830 -0.225716
-0.799901 1.409074 -0.225368
-0.793668 1.408576 -0.225063
-0.792516 1.414212 -0.224775
-0.789401 1.417631 -0.224524
-0.786260 1.421134 -0.224306
-0.781830 1.423174 -0.224126
-0.775924 1.423484 -0.223986
-0.774028 1.428842 -0.223861
-0.770204 1.431923 -0.223777
-0.765757 1.434318 -0.223729
-0.763306 1.439344 -0.223704
-0.757870 1.440664 -0.223725
-0.753482 1.443403 -0.223773
-0.750350 1.447868 -0.223844
-0.744070 1.448290 -0.223960
-0.738835 1.450135 -0.224099
-0.735101 1.454053 -0.224258
-0.728451 1.454105 -0.224455
-0.725444 1.459156 -0.224661
-0.720470 1.461591 -0.224898
-0.715758 1.464438 -0.225155
-0.711741 1.468313 -0.225429
-0.707273 1.471615 -0.225723
-0.702164 1.474048 -0.226036
-0.696702 1.475997 -0.226363
-0.692003 1.479079 -0.226702
-0.688853 1.484484 -0.227052
-0.683144 1.486146 -0.227414
-0.679661 1.491163 -0.227785
-0.677442 1.498166 -0.228166
-0.669678 1.496739 -0.228546
-0.665864 1.501375 -0.228937
-0.660334 1.503364 -0.229327
-0.655030 1.505700 -0.229719
-0.649718 1.508019 -0.230112
-0.646477 1.513683 -0.230515
-0.642937 1.518919 -0.230916
-0.639418 1.524239 -0.231319
-0.631816 1.522783 -0.231692
-0.626890 1.525755 -0.232079
-0.622144 1.529032 -0.232464
-0.618208 1.533713 -0.232851
-0.612970 1.536155 -0.233222
-0.607505 1.538183 -0.233585
-0.602589 1.541164 -0.233947
-0.596831 1.542626 -0.234293
-0.592944 1.547460 -0.234654
-0.589153 1.552510 -0.235011
-0.585806 1.558430 -0.235368
-0.581429 1.562472 -0.235705
-0.577105 1.566636 -0.236037
-0.571809 1.568950 -0.236346
-0.566129 1.570500 -0.236640
-0.559529 1.570199 -0.236910
-0.554215 1.572387 -0.237192
-0.550811 1.578412 -0.237501
-0.546140 1.581921 -0.237779
-0.539320 1.581006 -0.238008
-0.535789 1.586875 -0.238293
-0.531103 1.590374 -0.238547
-0.526286 1.593608 -0.238791
-0.520696 1.595180 -0.239009
-0.517415 1.601788 -0.239272
-0.510102 1.599537 -0.239434
-0.505875 1.604102 -0.239660
-0.502619 1.610929 -0.239903
-0.497574 1.613736 -0.240095
-0.491347 1.613791 -0.240248
-0.486290 1.616549 -0.240424
-0.482288 1.621843 -0.240621
-0.477925 1.626333 -0.240801
-0.473622 1.631028 -0.240977
-0.469695 1.636720 -0.241158
-0.464943 1.640419 -0.241308
-0.460639 1.645305 -0.241465
-0.454602 1.645764 -0.241563
-0.449048 1.647446 -0.241667
-0.445348 1.654056 -0.241824
-0.440628 1.658035 -0.241943
-0.435212 1.660155 -0.242032
-0.431883 1.668083 -0.242186
-0.425654 1.667996 -0.242234
-0.420913 1.672111 -0.242328
-0.415588 1.674588 -0.242395
-0.410969 1.679163 -0.242481
-0.406337 1.683781 -0.242562
-0.400916 1.686081 -0.242607
-0.395501 1.688414 -0.242647
-0.390190 1.691087 -0.242684
-0.384072 1.691215 -0.242684
-0.378963 1.694559 -0.242717
-0.373918 1.698162 -0.242748
-0.369565 1.704148 -0.242801
-0.364887 1.709169 -0.242837
-0.360422 1.715043 -0.242877
-0.355307 1.718771 -0.242885
-0.349669 1.720700 -0.242864
-0.344185 1.723200 -0.242845
-0.339227 1.727692 -0.242844
-0.333998 1.731262 -0.242825
-0.329068 1.736063 -0.242816
-0.323740 1.739425 -0.242783
-0.316594 1.735579 -0.242658
-0.310487 1.735764 -0.242575
-0.305644 1.741168 -0.242549
-0.299886 1.742842 -0.242473
-0.294975 1.748210 -0.242434
-0.290123 1.754007 -0.242393
-0.283773 1.753212 -0.242271
-0.279111 1.760141 -0.242231
-0.273194 1.761378 -0.242119
-0.267391 1.763172 -0.242008
-0.262851 1.771254 -0.241962
-0.257763 1.776882 -0.241880
-0.252007 1.779253 -0.241756
-0.246287 1.781881 -0.241629
-0.241729 1.790941 -0.241564
-0.236854 1.798644 -0.241476
-0.231622 1.804646 -0.241363
-0.226029 1.808786 -0.241223
-0.220785 1.815225 -0.241100
-0.214345 1.814480 -0.240896
-0.207765 1.812719 -0.240677
-0.202548 1.819885 -0.240538
-0.196473 1.821542 -0.240338
-0.191435 1.830638 -0.240201
-0.185862 1.836358 -0.240023
-0.179638 1.837460 -0.239795
-0.173396 1.838448 -0.239559
-0.167898 1.845550 -0.239368
-0.162943 1.857800 -0.239211
-0.156613 1.858783 -0.238950
-0.150303 1.859992 -0.238682
-0.144332 1.864521 -0.238433
-0.138448 1.870316 -0.238185
-0.132117 1.871866 -0.237894
-0.126198 1.878142 -0.237629
-0.120201 1.884128 -0.237352
-0.113809 1.885830 -0.237035
-0.107424 1.887804 -0.236711
-0.101204 1.892300 -0.236393
-0.094717 1.893381 -0.236044
-0.088530 1.899420 -0.235715
-0.082189 1.903724 -0.235364
-0.075758 1.907036 -0.234997
-0.069456 1.913669 -0.234635
-0.062906 1.915980 -0.234241
-0.056389 1.919727 -0.233843
-0.049967 1.927206 -0.233448
-0.043381 1.931557 -0.233027
-0.036737 1.935258 -0.232592
-0.030042 1.938210 -0.232143
-0.023423 1.947825 -0.231701
-0.016649 1.951814 -0.231229
-0.009835 1.955818 -0.230744
-0.002979 1.959088 -0.230245
0.003915 1.963616 -0.229735
0.010848 1.967094 -0.229211
0.017821 1.970766 -0.228675
0.024882 1.977474 -0.228127
0.031926 1.980104 -0.227564
0.038979 1.981893 -0.226989
0.046123 1.985931 -0.226402
0.053278 1.989014 -0.225802
0.060483 1.992468 -0.225191
0.067821 1.998055 -0.224563
0.075079 2.000772 -0.223928
0.082316 2.002504 -0.223285
0.089587 2.004398 -0.222632
0.096947 2.007323 -0.221966
0.104399 2.011103 -0.221287
0.111950 2.015673 -0.220594
0.119354 2.017695 -0.219904
0.126850 2.020525 -0.219202
0.134345 2.022984 -0.218496
0.141737 2.024012 -0.217793
0.149287 2.026537 -0.217077
0.157096 2.031398 -0.216341
0.164603 2.032922 -0.215626
0.171858 2.032018 -0.214930
0.179096 2.031047 -0.214238
0.186145 2.028593 -0.213565
0.192875 2.023787 -0.212921
0.199781 2.020755 -0.212273
0.206463 2.016330 -0.211651
0.213141 2.012250 -0.211040
0.219354 2.005276 -0.210478
0.225717 1.999881 -0.209920
0.232047 1.994726 -0.209380
0.238472 1.990625 -0.208851
0.244551 1.984772 -0.208368
0.250709 1.979897 -0.207901
0.256702 1.974505 -0.207469
0.262369 1.967722 -0.207088
0.268150 1.962144 -0.206723
0.273846 1.956597 -0.206393
0.280142 1.954745 -0.206045
0.285781 1.949817 -0.205779
0.290809 1.942266 -0.205589
0.295994 1.936086 -0.205419
0.301351 1.931285 -0.205269
0.306580 1.926350 -0.205162
0.312193 1.923694 -0.205061
0.317587 1.920433 -0.205011
0.322096 1.913606 -0.205058
0.326504 1.906878 -0.205146
0.330841 1.900380 -0.205272
0.335846 1.897251 -0.205387
0.340441 1.892807 -0.205563
0.344712 1.887466 -0.205793
0.349264 1.883731 -0.206038
0.354103 1.881546 -0.206299
0.359014 1.879999 -0.206588
0.363804 1.878315 -0.206917
0.368003 1.874689 -0.207311
-0.813724 1.397376 -0.231768
-0.810104 1.399612 -0.231361
-0.806510 1.401977 -0.230985
-0.803002 1.404544 -0.230639
-0.799606 1.407347 -0.230325
-0.796577 1.410693 -0.230044
-0.792381 1.412761 -0.229792
-0.789188 1.416130 -0.229575
-0.785874 1.419467 -0.229392
-0.782324 1.422629 -0.229240
-0.778164 1.425147 -0.229121
-0.773278 1.426860 -0.229034
-0.769802 1.430420 -0.228983
-0.766369 1.434142 -0.228965
-0.760709 1.435137 -0.228975
-0.754953 1.436067 -0.229016
-0.754055 1.443346 -0.229099
-0.749080 1.445458 -0.229203
-0.744012 1.447512 -0.229335
-0.738788 1.449421 -0.229495
-0.734044 1.452028 -0.229681
-0.731515 1.457698 -0.229901
-0.725095 1.458161 -0.230131
-0.720754 1.461507 -0.230390
-0.715830 1.464102 -0.230667
-0.711195 1.467148 -0.230964
-0.708056 1.472366 -0.231287
-0.700843 1.471825 -0.231602
-0.697778 1.477262 -0.231956
-0.693047 1.480342 -0.232312
-0.689446 1.485123 -0.232687
-0.685645 1.489669 -0.233072
-0.681594 1.493891 -0.233463
-0.676919 1.497206 -0.233856
-0.669577 1.496440 -0.234227
-0.664751 1.499521 -0.234626
-0.661281 1.504744 -0.235042
-0.655067 1.505667 -0.235429
-0.650027 1.508436 -0.235830
-0.647337 1.515010 -0.236261
-0.643293 1.519447 -0.236675
-0.635668 1.517991 -0.237034
-0.630739 1.520948 -0.237428
-0.626535 1.525128 -0.237830
-0.622113 1.528959 -0.238226
-0.617467 1.532419 -0.238613
-0.612652 1.535591 -0.238992
-0.608425 1.539801 -0.239376
-0.603215 1.542280 -0.239736
-0.597618 1.544047 -0.240080
-0.592797 1.547197 -0.240433
-0.589916 1.553924 -0.240823
-0.585348 1.557584 -0.241170
-0.581767 1.563119 -0.241533
-0.576758 1.565986 -0.241855
-0.571681 1.568717 -0.242167
-0.565583 1.569447 -0.242445
-0.558499 1.568178 -0.242685
-0.553987 1.571945 -0.242986
-0.549395 1.575565 -0.243277
-0.545549 1.580728 -0.243583
-0.541229 1.584962 -0.243868
-0.534824 1.584871 -0.244082
-0.530360 1.588814 -0.244346
-0.525832 1.592650 -0.244602
-0.520755 1.595322 -0.244831
-0.516556 1.599918 -0.245083
-0.511842 1.603416 -0.245310
-0.506608 1.605767 -0.245511
-0.502435 1.610527 -0.245743
-0.497597 1.613807 -0.245943
-0.492077 1.615514 -0.246111
-0.486199 1.616356 -0.246256
-0.482998 1.623566 -0.246499
-0.478439 1.627608 -0.246682
-0.473583 1.630960 -0.246847
-0.468501 1.633777 -0.246996
-0.466015 1.643161 -0.247248
-0.460730 1.645574 -0.247376
-0.455582 1.648349 -0.247503
-0.449816 1.649511 -0.247595
-0.446089 1.656082 -0.247773
-0.441963 1.661698 -0.247929
-0.435225 1.660252 -0.247956
-0.431229 1.666333 -0.248106
-0.425251 1.666935 -0.248155
-0.420489 1.670976 -0.248257
-0.416087 1.676127 -0.248372
-0.410666 1.678364 -0.248430
-0.406164 1.683367 -0.248529
-0.400578 1.685166 -0.248567
-0.395132 1.687394 -0.248607
-0.390052 1.690785 -0.248660
-0.384991 1.694285 -0.248709
-0.380857 1.700846 -0.248805
-0.375706 1.704214 -0.248839
-0.371063 1.709336 -0.248898
-0.365140 1.710215 -0.248878
-0.359781 1.713022 -0.248885
-0.354998 1.717897 -0.248922
-0.349433 1.720081 -0.248907
-0.343963 1.722632 -0.248892
-0.338973 1.727005 -0.248903
-0.333833 1.730913 -0.248899
-0.328037 1.732379 -0.248849
-0.321860 1.732345 -0.248768
-0.315547 1.731707 -0.248671
-0.311124 1.738711 -0.248697
-0.305605 1.741371 -0.248643
-0.299924 1.743389 -0.248574
-0.294460 1.746378 -0.248515
-0.290965 1.758174 -0.248594
-0.284731 1.758009 -0.248471
-0.278734 1.758871 -0.248360
-0.273181 1.761822 -0.248276
-0.268089 1.767084 -0.248223
-0.262627 1.770704 -0.248138
-0.257152 1.774367 -0.248047
-0.251466 1.777059 -0.247935
-0.246038 1.781202 -0.247838
-0.242178 1.794093 -0.247870
-0.237531 1.803177 -0.247835
-0.231740 1.806096 -0.247698
-0.225903 1.808838 -0.247553
-0.220070 1.811706 -0.247402
-0.214455 1.816058 -0.247266
-0.208235 1.816684 -0.247069
-0.202643 1.821495 -0.246926
-0.196778 1.824673 -0.246752
-0.191503 1.832205 -0.246632
-0.185649 1.835926 -0.246450
-0.179492 1.837541 -0.246231
-0.173456 1.840181 -0.246019
-0.167901 1.846901 -0.245854
-0.162016 1.851291 -0.245648
-0.156066 1.855407 -0.245431
-0.150013 1.858857 -0.245196
-0.143960 1.862571 -0.244957
-0.138063 1.868158 -0.244731
-0.132119 1.873738 -0.244496
-0.125937 1.877194 -0.244225
-0.119882 1.882454 -0.243966
-0.113671 1.886348 -0.243682
-0.107202 1.887247 -0.243354
-0.100630 1.886780 -0.243002
-0.094239 1.888931 -0.242671
-0.087914 1.892440 -0.242344
-0.081680 1.898062 -0.242028
-0.075198 1.899942 -0.241664
-0.068773 1.903354 -0.241305
-0.062508 1.911144 -0.240976
-0.056101 1.917164 -0.240617
-0.049606 1.922223 -0.240237
-0.043150 1.930192 -0.239870
-0.036508 1.933727 -0.239452
-0.029807 1.936096 -0.239013
-0.023098 1.939449 -0.238570
-0.016441 1.950459 -0.238171
-0.009635 1.954821 -0.237709
-0.002785 1.958796 -0.237231
0.004111 1.964278 -0.236750
0.011051 1.968303 -0.236247
0.018030 1.971971 -0.235728
0.025033 1.974743 -0.235192
0.032077 1.977954 -0.234646
0.039145 1.980687 -0.234086
0.046247 1.983505 -0.233514
0.053431 1.987727 -0.232935
0.060668 1.992110 -0.232343
0.068036 1.998347 -0.231744
0.075302 2.001178 -0.231122
0.082551 2.003048 -0.230487
0.089858 2.005479 -0.229843
0.097268 2.009073 -0.229190
0.104759 2.013263 -0.228526
0.112149 2.015401 -0.227852
0.119596 2.017924 -0.227169
0.127108 2.020874 -0.226477
0.134629 2.023546 -0.225778
0.142076 2.025064 -0.225075
0.149593 2.027108 -0.224365
0.157258 2.030413 -0.223649
0.164803 2.032246 -0.222933
0.172201 2.032569 -0.222221
0.179515 2.032140 -0.221513
0.186702 2.030683 -0.220814
0.193574 2.026829 -0.220131
0.200252 2.021786 -0.219465
0.206939 2.017222 -0.218808
0.213430 2.011626 -0.218172
0.219529 2.003732 -0.217568
0.225874 1.998111 -0.216968
0.232429 1.994341 -0.216376
0.238756 1.989465 -0.215813
0.244943 1.984152 -0.215278
0.250670 1.976523 -0.214789
0.257025 1.973170 -0.214291
0.262746 1.966560 -0.213852
0.268747 1.962050 -0.213426
0.274863 1.958607 -0.213022
0.280396 1.952470 -0.212679
0.286070 1.947586 -0.212360
0.291706 1.942985 -0.212076
0.296759 1.935950 -0.211856
0.302229 1.931514 -0.211649
0.307557 1.926863 -0.211484
0.312798 1.922273 -0.211360
0.318470 1.920123 -0.211251
0.323606 1.915947 -0.211205
0.326938 1.904271 -0.211286
0.331738 1.899664 -0.211330
0.336378 1.894828 -0.211418
0.340909 1.889998 -0.211546
0.345205 1.884658 -0.211721
0.349917 1.881462 -0.211912
0.354519 1.878222 -0.212143
0.359729 1.877754 -0.212382
0.363348 1.871429 -0.212721
0.367283 1.866769 -0.213079
0.372078 1.865752 -0.213434
-0.818203 1.394663 -0.237049
-0.814449 1.396691 -0.236638
-0.811799 1.400088 -0.236268
-0.809258 1.403727 -0.235930
-0.807007 1.407824 -0.235626
-0.802563 1.409472 -0.235331
-0.799151 1.412433 -0.235079
-0.794292 1.413778 -0.234847
-0.789140 1.414857 -0.234646
-0.785119 1.417384 -0.234489
-0.782069 1.421196 -0.234375
-0.777880 1.423726 -0.234284
-0.773406 1.425998 -0.234225
-0.769319 1.428844 -0.234203
-0.764497 1.430858 -0.234207
-0.759476 1.432697 -0.234241
-0.756156 1.436793 -0.234322
-0.751703 1.439528 -0.234424
-0.748267 1.443672 -0.234565
-0.743579 1.446266 -0.234723
-0.738362 1.448225 -0.234902
-0.733064 1.450130 -0.235106
-0.730636 1.455968 -0.235365
-0.726321 1.459340 -0.235627
-0.720603 1.460841 -0.235895
-0.716049 1.463990 -0.236195
-0.711252 1.466847 -0.236510
-0.706471 1.469767 -0.236841
-0.704823 1.477218 -0.237231
-0.697912 1.477171 -0.237561
-0.693243 1.480373 -0.237934
-0.690902 1.487045 -0.238353
-0.686110 1.490158 -0.238744
-0.681567 1.493668 -0.239146
-0.675646 1.495107 -0.239529
-0.670745 1.498097 -0.239934
-0.665347 1.500324 -0.240332
-0.660202 1.502942 -0.240736
-0.656818 1.508352 -0.241177
-0.652002 1.511521 -0.241589
-0.647112 1.514577 -0.241999
-0.641734 1.516835 -0.242395
-0.635522 1.517699 -0.242767
-0.630615 1.520698 -0.243166
-0.626496 1.525027 -0.243581
-0.622529 1.529640 -0.243996
-0.617771 1.532920 -0.244386
-0.613157 1.536452 -0.244775
-0.608565 1.540031 -0.245159
-0.603366 1.542536 -0.245518
-0.597532 1.543881 -0.245850
-0.595342 1.551827 -0.246290
-0.588937 1.552112 -0.246589
-0.584193 1.555426 -0.246934
-0.578963 1.557828 -0.247255
-0.575720 1.564002 -0.247637
-0.570462 1.566361 -0.247942
-0.565146 1.568591 -0.248236
-0.559579 1.570307 -0.248512
-0.553796 1.571559 -0.248770
-0.549943 1.576670 -0.249095
-0.546180 1.582013 -0.249417
-0.540906 1.584294 -0.249672
-0.535361 1.585991 -0.249906
-0.530010 1.588072 -0.250140
-0.525467 1.591866 -0.250400
-0.522188 1.598426 -0.250709
-0.517593 1.602192 -0.250954
-0.513143 1.606305 -0.251198
-0.509340 1.611910 -0.251467
-0.503214 1.612301 -0.251618
-0.503218 1.626768 -0.252060
-0.495910 1.624468 -0.252139
-0.490725 1.627065 -0.252314
-0.483765 1.625413 -0.252391
-0.478529 1.627836 -0.252547
-0.474315 1.632773 -0.252751
-0.471127 1.640334 -0.253005
-0.465840 1.642740 -0.253140
-0.460338 1.644595 -0.253255
-0.455074 1.647058 -0.253378
-0.450702 1.651873 -0.253545
-0.445672 1.655009 -0.253668
-0.442757 1.663890 -0.253912
-0.437682 1.667040 -0.254023
-0.430027 1.663043 -0.253969
-0.425351 1.667277 -0.254091
-0.420087 1.669893 -0.254170
-0.416684 1.677936 -0.254364
-0.411540 1.681028 -0.254442
-0.405936 1.682776 -0.254483
-0.400190 1.684085 -0.254509
-0.394811 1.686515 -0.254554
-0.389965 1.690631 -0.254630
-0.385824 1.697073 -0.254752
-0.380412 1.699546 -0.254780
-0.375923 1.705081 -0.254870
-0.371112 1.709667 -0.254933
-0.365610 1.711996 -0.254940
-0.360284 1.714955 -0.254955
-0.355089 1.718424 -0.254976
-0.349619 1.720970 -0.254971
-0.343911 1.722680 -0.254942
-0.338730 1.726354 -0.254950
-0.333590 1.730260 -0.254958
-0.327665 1.731229 -0.254896
-0.321342 1.730611 -0.254795
-0.315871 1.733328 -0.254760
-0.311695 1.741391 -0.254835
-0.306099 1.743796 -0.254782
-0.300672 1.746958 -0.254740
-0.295445 1.751069 -0.254712
-0.290944 1.758515 -0.254748
-0.285217 1.760671 -0.254667
-0.279190 1.761468 -0.254552
-0.274049 1.766446 -0.254518
-0.268384 1.769053 -0.254429
-0.262684 1.771552 -0.254332
-0.256952 1.773949 -0.254227
-0.251229 1.776453 -0.254119
-0.246468 1.784163 -0.254109
-0.242104 1.794385 -0.254143
-0.237167 1.801874 -0.254114
-0.231978 1.808250 -0.254055
-0.226064 1.810615 -0.253910
-0.220166 1.813155 -0.253762
-0.214220 1.815481 -0.253604
-0.208746 1.820951 -0.253499
-0.202993 1.824833 -0.253356
-0.197142 1.828237 -0.253197
-0.191095 1.830404 -0.253008
-0.185638 1.837014 -0.252894
-0.179604 1.839624 -0.252698
-0.173542 1.842145 -0.252493
-0.167727 1.846835 -0.252320
-0.161715 1.850157 -0.252113
-0.155896 1.855407 -0.251933
-0.149876 1.859189 -0.251719
-0.143773 1.862454 -0.251487
-0.137864 1.867937 -0.251284
-0.131893 1.873249 -0.251068
-0.125776 1.877416 -0.250824
-0.119517 1.880311 -0.250550
-0.113362 1.884797 -0.250293
-0.106855 1.885112 -0.249959
-0.100165 1.882853 -0.249577
-0.093883 1.886395 -0.249278
-0.087838 1.894270 -0.249033
-0.081513 1.898490 -0.248723
-0.075096 1.901658 -0.248386
-0.068716 1.906189 -0.248058
-0.062533 1.916212 -0.247796
-0.056004 1.919703 -0.247430
-0.049541 1.926052 -0.247091
-0.042918 1.929027 -0.246694
-0.036285 1.932746 -0.246296
-0.029586 1.934997 -0.245868
-0.022903 1.939720 -0.245459
-0.016255 1.951754 -0.245125
-0.009436 1.955098 -0.244672
-0.002584 1.959100 -0.244214
0.004315 1.965007 -0.243764
0.011256 1.968631 -0.243276
0.018226 1.971379 -0.242767
0.025224 1.974001 -0.242244
0.032264 1.977150 -0.241714
0.039355 1.980924 -0.241177
0.046492 1.984811 -0.240629
0.053695 1.989376 -0.240073
0.060967 1.994399 -0.239507
0.068153 1.996279 -0.238904
0.075523 2.001387 -0.238313
0.082858 2.004808 -0.237697
0.090175 2.007221 -0.237063
0.097561 2.010260 -0.236423
0.105066 2.014517 -0.235778
0.112506 2.017220 -0.235114
0.119906 2.018961 -0.234437
0.127359 2.021080 -0.233753
0.134884 2.023707 -0.233063
0.142283 2.024624 -0.232361
0.149837 2.026996 -0.231658
0.157458 2.029782 -0.230951
0.165012 2.031639 -0.230238
0.172497 2.032681 -0.229521
0.179844 2.032430 -0.228804
0.186985 2.030474 -0.228087
0.193881 2.026713 -0.227377
0.200656 2.022314 -0.226675
0.207111 2.015879 -0.225987
0.213656 2.010584 -0.225311
0.219348 1.999743 -0.224660
0.226008 1.996248 -0.224016
0.232594 1.992587 -0.223389
0.239028 1.988294 -0.222783
0.245052 1.981850 -0.222208
0.251231 1.976847 -0.221652
0.256953 1.969605 -0.221132
0.263192 1.965876 -0.220627
0.269349 1.962075 -0.220151
0.274936 1.955583 -0.219721
0.280711 1.950613 -0.219317
0.286464 1.946000 -0.218947
0.291602 1.938733 -0.218629
0.297350 1.935050 -0.218327
0.302982 1.931236 -0.218065
0.308109 1.925449 -0.217856
0.313555 1.921663 -0.217675
0.318677 1.916832 -0.217541
0.323315 1.910309 -0.217462
0.327530 1.902465 -0.217433
0.332841 1.899923 -0.217410
0.337939 1.896863 -0.217432
0.342293 1.891107 -0.217514
0.346496 1.885216 -0.217638
0.350947 1.880810 -0.217792
0.356100 1.879622 -0.217963
0.360656 1.876424 -0.218187
0.364162 1.869559 -0.218473
0.368061 1.864668 -0.218782
0.373848 1.867272 -0.219081
-0.819608 1.394729 -0.241933
-0.816202 1.397203 -0.241553
-0.813171 1.400213 -0.241210
-0.811474 1.404877 -0.240920
-0.809956 1.409887 -0.240664
-0.805216 1.411258 -0.240388
-0.800830 1.413135 -0.240152
-0.796266 1.414894 -0.239947
-0.789729 1.414376 -0.239745
-0.784863 1.415935 -0.239604
-0.781094 1.418916 -0.239515
-0.776998 1.421600 -0.239454
-0.774746 1.426667 -0.239456
-0.770307 1.429136 -0.239458
-0.764723 1.430251 -0.239474
-0.760927 1.433702 -0.239551
-0.757552 1.437789 -0.239666
-0.753791 1.441484 -0.239806
-0.748135 1.442801 -0.239944
-0.743662 1.445724 -0.240129
-0.739181 1.448709 -0.240341
-0.734487 1.451477 -0.240574
-0.729869 1.454408 -0.240832
-0.725889 1.458269 -0.241124
-0.721387 1.461483 -0.241428
-0.715775 1.463205 -0.241728
-0.711397 1.466682 -0.242069
-0.708832 1.472783 -0.242464
-0.704244 1.476083 -0.242832
-0.698868 1.478280 -0.243195
-0.696355 1.484676 -0.243634
-0.689784 1.485170 -0.243987
-0.685745 1.489412 -0.244408
-0.680629 1.492075 -0.244809
-0.673871 1.492245 -0.245171
-0.670858 1.498128 -0.245635
-0.664460 1.498819 -0.246009
-0.662010 1.505669 -0.246495
-0.657727 1.509695 -0.246931
-0.650230 1.508595 -0.247270
-0.644662 1.510533 -0.247662
-0.640992 1.515555 -0.248112
-0.636700 1.519589 -0.248540
-0.630961 1.521225 -0.248915
-0.627628 1.526894 -0.249369
-0.622972 1.530356 -0.249773
-0.617729 1.532811 -0.250150
-0.613098 1.536316 -0.250543
-0.608606 1.540074 -0.250936
-0.603247 1.542298 -0.251288
-0.597865 1.544456 -0.251632
-0.592780 1.547135 -0.251980
-0.588901 1.552023 -0.252371
-0.584226 1.555467 -0.252721
-0.579113 1.558092 -0.253046
-0.573789 1.560301 -0.253352
-0.569884 1.565228 -0.253715
-0.564932 1.568154 -0.254023
-0.559853 1.570826 -0.254317
-0.556053 1.576045 -0.254664
-0.550372 1.577517 -0.254913
-0.545800 1.581219 -0.255208
-0.541772 1.586063 -0.255523
-0.540580 1.596884 -0.255983
-0.530804 1.589734 -0.255980
-0.527178 1.595511 -0.256297
-0.523008 1.600185 -0.256579
-0.518173 1.603446 -0.256816
-0.514501 1.609304 -0.257114
-0.512859 1.619807 -0.257525
-0.508756 1.624905 -0.257789
-0.502803 1.625800 -0.257936
-0.500255 1.634601 -0.258283
-0.495514 1.638381 -0.258491
-0.488969 1.637869 -0.258577
-0.478922 1.628784 -0.258428
-0.473571 1.630944 -0.258570
-0.470683 1.639231 -0.258869
-0.465184 1.641089 -0.258989
-0.459724 1.643034 -0.259104
