ply
format ascii 1.0
comment ---
element vertex 1688
property float x
property float y
property float z
element face 0
property list uchar uint vertex_indices
end_header
0.055719 0.910218 -0.521486
0.057956 0.911188 -0.521595
0.060115 0.911710 -0.521609
0.062167 0.911677 -0.521508
0.064737 0.914061 -0.521917
0.066834 0.914150 -0.521843
0.068799 0.913622 -0.521639
0.070885 0.913633 -0.521551
0.073240 0.914784 -0.521703
0.075643 0.916072 -0.521884
0.077890 0.916649 -0.521917
0.080044 0.916806 -0.521863
0.082220 0.917027 -0.521823
0.084858 0.919018 -0.522155
0.087159 0.919630 -0.522199
0.089404 0.919992 -0.522191
0.091576 0.920058 -0.522123
0.093872 0.920545 -0.522144
0.096125 0.920849 -0.522128
0.098286 0.920801 -0.522040
0.100554 0.921102 -0.522026
0.102875 0.921553 -0.522044
0.105615 0.923355 -0.522345
0.108101 0.924254 -0.522458
0.110330 0.924280 -0.522392
0.112533 0.924204 -0.522307
0.115189 0.925517 -0.522510
0.117545 0.925850 -0.522512
0.120514 0.927996 -0.522890
0.122436 0.926960 -0.522613
0.124762 0.927109 -0.522581
0.127146 0.927402 -0.522582
0.130153 0.929424 -0.522940
0.132828 0.930442 -0.523093
0.134843 0.929598 -0.522864
0.137326 0.930020 -0.522898
0.139882 0.930604 -0.522968
0.142357 0.930937 -0.522987
0.144833 0.931240 -0.523003
0.147705 0.932523 -0.523222
0.150048 0.932413 -0.523157
0.152397 0.932297 -0.523093
0.155410 0.933793 -0.523362
0.157865 0.933869 -0.523342
0.160771 0.934999 -0.523541
0.162567 0.933453 -0.523193
0.165968 0.935662 -0.523618
0.168554 0.935912 -0.523644
0.171765 0.937551 -0.523956
0.174492 0.938035 -0.524035
0.176940 0.937863 -0.523983
0.179598 0.938125 -0.524022
0.182156 0.938138 -0.524013
0.184927 0.938576 -0.524093
0.187686 0.938951 -0.524164
0.190185 0.938747 -0.524119
0.192676 0.938500 -0.524069
0.197243 0.942451 -0.524880
0.198024 0.938671 -0.524113
0.202446 0.942181 -0.524840
0.205333 0.942564 -0.524930
0.208338 0.943139 -0.525063
0.210746 0.942523 -0.524955
0.213867 0.943241 -0.525123
0.216862 0.943677 -0.525237
0.219434 0.943287 -0.525184
0.222769 0.944273 -0.525416
0.225542 0.944186 -0.525431
0.228476 0.944360 -0.525502
0.231282 0.944271 -0.525522
0.234095 0.944166 -0.525540
0.237801 0.945580 -0.525873
0.240479 0.945173 -0.525834
0.242552 0.943719 -0.525582
0.243796 0.940878 -0.525046
0.251216 0.948312 -0.526624
0.255290 0.950073 -0.527037
0.258296 0.950035 -0.527081
0.266402 0.958163 -0.528808
0.268229 0.956122 -0.528439
0.266863 0.949080 -0.527039
0.270596 0.950100 -0.527299
0.276992 0.955179 -0.528396
0.276017 0.948906 -0.527147
0.268372 0.932687 -0.523838
0.288614 0.958424 -0.529197
0.284411 0.947503 -0.526975
0.289159 0.949894 -0.527500
0.292874 0.950738 -0.527700
0.303270 0.961151 -0.529874
0.310406 0.966736 -0.531042
0.310576 0.962416 -0.530152
0.311786 0.959639 -0.529572
0.318459 0.964472 -0.530559
0.319179 0.961087 -0.529834
0.589891 1.302065 -0.600024
0.594984 1.301805 -0.599825
0.600864 1.302632 -0.599827
0.606683 1.303431 -0.599799
0.609081 1.299915 -0.598859
0.610901 1.295795 -0.597772
0.617432 1.297735 -0.597905
0.620379 1.295248 -0.597107
0.622853 1.292292 -0.596190
0.629222 1.294246 -0.596252
-0.397158 1.515525 -0.701944
-0.412688 1.570585 -0.716414
-0.403498 1.557225 -0.712868
-0.407762 1.582249 -0.719374
-0.403097 1.582223 -0.719262
-0.405283 1.602500 -0.724445
-0.401555 1.605932 -0.725168
-0.392054 1.592279 -0.721375
-0.382628 1.578679 -0.717566
-0.379454 1.584247 -0.718747
-0.379566 1.600488 -0.722680
-0.374821 1.601911 -0.722702
-0.371564 1.608372 -0.724005
-0.370243 1.621571 -0.727026
-0.363485 1.617196 -0.725438
-0.355468 1.608563 -0.722719
-0.353673 1.621259 -0.725508
-0.348364 1.622190 -0.725217
-0.187342 1.088112 -0.586174
-0.183453 1.084789 -0.584996
-0.179105 1.079612 -0.583338
-0.174441 1.073020 -0.581317
-0.169750 1.066081 -0.579209
-0.165339 1.060017 -0.577326
-0.160843 1.053354 -0.575294
-0.192010 1.247946 -0.622796
-0.189618 1.254764 -0.624035
-0.169442 1.271160 -0.625265
-0.165823 1.272838 -0.625208
-0.144173 1.284307 -0.625255
-0.140347 1.284922 -0.624959
-0.134912 1.273940 -0.621865
-0.132111 1.281709 -0.623311
-0.121647 1.259782 -0.617199
-0.117411 1.255686 -0.615814
-0.107936 1.271433 -0.618392
-0.095703 1.260983 -0.614777
-0.077809 1.171591 -0.592676
-0.073920 1.162686 -0.590277
-0.069864 1.149951 -0.586994
-0.046805 0.978236 -0.545723
-0.043998 0.965282 -0.542522
-0.041139 0.947103 -0.538125
-0.039483 0.964508 -0.541964
-0.036884 0.949662 -0.538355
-0.034075 0.916804 -0.530615
-0.031965 0.910249 -0.528947
-0.029979 0.909664 -0.528655
-0.028004 0.910045 -0.528588
-0.026027 0.910492 -0.528537
-0.024042 0.911930 -0.528714
-0.022059 0.911584 -0.528486
-0.020082 0.911110 -0.528230
-0.018103 0.910990 -0.528058
-0.016107 0.911634 -0.528061
-0.014068 0.913662 -0.528378
-0.012051 0.914401 -0.528405
-0.010052 0.914455 -0.528278
-0.008066 0.914169 -0.528076
-0.006096 0.913580 -0.527808
-0.004222 0.911205 -0.527139
-0.001797 0.919122 -0.528787
0.000199 0.918666 -0.528552
0.002223 0.918711 -0.528431
0.004249 0.918743 -0.528309
0.006221 0.918046 -0.528026
0.008238 0.917971 -0.527883
0.010237 0.917682 -0.527694
0.012357 0.918772 -0.527813
0.014599 0.921036 -0.528194
0.016705 0.921686 -0.528217
0.018788 0.922026 -0.528172
0.020896 0.922551 -0.528170
0.023070 0.923607 -0.528285
0.025068 0.923052 -0.528045
0.027124 0.922994 -0.527917
0.029170 0.922853 -0.527771
0.030902 0.920307 -0.527097
0.033410 0.923624 -0.527716
0.035805 0.925902 -0.528105
0.037033 0.919997 -0.526699
0.038097 0.913357 -0.525136
0.038961 0.905821 -0.523381
0.041096 0.906665 -0.523463
0.042978 0.905907 -0.523196
0.045105 0.906622 -0.523252
0.049216 0.907082 -0.523154
0.051933 0.910863 -0.523879
0.054103 0.911540 -0.523929
0.055916 0.910320 -0.523568
0.058215 0.911589 -0.523748
0.060335 0.911904 -0.523723
0.062548 0.912631 -0.523787
0.064905 0.913984 -0.523987
0.066956 0.913856 -0.523868
0.068949 0.913459 -0.523692
0.071243 0.914378 -0.523801
0.073449 0.914866 -0.523818
0.075719 0.915585 -0.523886
0.077966 0.916165 -0.523924
0.080136 0.916389 -0.523887
0.082244 0.916344 -0.523794
0.084916 0.918468 -0.524167
0.087393 0.919754 -0.524360
0.089493 0.919568 -0.524240
0.091753 0.919953 -0.524243
0.094156 0.920824 -0.524351
0.096464 0.921308 -0.524377
0.098816 0.921911 -0.524431
0.101430 0.923367 -0.524667
0.103364 0.922474 -0.524404
0.105663 0.922797 -0.524401
0.108097 0.923526 -0.524486
0.110413 0.923838 -0.524484
0.112599 0.923710 -0.524390
0.115680 0.926333 -0.524882
0.118051 0.926694 -0.524894
0.120458 0.927130 -0.524925
0.122657 0.926920 -0.524820
0.125333 0.928082 -0.525007
0.127728 0.928385 -0.525014
0.130983 0.931081 -0.525529
0.133135 0.930611 -0.525376
0.135466 0.930623 -0.525328
0.137454 0.929687 -0.525081
0.140457 0.931458 -0.525408
0.142507 0.930655 -0.525194
0.144884 0.930696 -0.525159
0.147787 0.932058 -0.525406
0.150337 0.932468 -0.525454
0.152678 0.932324 -0.525388
0.155593 0.933567 -0.525616
0.158119 0.933810 -0.525636
0.160780 0.934347 -0.525720
0.163370 0.934674 -0.525763
0.166114 0.935327 -0.525877
0.168616 0.935381 -0.525868
0.171628 0.936564 -0.526098
0.174554 0.937498 -0.526279
0.177767 0.939014 -0.526585
0.179672 0.937611 -0.526281
0.182469 0.938136 -0.526385
0.185394 0.938893 -0.526540
0.188184 0.939320 -0.526629
0.191189 0.940153 -0.526806
0.193337 0.939178 -0.526607
0.196082 0.939407 -0.526663
0.199563 0.941077 -0.527026
0.202723 0.942042 -0.527243
0.205303 0.941817 -0.527214
0.208262 0.942300 -0.527336
0.210999 0.942318 -0.527364
0.214140 0.943066 -0.527548
0.217146 0.943516 -0.527673
0.219978 0.943602 -0.527724
0.223500 0.944915 -0.528036
0.226155 0.944602 -0.528009
0.229158 0.944886 -0.528110
0.231636 0.944206 -0.528011
0.234415 0.944036 -0.528021
0.237998 0.945231 -0.528322
0.240571 0.944641 -0.528248
0.242606 0.943126 -0.527980
0.244126 0.940756 -0.527533
0.255144 0.954134 -0.530414
0.254052 0.947363 -0.529039
0.255210 0.944359 -0.528460
0.255922 0.940678 -0.527737
0.259715 0.941942 -0.528060
0.263614 0.943325 -0.528408
0.272063 0.951730 -0.530243
0.275748 0.952621 -0.530484
0.277714 0.950862 -0.530161
0.278169 0.946852 -0.529356
0.282385 0.948520 -0.529752
0.289003 0.953693 -0.530890
0.282229 0.939188 -0.527839
0.285370 0.939316 -0.527893
0.288058 0.938793 -0.527801
0.304673 0.958052 -0.531909
0.310676 0.962035 -0.532761
0.311427 0.958641 -0.532034
0.313431 0.957052 -0.531681
0.321439 0.963720 -0.533074
0.330214 0.971328 -0.534654
0.570332 1.282464 -0.600592
0.582078 1.291132 -0.602306
0.591297 1.296401 -0.603274
0.597986 1.298361 -0.603515
0.602537 1.297602 -0.603156
0.605019 1.294282 -0.602231
0.607124 1.290608 -0.601210
0.609590 1.287518 -0.600288
0.615444 1.288777 -0.600259
0.618519 1.286653 -0.599493
0.617278 1.279334 -0.597618
-0.427388 1.600943 -0.729517
-0.405773 1.591610 -0.726894
-0.399964 1.588464 -0.725935
-0.395217 1.588600 -0.725817
-0.387071 1.578697 -0.722984
-0.379853 1.571556 -0.720857
-0.377736 1.580220 -0.722910
-0.379052 1.600121 -0.727917
-0.377198 1.610678 -0.730394
-0.371955 1.610758 -0.730048
-0.366004 1.608690 -0.729101
-0.358613 1.601906 -0.726876
-0.351995 1.597687 -0.725305
-0.345237 1.592985 -0.723583
-0.348330 1.622885 -0.730957
-0.338428 1.607485 -0.726363
-0.188725 1.093586 -0.590565
-0.183366 1.084782 -0.587939
-0.179085 1.079830 -0.586319
-0.174944 1.075268 -0.584798
-0.169436 1.065074 -0.581812
-0.164160 1.055431 -0.578974
-0.160232 1.051023 -0.577497
-0.156108 1.045600 -0.575759
-0.189782 1.238041 -0.624038
-0.185559 1.236068 -0.623072
-0.180479 1.229876 -0.621031
-0.175389 1.223306 -0.618902
-0.155873 1.217532 -0.615206
-0.152621 1.219789 -0.615334
-0.148941 1.219592 -0.614850
-0.145196 1.218927 -0.614254
-0.142104 1.222281 -0.614663
-0.139510 1.229026 -0.615915
-0.137078 1.237245 -0.617529
-0.133178 1.262170 -0.622838
-0.120433 1.250898 -0.618818
-0.115949 1.244399 -0.616827
-0.111677 1.239132 -0.615149
-0.106797 1.261818 -0.619897
-0.090877 1.209207 -0.606055
-0.081575 1.179532 -0.598236
-0.077062 1.163590 -0.594090
-0.073035 1.152240 -0.591063
-0.069115 1.140819 -0.588034
-0.063773 1.104553 -0.579089
-0.061364 1.113568 -0.580970
-0.043409 0.952910 -0.541910
-0.041038 0.947531 -0.540452
-0.039366 0.964662 -0.544309
-0.036394 0.934233 -0.536960
-0.034116 0.924884 -0.534590
-0.031845 0.909838 -0.530894
-0.029872 0.910590 -0.530912
-0.027886 0.910117 -0.530646
-0.025907 0.910621 -0.530610
-0.023923 0.911124 -0.530575
-0.021934 0.911697 -0.530559
-0.017959 0.911865 -0.530304
-0.015975 0.911779 -0.530141
-0.013958 0.912893 -0.530256
-0.011913 0.914534 -0.530495
-0.009926 0.914201 -0.530279
-0.007967 0.913257 -0.529924
-0.006026 0.912112 -0.529525
-0.004087 0.911131 -0.529166
-0.001481 0.922206 -0.531577
0.000381 0.919295 -0.530776
0.002364 0.918631 -0.530494
0.004384 0.918566 -0.530350
0.006514 0.919970 -0.530543
0.008406 0.918206 -0.530015
0.010435 0.918235 -0.529897
0.012710 0.921022 -0.530408
0.014934 0.922957 -0.530725
0.017016 0.923244 -0.530669
0.019111 0.923620 -0.530634
0.021105 0.923008 -0.530377
0.023243 0.923709 -0.530418
0.025312 0.923741 -0.530309
0.027337 0.923401 -0.530117
0.029386 0.923254 -0.529970
0.031356 0.922501 -0.529688
0.033496 0.923024 -0.529695
0.035937 0.925632 -0.530171
0.037420 0.921483 -0.529131
0.038347 0.913904 -0.527326
0.039556 0.908577 -0.526030
0.041193 0.906226 -0.525402
0.043198 0.906222 -0.525301
0.045198 0.906166 -0.525190
0.047335 0.906881 -0.525252
0.049424 0.907276 -0.525243
0.052181 0.911255 -0.526032
0.054189 0.911057 -0.525892
0.056316 0.911463 -0.525888
0.058399 0.911610 -0.525827
0.060540 0.912022 -0.525826
0.062785 0.912893 -0.525927
0.064918 0.913183 -0.525901
0.067113 0.913726 -0.525931
0.069187 0.913685 -0.525834
0.071256 0.913610 -0.525730
0.073715 0.915188 -0.525992
0.075834 0.915258 -0.525922
0.078546 0.917749 -0.526386
0.080644 0.917646 -0.526281
0.082659 0.917202 -0.526102
0.085350 0.919373 -0.526497
0.087374 0.918915 -0.526317
0.089727 0.919676 -0.526406
0.091879 0.919662 -0.526326
0.094299 0.920590 -0.526454
0.096687 0.921355 -0.526547
0.099108 0.922186 -0.526655
0.101352 0.922370 -0.526624
0.103720 0.922941 -0.526679
0.105846 0.922679 -0.526553
0.108443 0.923932 -0.526759
0.110817 0.924411 -0.526798
0.113312 0.925237 -0.526914
0.115775 0.925918 -0.526999
0.118248 0.926588 -0.527084
0.120491 0.926528 -0.527013
0.122787 0.926607 -0.526973
0.125569 0.928072 -0.527235
0.127771 0.927815 -0.527126
0.130051 0.927760 -0.527063
0.133498 0.930929 -0.527699
0.135692 0.930554 -0.527571
0.137925 0.930275 -0.527465
0.140211 0.930119 -0.527389
0.143069 0.931445 -0.527634
0.145794 0.932367 -0.527794
0.148844 0.934071 -0.528126
0.151349 0.934332 -0.528148
0.153537 0.933775 -0.527996
0.156013 0.933914 -0.527997
0.158744 0.934641 -0.528127
0.160852 0.933836 -0.527930
0.165036 0.937913 -0.528787
0.166752 0.936128 -0.528384
0.169115 0.935844 -0.528307
0.171880 0.936451 -0.528425
0.174637 0.936998 -0.528532
0.178110 0.939083 -0.528973
0.180561 0.938862 -0.528922
0.183015 0.938625 -0.528869
0.186607 0.940785 -0.529336
0.188847 0.940023 -0.529177
0.190954 0.938974 -0.528959
0.194017 0.939882 -0.529165
0.196812 0.940195 -0.529247
0.199831 0.940919 -0.529420
0.202995 0.941883 -0.529648
0.205531 0.941566 -0.529603
0.208740 0.942528 -0.529837
0.211781 0.943115 -0.529994
0.214438 0.942931 -0.529987
0.217595 0.943655 -0.530179
0.220262 0.943426 -0.530169
0.223987 0.945104 -0.530573
0.226577 0.944664 -0.530523
0.229146 0.944165 -0.530462
0.232157 0.944427 -0.530569
0.234797 0.944007 -0.530530
0.237493 0.943662 -0.530510
0.240940 0.944580 -0.530764
0.242957 0.943032 -0.530487
0.244390 0.940516 -0.530000
0.252745 0.949471 -0.532002
0.253721 0.946140 -0.531340
0.253671 0.941197 -0.530328
0.257583 0.942678 -0.530710
0.257939 0.938473 -0.529856
0.264034 0.943334 -0.530972
0.273592 0.953450 -0.533230
0.276547 0.953203 -0.533233
0.276376 0.948198 -0.532195
0.278382 0.946559 -0.531887
0.286087 0.953431 -0.533430
0.289695 0.954120 -0.533621
0.289291 0.948936 -0.532524
0.283493 0.936056 -0.529741
0.289867 0.940855 -0.530808
0.295611 0.944674 -0.531655
0.303379 0.951272 -0.533100
0.307209 0.952281 -0.533314
0.309224 0.950786 -0.532972
0.317643 0.958084 -0.534539
0.327724 0.967522 -0.536559
0.568022 1.278758 -0.604276
0.578937 1.286392 -0.605809
0.587231 1.290527 -0.606554
0.593761 1.292368 -0.606775
0.598580 1.292042 -0.606500
0.601608 1.289505 -0.605720
0.603160 1.285210 -0.604536
0.605044 1.281473 -0.603451
0.610137 1.281866 -0.603235
0.612593 1.279068 -0.602306
0.613508 1.274494 -0.600973
-0.423573 1.592292 -0.732273
-0.403709 1.561274 -0.723884
-0.405377 1.578815 -0.728631
-0.395420 1.563210 -0.724325
-0.392237 1.581271 -0.729010
-0.387266 1.580754 -0.728703
-0.386661 1.593787 -0.732039
-0.383285 1.598780 -0.733154
-0.376048 1.591956 -0.731030
-0.376684 1.610268 -0.735679
-0.372780 1.614597 -0.736503
-0.364876 1.606066 -0.733818
-0.356384 1.595464 -0.730549
-0.348872 1.588015 -0.728107
-0.343812 1.588942 -0.727895
-0.339304 1.591978 -0.728222
-0.336046 1.599730 -0.729784
-0.330390 1.599140 -0.729084
-0.185633 1.093678 -0.593257
-0.179309 1.080994 -0.589557
-0.174303 1.073031 -0.587115
-0.169500 1.065588 -0.584811
-0.163830 1.054316 -0.581498
-0.159339 1.047512 -0.579371
-0.155689 1.044019 -0.578118
-0.151567 1.038321 -0.576287
-0.148988 1.039255 -0.576196
-0.183453 1.226477 -0.624302
-0.179338 1.224669 -0.623376
-0.173884 1.216180 -0.620719
-0.160361 1.184278 -0.611588
-0.157983 1.190238 -0.612696
-0.154202 1.208503 -0.616522
-0.151566 1.214064 -0.617510
-0.148001 1.214399 -0.617161
-0.143720 1.210321 -0.615694
-0.141388 1.218216 -0.617275
-0.138026 1.219866 -0.617269
-0.136056 1.230917 -0.619642
-0.124711 1.227985 -0.617658
-0.117517 1.228253 -0.616922
-0.113678 1.226270 -0.616034
-0.110266 1.227770 -0.616021
-0.105171 1.213981 -0.612214
-0.100565 1.203510 -0.609249
-0.089927 1.200114 -0.607352
-0.084869 1.180889 -0.602283
-0.080126 1.163205 -0.597615
-0.076374 1.156267 -0.595602
-0.072566 1.147540 -0.593162
-0.062585 1.087405 -0.577922
-0.060005 1.092085 -0.578798
-0.043052 0.946459 -0.542614
-0.040901 0.946789 -0.542508
-0.038468 0.937279 -0.540036
-0.036152 0.928851 -0.537834
-0.033948 0.922024 -0.536026
-0.031750 0.911026 -0.533226
-0.029757 0.910499 -0.532941
-0.027769 0.909844 -0.532628
-0.025788 0.910616 -0.532658
-0.023804 0.910725 -0.532531
-0.021816 0.911245 -0.532505
-0.019814 0.912355 -0.532620
-0.017819 0.912589 -0.532529
-0.015826 0.912666 -0.532403
-0.013804 0.913721 -0.532510
-0.011819 0.913352 -0.532281
-0.009816 0.913545 -0.532188
-0.007829 0.913315 -0.531996
-0.005905 0.911787 -0.531502
-0.003986 0.910399 -0.531043
-0.001325 0.922437 -0.533733
0.000503 0.918937 -0.532781
0.002498 0.918462 -0.532539
0.004537 0.918666 -0.532458
0.006644 0.919723 -0.532578
0.008781 0.921025 -0.532755
0.010898 0.921926 -0.532840
0.013061 0.923229 -0.533020
0.015176 0.923876 -0.533047
0.017240 0.923927 -0.532938
0.019040 0.921402 -0.532234
0.021264 0.922994 -0.532484
0.023427 0.923905 -0.532578
0.025458 0.923597 -0.532392
0.027443 0.922923 -0.532122
0.029474 0.922644 -0.531945
0.031246 0.920403 -0.531319
0.033524 0.922006 -0.531577
0.035874 0.923985 -0.531923
0.037302 0.919516 -0.530791
0.038464 0.913565 -0.529324
0.039187 0.905140 -0.527294
0.041591 0.907654 -0.527769
0.043384 0.906319 -0.527365
0.045383 0.906251 -0.527252
0.049793 0.908363 -0.527541
0.052213 0.910474 -0.527926
0.054150 0.909917 -0.527706
0.056443 0.911197 -0.527903
0.058584 0.911635 -0.527911
0.060865 0.912722 -0.528066
0.062964 0.912870 -0.528010
0.065225 0.913750 -0.528120
0.067225 0.913383 -0.527950
0.069435 0.913951 -0.527992
0.071676 0.914612 -0.528056
0.073821 0.914818 -0.528018
0.076097 0.915548 -0.528100
0.078676 0.917475 -0.528451
0.080984 0.918218 -0.528538
0.082886 0.917309 -0.528254
0.085042 0.917401 -0.528197
0.087759 0.919600 -0.528613
0.089890 0.919518 -0.528519
0.092105 0.919728 -0.528492
0.094339 0.919981 -0.528476
0.096623 0.920379 -0.528493
0.099161 0.921629 -0.528702
0.101312 0.921495 -0.528604
0.103819 0.922541 -0.528771
0.106311 0.923482 -0.528915
0.108299 0.922742 -0.528686
0.110773 0.923552 -0.528804
0.113536 0.925226 -0.529116
0.115822 0.925353 -0.529086
0.118193 0.925712 -0.529108
0.120676 0.926377 -0.529201
0.123017 0.926581 -0.529192
0.125640 0.927577 -0.529362
0.127829 0.927280 -0.529247
0.131085 0.929974 -0.529796
0.133439 0.930066 -0.529770
0.135763 0.930052 -0.529724
0.138365 0.930765 -0.529840
0.140496 0.930185 -0.529673
0.143327 0.931429 -0.529911
0.145946 0.932070 -0.530019
0.148702 0.933016 -0.530195
0.151382 0.933724 -0.530322
0.153737 0.933581 -0.530263
0.156179 0.933631 -0.530250
0.159027 0.934634 -0.530449
0.161439 0.934548 -0.530411
0.164893 0.936885 -0.530910
0.167407 0.936957 -0.530912
0.169700 0.936494 -0.530799
0.172305 0.936721 -0.530841
0.174786 0.936639 -0.530818
0.178318 0.938846 -0.531303
0.180850 0.938797 -0.531293
0.183202 0.938332 -0.531194
0.186866 0.940635 -0.531709
0.189233 0.940135 -0.531609
0.191337 0.939071 -0.531388
0.195172 0.941549 -0.531951
0.197417 0.940718 -0.531788
0.200405 0.941365 -0.531953
0.203093 0.941374 -0.531982
0.205833 0.941452 -0.532028
0.209704 0.943684 -0.532554
0.212173 0.943155 -0.532473
0.215060 0.943397 -0.532566
0.218087 0.943865 -0.532711
0.220850 0.943803 -0.532742
0.223046 0.942677 -0.532541
0.226968 0.944661 -0.533031
0.229954 0.944898 -0.533136
0.232623 0.944545 -0.533114
0.235378 0.944317 -0.533121
0.238761 0.945149 -0.533365
0.241410 0.944681 -0.533323
0.243592 0.943410 -0.533104
0.246463 0.943289 -0.533141
0.252386 0.948184 -0.534295
0.253795 0.945577 -0.533781
0.255945 0.944199 -0.533540
0.262004 0.949078 -0.534692
0.261321 0.943170 -0.533439
0.266286 0.946208 -0.534180
0.273900 0.953271 -0.535818
0.276050 0.951796 -0.535548
0.276471 0.947716 -0.534692
0.280647 0.949350 -0.535109
0.290276 0.959054 -0.537327
0.290397 0.954560 -0.536364
0.288693 0.947495 -0.534817
0.292693 0.948801 -0.535138
0.292143 0.943584 -0.533990
0.295446 0.943929 -0.534080
0.310650 0.960974 -0.537902
0.307970 0.952861 -0.536078
0.309157 0.950240 -0.535473
0.316615 0.956243 -0.536789
0.564007 1.272810 -0.607414
0.576723 1.282899 -0.609533
0.582009 1.283169 -0.609432
0.587874 1.284246 -0.609487
0.591073 1.281945 -0.608764
0.594375 1.279880 -0.608069
0.595428 1.275071 -0.606742
0.601117 1.276230 -0.606715
0.604649 1.274757 -0.606081
0.607100 1.272044 -0.605148
0.605769 1.264801 -0.603195
-0.420740 1.586383 -0.735694
-0.410511 1.569948 -0.731211
-0.408477 1.576620 -0.733088
-0.409485 1.592397 -0.737450
-0.396897 1.582706 -0.734657
-0.389460 1.574568 -0.732298
-0.390904 1.593275 -0.737324
-0.390228 1.606188 -0.740708
-0.376903 1.580354 -0.733358
-0.374154 1.587313 -0.735027
-0.372503 1.598175 -0.737734
-0.371073 1.610267 -0.740739
-0.365472 1.609162 -0.740075
-0.358088 1.602225 -0.737779
-0.349910 1.592525 -0.734699
-0.349638 1.610015 -0.739041
-0.340954 1.598640 -0.735450
-0.335681 1.599220 -0.735105
-0.330505 1.600297 -0.734871
-0.325761 1.603137 -0.735091
-0.174081 1.072441 -0.589857
-0.169514 1.065904 -0.587765
-0.162759 1.050171 -0.583199
-0.159231 1.047284 -0.582096
-0.155652 1.044072 -0.580903
-0.150399 1.033417 -0.577720
-0.146762 1.029506 -0.576346
-0.142694 1.023438 -0.574400
-0.158852 1.159262 -0.608898
-0.157515 1.169825 -0.611264
-0.155858 1.179235 -0.613314
-0.150267 1.167682 -0.609866
-0.146615 1.166310 -0.609093
-0.127206 1.195347 -0.613764
-0.125122 1.205404 -0.615945
-0.123229 1.217561 -0.618658
-0.115483 1.212633 -0.616604
-0.111560 1.209340 -0.615378
-0.103299 1.197860 -0.611714
-0.099121 1.190760 -0.609555
-0.083168 1.162406 -0.601053
-0.079469 1.156591 -0.599276
-0.075611 1.147878 -0.596786
-0.072159 1.143638 -0.595424
-0.061870 1.077800 -0.578470
-0.059032 1.077173 -0.578055
-0.055940 1.071488 -0.576392
-0.046164 0.971297 -0.551171
-0.043349 0.957214 -0.547501
-0.040628 0.941870 -0.543536
-0.038381 0.938153 -0.542441
-0.035905 0.923073 -0.538566
-0.033740 0.916906 -0.536886
-0.031602 0.908412 -0.534646
-0.029637 0.909804 -0.534827
-0.027654 0.909946 -0.534704
-0.025671 0.909168 -0.534360
-0.023678 0.912207 -0.534947
-0.021683 0.912434 -0.534850
-0.019710 0.911040 -0.534364
-0.017698 0.912382 -0.534542
-0.015707 0.912337 -0.534386
-0.013716 0.912286 -0.534231
-0.011705 0.912842 -0.534224
-0.009684 0.913539 -0.534252
-0.007702 0.913147 -0.534021
-0.005773 0.911690 -0.533536
-0.003727 0.912752 -0.533657
-0.000951 0.926517 -0.536819
0.000681 0.919506 -0.535009
0.002640 0.918422 -0.534620
0.004681 0.918639 -0.534543
0.006832 0.920257 -0.534802
0.008985 0.921698 -0.535019
0.011059 0.922031 -0.534973
0.013201 0.923079 -0.535099
0.015271 0.923235 -0.535014
0.017329 0.923240 -0.534895
0.019377 0.923131 -0.534750
0.021509 0.923786 -0.534788
0.023494 0.923074 -0.534504
0.025655 0.923888 -0.534581
0.027726 0.923898 -0.534470
0.029593 0.922280 -0.533978
0.031338 0.919850 -0.533297
0.033213 0.918516 -0.532876
0.035563 0.920595 -0.533256
0.037963 0.922867 -0.533682
0.038735 0.914239 -0.531560
0.039563 0.906481 -0.529646
0.041408 0.905473 -0.529312
0.043607 0.906644 -0.529488
0.045524 0.906080 -0.529260
0.047553 0.906168 -0.529186
0.049901 0.907999 -0.529518
0.052530 0.911232 -0.530175
0.054445 0.910532 -0.529920
0.056575 0.910952 -0.529927
0.058677 0.911191 -0.529892
0.060840 0.911702 -0.529921
0.063139 0.912821 -0.530092
0.065349 0.913460 -0.530153
0.067555 0.914029 -0.530199
0.069730 0.914420 -0.530205
0.071832 0.914460 -0.530131
0.073972 0.914640 -0.530091
0.076523 0.916515 -0.530441
0.078711 0.916810 -0.530429
0.080712 0.916325 -0.530240
0.083319 0.918225 -0.530599
0.085155 0.917055 -0.530255
0.087919 0.919428 -0.530724
0.090096 0.919516 -0.530671
0.092174 0.919218 -0.530532
0.094383 0.919381 -0.530499
0.096764 0.920125 -0.530601
0.099344 0.921516 -0.530851
0.101799 0.922410 -0.530989
0.104271 0.923313 -0.531132
0.106263 0.922592 -0.530905
0.108755 0.923490 -0.531048
0.111028 0.923642 -0.531024
0.113129 0.923230 -0.530873
0.116129 0.925578 -0.531352
0.118398 0.925619 -0.531307
0.120937 0.926443 -0.531442
0.123462 0.927178 -0.531559
0.125638 0.926863 -0.531440
0.128194 0.927617 -0.531565
0.130869 0.928663 -0.531758
0.133328 0.929057 -0.531806
0.135889 0.929697 -0.531911
0.138862 0.931402 -0.532260
0.140907 0.930576 -0.532038
0.142923 0.929675 -0.531802
0.146163 0.931931 -0.532282
0.148479 0.931752 -0.532214
0.151198 0.932564 -0.532372
0.153865 0.933201 -0.532493
0.156605 0.933974 -0.532648
0.159173 0.934287 -0.532702
0.162071 0.935353 -0.532928
0.164743 0.935834 -0.533025
0.167412 0.936268 -0.533114
0.170023 0.936534 -0.533168
0.172560 0.936598 -0.533179
0.174866 0.936117 -0.533071
0.178627 0.938823 -0.533685
0.181008 0.938436 -0.533604
0.183539 0.938351 -0.533594
0.186159 0.938429 -0.533624
0.189395 0.939766 -0.533942
0.191980 0.939695 -0.533945
0.195260 0.941018 -0.534266
0.198013 0.941213 -0.534336
0.200469 0.940783 -0.534267
0.203294 0.941059 -0.534362
0.206333 0.941714 -0.534545
0.209581 0.942729 -0.534813
0.212751 0.943542 -0.535039
0.214751 0.942099 -0.534757
0.218463 0.943849 -0.535201
0.220976 0.943319 -0.535132
0.223580 0.942936 -0.535099
0.227454 0.944819 -0.535583
0.230561 0.945265 -0.535743
0.233322 0.945062 -0.535758
0.235948 0.944598 -0.535716
0.238952 0.944769 -0.535820
0.241577 0.944262 -0.535772
0.243697 0.942888 -0.535527
0.247594 0.944480 -0.535959
0.255607 0.952796 -0.537926
0.254858 0.946623 -0.536589
0.259583 0.949390 -0.537291
0.264176 0.951867 -0.537927
0.265360 0.948889 -0.537315
0.266002 0.945107 -0.536517
0.272078 0.949796 -0.537655
0.275543 0.950377 -0.537849
0.280676 0.953464 -0.538615
0.289004 0.961274 -0.540461
0.292531 0.961791 -0.540629
0.287643 0.949920 -0.537948
0.282464 0.937858 -0.535215
0.292430 0.947874 -0.537543
0.306503 0.963569 -0.541169
0.304815 0.956679 -0.539598
0.310604 0.960408 -0.540457
0.310937 0.956510 -0.539553
0.309341 0.950047 -0.538048
0.319948 0.960359 -0.540385
0.557393 1.263436 -0.609695
0.572934 1.277355 -0.612743
0.576054 1.274883 -0.612009
0.577024 1.269728 -0.610639
0.581084 1.268691 -0.610187
0.582583 1.264472 -0.608984
0.587663 1.264919 -0.608822
0.594535 1.267679 -0.609160
0.599627 1.268254 -0.608975
0.602895 1.266639 -0.608269
0.604282 1.262813 -0.607040
-0.436335 1.631780 -0.753472
-0.411959 1.575937 -0.737857
-0.407383 1.575377 -0.737753
-0.404450 1.579738 -0.739000
-0.375212 1.561640 -0.733485
-0.364324 1.542643 -0.727962
-0.371674 1.580852 -0.738462
-0.371489 1.596237 -0.742512
-0.367941 1.601338 -0.743639
-0.362770 1.601421 -0.743325
-0.360029 1.609831 -0.745306
-0.356444 1.615802 -0.746567
-0.348417 1.606754 -0.743609
-0.343214 1.607494 -0.743352
-0.338095 1.608701 -0.743196
-0.330288 1.600276 -0.740342
-0.322446 1.591532 -0.737383
-0.318396 1.596923 -0.738318
-0.168702 1.062917 -0.589818
-0.162817 1.050649 -0.586129
-0.158892 1.046093 -0.584558
-0.154346 1.038700 -0.582212
-0.150090 1.032263 -0.580130
-0.145160 1.022533 -0.577158
-0.141362 1.017532 -0.575477
-0.138393 1.016165 -0.574782
-0.155630 1.143257 -0.607959
-0.146781 1.131323 -0.603959
-0.149352 1.162954 -0.612006
-0.145738 1.161665 -0.611250
-0.137660 1.153695 -0.608323
-0.135318 1.159656 -0.609501
-0.132056 1.160139 -0.609230
-0.128137 1.156329 -0.607832
-0.124723 1.178551 -0.612885
-0.123398 1.193518 -0.616407
-0.119137 1.187572 -0.614459
-0.113572 1.170989 -0.609753
-0.108404 1.156233 -0.605545
-0.102049 1.187347 -0.612514
-0.089294 1.159798 -0.604372
-0.084352 1.140823 -0.599177
-0.082063 1.150789 -0.601408
-0.078642 1.147787 -0.600324
-0.074613 1.136285 -0.597081
-0.071118 1.130690 -0.595356
-0.066202 1.102674 -0.587949
-0.062213 1.085355 -0.583283
-0.058575 1.071271 -0.579454
-0.055756 1.070354 -0.578968
-0.042895 0.947990 -0.547480
-0.040429 0.939083 -0.545057
-0.038301 0.939201 -0.544904
-0.035825 0.924243 -0.540984
-0.033677 0.919364 -0.539595
-0.031533 0.911252 -0.537407
-0.029531 0.910368 -0.537026
-0.027546 0.911069 -0.537042
-0.025557 0.907334 -0.535959
-0.023555 0.913129 -0.537243
-0.021576 0.911090 -0.536586
-0.019575 0.911921 -0.536642
-0.017596 0.911247 -0.536329
-0.015608 0.911222 -0.536178
-0.013609 0.911555 -0.536117
-0.011554 0.913485 -0.536450
-0.009559 0.913349 -0.536278
-0.007589 0.912679 -0.535976
-0.005588 0.912768 -0.535862
-0.003480 0.914864 -0.536241
-0.001171 0.920148 -0.537399
0.000873 0.920303 -0.537304
0.002827 0.919076 -0.536875
0.004857 0.919066 -0.536744
0.006986 0.920345 -0.536928
0.009137 0.921730 -0.537139
0.011209 0.922016 -0.537084
0.013149 0.920791 -0.536665
0.015327 0.922186 -0.536882
0.017490 0.923290 -0.537029
0.019513 0.922916 -0.536820
0.021580 0.922978 -0.536718
0.023740 0.923825 -0.536807
0.025857 0.924225 -0.536790
0.027911 0.924069 -0.536640
0.029760 0.922302 -0.536104
0.031597 0.920555 -0.535576
0.033358 0.918363 -0.534944
0.035814 0.921182 -0.535513
0.038525 0.925523 -0.536445
0.038842 0.913831 -0.533550
0.039641 0.905913 -0.531561
0.041625 0.905778 -0.531432
0.043624 0.905722 -0.531323
0.045639 0.905752 -0.531235
0.048044 0.907975 -0.531669
0.050150 0.908410 -0.531680
0.052298 0.909028 -0.531735
0.054593 0.910373 -0.531963
0.056650 0.910413 -0.531883
0.058794 0.910872 -0.531904
0.060961 0.911398 -0.531941
0.063239 0.912418 -0.532096
0.065526 0.913411 -0.532245
0.067696 0.913810 -0.532256
0.069864 0.914169 -0.532258
0.072045 0.914547 -0.532266
0.074521 0.916154 -0.532564
0.076590 0.915976 -0.532444
0.079051 0.917389 -0.532698
0.081981 0.920606 -0.533377
0.083387 0.917694 -0.532619
0.085728 0.918478 -0.532730
0.088048 0.919138 -0.532812
0.090177 0.919042 -0.532719
0.092858 0.920944 -0.533095
0.095081 0.921117 -0.533068
0.097034 0.920321 -0.532816
0.099714 0.922042 -0.533154
0.102130 0.922785 -0.533264
0.104535 0.923453 -0.533359
0.106795 0.923601 -0.533334
0.108999 0.923541 -0.533262
0.111278 0.923705 -0.533245
0.113750 0.924445 -0.533363
0.116476 0.925920 -0.533653
0.118888 0.926380 -0.533710
0.121264 0.926700 -0.533735
0.123488 0.926541 -0.533652
0.126081 0.927430 -0.533814
0.129095 0.929470 -0.534245
0.131169 0.928792 -0.534048
0.132997 0.927435 -0.533696
0.136177 0.929772 -0.534202
0.138713 0.930293 -0.534289
0.141541 0.931550 -0.534549
0.143951 0.931656 -0.534545
0.146044 0.930919 -0.534349
0.148952 0.932249 -0.534633
0.151346 0.932232 -0.534608
0.154029 0.932903 -0.534745
0.156891 0.933966 -0.534976
0.159669 0.934777 -0.535151
0.162324 0.935247 -0.535249
0.164743 0.935128 -0.535215
0.167266 0.935223 -0.535233
0.169915 0.935579 -0.535315
0.172550 0.935868 -0.535384
0.176518 0.939085 -0.536132
0.178948 0.938818 -0.536079
0.181201 0.938144 -0.535935
0.183731 0.938052 -0.535928
0.186493 0.938424 -0.536032
0.189081 0.938395 -0.536047
0.192337 0.939717 -0.536377
0.195371 0.940526 -0.536592
0.197778 0.940021 -0.536507
0.200791 0.940705 -0.536699
0.204511 0.942737 -0.537208
0.207229 0.942739 -0.537250
0.209748 0.942328 -0.537199
0.212417 0.942182 -0.537212
0.215784 0.943320 -0.537527
0.219133 0.944369 -0.537824
0.221533 0.943619 -0.537707
0.224407 0.943719 -0.537790
0.227270 0.943766 -0.537862
0.230682 0.944759 -0.538158
0.233476 0.944612 -0.538191
0.236330 0.944546 -0.538244
0.239606 0.945180 -0.538463
0.241519 0.943454 -0.538133
0.242941 0.940913 -0.537613
0.249768 0.947394 -0.539200
0.255896 0.952563 -0.540483
0.260292 0.954778 -0.541077
0.255754 0.942533 -0.538287
0.264809 0.952192 -0.540622
0.266137 0.949442 -0.540051
0.267790 0.947242 -0.539605
0.272668 0.950055 -0.540333
0.279704 0.956099 -0.541816
0.284084 0.957990 -0.542321
0.287897 0.958988 -0.542612
0.291241 0.959265 -0.542728
0.285251 0.945826 -0.539611
0.282582 0.937483 -0.537683
0.289151 0.942610 -0.538918
0.306386 0.962861 -0.543705
0.314138 0.969341 -0.545241
0.310876 0.960296 -0.543112
0.311890 0.957366 -0.542411
0.319568 0.963668 -0.543872
0.329603 0.973090 -0.546054
0.337368 0.979308 -0.547466
0.551929 1.255620 -0.612231
0.557641 1.256702 -0.612338
0.565742 1.260942 -0.613160
0.569610 1.259694 -0.612671
0.572481 1.257250 -0.611877
0.576066 1.255823 -0.611298
0.579826 1.254706 -0.610766
0.586602 1.257462 -0.611112
0.593866 1.260857 -0.611580
0.597616 1.259931 -0.611017
0.608202 1.267486 -0.612395
-0.397608 1.549426 -0.735328
-0.408923 1.636132 -0.760079
-0.373735 1.558622 -0.737693
-0.365668 1.548258 -0.734568
-0.366633 1.566333 -0.739526
-0.371787 1.598550 -0.748473
-0.363240 1.587331 -0.744998
-0.359989 1.593452 -0.746428
-0.356841 1.600283 -0.748024
-0.353855 1.608063 -0.749851
-0.347393 1.604207 -0.748343
-0.344894 1.614352 -0.750772
-0.341417 1.621488 -0.752313
-0.331715 1.606289 -0.747515
-0.322274 1.591629 -0.742859
-0.315923 1.588236 -0.741363
-0.169754 1.067416 -0.593938
-0.162721 1.050510 -0.588895
-0.157604 1.040930 -0.585905
-0.153958 1.037254 -0.584562
-0.149116 1.028204 -0.581727
-0.145033 1.022148 -0.579728
-0.141286 1.017355 -0.578081
-0.137744 1.013294 -0.576639
-0.134195 1.009001 -0.575137
-0.131760 1.009961 -0.575080
-0.143984 1.116695 -0.603201
-0.139871 1.111491 -0.601400
-0.137149 1.113762 -0.601634
-0.134243 1.153392 -0.611178
-0.130429 1.150211 -0.609926
-0.127162 1.150339 -0.609569
-0.116930 1.171615 -0.613705
-0.111700 1.157038 -0.609455
-0.108556 1.158096 -0.609366
-0.096886 1.140917 -0.603766
-0.094166 1.145209 -0.604553
-0.090656 1.141909 -0.603350
-0.087793 1.145038 -0.603838
-0.083477 1.132246 -0.600169
-0.080229 1.130509 -0.599400
-0.076489 1.122359 -0.596968
-0.073353 1.121108 -0.596341
-0.069491 1.109326 -0.592989
-0.061057 1.068337 -0.581830
-0.058005 1.063232 -0.580253
-0.055249 1.062870 -0.579907
-0.043100 0.956313 -0.551871
-0.040646 0.948989 -0.549804
-0.038348 0.944768 -0.548539
-0.035688 0.922923 -0.542786
-0.033523 0.916795 -0.541055
-0.031421 0.910981 -0.539411
-0.029410 0.909072 -0.538764
-0.027428 0.909615 -0.538744
-0.025442 0.909999 -0.538685
-0.023447 0.911602 -0.538936
-0.021446 0.912283 -0.538956
-0.019461 0.911515 -0.538612
-0.017479 0.910996 -0.538334
-0.015492 0.910859 -0.538154
-0.013413 0.913952 -0.538787
-0.011372 0.915083 -0.538929
-0.009424 0.913480 -0.538387
-0.007451 0.912819 -0.538084
-0.005461 0.912608 -0.537896
-0.003315 0.915420 -0.538464
-0.001051 0.919804 -0.539423
0.001026 0.920493 -0.539462
0.003031 0.920000 -0.539209
0.005044 0.919658 -0.538996
0.007195 0.921165 -0.539243
0.009262 0.921429 -0.539183
0.011195 0.920093 -0.538729
0.013281 0.920583 -0.538728
0.015401 0.921349 -0.538797
0.017569 0.922519 -0.538967
0.019669 0.922912 -0.538946
0.021752 0.923097 -0.538875
0.023862 0.923481 -0.538855
0.025992 0.923996 -0.538869
0.027969 0.923212 -0.538565
0.029900 0.922110 -0.538185
0.032054 0.922746 -0.538232
0.034356 0.924386 -0.538526
0.036366 0.923859 -0.538291
0.038557 0.924577 -0.538362
0.038755 0.912156 -0.535233
0.039818 0.905976 -0.533630
0.041674 0.905044 -0.533307
0.043686 0.905080 -0.533221
0.046030 0.907030 -0.533601
0.050319 0.908376 -0.533744
0.052410 0.908677 -0.533727
0.054609 0.909520 -0.533842
0.056859 0.910557 -0.534005
0.058982 0.910900 -0.534001
0.061196 0.911646 -0.534096
0.063544 0.912981 -0.534334
0.065693 0.913313 -0.534331
0.067806 0.913451 -0.534283
0.070056 0.914169 -0.534375
0.072215 0.914447 -0.534363
0.074653 0.915883 -0.534630
0.076809 0.916065 -0.534597
0.079065 0.916629 -0.534658
0.081333 0.917202 -0.534721
0.083409 0.916983 -0.534597
0.086165 0.919367 -0.535097
0.088221 0.919003 -0.534940
0.090274 0.918622 -0.534781
0.092776 0.919869 -0.535013
0.095073 0.920322 -0.535057
0.097554 0.921383 -0.535247
0.099895 0.921907 -0.535310
0.102328 0.922703 -0.535440
0.104743 0.923396 -0.535547
0.107161 0.924053 -0.535647
0.109421 0.924162 -0.535618
0.111267 0.922935 -0.535274
0.113988 0.924453 -0.535584
0.116733 0.925978 -0.535897
0.119048 0.926135 -0.535888
0.121461 0.926559 -0.535944
0.124128 0.927692 -0.536170
0.126621 0.928267 -0.536265
0.129349 0.929471 -0.536512
0.131437 0.928824 -0.536323
0.133520 0.928162 -0.536132
0.136658 0.930365 -0.536622
0.139055 0.930495 -0.536624
0.141500 0.930726 -0.536652
0.143968 0.930987 -0.536689
0.146953 0.932545 -0.537036
0.149235 0.932254 -0.536949
0.151678 0.932349 -0.536955
0.154259 0.932758 -0.537038
0.157193 0.933989 -0.537318
0.159923 0.934673 -0.537472
0.162466 0.934870 -0.537514
0.164885 0.934746 -0.537483
0.167160 0.934266 -0.537370
0.169783 0.934564 -0.537445
0.172711 0.935515 -0.537677
0.176460 0.938237 -0.538331
0.178780 0.937729 -0.538224
0.181490 0.938050 -0.538317
0.184033 0.937978 -0.538320
0.186438 0.937587 -0.538251
0.189860 0.939301 -0.538684
0.192623 0.939583 -0.538781
0.195139 0.939327 -0.538754
0.198318 0.940383 -0.539041
0.201884 0.942154 -0.539501
0.204590 0.942161 -0.539546
0.207354 0.942251 -0.539614
0.210046 0.942171 -0.539646
0.212857 0.942286 -0.539726
0.216139 0.943255 -0.540013
0.219212 0.943783 -0.540198
0.222078 0.943889 -0.540286
0.225697 0.945331 -0.540694
0.228272 0.944836 -0.540644
0.230729 0.944114 -0.540542
0.233505 0.943938 -0.540573
0.236391 0.943930 -0.540645
0.239668 0.944566 -0.540873
0.241935 0.943446 -0.540682
0.242991 0.940292 -0.540007
0.249666 0.946517 -0.541574
0.257235 0.954051 -0.543456
0.255990 0.947076 -0.541866
0.261314 0.945942 -0.541750
0.266084 0.948686 -0.542483
0.270375 0.950613 -0.543019
0.279677 0.960217 -0.545398
0.285921 0.964944 -0.546602
0.280279 0.951604 -0.543456
0.284275 0.952947 -0.543836
0.289407 0.955943 -0.544609
0.286364 0.946889 -0.542471
0.285095 0.940592 -0.540989
0.287085 0.939109 -0.540659
0.289454 0.938204 -0.540459
0.309006 0.957197 -0.545045
0.314174 0.960074 -0.545725
0.326102 0.972202 -0.548623
0.331726 0.975558 -0.549392
0.337553 0.979158 -0.550204
0.542321 1.242341 -0.613359
0.550281 1.246528 -0.614213
0.556470 1.248394 -0.614482
0.561618 1.248945 -0.614411
0.565401 1.247799 -0.613908
0.569477 1.247111 -0.613490
0.572355 1.244986 -0.612705
0.573532 1.240829 -0.611411
0.581410 1.245150 -0.612114
0.584693 1.243798 -0.611442
0.590618 1.245782 -0.611537
-0.381384 1.482596 -0.720560
-0.394623 1.542824 -0.738271
-0.385483 1.528719 -0.734238
-0.384377 1.537967 -0.736956
-0.385458 1.567607 -0.745528
-0.384601 1.579050 -0.748779
-0.373634 1.589928 -0.751497
-0.367628 1.586611 -0.750316
-0.364798 1.593730 -0.752123
-0.358695 1.590428 -0.750877
-0.353446 1.590069 -0.750449
-0.351447 1.619327 -0.758142
-0.344941 1.615507 -0.756612
-0.341514 1.622762 -0.758240
-0.335290 1.620195 -0.757013
-0.322569 1.593497 -0.748842
-0.319386 1.602072 -0.750769
-0.319112 1.622319 -0.756000
-0.310083 1.608978 -0.751609
-0.157503 1.040745 -0.588616
-0.153319 1.034738 -0.586598
-0.149190 1.028729 -0.584582
-0.144810 1.021339 -0.582179
-0.141255 1.017389 -0.580748
-0.137833 1.013879 -0.579442
-0.133588 1.006251 -0.576985
-0.130009 1.001514 -0.575344
-0.126674 0.997758 -0.573980
-0.141245 1.102354 -0.602384
-0.138652 1.105051 -0.602753
-0.136780 1.111912 -0.604270
-0.114450 1.129885 -0.606183
-0.110383 1.123091 -0.603977
-0.102205 1.132845 -0.605547
-0.095330 1.127431 -0.603403
-0.092224 1.127429 -0.603066
-0.089502 1.131220 -0.603748
-0.081242 1.108425 -0.597029
-0.078561 1.112066 -0.597689
-0.075505 1.111389 -0.597205
-0.072390 1.109763 -0.596476
-0.069008 1.104057 -0.594674
-0.060125 1.054848 -0.581148
-0.057281 1.052357 -0.580237
-0.054570 1.051911 -0.579870
-0.052011 1.054582 -0.580324
-0.043067 0.958237 -0.554681
-0.040530 0.948671 -0.551992
-0.038435 0.951798 -0.552617
-0.035550 0.921434 -0.544538
-0.033367 0.913971 -0.542430
-0.031306 0.910290 -0.541310
-0.029312 0.910096 -0.541097
-0.027322 0.910523 -0.541048
-0.025330 0.910240 -0.540818
-0.023338 0.910551 -0.540743
-0.021324 0.912753 -0.541157
-0.019329 0.912416 -0.540920
-0.017358 0.910978 -0.540403
-0.015345 0.911850 -0.540480
-0.013312 0.913116 -0.540661
-0.011275 0.914149 -0.540782
-0.009277 0.913929 -0.540586
-0.007294 0.913399 -0.540313
-0.005301 0.913171 -0.540119
-0.003188 0.915249 -0.540513
-0.000955 0.919059 -0.541348
0.001143 0.920113 -0.541484
0.003216 0.920636 -0.541486
0.005314 0.921406 -0.541552
0.007319 0.920875 -0.541291
0.009324 0.920379 -0.541041
0.011662 0.923796 -0.541779
0.013695 0.923470 -0.541575
0.015594 0.921768 -0.541026
0.017695 0.922230 -0.541024
0.019786 0.922531 -0.540983
0.021895 0.922954 -0.540974
0.024053 0.923755 -0.541061
0.026084 0.923404 -0.540860
0.028081 0.922796 -0.540598
0.030049 0.921992 -0.540288
0.032260 0.923044 -0.540443
0.034693 0.925609 -0.540976
0.036726 0.925188 -0.540766
0.038167 0.920785 -0.539567
0.038562 0.909793 -0.536734
0.040001 0.906074 -0.535713
0.041894 0.905357 -0.535441
0.043943 0.905601 -0.535408
0.045979 0.905735 -0.535349
0.048140 0.906553 -0.535461
0.050495 0.908376 -0.535822
0.052585 0.908668 -0.535806
0.055360 0.912504 -0.536665
0.057394 0.912357 -0.536543
0.059172 0.910935 -0.536107
0.061277 0.911141 -0.536074
0.063619 0.912451 -0.536314
0.065783 0.912856 -0.536333
0.067973 0.913341 -0.536373
0.070130 0.913646 -0.536370
0.072534 0.914985 -0.536621
0.074638 0.914982 -0.536545
0.076760 0.915034 -0.536484
0.079130 0.916077 -0.536667
0.081299 0.916258 -0.536640
0.083709 0.917354 -0.536838
0.086320 0.919165 -0.537212
0.088375 0.918795 -0.537055
0.091111 0.920936 -0.537512
0.093017 0.919966 -0.537212
0.095462 0.920937 -0.537387
0.097738 0.921259 -0.537405
0.099983 0.921447 -0.537392
0.102309 0.921883 -0.537442
0.104803 0.922840 -0.537620
0.107600 0.924739 -0.538028
0.109681 0.924253 -0.537858
0.111384 0.922566 -0.537400
0.114728 0.926019 -0.538190
0.116722 0.925207 -0.537948
0.119205 0.925875 -0.538067
0.121868 0.927036 -0.538307
0.124219 0.927228 -0.538314
0.126612 0.927512 -0.538346
0.129442 0.929005 -0.538673
0.131749 0.928973 -0.538633
0.134247 0.929444 -0.538717
0.136812 0.930060 -0.538839
0.138938 0.929461 -0.538669
0.141370 0.929664 -0.538696
0.144105 0.930623 -0.538908
0.146482 0.930616 -0.538889
0.149846 0.933079 -0.539470
0.152068 0.932605 -0.539344
0.154572 0.932811 -0.539385
0.157641 0.934357 -0.539752
0.160095 0.934365 -0.539751
0.162689 0.934677 -0.539826
0.165044 0.934397 -0.539762
0.167142 0.933504 -0.539552
0.170852 0.936276 -0.540231
0.172737 0.934851 -0.539899
0.175727 0.935883 -0.540165
0.178897 0.937259 -0.540516
0.181610 0.937583 -0.540617
0.184121 0.937437 -0.540607
0.186673 0.937356 -0.540617
0.191437 0.941858 -0.541739
0.193001 0.939629 -0.541235
0.195812 0.939964 -0.541355
0.198873 0.940763 -0.541592
0.202216 0.942076 -0.541956
0.204784 0.941804 -0.541940
0.207454 0.941708 -0.541969
0.210724 0.942734 -0.542274
0.213750 0.943243 -0.542457
0.216704 0.943575 -0.542600
0.219325 0.943254 -0.542587
0.222277 0.943516 -0.542719
0.225841 0.944851 -0.543115
0.228426 0.944374 -0.543072
0.231007 0.943873 -0.543026
0.233729 0.943600 -0.543037
0.236544 0.943468 -0.543084
0.240048 0.944492 -0.543415
0.242419 0.943549 -0.543266
0.243244 0.940010 -0.542483
0.250228 0.946736 -0.544212
0.255985 0.951285 -0.545411
0.258946 0.951177 -0.545468
0.258835 0.946118 -0.544309
0.268461 0.956622 -0.546969
0.266155 0.948125 -0.544961
0.272359 0.953037 -0.546244
0.285242 0.968125 -0.550029
0.284989 0.962867 -0.548805
0.277284 0.946460 -0.544828
0.283987 0.951907 -0.546227
0.289340 0.955248 -0.547102
0.289217 0.950502 -0.545975
0.285967 0.941316 -0.543744
0.286820 0.938210 -0.543003
0.287868 0.935450 -0.542338
0.288560 0.932252 -0.541555
0.303261 0.948700 -0.545610
0.314114 0.959541 -0.548269
0.318234 0.960972 -0.548592
0.324450 0.965253 -0.549605
0.328894 0.967099 -0.550002
0.537927 1.236010 -0.616042
0.544528 1.238500 -0.616494
0.549924 1.239437 -0.616538
0.552502 1.236777 -0.615674
0.558807 1.239002 -0.615985
0.562208 1.237562 -0.615372
0.564209 1.234443 -0.614324
0.566835 1.232222 -0.613473
0.570297 1.231145 -0.612878
0.574591 1.231181 -0.612531
0.571599 1.222343 -0.610007
-0.383287 1.536615 -0.741396
-0.383489 1.550077 -0.745392
-0.384739 1.567217 -0.750438
-0.381528 1.571423 -0.751631
-0.387044 1.602841 -0.760817
-0.385516 1.613305 -0.763779
-0.372718 1.588551 -0.756318
-0.370189 1.596290 -0.758403
-0.367145 1.602769 -0.760078
-0.362219 1.603404 -0.759994
-0.360444 1.614835 -0.763049
-0.353280 1.608399 -0.760817
-0.341128 1.603072 -0.758477
-0.337191 1.608198 -0.759542
-0.332994 1.612695 -0.760391
-0.328307 1.615670 -0.760764
-0.320995 1.608927 -0.758279
-0.319590 1.624871 -0.762372
-0.315006 1.629018 -0.763002
-0.153211 1.034499 -0.589269
-0.149346 1.029615 -0.587549
-0.144968 1.022231 -0.585113
-0.140874 1.015823 -0.582961
-0.136981 1.010056 -0.580996
-0.133112 1.004128 -0.578990
-0.129152 0.997456 -0.576776
-0.126105 0.995036 -0.575777
-0.122547 0.989841 -0.573994
-0.127438 1.076247 -0.597022
-0.124303 1.075100 -0.596342
-0.117034 1.084918 -0.598018
-0.112934 1.119342 -0.606492
-0.109227 1.114881 -0.604899
-0.104416 1.101430 -0.600840
-0.100774 1.096309 -0.599090
-0.095503 1.102260 -0.600052
-0.094399 1.119609 -0.604463
-0.091600 1.122222 -0.604842
-0.086351 1.100343 -0.598555
-0.082878 1.094960 -0.596778
-0.079922 1.094712 -0.596403
-0.077112 1.096093 -0.596474
-0.074980 1.106066 -0.598870
-0.071256 1.096038 -0.595867
-0.067458 1.083508 -0.592203
-0.064152 1.076586 -0.590064
-0.059831 1.051746 -0.583128
-0.056555 1.041296 -0.580073
-0.054037 1.043685 -0.580464
-0.051451 1.045003 -0.580572
-0.042987 0.958825 -0.557162
-0.040712 0.957569 -0.556631
-0.038450 0.956250 -0.556088
-0.035553 0.926094 -0.547911
-0.033315 0.916801 -0.545279
-0.031202 0.910238 -0.543378
-0.029209 0.910526 -0.543290
-0.027212 0.910204 -0.543045
-0.025220 0.909884 -0.542803
-0.023227 0.910286 -0.542753
-0.021213 0.912299 -0.543128
-0.019213 0.912247 -0.542963
-0.017227 0.911574 -0.542638
-0.015220 0.911991 -0.542601
-0.013197 0.912813 -0.542671
-0.011182 0.913193 -0.542627
-0.009154 0.913803 -0.542646
-0.007129 0.914214 -0.542614
-0.005213 0.912279 -0.541976
-0.002936 0.917461 -0.543185
-0.000825 0.918923 -0.543430
0.001197 0.918739 -0.543251
0.003293 0.919669 -0.543361
0.005378 0.920303 -0.543397
0.007564 0.922164 -0.543750
0.009547 0.921308 -0.543404
0.011650 0.921921 -0.543439
0.013715 0.922027 -0.543345
0.015727 0.921565 -0.543107
0.017803 0.921761 -0.543039
0.019915 0.922266 -0.543052
0.021978 0.922267 -0.542938
0.024294 0.924457 -0.543384
0.026272 0.923625 -0.543060
0.028262 0.922941 -0.542776
0.030255 0.922313 -0.542508
0.032380 0.922697 -0.542499
0.034680 0.924292 -0.542799
0.036588 0.923045 -0.542379
0.037889 0.917763 -0.540937
0.038506 0.908330 -0.538446
0.040272 0.906728 -0.537945
0.042178 0.906070 -0.537684
0.044109 0.905574 -0.537467
0.046146 0.905702 -0.537409
0.048271 0.906308 -0.537472
0.051011 0.910241 -0.538377
0.052829 0.909018 -0.537981
0.055239 0.910929 -0.538377
0.057200 0.910443 -0.538170
0.059530 0.911797 -0.538427
0.061457 0.911118 -0.538175
0.063691 0.911902 -0.538291
0.065887 0.912459 -0.538352
0.068006 0.912623 -0.538316
0.070230 0.913232 -0.538392
0.072383 0.913487 -0.538382
0.074943 0.915434 -0.538795
0.076875 0.914681 -0.538536
0.079560 0.917002 -0.539045
0.081947 0.918025 -0.539232
0.084073 0.917972 -0.539151
0.086067 0.917394 -0.538941
0.088270 0.917603 -0.538929
0.090767 0.918876 -0.539184
0.093182 0.919782 -0.539349
0.095359 0.919791 -0.539292
0.097844 0.920859 -0.539500
0.100164 0.921303 -0.539555
0.102348 0.921251 -0.539489
0.104601 0.921413 -0.539477
0.107336 0.923119 -0.539851
0.109708 0.923586 -0.539919
0.112297 0.924702 -0.540149
0.114825 0.925573 -0.540321
0.116985 0.925270 -0.540204
0.119155 0.924984 -0.540094
0.121809 0.926121 -0.540338
0.124116 0.926189 -0.540319
0.126574 0.926670 -0.540405
0.129417 0.928202 -0.540753
0.131897 0.928654 -0.540837
0.133846 0.927610 -0.540553
0.136269 0.927859 -0.540591
0.139180 0.929381 -0.540947
0.141635 0.929636 -0.540991
0.143995 0.929613 -0.540970
0.147816 0.933304 -0.541869
0.150324 0.933558 -0.541922
0.152538 0.933047 -0.541789
0.155196 0.933617 -0.541925
0.157769 0.933938 -0.542004
0.160275 0.934067 -0.542037
0.162751 0.934095 -0.542049
0.165024 0.933619 -0.541940
0.168405 0.935683 -0.542460
0.171058 0.936011 -0.542556
0.173522 0.935881 -0.542542
0.176497 0.936857 -0.542804
0.179320 0.937449 -0.542975
0.181855 0.937377 -0.542984
0.184152 0.936769 -0.542865
0.187590 0.938550 -0.543340
0.190891 0.939977 -0.543732
0.193756 0.940442 -0.543888
0.195414 0.938413 -0.543431
0.199027 0.940330 -0.543954
0.202258 0.941412 -0.544274
0.205070 0.941619 -0.544380
0.207683 0.941405 -0.544386
0.210871 0.942268 -0.544662
0.213967 0.942907 -0.544885
0.216526 0.942495 -0.544851
0.219768 0.943328 -0.545129
0.222396 0.942989 -0.545118
0.225564 0.943607 -0.545348
0.228389 0.943566 -0.545417
0.231403 0.943835 -0.545565
