ply
format ascii 1.0
comment ---
element vertex 1661
property float x
property float y
property float z
element face 0
property list uchar uint vertex_indices
end_header
-0.560498 1.576382 -0.475498
-0.556882 1.581756 -0.476568
-0.552326 1.585382 -0.477204
-0.547102 1.587729 -0.477523
-0.542027 1.590368 -0.477909
-0.537053 1.593214 -0.478342
-0.531919 1.595745 -0.478695
-0.526395 1.597482 -0.478850
-0.520923 1.599313 -0.479025
-0.516446 1.603215 -0.479701
-0.512159 1.607558 -0.480481
-0.507625 1.611425 -0.481141
-0.502856 1.614821 -0.481682
-0.497894 1.617822 -0.482125
-0.493273 1.621603 -0.482752
-0.488340 1.624722 -0.483216
-0.483444 1.627952 -0.483704
-0.478430 1.630936 -0.484129
-0.474181 1.635737 -0.484989
-0.469539 1.639679 -0.485638
-0.463965 1.641425 -0.485755
-0.459232 1.645217 -0.486362
-0.454098 1.648066 -0.486739
-0.449177 1.651474 -0.487247
-0.444504 1.655550 -0.487912
-0.439062 1.657704 -0.488114
-0.433864 1.660502 -0.488468
-0.429079 1.664421 -0.489086
-0.424725 1.669560 -0.489993
-0.418880 1.670719 -0.489947
-0.413569 1.673341 -0.490248
-0.408057 1.675417 -0.490417
-0.402935 1.678615 -0.490850
-0.398028 1.682481 -0.491439
-0.393068 1.686251 -0.492002
-0.387867 1.689365 -0.492407
-0.383214 1.694188 -0.493213
-0.377835 1.696865 -0.493509
-0.372477 1.699637 -0.493825
-0.367111 1.702421 -0.494142
-0.361926 1.705824 -0.494602
-0.356912 1.709853 -0.495206
-0.351869 1.713860 -0.495801
-0.346579 1.717107 -0.496216
-0.341447 1.720958 -0.496769
-0.335930 1.723526 -0.497019
-0.329864 1.724143 -0.496812
-0.324906 1.728798 -0.497545
-0.320063 1.733994 -0.498399
-0.314461 1.736434 -0.498610
-0.309135 1.739981 -0.499074
-0.303933 1.744093 -0.499667
-0.298682 1.748115 -0.500236
-0.292948 1.750239 -0.500362
-0.287226 1.752436 -0.500502
-0.282428 1.758650 -0.501567
-0.277351 1.763842 -0.502392
-0.271761 1.766883 -0.502717
-0.266293 1.770556 -0.503184
-0.260688 1.773690 -0.503524
-0.254913 1.776075 -0.503689
-0.249890 1.782238 -0.504715
-0.244167 1.785081 -0.504977
-0.238737 1.789523 -0.505602
-0.233461 1.794946 -0.506445
-0.227483 1.796741 -0.506457
-0.221739 1.799878 -0.506771
-0.215826 1.802137 -0.506882
-0.210708 1.809200 -0.508078
-0.205027 1.813143 -0.508561
-0.199088 1.815625 -0.508710
-0.193224 1.818681 -0.508984
-0.187983 1.826057 -0.510227
-0.182289 1.830692 -0.510846
-0.176611 1.835699 -0.511543
-0.170725 1.839427 -0.511947
-0.164392 1.839893 -0.511614
-0.158557 1.844323 -0.512165
-0.152770 1.849437 -0.512862
-0.146569 1.851294 -0.512826
-0.140390 1.853437 -0.512849
-0.135033 1.863506 -0.514631
-0.128824 1.865980 -0.514714
-0.122866 1.871248 -0.515412
-0.116623 1.873863 -0.515514
-0.110441 1.877398 -0.515814
-0.104425 1.883328 -0.516635
-0.098193 1.887092 -0.516971
-0.091896 1.890391 -0.517196
-0.085616 1.894360 -0.517562
-0.079353 1.899125 -0.518094
-0.073101 1.904828 -0.518823
-0.066792 1.910410 -0.519516
-0.060282 1.912906 -0.519526
-0.053820 1.917009 -0.519879
-0.047418 1.923646 -0.520773
-0.040822 1.926431 -0.520820
-0.034220 1.929923 -0.521012
-0.027631 1.935359 -0.521615
-0.021010 1.941792 -0.522423
-0.014297 1.946453 -0.522837
-0.007525 1.949981 -0.522996
-0.000748 1.958776 -0.524276
0.006126 1.961447 -0.524230
0.013028 1.963711 -0.524087
0.019960 1.966177 -0.523978
0.026925 1.968936 -0.523922
0.033950 1.973171 -0.524169
0.041045 1.978404 -0.524616
0.048099 1.979970 -0.524274
0.055134 1.980179 -0.523638
0.062160 1.979853 -0.522880
0.069431 1.985231 -0.523313
0.076864 1.992771 -0.524186
0.084127 1.995372 -0.524011
0.091472 1.998773 -0.523992
0.098882 2.002523 -0.524035
0.106242 2.004766 -0.523753
0.113641 2.007083 -0.523477
0.121247 2.011697 -0.523666
0.128776 2.014648 -0.523500
0.136896 2.024075 -0.524656
0.144289 2.024257 -0.523900
0.151718 2.024687 -0.523188
0.159356 2.027067 -0.522868
0.166863 2.027875 -0.522222
0.174288 2.027795 -0.521390
0.181632 2.026945 -0.520399
0.188720 2.023975 -0.518979
0.195341 2.017441 -0.516843
0.202073 2.012252 -0.514985
0.208754 2.007074 -0.513135
0.215142 2.000175 -0.510949
0.221511 1.993662 -0.508852
0.227947 1.988093 -0.506955
0.234576 1.984237 -0.505409
0.241112 1.980134 -0.503828
0.247216 1.973761 -0.501814
0.253210 1.967261 -0.499794
0.258952 1.959835 -0.497613
0.264991 1.954688 -0.495902
0.270906 1.949355 -0.494176
0.276380 1.942177 -0.492117
0.282544 1.939210 -0.490904
0.288676 1.936513 -0.489769
0.294422 1.932317 -0.488372
0.300236 1.928957 -0.487167
0.305561 1.923748 -0.485637
0.310498 1.917296 -0.483902
0.315876 1.913480 -0.482708
0.321105 1.909518 -0.481521
0.326379 1.906283 -0.480508
0.332237 1.906069 -0.480108
-0.887213 1.341650 -0.432690
-0.894005 1.354613 -0.435752
-0.890138 1.357728 -0.436239
-0.883115 1.357934 -0.435982
-0.878762 1.360774 -0.436437
-0.873911 1.363229 -0.436808
-0.868726 1.365443 -0.437136
-0.865959 1.370128 -0.438126
-0.861430 1.373169 -0.438703
-0.857381 1.376773 -0.439444
-0.853939 1.381079 -0.440382
-0.849245 1.384192 -0.441023
-0.843038 1.385801 -0.441287
-0.837009 1.387627 -0.441619
-0.832631 1.391217 -0.442422
-0.828019 1.394613 -0.443183
-0.823072 1.397691 -0.443871
-0.818481 1.401187 -0.444675
-0.814610 1.405504 -0.445698
-0.810280 1.409358 -0.446607
-0.805105 1.412298 -0.447284
-0.799660 1.414943 -0.447888
-0.794629 1.418057 -0.448615
-0.788788 1.420244 -0.449105
-0.784597 1.424325 -0.450086
-0.781337 1.429511 -0.451353
-0.776737 1.433148 -0.452218
-0.772138 1.436787 -0.453083
-0.766722 1.439440 -0.453692
-0.762275 1.443252 -0.454597
-0.757034 1.446086 -0.455248
-0.751280 1.448261 -0.455725
-0.747050 1.452314 -0.456684
-0.743347 1.457035 -0.457810
-0.737902 1.459541 -0.458362
-0.731956 1.461370 -0.458735
-0.727031 1.464488 -0.459435
-0.722932 1.468675 -0.460406
-0.718281 1.472130 -0.461184
-0.712759 1.474404 -0.461652
-0.708214 1.477969 -0.462447
-0.703871 1.481804 -0.463307
-0.700611 1.487138 -0.464545
-0.694788 1.488913 -0.464865
-0.688406 1.489854 -0.464965
-0.683497 1.492841 -0.465585
-0.678254 1.495329 -0.466072
-0.674932 1.500592 -0.467264
-0.669578 1.502894 -0.467692
-0.665129 1.506515 -0.468452
-0.660737 1.510223 -0.469229
-0.656361 1.513958 -0.470007
-0.650175 1.514920 -0.470072
-0.645710 1.518497 -0.470799
-0.641203 1.522014 -0.471506
-0.636927 1.525899 -0.472300
-0.632522 1.529588 -0.473040
-0.628404 1.533753 -0.473895
-0.622377 1.534817 -0.473956
-0.617731 1.538118 -0.474582
-0.612685 1.540755 -0.475034
-0.607643 1.543389 -0.475481
-0.602649 1.546097 -0.475941
-0.597689 1.548859 -0.476411
-0.593063 1.552197 -0.477022
-0.588355 1.555403 -0.477595
-0.583766 1.558828 -0.478219
-0.579380 1.562633 -0.478933
-0.575496 1.567376 -0.479880
-0.569510 1.568295 -0.479859
-0.564078 1.570204 -0.480083
-0.560043 1.574729 -0.480961
-0.556550 1.580331 -0.482105
-0.552071 1.584103 -0.482784
-0.546592 1.585956 -0.482979
-0.541094 1.587756 -0.483157
-0.537113 1.592567 -0.484085
-0.532277 1.595709 -0.484591
-0.526847 1.597655 -0.484795
-0.521815 1.600416 -0.485199
-0.518339 1.606442 -0.486412
-0.512574 1.607713 -0.486438
-0.507577 1.610604 -0.486864
-0.502798 1.613988 -0.487409
-0.498315 1.618050 -0.488119
-0.493765 1.622010 -0.488799
-0.488738 1.624942 -0.489222
-0.483410 1.627207 -0.489476
-0.479026 1.631660 -0.490268
-0.475044 1.637118 -0.491304
-0.469637 1.639278 -0.491524
-0.464153 1.641260 -0.491697
-0.458695 1.643303 -0.491883
-0.453498 1.645991 -0.492225
-0.448528 1.649270 -0.492709
-0.444656 1.655375 -0.493882
-0.438927 1.656809 -0.493909
-0.433873 1.659995 -0.494361
-0.429401 1.664762 -0.495197
-0.424470 1.668375 -0.495747
-0.419648 1.672337 -0.496380
-0.414120 1.674407 -0.496549
-0.408741 1.676900 -0.496820
-0.403215 1.678996 -0.496992
-0.399357 1.685933 -0.498334
-0.393535 1.687249 -0.498312
-0.388355 1.690468 -0.498748
-0.383059 1.693383 -0.499108
-0.377285 1.694854 -0.499118
-0.372107 1.698190 -0.499575
-0.367713 1.704082 -0.500644
-0.362321 1.706872 -0.500964
-0.356698 1.708936 -0.501108
-0.351658 1.712972 -0.501722
-0.347237 1.719207 -0.502859
-0.341475 1.720937 -0.502915
-0.335836 1.723102 -0.503073
-0.330585 1.726686 -0.503567
-0.325419 1.730657 -0.504151
-0.319988 1.733721 -0.504516
-0.314432 1.736366 -0.504778
-0.308861 1.738994 -0.505034
-0.303985 1.744421 -0.505951
-0.298314 1.746781 -0.506138
-0.292458 1.748412 -0.506150
-0.287577 1.754165 -0.507133
-0.282506 1.759279 -0.507961
-0.277100 1.763070 -0.508473
-0.271575 1.766430 -0.508881
-0.265982 1.769556 -0.509230
-0.260349 1.772576 -0.509551
-0.255689 1.780373 -0.510988
-0.249725 1.782022 -0.510981
-0.243782 1.783788 -0.510998
-0.237983 1.786320 -0.511191
-0.232814 1.792278 -0.512180
-0.228003 1.800454 -0.513678
-0.222023 1.802414 -0.513726
-0.215673 1.802255 -0.513279
-0.210470 1.808870 -0.514400
-0.204792 1.812875 -0.514910
-0.198726 1.814599 -0.514889
-0.193179 1.819746 -0.515654
-0.187954 1.827322 -0.516973
-0.181685 1.828053 -0.516710
-0.175697 1.830781 -0.516902
-0.169697 1.833542 -0.517098
-0.163944 1.838350 -0.517757
-0.157799 1.840288 -0.517755
-0.152112 1.846149 -0.518643
-0.146457 1.852699 -0.519682
-0.140159 1.853890 -0.519492
-0.134384 1.860080 -0.520435
-0.128545 1.866158 -0.521345
-0.122266 1.868157 -0.521322
-0.116343 1.874220 -0.522213
-0.110176 1.878031 -0.522587
-0.104198 1.884548 -0.523565
-0.097836 1.886800 -0.523573
-0.091462 1.889112 -0.523588
-0.085188 1.893168 -0.523989
-0.078930 1.898056 -0.524568
-0.072738 1.904830 -0.525561
-0.066334 1.908759 -0.525908
-0.059850 1.911776 -0.526043
-0.053444 1.917189 -0.526704
-0.046997 1.922875 -0.527415
-0.040424 1.926416 -0.527641
-0.033805 1.929556 -0.527768
-0.027198 1.934448 -0.528275
-0.020563 1.940348 -0.528993
-0.013867 1.946099 -0.529668
-0.007086 1.949176 -0.529743
-0.000291 1.955764 -0.530579
0.006572 1.960469 -0.530990
0.013476 1.963052 -0.530926
0.020412 1.965660 -0.530859
0.027392 1.969281 -0.531002
0.034392 1.971665 -0.530866
0.041429 1.974390 -0.530793
0.048562 1.979305 -0.531185
0.055532 1.977465 -0.530106
0.062611 1.978769 -0.529699
0.069834 1.982970 -0.529904
0.077455 1.994594 -0.531689
0.084800 1.998488 -0.531802
0.092059 1.999989 -0.531392
0.099345 2.001490 -0.530973
0.106708 2.003753 -0.530706
0.114112 2.006121 -0.530452
0.121775 2.011442 -0.530813
0.129853 2.021131 -0.532082
0.137506 2.024594 -0.532025
0.144754 2.023046 -0.530905
0.152266 2.024331 -0.530375
0.159866 2.026254 -0.529971
0.167393 2.027203 -0.529357
0.174838 2.027246 -0.528550
0.182119 2.025778 -0.527426
0.189177 2.022520 -0.525931
0.195905 2.016834 -0.523938
0.202661 2.011770 -0.522078
0.209063 2.004446 -0.519761
0.215758 1.999766 -0.517995
0.222484 1.995654 -0.516352
0.228381 1.986310 -0.513655
0.234902 1.981703 -0.511935
0.241420 1.977460 -0.510301
0.247606 1.971564 -0.508348
0.253822 1.966333 -0.506546
0.259385 1.957793 -0.504099
0.265594 1.953537 -0.502533
0.271481 1.947961 -0.500725
0.277269 1.942373 -0.498939
0.283248 1.938310 -0.497482
0.289241 1.934789 -0.496159
0.294994 1.930536 -0.494719
0.300723 1.926665 -0.493384
0.306424 1.923164 -0.492152
0.311352 1.916557 -0.490341
0.316696 1.912468 -0.489059
0.322364 1.910354 -0.488200
0.327506 1.906390 -0.487011
0.333023 1.904569 -0.486277
-0.898365 1.350590 -0.440727
-0.895357 1.354433 -0.441407
-0.890248 1.356410 -0.441602
-0.884847 1.358200 -0.441766
-0.878748 1.359402 -0.441790
-0.876001 1.363932 -0.442726
-0.871748 1.367108 -0.443316
-0.865748 1.368650 -0.443485
-0.862754 1.373246 -0.444487
-0.859330 1.377519 -0.445418
-0.853699 1.379645 -0.445789
-0.849459 1.383246 -0.446568
-0.841790 1.383374 -0.446433
-0.836500 1.385982 -0.446971
-0.832182 1.389653 -0.447802
-0.829029 1.394614 -0.448986
-0.823709 1.397322 -0.449579
-0.821061 1.402946 -0.450953
-0.815199 1.405128 -0.451419
-0.811148 1.409311 -0.452421
-0.806209 1.412539 -0.453174
-0.800637 1.415067 -0.453745
-0.795688 1.418296 -0.454503
-0.790863 1.421671 -0.455302
-0.786733 1.425855 -0.456316
-0.782035 1.429390 -0.457158
-0.777642 1.433288 -0.458095
-0.772239 1.435984 -0.458713
-0.766963 1.438814 -0.459364
-0.761965 1.441962 -0.460097
-0.756978 1.445110 -0.460828
-0.751266 1.447343 -0.461314
-0.746935 1.451272 -0.462244
-0.743419 1.456230 -0.463442
-0.738865 1.459880 -0.464291
-0.732657 1.461386 -0.464569
-0.727589 1.464327 -0.465222
-0.724046 1.469256 -0.466394
-0.720406 1.474073 -0.467531
-0.715943 1.477799 -0.468376
-0.708669 1.477706 -0.468210
-0.704739 1.482114 -0.469224
-0.700153 1.485623 -0.469996
-0.695220 1.488637 -0.470633
-0.689355 1.490318 -0.470915
-0.683591 1.492099 -0.471218
-0.680353 1.497481 -0.472459
-0.674300 1.498797 -0.472630
-0.670129 1.502833 -0.473508
-0.665340 1.505958 -0.474142
-0.663076 1.512865 -0.475759
-0.654536 1.510318 -0.474901
-0.650230 1.514137 -0.475701
-0.645619 1.517491 -0.476374
-0.640942 1.520740 -0.477014
-0.636989 1.525134 -0.477948
-0.633163 1.529752 -0.478934
-0.627433 1.531323 -0.479122
-0.624063 1.536713 -0.480299
-0.617700 1.537212 -0.480200
-0.612508 1.539609 -0.480589
-0.607934 1.543032 -0.481240
-0.603128 1.546070 -0.481786
-0.598731 1.549812 -0.482510
-0.593958 1.552918 -0.483065
-0.589998 1.557462 -0.483987
-0.584694 1.559650 -0.484295
-0.580305 1.563472 -0.485021
-0.576199 1.567833 -0.485881
-0.570413 1.569141 -0.485951
-0.564525 1.570226 -0.485961
-0.559730 1.573336 -0.486487
-0.556460 1.579359 -0.487756
-0.551874 1.582929 -0.488392
-0.545452 1.582947 -0.488114
-0.540281 1.585373 -0.488450
-0.537254 1.592072 -0.489873
-0.532491 1.595373 -0.490425
-0.526977 1.597163 -0.490587
-0.522198 1.600457 -0.491129
-0.517662 1.604284 -0.491804
-0.513232 1.608372 -0.492540
-0.508164 1.611140 -0.492938
-0.504426 1.616805 -0.494067
-0.499097 1.619062 -0.494329
-0.494401 1.622729 -0.494944
-0.488783 1.624360 -0.495042
-0.483633 1.627044 -0.495403
-0.478741 1.630339 -0.495915
-0.474468 1.635117 -0.496798
-0.469528 1.638384 -0.497296
-0.464067 1.640428 -0.497485
-0.458528 1.642287 -0.497624
-0.453174 1.644596 -0.497875
-0.448127 1.647685 -0.498318
-0.443470 1.651793 -0.499014
-0.438501 1.655161 -0.499521
-0.434023 1.659852 -0.500355
-0.429210 1.663736 -0.500985
-0.424089 1.666849 -0.501420
-0.419076 1.670293 -0.501935
-0.414584 1.675227 -0.502816
-0.408959 1.677071 -0.502928
-0.403409 1.679125 -0.503091
-0.398420 1.682815 -0.503655
-0.393917 1.687992 -0.504585
-0.388463 1.690432 -0.504835
-0.382809 1.692286 -0.504939
-0.377332 1.694687 -0.505176
-0.372681 1.699703 -0.506054
-0.367711 1.703810 -0.506705
-0.362203 1.706253 -0.506944
-0.356533 1.708185 -0.507057
-0.351040 1.710717 -0.507314
-0.346732 1.717327 -0.508566
-0.341601 1.721251 -0.509158
-0.335468 1.721710 -0.508902
-0.330962 1.727989 -0.510062
-0.325541 1.731082 -0.510443
-0.319895 1.733387 -0.510630
-0.314541 1.736831 -0.511091
-0.309518 1.741639 -0.511880
-0.304143 1.745174 -0.512357
-0.298684 1.748450 -0.512768
-0.293373 1.752405 -0.513340
-0.287996 1.756186 -0.513867
-0.282024 1.757491 -0.513795
-0.276901 1.762536 -0.514620
-0.271334 1.765735 -0.514998
-0.265470 1.767636 -0.515061
-0.260819 1.775295 -0.516501
-0.255041 1.777795 -0.516701
-0.249163 1.779845 -0.516791
-0.243477 1.782910 -0.517120
-0.237600 1.785060 -0.517228
-0.233060 1.794401 -0.519043
-0.227875 1.800630 -0.520111
-0.221583 1.800877 -0.519755
-0.215683 1.803344 -0.519923
-0.210331 1.809149 -0.520877
-0.204550 1.812586 -0.521266
-0.198436 1.814046 -0.521184
-0.192408 1.816079 -0.521234
-0.187294 1.824351 -0.522749
-0.181335 1.827205 -0.522982
-0.175273 1.829427 -0.523063
-0.169346 1.832745 -0.523397
-0.163251 1.834927 -0.523460
-0.157139 1.837070 -0.523510
-0.151877 1.846437 -0.525240
-0.146268 1.853480 -0.526420
-0.140052 1.855509 -0.526425
-0.134154 1.860694 -0.527158
-0.128003 1.863760 -0.527394
-0.122074 1.869387 -0.528216
-0.115924 1.873090 -0.528585
-0.109895 1.878540 -0.529352
-0.103734 1.882944 -0.529869
-0.097447 1.886150 -0.530104
-0.091042 1.888091 -0.530041
-0.084725 1.891539 -0.530317
-0.078579 1.898225 -0.531328
-0.072311 1.903830 -0.532082
-0.065926 1.908166 -0.532537
-0.059523 1.912960 -0.533088
-0.053085 1.917950 -0.533675
-0.046580 1.922402 -0.534130
-0.039989 1.925537 -0.534277
-0.033419 1.930458 -0.534820
-0.026778 1.934404 -0.535133
-0.020157 1.941380 -0.536120
-0.013395 1.943484 -0.535998
-0.006617 1.946326 -0.536034
0.000167 1.953594 -0.537053
0.007027 1.958119 -0.537445
0.013931 1.961754 -0.537628
0.020872 1.964996 -0.537713
0.027858 1.968857 -0.537925
0.034856 1.970936 -0.537731
0.041911 1.974260 -0.537804
0.049000 1.977411 -0.537828
0.056049 1.978110 -0.537300
0.063089 1.978139 -0.536617
0.070432 1.985086 -0.537445
0.077938 1.993871 -0.538662
0.085302 1.998061 -0.538858
0.092537 1.999060 -0.538346
0.099783 1.999875 -0.537784
0.107162 2.002407 -0.537588
0.114755 2.007414 -0.537917
0.122466 2.013174 -0.538397
0.130510 2.022213 -0.539571
0.138050 2.024187 -0.539209
0.145179 2.021281 -0.537791
0.152618 2.021793 -0.537102
0.160415 2.025718 -0.537136
0.167988 2.027042 -0.536606
0.175380 2.026523 -0.535678
0.182698 2.025331 -0.534605
0.189463 2.019565 -0.532564
0.196404 2.015620 -0.530910
0.203298 2.011596 -0.529243
0.209626 2.003653 -0.526759
0.216382 1.999351 -0.525047
0.223046 1.994735 -0.523276
0.228566 1.982813 -0.519994
0.235183 1.978835 -0.518380
0.241713 1.974654 -0.516735
0.247868 1.968554 -0.514707
0.253996 1.962779 -0.512763
0.260117 1.957453 -0.510930
0.266309 1.952998 -0.509295
0.272086 1.946715 -0.507307
0.278090 1.942189 -0.505702
0.284189 1.938624 -0.504317
0.289885 1.933462 -0.502632
0.295519 1.928523 -0.501020
0.301260 1.924628 -0.499650
0.306564 1.919157 -0.497990
0.311572 1.912877 -0.496201
0.317225 1.910139 -0.495158
0.322633 1.906777 -0.494022
0.328198 1.904605 -0.493159
0.335430 1.910040 -0.493853
-0.902228 1.352711 -0.447025
-0.895981 1.353570 -0.446898
-0.888158 1.353014 -0.446400
-0.882861 1.354920 -0.446601
-0.879647 1.358913 -0.447394
-0.876690 1.363272 -0.448304
-0.872239 1.366288 -0.448860
-0.866648 1.368268 -0.449148
-0.863125 1.372372 -0.450034
-0.859866 1.376838 -0.451033
-0.855145 1.379919 -0.451666
-0.849298 1.381914 -0.452015
-0.844383 1.384910 -0.452649
-0.836227 1.384581 -0.452387
-0.835654 1.392207 -0.454305
-0.829602 1.394143 -0.454679
-0.825698 1.398393 -0.455691
-0.819766 1.400499 -0.456127
-0.817574 1.406693 -0.457680
-0.812191 1.409447 -0.458301
-0.806299 1.411638 -0.458773
-0.801404 1.414940 -0.459551
-0.796458 1.418193 -0.460316
-0.792133 1.422160 -0.461277
-0.787484 1.425765 -0.462140
-0.782457 1.428933 -0.462884
-0.777012 1.431600 -0.463492
-0.771897 1.434640 -0.464199
-0.767040 1.437976 -0.464985
-0.762663 1.441886 -0.465923
-0.756310 1.443370 -0.466203
-0.751488 1.446702 -0.466979
-0.747568 1.451151 -0.468054
-0.744142 1.456234 -0.469296
-0.739102 1.459274 -0.469982
-0.732890 1.460782 -0.470250
-0.728477 1.464583 -0.471133
-0.725166 1.469828 -0.472400
-0.718616 1.470793 -0.472508
-0.716942 1.478241 -0.474358
-0.711331 1.480419 -0.474784
-0.704566 1.480981 -0.474770
-0.699655 1.484039 -0.475423
-0.694635 1.486926 -0.476025
-0.689325 1.489385 -0.476507
-0.684821 1.492965 -0.477285
-0.680574 1.496910 -0.478155
-0.675847 1.500162 -0.478834
-0.670192 1.502039 -0.479140
-0.666920 1.507419 -0.480378
-0.663386 1.512442 -0.481515
-0.658350 1.515220 -0.482046
-0.651145 1.514660 -0.481682
-0.645802 1.516897 -0.482060
-0.641141 1.520176 -0.482711
-0.636962 1.524215 -0.483559
-0.632709 1.528152 -0.484375
-0.629042 1.533049 -0.485440
-0.623890 1.535561 -0.485867
-0.618692 1.537983 -0.486265
-0.613173 1.539856 -0.486514
-0.608113 1.542475 -0.486957
-0.603962 1.546634 -0.487802
-0.599565 1.550396 -0.488537
-0.594944 1.553786 -0.489169
-0.590291 1.557131 -0.489785
-0.585049 1.559441 -0.490124
-0.580452 1.562900 -0.490762
-0.576504 1.567554 -0.491709
-0.571936 1.571114 -0.492364
-0.565826 1.571826 -0.492268
-0.561035 1.574975 -0.492808
-0.556417 1.578468 -0.493433
-0.551454 1.581316 -0.493887
-0.547603 1.586338 -0.494904
-0.542166 1.588296 -0.495117
-0.537770 1.592318 -0.495865
-0.532827 1.595275 -0.496332
-0.527253 1.596959 -0.496464
-0.521590 1.598442 -0.496541
-0.518290 1.604845 -0.497893
-0.513382 1.607948 -0.498384
-0.509474 1.613211 -0.499431
-0.504658 1.616582 -0.499984
-0.500028 1.620393 -0.500648
-0.493847 1.620795 -0.500428
-0.489080 1.624336 -0.501016
-0.483419 1.625875 -0.501085
-0.478294 1.628639 -0.501466
-0.473773 1.632833 -0.502213
-0.469115 1.636760 -0.502888
-0.464013 1.639669 -0.503299
-0.458566 1.641764 -0.503498
-0.453494 1.644786 -0.503932
-0.448559 1.648179 -0.504458
-0.443341 1.650896 -0.504809
-0.438578 1.654806 -0.505462
-0.434154 1.659655 -0.506351
-0.429337 1.663552 -0.506994
-0.423961 1.666002 -0.507266
-0.419388 1.670659 -0.508096
-0.413977 1.673080 -0.508356
-0.408190 1.674461 -0.508351
-0.403522 1.679022 -0.509148
-0.398284 1.682015 -0.509546
-0.393450 1.686232 -0.510251
-0.388211 1.689316 -0.510666
-0.382568 1.691215 -0.510782
-0.377341 1.694404 -0.511219
-0.372770 1.699694 -0.512182
-0.367540 1.703002 -0.512644
-0.361918 1.705091 -0.512798
-0.356165 1.706758 -0.512846
-0.350776 1.709648 -0.513197
-0.346538 1.716512 -0.514536
-0.340979 1.718968 -0.514773
-0.336103 1.723869 -0.515617
-0.330956 1.727913 -0.516243
-0.325370 1.730431 -0.516488
-0.320070 1.734054 -0.517005
-0.314656 1.737322 -0.517431
-0.309686 1.742380 -0.518297
-0.304442 1.746489 -0.518924
-0.298910 1.749533 -0.519286
-0.293144 1.751671 -0.519422
-0.287382 1.753847 -0.519565
-0.282210 1.758596 -0.520338
-0.277492 1.765497 -0.521635
-0.271135 1.765236 -0.521172
-0.265308 1.767343 -0.521287
-0.260018 1.772012 -0.522026
-0.254687 1.776642 -0.522752
-0.249073 1.780020 -0.523168
-0.243369 1.783043 -0.523494
-0.238178 1.788820 -0.524487
-0.232567 1.792581 -0.524985
-0.227025 1.796851 -0.525603
-0.221191 1.799630 -0.525855
-0.215200 1.801578 -0.525902
-0.209931 1.807885 -0.527000
-0.204181 1.811527 -0.527448
-0.197990 1.812520 -0.527255
-0.192787 1.819966 -0.528610
-0.186981 1.823747 -0.529079
-0.181050 1.826830 -0.529375
-0.175038 1.829462 -0.529559
-0.169102 1.832780 -0.529902
-0.163115 1.835867 -0.530186
-0.157372 1.841091 -0.530974
-0.151795 1.848045 -0.532168
-0.145788 1.851747 -0.532581
-0.139860 1.856408 -0.533216
-0.133843 1.860567 -0.533726
-0.127817 1.864964 -0.534285
-0.121687 1.868621 -0.534664
-0.115458 1.871496 -0.534851
-0.109241 1.874767 -0.535126
-0.103345 1.882307 -0.536399
-0.097025 1.885148 -0.536558
-0.090668 1.887796 -0.536666
-0.084557 1.894439 -0.537704
-0.078164 1.897475 -0.537888
-0.071756 1.900695 -0.538108
-0.065582 1.908920 -0.539488
-0.059139 1.913097 -0.539914
-0.052720 1.918717 -0.540667
-0.046137 1.921409 -0.540732
-0.039552 1.924805 -0.540951
-0.033009 1.930799 -0.541763
-0.026370 1.935165 -0.542189
-0.019677 1.939043 -0.542492
-0.012940 1.942474 -0.542684
-0.006151 1.944340 -0.542508
0.000637 1.950600 -0.543329
0.007489 1.955781 -0.543892
0.014388 1.959255 -0.544054
0.021325 1.962687 -0.544197
0.028312 1.966869 -0.544501
0.035359 1.971752 -0.544952
0.042402 1.974164 -0.544832
0.049497 1.977276 -0.544861
0.056523 1.977132 -0.544146
0.063560 1.977064 -0.543440
0.070993 1.986062 -0.544762
0.078409 1.992668 -0.545532
0.085707 1.995559 -0.545457
0.092975 1.997246 -0.545104
0.100388 2.000810 -0.545158
0.107986 2.006445 -0.545662
0.115491 2.009844 -0.545657
0.123111 2.014144 -0.545841
0.130924 2.020142 -0.546387
0.138154 2.018548 -0.545250
0.145607 2.019436 -0.544654
0.153265 2.022243 -0.544470
0.161011 2.025539 -0.544384
0.168533 2.026305 -0.543739
0.176012 2.026520 -0.542968
0.183182 2.023960 -0.541591
0.190010 2.018706 -0.539632
0.196914 2.014427 -0.537887
0.203754 2.009952 -0.536103
0.210309 2.003673 -0.533936
0.216920 1.998251 -0.531961
0.223611 1.993767 -0.530194
0.229185 1.982174 -0.526922
0.235730 1.977654 -0.525170
0.242161 1.972790 -0.523356
0.248420 1.967277 -0.521418
0.254562 1.961524 -0.519446
0.260820 1.956911 -0.517731
0.266876 1.951597 -0.515887
0.272744 1.945736 -0.513950
0.278582 1.940237 -0.512111
0.284673 1.936562 -0.510677
0.290556 1.932270 -0.509138
0.296031 1.926447 -0.507309
0.301625 1.921761 -0.505744
0.306548 1.914433 -0.503663
0.312033 1.910341 -0.502283
0.317750 1.907810 -0.501255
0.323238 1.904722 -0.500145
0.328789 1.902395 -0.499224
0.334702 1.902083 -0.498749
-0.903320 1.352250 -0.452648
-0.896154 1.352287 -0.452287
-0.890011 1.353354 -0.452236
-0.882476 1.353172 -0.451851
-0.879978 1.357877 -0.452862
-0.876347 1.361613 -0.453616
-0.872663 1.365402 -0.454399
-0.867927 1.368258 -0.454934
-0.863805 1.371802 -0.455678
-0.861167 1.376920 -0.456876
-0.856651 1.380246 -0.457583
-0.850799 1.382275 -0.457939
-0.844867 1.384260 -0.458294
-0.841229 1.388663 -0.459336
-0.836232 1.391706 -0.460006
-0.830889 1.394421 -0.460593
-0.825270 1.396865 -0.461111
-0.822228 1.402108 -0.462416
-0.817583 1.405664 -0.463255
-0.812832 1.409126 -0.464072
-0.806734 1.411110 -0.464481
-0.801099 1.413598 -0.465033
-0.796917 1.417724 -0.466042
-0.792765 1.421904 -0.467067
-0.787737 1.425087 -0.467815
-0.782127 1.427584 -0.468372
-0.776691 1.430265 -0.468980
-0.771706 1.433463 -0.469730
-0.767445 1.437519 -0.470715
-0.763378 1.441815 -0.471764
-0.756250 1.442363 -0.471773
-0.753109 1.447781 -0.473126
-0.748650 1.451578 -0.474027
-0.744196 1.455375 -0.474925
-0.739417 1.458752 -0.475702
-0.733561 1.460728 -0.476088
-0.728947 1.464277 -0.476905
-0.724185 1.467621 -0.477660
-0.722002 1.474375 -0.479349
-0.717140 1.477590 -0.480059
-0.711334 1.479510 -0.480407
-0.704962 1.480614 -0.480527
-0.699441 1.482836 -0.480950
-0.694754 1.486186 -0.481678
-0.689882 1.489266 -0.482326
-0.685426 1.492923 -0.483128
-0.680776 1.496298 -0.483847
-0.675660 1.498987 -0.484374
-0.670898 1.502177 -0.485032
-0.666832 1.506389 -0.485965
-0.662879 1.510784 -0.486942
-0.658430 1.514442 -0.487713
-0.653420 1.517248 -0.488246
-0.646469 1.517038 -0.487954
-0.641748 1.520236 -0.488585
-0.637090 1.523530 -0.489237
-0.632767 1.527360 -0.490031
-0.628240 1.530872 -0.490733
-0.623374 1.533839 -0.491282
-0.618622 1.536990 -0.491877
-0.614467 1.541137 -0.492736
-0.609209 1.543449 -0.493095
-0.604238 1.546236 -0.493578
-0.600435 1.551028 -0.494598
-0.595707 1.554252 -0.495190
-0.590085 1.555914 -0.495357
-0.585434 1.559274 -0.495977
-0.581071 1.563165 -0.496736
-0.576606 1.566897 -0.497448
-0.571424 1.569335 -0.497808
-0.566508 1.572263 -0.498296
-0.561885 1.575748 -0.498930
-0.555856 1.576582 -0.498850
-0.551698 1.580974 -0.499718
-0.546758 1.583889 -0.500188
-0.541862 1.586900 -0.500681
-0.538554 1.593087 -0.502015
-0.534397 1.597653 -0.502912
-0.527306 1.596291 -0.502231
-0.523503 1.601625 -0.503326
-0.518733 1.605010 -0.503900
-0.513812 1.608106 -0.504393
-0.508691 1.610795 -0.504776
-0.504397 1.615285 -0.505631
-0.498939 1.617282 -0.505825
-0.494647 1.621862 -0.506698
-0.489144 1.623782 -0.506866
-0.483372 1.625082 -0.506869
-0.477981 1.627242 -0.507096
-0.473925 1.632527 -0.508140
-0.469261 1.636455 -0.508825
-0.464171 1.639413 -0.509252
-0.459087 1.642411 -0.509688
-0.454114 1.645709 -0.510199
-0.448811 1.648219 -0.510501
-0.443552 1.650857 -0.510835
-0.438484 1.654004 -0.511299
-0.433734 1.658016 -0.511985
-0.430175 1.665244 -0.513503
-0.424861 1.667911 -0.513834
-0.419176 1.669591 -0.513906
-0.413638 1.671670 -0.514081
-0.408307 1.674339 -0.514406
-0.403641 1.678931 -0.515224
-0.398562 1.682410 -0.515753
-0.393308 1.685427 -0.516160
-0.387975 1.688247 -0.516515
-0.382647 1.691115 -0.516879
-0.378010 1.696151 -0.517797
-0.372897 1.699802 -0.518357
-0.367476 1.702532 -0.518678
-0.362088 1.705404 -0.519034
-0.356786 1.708599 -0.519470
-0.351675 1.712488 -0.520080
-0.346330 1.715650 -0.520503
-0.340924 1.718656 -0.520883
-0.335633 1.722116 -0.521377
-0.330154 1.724963 -0.521712
-0.324994 1.729028 -0.522353
-0.319541 1.732090 -0.522738
-0.314568 1.737037 -0.523596
-0.309623 1.742227 -0.524512
-0.304199 1.745655 -0.524980
-0.298621 1.748534 -0.525308
-0.292909 1.750910 -0.525506
-0.287038 1.752652 -0.525542
-0.282635 1.760742 -0.527169
-0.277013 1.763736 -0.527513
-0.271176 1.765826 -0.527629
-0.265131 1.766982 -0.527509
-0.260049 1.772676 -0.528519
-0.254451 1.776072 -0.528952
-0.249230 1.781436 -0.529872
-0.243009 1.781906 -0.529570
-0.237680 1.786981 -0.530410
-0.231999 1.790368 -0.530828
-0.226520 1.794975 -0.531543
-0.220821 1.798517 -0.531990
-0.215160 1.802402 -0.532519
-0.209597 1.807028 -0.533226
-0.203554 1.808893 -0.533248
-0.197641 1.811626 -0.533481
-0.192241 1.817816 -0.534558
-0.186704 1.823406 -0.535483
-0.180727 1.826218 -0.535721
-0.174781 1.829366 -0.536037
-0.168812 1.832498 -0.536346
-0.162960 1.836688 -0.536907
-0.157137 1.841366 -0.537581
-0.150751 1.841598 -0.537170
-0.145438 1.851187 -0.539025
-0.139022 1.851432 -0.538607
-0.133438 1.859596 -0.540102
-0.127442 1.864322 -0.540758
-0.121302 1.867931 -0.541137
-0.114996 1.870009 -0.541141
-0.109015 1.876038 -0.542090
-0.102748 1.879170 -0.542336
-0.096653 1.884877 -0.543192
-0.090367 1.888596 -0.543565
-0.084140 1.893679 -0.544257
-0.077761 1.897003 -0.544520
-0.071405 1.901245 -0.544996
-0.065138 1.907898 -0.546037
-0.058682 1.911842 -0.546424
-0.052263 1.917502 -0.547210
-0.045698 1.920721 -0.547409
-0.039073 1.923010 -0.547381
-0.032489 1.927518 -0.547868
-0.025875 1.932634 -0.548489
-0.019226 1.938551 -0.549289
-0.012472 1.941136 -0.549296
-0.005698 1.944517 -0.549481
0.001106 1.949336 -0.549993
0.007959 1.953761 -0.550403
0.014856 1.957371 -0.550612
0.021795 1.961285 -0.550882
0.028800 1.966691 -0.551488
0.035834 1.970556 -0.551726
0.042902 1.974012 -0.551858
0.049972 1.976039 -0.551650
0.056981 1.975404 -0.550821
0.064097 1.977488 -0.550609
0.071498 1.985488 -0.551744
0.078830 1.990212 -0.552114
0.086123 1.993100 -0.552053
0.093331 1.993835 -0.551492
0.100841 1.999097 -0.551951
0.108374 2.003766 -0.552263
0.116045 2.009544 -0.552814
0.123417 2.010531 -0.552270
0.130873 2.012260 -0.551885
0.138473 2.015310 -0.551788
0.146179 2.019056 -0.551838
0.153986 2.023343 -0.551998
0.161490 2.024091 -0.551359
0.169102 2.025684 -0.550901
0.176570 2.025739 -0.550096
0.183766 2.023362 -0.548747
0.190647 2.018506 -0.546850
0.197394 2.012913 -0.544793
0.204135 2.007655 -0.542815
0.210616 2.000843 -0.540501
0.217286 1.995859 -0.538594
0.223637 1.989034 -0.536293
0.229894 1.982076 -0.533974
0.236352 1.976910 -0.532056
0.242769 1.971887 -0.530181
0.248969 1.965947 -0.528120
0.254988 1.959408 -0.525946
0.261295 1.955031 -0.524254
0.267461 1.950274 -0.522499
0.273410 1.944782 -0.520605
0.278881 1.937253 -0.518298
0.284959 1.933462 -0.516813
0.290886 1.929351 -0.515284
0.296492 1.924125 -0.513544
0.301820 1.918091 -0.511660
0.307371 1.913682 -0.510151
0.313001 1.910150 -0.508856
0.318601 1.906969 -0.507666
0.324094 1.903796 -0.506509
0.329879 1.902373 -0.505751
0.336747 1.905997 -0.506084
-0.901292 1.348894 -0.457452
-0.894133 1.348956 -0.457091
-0.891722 1.353558 -0.458064
-0.887631 1.356696 -0.458627
-0.881611 1.358090 -0.458703
-0.879593 1.363425 -0.459931
-0.875092 1.366471 -0.460513
-0.869317 1.368351 -0.460773
-0.865224 1.371962 -0.461546
-0.861847 1.376376 -0.462561
-0.857583 1.379986 -0.463357
-0.851530 1.381844 -0.463662
-0.847264 1.385574 -0.464513
-0.842215 1.388552 -0.465159
-0.835700 1.390033 -0.465385
-0.830448 1.392858 -0.466003
-0.827267 1.397922 -0.467267
-0.822313 1.401134 -0.468007
-0.817884 1.404940 -0.468921
-0.812465 1.407686 -0.469537
-0.806568 1.409902 -0.470005
-0.800846 1.412303 -0.470528
-0.796758 1.416542 -0.471575
-0.792753 1.420896 -0.472655
-0.788171 1.424603 -0.473552
-0.783239 1.427904 -0.474332
-0.777713 1.430500 -0.474911
-0.772059 1.432920 -0.475439
-0.767696 1.436862 -0.476397
-0.764511 1.442235 -0.477757
-0.759955 1.445955 -0.478646
-0.753982 1.447916 -0.479033
-0.748856 1.450892 -0.479706
-0.744072 1.454278 -0.480490
-0.739286 1.457649 -0.481266
-0.734694 1.461253 -0.482103
-0.729622 1.464223 -0.482758
-0.725174 1.467991 -0.483633
-0.721747 1.473106 -0.484882
-0.717024 1.476505 -0.485643
-0.710476 1.477422 -0.485702
-0.704025 1.478409 -0.485777
-0.699345 1.481782 -0.486517
-0.695221 1.485918 -0.487467
-0.690687 1.489482 -0.488251
-0.685952 1.492754 -0.488949
-0.681091 1.495835 -0.489587
-0.675760 1.498218 -0.490027
-0.670437 1.500587 -0.490457
-0.665967 1.504194 -0.491229
-0.662158 1.508791 -0.492271
-0.657812 1.512598 -0.493088
-0.653058 1.515787 -0.493728
-0.648753 1.519663 -0.494554
-0.643419 1.521944 -0.494932
-0.637613 1.523457 -0.495092
-0.633276 1.527275 -0.495889
-0.628924 1.531080 -0.496676
-0.622687 1.531830 -0.496613
-0.618188 1.535389 -0.497323
-0.614232 1.539859 -0.498281
-0.609792 1.543548 -0.499018
-0.605289 1.547145 -0.499725
-0.600942 1.551023 -0.500505
-0.594957 1.552079 -0.500504
-0.590359 1.555529 -0.501158
-0.586166 1.559712 -0.502010
-0.581550 1.563168 -0.502657
-0.576707 1.566228 -0.503191
-0.571539 1.568700 -0.503561
-0.565124 1.568854 -0.503293
-0.560472 1.572260 -0.503912
-0.558764 1.581278 -0.506058
-0.551787 1.580323 -0.505478
-0.546465 1.582506 -0.505752
-0.542202 1.586761 -0.506587
-0.537339 1.589869 -0.507105
-0.533036 1.594120 -0.507931
-0.528872 1.598699 -0.508841
-0.523503 1.600848 -0.509089
-0.518789 1.604361 -0.509704
-0.513755 1.607228 -0.510140
-0.508578 1.609805 -0.510496
-0.503299 1.612169 -0.510791
-0.499638 1.618087 -0.512040
-0.494731 1.621332 -0.512566
-0.489383 1.623614 -0.512830
-0.483743 1.625235 -0.512915
-0.479068 1.629071 -0.513590
-0.474344 1.632839 -0.514245
-0.469069 1.635347 -0.514560
-0.464145 1.638712 -0.515101
-0.459245 1.642169 -0.515664
-0.454119 1.645111 -0.516087
-0.448829 1.647668 -0.516404
-0.443275 1.649572 -0.516547
-0.437906 1.651952 -0.516813
-0.433195 1.656062 -0.517537
-0.429733 1.663542 -0.519149
-0.424636 1.666795 -0.519639
-0.419169 1.669077 -0.519869
-0.413454 1.670688 -0.519920
-0.408518 1.674478 -0.520544
-0.403813 1.678986 -0.521355
-0.398667 1.682301 -0.521849
-0.393317 1.685063 -0.522195
-0.388532 1.689543 -0.522989
-0.383323 1.692824 -0.523466
-0.378123 1.696180 -0.523960
-0.372894 1.699497 -0.524442
-0.367598 1.702655 -0.524880
-0.362437 1.706298 -0.525441
-0.357065 1.709310 -0.525836
-0.351872 1.712967 -0.526397
-0.346369 1.715633 -0.526697
-0.340735 1.717878 -0.526886
-0.335081 1.720072 -0.527060
-0.330129 1.724820 -0.527893
-0.324330 1.726568 -0.527948
-0.319040 1.730229 -0.528494
-0.314852 1.738178 -0.530143
-0.308827 1.739219 -0.530008
-0.303450 1.742813 -0.530529
-0.298363 1.747665 -0.531369
-0.292601 1.749857 -0.531523
-0.287581 1.755215 -0.532487
-0.282062 1.758576 -0.532935
-0.276058 1.759878 -0.532855
-0.270420 1.762824 -0.533192
-0.265297 1.768216 -0.534150
-0.259575 1.770953 -0.534428
-0.254117 1.775032 -0.535044
-0.248324 1.777577 -0.535267
-0.242888 1.781997 -0.535963
-0.237054 1.784487 -0.536166
-0.231610 1.789127 -0.536910
-0.226160 1.793908 -0.537685
-0.220465 1.797495 -0.538154
-0.214956 1.802294 -0.538925
-0.209098 1.805199 -0.539215
-0.203092 1.807292 -0.539297
-0.197639 1.812958 -0.540272
-0.191905 1.817060 -0.540850
-0.185959 1.819916 -0.541111
-0.180416 1.825711 -0.542103
-0.174273 1.827480 -0.542084
-0.168279 1.830411 -0.542352
-0.162604 1.835974 -0.543269
-0.156961 1.842154 -0.544334
-0.150893 1.845167 -0.544606
-0.145098 1.850755 -0.545511
-0.138964 1.853637 -0.545740
-0.132733 1.855780 -0.545782
-0.126971 1.862770 -0.547014
-0.120806 1.866114 -0.547340
-0.114883 1.872439 -0.548394
-0.108586 1.875001 -0.548515
-0.102323 1.878212 -0.548791
-0.096208 1.883711 -0.549619
-0.089990 1.888422 -0.550248
-0.083637 1.891705 -0.550520
-0.077392 1.897196 -0.551324
-0.071026 1.901395 -0.551805
-0.064633 1.905802 -0.552328
-0.058212 1.910447 -0.552902
-0.051726 1.914572 -0.553340
-0.045259 1.920194 -0.554133
-0.038614 1.922027 -0.554002
-0.031949 1.923746 -0.553836
-0.025368 1.929820 -0.554711
-0.018732 1.936121 -0.555629
-0.011991 1.939376 -0.555807
-0.005222 1.943179 -0.556107
0.001586 1.947194 -0.556448
0.008437 1.953232 -0.557262
0.015335 1.956269 -0.557350
0.022298 1.962361 -0.558154
0.029297 1.966552 -0.558496
0.036307 1.968872 -0.558385
0.043373 1.972220 -0.558508
0.050435 1.974091 -0.558272
0.057529 1.976068 -0.558053
0.064665 1.978433 -0.557916
0.071921 1.982770 -0.558230
0.079298 1.988553 -0.558871
0.086526 1.990244 -0.558545
0.093915 1.994228 -0.558743
0.101247 1.996503 -0.558534
0.108853 2.002316 -0.559134
0.116377 2.006030 -0.559236
0.123842 2.008348 -0.559005
0.131347 2.010707 -0.558774
0.139105 2.015567 -0.559108
0.146804 2.019124 -0.559132
0.154402 2.021144 -0.558795
0.162008 2.022918 -0.558394
0.169575 2.024058 -0.557841
0.177113 2.024732 -0.557177
0.184275 2.022026 -0.555742
0.191171 2.017274 -0.553845
0.197779 2.010556 -0.551508
0.204531 2.005403 -0.549527
0.211055 1.998924 -0.547254
0.217288 1.990829 -0.544627
0.223839 1.985473 -0.542622
0.230521 1.981369 -0.540903
0.237005 1.976308 -0.538981
0.243003 1.968601 -0.536483
0.249430 1.964041 -0.534696
0.255401 1.957182 -0.532416
0.261622 1.952275 -0.530582
0.267955 1.948416 -0.528996
0.273673 1.941615 -0.526783
0.279177 1.934242 -0.524467
0.285254 1.930407 -0.522948
0.291299 1.926840 -0.521509
0.296971 1.921881 -0.519792
0.302525 1.916874 -0.518092
0.307904 1.911564 -0.516355
0.313654 1.908504 -0.515133
0.319376 1.905783 -0.514014
0.324898 1.902640 -0.512835
0.330673 1.901075 -0.512026
0.334838 1.893105 -0.509875
-0.901026 1.347182 -0.462727
-0.898392 1.351498 -0.463621
-0.893062 1.353408 -0.463816
-0.889525 1.357110 -0.464557
-0.885853 1.360797 -0.465308
-0.880117 1.362601 -0.465517
-0.874915 1.364994 -0.465915
-0.869416 1.367171 -0.466262
-0.865496 1.370979 -0.467102
-0.861179 1.374477 -0.467863
-0.856172 1.377354 -0.468453
-0.851674 1.380806 -0.469222
-0.847409 1.384559 -0.470088
-0.843834 1.389089 -0.471190
-0.838934 1.392300 -0.471913
-0.832879 1.394325 -0.472297
-0.827230 1.396793 -0.472816
-0.822360 1.400111 -0.473588
-0.817284 1.403227 -0.474306
-0.812440 1.406611 -0.475106
-0.805045 1.407179 -0.475088
-0.801513 1.412028 -0.476319
-0.797031 1.415838 -0.477247
-0.792667 1.419792 -0.478218
-0.788671 1.424182 -0.479316
-0.784306 1.428156 -0.480291
-0.778692 1.430669 -0.480841
-0.773098 1.433178 -0.481389
-0.768232 1.436534 -0.482181
-0.764002 1.440649 -0.483189
-0.760141 1.445217 -0.484326
-0.755234 1.448503 -0.485088
-0.749612 1.450879 -0.485584
-0.744721 1.454143 -0.486333
-0.739780 1.457326 -0.487055
-0.734801 1.460441 -0.487754
-0.731164 1.465279 -0.488944
-0.726091 1.468248 -0.489592
-0.721272 1.471530 -0.490326
-0.715947 1.474120 -0.490856
-0.709218 1.474781 -0.490828
-0.703711 1.477044 -0.491256
-0.699166 1.480600 -0.492050
-0.695254 1.485029 -0.493090
-0.690933 1.488896 -0.493964
-0.686190 1.492161 -0.494661
-0.681764 1.495871 -0.495480
-0.675945 1.497560 -0.495716
-0.670609 1.499914 -0.496139
-0.665801 1.503025 -0.496773
-0.662232 1.507979 -0.497928
-0.657145 1.510668 -0.498432
-0.652525 1.514052 -0.499130
-0.648471 1.518310 -0.500071
-0.642719 1.519937 -0.500260
-0.638428 1.523831 -0.501088
-0.634445 1.528228 -0.502054
-0.629299 1.530777 -0.502492
-0.624479 1.533843 -0.503072
-0.619053 1.535911 -0.503367
-0.614376 1.539203 -0.504002
-0.609557 1.542260 -0.504567
-0.605166 1.546047 -0.505334
-0.599199 1.547145 -0.505340
-0.594952 1.551190 -0.506171
-0.590488 1.554879 -0.506897
-0.586010 1.558564 -0.507618
-0.581353 1.561948 -0.508251
-0.576752 1.565449 -0.508912
-0.572004 1.568699 -0.509499
-0.566077 1.569775 -0.509476
-0.560517 1.571504 -0.509632
-0.558881 1.580661 -0.511854
-0.553616 1.583005 -0.512174
-0.547862 1.584396 -0.512226
-0.542218 1.585978 -0.512329
-0.537951 1.590278 -0.513182
-0.532772 1.592788 -0.513536
-0.528034 1.596200 -0.514137
-0.523650 1.600368 -0.514943
-0.518122 1.602195 -0.515099
-0.513277 1.605455 -0.515648
-0.508874 1.609684 -0.516460
-0.504415 1.613840 -0.517249
-0.499668 1.617419 -0.517876
-0.494981 1.621165 -0.518545
-0.489457 1.623070 -0.518707
-0.484644 1.626588 -0.519307
-0.479806 1.630088 -0.519900
-0.474419 1.632341 -0.520150
-0.469094 1.634746 -0.520438
-0.463854 1.637366 -0.520784
-0.458979 1.640890 -0.521373
-0.453759 1.643605 -0.521739
-0.448475 1.646182 -0.522065
-0.442984 1.648250 -0.522251
-0.437222 1.649627 -0.522249
-0.432908 1.654763 -0.523261
-0.428841 1.660646 -0.524472
-0.424361 1.665539 -0.525411
-0.418940 1.667958 -0.525680
-0.413795 1.671153 -0.526156
-0.408822 1.674875 -0.526772
-0.403826 1.678588 -0.527382
-0.398462 1.681294 -0.527719
-0.393498 1.685203 -0.528377
-0.388204 1.688197 -0.528787
-0.383375 1.692638 -0.529582
-0.377938 1.695290 -0.529896
-0.372420 1.697719 -0.530149
-0.367752 1.702879 -0.531126
-0.362521 1.706329 -0.531646
-0.357336 1.709990 -0.532219
-0.352115 1.713601 -0.532776
-0.346582 1.716211 -0.533066
-0.340578 1.717213 -0.532928
-0.335036 1.719829 -0.533216
-0.329732 1.723335 -0.533736
-0.324893 1.728620 -0.534723
-0.319993 1.733819 -0.535683
-0.314275 1.736028 -0.535854
-0.308549 1.738231 -0.536021
-0.303356 1.742576 -0.536748
-0.297916 1.746032 -0.537239
-0.292107 1.748032 -0.537346
-0.287344 1.754482 -0.538613
-0.281694 1.757306 -0.538930
-0.275761 1.758936 -0.538934
-0.269932 1.761036 -0.539058
-0.265153 1.768024 -0.540450
-0.259309 1.770227 -0.540595
-0.253877 1.774462 -0.541264
-0.247923 1.776235 -0.541292
-0.242310 1.779764 -0.541772
-0.237001 1.784992 -0.542688
-0.231044 1.786945 -0.542754
-0.225765 1.792661 -0.543786
-0.220188 1.796934 -0.544443
-0.214553 1.801037 -0.545051
-0.208842 1.804843 -0.545579
-0.202829 1.806939 -0.545666
-0.196873 1.809446 -0.545854
-0.191920 1.818633 -0.547745
-0.185858 1.820812 -0.547840
-0.179484 1.820863 -0.547390
-0.173786 1.825761 -0.548171
-0.167823 1.828926 -0.548506
-0.162079 1.833971 -0.549314
-0.156834 1.843375 -0.551219
-0.150736 1.846259 -0.551466
-0.144650 1.849407 -0.551776
-0.138546 1.852590 -0.552090
-0.132351 1.855101 -0.552229
-0.126172 1.857934 -0.552445
-0.120539 1.866773 -0.554163
-0.114373 1.870521 -0.554595
-0.108134 1.873745 -0.554890
-0.101945 1.877907 -0.555414
-0.095776 1.882781 -0.556109
-0.089559 1.887564 -0.556773
-0.083189 1.890642 -0.557006
-0.076823 1.894203 -0.557353
-0.070564 1.900203 -0.558297
-0.064112 1.903506 -0.558565
-0.057752 1.909400 -0.559466
-0.051333 1.915169 -0.560327
-0.044723 1.917247 -0.560269
-0.038101 1.919564 -0.560263
-0.031529 1.924496 -0.560892
-0.024899 1.928934 -0.561391
-0.018204 1.932208 -0.561596
-0.011495 1.936959 -0.562154
-0.004733 1.941107 -0.562554
0.002061 1.948033 -0.563622
0.008922 1.951481 -0.563832
0.015826 1.955950 -0.564281
0.022793 1.961787 -0.565050
0.029767 1.963981 -0.564928
0.036770 1.966217 -0.564807
0.043837 1.969856 -0.565015
0.050934 1.973070 -0.565111
0.058049 1.975636 -0.565041
0.065228 1.978953 -0.565142
0.072476 1.982899 -0.565382
0.079732 1.985979 -0.565406
0.087027 1.989040 -0.565414
0.094354 1.991926 -0.565371
0.101843 1.996756 -0.565778
0.109280 1.999937 -0.565783
0.116894 2.004932 -0.566206
0.124398 2.007731 -0.566100
0.132081 2.012191 -0.566374
0.139784 2.016224 -0.566536
0.147395 2.018697 -0.566323
0.155031 2.021039 -0.566071
0.162799 2.024312 -0.566027
0.170327 2.024935 -0.565359
0.177691 2.023930 -0.564308
0.184882 2.021438 -0.562910
0.191480 2.014194 -0.560414
0.198345 2.009563 -0.558525
0.205003 2.003662 -0.556348
0.211761 1.998894 -0.554435
0.218020 1.990921 -0.551795
0.224472 1.984807 -0.549589
0.230982 1.979499 -0.547575
0.237639 1.975519 -0.545871
0.244017 1.970121 -0.543856
0.249662 1.960711 -0.540947
0.255966 1.955812 -0.539072
0.262148 1.950622 -0.537147
0.268000 1.944045 -0.534927
0.273961 1.938573 -0.532974
0.279462 1.931162 -0.530609
0.285702 1.928124 -0.529242
0.291922 1.925377 -0.527960
0.297480 1.919786 -0.526070
0.302873 1.913940 -0.524151
0.308505 1.909767 -0.522630
0.314234 1.906532 -0.521344
0.319746 1.902788 -0.519974
0.325588 1.900989 -0.519062
0.330945 1.897531 -0.517817
0.333540 1.882883 -0.514152
-0.894566 1.339744 -0.466264
-0.894621 1.346543 -0.467936
-0.894494 1.353344 -0.469619
-0.890481 1.356631 -0.470249
-0.885216 1.358828 -0.470562
-0.879037 1.360227 -0.470649
-0.874336 1.363125 -0.471202
-0.869894 1.366361 -0.471870
-0.864608 1.368844 -0.472322
-0.860818 1.372883 -0.473254
-0.856469 1.376442 -0.474052
-0.852045 1.379994 -0.474856
-0.847942 1.383937 -0.475787
-0.843095 1.387170 -0.476513
-0.839020 1.391254 -0.477500
-0.834058 1.394455 -0.478229
-0.827707 1.396202 -0.478529
-0.822618 1.399304 -0.479239
-0.817275 1.402146 -0.479876
-0.813575 1.406798 -0.481055
-0.809271 1.410818 -0.482047
-0.803944 1.413713 -0.482706
-0.797936 1.415834 -0.483136
-0.793177 1.419356 -0.483982
-0.789366 1.423970 -0.485153
-0.784898 1.427840 -0.486101
-0.778671 1.429645 -0.486436
-0.773069 1.432152 -0.486978
-0.769583 1.437166 -0.488260
-0.765108 1.441004 -0.489191
-0.759730 1.443734 -0.489792
-0.755589 1.447964 -0.490832
-0.751152 1.451828 -0.491761
-0.745649 1.454342 -0.492289
-0.740734 1.457573 -0.493024
-0.736545 1.461718 -0.494024
-0.730872 1.463937 -0.494453
-0.726307 1.467570 -0.495295
-0.721053 1.470281 -0.495861
-0.715248 1.472228 -0.496198
-0.708891 1.473387 -0.496301
-0.704194 1.476754 -0.497048
-0.701509 1.482881 -0.498598
-0.696997 1.486508 -0.499410
-0.690431 1.487243 -0.499373
-0.686931 1.492269 -0.500585
-0.681433 1.494454 -0.500963
-0.676539 1.497481 -0.501583
-0.671317 1.500014 -0.502054
-0.666817 1.503592 -0.502825
-0.665139 1.511389 -0.504817
-0.659852 1.513823 -0.505245
-0.651650 1.511787 -0.504373
-0.647080 1.515235 -0.505088
-0.642367 1.518463 -0.505735
-0.639219 1.524152 -0.507089
-0.634486 1.527372 -0.507724
-0.629570 1.530295 -0.508269
-0.624334 1.532692 -0.508659
-0.619485 1.535711 -0.509223
-0.614779 1.538965 -0.509852
-0.610311 1.542623 -0.510592
-0.604943 1.544769 -0.510894
-0.600771 1.548948 -0.511776
-0.595977 1.552077 -0.512352
-0.590775 1.554497 -0.512722
-0.585450 1.556690 -0.513023
-0.581509 1.561353 -0.514026
-0.576950 1.564937 -0.514717
-0.572144 1.568090 -0.515281
-0.567002 1.570632 -0.515668
-0.562168 1.573749 -0.516215
-0.557932 1.578014 -0.517084
-0.552824 1.580645 -0.517486
-0.547311 1.582496 -0.517664
-0.543803 1.588267 -0.518948
-0.538661 1.590872 -0.519333
-0.533483 1.593410 -0.519696
-0.528639 1.596633 -0.520249
-0.523407 1.599078 -0.520580
-0.518245 1.601671 -0.520950
-0.513529 1.605215 -0.521584
-0.509034 1.609263 -0.522357
-0.504303 1.612849 -0.522996
-0.499341 1.615960 -0.523500
-0.494014 1.618289 -0.523782
-0.489597 1.622666 -0.524634
-0.485019 1.626736 -0.525396
-0.479943 1.629710 -0.525849
-0.474393 1.631601 -0.525999
-0.468785 1.633349 -0.526107
-0.463925 1.636885 -0.526710
-0.458624 1.639390 -0.527024
-0.453813 1.643118 -0.527674
-0.448569 1.645811 -0.528036
-0.443014 1.647738 -0.528183
-0.438394 1.652068 -0.528993
-0.433780 1.656480 -0.529822
-0.428576 1.659409 -0.530238
-0.424017 1.664095 -0.531136
-0.418855 1.667223 -0.531603
-0.413699 1.670408 -0.532083
-0.408681 1.674018 -0.532677
-0.403400 1.676936 -0.533079
-0.398705 1.681580 -0.533951
-0.393414 1.684564 -0.534366
-0.387426 1.685502 -0.534222
-0.382716 1.690290 -0.535125
-0.377868 1.694752 -0.535936
-0.372597 1.697978 -0.536408
-0.367331 1.701266 -0.536895
-0.362369 1.705595 -0.537661
-0.357087 1.708956 -0.538163
-0.351717 1.712081 -0.538598
-0.346174 1.714665 -0.538885
-0.340838 1.717997 -0.539372
-0.335081 1.719902 -0.539472
-0.329466 1.722324 -0.539709
-0.324635 1.727658 -0.540727
-0.319491 1.731958 -0.541464
-0.313755 1.734101 -0.541620
-0.307899 1.735797 -0.541654
-0.302640 1.739871 -0.542323
-0.297297 1.743702 -0.542923
-0.292275 1.748958 -0.543900
-0.286887 1.752824 -0.544504
-0.281284 1.755854 -0.544882
-0.275609 1.758634 -0.545191
-0.270335 1.763286 -0.545994
-0.264727 1.766533 -0.546421
-0.259767 1.772932 -0.547679
-0.253407 1.772776 -0.547201
-0.247514 1.774864 -0.547313
-0.241947 1.778641 -0.547869
-0.236388 1.782581 -0.548464
-0.231512 1.790321 -0.550053
-0.225706 1.793280 -0.550382
-0.219734 1.795384 -0.550483
-0.214336 1.800879 -0.551469
-0.208986 1.806904 -0.552589
-0.202890 1.808601 -0.552573
-0.196747 1.810032 -0.552485
-0.191591 1.817962 -0.554087
-0.185333 1.818848 -0.553850
-0.179214 1.820688 -0.553859
-0.173424 1.824966 -0.554496
-0.167690 1.829903 -0.555299
-0.161779 1.833747 -0.555814
-0.156231 1.840762 -0.557143
-0.150266 1.844737 -0.557680
-0.144203 1.848101 -0.558055
-0.138044 1.850794 -0.558253
-0.131945 1.854228 -0.558636
-0.125827 1.857724 -0.559029
-0.119640 1.860761 -0.559300
-0.113719 1.867023 -0.560390
-0.107640 1.872047 -0.561156
-0.101388 1.875424 -0.561495
-0.095242 1.880557 -0.562275
-0.089038 1.885501 -0.562999
-0.082727 1.889455 -0.563465
-0.076332 1.892566 -0.563711
-0.069948 1.896348 -0.564119
-0.063559 1.900672 -0.564658
