ply
format ascii 1.0
comment ---
element vertex 1655
property float x
property float y
property float z
element face 0
property list uchar uint vertex_indices
end_header
0.029611 0.895933 -0.499740
0.039370 0.916724 -0.514324
0.037974 0.901042 -0.501269
0.039834 0.901434 -0.500919
0.040956 0.898548 -0.497979
0.043192 0.900934 -0.499177
-1.038594 1.246122 -1.087309
-1.036100 1.250346 -1.090866
-1.032653 1.253959 -1.093596
-1.026446 1.255543 -1.093799
-1.020774 1.257622 -1.094515
-1.018425 1.262406 -1.098382
-1.012981 1.264856 -1.099367
-1.006187 1.266309 -1.099080
-0.999872 1.268217 -1.099254
-0.860346 1.167482 -0.975728
-0.846726 1.162519 -0.967873
-0.833025 1.157414 -0.959829
-0.828445 1.159982 -0.960766
-0.809208 1.150040 -0.946999
-0.809243 1.156614 -0.952523
-0.804973 1.159561 -0.953739
-0.801033 1.162865 -0.955310
-0.788931 1.158947 -0.948465
-0.788372 1.165366 -0.953533
-0.787225 1.171377 -0.958055
-0.781827 1.173585 -0.958148
-0.776129 1.175547 -0.957917
-0.772723 1.179691 -0.960135
-0.764964 1.179756 -0.957675
-0.752292 1.175065 -0.949818
-0.744195 1.174694 -0.946855
-0.742251 1.180335 -0.950642
-0.738311 1.184079 -0.952256
-0.733489 1.186978 -0.952896
-0.727798 1.189012 -0.952552
-0.722546 1.191496 -0.952694
-0.716267 1.192917 -0.951649
-0.710982 1.195363 -0.951729
-0.704652 1.196695 -0.950579
-0.700496 1.200342 -0.951963
-0.695082 1.202639 -0.951864
-0.689914 1.205199 -0.952049
-0.682929 1.205725 -0.950032
-0.676623 1.206962 -0.948797
-0.671105 1.209061 -0.948500
-0.668755 1.214800 -0.952113
-0.662201 1.215687 -0.950525
-0.655043 1.215808 -0.948139
-0.651782 1.220525 -0.950655
-0.647268 1.223762 -0.951599
-0.643236 1.227594 -0.953175
-0.636818 1.228479 -0.951654
-0.629671 1.228393 -0.949136
-0.625231 1.231671 -0.950162
-0.617155 1.230271 -0.946322
-0.613576 1.234621 -0.948489
-0.608138 1.236547 -0.948148
-0.604532 1.240891 -0.950319
-0.600796 1.245090 -0.952341
-0.594514 1.245830 -0.950818
-0.587570 1.245594 -0.948320
-0.582882 1.248439 -0.948996
-0.577202 1.249871 -0.948244
-0.573674 1.254360 -0.950612
-0.570009 1.258688 -0.952818
-0.564593 1.260464 -0.952455
-0.556205 1.257765 -0.947608
-0.551787 1.260934 -0.948688
-0.546794 1.263228 -0.948902
-0.540227 1.263060 -0.946674
-0.534583 1.264266 -0.945840
-0.529541 1.266392 -0.945936
-0.523924 1.267570 -0.945110
-0.519181 1.270140 -0.945675
-0.513873 1.271767 -0.945324
-0.510437 1.276518 -0.948056
-0.506001 1.279619 -0.949172
-0.500793 1.281397 -0.949004
-0.494576 1.281385 -0.947105
-0.489765 1.283801 -0.947590
-0.485045 1.286378 -0.948242
-0.479819 1.288032 -0.948011
-0.476397 1.293010 -0.951003
-0.469588 1.291687 -0.947926
-0.462768 1.290234 -0.944750
-0.454592 1.286041 -0.938975
-0.454847 1.298233 -0.948909
-0.455778 1.312067 -0.960378
-0.457658 1.328173 -0.973972
-0.556213 1.559561 -1.189832
-0.551927 1.566975 -1.194650
-0.547093 1.573352 -1.198484
-0.540650 1.576322 -1.199107
-0.534404 1.579736 -1.200159
-0.526528 1.579489 -1.197789
-0.520369 1.583086 -1.199041
-0.514221 1.586738 -1.200352
-0.507884 1.589978 -1.201289
-0.496729 1.581614 -1.191441
-0.478721 1.574485 -1.180801
-0.478186 1.592116 -1.195131
-0.471942 1.595528 -1.196296
-0.466110 1.600058 -1.198501
-0.456722 1.595137 -1.192021
-0.440234 1.590835 -1.184249
-0.435735 1.599048 -1.189878
-0.413417 1.598622 -1.183934
-0.408681 1.606587 -1.189349
-0.396035 1.590025 -1.172541
-0.389417 1.615502 -1.192034
-0.387379 1.633189 -1.206206
-0.369321 1.648010 -1.214231
-0.346899 1.619766 -1.185539
-0.344727 1.639135 -1.201156
-0.339785 1.648503 -1.207828
-0.278886 1.672132 -1.214232
-0.124665 1.046561 -0.658775
-0.120636 1.041779 -0.653987
-0.104622 0.966175 -0.587453
-0.100536 0.955850 -0.578017
-0.097552 0.954266 -0.576135
-0.094826 0.954931 -0.576197
-0.092209 0.956738 -0.577244
-0.089483 0.957586 -0.577470
-0.086764 0.958580 -0.577826
-0.083757 0.956129 -0.575236
-0.080983 0.956365 -0.574953
-0.078255 0.957259 -0.575235
-0.075584 0.959209 -0.576422
-0.072884 0.961014 -0.577485
-0.070025 0.960028 -0.576177
-0.067309 0.961970 -0.577360
-0.064452 0.960750 -0.575861
-0.061670 0.961306 -0.575873
-0.058903 0.962582 -0.576496
-0.056100 0.962715 -0.576155
-0.053287 0.962002 -0.575101
-0.050472 0.959639 -0.572658
-0.047683 0.954870 -0.568194
-0.044892 0.967381 -0.578285
-0.042212 0.953188 -0.565903
-0.039586 0.946717 -0.560032
-0.036924 0.945736 -0.558780
-0.033916 0.957973 -0.568603
-0.032663 0.913422 -0.530876
-0.030232 0.912438 -0.529651
-0.028001 0.907454 -0.525088
-0.024722 0.924285 -0.538724
-0.022972 0.910900 -0.527154
-0.020534 0.911135 -0.526938
-0.018248 0.909234 -0.524944
-0.015724 0.910971 -0.525967
-0.013269 0.911732 -0.526172
-0.010992 0.910450 -0.524678
-0.008788 0.908684 -0.522779
-0.007193 0.900991 -0.515982
-0.001230 0.936763 -0.545041
-0.000266 0.922881 -0.533117
0.002285 0.924433 -0.533908
0.005122 0.928381 -0.536654
0.007630 0.929510 -0.537068
0.009960 0.929337 -0.536403
0.012033 0.927445 -0.534321
0.014387 0.927847 -0.534106
0.017322 0.932353 -0.537223
0.019612 0.932450 -0.536728
0.020768 0.925466 -0.530467
0.022779 0.924369 -0.528988
0.025126 0.925514 -0.529315
0.026766 0.922630 -0.526369
0.027442 0.914612 -0.519278
0.028335 0.908369 -0.513629
0.029971 0.906588 -0.511572
0.035089 0.923267 -0.524320
0.039059 0.933437 -0.531793
0.041745 0.936878 -0.533844
0.038510 0.911390 -0.512802
0.039174 0.905770 -0.507646
0.039314 0.898060 -0.500837
0.042272 0.903732 -0.504651
-1.037466 1.250253 -1.098944
-1.031832 1.252145 -1.099665
-1.026227 1.254142 -1.100429
-1.021561 1.256954 -1.102098
-1.018753 1.261326 -1.105562
-1.012080 1.262750 -1.105380
-1.006151 1.264838 -1.105917
-0.997355 1.264686 -1.103685
-0.828633 1.139966 -0.950480
-0.831221 1.148205 -0.958404
-0.824228 1.148580 -0.956883
-0.814418 1.146596 -0.952511
-0.810921 1.149994 -0.954463
-0.806377 1.152571 -0.955377
-0.803719 1.156856 -0.958237
-0.798074 1.158601 -0.958049
-0.797462 1.164871 -0.963095
-0.789511 1.164663 -0.960515
-0.783999 1.166664 -0.960469
-0.777205 1.167521 -0.959052
-0.772587 1.170407 -0.959943
-0.770644 1.175852 -0.963732
-0.763873 1.176810 -0.962316
-0.750078 1.171022 -0.953163
-0.742312 1.170928 -0.950527
-0.737638 1.173837 -0.951289
-0.736459 1.180243 -0.955979
-0.732585 1.184051 -0.957685
-0.727399 1.186570 -0.957911
-0.720875 1.187728 -0.956593
-0.713798 1.188290 -0.954604
-0.708652 1.190841 -0.954831
-0.707649 1.197796 -0.959931
-0.699956 1.197667 -0.957158
-0.694017 1.199383 -0.956432
-0.687397 1.200327 -0.954861
-0.681594 1.202140 -0.954249
-0.673292 1.201115 -0.950547
-0.669242 1.204843 -0.952037
-0.665721 1.209201 -0.954204
-0.656842 1.207343 -0.949651
-0.653037 1.211358 -0.951455
-0.648389 1.214390 -0.952199
-0.644274 1.218067 -0.953636
-0.638588 1.219837 -0.953041
-0.630522 1.218627 -0.949296
-0.624775 1.220220 -0.948552
-0.619010 1.221753 -0.947762
-0.615767 1.226485 -0.950357
-0.607657 1.224931 -0.946353
-0.606909 1.232951 -0.952400
-0.602727 1.236519 -0.953782
-0.597577 1.238792 -0.953823
-0.593349 1.242303 -0.955162
-0.587103 1.243037 -0.953638
-0.580035 1.242560 -0.950888
-0.575080 1.244990 -0.951158
-0.569700 1.246794 -0.950800
-0.564708 1.249135 -0.951006
-0.558707 1.249971 -0.949694
-0.554885 1.254006 -0.951652
-0.548995 1.254945 -0.950480
-0.543528 1.256480 -0.949931
-0.538031 1.257934 -0.949318
-0.532344 1.259052 -0.948385
-0.527113 1.260853 -0.948157
-0.521894 1.262648 -0.947939
-0.517015 1.264974 -0.948265
-0.512092 1.267218 -0.948522
-0.508438 1.271580 -0.950894
-0.503704 1.274152 -0.951496
-0.498416 1.275765 -0.951163
-0.490507 1.272763 -0.946302
-0.485621 1.274972 -0.946596
-0.482009 1.279466 -0.949140
-0.478215 1.283685 -0.951418
-0.473268 1.285820 -0.951664
-0.469414 1.289999 -0.953911
-0.457653 1.279157 -0.941584
-0.452009 1.279759 -0.940406
-0.450541 1.288507 -0.947115
-0.449354 1.298007 -0.954531
-0.449235 1.309887 -0.964214
-0.554986 1.555496 -1.195868
-0.551960 1.565574 -1.203273
-0.546874 1.571449 -1.206656
-0.541028 1.575762 -1.208552
-0.534444 1.578483 -1.208946
-0.527657 1.580745 -1.208917
-0.520416 1.581952 -1.207907
-0.515442 1.588393 -1.211852
-0.510118 1.594131 -1.215135
-0.503949 1.597937 -1.216603
-0.495183 1.595419 -1.212152
-0.469285 1.568609 -1.183016
-0.466153 1.579714 -1.191395
-0.461177 1.586288 -1.195540
-0.435178 1.596946 -1.197665
-0.427436 1.596059 -1.194953
-0.381544 1.638860 -1.219386
-0.321588 1.635247 -1.202401
-0.123994 1.044249 -0.661287
-0.120324 1.042091 -0.658748
-0.115338 1.029474 -0.647095
-0.099878 0.953023 -0.579321
-0.096995 0.952284 -0.578158
-0.093921 0.949594 -0.575310
-0.091323 0.951381 -0.576353
-0.088700 0.953098 -0.577339
-0.085894 0.952894 -0.576665
-0.083017 0.951720 -0.575158
-0.080318 0.952736 -0.575548
-0.077571 0.953187 -0.575455
-0.074799 0.953258 -0.575038
-0.072079 0.954234 -0.575403
-0.069432 0.956881 -0.577204
-0.066683 0.957833 -0.577551
-0.063840 0.956503 -0.575944
-0.061081 0.957268 -0.576137
-0.058368 0.960044 -0.578048
-0.055556 0.959285 -0.576941
-0.052738 0.957082 -0.574605
-0.049939 0.953416 -0.571031
-0.047190 0.951584 -0.569024
-0.044451 0.953293 -0.570031
-0.041730 0.951823 -0.568337
-0.039094 0.946614 -0.563477
-0.036562 0.939788 -0.557257
-0.034007 0.936816 -0.554310
-0.032247 0.911971 -0.532891
-0.029809 0.911396 -0.531995
-0.027634 0.905410 -0.526538
-0.024407 0.921108 -0.539341
-0.022483 0.911317 -0.530680
-0.020172 0.909531 -0.528756
-0.017790 0.909204 -0.528055
-0.015179 0.912107 -0.530055
-0.012712 0.912968 -0.530333
-0.010012 0.916542 -0.532870
-0.008665 0.905205 -0.522951
-0.007259 0.895926 -0.514764
0.000489 0.925754 -0.538634
0.002496 0.922486 -0.535417
0.005126 0.924849 -0.536862
0.007654 0.926349 -0.537578
0.010237 0.928308 -0.538658
0.012358 0.926898 -0.536942
0.014587 0.926517 -0.536066
0.016882 0.926766 -0.535697
0.018887 0.925264 -0.533878
0.021050 0.925019 -0.533081
0.023582 0.927222 -0.534274
0.025924 0.928320 -0.534547
0.027366 0.924297 -0.530630
0.027398 0.912705 -0.520555
0.028937 0.910156 -0.517847
0.033998 0.926722 -0.530627
0.038083 0.937531 -0.538687
0.042620 0.950291 -0.548276
0.038789 0.920942 -0.523885
0.038182 0.908730 -0.513359
0.039073 0.904323 -0.509126
0.040618 0.903283 -0.507594
-1.035917 1.247985 -1.104330
-1.033191 1.252050 -1.107776
-1.028111 1.254413 -1.109051
-1.024658 1.258132 -1.111897
-1.018834 1.260099 -1.112518
-1.013285 1.262364 -1.113418
-1.004090 1.261795 -1.110797
-0.993333 1.259997 -1.106618
-0.850354 1.150478 -0.972257
-0.836287 1.144970 -0.963789
-0.818590 1.136374 -0.951583
-0.827324 1.149784 -0.965766
-0.811224 1.142468 -0.955019
-0.802987 1.141743 -0.952132
-0.807202 1.151763 -0.961986
-0.802594 1.154309 -0.962858
-0.801399 1.159918 -0.967295
-0.796329 1.162203 -0.967730
-0.787697 1.161338 -0.964404
-0.780383 1.161649 -0.962427
-0.776456 1.165067 -0.964049
-0.772192 1.168236 -0.965325
-0.768948 1.172415 -0.967725
-0.763370 1.174457 -0.967596
-0.748078 1.167221 -0.956719
-0.739988 1.166773 -0.953690
-0.735554 1.169863 -0.954711
-0.734455 1.176291 -0.959513
-0.731821 1.181291 -0.962632
-0.725712 1.182847 -0.961797
-0.718236 1.182997 -0.959357
-0.711798 1.184179 -0.958081
-0.703514 1.183405 -0.954600
-0.701370 1.189066 -0.958342
-0.702256 1.198048 -0.965759
-0.691272 1.194319 -0.958969
-0.684601 1.195171 -0.957304
-0.678921 1.197082 -0.956817
-0.676190 1.202284 -0.959958
-0.670449 1.204125 -0.959388
-0.665869 1.207277 -0.960259
-0.660833 1.209906 -0.960557
-0.651896 1.207937 -0.955858
-0.647507 1.211265 -0.956938
-0.642734 1.214139 -0.957528
-0.635560 1.214081 -0.954964
-0.629658 1.215518 -0.954032
-0.622253 1.215037 -0.951064
-0.618118 1.218608 -0.952447
-0.610093 1.217209 -0.948548
-0.606906 1.221971 -0.951217
-0.602879 1.225675 -0.952763
-0.598660 1.229138 -0.954060
-0.595121 1.233528 -0.956336
-0.590558 1.236555 -0.957186
-0.585158 1.238428 -0.956839
-0.579144 1.239415 -0.955586
-0.572220 1.239063 -0.952965
-0.567228 1.241393 -0.953151
-0.562300 1.243799 -0.953429
-0.558544 1.247914 -0.955478
-0.552123 1.248094 -0.953492
-0.547259 1.250549 -0.953862
-0.542078 1.252511 -0.953740
-0.536463 1.253777 -0.952926
-0.529467 1.252836 -0.949891
-0.524768 1.255447 -0.950482
-0.518461 1.255464 -0.948466
-0.513629 1.257815 -0.948826
-0.511694 1.264950 -0.954003
-0.505181 1.264530 -0.951599
-0.499546 1.265520 -0.950631
-0.495117 1.268542 -0.951707
-0.487690 1.266339 -0.947596
-0.483454 1.269656 -0.948994
-0.480065 1.274519 -0.951929
-0.475391 1.277109 -0.952619
-0.469351 1.277176 -0.950836
-0.463518 1.277562 -0.949387
-0.456603 1.275832 -0.945884
-0.449865 1.274324 -0.942626
-0.444786 1.275952 -0.942456
-0.445470 1.289024 -0.953438
-0.444957 1.300008 -0.962355
-0.548357 1.540173 -1.191049
-0.551842 1.563835 -1.211648
-0.546435 1.569059 -1.214426
-0.540320 1.572814 -1.215797
-0.534097 1.576357 -1.216975
-0.528412 1.581138 -1.219347
-0.522597 1.585691 -1.221506
-0.516126 1.588776 -1.222274
-0.511472 1.596176 -1.227155
-0.506009 1.601791 -1.230338
-0.498913 1.603510 -1.229835
-0.481351 1.579114 -1.204681
-0.467633 1.563514 -1.187934
-0.460501 1.564272 -1.186658
-0.451552 1.579835 -1.197327
-0.444704 1.581451 -1.196884
-0.433474 1.591591 -1.202481
-0.423283 1.605250 -1.211357
-0.404916 1.594600 -1.197739
-0.397551 1.594506 -1.195816
-0.395708 1.611976 -1.210102
-0.340255 1.652251 -1.230933
-0.118518 1.031328 -0.653785
-0.113534 1.018234 -0.641613
-0.095889 0.945316 -0.575806
-0.093104 0.945077 -0.575084
-0.090306 0.944638 -0.574194
-0.087696 0.946164 -0.575028
-0.085098 0.948009 -0.576141
-0.082463 0.949643 -0.577072
-0.079785 0.950907 -0.577683
-0.077016 0.950994 -0.577271
-0.074186 0.950039 -0.575959
-0.071495 0.951374 -0.576639
-0.068787 0.952613 -0.577238
-0.066042 0.953263 -0.577328
-0.063236 0.952360 -0.576077
-0.060502 0.953365 -0.576478
-0.057791 0.955696 -0.578024
-0.054953 0.952377 -0.574700
-0.052202 0.952659 -0.574484
-0.049444 0.951546 -0.573070
-0.046703 0.948074 -0.569633
-0.043968 0.951529 -0.572143
-0.041251 0.950461 -0.570774
-0.038595 0.946947 -0.567313
-0.036097 0.938782 -0.559885
-0.033588 0.934480 -0.555768
-0.031773 0.912306 -0.536423
-0.029412 0.909811 -0.533876
-0.027022 0.908708 -0.532514
-0.024185 0.916403 -0.538624
-0.022121 0.909637 -0.532446
-0.019734 0.909226 -0.531662
-0.017297 0.909742 -0.531657
-0.014243 0.918392 -0.538520
-0.012058 0.915417 -0.535546
-0.009724 0.914686 -0.534462
-0.008497 0.902370 -0.523621
-0.006453 0.899841 -0.521026
-0.000078 0.939013 -0.553435
0.001003 0.926466 -0.542388
0.003105 0.924091 -0.539875
0.005037 0.920687 -0.536497
0.007732 0.923754 -0.538517
0.010734 0.929044 -0.542370
0.013213 0.930293 -0.542836
0.015372 0.929375 -0.541487
0.017381 0.927675 -0.539480
0.019207 0.925058 -0.536706
0.021508 0.925774 -0.536681
0.024123 0.928526 -0.538322
0.026463 0.929645 -0.538598
0.027649 0.924197 -0.533460
0.028399 0.916759 -0.526694
0.030618 0.917898 -0.526963
0.039424 0.943174 -0.546209
0.040733 0.939428 -0.542419
0.038394 0.917877 -0.524169
0.038448 0.909035 -0.516282
0.039467 0.905298 -0.512543
-1.034543 1.251992 -1.115906
-1.030667 1.255245 -1.118345
-1.025882 1.257893 -1.119953
-1.017686 1.257956 -1.118298
-1.011721 1.259832 -1.118793
-1.004314 1.260634 -1.117890
-0.855251 1.153231 -0.982962
-0.839739 1.146542 -0.973023
-0.835963 1.149479 -0.974745
-0.833150 1.153303 -0.977467
-0.808502 1.138791 -0.957968
-0.808152 1.144730 -0.963140
-0.808284 1.151216 -0.968882
-0.801992 1.152262 -0.968017
-0.796813 1.154317 -0.968304
-0.792776 1.157434 -0.969800
-0.784410 1.156741 -0.966707
-0.784826 1.163984 -0.972982
-0.776980 1.163817 -0.970419
-0.772687 1.166925 -0.971681
-0.767799 1.169532 -0.972304
-0.762366 1.171665 -0.972327
-0.749183 1.166428 -0.963713
-0.739434 1.164367 -0.958813
-0.734486 1.166920 -0.959260
-0.734767 1.174659 -0.965666
-0.731070 1.178571 -0.967595
-0.724125 1.179255 -0.965784
-0.716969 1.179700 -0.963689
-0.708861 1.179130 -0.960433
-0.701845 1.179639 -0.958409
-0.696041 1.181391 -0.957791
-0.692957 1.186037 -0.960434
-0.688497 1.189251 -0.961438
-0.683871 1.192300 -0.962244
-0.678123 1.194121 -0.961668
-0.673933 1.197668 -0.963015
-0.669426 1.200876 -0.963975
-0.663812 1.202828 -0.963540
-0.658076 1.204618 -0.962931
-0.651073 1.204894 -0.960668
-0.645251 1.206511 -0.959893
-0.640267 1.209103 -0.960192
-0.634611 1.210869 -0.959599
-0.628496 1.212040 -0.958373
-0.623811 1.214950 -0.959044
-0.614103 1.211521 -0.952887
-0.612048 1.217705 -0.957110
-0.605717 1.218440 -0.955481
-0.600993 1.221221 -0.956059
-0.596346 1.224098 -0.956749
-0.592009 1.227388 -0.957885
-0.586686 1.229345 -0.957619
-0.582721 1.233144 -0.959310
-0.575950 1.233055 -0.956916
-0.570360 1.234552 -0.956214
-0.565667 1.237295 -0.956832
-0.562016 1.241540 -0.959029
-0.556084 1.242474 -0.957785
-0.549869 1.242937 -0.956075
-0.545838 1.246624 -0.957721
-0.541632 1.250064 -0.959120
-0.534445 1.248919 -0.955810
-0.527689 1.248341 -0.953116
-0.521406 1.248424 -0.951127
-0.515194 1.248551 -0.949207
-0.511373 1.252502 -0.951203
-0.511922 1.263700 -0.960554
-0.501519 1.256807 -0.951565
-0.497176 1.259932 -0.952748
-0.492158 1.261909 -0.952783
-0.486072 1.262009 -0.950947
-0.480912 1.263676 -0.950704
-0.477655 1.268733 -0.953864
-0.471495 1.268583 -0.951831
-0.465166 1.268047 -0.949436
-0.462168 1.273661 -0.953169
-0.455711 1.272799 -0.950487
-0.448023 1.269469 -0.945394
-0.443592 1.272344 -0.946450
-0.441698 1.280274 -0.952483
-0.442583 1.293980 -0.964165
-0.550630 1.559770 -1.217830
-0.545719 1.566059 -1.221665
-0.539698 1.570038 -1.223260
-0.534381 1.575614 -1.226408
-0.529000 1.581137 -1.229508
-0.522917 1.585145 -1.231151
-0.516671 1.588817 -1.232480
-0.510765 1.593327 -1.234622
-0.503195 1.593897 -1.232998
-0.494061 1.590571 -1.227672
-0.482946 1.582103 -1.217480
-0.472050 1.573799 -1.207498
-0.447885 1.589457 -1.214266
-0.433632 1.591514 -1.212265
-0.418507 1.613019 -1.226632
-0.397751 1.595004 -1.206033
-0.370383 1.601253 -1.204574
-0.362473 1.599044 -1.200762
-0.357998 1.608923 -1.208126
-0.354178 1.649115 -1.241604
-0.296900 1.694244 -1.267283
-0.241650 1.679717 -1.243039
-0.112706 1.014575 -0.642723
-0.108586 1.007069 -0.635439
-0.095166 0.941806 -0.576434
-0.092361 0.941249 -0.575426
-0.089563 0.940666 -0.574403
-0.086914 0.941617 -0.574739
-0.084361 0.943792 -0.576157
-0.081873 0.947107 -0.578579
-0.079252 0.949079 -0.579818
-0.076440 0.948484 -0.578803
-0.073466 0.944988 -0.575249
-0.070853 0.947369 -0.576854
-0.068200 0.949448 -0.578194
-0.065419 0.948979 -0.577307
-0.062665 0.949009 -0.576859
-0.059939 0.949874 -0.577142
-0.057171 0.949221 -0.576104
-0.054407 0.948116 -0.574675
-0.051687 0.949311 -0.575249
-0.048951 0.949443 -0.574899
-0.046222 0.945604 -0.571108
-0.043518 0.945558 -0.570608
-0.040767 0.949698 -0.573727
-0.038063 0.949029 -0.572684
-0.035501 0.943175 -0.567170
-0.033674 0.915941 -0.543251
-0.031266 0.913581 -0.540784
-0.029073 0.906998 -0.534691
-0.026497 0.910116 -0.536932
-0.023912 0.912880 -0.538860
-0.021679 0.909429 -0.535458
-0.019319 0.908664 -0.534354
-0.016911 0.908855 -0.534061
-0.014073 0.914712 -0.538593
-0.011667 0.914737 -0.538140
-0.009988 0.906762 -0.530873
-0.008205 0.900994 -0.525493
-0.005328 0.906932 -0.530045
-0.000935 0.926712 -0.546296
0.001279 0.925137 -0.544430
0.003388 0.922974 -0.542061
0.005640 0.922340 -0.540975
0.007848 0.921575 -0.539770
0.010006 0.920668 -0.538437
0.013815 0.931914 -0.547290
0.015709 0.929179 -0.544390
0.017448 0.925758 -0.540912
0.019701 0.926070 -0.540547
0.022195 0.928043 -0.541552
0.024625 0.929667 -0.542250
0.026479 0.927944 -0.540151
0.027772 0.923256 -0.535588
0.028436 0.915458 -0.528457
0.030491 0.915802 -0.528059
0.031941 0.913060 -0.525107
0.038933 0.939356 -0.546025
0.041449 0.941888 -0.547347
0.037254 0.911199 -0.521452
0.038396 0.907857 -0.517994
0.039828 0.906164 -0.515881
-1.024682 1.249536 -1.119491
-1.025338 1.256325 -1.126326
-1.018201 1.257167 -1.125684
-1.012609 1.259292 -1.126552
-0.996494 1.253106 -1.117070
-0.855351 1.152119 -0.988955
-0.848923 1.152843 -0.988079
-0.840411 1.151887 -0.985083
-0.812675 1.134898 -0.962442
-0.809092 1.137958 -0.964286
-0.804869 1.140554 -0.965496
-0.802724 1.145004 -0.968886
-0.794671 1.144433 -0.966126
-0.792112 1.148676 -0.969130
-0.786839 1.150612 -0.969286
-0.789132 1.159358 -0.977557
-0.783734 1.161341 -0.977637
-0.777403 1.162511 -0.976698
-0.768615 1.161438 -0.973047
-0.767915 1.167870 -0.978271
-0.757750 1.165513 -0.973032
-0.749692 1.165094 -0.970068
-0.739973 1.163048 -0.965175
-0.737069 1.167565 -0.967963
-0.731622 1.169654 -0.967867
-0.727883 1.173457 -0.969737
-0.721395 1.174548 -0.968423
-0.716128 1.176868 -0.968516
-0.704275 1.172421 -0.960793
-0.700225 1.175953 -0.962261
-0.696622 1.179988 -0.964280
-0.692521 1.183539 -0.965721
-0.689295 1.188062 -0.968245
-0.682361 1.188595 -0.966224
-0.677781 1.191680 -0.967091
-0.673087 1.194651 -0.967819
-0.666810 1.195842 -0.966544
-0.660001 1.196392 -0.964559
-0.655002 1.198982 -0.964861
-0.648832 1.200199 -0.963638
-0.644140 1.203127 -0.964321
-0.637636 1.203886 -0.962610
-0.631432 1.204957 -0.961261
-0.626235 1.207218 -0.961233
-0.619935 1.208093 -0.959698
-0.614852 1.210448 -0.959793
-0.608004 1.210540 -0.957441
-0.605716 1.216438 -0.961399
-0.599949 1.217870 -0.960525
-0.596235 1.221975 -0.962543
-0.591005 1.224079 -0.962416
-0.585553 1.225861 -0.961958
-0.579059 1.226182 -0.959959
-0.573971 1.228391 -0.959992
-0.568818 1.230488 -0.959919
-0.564146 1.233249 -0.960563
-0.559015 1.235343 -0.960515
-0.553087 1.236252 -0.959237
-0.548114 1.238522 -0.959407
-0.544369 1.242619 -0.961498
-0.540541 1.246625 -0.963498
-0.534676 1.247523 -0.962273
-0.525025 1.242461 -0.954895
-0.518520 1.242164 -0.952496
-0.514356 1.245540 -0.953908
-0.510645 1.249671 -0.956103
-0.506952 1.253870 -0.958371
-0.503112 1.257868 -0.960435
-0.495000 1.254670 -0.955167
-0.489124 1.255150 -0.953681
-0.482179 1.253711 -0.950269
-0.478182 1.257364 -0.952040
-0.473818 1.260391 -0.953186
-0.468384 1.261494 -0.952401
-0.465256 1.266805 -0.955861
-0.462187 1.272312 -0.959514
-0.455037 1.270170 -0.955517
-0.446923 1.266039 -0.949568
-0.440625 1.265265 -0.947000
-0.438939 1.273540 -0.953440
-0.437596 1.282691 -0.960730
-0.436062 1.291663 -0.967824
-0.544773 1.545902 -1.214398
-0.547003 1.567329 -1.233146
-0.541219 1.571915 -1.235334
-0.535315 1.576292 -1.237324
-0.529530 1.580986 -1.239631
-0.522808 1.583604 -1.239925
-0.516658 1.587547 -1.241520
-0.510286 1.591008 -1.242657
-0.500437 1.586141 -1.235751
-0.491062 1.582173 -1.229759
-0.453051 1.582376 -1.219527
-0.441712 1.592554 -1.225202
-0.436592 1.621123 -1.248330
-0.398542 1.597359 -1.218107
-0.390390 1.594898 -1.213925
-0.379814 1.584329 -1.202168
-0.358307 1.637317 -1.242591
-0.352452 1.643382 -1.246427
-0.344170 1.640326 -1.241815
-0.330002 1.674015 -1.267665
-0.282366 1.700289 -1.279803
-0.236429 1.651984 -1.228020
-0.232289 1.671692 -1.244342
-0.227673 1.689810 -1.259194
-0.220962 1.694975 -1.262343
-0.119279 1.042485 -0.672819
-0.114836 1.034259 -0.664767
-0.091747 0.938675 -0.576855
-0.088981 0.938352 -0.576054
-0.086153 0.937252 -0.574567
-0.083414 0.937012 -0.573854
-0.081007 0.940984 -0.576886
-0.078513 0.944375 -0.579399
-0.075466 0.939835 -0.574881
-0.072834 0.941340 -0.575727
-0.070169 0.942506 -0.576273
-0.067565 0.945211 -0.578180
-0.064763 0.943760 -0.576419
-0.062088 0.945345 -0.577337
-0.059353 0.945397 -0.576906
-0.056610 0.944863 -0.575962
-0.053898 0.945613 -0.576148
-0.051185 0.946716 -0.576643
-0.048458 0.946422 -0.575913
-0.045752 0.939804 -0.569653
-0.043049 0.943564 -0.572472
-0.040335 0.945373 -0.573579
-0.037550 0.949957 -0.577100
-0.034836 0.949979 -0.576639
-0.033296 0.913355 -0.544322
-0.030843 0.912644 -0.543258
-0.028655 0.906254 -0.537268
-0.025837 0.914264 -0.543757
-0.023354 0.914734 -0.543705
-0.021267 0.908809 -0.538120
-0.018974 0.907156 -0.536230
-0.016351 0.910464 -0.538610
-0.013584 0.915285 -0.542278
-0.011145 0.915731 -0.542168
-0.009380 0.908799 -0.535718
-0.007536 0.903665 -0.530817
-0.003742 0.918519 -0.543020
-0.000552 0.926336 -0.549165
0.001340 0.922008 -0.544920
0.003630 0.921620 -0.544031
0.006217 0.923844 -0.545353
0.008322 0.922310 -0.543467
0.010650 0.922726 -0.543228
0.012971 0.923223 -0.543043
0.015147 0.922852 -0.542111
0.016578 0.917691 -0.537130
0.019453 0.922369 -0.540433
0.022166 0.925895 -0.542742
0.024240 0.925494 -0.541736
0.025943 0.923086 -0.539037
0.027145 0.918104 -0.534184
0.028935 0.916824 -0.532422
0.029493 0.909064 -0.525261
0.030811 0.905863 -0.521902
0.033449 0.909787 -0.524446
0.036963 0.908818 -0.522189
0.038483 0.907417 -0.520294
-1.019823 1.250949 -1.127863
-1.018749 1.256454 -1.133117
-1.010862 1.256721 -1.131734
-0.993291 1.249326 -1.120726
-0.846583 1.138130 -0.980546
-0.846783 1.144028 -0.986237
-0.836388 1.141402 -0.981276
-0.819487 1.133390 -0.969614
-0.802798 1.125432 -0.958007
-0.806629 1.134601 -0.967463
-0.804186 1.138641 -0.970518
-0.791893 1.134339 -0.963282
-0.789143 1.138227 -0.966026
-0.786471 1.142276 -0.968891
-0.784201 1.146770 -0.972227
-0.780968 1.150506 -0.974570
-0.783110 1.159166 -0.982794
-0.771695 1.155665 -0.976272
-0.765336 1.156739 -0.975234
-0.761422 1.160103 -0.976895
-0.758095 1.164080 -0.979234
-0.748069 1.161768 -0.974033
-0.748181 1.169121 -0.980290
-0.740382 1.168937 -0.977558
-0.728417 1.164637 -0.969957
-0.721797 1.165516 -0.968459
-0.720191 1.171413 -0.972821
-0.711130 1.169846 -0.968414
-0.705761 1.171994 -0.968336
-0.699721 1.173455 -0.967440
-0.694576 1.175844 -0.967606
-0.690970 1.179877 -0.969649
-0.687795 1.184415 -0.972247
-0.682640 1.186857 -0.972416
-0.678748 1.190690 -0.974163
-0.674241 1.193872 -0.975152
-0.666179 1.193068 -0.971612
-0.659245 1.193469 -0.969453
-0.654663 1.196527 -0.970299
-0.651226 1.200930 -0.972650
-0.641494 1.197941 -0.966719
-0.636187 1.200099 -0.966569
-0.629445 1.200506 -0.964480
-0.623872 1.202284 -0.963928
-0.618019 1.203689 -0.962974
-0.608781 1.200810 -0.957320
-0.605584 1.205459 -0.959971
-0.601663 1.209221 -0.961643
-0.598783 1.214359 -0.964816
-0.594563 1.217786 -0.966121
-0.590790 1.221822 -0.968089
-0.584956 1.223099 -0.967079
-0.576497 1.220741 -0.962171
-0.573031 1.225170 -0.964594
-0.566697 1.225609 -0.962744
-0.560912 1.226767 -0.961687
-0.555738 1.228758 -0.961536
-0.550103 1.230054 -0.960663
-0.545444 1.232752 -0.961293
-0.542963 1.238706 -0.965369
-0.537848 1.240747 -0.965320
-0.531112 1.240277 -0.962651
-0.522557 1.236887 -0.956955
-0.518056 1.239730 -0.957810
-0.513442 1.242397 -0.958492
-0.509265 1.245770 -0.959918
-0.505196 1.249342 -0.961556
-0.500295 1.251552 -0.961794
-0.494397 1.252066 -0.960299
-0.486946 1.249864 -0.956035
-0.481430 1.250887 -0.955113
-0.476119 1.252229 -0.954535
-0.471676 1.255089 -0.955521
-0.465755 1.255283 -0.953804
-0.462486 1.260287 -0.956991
-0.459493 1.265883 -0.960774
-0.453041 1.265026 -0.958038
-0.444441 1.259948 -0.951075
-0.437328 1.257545 -0.946848
-0.432959 1.260433 -0.947958
-0.430185 1.266549 -0.952303
-0.429386 1.276813 -0.960781
-0.546661 1.565097 -1.241289
-0.541487 1.571041 -1.244833
-0.535618 1.575553 -1.246964
-0.529733 1.580083 -1.249120
-0.522778 1.582229 -1.248941
-0.516391 1.585672 -1.250051
-0.508696 1.586056 -1.248179
-0.499940 1.583812 -1.243766
-0.476050 1.562960 -1.219129
-0.464355 1.571630 -1.223344
-0.457504 1.593529 -1.240349
-0.440702 1.589142 -1.232023
-0.420682 1.618955 -1.252537
-0.413888 1.621472 -1.252957
-0.336073 1.638777 -1.248735
-0.332363 1.653906 -1.261083
-0.314844 1.675797 -1.276174
-0.305995 1.670135 -1.269198
-0.286064 1.646758 -1.244222
-0.262393 1.677726 -1.266230
-0.260605 1.710062 -1.294266
-0.250071 1.693242 -1.277247
-0.239662 1.675788 -1.259713
-0.234257 1.688661 -1.269917
-0.229272 1.705296 -1.283532
-0.222405 1.710273 -1.286515
-0.114779 1.036844 -0.671687
-0.091255 0.937309 -0.579360
-0.088330 0.935317 -0.577049
-0.085447 0.933481 -0.574887
-0.082728 0.933307 -0.574226
-0.080148 0.934871 -0.575130
-0.077522 0.936006 -0.575649
-0.074854 0.936644 -0.575726
-0.072203 0.937642 -0.576126
-0.069556 0.938885 -0.576747
-0.066887 0.939897 -0.577162
-0.064165 0.939784 -0.576576
-0.061484 0.940741 -0.576943
-0.058779 0.941059 -0.576745
-0.056080 0.941611 -0.576754
-0.053382 0.942384 -0.576959
-0.050679 0.943119 -0.577129
-0.047969 0.942377 -0.575993
-0.045283 0.938202 -0.571828
-0.042624 0.937351 -0.570602
-0.039953 0.938447 -0.571091
-0.037137 0.946182 -0.577413
-0.034320 0.950800 -0.580978
-0.032941 0.910325 -0.544977
-0.030512 0.909488 -0.543786
-0.028281 0.904634 -0.539080
-0.025564 0.910719 -0.543937
-0.023164 0.910107 -0.542931
-0.020930 0.907117 -0.539849
-0.018545 0.907043 -0.539305
-0.015804 0.911966 -0.543098
-0.013101 0.915874 -0.545991
-0.010838 0.914271 -0.544089
-0.008739 0.911247 -0.540953
-0.007643 0.898372 -0.529302
-0.002600 0.925661 -0.552335
0.000156 0.929095 -0.554732
0.001449 0.919459 -0.545865
0.004079 0.922135 -0.547588
0.006723 0.924863 -0.549337
0.009578 0.929168 -0.552417
0.011329 0.925116 -0.548330
0.013440 0.924110 -0.546842
0.015224 0.921084 -0.543624
0.017225 0.919885 -0.541957
0.019679 0.921841 -0.542958
0.022050 0.923317 -0.543535
0.023531 0.919482 -0.539605
0.025785 0.920567 -0.539827
0.028109 0.922153 -0.540455
0.028425 0.912644 -0.531741
0.029033 0.905351 -0.524908
0.037381 0.910006 -0.525859
-1.015474 1.252800 -1.136795
-1.011807 1.256325 -1.139570
-0.833303 1.126441 -0.972984
-0.819128 1.120565 -0.964058
-0.821686 1.128275 -0.972086
-0.805818 1.120976 -0.961295
-0.800179 1.122075 -0.960939
-0.806468 1.133227 -0.973008
-0.802345 1.135795 -0.974323
-0.793724 1.134586 -0.970903
-0.786625 1.134687 -0.969052
-0.782270 1.137198 -0.970118
-0.781959 1.143332 -0.975563
-0.791794 1.158628 -0.992128
-0.779606 1.154448 -0.984793
-0.771984 1.154332 -0.982388
-0.764792 1.154607 -0.980420
-0.760812 1.157862 -0.982019
-0.756582 1.160945 -0.983355
-0.752510 1.164232 -0.984885
-0.746487 1.165709 -0.984194
-0.734984 1.161895 -0.977149
-0.727611 1.162017 -0.974799
-0.722198 1.164057 -0.974706
-0.715198 1.164526 -0.972725
-0.710640 1.167444 -0.973619
-0.703184 1.167428 -0.971031
-0.698469 1.170211 -0.971718
-0.693470 1.172719 -0.972058
-0.688134 1.174883 -0.971980
-0.683536 1.177842 -0.972808
-0.680885 1.182930 -0.976080
-0.677492 1.187272 -0.978460
-0.674621 1.192241 -0.981537
-0.667160 1.192119 -0.978756
-0.659922 1.192187 -0.976207
-0.658030 1.198339 -0.980592
-0.647103 1.194070 -0.973132
-0.640843 1.195125 -0.971738
-0.634044 1.195498 -0.969587
-0.628806 1.197695 -0.969502
-0.622481 1.198552 -0.967921
-0.616710 1.200045 -0.967066
-0.609043 1.199132 -0.963549
-0.603272 1.200528 -0.962621
-0.600591 1.205850 -0.966045
-0.596792 1.209779 -0.967925
-0.592947 1.213675 -0.969766
-0.588161 1.216343 -0.970263
-0.583530 1.219214 -0.970989
-0.577986 1.220837 -0.970366
-0.571135 1.220622 -0.967765
-0.564312 1.220365 -0.965147
-0.559060 1.222254 -0.964873
-0.553326 1.223426 -0.963841
-0.548472 1.225834 -0.964157
-0.544605 1.229686 -0.966027
-0.540312 1.232927 -0.967250
-0.536048 1.236225 -0.968541
-0.527207 1.232519 -0.962414
-0.521969 1.234239 -0.962071
-0.517584 1.237273 -0.963131
-0.511992 1.238390 -0.962184
-0.506852 1.240194 -0.961977
-0.501909 1.242299 -0.962100
-0.498199 1.246439 -0.964360
-0.493601 1.249125 -0.965110
-0.488370 1.250731 -0.964750
-0.480440 1.247633 -0.959536
-0.475349 1.249367 -0.959352
-0.467980 1.247015 -0.954977
-0.464340 1.251270 -0.957423
-0.460365 1.254964 -0.959296
-0.455584 1.257197 -0.959681
-0.448613 1.255285 -0.955850
-0.440999 1.252016 -0.950671
-0.435098 1.251910 -0.948740
-0.429834 1.252995 -0.948037
-0.427104 1.259128 -0.952448
-0.423042 1.262668 -0.954240
-0.421533 1.271534 -0.961392
-0.545121 1.560291 -1.246924
-0.540621 1.567691 -1.251952
-0.536910 1.576976 -1.258855
-0.529765 1.578780 -1.258304
-0.522967 1.581338 -1.258521
-0.516554 1.584784 -1.259634
-0.510758 1.589706 -1.262218
-0.500227 1.583354 -1.253690
-0.472971 1.554311 -1.220747
-0.463880 1.550338 -1.214738
-0.473080 1.593201 -1.254569
-0.441933 1.571228 -1.226846
-0.434280 1.570724 -1.224326
-0.431647 1.584304 -1.235469
-0.430216 1.624127 -1.269888
-0.421541 1.621235 -1.265067
-0.417291 1.631692 -1.273108
-0.341987 1.633716 -1.255964
-0.321222 1.672046 -1.284877
-0.305413 1.669418 -1.278903
-0.296651 1.663836 -1.271966
-0.290135 1.668639 -1.274746
-0.285083 1.680931 -1.284504
-0.278191 1.684497 -1.286136
-0.269730 1.679883 -1.280187
-0.264270 1.691342 -1.289161
-0.258333 1.700817 -1.296289
-0.249469 1.693628 -1.288014
-0.241436 1.690881 -1.283874
-0.234724 1.696252 -1.287238
-0.229861 1.714268 -1.302238
-0.221793 1.711523 -1.298138
-0.097653 0.974903 -0.617899
-0.093319 0.961434 -0.605067
-0.087728 0.932789 -0.578482
-0.084743 0.929687 -0.575151
-0.082055 0.929711 -0.574664
-0.079393 0.930033 -0.574453
-0.076643 0.929078 -0.573089
-0.074243 0.933409 -0.576504
-0.071580 0.934002 -0.576543
-0.068946 0.935233 -0.577157
-0.066311 0.936685 -0.577971
-0.063669 0.938308 -0.578937
-0.060948 0.937934 -0.578110
-0.058232 0.937432 -0.577171
-0.055508 0.936010 -0.575411
-0.052853 0.937784 -0.576512
-0.050173 0.938436 -0.576607
-0.047485 0.936390 -0.574295
-0.044824 0.935298 -0.572836
-0.042203 0.932333 -0.569713
-0.039645 0.928069 -0.565439
-0.037020 0.929514 -0.566240
-0.032574 0.907978 -0.546201
-0.030119 0.908164 -0.545896
-0.027913 0.903103 -0.540954
-0.025120 0.910730 -0.547205
-0.022602 0.912226 -0.548034
-0.020633 0.904974 -0.541162
-0.018395 0.903021 -0.538953
-0.015314 0.912785 -0.547016
-0.013025 0.911512 -0.545383
-0.010559 0.912652 -0.545855
-0.008425 0.910210 -0.543186
-0.007361 0.897267 -0.531362
-0.002391 0.923729 -0.553861
-0.000435 0.919960 -0.550005
0.001469 0.916276 -0.546222
0.004468 0.922244 -0.550801
0.007315 0.926662 -0.554010
0.009554 0.926219 -0.552998
0.011653 0.924963 -0.551274
0.013708 0.923648 -0.549492
0.015536 0.921048 -0.546597
0.017742 0.921290 -0.546135
0.020165 0.923068 -0.546975
0.022248 0.922788 -0.546039
0.024276 0.922360 -0.544966
0.026478 0.923134 -0.544905
0.028648 0.923835 -0.544767
0.028172 0.889791 -0.513777
-1.007330 1.245404 -1.135594
-0.838434 1.129567 -0.983896
-0.829823 1.128193 -0.980622
-0.814373 1.121253 -0.970277
-0.808116 1.121776 -0.969304
-0.806746 1.126392 -0.973412
-0.803766 1.129772 -0.975891
-0.799766 1.132377 -0.977327
-0.794126 1.133654 -0.977038
-0.791023 1.137161 -0.979465
-0.789404 1.142045 -0.983528
-0.778714 1.139067 -0.977780
-0.780619 1.147223 -0.985751
-0.778837 1.152244 -0.989765
-0.773225 1.153904 -0.989576
-0.767103 1.155133 -0.988807
-0.762947 1.158205 -0.990243
-0.756067 1.158790 -0.988595
-0.750342 1.160471 -0.988241
-0.741414 1.159117 -0.984174
-0.732543 1.157774 -0.980103
-0.728131 1.160733 -0.981196
-0.723554 1.163573 -0.982101
-0.717761 1.165236 -0.981565
-0.706105 1.160994 -0.973964
-0.700868 1.163172 -0.974009
-0.698190 1.168004 -0.977172
-0.694270 1.171614 -0.978849
-0.687520 1.172277 -0.977031
-0.682479 1.174736 -0.977313
-0.677094 1.176834 -0.977155
-0.675643 1.183231 -0.981993
-0.672536 1.187897 -0.984778
-0.666118 1.188912 -0.983314
-0.660806 1.191147 -0.983259
-0.652711 1.190187 -0.979528
-0.646448 1.191267 -0.978156
-0.639409 1.191401 -0.975711
-0.631601 1.190561 -0.972174
-0.624681 1.190702 -0.969775
-0.620059 1.193576 -0.970485
-0.614700 1.195548 -0.970178
-0.609909 1.198207 -0.970652
-0.604964 1.200668 -0.970906
-0.600793 1.204109 -0.972262
-0.596612 1.207554 -0.973622
-0.590767 1.208832 -0.972578
-0.584402 1.209378 -0.970743
-0.580303 1.212912 -0.972223
-0.577616 1.218384 -0.975838
-0.571639 1.219387 -0.974543
-0.564096 1.218157 -0.970829
-0.557447 1.218083 -0.968409
-0.552564 1.220464 -0.968684
-0.548236 1.223638 -0.969830
-0.544055 1.227038 -0.971226
-0.538951 1.229078 -0.971165
-0.532577 1.229182 -0.969038
-0.526584 1.229797 -0.967486
-0.519622 1.228853 -0.964290
-0.515548 1.232345 -0.965852
-0.510878 1.234911 -0.966435
-0.503652 1.233349 -0.962657
-0.499051 1.235967 -0.963331
-0.495781 1.240792 -0.966339
-0.492510 1.245678 -0.969411
-0.486002 1.245107 -0.966763
-0.477978 1.241826 -0.961308
-0.472524 1.242888 -0.960424
-0.467333 1.244377 -0.960004
-0.459160 1.240455 -0.953985
-0.457971 1.249142 -0.961060
-0.452502 1.250058 -0.960091
-0.445588 1.248207 -0.956290
-0.439285 1.247399 -0.953594
-0.431872 1.244341 -0.948617
-0.430559 1.253157 -0.955820
-0.424402 1.252470 -0.953307
-0.420084 1.255436 -0.954536
-0.416534 1.260013 -0.957410
-0.542424 1.553010 -1.250074
-0.541615 1.568358 -1.263171
-0.536970 1.575664 -1.268133
-0.531186 1.580569 -1.270681
-0.523069 1.580234 -1.267984
-0.516570 1.583539 -1.268955
-0.510049 1.586809 -1.269905
-0.500426 1.582671 -1.263491
-0.485550 1.565492 -1.244166
-0.474097 1.556098 -1.232656
-0.460138 1.559014 -1.231254
-0.451565 1.576157 -1.243920
-0.429038 1.576396 -1.237941
-0.413947 1.621235 -1.273491
-0.392487 1.625968 -1.272085
-0.380237 1.610472 -1.255203
-0.367111 1.643576 -1.281274
-0.345767 1.649219 -1.281032
-0.324929 1.626168 -1.255470
-0.321080 1.673030 -1.296349
-0.313902 1.675166 -1.296575
-0.304323 1.666421 -1.286542
-0.297086 1.668018 -1.286306
-0.290658 1.673528 -1.289766
-0.284550 1.680890 -1.294971
-0.276442 1.678357 -1.290890
-0.263121 1.688418 -1.296958
-0.256864 1.696155 -1.302527
-0.250257 1.702308 -1.306617
-0.241299 1.694378 -1.297593
-0.234801 1.701464 -1.302573
-0.229362 1.716118 -1.314579
-0.219829 1.703423 -1.301205
-0.211450 1.697878 -1.294501
-0.102487 0.994695 -0.640834
-0.098381 0.985381 -0.631653
-0.094200 0.974104 -0.620696
-0.088057 0.940226 -0.589042
-0.084124 0.926844 -0.576249
-0.081409 0.926417 -0.575346
-0.078664 0.925455 -0.573958
-0.076069 0.926462 -0.574373
-0.073549 0.928794 -0.575997
-0.070913 0.929498 -0.576137
-0.068276 0.930277 -0.576346
-0.065693 0.932400 -0.577776
-0.063035 0.933087 -0.577902
-0.060388 0.934257 -0.578465
-0.057637 0.931634 -0.575596
-0.054980 0.931996 -0.575430
-0.052349 0.934296 -0.577012
-0.049683 0.934595 -0.576786
-0.047019 0.933793 -0.575568
-0.044379 0.931385 -0.572907
-0.041763 0.930169 -0.571319
-0.039279 0.922516 -0.563961
-0.036663 0.924936 -0.565638
-0.033652 0.940221 -0.578810
-0.032147 0.907611 -0.549167
-0.029673 0.908359 -0.549350
-0.027220 0.908697 -0.549160
-0.024659 0.911207 -0.550896
-0.022386 0.908491 -0.547978
-0.020339 0.902978 -0.542578
-0.017430 0.910834 -0.549028
-0.015244 0.908170 -0.546145
-0.012896 0.908037 -0.545495
-0.010531 0.908309 -0.545195
-0.008897 0.900855 -0.538081
-0.007111 0.895979 -0.533244
-0.000426 0.916572 -0.550179
0.001900 0.916832 -0.549805
0.004590 0.920252 -0.552179
0.007814 0.927803 -0.558133
0.009745 0.925066 -0.555097
0.011716 0.922997 -0.552637
0.013768 0.921830 -0.550955
0.015511 0.918810 -0.547659
0.017873 0.920233 -0.548201
0.020736 0.924926 -0.551548
0.022893 0.925126 -0.550999
0.024911 0.924646 -0.549853
0.027172 0.925770 -0.550072
0.025426 0.893652 -0.521118
0.025624 0.884794 -0.512848
0.029403 0.895336 -0.521095
-0.850862 1.138558 -1.002338
-0.834672 1.131123 -0.991339
-0.831561 1.134228 -0.993727
-0.812010 1.123924 -0.979017
-0.805429 1.124205 -0.977715
-0.804013 1.128836 -0.981856
-0.797948 1.129656 -0.981107
-0.795984 1.134007 -0.984746
-0.795834 1.140022 -0.990397
-0.790469 1.141644 -0.990456
-0.785774 1.143899 -0.991247
-0.778639 1.144052 -0.989356
-0.776736 1.148897 -0.993251
-0.774935 1.153941 -0.997316
-0.769014 1.155330 -0.996789
-0.762984 1.156648 -0.996123
-0.756246 1.157330 -0.994632
-0.746826 1.155493 -0.990014
-0.737628 1.153819 -0.985577
-0.732397 1.155914 -0.985718
-0.728960 1.159785 -0.987975
-0.726695 1.164875 -0.991657
-0.716478 1.162142 -0.985839
-0.705805 1.158864 -0.979368
-0.712573 1.173226 -0.994070
-0.702336 1.170384 -0.988079
-0.693398 1.168793 -0.983594
-0.687251 1.170063 -0.982515
-0.682441 1.172746 -0.983096
-0.676755 1.174503 -0.982563
-0.672811 1.178152 -0.984245
-0.667984 1.180865 -0.984805
-0.664685 1.185293 -0.987357
-0.655364 1.182973 -0.982022
-0.651117 1.186339 -0.983317
-0.644647 1.187157 -0.981651
-0.636250 1.185678 -0.977344
-0.629988 1.186630 -0.975857
-0.623035 1.186715 -0.973387
-0.617451 1.188398 -0.972761
-0.614151 1.192863 -0.975311
-0.610627 1.197091 -0.977580
-0.606438 1.200521 -0.978936
-0.601657 1.203211 -0.979457
-0.596652 1.205611 -0.979654
-0.589353 1.205000 -0.976485
-0.583334 1.205998 -0.975142
-0.578786 1.208920 -0.975962
-0.575052 1.212949 -0.978016
-0.569870 1.215017 -0.977898
-0.563154 1.214929 -0.975413
-0.557110 1.215714 -0.973914
-0.552480 1.218467 -0.974598
-0.548486 1.222138 -0.976295
-0.543481 1.224348 -0.976402
-0.538229 1.226177 -0.976107
-0.531277 1.225420 -0.973022
-0.524591 1.224975 -0.970306
-0.518503 1.225370 -0.968525
-0.513290 1.227072 -0.968176
-0.507081 1.227167 -0.966118
-0.501685 1.228501 -0.965410
-0.497252 1.231370 -0.966359
-0.494333 1.236753 -0.969994
-0.489727 1.239384 -0.970701
-0.482370 1.237333 -0.966464
-0.475601 1.236168 -0.963197
-0.470400 1.237642 -0.962742
-0.465441 1.239518 -0.962725
-0.459889 1.240310 -0.961587
-0.452517 1.237725 -0.956939
-0.449144 1.242414 -0.959911
-0.444150 1.244121 -0.959781
-0.436868 1.241438 -0.955110
-0.432318 1.243904 -0.955805
-0.427422 1.245695 -0.955814
-0.423726 1.249871 -0.958293
-0.417542 1.249057 -0.955645
-0.415867 1.257451 -0.962465
-0.541191 1.565934 -1.271367
-0.537048 1.574375 -1.277522
-0.529182 1.574678 -1.275417
-0.522992 1.578707 -1.277108
-0.517049 1.583348 -1.279429
-0.511158 1.588177 -1.281946
-0.498799 1.577606 -1.268987
-0.483787 1.560108 -1.249150
-0.463341 1.566355 -1.248798
-0.456392 1.568059 -1.248338
-0.445169 1.578655 -1.254595
-0.438297 1.580635 -1.254447
-0.441001 1.609651 -1.281007
-0.435469 1.616008 -1.285153
-0.391992 1.599950 -1.259194
-0.364650 1.663225 -1.308886
-0.360192 1.675663 -1.318947
-0.351968 1.674114 -1.315525
-0.335486 1.639682 -1.280535
-0.331784 1.655280 -1.293670
-0.328499 1.673383 -1.309175
-0.322783 1.681972 -1.315548
-0.311665 1.667091 -1.299511
-0.301965 1.657684 -1.288758
-0.294332 1.657301 -1.286641
-0.288855 1.667226 -1.294339
-0.282715 1.674394 -1.299412
-0.275797 1.677930 -1.301043
-0.268604 1.680149 -1.301439
-0.261215 1.681344 -1.300880
-0.254925 1.688828 -1.306267
-0.247754 1.691543 -1.307162
-0.240617 1.694592 -1.308381
-0.234381 1.703577 -1.315184
-0.226683 1.703429 -1.313417
-0.220068 1.710749 -1.318660
-0.211014 1.700769 -1.307730
-0.103452 1.006866 -0.656479
-0.099235 0.997260 -0.646921
-0.083592 0.924974 -0.578227
-0.080786 0.923350 -0.576207
-0.078073 0.922672 -0.575067
-0.075347 0.921593 -0.573563
-0.072728 0.921973 -0.573407
-0.070246 0.924846 -0.575543
-0.067652 0.926075 -0.576167
-0.065085 0.928153 -0.577568
-0.062486 0.929915 -0.578676
-0.059795 0.929189 -0.577508
-0.057091 0.927365 -0.575339
-0.054504 0.930358 -0.577568
-0.051858 0.931080 -0.577721
-0.049207 0.931282 -0.577399
-0.046561 0.930174 -0.575886
-0.043932 0.929686 -0.574936
-0.041336 0.927684 -0.572614
-0.038830 0.922465 -0.567384
-0.036151 0.927391 -0.571328
-0.033316 0.935839 -0.578435
-0.031488 0.913879 -0.558115
-0.029210 0.909113 -0.553318
-0.026729 0.909979 -0.553587
-0.024248 0.910878 -0.553879
-0.021957 0.908624 -0.551335
-0.019763 0.905492 -0.548004
-0.017523 0.903713 -0.545884
-0.015018 0.905827 -0.547233
-0.012754 0.904931 -0.545886
-0.010692 0.902045 -0.542763
-0.008966 0.896109 -0.536929
-0.006506 0.898391 -0.538390
-0.002690 0.913523 -0.551211
-0.000150 0.915772 -0.552590
0.002399 0.918077 -0.554001
0.005748 0.926941 -0.561172
0.008034 0.926849 -0.560428
0.009900 0.923757 -0.557039
0.011770 0.921098 -0.554027
0.013736 0.919488 -0.551930
0.015538 0.917042 -0.549096
0.018238 0.920819 -0.551680
0.020992 0.924858 -0.554468
0.023462 0.927072 -0.555645
0.024857 0.922881 -0.551257
0.025939 0.917273 -0.545647
0.026848 0.911136 -0.539590
0.028190 0.907852 -0.536000
0.029755 0.896312 -0.524567
-0.863990 1.142592 -1.015991
-0.849586 1.136626 -1.006875
-0.844425 1.138034 -1.007208
-0.822675 1.126024 -0.990254
-0.808945 1.120404 -0.981486
-0.812866 1.129307 -0.991256
-0.795282 1.120455 -0.978273
-0.799531 1.129852 -0.988513
-0.794543 1.131597 -0.988927
-0.790960 1.134601 -0.990875
-0.792494 1.142118 -0.998457
-0.786304 1.143038 -0.997623
-0.780308 1.144162 -0.996993
-0.774668 1.145637 -0.996748
-0.765880 1.144311 -0.992944
-0.768168 1.153055 -1.001674
-0.764151 1.156177 -1.003307
-0.755616 1.155162 -0.999745
-0.742220 1.149551 -0.990469
-0.736730 1.151325 -0.990311
-0.731590 1.153462 -0.990558
-0.729401 1.158497 -0.994317
-0.725328 1.161776 -0.995866
-0.722222 1.166066 -0.998603
-0.716458 1.167761 -0.998134
-0.704396 1.163076 -0.989907
-0.703506 1.169719 -0.995384
-0.694574 1.168134 -0.990893
-0.686892 1.167787 -0.987893
-0.677701 1.165791 -0.982918
-0.676475 1.172263 -0.988053
-0.670151 1.173302 -0.986680
-0.665311 1.175949 -0.987207
-0.659205 1.177202 -0.986071
-0.654519 1.180029 -0.986786
-0.649415 1.182395 -0.986947
-0.642820 1.183042 -0.985090
-0.635616 1.182935 -0.982363
-0.628148 1.182455 -0.979215
-0.622597 1.184193 -0.978656
-0.618046 1.187120 -0.979474
-0.612730 1.189119 -0.979220
-0.609100 1.193192 -0.981351
-0.606208 1.198227 -0.984570
-0.601083 1.200482 -0.984608
-0.594413 1.200734 -0.982375
-0.589991 1.203854 -0.983413
-0.583081 1.203697 -0.980752
-0.578071 1.206006 -0.980893
-0.572470 1.207502 -0.980130
-0.565680 1.207335 -0.977522
-0.560721 1.209633 -0.977690
-0.556751 1.213310 -0.979403
-0.551144 1.214677 -0.978555
-0.541877 1.210722 -0.971842
-0.541586 1.219721 -0.979460
-0.536337 1.221536 -0.979152
-0.531198 1.223491 -0.979012
-0.523607 1.221694 -0.974785
-0.518294 1.223288 -0.974292
-0.509922 1.220070 -0.968585
-0.505010 1.222173 -0.968692
-0.500134 1.224321 -0.968861
-0.496355 1.228242 -0.970954
-0.492260 1.231679 -0.972531
-0.487828 1.234576 -0.973533
-0.479457 1.230793 -0.967402
-0.473064 1.230237 -0.964759
-0.468197 1.232259 -0.964886
-0.463571 1.234697 -0.965468
-0.455238 1.230469 -0.959005
-0.451272 1.234016 -0.960798
-0.446496 1.236097 -0.961052
-0.441128 1.237056 -0.960140
-0.436114 1.238653 -0.959914
-0.430585 1.239229 -0.958637
-0.423664 1.237019 -0.954472
-0.418627 1.238432 -0.954112
-0.420080 1.252982 -0.967403
-0.415313 1.255113 -0.967783
-0.537829 1.557148 -1.273084
-0.532569 1.563060 -1.276712
-0.526288 1.566797 -1.278114
-0.520142 1.570870 -1.279871
-0.513374 1.573551 -1.280219
-0.509783 1.583694 -1.288174
-0.500337 1.580101 -1.282169
-0.486320 1.565169 -1.264720
-0.472053 1.568096 -1.263171
-0.465970 1.572198 -1.265084
-0.458300 1.572212 -1.262897
-0.446154 1.623643 -1.305614
-0.398468 1.596572 -1.268260
-0.392235 1.600722 -1.270346
-0.388928 1.614528 -1.281940
-0.383362 1.621321 -1.286622
-0.373075 1.612192 -1.275695
-0.366498 1.615525 -1.277017
-0.361577 1.624864 -1.284217
-0.361126 1.650992 -1.307776
-0.358724 1.670995 -1.325310
-0.348668 1.662372 -1.314981
-0.339159 1.655365 -1.306272
-0.331786 1.656584 -1.305573
-0.325135 1.660796 -1.307787
-0.316595 1.657028 -1.302306
-0.307225 1.649274 -1.293016
-0.297828 1.640838 -1.283114
-0.292193 1.649465 -1.289651
-0.286453 1.658035 -1.296126
-0.280627 1.666641 -1.302631
-0.273685 1.669955 -1.304070
-0.265934 1.669077 -1.301517
-0.259725 1.676580 -1.306974
-0.253050 1.681870 -1.310323
-0.246176 1.686273 -1.312832
-0.238617 1.686685 -1.311560
-0.231767 1.691604 -1.314576
-0.225775 1.702621 -1.323366
-0.217980 1.701832 -1.320989
-0.211109 1.707668 -1.324880
-0.094280 0.982969 -0.637290
-0.090410 0.974110 -0.628399
-0.080222 0.921000 -0.577710
-0.077465 0.919599 -0.575884
-0.074721 0.918069 -0.573945
-0.072092 0.918030 -0.573397
-0.069669 0.921709 -0.576298
-0.066945 0.919966 -0.574172
-0.064516 0.924626 -0.577975
-0.061934 0.926454 -0.579150
-0.059269 0.926049 -0.578264
-0.056620 0.925844 -0.577562
-0.053951 0.923915 -0.575275
-0.051370 0.927332 -0.577905
-0.048735 0.926597 -0.576715
-0.046116 0.925600 -0.575284
-0.043514 0.925110 -0.574319
-0.041049 0.915276 -0.564811
-0.038406 0.921367 -0.569861
-0.035788 0.923959 -0.571702
-0.033190 0.925206 -0.572308
-0.030726 0.922774 -0.569561
-0.028630 0.912716 -0.559891
-0.026211 0.911921 -0.558640
-0.023772 0.911902 -0.558086
-0.021275 0.913059 -0.558588
-0.018211 0.922758 -0.566790
-0.013858 0.915672 -0.559255
-0.011279 0.917975 -0.560743
-0.008169 0.926124 -0.567458
-0.005450 0.929380 -0.569758
-0.002757 0.932204 -0.571652
-0.001865 0.917934 -0.558264
0.000074 0.914641 -0.554692
0.002708 0.917795 -0.556855
0.005675 0.923582 -0.561335
0.008033 0.924279 -0.561272
0.009787 0.920553 -0.557282
0.011769 0.918935 -0.555153
0.014089 0.919964 -0.555352
