ply
format ascii 1.0
comment ---
element vertex 1652
property float x
property float y
property float z
element face 0
property list uchar uint vertex_indices
end_header
-0.271155 1.351045 -0.581017
-0.268650 1.347895 -0.580155
-0.266017 1.345053 -0.579595
-0.263374 1.342264 -0.579081
-0.260711 1.339544 -0.578631
-0.258275 1.336400 -0.577745
-0.255564 1.333831 -0.577438
-0.253470 1.330095 -0.575933
-0.250125 1.328786 -0.576909
-0.247532 1.326053 -0.576423
-0.244989 1.323250 -0.575860
-0.242449 1.320466 -0.575310
-0.240473 1.316699 -0.573727
-0.236575 1.316365 -0.575739
-0.233703 1.314203 -0.575839
-0.231155 1.311490 -0.575355
-0.228405 1.309136 -0.575250
-0.225701 1.306714 -0.575070
-0.222172 1.305654 -0.576355
-0.220923 1.300877 -0.573634
-0.217788 1.299182 -0.574235
-0.213033 1.300023 -0.577609
-0.210661 1.297086 -0.576874
-0.208384 1.294025 -0.575996
-0.205518 1.291876 -0.576120
-0.202191 1.290413 -0.577009
-0.199849 1.287484 -0.576269
-0.197982 1.283885 -0.574769
-0.194697 1.282351 -0.575586
-0.191099 1.281242 -0.576894
-0.188475 1.278745 -0.576636
-0.186415 1.275480 -0.575495
-0.184462 1.272097 -0.574209
-0.180229 1.271795 -0.576473
-0.177277 1.269749 -0.576735
-0.174671 1.267247 -0.576468
-0.171928 1.264926 -0.576412
-0.169084 1.262735 -0.576510
-0.167023 1.259560 -0.575444
-0.164627 1.256820 -0.574887
-0.161933 1.254458 -0.574777
-0.157673 1.253983 -0.576942
-0.154592 1.252059 -0.577376
-0.152013 1.249535 -0.577086
-0.148816 1.247732 -0.577677
-0.146234 1.245210 -0.577392
-0.144499 1.241736 -0.575926
-0.141621 1.239565 -0.576069
-0.138511 1.237646 -0.576530
-0.135028 1.236122 -0.577494
-0.132159 1.233917 -0.577609
-0.129624 1.231353 -0.577272
-0.126647 1.229257 -0.577531
-0.123880 1.226936 -0.577507
-0.121758 1.223954 -0.576629
-0.119438 1.221186 -0.576023
-0.116501 1.219043 -0.576229
-0.113356 1.217097 -0.576700
-0.111346 1.214037 -0.575704
-0.108215 1.212069 -0.576153
-0.104429 1.210709 -0.577424
-0.102190 1.207876 -0.576729
-0.100269 1.204759 -0.575645
-0.097983 1.201992 -0.575028
-0.096912 1.198138 -0.572917
-0.094899 1.195158 -0.571988
-0.091863 1.193088 -0.572315
-0.088631 1.191180 -0.572876
-0.085803 1.188912 -0.572941
-0.083812 1.185931 -0.572003
-0.082067 1.182756 -0.570783
-0.078589 1.181029 -0.571623
-0.076757 1.177941 -0.570519
-0.073394 1.176101 -0.571213
-0.070246 1.174072 -0.571646
-0.068183 1.171180 -0.570824
-0.066672 1.167870 -0.569377
-0.066494 1.163562 -0.566431
-0.064434 1.160718 -0.565645
-0.059482 1.160036 -0.568117
-0.060582 1.154856 -0.563795
-0.061681 1.149744 -0.559525
-0.060296 1.146477 -0.558043
-0.055826 1.145411 -0.559964
-0.053046 1.143127 -0.560014
-0.053077 1.138897 -0.557012
-0.054066 1.134058 -0.553011
-0.051927 1.131378 -0.552405
-0.048297 1.129689 -0.553393
-0.050955 1.123862 -0.547702
-0.049650 1.120679 -0.546248
-0.047727 1.117904 -0.545455
-0.048712 1.113306 -0.541639
-0.049437 1.108921 -0.538130
-0.050359 1.104463 -0.534454
-0.049874 1.100904 -0.532256
-0.043567 1.100840 -0.536012
-0.041449 1.098244 -0.535477
-0.037375 1.096781 -0.536915
-0.033297 1.095288 -0.538336
-0.032603 1.091853 -0.536366
-0.030029 1.089483 -0.536274
-0.024480 1.088736 -0.539113
-0.026750 1.083704 -0.534248
-0.026503 1.080077 -0.531886
-0.024911 1.077182 -0.530849
-0.023242 1.074330 -0.529891
-0.023071 1.070715 -0.527499
-0.024120 1.066510 -0.523963
-0.019168 1.065322 -0.526157
-0.015357 1.063528 -0.527244
-0.012423 1.061281 -0.527489
-0.013397 1.057163 -0.524072
-0.015416 1.052594 -0.519712
-0.019418 1.047164 -0.513557
-0.033931 1.037052 -0.497788
-0.036833 1.032343 -0.492803
-0.036743 1.029007 -0.490588
-0.040684 1.023947 -0.484736
-0.040775 1.020598 -0.482407
-0.046649 1.014849 -0.474910
-0.045541 1.012071 -0.473711
-0.047506 1.008051 -0.469789
-0.044522 1.006043 -0.470267
-0.043012 1.003436 -0.469440
-0.040886 1.001060 -0.469150
-0.038812 0.998653 -0.468810
-0.035772 0.996593 -0.469301
-0.031038 0.995126 -0.471236
-0.030296 0.992184 -0.469726
-0.029980 0.989098 -0.467859
-0.028180 0.986536 -0.467260
-0.026315 0.983988 -0.466714
-0.024490 0.981419 -0.466131
-0.021859 0.979106 -0.466218
-0.017925 0.977192 -0.467378
-0.015211 0.974864 -0.467509
-0.013864 0.972100 -0.466508
-0.009917 0.970120 -0.467634
-0.006229 0.968034 -0.468531
-0.002950 0.965805 -0.469081
-0.001300 0.963099 -0.468306
0.003217 0.961186 -0.469830
0.002847 0.957926 -0.467436
0.003174 0.954880 -0.465613
0.004192 0.952035 -0.464349
0.008687 0.950085 -0.465825
0.014594 0.948460 -0.468387
0.020351 0.946766 -0.470805
0.027418 0.945349 -0.474210
0.029569 0.942765 -0.473796
0.025884 0.938894 -0.468915
0.028297 0.936436 -0.468733
0.032568 0.934393 -0.469965
0.032789 0.931512 -0.468132
0.033931 0.928865 -0.467012
0.037799 0.926796 -0.467950
0.044609 0.925307 -0.471079
0.052546 0.924018 -0.475022
0.053970 0.921523 -0.474133
0.054662 0.918946 -0.472724
-0.469491 1.580507 -0.646071
-0.465402 1.588217 -0.654230
-0.461663 1.589272 -0.657230
-0.458228 1.500661 -0.593525
-0.455410 1.493340 -0.589705
-0.452495 1.487100 -0.586727
-0.449301 1.483543 -0.585887
-0.446116 1.479740 -0.584846
-0.443050 1.474808 -0.582887
-0.440073 1.469185 -0.580353
-0.436713 1.466664 -0.580333
-0.433502 1.462911 -0.579302
-0.430499 1.457682 -0.577051
-0.427116 1.455212 -0.577057
-0.422227 1.462621 -0.585244
-0.418506 1.461850 -0.586690
-0.414943 1.459978 -0.587225
-0.411490 1.457424 -0.587189
-0.408076 1.454664 -0.586976
-0.405292 1.448489 -0.583872
-0.401887 1.445897 -0.583776
-0.398113 1.445262 -0.585340
-0.394402 1.444248 -0.586587
-0.391055 1.441443 -0.586302
-0.387588 1.439278 -0.586559
-0.384038 1.437543 -0.587185
-0.380599 1.435344 -0.587406
-0.377501 1.431723 -0.586384
-0.374245 1.428900 -0.586045
-0.371277 1.424984 -0.584737
-0.367501 1.424430 -0.586379
-0.364387 1.421280 -0.585729
-0.361048 1.419083 -0.585915
-0.357436 1.417948 -0.587044
-0.354235 1.415334 -0.586852
-0.350700 1.413963 -0.587771
-0.347885 1.410130 -0.586467
-0.345077 1.406393 -0.585235
-0.341964 1.403776 -0.585008
-0.338907 1.401042 -0.584667
-0.335999 1.397905 -0.583949
-0.333308 1.394179 -0.582677
-0.330045 1.392285 -0.583086
-0.326788 1.390404 -0.583506
-0.323972 1.387262 -0.582749
-0.321093 1.384373 -0.582220
-0.318227 1.381510 -0.581706
-0.315626 1.377978 -0.580552
-0.312248 1.376617 -0.581446
-0.309748 1.372935 -0.580132
-0.307111 1.369692 -0.579225
-0.303339 1.369403 -0.581145
-0.300488 1.366769 -0.580815
-0.296030 1.368125 -0.584346
-0.292928 1.366103 -0.584618
-0.290825 1.361725 -0.582589
-0.288312 1.358399 -0.581572
-0.285290 1.356298 -0.581752
-0.282045 1.354714 -0.582442
-0.279089 1.352486 -0.582497
-0.276179 1.350174 -0.582468
-0.273768 1.346808 -0.581379
-0.270901 1.344457 -0.581303
-0.268202 1.341774 -0.580888
-0.265511 1.339102 -0.580481
-0.263204 1.335681 -0.579305
-0.261172 1.331760 -0.577606
-0.258293 1.329562 -0.577663
-0.256459 1.325358 -0.575649
-0.252962 1.324380 -0.576962
-0.249803 1.322743 -0.577600
-0.248029 1.318544 -0.575562
-0.245491 1.315796 -0.575031
-0.242426 1.314015 -0.575517
-0.239277 1.312376 -0.576157
-0.236613 1.309884 -0.575895
-0.235060 1.305501 -0.573604
-0.231427 1.304697 -0.575144
-0.228129 1.303300 -0.576057
-0.225795 1.300303 -0.575241
-0.223312 1.297571 -0.574707
-0.221024 1.294544 -0.573845
-0.217786 1.293040 -0.574653
-0.214191 1.292072 -0.576062
-0.212228 1.288574 -0.574673
-0.208793 1.287335 -0.575794
-0.205887 1.285283 -0.576014
-0.204340 1.281229 -0.573980
-0.200957 1.279889 -0.575002
-0.197471 1.278673 -0.576176
-0.195254 1.275639 -0.575283
-0.192343 1.273594 -0.575519
-0.189500 1.271451 -0.575644
-0.187541 1.268105 -0.574376
-0.184479 1.266266 -0.574855
-0.181125 1.264802 -0.575779
-0.179195 1.261460 -0.574501
-0.176252 1.259449 -0.574788
-0.172283 1.258735 -0.576623
-0.169780 1.256143 -0.576231
-0.167664 1.253081 -0.575270
-0.164855 1.250883 -0.575347
-0.162637 1.247971 -0.574557
-0.160338 1.245171 -0.573898
-0.157135 1.243446 -0.574553
-0.154568 1.240968 -0.574288
-0.150840 1.239823 -0.575678
-0.147602 1.238095 -0.576356
-0.144510 1.236188 -0.576818
-0.141623 1.234044 -0.576989
-0.139785 1.230754 -0.575708
-0.136894 1.228618 -0.575888
-0.132552 1.228016 -0.578042
-0.130023 1.225471 -0.577713
-0.127783 1.222631 -0.577001
-0.124124 1.221251 -0.578188
-0.122232 1.218065 -0.577021
-0.119075 1.216158 -0.577531
-0.116131 1.214028 -0.577755
-0.113461 1.211627 -0.577620
-0.111377 1.208663 -0.576732
-0.109287 1.205719 -0.575862
-0.107885 1.202145 -0.574129
-0.105911 1.199128 -0.573140
-0.103691 1.196350 -0.572471
-0.100758 1.194222 -0.572697
-0.097739 1.192163 -0.573026
-0.094287 1.190475 -0.573881
-0.091276 1.188385 -0.574186
-0.088743 1.185877 -0.573904
-0.087601 1.182196 -0.571949
-0.084812 1.179919 -0.571989
-0.083045 1.176795 -0.570810
-0.079857 1.174842 -0.571326
-0.077899 1.171889 -0.570387
-0.075269 1.169480 -0.570244
-0.069890 1.169220 -0.573293
-0.068394 1.165903 -0.571821
-0.066011 1.163282 -0.571383
-0.065419 1.159315 -0.568905
-0.063148 1.156632 -0.568358
-0.063397 1.152102 -0.564976
-0.063769 1.147535 -0.561495
-0.062424 1.144246 -0.559964
-0.060246 1.141566 -0.559370
-0.055404 1.140745 -0.561712
-0.054654 1.137064 -0.559548
-0.055155 1.132563 -0.556046
-0.055910 1.127940 -0.552306
-0.052835 1.125904 -0.552724
-0.055790 1.119919 -0.546690
-0.051681 1.118571 -0.548227
-0.048626 1.116522 -0.548631
-0.048596 1.112561 -0.545848
-0.050231 1.107605 -0.541353
-0.050896 1.103303 -0.537912
-0.049042 1.100564 -0.537109
-0.045040 1.099105 -0.538518
-0.040823 1.097739 -0.540126
-0.039285 1.094790 -0.538991
-0.030954 1.095720 -0.544727
-0.029605 1.092626 -0.543381
-0.030533 1.088279 -0.539768
-0.029917 1.084821 -0.537725
-0.028929 1.081583 -0.536067
-0.027175 1.078766 -0.535174
-0.024991 1.076175 -0.534706
-0.024975 1.072460 -0.532128
-0.025640 1.068425 -0.528914
-0.023104 1.066031 -0.528809
-0.019068 1.064365 -0.530135
-0.016968 1.061723 -0.529598
-0.015392 1.058823 -0.528562
-0.013933 1.055870 -0.527422
-0.015842 1.051353 -0.523129
-0.021189 1.045312 -0.515669
-0.023761 1.040619 -0.510854
-0.031462 1.033707 -0.501349
-0.033552 1.029375 -0.497086
-0.039400 1.023476 -0.489429
-0.040436 1.019711 -0.486214
-0.043525 1.015126 -0.481170
-0.043773 1.011762 -0.478725
-0.044146 1.008370 -0.476186
-0.046123 1.004364 -0.472237
-0.046690 1.000951 -0.469570
-0.045692 0.998159 -0.468299
-0.041258 0.996660 -0.470046
-0.037505 0.994866 -0.471172
-0.035888 0.992265 -0.470426
-0.034655 0.989522 -0.469347
-0.033685 0.986688 -0.468046
-0.032361 0.983977 -0.467052
-0.031099 0.981245 -0.466006
-0.028111 0.979082 -0.466423
-0.025998 0.976614 -0.466090
-0.022295 0.974640 -0.467083
-0.019446 0.972371 -0.467348
-0.016957 0.969976 -0.467303
-0.013560 0.967838 -0.467999
-0.009770 0.965793 -0.469003
-0.007508 0.963286 -0.468742
-0.005249 0.960772 -0.468476
-0.001081 0.958777 -0.469747
0.003400 0.956839 -0.471252
-0.001251 0.952487 -0.465432
0.000345 0.949815 -0.464637
0.005300 0.947992 -0.466507
0.009833 0.946040 -0.468021
0.014139 0.944016 -0.469342
0.018451 0.941981 -0.470652
0.021355 0.939617 -0.470856
0.020378 0.936403 -0.468060
0.022290 0.933867 -0.467514
0.027030 0.931950 -0.469141
0.030017 0.929672 -0.469421
0.031516 0.927115 -0.468576
0.035626 0.925104 -0.469715
0.042648 0.923659 -0.473038
0.047315 0.921766 -0.474578
0.048546 0.919268 -0.473558
0.015841 0.910865 -0.447420
-0.470630 1.585516 -0.655016
-0.466847 1.588835 -0.659792
-0.462744 1.594951 -0.666830
-0.458749 1.597912 -0.671422
-0.454748 1.599628 -0.675064
-0.451099 1.596292 -0.674695
-0.447681 1.590057 -0.672000
-0.450714 1.482822 -0.589809
-0.447556 1.478777 -0.588561
-0.444384 1.474765 -0.587333
-0.440929 1.473029 -0.587963
-0.437635 1.469781 -0.587355
-0.435083 1.460860 -0.582059
-0.431979 1.456376 -0.580400
-0.428705 1.453162 -0.579782
-0.426054 1.445792 -0.575687
-0.422885 1.442090 -0.574633
-0.419191 1.441720 -0.576373
-0.414706 1.445921 -0.581985
-0.410742 1.446670 -0.584709
-0.407332 1.444150 -0.584665
-0.403921 1.441673 -0.584653
-0.400225 1.440726 -0.585948
-0.396657 1.439084 -0.586650
-0.393384 1.436012 -0.586114
-0.390159 1.432807 -0.585453
-0.386567 1.431401 -0.586349
-0.383282 1.428626 -0.586048
-0.380138 1.425325 -0.585276
-0.376909 1.422497 -0.584909
-0.373770 1.419386 -0.584283
-0.369987 1.418957 -0.586032
-0.366717 1.416495 -0.585973
-0.362932 1.416059 -0.587725
-0.360009 1.412387 -0.586571
-0.356723 1.410159 -0.586708
-0.353970 1.406093 -0.585173
-0.350471 1.404747 -0.586098
-0.347786 1.400658 -0.584516
-0.344544 1.398540 -0.584727
-0.341364 1.396267 -0.584793
-0.338431 1.393259 -0.584172
-0.335749 1.389545 -0.582887
-0.332564 1.387467 -0.583114
-0.329224 1.385886 -0.583804
-0.326923 1.381283 -0.581652
-0.323455 1.380151 -0.582759
-0.320723 1.376947 -0.581905
-0.318536 1.372315 -0.579679
-0.315101 1.371177 -0.580776
-0.312772 1.367097 -0.579052
-0.309810 1.364765 -0.578997
-0.306741 1.362736 -0.579232
-0.303329 1.361591 -0.580327
-0.300257 1.359593 -0.580595
-0.296649 1.358911 -0.582154
-0.293959 1.356014 -0.581541
-0.291515 1.352583 -0.580393
-0.288000 1.351679 -0.581745
-0.284513 1.350689 -0.583021
-0.281229 1.349224 -0.583830
-0.279243 1.344908 -0.581774
-0.277026 1.341171 -0.580286
-0.273563 1.340144 -0.581533
-0.271191 1.336813 -0.580442
-0.268144 1.334920 -0.580813
-0.266128 1.330942 -0.579041
-0.263568 1.328113 -0.578441
-0.260952 1.325424 -0.577980
-0.258207 1.323011 -0.577801
-0.255367 1.320793 -0.577825
-0.252924 1.317839 -0.577074
-0.249763 1.316241 -0.577749
-0.247665 1.312700 -0.576369
-0.244369 1.311353 -0.577313
-0.241550 1.309143 -0.577343
-0.240367 1.304092 -0.574318
-0.237893 1.301341 -0.573750
-0.234030 1.300962 -0.575751
-0.230751 1.299564 -0.576660
-0.228080 1.297145 -0.576460
-0.225712 1.294245 -0.575728
-0.223153 1.291673 -0.575353
-0.220976 1.288512 -0.574321
-0.218969 1.285115 -0.573016
-0.216372 1.282658 -0.572754
-0.212264 1.282494 -0.575073
-0.209077 1.280904 -0.575801
-0.208008 1.276181 -0.572973
-0.205728 1.273285 -0.572207
-0.200821 1.274169 -0.575777
-0.198452 1.271388 -0.575151
-0.195646 1.269229 -0.575243
-0.193030 1.266808 -0.575031
-0.190476 1.264309 -0.574726
-0.187359 1.262570 -0.575314
-0.184648 1.260282 -0.575261
-0.181911 1.258028 -0.575249
-0.178730 1.256347 -0.575922
-0.176307 1.253688 -0.575429
-0.173019 1.252124 -0.576254
-0.171120 1.248821 -0.574978
-0.168624 1.246276 -0.574615
-0.166152 1.243707 -0.574221
-0.162202 1.242904 -0.576004
-0.159603 1.240477 -0.575792
-0.157776 1.237156 -0.574466
-0.154471 1.235555 -0.575282
-0.150317 1.234894 -0.577296
-0.148416 1.231677 -0.576092
-0.146173 1.228859 -0.575387
-0.143108 1.226948 -0.575838
-0.139797 1.225290 -0.576622
-0.136405 1.223701 -0.577505
-0.134363 1.220679 -0.576535
-0.132381 1.217610 -0.575495
-0.128756 1.216238 -0.576680
-0.126347 1.213614 -0.576223
-0.123406 1.211526 -0.576477
-0.119930 1.209956 -0.577432
-0.116002 1.208804 -0.578965
-0.114899 1.204915 -0.576805
-0.112923 1.201889 -0.575800
-0.110419 1.199372 -0.575485
-0.108414 1.196397 -0.574538
-0.105929 1.193873 -0.574208
-0.103562 1.191246 -0.573735
-0.101876 1.188020 -0.572416
-0.099237 1.185649 -0.572294
-0.095834 1.183936 -0.573113
-0.092940 1.181772 -0.573298
-0.090985 1.178808 -0.572338
-0.088849 1.176007 -0.571606
-0.086943 1.173026 -0.570606
-0.083769 1.171087 -0.571131
-0.081046 1.168773 -0.571111
-0.078882 1.166013 -0.570432
-0.076456 1.163464 -0.570066
-0.073761 1.161123 -0.570016
-0.069639 1.159865 -0.571616
-0.065941 1.158256 -0.572706
-0.066630 1.153368 -0.568767
-0.065341 1.149988 -0.567120
-0.064350 1.146415 -0.565154
-0.063770 1.142575 -0.562749
-0.061655 1.139849 -0.562081
-0.059147 1.137401 -0.561856
-0.055816 1.135514 -0.562537
-0.055992 1.131234 -0.559363
-0.058200 1.125640 -0.554007
-0.059482 1.120737 -0.549714
-0.056610 1.118597 -0.549943
-0.053005 1.116918 -0.550953
-0.050396 1.114583 -0.550886
-0.051028 1.110214 -0.547384
-0.053315 1.104871 -0.542174
-0.050827 1.102507 -0.542020
-0.047736 1.100499 -0.542493
-0.046253 1.097521 -0.541291
-0.036985 1.099099 -0.548117
-0.033444 1.097263 -0.548998
-0.030864 1.094856 -0.548885
-0.029359 1.091838 -0.547680
-0.029678 1.087819 -0.544645
-0.030811 1.083393 -0.540823
-0.030624 1.079722 -0.538353
-0.028270 1.077224 -0.538053
-0.025641 1.074862 -0.538022
-0.024707 1.071615 -0.536322
-0.026777 1.066861 -0.531707
-0.023931 1.064616 -0.531903
-0.021225 1.062287 -0.531958
-0.023885 1.057343 -0.526853
-0.018890 1.056115 -0.529106
-0.017049 1.053356 -0.528334
-0.020431 1.048176 -0.522627
-0.022116 1.043841 -0.518568
-0.021625 1.040527 -0.516580
-0.029352 1.033599 -0.506960
-0.029908 1.029916 -0.504070
-0.036457 1.023698 -0.495686
-0.040345 1.018709 -0.489818
-0.040178 1.015471 -0.487697
-0.040195 1.012172 -0.485423
-0.040166 1.008911 -0.483207
-0.037604 1.006663 -0.483279
-0.043502 1.001126 -0.475791
-0.048057 0.996195 -0.469565
-0.045402 0.994032 -0.469764
-0.040843 0.992548 -0.471625
-0.040013 0.989677 -0.470199
-0.037546 0.987389 -0.470203
-0.036132 0.984720 -0.469287
-0.036040 0.981598 -0.467235
-0.033023 0.979468 -0.467700
-0.031558 0.976807 -0.466830
-0.029282 0.974405 -0.466648
-0.025977 0.972314 -0.467327
-0.022749 0.970175 -0.467927
-0.021077 0.967544 -0.467215
-0.017343 0.965522 -0.468215
-0.014052 0.963344 -0.468831
-0.013229 0.960448 -0.467403
-0.011806 0.957731 -0.466475
-0.005790 0.956265 -0.469289
-0.004507 0.953497 -0.468235
-0.004036 0.950531 -0.466532
-0.003759 0.947538 -0.464685
0.001771 0.945870 -0.467046
0.004979 0.943611 -0.467537
0.004073 0.940379 -0.464769
0.004483 0.937496 -0.463062
0.009157 0.935605 -0.464709
0.013487 0.933627 -0.466072
0.017841 0.931650 -0.467444
0.025157 0.930289 -0.471090
0.028548 0.928102 -0.471692
0.032351 0.926012 -0.472608
0.037402 0.924177 -0.474472
0.045631 0.922942 -0.478731
0.042675 0.919641 -0.474531
0.039095 0.916316 -0.469911
0.031005 0.912303 -0.461975
-0.472178 1.584356 -0.659158
-0.468181 1.591210 -0.666788
-0.464244 1.595180 -0.672180
-0.460291 1.597794 -0.676534
-0.456519 1.596892 -0.678101
-0.452839 1.594114 -0.678173
-0.449525 1.586820 -0.674591
-0.446005 1.581660 -0.672726
-0.443855 1.562976 -0.659807
-0.442269 1.473006 -0.592455
-0.438925 1.470133 -0.592154
-0.436291 1.461694 -0.587216
-0.433474 1.454999 -0.583697
-0.430464 1.449932 -0.581516
-0.427196 1.446757 -0.580909
-0.424293 1.441226 -0.578303
-0.420893 1.439024 -0.578499
-0.417716 1.435455 -0.577528
-0.414823 1.430324 -0.575209
-0.411351 1.428663 -0.575848
-0.405856 1.437967 -0.585942
-0.402364 1.436020 -0.586371
-0.399106 1.432905 -0.585784
-0.395875 1.429751 -0.585151
-0.392608 1.426868 -0.584746
-0.389109 1.425152 -0.585357
-0.385788 1.422655 -0.585279
-0.382222 1.421298 -0.586204
-0.378843 1.419158 -0.586434
-0.375994 1.414868 -0.584738
-0.373125 1.410828 -0.583248
-0.369719 1.409048 -0.583776
-0.366610 1.406163 -0.583303
-0.363105 1.404848 -0.584246
-0.359830 1.402704 -0.584436
-0.356760 1.399882 -0.584001
-0.353847 1.396590 -0.583126
-0.350052 1.396402 -0.585102
-0.346949 1.393868 -0.584917
-0.344216 1.390190 -0.583661
-0.340604 1.389422 -0.585108
-0.337883 1.385859 -0.583943
-0.335352 1.381813 -0.582308
-0.332618 1.378490 -0.581339
-0.329340 1.376847 -0.581954
-0.326235 1.374720 -0.582108
-0.323669 1.371108 -0.580839
-0.320605 1.368960 -0.580964
-0.317927 1.365795 -0.580104
-0.315255 1.362682 -0.579286
-0.312250 1.360503 -0.579365
-0.308915 1.359195 -0.580295
-0.305820 1.357281 -0.580635
-0.302972 1.354770 -0.580386
-0.300492 1.351397 -0.579281
-0.297680 1.348880 -0.579016
-0.294738 1.346703 -0.579084
-0.291779 1.344585 -0.579211
-0.289370 1.341233 -0.578097
-0.286143 1.339765 -0.578874
-0.282731 1.338698 -0.580064
-0.280305 1.335478 -0.579068
-0.276602 1.335025 -0.580895
-0.273301 1.333685 -0.581825
-0.271001 1.330271 -0.580621
-0.268598 1.327117 -0.579674
-0.265867 1.324657 -0.579442
-0.263096 1.322295 -0.579310
-0.260549 1.319516 -0.578737
-0.258463 1.315884 -0.577259
-0.255985 1.313042 -0.576604
-0.252669 1.311775 -0.577623
-0.249977 1.309352 -0.577412
-0.247489 1.306577 -0.576821
-0.244803 1.304174 -0.576627
-0.242579 1.300979 -0.575572
-0.240161 1.298151 -0.574908
-0.237965 1.294970 -0.573850
-0.235529 1.292223 -0.573261
-0.231081 1.292808 -0.576349
-0.229194 1.289163 -0.574770
-0.226296 1.287179 -0.575030
-0.224104 1.284078 -0.574040
-0.221499 1.281648 -0.573797
-0.218545 1.279762 -0.574168
-0.215109 1.278599 -0.575366
-0.212714 1.275855 -0.574771
-0.210966 1.272174 -0.573095
-0.208049 1.270234 -0.573411
-0.204866 1.268668 -0.574166
-0.201795 1.266928 -0.574725
-0.199339 1.264319 -0.574274
-0.197057 1.261481 -0.573551
-0.192450 1.261816 -0.576574
-0.191127 1.257684 -0.574319
-0.188745 1.255004 -0.573777
-0.185115 1.253962 -0.575198
-0.182660 1.251377 -0.574773
-0.178466 1.251010 -0.577035
-0.176928 1.247264 -0.575202
-0.174379 1.244807 -0.574931
-0.171899 1.242271 -0.574562
-0.169756 1.239336 -0.573696
-0.166164 1.238142 -0.574991
-0.163599 1.235714 -0.574756
-0.161769 1.232437 -0.573453
-0.158560 1.230764 -0.574167
-0.155463 1.228947 -0.574707
-0.151919 1.227618 -0.575880
-0.149492 1.225033 -0.575451
-0.147100 1.222418 -0.574980
-0.144082 1.220480 -0.575389
-0.140966 1.218637 -0.575928
-0.138182 1.216434 -0.576002
-0.134418 1.215239 -0.577412
-0.131672 1.212978 -0.577423
-0.129964 1.209669 -0.576034
-0.128006 1.206632 -0.574997
-0.124245 1.205381 -0.576369
-0.121460 1.203157 -0.576435
-0.118916 1.200698 -0.576183
-0.117654 1.197029 -0.574264
-0.113452 1.196135 -0.576171
-0.110481 1.194069 -0.576472
-0.110157 1.189589 -0.573390
-0.106776 1.187904 -0.574222
-0.104455 1.185262 -0.573707
-0.101804 1.182915 -0.573611
-0.098548 1.181087 -0.574266
-0.097472 1.177386 -0.572221
-0.094032 1.175707 -0.573099
-0.091950 1.172879 -0.572310
-0.089565 1.170309 -0.571897
-0.087125 1.167788 -0.571554
-0.084725 1.165235 -0.571164
-0.081859 1.163052 -0.571333
-0.078825 1.160993 -0.571695
-0.076677 1.158240 -0.571011
-0.074262 1.155697 -0.570646
-0.072044 1.153006 -0.570053
-0.069900 1.150266 -0.569382
-0.067483 1.147729 -0.569028
-0.065486 1.144891 -0.568199
-0.064687 1.141206 -0.566020
-0.063897 1.137544 -0.563855
-0.061563 1.134982 -0.563441
-0.059292 1.132377 -0.562958
-0.059083 1.128379 -0.560198
-0.060620 1.123255 -0.555549
-0.060116 1.119540 -0.553181
-0.057099 1.117487 -0.553567
-0.053855 1.115565 -0.554192
-0.052366 1.112516 -0.552920
-0.056736 1.105826 -0.545403
-0.054798 1.103125 -0.544666
-0.051093 1.101499 -0.545799
-0.047913 1.099532 -0.546365
-0.042276 1.098997 -0.549487
-0.039046 1.097003 -0.550071
-0.035821 1.094986 -0.550639
-0.033767 1.092287 -0.549993
-0.032073 1.089386 -0.548983
-0.031161 1.086059 -0.547184
-0.030935 1.082376 -0.544707
-0.033439 1.077258 -0.539509
-0.031836 1.074374 -0.538467
-0.027615 1.072853 -0.540032
-0.025765 1.070081 -0.539232
-0.027692 1.065403 -0.534720
-0.025492 1.062831 -0.534288
-0.028623 1.057641 -0.528667
-0.026526 1.055044 -0.528160
-0.021452 1.053856 -0.530518
-0.017812 1.051946 -0.531471
-0.017199 1.048612 -0.529525
-0.023456 1.042176 -0.521081
-0.031706 1.034961 -0.510842
-0.031113 1.031769 -0.508993
-0.029647 1.028968 -0.507972
-0.032903 1.024156 -0.502572
-0.038865 1.018277 -0.494722
-0.037576 1.015483 -0.493606
-0.038011 1.011992 -0.490919
-0.044744 1.006019 -0.482526
-0.038431 1.005257 -0.486010
-0.038213 1.002083 -0.483967
-0.043257 0.996937 -0.477227
-0.046203 0.992653 -0.472416
-0.045883 0.989614 -0.470540
-0.044534 0.986954 -0.469581
-0.040890 0.985099 -0.470637
-0.039261 0.982517 -0.469916
-0.039115 0.979429 -0.467907
-0.037778 0.976750 -0.466939
-0.034467 0.974712 -0.467668
-0.031997 0.972381 -0.467663
-0.029920 0.969912 -0.467316
-0.029697 0.966868 -0.465395
-0.026502 0.964730 -0.465988
-0.022559 0.962792 -0.467195
-0.019622 0.960535 -0.467544
-0.018491 0.957756 -0.466385
-0.015963 0.955370 -0.466383
-0.012399 0.953255 -0.467225
-0.009392 0.950977 -0.467600
-0.007705 0.948350 -0.466892
-0.006766 0.945546 -0.465583
-0.006164 0.942678 -0.464011
-0.002549 0.940556 -0.464865
0.001264 0.938473 -0.465866
-0.000374 0.935144 -0.462535
0.011149 0.934793 -0.469620
0.006312 0.930814 -0.463792
0.016254 0.930051 -0.469570
0.023918 0.928759 -0.473524
0.027895 0.926696 -0.474591
0.033047 0.924872 -0.476559
0.034946 0.922431 -0.476020
0.034598 0.919610 -0.473779
0.034079 0.916818 -0.471437
0.032694 0.913938 -0.468472
0.042197 0.912991 -0.473739
-0.473431 1.588063 -0.667205
-0.469626 1.592100 -0.672651
-0.465740 1.595574 -0.677693
-0.462027 1.595174 -0.679651
-0.458223 1.594945 -0.681770
-0.455015 1.586755 -0.677430
-0.451612 1.580822 -0.674910
-0.448506 1.571616 -0.669692
-0.445300 1.563675 -0.665482
-0.442018 1.556625 -0.661982
-0.438432 1.552435 -0.660831
-0.436578 1.469826 -0.598537
-0.433955 1.461237 -0.593419
-0.431939 1.448719 -0.584936
-0.428753 1.444982 -0.583843
-0.425355 1.442703 -0.583982
-0.421851 1.441052 -0.584657
-0.419048 1.435062 -0.581605
-0.416110 1.430129 -0.579436
-0.412912 1.426866 -0.578693
-0.409536 1.424668 -0.578866
-0.406372 1.421365 -0.578069
-0.403070 1.418879 -0.577978
-0.398589 1.422318 -0.583094
-0.394848 1.421885 -0.584824
-0.391367 1.420182 -0.585436
-0.388373 1.416277 -0.584087
-0.385757 1.410859 -0.581368
-0.382583 1.408066 -0.580979
-0.378839 1.407746 -0.582808
-0.375254 1.406732 -0.584019
-0.372028 1.404293 -0.583940
-0.368841 1.401767 -0.583775
-0.365373 1.400375 -0.584643
-0.361952 1.398821 -0.585362
-0.358883 1.396031 -0.584941
-0.356187 1.392007 -0.583369
-0.352797 1.390496 -0.584117
-0.350035 1.386901 -0.582920
-0.346810 1.384930 -0.583231
-0.342972 1.384963 -0.585428
-0.340738 1.379908 -0.582828
-0.337853 1.377020 -0.582259
-0.334639 1.375188 -0.582689
-0.331935 1.371878 -0.581703
-0.328875 1.369675 -0.581771
-0.325900 1.367270 -0.581640
-0.323085 1.364463 -0.581116
-0.320241 1.361791 -0.580716
-0.317558 1.358740 -0.579938
-0.314546 1.356612 -0.580058
-0.311745 1.353966 -0.579665
-0.309691 1.349474 -0.577440
-0.306042 1.349052 -0.579238
-0.302863 1.347446 -0.579868
-0.300367 1.344203 -0.578861
-0.297931 1.340878 -0.577761
-0.294675 1.339513 -0.578631
-0.291594 1.337741 -0.579093
-0.288994 1.334895 -0.578463
-0.285675 1.333671 -0.579488
-0.282995 1.331051 -0.579084
-0.280280 1.328531 -0.578779
-0.276693 1.327867 -0.580395
-0.273487 1.326383 -0.581170
-0.271408 1.322598 -0.579544
-0.268490 1.320551 -0.579730
-0.265277 1.319094 -0.580540
-0.264689 1.312532 -0.575943
-0.261523 1.311038 -0.576702
-0.257944 1.310309 -0.578288
-0.255714 1.307045 -0.577162
-0.252929 1.304835 -0.577164
-0.249897 1.303076 -0.577655
-0.246894 1.301260 -0.578089
-0.245026 1.297456 -0.576352
-0.242757 1.294396 -0.575416
-0.239666 1.292759 -0.576044
-0.237120 1.290200 -0.575655
-0.234926 1.287077 -0.574634
-0.232053 1.285088 -0.574874
-0.229240 1.283000 -0.575006
-0.226788 1.280343 -0.574496
-0.224009 1.278211 -0.574578
-0.220793 1.276750 -0.575428
-0.218272 1.274218 -0.575060
-0.216025 1.271290 -0.574231
-0.213216 1.269210 -0.574377
-0.210722 1.266672 -0.573993
-0.207893 1.264624 -0.574180
-0.204918 1.262779 -0.574607
-0.202805 1.259724 -0.573611
-0.200678 1.256710 -0.572655
-0.198192 1.254207 -0.572300
-0.194054 1.253925 -0.574607
-0.191611 1.251352 -0.574177
-0.188373 1.249825 -0.575011
-0.186257 1.246835 -0.574074
-0.183187 1.245078 -0.574637
-0.179698 1.243833 -0.575839
-0.176938 1.241659 -0.575905
-0.174526 1.239060 -0.575445
-0.172737 1.235717 -0.574051
-0.169337 1.234320 -0.575090
-0.167122 1.231508 -0.574355
-0.164562 1.229109 -0.574138
-0.161625 1.227146 -0.574478
-0.158200 1.225725 -0.575518
-0.155319 1.223675 -0.575761
-0.152689 1.221343 -0.575642
-0.150701 1.218314 -0.574613
-0.147655 1.216437 -0.575089
-0.144187 1.214997 -0.576147
-0.141107 1.213128 -0.576653
-0.138183 1.211086 -0.576934
-0.135592 1.208698 -0.576757
-0.133451 1.205858 -0.575969
-0.131494 1.202847 -0.574943
-0.128106 1.201255 -0.575848
-0.124823 1.199544 -0.576601
-0.123479 1.195962 -0.574780
-0.120257 1.194183 -0.575448
-0.117486 1.191968 -0.575517
-0.115026 1.189464 -0.575183
-0.111138 1.188258 -0.576688
-0.111383 1.183318 -0.572891
-0.108068 1.181591 -0.573662
-0.104799 1.179809 -0.574365
-0.102033 1.177575 -0.574426
-0.099265 1.175339 -0.574488
-0.098723 1.171226 -0.571794
-0.095126 1.169691 -0.572888
-0.092141 1.167632 -0.573219
-0.089331 1.165421 -0.573332
-0.087539 1.162392 -0.572215
-0.084524 1.160339 -0.572575
-0.082398 1.157585 -0.571870
-0.079082 1.155752 -0.572582
-0.077007 1.152960 -0.571822
-0.075011 1.150116 -0.570976
-0.073140 1.147189 -0.569995
-0.070232 1.145028 -0.570221
-0.067967 1.142394 -0.569703
-0.065863 1.139649 -0.569006
-0.065760 1.135505 -0.566044
-0.065450 1.131546 -0.563347
-0.063796 1.128541 -0.562187
-0.061495 1.125984 -0.561760
-0.062484 1.121239 -0.557688
-0.060924 1.118224 -0.556470
-0.058279 1.115923 -0.556450
-0.055972 1.113398 -0.556061
-0.058019 1.108128 -0.550956
-0.057549 1.104493 -0.548617
-0.055696 1.101735 -0.547782
-0.052067 1.100055 -0.548844
-0.047483 1.098920 -0.550902
-0.044521 1.096788 -0.551224
-0.042022 1.094373 -0.551055
-0.040328 1.091490 -0.550045
-0.039004 1.088403 -0.548660
-0.037840 1.085238 -0.547120
-0.034194 1.083446 -0.548134
-0.032039 1.080821 -0.547614
-0.031083 1.077552 -0.545880
-0.032496 1.073054 -0.541772
-0.031511 1.069847 -0.540108
-0.030014 1.066913 -0.538966
-0.027833 1.064328 -0.538509
-0.025751 1.061687 -0.537953
-0.028715 1.056579 -0.532449
-0.025572 1.054473 -0.532954
-0.020870 1.053084 -0.534962
-0.018030 1.050782 -0.535144
-0.014994 1.048553 -0.535507
-0.028357 1.038898 -0.520194
-0.035707 1.032129 -0.510748
-0.036389 1.028400 -0.507697
-0.032420 1.026702 -0.509044
-0.029330 1.024596 -0.509548
-0.027797 1.021819 -0.508591
-0.033168 1.016213 -0.501244
-0.034148 1.012466 -0.498009
-0.037424 1.007843 -0.492698
-0.038705 1.004058 -0.489250
-0.036171 1.001765 -0.489291
-0.038867 0.997492 -0.484605
-0.040346 0.993720 -0.481051
-0.036727 0.991830 -0.482076
-0.041933 0.986772 -0.475245
-0.049406 0.981009 -0.466471
-0.046368 0.978957 -0.467021
-0.043078 0.976965 -0.467777
-0.041356 0.974431 -0.467154
-0.038766 0.972171 -0.467280
-0.034235 0.970509 -0.469068
-0.033649 0.967584 -0.467450
-0.032759 0.964763 -0.466100
-0.031269 0.962127 -0.465264
-0.026972 0.960309 -0.466800
-0.024820 0.957847 -0.466512
-0.022303 0.955482 -0.466524
-0.019590 0.953162 -0.466693
-0.015498 0.951201 -0.467996
-0.014500 0.948411 -0.466733
-0.012410 0.945915 -0.466372
-0.011170 0.943212 -0.465318
-0.010687 0.940341 -0.463657
-0.003897 0.938991 -0.467100
-0.002140 0.936435 -0.466465
-0.001044 0.933749 -0.465308
-0.001948 0.930650 -0.462570
0.009102 0.930162 -0.469322
0.014429 0.928404 -0.471504
0.021707 0.927032 -0.475196
0.023921 0.924629 -0.474907
0.021869 0.921432 -0.471313
0.032773 0.920744 -0.477772
0.030423 0.917578 -0.473983
0.028726 0.914608 -0.470737
0.031032 0.912407 -0.470581
0.011607 0.906576 -0.453946
-0.475359 1.580577 -0.666302
-0.471131 1.592169 -0.677889
-0.467431 1.593178 -0.680974
-0.463538 1.595563 -0.685213
-0.460544 1.585025 -0.678918
-0.457415 1.576431 -0.674181
-0.454489 1.565631 -0.667598
-0.450761 1.563870 -0.668451
-0.446592 1.566060 -0.672597
-0.442580 1.565853 -0.674780
-0.438548 1.565264 -0.676663
-0.434848 1.561291 -0.675720
-0.430679 1.561094 -0.677955
-0.425653 1.567276 -0.685607
-0.426451 1.444067 -0.589612
-0.422970 1.442187 -0.590100
-0.419986 1.437174 -0.587873
-0.417400 1.429976 -0.583724
-0.414212 1.426597 -0.582874
-0.410992 1.423488 -0.582249
-0.407926 1.419639 -0.580962
-0.405104 1.414658 -0.578659
-0.402180 1.410398 -0.576973
-0.399784 1.403741 -0.573133
-0.396335 1.402374 -0.573988
-0.391049 1.409435 -0.582412
-0.387754 1.407150 -0.582472
-0.384452 1.404952 -0.582606
-0.381324 1.402078 -0.582121
-0.378547 1.397854 -0.580395
-0.375445 1.395092 -0.579989
-0.371351 1.396274 -0.583201
-0.367688 1.395710 -0.584822
-0.363975 1.395303 -0.586596
-0.360990 1.392231 -0.585899
-0.359102 1.385385 -0.581664
-0.355851 1.383498 -0.582044
-0.352527 1.381898 -0.582692
-0.348987 1.381028 -0.584032
-0.346453 1.376903 -0.582287
-0.343521 1.374160 -0.581842
-0.340849 1.370684 -0.580686
-0.337797 1.368448 -0.580710
-0.334640 1.366568 -0.581074
-0.331380 1.365008 -0.581749
-0.328549 1.362243 -0.581252
-0.325841 1.359190 -0.580467
-0.322774 1.357184 -0.580699
-0.319687 1.355260 -0.581012
-0.316766 1.352916 -0.580909
-0.314046 1.350088 -0.580321
-0.311577 1.346673 -0.579141
-0.309409 1.342578 -0.577267
-0.306828 1.339587 -0.576486
-0.303606 1.338189 -0.577307
-0.300700 1.336040 -0.577370
-0.298135 1.333119 -0.576646
-0.294956 1.331644 -0.577394
-0.291419 1.330970 -0.578972
-0.288915 1.327981 -0.578170
-0.286487 1.324872 -0.577236
-0.283132 1.323788 -0.578403
-0.280929 1.320262 -0.577024
-0.277672 1.318974 -0.577984
-0.274847 1.316790 -0.578006
-0.271586 1.315494 -0.578968
-0.268749 1.313344 -0.579031
-0.267555 1.308009 -0.575686
-0.264217 1.306886 -0.576836
-0.260833 1.305828 -0.578066
-0.257857 1.303985 -0.578456
-0.255660 1.300717 -0.577299
-0.252267 1.299641 -0.578529
-0.248921 1.298458 -0.579653
-0.246642 1.295386 -0.578701
-0.245258 1.290801 -0.576064
-0.242250 1.289050 -0.576559
-0.239435 1.286969 -0.576691
-0.237226 1.283889 -0.575701
-0.235040 1.280803 -0.574695
-0.232455 1.278385 -0.574438
-0.229017 1.277326 -0.575731
-0.226843 1.274267 -0.574744
-0.224682 1.271215 -0.573757
-0.222242 1.268614 -0.573282
-0.218675 1.267710 -0.574779
-0.216108 1.265300 -0.574530
-0.214156 1.262002 -0.573236
-0.211123 1.260287 -0.573800
-0.208183 1.258428 -0.574199
-0.205683 1.255948 -0.573864
-0.203602 1.252898 -0.572843
-0.200620 1.251096 -0.573317
-0.197604 1.249330 -0.573840
-0.194641 1.247482 -0.574270
-0.191769 1.245507 -0.574550
-0.189361 1.242928 -0.574093
-0.186994 1.240306 -0.573579
-0.183138 1.239562 -0.575394
-0.180137 1.237721 -0.575860
-0.178691 1.233970 -0.573935
-0.176914 1.230657 -0.572545
-0.173358 1.229489 -0.573862
-0.170300 1.227707 -0.574413
-0.167233 1.225924 -0.574970
-0.164632 1.223596 -0.574831
-0.162264 1.221006 -0.574354
-0.159156 1.219247 -0.574957
-0.157827 1.215519 -0.572987
-0.154111 1.214420 -0.574464
-0.150944 1.212701 -0.575138
-0.146934 1.211859 -0.576992
-0.144729 1.209095 -0.576291
-0.141832 1.207055 -0.576560
-0.138370 1.205583 -0.577606
-0.136485 1.202504 -0.576476
-0.134192 1.199848 -0.575915
-0.133083 1.196041 -0.573761
-0.127973 1.196139 -0.577008
-0.126802 1.192416 -0.574958
-0.124009 1.190255 -0.575082
-0.120926 1.188359 -0.575585
-0.118178 1.186143 -0.575644
-0.116329 1.183107 -0.574533
-0.114689 1.179900 -0.573166
-0.111436 1.178141 -0.573883
-0.108694 1.175919 -0.573939
-0.104606 1.174852 -0.575695
-0.102166 1.172350 -0.575357
-0.103028 1.167076 -0.570901
-0.099006 1.165923 -0.572556
-0.095863 1.164019 -0.573107
-0.093432 1.161526 -0.572777
-0.090248 1.159634 -0.573365
-0.088278 1.156772 -0.572477
-0.084411 1.155394 -0.573877
-0.082236 1.152690 -0.573238
-0.080488 1.149668 -0.572100
-0.078484 1.146851 -0.571274
-0.075672 1.144638 -0.571403
-0.073656 1.141837 -0.570602
-0.071357 1.139247 -0.570136
-0.069387 1.136425 -0.569294
-0.067778 1.133357 -0.568047
-0.067157 1.129621 -0.565689
-0.066032 1.126259 -0.563925
-0.064012 1.123520 -0.563185
-0.062400 1.120515 -0.561996
-0.061289 1.117193 -0.560262
-0.059383 1.114404 -0.559422
-0.058312 1.111089 -0.557672
-0.058355 1.107092 -0.554722
-0.057599 1.103628 -0.552670
-0.056694 1.100279 -0.550799
-0.052867 1.098712 -0.552083
-0.048153 1.097643 -0.554295
-0.043916 1.096251 -0.555972
-0.043381 1.092682 -0.553720
-0.042588 1.089284 -0.551758
-0.041650 1.085987 -0.549966
-0.039633 1.083305 -0.549309
-0.038031 1.080395 -0.548226
-0.035054 1.078230 -0.548563
-0.031734 1.076231 -0.549242
-0.031577 1.072554 -0.546695
-0.031648 1.068785 -0.543940
-0.032219 1.064791 -0.540708
-0.029757 1.062351 -0.540536
-0.026912 1.060088 -0.540740
-0.025832 1.056952 -0.539191
-0.024392 1.053996 -0.538008
-0.021895 1.051542 -0.537865
-0.018681 1.049408 -0.538415
-0.013767 1.048026 -0.540598
-0.032265 1.036077 -0.520208
-0.042002 1.028289 -0.508416
-0.039258 1.026090 -0.508633
-0.037733 1.023351 -0.507687
-0.043506 1.017537 -0.499861
-0.042443 1.014653 -0.498521
-0.025362 1.018295 -0.512137
-0.033360 1.011681 -0.502322
-0.032660 1.008618 -0.500634
-0.032518 1.005347 -0.498442
-0.036299 1.000602 -0.492679
-0.036298 0.997336 -0.490407
-0.036431 0.994038 -0.488029
-0.039142 0.989830 -0.483346
-0.039229 0.986602 -0.481054
-0.039154 0.983448 -0.478921
-0.044826 0.978357 -0.471708
-0.045920 0.974882 -0.468597
-0.044066 0.972401 -0.468096
-0.042214 0.969912 -0.467591
-0.041406 0.967089 -0.466176
-0.036062 0.965668 -0.468687
-0.033634 0.963320 -0.468659
-0.032559 0.960561 -0.467466
-0.030996 0.957949 -0.466693
-0.027362 0.955924 -0.467675
-0.023697 0.953883 -0.468666
-0.021798 0.951345 -0.468161
-0.020729 0.948590 -0.466963
-0.016089 0.946768 -0.468735
-0.016436 0.943663 -0.466367
-0.015485 0.940912 -0.465086
-0.011245 0.938969 -0.466502
-0.008722 0.936609 -0.466505
-0.006415 0.934207 -0.466331
-0.005461 0.931514 -0.465068
-0.001527 0.929498 -0.466208
0.001217 0.927229 -0.466387
0.008568 0.925925 -0.470225
0.014723 0.924349 -0.473084
0.015891 0.921781 -0.471998
0.016186 0.919086 -0.470245
0.019923 0.917081 -0.471195
0.030800 0.916383 -0.477681
0.026802 0.913021 -0.472633
0.024255 0.910004 -0.468755
0.068293 0.914827 -0.500560
-0.476382 1.588553 -0.677899
-0.472788 1.589812 -0.681176
-0.468880 1.594370 -0.687188
-0.465856 1.584660 -0.681527
-0.462698 1.576877 -0.677421
-0.459799 1.565860 -0.670616
-0.456083 1.564770 -0.672018
-0.452135 1.565537 -0.674986
-0.447273 1.574977 -0.685244
-0.443736 1.569703 -0.683215
-0.440023 1.565982 -0.682485
-0.436093 1.563991 -0.683215
-0.431185 1.569960 -0.690721
-0.426607 1.572252 -0.695147
-0.423610 1.561733 -0.688629
-0.418412 1.536634 -0.671928
-0.419835 1.446245 -0.600280
-0.418888 1.428707 -0.587058
-0.415635 1.425688 -0.586514
-0.412312 1.423123 -0.586362
-0.409340 1.418704 -0.584558
-0.406312 1.414748 -0.583148
-0.403379 1.410454 -0.581419
-0.400881 1.404194 -0.577905
-0.398025 1.399934 -0.576162
-0.395149 1.395939 -0.574639
-0.391872 1.393903 -0.574878
-0.387689 1.395868 -0.578767
-0.384071 1.395261 -0.580323
-0.380773 1.393303 -0.580644
-0.377355 1.391870 -0.581448
-0.374105 1.389796 -0.581658
-0.370802 1.387973 -0.582098
-0.366746 1.388994 -0.585195
-0.364643 1.382809 -0.581550
-0.361303 1.381259 -0.582237
-0.357928 1.379850 -0.583060
-0.354846 1.377461 -0.582953
-0.351900 1.374679 -0.582467
-0.348503 1.373433 -0.583443
-0.346418 1.368027 -0.580423
-0.343607 1.365058 -0.579727
-0.340442 1.363238 -0.580136
-0.337450 1.360927 -0.580067
-0.333899 1.360290 -0.581630
-0.331321 1.356848 -0.580450
-0.328391 1.354475 -0.580310
-0.324945 1.353562 -0.581612
-0.322076 1.351079 -0.581362
-0.319482 1.347907 -0.580419
-0.316599 1.345553 -0.580286
-0.314847 1.340350 -0.577281
-0.311858 1.338378 -0.577515
-0.308826 1.336531 -0.577876
-0.305584 1.335201 -0.578765
-0.302927 1.332478 -0.578235
-0.300264 1.329809 -0.577753
-0.297399 1.327639 -0.577781
-0.294357 1.325887 -0.578242
-0.292120 1.322354 -0.576850
-0.288555 1.321779 -0.578540
-0.287168 1.316499 -0.575300
-0.284319 1.314416 -0.575405
-0.280707 1.313930 -0.577202
-0.277153 1.313283 -0.578844
-0.274436 1.310922 -0.578665
-0.272725 1.306584 -0.576363
-0.269947 1.304403 -0.576367
-0.267058 1.302448 -0.576615
-0.263728 1.301327 -0.577774
-0.260775 1.299483 -0.578152
-0.258797 1.295850 -0.576568
-0.256488 1.292866 -0.575685
-0.252764 1.292429 -0.577620
-0.248863 1.292257 -0.579868
-0.247829 1.287085 -0.576541
-0.245064 1.284948 -0.576596
-0.242249 1.282900 -0.576753
-0.239781 1.280280 -0.576263
-0.237337 1.277638 -0.575743
-0.234720 1.275290 -0.575556
-0.232293 1.272651 -0.575033
-0.228770 1.271738 -0.576502
-0.227070 1.267986 -0.574687
-0.224729 1.265255 -0.574048
-0.222905 1.261766 -0.572514
-0.219225 1.261055 -0.574242
-0.217287 1.257770 -0.572938
-0.214569 1.255637 -0.572993
-0.211347 1.254219 -0.573907
-0.209545 1.250797 -0.572419
-0.206609 1.248971 -0.572848
-0.203652 1.247166 -0.573308
-0.201034 1.244895 -0.573205
-0.198169 1.242954 -0.573508
-0.194466 1.242102 -0.575159
-0.192201 1.239360 -0.574485
-0.189526 1.237155 -0.574474
-0.187029 1.234726 -0.574184
-0.185202 1.231473 -0.572855
-0.182935 1.228784 -0.572227
-0.179342 1.227706 -0.573647
-0.176914 1.225213 -0.573271
-0.174357 1.222877 -0.573097
-0.171773 1.220575 -0.572965
-0.167453 1.220259 -0.575420
-0.165025 1.217758 -0.575043
-0.163179 1.214615 -0.573820
-0.161049 1.211805 -0.573027
-0.158252 1.209735 -0.573210
-0.155891 1.207191 -0.572764
-0.150973 1.207358 -0.575966
-0.147740 1.205703 -0.576739
-0.146017 1.202475 -0.575381
-0.142956 1.200631 -0.575907
-0.139192 1.199481 -0.577398
-0.137508 1.196239 -0.576009
-0.134382 1.194431 -0.576607
-0.132763 1.191154 -0.575155
-0.130838 1.188192 -0.574132
-0.128444 1.185688 -0.573752
-0.126141 1.183102 -0.573253
-0.124231 1.180163 -0.572243
-0.120598 1.178799 -0.573501
-0.117439 1.176985 -0.574125
-0.114510 1.174954 -0.574442
-0.111748 1.172768 -0.574540
-0.110549 1.169232 -0.572643
-0.109848 1.165302 -0.570138
-0.106913 1.163285 -0.570476
-0.102679 1.162332 -0.572432
-0.099595 1.160402 -0.572933
-0.096436 1.158520 -0.573520
-0.093917 1.156115 -0.573312
-0.091171 1.153886 -0.573382
-0.088850 1.151321 -0.572933
-0.086961 1.148429 -0.571970
-0.084447 1.146019 -0.571764
-0.081663 1.143809 -0.571881
-0.078892 1.141581 -0.571977
-0.076653 1.138960 -0.571446
-0.075124 1.135833 -0.570090
-0.072571 1.133445 -0.569937
-0.070050 1.131031 -0.569746
-0.068220 1.128138 -0.568762
-0.066666 1.125066 -0.567474
-0.064634 1.122327 -0.566739
-0.062668 1.119550 -0.565936
-0.061663 1.116150 -0.564062
-0.060827 1.112663 -0.562021
-0.060443 1.108912 -0.559498
-0.059979 1.105242 -0.557088
-0.059212 1.101790 -0.555036
-0.056662 1.099446 -0.554945
-0.053301 1.097583 -0.555728
-0.048549 1.096523 -0.557996
-0.045909 1.094184 -0.557975
-0.044548 1.091097 -0.556589
-0.044477 1.087288 -0.553849
-0.043145 1.084218 -0.552463
-0.041120 1.081539 -0.551812
-0.041090 1.077773 -0.549088
-0.040490 1.074343 -0.546979
-0.038142 1.071857 -0.546688
-0.036533 1.068977 -0.545639
-0.034236 1.066455 -0.545296
-0.034618 1.062570 -0.542239
-0.034795 1.058819 -0.539416
-0.029378 1.057843 -0.542222
-0.027415 1.055142 -0.541552
-0.027029 1.051686 -0.539318
-0.023964 1.049504 -0.539744
-0.019788 1.047814 -0.541248
-0.025132 1.041762 -0.533442
-0.036078 1.033305 -0.520274
-0.040187 1.028034 -0.513838
-0.040176 1.024626 -0.511420
-0.040539 1.021079 -0.508664
-0.043925 1.016291 -0.503056
-0.044439 1.012751 -0.500215
-0.042077 1.010402 -0.500101
-0.038623 1.008473 -0.501002
-0.028525 1.009113 -0.508073
-0.022811 1.007948 -0.511002
-0.027021 1.002978 -0.504750
-0.024055 1.000742 -0.505132
-0.028586 0.992465 -0.496367
-0.035080 0.986916 -0.488224
-0.037757 0.982782 -0.483582
-0.037857 0.979570 -0.481282
-0.040276 0.975609 -0.476937
-0.044270 0.971186 -0.471234
-0.046324 0.967448 -0.467288
-0.042361 0.965629 -0.468643
-0.038185 0.963841 -0.470160
-0.036677 0.961222 -0.469344
-0.034907 0.958680 -0.468755
-0.032232 0.956396 -0.468940
-0.029076 0.954233 -0.469527
-0.027856 0.951525 -0.468458
-0.027601 0.948567 -0.466579
-0.021100 0.947264 -0.469963
-0.021720 0.944091 -0.467352
-0.019223 0.941731 -0.467357
-0.019203 0.938769 -0.465307
-0.015245 0.936773 -0.466518
-0.011546 0.934706 -0.467504
-0.012136 0.931664 -0.464978
-0.008653 0.929563 -0.465784
-0.004994 0.927502 -0.466723
-0.001464 0.925416 -0.467552
0.001167 0.923154 -0.467656
0.005241 0.921197 -0.468910
0.006470 0.918696 -0.467901
0.009827 0.916635 -0.468587
0.017682 0.915417 -0.472804
0.019199 0.913046 -0.472035
0.020861 0.910743 -0.471395
0.025170 0.908929 -0.472820
0.026643 0.906668 -0.472054
-0.477798 1.589991 -0.684270
-0.474531 1.585917 -0.683193
-0.471295 1.580637 -0.681123
-0.468025 1.575360 -0.679049
-0.464765 1.569534 -0.676512
-0.461436 1.564321 -0.674476
-0.457745 1.563127 -0.675800
-0.453383 1.568781 -0.682900
-0.448782 1.575579 -0.691024
-0.444391 1.578827 -0.696204
-0.442214 1.560003 -0.682648
-0.438394 1.557342 -0.682794
-0.433017 1.567816 -0.694204
-0.428213 1.572142 -0.700411
-0.424812 1.564641 -0.696447
-0.418246 1.548755 -0.687650
-0.410461 1.572290 -0.710712
-0.404765 1.579868 -0.719948
-0.399632 1.583035 -0.725367
-0.397808 1.565492 -0.712505
-0.409745 1.423358 -0.593172
-0.407465 1.415197 -0.587989
-0.404235 1.412341 -0.587546
-0.401729 1.405959 -0.583901
-0.399039 1.400764 -0.581300
-0.396322 1.395927 -0.579000
-0.393382 1.392305 -0.577790
-0.390518 1.388486 -0.576383
-0.387775 1.384293 -0.574616
-0.384750 1.381438 -0.574069
-0.380065 1.385411 -0.579872
-0.376219 1.385802 -0.582367
-0.372793 1.384503 -0.583290
-0.371587 1.374876 -0.576366
-0.367825 1.375031 -0.578639
-0.363261 1.377993 -0.583593
-0.360778 1.373499 -0.581470
-0.357279 1.372625 -0.582791
-0.354344 1.369861 -0.582303
-0.351553 1.366703 -0.581426
-0.348923 1.363117 -0.580121
-0.345998 1.360552 -0.579798
-0.343060 1.358089 -0.579567
-0.339852 1.356484 -0.580174
-0.336800 1.354439 -0.580349
-0.334103 1.351407 -0.579544
-0.331185 1.349062 -0.579414
-0.328043 1.347380 -0.579941
-0.324828 1.345909 -0.580681
-0.321936 1.343581 -0.580563
-0.319724 1.339518 -0.578687
-0.316947 1.336998 -0.578360
-0.313974 1.335009 -0.578570
-0.310816 1.333497 -0.579267
-0.308277 1.330484 -0.578426
-0.304726 1.329932 -0.580117
-0.302842 1.325448 -0.577744
-0.299779 1.323772 -0.578272
-0.297472 1.320391 -0.577022
-0.294726 1.318044 -0.576846
-0.292674 1.314205 -0.575093
-0.289806 1.312192 -0.575258
-0.286890 1.310290 -0.575542
-0.284025 1.308287 -0.575721
-0.280764 1.307106 -0.576782
-0.278983 1.302922 -0.574616
-0.274804 1.303570 -0.577662
-0.273282 1.298956 -0.575010
-0.270269 1.297293 -0.575560
-0.266840 1.296411 -0.576973
-0.264075 1.294264 -0.577003
-0.262016 1.290826 -0.575603
-0.258991 1.289182 -0.576188
-0.256482 1.286613 -0.575742
-0.254180 1.283697 -0.574904
-0.251222 1.281945 -0.575373
-0.247991 1.280651 -0.576365
-0.245075 1.278810 -0.576744
-0.242213 1.276872 -0.577018
-0.239390 1.274871 -0.577221
-0.237670 1.271094 -0.575375
-0.234851 1.269109 -0.575592
-0.231795 1.267493 -0.576243
-0.229229 1.265109 -0.576001
-0.227522 1.261430 -0.574231
-0.224706 1.259455 -0.574464
-0.222515 1.256554 -0.573597
-0.219661 1.254641 -0.573905
-0.217041 1.252387 -0.573806
-0.214523 1.249991 -0.573538
-0.211602 1.248166 -0.573960
-0.208998 1.245895 -0.573844
-0.206449 1.243553 -0.573641
-0.203579 1.241647 -0.573975
-0.200845 1.239554 -0.574082
-0.198283 1.237233 -0.573908
-0.196267 1.234213 -0.572859
-0.192555 1.233372 -0.574541
-0.189645 1.231489 -0.574926
-0.187372 1.228809 -0.574303
-0.185016 1.226242 -0.573820
-0.182517 1.223857 -0.573567
-0.179753 1.221791 -0.573726
-0.176985 1.219725 -0.573888
-0.174064 1.217833 -0.574280
-0.172244 1.214673 -0.573015
-0.169220 1.212894 -0.573562
-0.166012 1.211309 -0.574374
-0.163838 1.208570 -0.573656
-0.162145 1.205321 -0.572247
-0.158167 1.204544 -0.574165
-0.154596 1.203299 -0.575471
-0.152878 1.200093 -0.574114
-0.150802 1.197279 -0.573284
-0.147828 1.195392 -0.573728
-0.145412 1.192934 -0.573386
-0.142788 1.190687 -0.573337
-0.137466 1.191075 -0.577000
-0.135726 1.187936 -0.575718
-0.134694 1.184144 -0.573492
-0.132018 1.181936 -0.573512
-0.129375 1.179693 -0.573485
-0.126614 1.177555 -0.573615
-0.123929 1.175343 -0.573643
-0.121701 1.172720 -0.573069
-0.119356 1.170206 -0.572655
-0.116053 1.168530 -0.573485
-0.114004 1.165759 -0.572692
-0.111759 1.163163 -0.572156
-0.109001 1.161002 -0.572279
-0.105955 1.159073 -0.572761
-0.102496 1.157468 -0.573754
-0.099580 1.155405 -0.574056
-0.097206 1.152902 -0.573683
-0.094066 1.151001 -0.574254
-0.092248 1.148062 -0.573202
-0.089979 1.145479 -0.572707
-0.087249 1.143248 -0.572774
-0.085010 1.140645 -0.572250
-0.082411 1.138309 -0.572160
-0.080293 1.135620 -0.571498
-0.077976 1.133078 -0.571076
-0.075877 1.130383 -0.570404
-0.073084 1.128175 -0.570542
-0.070743 1.125648 -0.570156
-0.068056 1.123354 -0.570168
-0.066085 1.120574 -0.569360
-0.064170 1.117763 -0.568495
-0.061874 1.115206 -0.568068
-0.061853 1.111186 -0.565087
-0.061288 1.107550 -0.562746
-0.064175 1.101784 -0.556597
-0.062656 1.098819 -0.555378
-0.058538 1.097445 -0.557022
-0.053865 1.096369 -0.559249
-0.051013 1.094173 -0.559471
-0.049431 1.091223 -0.558318
-0.049285 1.087457 -0.555632
-0.048007 1.084361 -0.554181
-0.044484 1.082531 -0.555123
-0.045007 1.078449 -0.551782
