ply
format ascii 1.0
comment ---
element vertex 1662
property float x
property float y
property float z
element face 0
property list uchar uint vertex_indices
end_header
0.034958 1.167271 -0.482438
0.043177 1.168291 -0.486369
0.041505 1.163123 -0.482456
0.043218 1.160067 -0.481224
0.048005 1.158859 -0.482382
0.051254 1.156694 -0.482324
0.052749 1.153479 -0.480906
0.065174 1.156593 -0.487836
0.057721 1.148195 -0.479582
0.064364 1.147881 -0.482045
0.070056 1.146968 -0.483753
0.078347 1.147429 -0.487362
0.081945 1.145251 -0.487437
0.083275 1.141833 -0.485826
0.082326 1.137218 -0.482551
0.085483 1.134786 -0.482290
0.090194 1.133137 -0.483142
0.094525 1.131257 -0.483698
0.097818 1.128828 -0.483494
0.099895 1.125783 -0.482416
0.104593 1.124019 -0.483192
0.108391 1.121791 -0.483316
0.110216 1.118611 -0.482052
0.114796 1.116732 -0.482707
0.126750 1.118230 -0.488435
0.131364 1.116277 -0.489058
0.127483 1.110497 -0.483877
0.125906 1.105830 -0.480317
0.129890 1.103652 -0.480546
0.139919 1.104072 -0.484825
0.138247 1.099465 -0.481264
0.141134 1.096837 -0.480770
0.148937 1.096257 -0.483528
0.157111 1.095797 -0.486512
0.165732 1.095487 -0.489766
0.168293 1.092754 -0.489074
0.170119 1.089778 -0.487934
0.196022 1.096096 -0.502267
-0.530378 1.574291 -0.517731
-0.526896 1.573985 -0.518939
-0.523350 1.573513 -0.520066
-0.519769 1.573980 -0.521802
-0.516209 1.579156 -0.526524
-0.512493 1.580246 -0.528709
-0.508717 1.581546 -0.531050
-0.504880 1.583085 -0.533567
-0.500964 1.590953 -0.540140
-0.496998 1.589677 -0.540916
-0.492970 1.591261 -0.543536
-0.488911 1.591713 -0.545447
-0.484794 1.592998 -0.547911
-0.480502 1.598820 -0.553330
-0.476313 1.599092 -0.555178
-0.471956 1.602864 -0.559318
-0.467633 1.604536 -0.562109
-0.463292 1.605807 -0.564652
-0.458856 1.608219 -0.567958
-0.454384 1.610538 -0.571219
-0.449764 1.614450 -0.575553
-0.445255 1.616098 -0.578402
-0.440811 1.616547 -0.580463
-0.436619 1.613843 -0.580418
-0.432324 1.612527 -0.581298
-0.428107 1.610469 -0.581674
-0.423834 1.609107 -0.582515
-0.419310 1.610177 -0.585004
-0.415010 1.609102 -0.586039
-0.410789 1.607406 -0.586648
-0.406579 1.605728 -0.587264
-0.402369 1.604152 -0.587946
-0.398126 1.602911 -0.588854
-0.393782 1.602438 -0.590290
-0.389310 1.602835 -0.592332
-0.385083 1.601557 -0.593211
-0.380826 1.600522 -0.594257
-0.376636 1.599101 -0.595031
-0.372809 1.595603 -0.594339
-0.368914 1.592675 -0.594037
-0.364762 1.591309 -0.594832
-0.361547 1.584966 -0.592087
-0.357230 1.584680 -0.593636
-0.351774 1.590094 -0.599265
-0.347981 1.587021 -0.598832
-0.344340 1.583339 -0.597951
-0.339747 1.584220 -0.600353
-0.336364 1.579545 -0.598738
-0.331548 1.581355 -0.601822
-0.327504 1.579714 -0.602401
-0.324376 1.574274 -0.600198
-0.321347 1.568638 -0.597832
-0.317658 1.565840 -0.597534
-0.313985 1.563051 -0.597237
-0.310971 1.557830 -0.595129
-0.307612 1.554062 -0.594083
-0.306221 1.543254 -0.587773
-0.304048 1.535630 -0.583801
-0.300045 1.534640 -0.584780
-0.297725 1.527893 -0.581425
-0.294974 1.522804 -0.579297
-0.291789 1.519279 -0.578338
-0.287916 1.518044 -0.579110
-0.284226 1.516221 -0.579436
-0.280200 1.515442 -0.580561
-0.277325 1.511150 -0.578990
-0.273056 1.511099 -0.580676
-0.269261 1.509607 -0.581255
-0.265612 1.507691 -0.581506
-0.259673 1.512220 -0.586774
-0.252453 1.520066 -0.594665
-0.255486 1.499756 -0.580541
-0.253443 1.493618 -0.577464
-0.250582 1.489771 -0.576172
-0.246826 1.488302 -0.576752
-0.242136 1.489185 -0.579201
-0.235617 1.494536 -0.585227
-0.227451 1.503692 -0.594333
-0.221919 1.506134 -0.598112
-0.218358 1.503759 -0.598039
-0.215445 1.499880 -0.596748
-0.211222 1.499071 -0.597936
-0.205947 1.500608 -0.601038
-0.203467 1.495802 -0.598985
-0.200778 1.491537 -0.597360
-0.196416 1.490956 -0.598749
-0.194457 1.485213 -0.595891
-0.190502 1.483763 -0.596564
-0.186200 1.483011 -0.597821
-0.182276 1.481448 -0.598410
-0.179149 1.478270 -0.597653
-0.175777 1.475603 -0.597319
-0.171341 1.475028 -0.598742
-0.168667 1.471017 -0.597273
-0.165172 1.468615 -0.597157
-0.162565 1.464557 -0.595631
-0.160629 1.459313 -0.593082
-0.156980 1.457268 -0.593255
-0.153116 1.455603 -0.593756
-0.149406 1.453651 -0.594012
-0.147336 1.448829 -0.591785
-0.143066 1.447865 -0.592895
-0.138971 1.446569 -0.593724
-0.136730 1.442139 -0.591814
-0.131980 1.441918 -0.593590
-0.129037 1.438694 -0.592730
-0.127235 1.433656 -0.590258
-0.124469 1.430221 -0.589192
-0.120280 1.429052 -0.590140
-0.115067 1.429444 -0.592492
-0.110683 1.428496 -0.593658
-0.106925 1.426572 -0.593953
-0.104408 1.422783 -0.592562
-0.101935 1.418968 -0.591138
-0.098384 1.416760 -0.591168
-0.095177 1.414054 -0.590744
-0.091599 1.411885 -0.590810
-0.087898 1.409884 -0.591033
-0.084313 1.407716 -0.591103
-0.082192 1.403541 -0.589308
-0.076050 1.404844 -0.592613
-0.073380 1.401425 -0.591520
-0.070934 1.397736 -0.590165
-0.067379 1.395524 -0.590195
-0.064307 1.392688 -0.589634
-0.061412 1.389637 -0.588864
-0.058614 1.386481 -0.587990
-0.054691 1.384740 -0.588468
-0.053691 1.379398 -0.585481
-0.048316 1.379433 -0.587672
-0.045223 1.376675 -0.587169
-0.042588 1.373383 -0.586143
-0.039768 1.370329 -0.585342
-0.035810 1.368607 -0.585847
-0.030382 1.368550 -0.588001
-0.025273 1.368079 -0.589765
-0.021376 1.366207 -0.590150
-0.017983 1.363765 -0.589969
-0.014841 1.361050 -0.589514
-0.009831 1.360355 -0.591095
-0.009430 1.354700 -0.587668
-0.005378 1.352970 -0.588206
-0.001309 1.351239 -0.588751
0.003456 1.350209 -0.590021
0.006447 1.347336 -0.589405
0.009590 1.344622 -0.588952
0.014475 1.343648 -0.590307
0.016628 1.339945 -0.588826
0.021057 1.338484 -0.589689
0.023055 1.334656 -0.588067
0.026740 1.332462 -0.588163
0.030102 1.329952 -0.587929
-0.055855 1.239585 -0.495871
-0.057563 1.233405 -0.491261
-0.065457 1.221745 -0.480675
-0.061468 1.220874 -0.481734
-0.061317 1.216594 -0.479081
-0.060461 1.212974 -0.477131
-0.058394 1.210426 -0.476350
-0.056195 1.207998 -0.475700
-0.054641 1.205030 -0.474446
-0.046305 1.207719 -0.479521
-0.041467 1.207419 -0.481288
-0.039247 1.204944 -0.480616
-0.038758 1.201079 -0.478363
-0.038312 1.197213 -0.476094
-0.033744 1.196621 -0.477566
-0.026995 1.197681 -0.480968
-0.023979 1.195793 -0.480992
-0.027998 1.188551 -0.474777
-0.018470 1.191585 -0.480555
-0.015025 1.189979 -0.480932
-0.011362 1.188511 -0.481485
-0.008313 1.186573 -0.481491
-0.001716 1.187160 -0.484534
0.000767 1.184760 -0.484020
0.002302 1.181689 -0.482696
0.008220 1.181660 -0.485074
0.012286 1.180300 -0.485861
0.014883 1.177915 -0.485403
0.023288 1.179400 -0.489748
0.020959 1.173698 -0.485195
0.018050 1.167684 -0.480211
0.023178 1.166926 -0.481809
0.026274 1.164823 -0.481733
0.033883 1.165540 -0.485271
0.038413 1.164255 -0.486295
0.041060 1.161774 -0.485798
0.038903 1.156368 -0.481505
0.046053 1.156594 -0.484547
0.050933 1.155398 -0.485770
0.052860 1.152432 -0.484676
0.050729 1.147123 -0.480456
0.046397 1.140618 -0.474586
0.052817 1.140245 -0.476955
0.066024 1.143571 -0.484416
0.070132 1.141748 -0.484931
0.072459 1.138930 -0.484094
0.075392 1.136429 -0.483705
0.077142 1.133290 -0.482431
0.077828 1.129600 -0.480379
0.086000 1.129766 -0.483800
0.090243 1.127859 -0.484318
0.090789 1.124079 -0.482151
0.092798 1.121041 -0.481048
0.096292 1.118727 -0.481005
0.101973 1.117446 -0.482501
0.107053 1.115839 -0.483548
0.113293 1.114742 -0.485387
0.121351 1.114434 -0.488463
0.125588 1.112333 -0.488855
0.129399 1.110029 -0.488945
0.128749 1.105759 -0.485983
0.128880 1.101882 -0.483585
0.129931 1.098447 -0.481839
0.134782 1.096652 -0.482671
0.136705 1.093637 -0.481544
0.138402 1.090564 -0.480287
0.146412 1.090081 -0.483228
0.154497 1.089599 -0.486199
0.159154 1.087748 -0.486912
0.175242 1.090339 -0.495070
0.185844 1.090734 -0.499613
-0.531309 1.564093 -0.515711
-0.528148 1.572109 -0.522146
-0.524744 1.576482 -0.526338
-0.521028 1.572083 -0.525016
-0.517452 1.575754 -0.528822
-0.513769 1.578289 -0.531940
-0.510002 1.579999 -0.534560
-0.506173 1.582827 -0.537922
-0.502272 1.584917 -0.540838
-0.498294 1.589036 -0.545087
-0.494287 1.588633 -0.546441
-0.490180 1.592296 -0.550447
-0.486024 1.594933 -0.553813
-0.481914 1.593814 -0.554746
-0.477493 1.601665 -0.561568
-0.473251 1.602035 -0.563510
-0.468971 1.602682 -0.565645
-0.464551 1.605622 -0.569310
-0.460074 1.608674 -0.573068
-0.455581 1.611199 -0.576495
-0.451149 1.612171 -0.578899
-0.446870 1.610693 -0.579667
-0.442832 1.606176 -0.578385
-0.438216 1.609100 -0.582118
-0.433917 1.607989 -0.583130
-0.429662 1.606457 -0.583854
-0.425330 1.605800 -0.585173
-0.420998 1.605146 -0.586493
-0.416744 1.603800 -0.587337
-0.412468 1.602723 -0.588364
-0.408138 1.602131 -0.589725
-0.403906 1.600787 -0.590562
-0.399753 1.598925 -0.591036
-0.395409 1.598540 -0.592537
-0.391215 1.597113 -0.593308
-0.387286 1.593994 -0.592886
-0.382607 1.595848 -0.595961
-0.378389 1.594688 -0.596916
-0.374123 1.593854 -0.598099
-0.370679 1.588311 -0.595926
-0.367016 1.584296 -0.594823
-0.362992 1.582431 -0.595248
-0.358795 1.581532 -0.596363
-0.354742 1.579913 -0.596959
-0.350863 1.577480 -0.596962
-0.346668 1.576648 -0.598121
-0.342990 1.573398 -0.597519
-0.338831 1.572458 -0.598596
-0.333976 1.574579 -0.601920
-0.329974 1.572875 -0.602443
-0.326672 1.568264 -0.600818
-0.323040 1.565172 -0.600301
-0.319212 1.562952 -0.600424
-0.315550 1.560133 -0.600095
-0.312184 1.556259 -0.598970
-0.308899 1.552193 -0.597689
-0.305589 1.548344 -0.596558
-0.302520 1.543739 -0.594845
-0.299593 1.538775 -0.592844
-0.296477 1.534607 -0.591431
-0.295439 1.523586 -0.584777
-0.291974 1.520920 -0.584470
-0.289621 1.514721 -0.581445
-0.286377 1.511512 -0.580701
-0.282805 1.509386 -0.580786
-0.279634 1.506061 -0.579938
-0.275707 1.505053 -0.580885
-0.272919 1.500692 -0.579218
-0.268368 1.501489 -0.581577
-0.265652 1.497024 -0.579814
-0.262361 1.494250 -0.579371
-0.259475 1.490410 -0.578079
-0.257265 1.484837 -0.575401
-0.253065 1.484619 -0.576968
-0.248354 1.485667 -0.579555
-0.241306 1.492553 -0.586837
-0.234974 1.497360 -0.592495
-0.229587 1.499629 -0.596140
-0.225452 1.498738 -0.597250
-0.222276 1.495528 -0.596482
-0.218485 1.493800 -0.596915
-0.213123 1.495678 -0.600300
-0.210251 1.491789 -0.598975
-0.206872 1.489090 -0.598618
-0.204183 1.484893 -0.597020
-0.201572 1.480592 -0.595323
-0.197329 1.479838 -0.596566
-0.192804 1.479636 -0.598278
-0.189912 1.475996 -0.597120
-0.186025 1.474431 -0.597699
-0.182719 1.471681 -0.597281
-0.179530 1.468716 -0.596678
-0.177881 1.462769 -0.593535
-0.172204 1.464681 -0.597072
-0.168240 1.463228 -0.597755
-0.166162 1.458224 -0.595391
-0.163656 1.454089 -0.593761
-0.160025 1.452055 -0.593935
-0.156513 1.449801 -0.593920
-0.153703 1.446306 -0.592823
-0.150853 1.442915 -0.591810
-0.147398 1.440599 -0.591732
-0.143202 1.439544 -0.592764
-0.140241 1.436387 -0.591946
-0.138782 1.430768 -0.588938
-0.133577 1.431356 -0.591435
-0.130734 1.428063 -0.590482
-0.126429 1.427125 -0.591635
-0.122650 1.425324 -0.592019
-0.121563 1.419340 -0.588626
-0.116135 1.420094 -0.591320
-0.112062 1.418724 -0.592102
-0.109061 1.415730 -0.591405
-0.104326 1.415310 -0.593065
-0.102686 1.410341 -0.590548
-0.098869 1.408566 -0.590966
-0.094683 1.407301 -0.591861
-0.091738 1.404272 -0.591119
-0.088780 1.401278 -0.590405
-0.085174 1.399188 -0.590535
-0.081582 1.397074 -0.590643
-0.077514 1.395588 -0.591349
-0.075421 1.391480 -0.589569
-0.070904 1.390571 -0.590827
-0.068084 1.387444 -0.589973
-0.065091 1.384558 -0.589343
-0.061835 1.382012 -0.589038
-0.058899 1.379076 -0.588353
-0.053977 1.378588 -0.590047
-0.052012 1.374472 -0.588210
-0.049130 1.371496 -0.587478
-0.046015 1.368809 -0.587026
-0.042965 1.366054 -0.586504
-0.038888 1.364494 -0.587167
-0.035478 1.362153 -0.587058
-0.032695 1.359102 -0.586238
-0.028267 1.357902 -0.587275
-0.023438 1.357117 -0.588741
-0.020284 1.354466 -0.588329
-0.016121 1.352908 -0.589029
-0.015582 1.347466 -0.585763
-0.010096 1.347304 -0.587897
-0.005162 1.346514 -0.589404
-0.002913 1.342920 -0.588019
0.002978 1.343059 -0.590512
0.004925 1.339166 -0.588814
0.006269 1.334704 -0.586504
0.006754 1.329439 -0.583330
0.014139 1.330947 -0.587311
0.018758 1.329704 -0.588400
0.021527 1.326669 -0.587588
0.026861 1.326055 -0.589373
-0.050888 1.243422 -0.504716
-0.050410 1.239174 -0.502191
-0.054103 1.231222 -0.495593
-0.063144 1.218646 -0.483850
-0.061255 1.215904 -0.482866
-0.061558 1.211268 -0.479776
-0.062091 1.206489 -0.476500
-0.062599 1.201788 -0.473285
-0.056851 1.202394 -0.476022
-0.047449 1.205969 -0.482153
-0.043832 1.204663 -0.482797
-0.044890 1.199541 -0.479089
-0.045019 1.195226 -0.476277
-0.041695 1.193694 -0.476656
-0.038132 1.192330 -0.477242
-0.033168 1.192028 -0.479080
-0.035401 1.186163 -0.474417
-0.029766 1.186335 -0.476835
-0.025277 1.185590 -0.478195
-0.020974 1.184666 -0.479367
-0.019229 1.181834 -0.478273
-0.012346 1.182724 -0.481661
-0.010527 1.179914 -0.480611
-0.006112 1.178942 -0.481799
-0.001147 1.178315 -0.483434
0.004522 1.178127 -0.485637
0.003577 1.173368 -0.482212
0.009642 1.173381 -0.484707
0.011158 1.170299 -0.483362
0.012624 1.167191 -0.481980
0.014186 1.164152 -0.480682
0.018061 1.162605 -0.481285
0.025219 1.163109 -0.484544
0.029215 1.161550 -0.485189
0.035173 1.161173 -0.487395
0.035382 1.157216 -0.484959
0.037896 1.154676 -0.484372
0.042865 1.153590 -0.485721
0.048351 1.152761 -0.487445
0.047209 1.148020 -0.483957
0.043971 1.142117 -0.478866
0.042935 1.137537 -0.475524
0.047016 1.135862 -0.476135
0.057157 1.137505 -0.481348
0.064627 1.137569 -0.484459
0.066699 1.134645 -0.483450
0.067447 1.131014 -0.481447
0.069008 1.127825 -0.480059
0.072133 1.125449 -0.479833
0.077967 1.124441 -0.481590
0.086784 1.124882 -0.485496
0.084351 1.119641 -0.481162
0.080324 1.113682 -0.475714
0.089953 1.114408 -0.480136
0.096309 1.113476 -0.482157
0.103030 1.112666 -0.484405
0.110874 1.112322 -0.487412
0.112141 1.108908 -0.485760
0.117130 1.107193 -0.486720
0.123154 1.105917 -0.488384
0.126895 1.103609 -0.488452
0.123118 1.098055 -0.483364
0.125328 1.095145 -0.482418
0.127793 1.092366 -0.481660
0.134812 1.091495 -0.483987
0.136218 1.088310 -0.482533
0.130893 1.082465 -0.476618
0.157395 1.089349 -0.491886
0.150028 1.082776 -0.484666
0.147583 1.078248 -0.480770
0.164232 1.081066 -0.489394
-0.532891 1.570849 -0.524326
-0.529415 1.570569 -0.525568
-0.525859 1.569600 -0.526393
-0.522321 1.571347 -0.528971
-0.518747 1.574923 -0.532750
-0.515067 1.577450 -0.535889
-0.511320 1.580970 -0.539698
-0.507480 1.582779 -0.542432
-0.503575 1.583830 -0.544698
-0.499607 1.586974 -0.548347
-0.495573 1.589465 -0.551598
-0.491460 1.593162 -0.555662
-0.487370 1.592205 -0.556695
-0.483237 1.592168 -0.558341
-0.478851 1.599285 -0.564734
-0.474598 1.600097 -0.566979
-0.470306 1.601077 -0.569347
-0.465812 1.605646 -0.574128
-0.461414 1.607156 -0.576884
-0.456938 1.609425 -0.580163
-0.452623 1.608621 -0.581382
-0.448511 1.604864 -0.580602
-0.444449 1.600869 -0.579646
-0.440026 1.601734 -0.581993
-0.435625 1.602123 -0.584022
-0.431597 1.598377 -0.583215
-0.427087 1.599867 -0.586004
-0.422986 1.597217 -0.585940
-0.418529 1.598013 -0.588257
-0.414308 1.596638 -0.589070
-0.409748 1.598140 -0.591889
-0.405479 1.597169 -0.592985
-0.401288 1.595646 -0.593692
-0.397249 1.593108 -0.593678
-0.392950 1.592535 -0.595047
-0.388872 1.590490 -0.595371
-0.384709 1.589102 -0.596156
-0.380208 1.589862 -0.598473
-0.376141 1.587933 -0.598870
-0.372318 1.584673 -0.598305
-0.368633 1.580807 -0.597291
-0.364525 1.579439 -0.598071
-0.360390 1.578243 -0.598974
-0.357136 1.572577 -0.596618
-0.353553 1.568824 -0.595639
-0.349338 1.568270 -0.596993
-0.345766 1.564691 -0.596123
-0.341017 1.566612 -0.599302
-0.336013 1.569513 -0.603221
-0.332361 1.566368 -0.602667
-0.328949 1.562312 -0.601425
-0.325013 1.560556 -0.601890
-0.321351 1.557725 -0.601546
-0.317734 1.554799 -0.601123
-0.314027 1.552291 -0.601008
-0.310616 1.548731 -0.600091
-0.307096 1.545668 -0.599541
-0.303871 1.541623 -0.598235
-0.300353 1.538721 -0.597789
-0.297467 1.533708 -0.595718
-0.295519 1.525691 -0.591314
-0.292584 1.521192 -0.589597
-0.289164 1.518373 -0.589168
-0.285833 1.515326 -0.588555
-0.283182 1.510225 -0.586332
-0.281567 1.502105 -0.581729
-0.278543 1.498439 -0.580590
-0.276479 1.492034 -0.577284
-0.272620 1.490968 -0.578173
-0.269149 1.488783 -0.578179
-0.265644 1.486709 -0.578270
-0.262535 1.483570 -0.577510
-0.259344 1.480697 -0.576956
-0.254842 1.481314 -0.579201
-0.246787 1.491041 -0.588807
-0.241577 1.493144 -0.592306
-0.236143 1.495674 -0.596174
-0.231936 1.495041 -0.597490
-0.228340 1.492884 -0.597568
-0.224627 1.491014 -0.597880
-0.220766 1.489487 -0.598476
-0.217365 1.486884 -0.598185
-0.214872 1.482237 -0.596199
-0.210255 1.482419 -0.598212
-0.207596 1.478224 -0.596587
-0.204714 1.474575 -0.595408
-0.200504 1.473811 -0.596642
-0.197718 1.470013 -0.595327
-0.193590 1.469044 -0.596395
-0.189854 1.467241 -0.596762
-0.187352 1.462948 -0.595011
-0.183713 1.460972 -0.595227
-0.180139 1.458863 -0.595329
-0.176925 1.456060 -0.594836
-0.174267 1.452219 -0.593441
-0.171706 1.448243 -0.591920
-0.167023 1.448235 -0.593840
-0.163310 1.446400 -0.594178
-0.159609 1.444535 -0.594493
-0.156343 1.441892 -0.594125
-0.153066 1.439277 -0.593779
-0.150104 1.436133 -0.592962
-0.146329 1.434394 -0.593389
-0.143439 1.431159 -0.592483
-0.139959 1.428927 -0.592470
-0.140261 1.420516 -0.586901
-0.134771 1.421605 -0.589864
-0.131685 1.418784 -0.589307
-0.128054 1.416831 -0.589537
-0.124505 1.414747 -0.589649
-0.120748 1.412975 -0.590047
-0.116422 1.412051 -0.591230
-0.112690 1.410207 -0.591572
-0.109490 1.407568 -0.591181
-0.106132 1.405171 -0.591011
-0.103741 1.401386 -0.589545
-0.099576 1.400155 -0.590463
-0.094906 1.399605 -0.592029
-0.092023 1.396539 -0.591232
-0.088986 1.393704 -0.590647
-0.085384 1.391644 -0.590796
-0.085757 1.384277 -0.585875
-0.080117 1.384954 -0.588636
-0.075780 1.383863 -0.589715
-0.071993 1.382037 -0.590093
-0.068551 1.379760 -0.590037
-0.065118 1.377469 -0.589968
-0.063568 1.372843 -0.587613
-0.057471 1.373843 -0.590771
-0.054858 1.370545 -0.589714
-0.052577 1.366872 -0.588276
-0.049262 1.364452 -0.588077
-0.045470 1.362590 -0.588434
-0.043249 1.358903 -0.586964
-0.039477 1.357016 -0.587297
-0.035609 1.355226 -0.587733
-0.032174 1.352938 -0.587668
-0.028714 1.350674 -0.587630
-0.022725 1.351164 -0.590415
-0.024267 1.343473 -0.584806
-0.018867 1.343295 -0.586917
-0.016543 1.339826 -0.585632
-0.012514 1.338154 -0.586211
-0.009125 1.335806 -0.586091
-0.005123 1.334078 -0.586624
-0.001272 1.332179 -0.586985
0.001616 1.329309 -0.586321
0.003817 1.325773 -0.584943
0.007772 1.323961 -0.585404
0.011355 1.321775 -0.585469
0.016558 1.321118 -0.587192
0.025783 1.324193 -0.592986
-0.047677 1.245627 -0.511900
-0.048886 1.239808 -0.507641
-0.049439 1.234656 -0.504085
-0.053740 1.226244 -0.496876
-0.061182 1.215217 -0.486680
-0.063913 1.208470 -0.481196
-0.065084 1.203162 -0.477285
-0.063889 1.199928 -0.475691
-0.057630 1.200959 -0.478943
-0.052877 1.200668 -0.480721
-0.049287 1.199379 -0.481374
-0.048778 1.195572 -0.479128
-0.048539 1.191583 -0.476654
-0.045466 1.189873 -0.476822
-0.041349 1.188965 -0.477940
-0.040171 1.185749 -0.476354
-0.036820 1.184214 -0.476752
-0.032674 1.183259 -0.477853
-0.031060 1.180377 -0.476664
-0.029569 1.177414 -0.475372
-0.020936 1.179675 -0.480405
-0.018205 1.177567 -0.480180
-0.016156 1.174961 -0.479351
-0.016792 1.170464 -0.476191
-0.012642 1.169344 -0.477191
-0.006613 1.169482 -0.479781
-0.001585 1.168873 -0.481475
-0.000218 1.165754 -0.480035
0.001697 1.163009 -0.479064
0.005022 1.161188 -0.479273
0.011313 1.161268 -0.481937
0.015419 1.159880 -0.482749
0.021231 1.159535 -0.484942
0.025321 1.158054 -0.485689
0.027782 1.155531 -0.485092
0.029280 1.152412 -0.483711
0.032818 1.150526 -0.483970
0.039103 1.150247 -0.486404
0.039745 1.146586 -0.484322
0.038873 1.142065 -0.481057
0.041356 1.139502 -0.480445
0.040200 1.134871 -0.476994
0.045202 1.133719 -0.478337
0.051053 1.132987 -0.480303
0.053491 1.130341 -0.479621
0.063314 1.131647 -0.484549
0.066060 1.129093 -0.484055
0.063326 1.123664 -0.479436
0.066788 1.121492 -0.479487
0.069490 1.118913 -0.478960
0.071442 1.115947 -0.477872
0.071480 1.112036 -0.475383
0.076491 1.110580 -0.476538
0.081584 1.109126 -0.477728
0.093149 1.110707 -0.483559
0.099294 1.109632 -0.485429
0.100709 1.106328 -0.483902
0.099301 1.101758 -0.480387
0.104422 1.100173 -0.481504
0.111412 1.099391 -0.483913
0.112328 1.095916 -0.482066
0.112809 1.092289 -0.479939
0.114741 1.089318 -0.478837
0.124291 1.089554 -0.482962
0.129161 1.087805 -0.483863
0.126580 1.083034 -0.479724
0.123018 1.077960 -0.474982
0.138389 1.080448 -0.482967
0.146056 1.079836 -0.485755
0.145868 1.076200 -0.483334
0.144002 1.072004 -0.479853
-0.534306 1.572809 -0.529980
-0.530588 1.566360 -0.527283
-0.527085 1.566640 -0.528910
-0.523560 1.568388 -0.531507
-0.520071 1.574974 -0.537261
-0.516353 1.575455 -0.539100
-0.512600 1.577634 -0.542066
-0.508781 1.580566 -0.545550
-0.504883 1.581365 -0.547665
-0.500926 1.584377 -0.551254
-0.496905 1.586710 -0.554422
-0.492835 1.588172 -0.557037
-0.488679 1.591597 -0.560974
-0.484511 1.592817 -0.563468
-0.480215 1.596928 -0.567910
-0.475961 1.597906 -0.570278
-0.471725 1.597628 -0.571814
-0.467361 1.599779 -0.574996
-0.462923 1.602544 -0.578610
-0.458404 1.605912 -0.582652
-0.454318 1.601595 -0.581476
-0.450200 1.598284 -0.580974
-0.445855 1.598369 -0.582791
-0.441700 1.595949 -0.582889
-0.437394 1.595507 -0.584346
-0.433252 1.593240 -0.584539
-0.429084 1.591422 -0.585038
-0.424829 1.590588 -0.586218
-0.420268 1.592608 -0.589397
-0.416206 1.590002 -0.589337
-0.411837 1.590153 -0.591213
-0.407797 1.587621 -0.591194
-0.403777 1.585122 -0.591190
-0.399371 1.585601 -0.593298
-0.394745 1.587541 -0.596455
-0.390783 1.584813 -0.596279
-0.386735 1.582803 -0.596610
-0.382688 1.580894 -0.597009
-0.377983 1.583045 -0.600339
-0.374082 1.580317 -0.600143
-0.370545 1.575669 -0.598538
-0.366323 1.575014 -0.599834
-0.362202 1.573815 -0.600732
-0.358616 1.569891 -0.599626
-0.355371 1.564451 -0.597387
-0.351455 1.562521 -0.597724
-0.347661 1.560070 -0.597672
-0.344295 1.555740 -0.596213
-0.339294 1.558884 -0.600324
-0.336916 1.550407 -0.595743
-0.332572 1.550635 -0.597674
-0.328920 1.547939 -0.597407
-0.324844 1.547025 -0.598482
-0.319774 1.550014 -0.602524
-0.316569 1.545633 -0.600970
-0.312215 1.545712 -0.602812
-0.310228 1.537028 -0.597940
-0.307130 1.532660 -0.596354
-0.303055 1.531856 -0.597504
-0.299504 1.529224 -0.597243
-0.296554 1.524613 -0.595438
-0.293448 1.520646 -0.594120
-0.289888 1.518250 -0.594019
-0.286401 1.515652 -0.593756
-0.283545 1.511133 -0.591975
-0.280324 1.507839 -0.591147
-0.277031 1.504823 -0.590532
-0.276696 1.493170 -0.583041
-0.274039 1.488579 -0.581133
-0.270579 1.486367 -0.581114
-0.267713 1.482523 -0.579783
-0.266025 1.475536 -0.575907
-0.259442 1.481872 -0.582776
-0.252808 1.488062 -0.589571
-0.247187 1.491351 -0.594049
-0.242221 1.492800 -0.597052
-0.238654 1.490630 -0.597108
-0.235022 1.488629 -0.597302
-0.231386 1.486641 -0.597508
-0.227131 1.486130 -0.598936
-0.223109 1.485025 -0.599878
-0.219914 1.481982 -0.599211
-0.218014 1.476028 -0.596104
-0.214923 1.472862 -0.595314
-0.210931 1.471716 -0.596219
-0.207641 1.469018 -0.595819
-0.204432 1.466167 -0.595284
-0.200642 1.464563 -0.595807
-0.196694 1.463274 -0.596601
-0.194032 1.459332 -0.595128
-0.190661 1.456871 -0.594917
-0.187731 1.453544 -0.593957
-0.184140 1.451546 -0.594141
-0.178963 1.452600 -0.596978
-0.177630 1.446259 -0.593386
-0.174873 1.442705 -0.592206
-0.171289 1.440716 -0.592394
-0.166583 1.440767 -0.594381
-0.163012 1.438718 -0.594524
-0.159117 1.437239 -0.595175
-0.157151 1.432369 -0.592807
-0.156705 1.424951 -0.588144
-0.150794 1.426969 -0.591918
-0.146823 1.425618 -0.592684
-0.144791 1.421034 -0.590532
-0.140818 1.419684 -0.591300
-0.138279 1.415999 -0.589946
-0.133757 1.415508 -0.591504
-0.131228 1.411841 -0.590159
-0.128314 1.408809 -0.589387
-0.124730 1.406823 -0.589579
-0.121301 1.404596 -0.589549
-0.117954 1.402246 -0.589404
-0.111666 1.404230 -0.593314
-0.111599 1.397062 -0.588658
-0.109010 1.393637 -0.587496
-0.104958 1.392317 -0.588318
-0.101189 1.390576 -0.588747
-0.097646 1.388510 -0.588870
-0.092731 1.388313 -0.590785
-0.091002 1.383767 -0.588533
-0.085384 1.384458 -0.591322
-0.083873 1.379671 -0.588822
-0.079996 1.378020 -0.589356
-0.076055 1.376436 -0.589960
-0.075284 1.370811 -0.586607
-0.071440 1.369119 -0.587100
-0.067436 1.367610 -0.587780
-0.064466 1.364817 -0.587191
-0.061337 1.362226 -0.586801
-0.057675 1.360278 -0.587052
-0.052857 1.359688 -0.588672
-0.049942 1.356834 -0.588021
-0.046871 1.354171 -0.587561
-0.043220 1.352177 -0.587778
-0.038820 1.351017 -0.588853
-0.035501 1.348624 -0.588672
-0.033836 1.344411 -0.586614
-0.031009 1.341504 -0.585894
-0.026361 1.340566 -0.587217
-0.023923 1.337245 -0.586065
-0.021033 1.334418 -0.585424
-0.018908 1.330806 -0.583952
-0.014040 1.330037 -0.585478
-0.011581 1.326783 -0.584379
-0.008949 1.323720 -0.583477
-0.003889 1.323078 -0.585168
0.001353 1.322573 -0.587024
0.004040 1.319544 -0.586168
0.007257 1.317034 -0.585873
0.010185 1.314247 -0.585277
0.023768 1.321450 -0.595640
-0.045437 1.246927 -0.518175
-0.045447 1.242164 -0.515066
-0.048459 1.234769 -0.508989
-0.053439 1.225747 -0.501030
-0.052372 1.222169 -0.499143
-0.055018 1.215406 -0.493633
-0.064503 1.202897 -0.481521
-0.062513 1.200321 -0.480675
-0.061566 1.196881 -0.478831
-0.056574 1.196810 -0.480872
-0.051926 1.196409 -0.482554
-0.050498 1.193363 -0.481168
-0.050711 1.189022 -0.478255
-0.048671 1.186505 -0.477471
-0.046187 1.184339 -0.477101
-0.044138 1.181832 -0.476328
-0.039539 1.181272 -0.477890
-0.035924 1.179928 -0.478530
-0.035524 1.176162 -0.476250
-0.031559 1.175053 -0.477191
-0.026337 1.174825 -0.479232
-0.022857 1.173292 -0.479694
-0.023837 1.168563 -0.476213
-0.024903 1.163824 -0.472689
-0.021012 1.162579 -0.473513
-0.012544 1.164443 -0.478277
-0.006769 1.164375 -0.480657
-0.006407 1.160618 -0.478372
-0.003942 1.158278 -0.477890
0.001214 1.157689 -0.479675
0.008737 1.158579 -0.483413
0.012021 1.156673 -0.483559
0.015545 1.154897 -0.483890
0.019286 1.153229 -0.484383
0.021823 1.150791 -0.483872
0.020776 1.146163 -0.480436
0.027275 1.146108 -0.483136
0.030518 1.144051 -0.483170
0.031059 1.140390 -0.481030
0.028825 1.135143 -0.476697
0.031581 1.132802 -0.476345
0.040227 1.133762 -0.480609
0.039942 1.129657 -0.477836
0.042997 1.127413 -0.477674
0.048370 1.126405 -0.479289
0.051432 1.124111 -0.479099
0.061187 1.125328 -0.483998
0.060050 1.120767 -0.480575
0.055519 1.114505 -0.474622
0.062975 1.114403 -0.477702
0.064343 1.111183 -0.476202
0.066060 1.108146 -0.474967
0.071306 1.106827 -0.476330
0.076240 1.105319 -0.477439
0.082368 1.104340 -0.479393
0.096159 1.106882 -0.486852
0.091560 1.100832 -0.481008
0.091118 1.096761 -0.478194
0.093855 1.094152 -0.477665
0.092376 1.089694 -0.474163
0.098922 1.088778 -0.476331
0.102452 1.086535 -0.476370
0.107852 1.085085 -0.477708
0.114719 1.084228 -0.480046
0.119823 1.082621 -0.481156
0.118833 1.078552 -0.478104
0.120057 1.075434 -0.476597
0.126153 1.074272 -0.478407
0.139525 1.075916 -0.485094
0.141979 1.073324 -0.484440
0.163891 1.078078 -0.496730
-0.535311 1.564984 -0.529368
-0.531825 1.563963 -0.530143
-0.528362 1.565160 -0.532375
-0.524827 1.566357 -0.534634
-0.521367 1.573475 -0.540784
-0.517659 1.574306 -0.542865
-0.513885 1.574669 -0.544661
-0.510077 1.577153 -0.547873
-0.506199 1.580082 -0.551408
-0.502249 1.582333 -0.554519
-0.498249 1.582709 -0.556407
-0.494182 1.585248 -0.559753
-0.490016 1.590061 -0.564648
-0.485864 1.590664 -0.566743
-0.481621 1.593268 -0.570201
-0.477351 1.595103 -0.573160
-0.473025 1.597296 -0.576378
-0.468658 1.599428 -0.579572
-0.464426 1.598022 -0.580365
-0.460354 1.593778 -0.579210
-0.456066 1.593591 -0.580834
-0.451700 1.594407 -0.583154
-0.447502 1.592645 -0.583698
-0.443114 1.593427 -0.586005
-0.439047 1.590181 -0.585511
-0.434889 1.588269 -0.585939
-0.430678 1.587057 -0.586854
-0.426586 1.584753 -0.586997
-0.422290 1.584528 -0.588602
-0.417973 1.584465 -0.590324
-0.413873 1.582521 -0.590712
-0.409587 1.582215 -0.592261
-0.405727 1.578605 -0.591448
-0.401676 1.576664 -0.591820
-0.397526 1.575540 -0.592775
-0.393082 1.576465 -0.595209
-0.388769 1.576417 -0.596945
-0.384299 1.577320 -0.599378
-0.380650 1.573120 -0.598093
-0.376435 1.572491 -0.599408
-0.372567 1.569886 -0.599271
-0.368641 1.567719 -0.599451
-0.364277 1.567979 -0.601418
-0.360582 1.564712 -0.600776
-0.357000 1.561028 -0.599811
-0.353242 1.558356 -0.599590
-0.349273 1.556787 -0.600188
-0.346164 1.551285 -0.597828
-0.342474 1.548633 -0.597595
-0.338825 1.545883 -0.597282
-0.335465 1.541989 -0.596092
-0.331373 1.541275 -0.597312
-0.328028 1.537511 -0.596204
-0.323171 1.539853 -0.599765
-0.318898 1.539773 -0.601482
-0.315886 1.534876 -0.599489
-0.313042 1.529519 -0.597123
-0.309186 1.527995 -0.597714
-0.305288 1.526628 -0.598427
-0.301554 1.524688 -0.598693
-0.298258 1.521289 -0.597814
-0.294696 1.518849 -0.597680
-0.291123 1.516485 -0.597601
-0.287660 1.513803 -0.597267
-0.284544 1.510080 -0.596101
-0.281405 1.506509 -0.595046
-0.278013 1.503773 -0.594649
-0.275516 1.498444 -0.592165
-0.272924 1.493520 -0.589990
-0.269359 1.491480 -0.590127
-0.266972 1.486167 -0.587610
-0.264455 1.481335 -0.585465
-0.258193 1.486688 -0.591616
-0.253126 1.488633 -0.595016
-0.248580 1.489097 -0.597220
-0.244157 1.489166 -0.599112
-0.241391 1.485010 -0.597520
-0.237984 1.482513 -0.597294
-0.234266 1.480789 -0.597709
-0.230720 1.478648 -0.597776
-0.225971 1.479339 -0.600218
-0.223317 1.475101 -0.598528
-0.220214 1.471953 -0.597746
-0.217521 1.467924 -0.596211
-0.214841 1.463930 -0.594694
-0.211280 1.461908 -0.594849
-0.207809 1.459692 -0.594838
-0.203224 1.459831 -0.596849
-0.199538 1.458036 -0.597208
-0.197474 1.452915 -0.594690
-0.194418 1.449883 -0.593968
-0.191480 1.446644 -0.593060
-0.187544 1.445390 -0.593881
-0.183608 1.444112 -0.594687
-0.179778 1.442608 -0.595299
-0.178374 1.436538 -0.591880
-0.174599 1.434959 -0.592420
-0.171022 1.433005 -0.592629
-0.167537 1.430881 -0.592688
-0.163749 1.429291 -0.593227
-0.161924 1.424253 -0.590667
-0.159214 1.420822 -0.589539
-0.155764 1.418681 -0.589573
-0.150293 1.419931 -0.592692
-0.147499 1.416656 -0.591703
-0.144768 1.413307 -0.590639
-0.139588 1.413939 -0.593229
-0.137975 1.408818 -0.590526
-0.135273 1.405484 -0.589460
-0.131779 1.403406 -0.589555
-0.128115 1.401585 -0.589892
-0.125381 1.398349 -0.588904
-0.121768 1.396450 -0.589167
-0.118335 1.394278 -0.589175
-0.115501 1.391232 -0.588356
-0.112526 1.388410 -0.587743
-0.108839 1.386610 -0.588103
-0.104806 1.385285 -0.588922
-0.101336 1.383158 -0.588976
-0.098215 1.380552 -0.588568
-0.094205 1.379153 -0.589329
-0.091571 1.375899 -0.588290
-0.087772 1.374203 -0.588767
-0.085857 1.370044 -0.586828
-0.082249 1.368103 -0.587064
-0.078660 1.366130 -0.587270
-0.074092 1.365376 -0.588693
-0.070527 1.363343 -0.588850
-0.068333 1.359627 -0.587322
-0.065087 1.357215 -0.587096
-0.060811 1.356036 -0.588116
-0.057951 1.353158 -0.587421
-0.053718 1.351895 -0.588368
-0.051094 1.348750 -0.587398
-0.047330 1.346924 -0.587777
-0.043234 1.345459 -0.588534
-0.039786 1.343251 -0.588529
-0.037671 1.339573 -0.586995
-0.035847 1.335608 -0.585150
-0.030800 1.335141 -0.586966
-0.026684 1.333641 -0.587710
-0.024350 1.330250 -0.586458
-0.021617 1.327294 -0.585661
-0.018829 1.324406 -0.584933
-0.014494 1.323096 -0.585896
-0.011035 1.320881 -0.585894
-0.008323 1.317920 -0.585087
-0.006787 1.313817 -0.583032
-0.003703 1.311249 -0.582642
0.002290 1.311466 -0.585310
0.004867 1.308389 -0.584371
0.017818 1.315025 -0.594199
-0.047607 1.244182 -0.519996
-0.045324 1.241507 -0.519200
-0.048362 1.234085 -0.513036
-0.052106 1.226156 -0.506242
-0.052632 1.221164 -0.502738
-0.053041 1.216334 -0.499391
-0.053865 1.211207 -0.495672
-0.063109 1.199039 -0.483772
-0.062072 1.195672 -0.481998
-0.059384 1.193692 -0.481833
-0.055170 1.192949 -0.483127
-0.051532 1.191706 -0.483850
-0.055857 1.184093 -0.477023
-0.051633 1.183334 -0.478312
-0.048739 1.181504 -0.478336
-0.046029 1.179520 -0.478182
-0.045259 1.176050 -0.476233
-0.041065 1.175180 -0.477439
-0.035467 1.175317 -0.479900
-0.032299 1.173608 -0.480123
-0.030761 1.170699 -0.478869
-0.029389 1.167679 -0.477473
-0.028969 1.163995 -0.475239
-0.028253 1.160545 -0.473285
-0.025866 1.158274 -0.472812
-0.017552 1.160051 -0.477505
-0.011077 1.160482 -0.480538
-0.008050 1.158534 -0.480550
-0.006176 1.155809 -0.479565
0.000681 1.156333 -0.482824
0.003415 1.154122 -0.482542
0.004592 1.150906 -0.480943
0.006718 1.148297 -0.480144
0.012753 1.148110 -0.482592
0.014243 1.145071 -0.481243
0.017748 1.143257 -0.481553
0.019174 1.140172 -0.480149
0.021150 1.137417 -0.479196
0.020907 1.133364 -0.476451
0.024062 1.131297 -0.476450
0.027080 1.129130 -0.476327
0.029685 1.126712 -0.475863
0.033002 1.124675 -0.475953
0.038862 1.124005 -0.478019
0.044480 1.123145 -0.479858
0.049777 1.122058 -0.481414
0.053583 1.120139 -0.481792
0.055701 1.117317 -0.480862
0.055188 1.113146 -0.477932
0.054727 1.109035 -0.475063
0.058621 1.107124 -0.475486
0.061215 1.104549 -0.474921
0.064802 1.102448 -0.475089
0.070897 1.101524 -0.477094
0.073499 1.098907 -0.476506
0.077075 1.096740 -0.476626
0.084723 1.096421 -0.479687
0.086431 1.093363 -0.478430
0.083569 1.088291 -0.473910
0.085654 1.085461 -0.472960
0.094449 1.085542 -0.476768
0.099718 1.084058 -0.478051
0.102847 1.081661 -0.477825
0.107794 1.080026 -0.478870
0.111769 1.077990 -0.479237
0.113481 1.075055 -0.478051
0.113079 1.071323 -0.475442
0.120898 1.070860 -0.478467
0.127091 1.069749 -0.480374
0.137558 1.070254 -0.485154
0.147991 1.070704 -0.489879
-0.536501 1.561674 -0.531625
-0.533126 1.563096 -0.533996
-0.529655 1.563997 -0.536053
-0.526118 1.565003 -0.538204
-0.522509 1.565841 -0.540269
-0.518964 1.572721 -0.546351
-0.515200 1.573519 -0.548446
-0.511378 1.574285 -0.550541
-0.507521 1.578270 -0.554805
-0.503577 1.579674 -0.557371
-0.499584 1.580211 -0.559376
-0.495512 1.584330 -0.563810
-0.491378 1.587507 -0.567637
-0.487241 1.587699 -0.569465
-0.483004 1.590549 -0.573113
-0.478709 1.593475 -0.576834
-0.474351 1.596620 -0.580727
-0.470109 1.595791 -0.581910
-0.466019 1.591648 -0.580810
-0.461889 1.588820 -0.580607
-0.457591 1.589091 -0.582549
-0.453345 1.588346 -0.583790
-0.449072 1.587931 -0.585262
-0.444855 1.586723 -0.586181
-0.440665 1.585238 -0.586903
-0.436466 1.583957 -0.587767
-0.432424 1.581084 -0.587501
-0.428234 1.579954 -0.588463
-0.423904 1.580218 -0.590418
-0.419705 1.579218 -0.591473
-0.415501 1.578305 -0.592589
-0.411416 1.576458 -0.593032
-0.407572 1.572859 -0.592204
-0.403441 1.571660 -0.593102
-0.399201 1.571297 -0.594606
-0.395324 1.568426 -0.594281
-0.391543 1.565100 -0.593614
-0.387014 1.566733 -0.596577
-0.382879 1.565793 -0.597656
-0.378718 1.565027 -0.598864
-0.374618 1.563913 -0.599814
-0.370446 1.563227 -0.601081
-0.366682 1.560345 -0.600712
-0.362725 1.558600 -0.601185
-0.358822 1.556631 -0.601486
-0.355016 1.554255 -0.601475
-0.351593 1.550133 -0.600139
-0.347976 1.547087 -0.599605
-0.344328 1.544290 -0.599250
-0.340740 1.541324 -0.598759
-0.337252 1.538028 -0.598007
-0.333827 1.534577 -0.597126
-0.330034 1.532740 -0.597479
-0.326788 1.528758 -0.596171
-0.323095 1.526640 -0.596296
-0.320020 1.522222 -0.594627
-0.315472 1.523406 -0.597318
-0.311414 1.522699 -0.598542
-0.307303 1.522156 -0.599899
-0.304144 1.518271 -0.598625
-0.300317 1.516757 -0.599216
-0.296511 1.515176 -0.599753
-0.292916 1.512914 -0.599749
-0.290108 1.508163 -0.597752
-0.287125 1.504088 -0.596282
-0.283448 1.502242 -0.596592
-0.278553 1.504068 -0.599867
-0.277504 1.494403 -0.593853
-0.273745 1.492894 -0.594425
-0.270056 1.491176 -0.594829
-0.266828 1.488172 -0.594181
-0.263727 1.484865 -0.593278
-0.258812 1.486503 -0.596440
-0.254930 1.485284 -0.597260
-0.251081 1.483960 -0.597997
-0.247327 1.482374 -0.598521
-0.244302 1.478943 -0.597505
-0.240424 1.477676 -0.598295
-0.237136 1.474951 -0.597863
-0.233824 1.472311 -0.597499
-0.229623 1.471784 -0.598919
-0.225327 1.471433 -0.600498
-0.224190 1.463827 -0.595904
-0.220810 1.461431 -0.595733
-0.217099 1.459779 -0.596198
-0.214297 1.456140 -0.594955
-0.210537 1.454598 -0.595516
-0.208919 1.448526 -0.592150
-0.205810 1.445670 -0.591560
-0.200965 1.446393 -0.594090
-0.197246 1.444762 -0.594575
-0.193960 1.442258 -0.594294
-0.191607 1.437939 -0.592411
-0.188492 1.435153 -0.591872
-0.184461 1.434131 -0.592896
-0.180897 1.432200 -0.593116
-0.177831 1.429345 -0.592511
-0.174507 1.426979 -0.592341
-0.170281 1.426241 -0.593638
-0.167319 1.423222 -0.592880
-0.164585 1.419829 -0.591776
-0.161864 1.416446 -0.590674
-0.158434 1.414304 -0.590699
-0.155294 1.411672 -0.590275
-0.152694 1.408161 -0.589037
-0.148488 1.407308 -0.590250
-0.144907 1.405412 -0.590504
-0.142423 1.401762 -0.589125
-0.138307 1.400714 -0.590171
-0.135769 1.397191 -0.588900
-0.131873 1.395779 -0.589610
-0.127954 1.394380 -0.590340
-0.124327 1.392527 -0.590642
-0.120870 1.390413 -0.590699
-0.119046 1.385923 -0.588482
-0.116188 1.382974 -0.587730
-0.114124 1.378919 -0.585905
-0.110458 1.377150 -0.586281
-0.106056 1.376387 -0.587640
-0.103285 1.373361 -0.586800
-0.099700 1.371452 -0.587050
-0.096278 1.369317 -0.587080
-0.092976 1.367022 -0.586953
-0.088640 1.366071 -0.588159
-0.085809 1.363157 -0.587420
-0.081003 1.362762 -0.589197
-0.077238 1.361017 -0.589633
-0.076735 1.355224 -0.585991
-0.071355 1.355476 -0.588442
-0.068296 1.352864 -0.588002
-0.065956 1.349400 -0.586691
-0.063466 1.346141 -0.585579
-0.059385 1.344758 -0.586392
-0.055403 1.343238 -0.587072
-0.053402 1.339446 -0.585399
-0.048667 1.338761 -0.586955
-0.045051 1.336794 -0.587183
-0.041279 1.334988 -0.587585
-0.039112 1.331428 -0.586138
-0.035598 1.329339 -0.586243
-0.029726 1.329743 -0.589009
-0.028661 1.325044 -0.586337
-0.025920 1.322133 -0.585567
-0.023916 1.318479 -0.583991
-0.018426 1.318380 -0.586261
-0.016537 1.314625 -0.584569
-0.013531 1.312003 -0.584106
-0.009689 1.310202 -0.584545
-0.006642 1.307616 -0.584125
-0.004704 1.303973 -0.582531
0.001122 1.304026 -0.585048
0.003369 1.300679 -0.583783
-0.071774 1.221366 -0.499095
-0.073291 1.215503 -0.494556
-0.071201 1.212941 -0.493748
-0.060326 1.218132 -0.501832
-0.060940 1.213139 -0.498258
-0.057289 1.211884 -0.498984
-0.054689 1.209711 -0.498653
-0.055655 1.204532 -0.494807
-0.058491 1.197862 -0.489175
-0.061457 1.191183 -0.483481
-0.059218 1.188840 -0.482887
-0.060330 1.183803 -0.479075
-0.059781 1.180148 -0.476890
-0.056916 1.178344 -0.476921
-0.050455 1.179322 -0.480334
-0.051138 1.174737 -0.477008
-0.049252 1.172153 -0.476107
-0.044576 1.171667 -0.477788
-0.037978 1.172560 -0.481207
-0.035158 1.170607 -0.481126
-0.034599 1.167006 -0.478986
-0.032234 1.164721 -0.478492
-0.030900 1.161702 -0.477071
-0.029931 1.158439 -0.475334
-0.025979 1.157254 -0.476249
-0.023196 1.155237 -0.476115
-0.016855 1.155606 -0.479084
-0.009852 1.156343 -0.482581
-0.003640 1.156479 -0.485342
-0.005190 1.151499 -0.481394
-0.004762 1.147843 -0.479172
-0.003432 1.144782 -0.477730
0.002583 1.144664 -0.480243
0.006566 1.143223 -0.481012
0.011958 1.142609 -0.482933
0.014707 1.140345 -0.482630
0.016521 1.137508 -0.481548
0.014368 1.132334 -0.477222
0.016219 1.129546 -0.476190
0.020895 1.128376 -0.477441
0.026141 1.127485 -0.479122
0.028209 1.124764 -0.478232
0.030053 1.121915 -0.477160
0.035160 1.120840 -0.478663
0.040603 1.119897 -0.480399
0.044009 1.117822 -0.480512
0.046626 1.115309 -0.479999
0.050756 1.113567 -0.480645
0.052333 1.110493 -0.479315
0.049652 1.105286 -0.474747
0.052237 1.102750 -0.474207
0.057892 1.101706 -0.475971
0.063444 1.100563 -0.477626
0.069312 1.099525 -0.479488
0.070614 1.096303 -0.477943
0.072929 1.093563 -0.477152
0.079444 1.092738 -0.479432
0.083199 1.090626 -0.479675
0.083578 1.087012 -0.477473
0.089694 1.085933 -0.479411
0.093182 1.083690 -0.479449
0.098099 1.082054 -0.480502
0.100065 1.079175 -0.479462
0.102218 1.076398 -0.478569
0.109509 1.075730 -0.481277
0.105173 1.070393 -0.475896
0.103991 1.066404 -0.472761
0.112112 1.066094 -0.476055
0.118319 1.065026 -0.478021
0.124214 1.063838 -0.479771
0.148098 1.069329 -0.493669
-0.537729 1.559213 -0.534422
-0.534444 1.562500 -0.538039
-0.530976 1.563426 -0.540130
-0.527402 1.563261 -0.541524
-0.523890 1.567342 -0.545759
-0.520282 1.571441 -0.550044
-0.516514 1.571883 -0.551917
-0.512700 1.572900 -0.554194
-0.508852 1.576921 -0.558514
-0.504912 1.578555 -0.561255
-0.500921 1.578676 -0.562991
-0.496874 1.580790 -0.566097
-0.492762 1.583624 -0.569714
-0.488567 1.587513 -0.574078
-0.484339 1.589931 -0.577458
-0.480121 1.590309 -0.579453
-0.475906 1.589844 -0.580875
-0.471815 1.586033 -0.579980
-0.467681 1.583662 -0.580078
-0.463477 1.582818 -0.581237
-0.459214 1.582915 -0.583058
-0.454935 1.583050 -0.584911
-0.450714 1.582168 -0.586052
-0.446514 1.581003 -0.586994
-0.442424 1.578535 -0.587008
-0.438176 1.578111 -0.588472
-0.433942 1.577516 -0.589815
-0.429865 1.575317 -0.590009
-0.425718 1.573977 -0.590815
-0.421558 1.572829 -0.591756
-0.417800 1.568262 -0.590218
-0.413543 1.568207 -0.591942
-0.409271 1.568228 -0.593724
-0.405130 1.567210 -0.594750
-0.401034 1.565913 -0.595570
-0.397312 1.562075 -0.594517
-0.393290 1.560499 -0.595121
-0.389068 1.560280 -0.596726
-0.385089 1.558524 -0.597192
-0.380766 1.558904 -0.599248
-0.376812 1.557081 -0.599661
-0.372997 1.554560 -0.599546
-0.369004 1.553112 -0.600232
-0.364988 1.551822 -0.601035
-0.361013 1.550359 -0.601706
-0.357011 1.549057 -0.602499
-0.353688 1.544527 -0.600826
-0.349966 1.542055 -0.600714
-0.346168 1.540010 -0.600923
-0.342669 1.536696 -0.600150
-0.339103 1.533789 -0.599681
-0.335278 1.532058 -0.600118
-0.332143 1.527534 -0.598378
-0.328692 1.524430 -0.597733
-0.325311 1.521149 -0.596938
-0.322130 1.517196 -0.595608
-0.318277 1.515872 -0.596336
-0.314808 1.513146 -0.595958
-0.310656 1.512911 -0.597550
-0.306518 1.512583 -0.599074
-0.302808 1.510747 -0.599401
-0.298660 1.510389 -0.600911
-0.295166 1.507845 -0.600671
-0.292064 1.504088 -0.599448
-0.289357 1.499176 -0.597279
-0.286224 1.495709 -0.596267
-0.282810 1.493160 -0.595992
-0.279697 1.489752 -0.595013
-0.276431 1.486859 -0.594446
-0.272231 1.486673 -0.596101
-0.269104 1.483427 -0.595240
-0.265872 1.480524 -0.594654
-0.262041 1.479280 -0.595442
-0.257797 1.479113 -0.597132
-0.254413 1.476647 -0.596907
-0.250655 1.475160 -0.597503
-0.246288 1.475196 -0.599384
-0.242928 1.472674 -0.599114
-0.240035 1.469034 -0.597892
-0.236540 1.466891 -0.597935
-0.233679 1.463264 -0.596710
-0.230390 1.460681 -0.596371
-0.226784 1.458841 -0.596668
-0.223221 1.456903 -0.596881
-0.220059 1.454074 -0.596323
-0.217143 1.450735 -0.595318
-0.214001 1.447922 -0.594763
-0.211805 1.443134 -0.592476
-0.208287 1.441178 -0.592660
-0.203285 1.442263 -0.595525
-0.199763 1.440266 -0.595684
-0.198224 1.434321 -0.592339
-0.194663 1.432453 -0.592602
-0.190796 1.431169 -0.593389
-0.186938 1.429845 -0.594145
-0.184294 1.426221 -0.592836
-0.182448 1.421162 -0.590221
-0.177548 1.421758 -0.592715
-0.174189 1.419504 -0.592634
-0.169802 1.419079 -0.594223
-0.169252 1.411893 -0.589624
-0.165068 1.411114 -0.590888
-0.162509 1.407534 -0.589574
-0.159172 1.405299 -0.589497
-0.156183 1.402488 -0.588885
-0.152259 1.401223 -0.589712
-0.148566 1.399561 -0.590174
-0.146367 1.395509 -0.588390
-0.143980 1.391801 -0.586918
-0.139743 1.390999 -0.588191
-0.135721 1.389834 -0.589129
-0.130948 1.389777 -0.591134
-0.127734 1.387339 -0.590869
-0.125764 1.383078 -0.588848
-0.123827 1.378820 -0.586814
-0.120723 1.376288 -0.586441
-0.117557 1.373853 -0.586160
-0.113371 1.372849 -0.587277
-0.109637 1.371191 -0.587762
-0.106449 1.368774 -0.587502
-0.103279 1.366338 -0.587223
-0.100093 1.363927 -0.586968
-0.096209 1.362437 -0.587630
-0.092930 1.360145 -0.587495
-0.088948 1.358755 -0.588267
-0.084176 1.358343 -0.590036
-0.084343 1.351708 -0.585506
-0.079673 1.351156 -0.587137
-0.076239 1.349052 -0.587196
-0.075155 1.344110 -0.584341
-0.070112 1.343951 -0.586396
-0.068707 1.339455 -0.583979
-0.063883 1.338992 -0.585738
-0.060747 1.336542 -0.585438
-0.058089 1.333553 -0.584571
-0.053331 1.332937 -0.586200
-0.049034 1.331770 -0.587261
-0.046257 1.328907 -0.586531
-0.044280 1.325188 -0.584884
-0.042548 1.321239 -0.582976
-0.035693 1.322750 -0.586935
-0.032198 1.320656 -0.587032
-0.030290 1.316910 -0.585338
-0.027308 1.314295 -0.584865
-0.025126 1.310874 -0.583509
-0.022586 1.307833 -0.582561
-0.017820 1.307005 -0.584057
-0.013661 1.305546 -0.584867
-0.011899 1.301751 -0.583081
-0.008444 1.299599 -0.583126
-0.005884 1.296596 -0.582216
-0.004433 1.292569 -0.580142
-0.060173 1.235882 -0.518151
-0.065872 1.226014 -0.509085
-0.076691 1.211709 -0.494842
-0.080528 1.203896 -0.487956
-0.071117 1.207867 -0.494673
-0.066860 1.207215 -0.496073
-0.063342 1.205892 -0.496706
-0.058183 1.205942 -0.498966
-0.055570 1.203799 -0.498662
-0.057401 1.197962 -0.493968
-0.054312 1.196244 -0.494154
-0.057791 1.189183 -0.487932
-0.058705 1.184288 -0.484266
-0.061323 1.178100 -0.479001
-0.058986 1.175886 -0.478533
-0.059106 1.171766 -0.475731
-0.059738 1.167295 -0.472474
-0.061236 1.162217 -0.468438
-0.046775 1.169142 -0.479322
-0.045005 1.166467 -0.478306
-0.042599 1.164262 -0.477881
-0.037321 1.164126 -0.480080
-0.034939 1.161867 -0.479609
-0.033430 1.158987 -0.478348
-0.031110 1.156680 -0.477820
-0.030896 1.152918 -0.475410
-0.025028 1.153031 -0.478036
-0.024984 1.149164 -0.475485
-0.023455 1.146314 -0.474256
-0.015594 1.147624 -0.478548
-0.014388 1.144523 -0.477014
-0.010915 1.142885 -0.477440
-0.008519 1.140540 -0.476929
0.000683 1.142435 -0.482197
-0.001564 1.137154 -0.477716
0.006279 1.138080 -0.481752
0.012119 1.137709 -0.484055
0.011292 1.133314 -0.480785
0.009172 1.128201 -0.476476
0.011717 1.125845 -0.476030
0.016607 1.124817 -0.477487
0.022493 1.124304 -0.479721
0.027731 1.123367 -0.481394
0.030125 1.120817 -0.480757
0.031223 1.117553 -0.479083
0.034526 1.115478 -0.479160
0.035119 1.111950 -0.477092
0.039969 1.110656 -0.478363
0.045750 1.109797 -0.480329
0.045552 1.105852 -0.477641
0.045533 1.102025 -0.475111
0.048397 1.099647 -0.474799
0.053589 1.098389 -0.476246
0.062209 1.098732 -0.480251
0.067049 1.097202 -0.481364
0.068369 1.093998 -0.479832
0.070486 1.091175 -0.478900
0.075071 1.089477 -0.479790
0.078697 1.087326 -0.479961
0.085209 1.086437 -0.482227
0.089043 1.084343 -0.482526
0.084565 1.078695 -0.476837
0.093943 1.078979 -0.481129
0.096638 1.076423 -0.480618
0.097604 1.073179 -0.478894
0.101009 1.070958 -0.478911
0.100273 1.067109 -0.476038
0.099094 1.063154 -0.472900
0.104748 1.061906 -0.474535
0.108432 1.059910 -0.474811
0.115299 1.059129 -0.477279
0.118866 1.057125 -0.477491
-0.539086 1.559382 -0.538957
-0.535698 1.560282 -0.541020
-0.532340 1.563731 -0.544809
-0.528844 1.565969 -0.547823
-0.525244 1.567417 -0.550335
-0.521569 1.568685 -0.552752
-0.517839 1.570481 -0.555548
-0.514024 1.571193 -0.557634
-0.510178 1.574274 -0.561351
-0.506256 1.577374 -0.565108
-0.502265 1.577238 -0.566678
-0.498197 1.583384 -0.572574
-0.494104 1.583225 -0.574166
-0.489930 1.586028 -0.577815
-0.485770 1.585691 -0.579310
-0.481582 1.585553 -0.580951
-0.477474 1.582446 -0.580528
-0.473382 1.579293 -0.580066
-0.469169 1.579218 -0.581759
-0.464954 1.578874 -0.583268
-0.460742 1.578297 -0.584616
-0.456509 1.577955 -0.586133
-0.452317 1.576906 -0.587151
-0.448179 1.575145 -0.587660
-0.443904 1.575237 -0.589493
-0.439674 1.574712 -0.590887
-0.435583 1.572617 -0.591150
-0.431503 1.570597 -0.591462
-0.427465 1.568327 -0.591586
-0.423457 1.565968 -0.591637
-0.419288 1.565198 -0.592843
-0.415163 1.564092 -0.593803
-0.411048 1.562961 -0.594742
-0.406743 1.563335 -0.596791
-0.402779 1.561144 -0.596946
-0.399245 1.556067 -0.594950
-0.395346 1.553802 -0.595030
-0.391175 1.553430 -0.596519
-0.386791 1.554371 -0.598996
-0.382743 1.553179 -0.599876
-0.378745 1.551726 -0.600559
-0.374937 1.549258 -0.600469
-0.370944 1.547906 -0.601222
-0.367089 1.545864 -0.601447
-0.363464 1.542717 -0.600822
-0.359492 1.541429 -0.601614
-0.355745 1.539082 -0.601589
-0.351833 1.537586 -0.602217
-0.347968 1.535903 -0.602698
-0.344426 1.532821 -0.602090
-0.340811 1.530157 -0.601799
-0.337327 1.527027 -0.601137
-0.333858 1.523933 -0.600494
-0.330488 1.520535 -0.599603
-0.327209 1.516885 -0.598503
-0.323829 1.513732 -0.597785
-0.320554 1.510276 -0.596819
-0.318023 1.504197 -0.593748
-0.314914 1.500392 -0.592475
-0.310022 1.502927 -0.596283
-0.307631 1.496738 -0.593083
-0.303707 1.495883 -0.594170
