ply
format ascii 1.0
comment ---
element vertex 1690
property float x
property float y
property float z
element face 0
property list uchar uint vertex_indices
end_header
0.638166 1.368838 -0.355818
-0.370377 1.697668 -0.279685
-0.367328 1.696344 -0.279579
-0.364115 1.695819 -0.279712
-0.360309 1.698689 -0.280766
-0.356790 1.699391 -0.281286
-0.352122 1.706560 -0.283540
-0.348046 1.709690 -0.284770
-0.344110 1.711604 -0.285717
-0.340289 1.712518 -0.286437
-0.336349 1.713764 -0.287281
-0.332127 1.716180 -0.288471
-0.327614 1.719739 -0.290004
-0.323517 1.720794 -0.290908
-0.319382 1.721751 -0.291822
-0.314319 1.726933 -0.293905
-0.310006 1.728117 -0.294955
-0.307084 1.722584 -0.294226
-0.303959 1.718004 -0.293778
-0.298827 1.722345 -0.295776
-0.292566 1.731249 -0.299056
-0.284629 1.746786 -0.304197
-0.279695 1.748961 -0.305728
-0.275349 1.748473 -0.306556
-0.269291 1.754748 -0.309280
-0.262073 1.765218 -0.313207
-0.256537 1.768640 -0.315215
-0.250029 1.775498 -0.318214
-0.244004 1.780174 -0.320637
-0.236063 1.791584 -0.324989
-0.233326 1.783761 -0.323934
-0.228425 1.783752 -0.325100
-0.221739 1.789841 -0.328025
-0.213268 1.801709 -0.332638
-0.208212 1.801642 -0.333849
-0.199509 1.813503 -0.338526
-0.193854 1.815017 -0.340232
-0.187526 1.818549 -0.342540
-0.180795 1.823156 -0.345179
-0.174035 1.827633 -0.347799
-0.165543 1.837148 -0.351926
-0.158770 1.841171 -0.354449
-0.152135 1.844603 -0.356810
-0.144021 1.852140 -0.360414
-0.135865 1.859509 -0.363988
-0.127067 1.868399 -0.368043
-0.118420 1.876546 -0.371897
-0.110552 1.882278 -0.375034
-0.103690 1.885090 -0.377291
-0.096775 1.887904 -0.379555
-0.087080 1.897824 -0.384022
-0.080955 1.898243 -0.385563
-0.071215 1.907747 -0.389936
-0.062156 1.915234 -0.393700
-0.052951 1.922819 -0.397511
-0.045122 1.926803 -0.400203
-0.034835 1.936514 -0.404718
-0.024482 1.946066 -0.409204
-0.016427 1.949947 -0.411899
-0.004195 1.963290 -0.417637
0.002902 1.964556 -0.419516
0.010705 1.967318 -0.421879
0.022577 1.978965 -0.427129
0.030329 1.981244 -0.429353
0.040379 1.988372 -0.433167
0.047722 1.989486 -0.435019
0.059008 1.998820 -0.439582
0.069461 2.006130 -0.443495
0.079928 2.013228 -0.447353
0.087077 2.013353 -0.448901
0.096850 2.018676 -0.452186
0.104663 2.019920 -0.454111
0.114646 2.025322 -0.457439
0.123020 2.027416 -0.459659
0.130359 2.027410 -0.461168
0.140413 2.032476 -0.464404
0.148447 2.033577 -0.466294
0.156607 2.034818 -0.468233
0.163647 2.033913 -0.469434
0.171717 2.034821 -0.471257
0.179599 2.035301 -0.472934
0.186923 2.034713 -0.474237
0.193062 2.031992 -0.474793
0.198090 2.027339 -0.474663
0.202935 2.022400 -0.474421
0.207764 2.017470 -0.474168
0.212990 2.013237 -0.474151
0.217939 2.008565 -0.473966
0.223851 2.005496 -0.474342
0.229138 2.001405 -0.474344
0.233097 1.995198 -0.473576
0.237846 1.990302 -0.473265
0.242421 1.985160 -0.472854
0.246786 1.979726 -0.472325
0.251831 1.975376 -0.472178
0.256703 1.970780 -0.471931
0.260600 1.964734 -0.471142
0.264879 1.959308 -0.470567
0.269450 1.954348 -0.470153
0.274354 1.949902 -0.469917
0.279722 1.946141 -0.469927
0.284556 1.941618 -0.469644
0.288868 1.936371 -0.469081
0.291299 1.928518 -0.467527
0.295305 1.922931 -0.466811
0.298853 1.916752 -0.465857
0.303092 1.911560 -0.465265
0.307030 1.905990 -0.464518
0.314565 1.905251 -0.465604
0.315788 1.896116 -0.463473
0.319713 1.890618 -0.462719
0.323667 1.885189 -0.461981
0.327755 1.879962 -0.461309
0.329940 1.872344 -0.459698
0.334211 1.867422 -0.459120
0.337498 1.861292 -0.458060
0.344893 1.860270 -0.458990
0.345022 1.850319 -0.456407
0.349662 1.845938 -0.456000
0.354325 1.841591 -0.455597
0.358696 1.836905 -0.455051
0.361027 1.829835 -0.453545
0.364642 1.824316 -0.452644
0.367729 1.818216 -0.451499
0.370804 1.812141 -0.450350
0.373741 1.805948 -0.449140
0.377722 1.800963 -0.448406
0.381555 1.795830 -0.447602
0.384798 1.790068 -0.446531
0.388894 1.785263 -0.445838
0.392176 1.779594 -0.444782
0.396926 1.775518 -0.444368
0.400777 1.770489 -0.443553
0.403457 1.764250 -0.442226
0.405454 1.757337 -0.440606
0.409052 1.752120 -0.439676
0.412816 1.747089 -0.438813
0.416557 1.742049 -0.437936
0.418665 1.735390 -0.436367
0.421547 1.729540 -0.435124
0.424996 1.724274 -0.434115
0.428431 1.719010 -0.433096
0.431248 1.713168 -0.431819
0.434448 1.707717 -0.430697
0.438149 1.702757 -0.429773
0.441515 1.697494 -0.428707
0.443586 1.691046 -0.427120
0.446043 1.684988 -0.425686
0.452031 1.682165 -0.425643
0.456889 1.678293 -0.425139
0.460080 1.672922 -0.423973
0.461890 1.666348 -0.422267
0.464308 1.660341 -0.420797
0.468318 1.655738 -0.419933
0.472912 1.651635 -0.419280
0.475159 1.645528 -0.417731
0.477157 1.639239 -0.416087
0.479740 1.633467 -0.414661
0.480816 1.626473 -0.412676
0.483558 1.620883 -0.411307
0.486921 1.615813 -0.410161
0.491526 1.611744 -0.409459
0.494327 1.606231 -0.408096
0.497044 1.600666 -0.406700
0.499680 1.595056 -0.405273
0.504662 1.591269 -0.404671
0.507808 1.586063 -0.403415
0.508959 1.579361 -0.401460
0.512728 1.574655 -0.400418
0.516166 1.569705 -0.399258
0.518135 1.563683 -0.397594
0.520545 1.558009 -0.396085
0.521128 1.551044 -0.393965
0.522312 1.544554 -0.392059
0.525557 1.539555 -0.390848
0.531656 1.536557 -0.390583
0.534229 1.531098 -0.389155
0.537188 1.525924 -0.387862
0.538473 1.519637 -0.386036
0.540689 1.514014 -0.384527
0.542517 1.508165 -0.382909
0.544818 1.502664 -0.381461
0.547156 1.497218 -0.380042
0.551584 1.493149 -0.379298
0.554477 1.488110 -0.378090
0.557767 1.483351 -0.377027
0.558614 1.477095 -0.375237
0.561458 1.472130 -0.374090
0.564617 1.467393 -0.373067
0.567408 1.462467 -0.371963
0.569199 1.456982 -0.370593
0.572491 1.452442 -0.369709
0.577065 1.448691 -0.369239
0.580194 1.444127 -0.368378
0.582714 1.439257 -0.367378
0.584276 1.433895 -0.366143
0.585967 1.428672 -0.364993
0.588587 1.424033 -0.364160
0.590908 1.419285 -0.363289
0.594925 1.415526 -0.362953
0.598409 1.411523 -0.362510
0.609392 1.411593 -0.364240
0.611077 1.406700 -0.363379
0.609000 1.399903 -0.361516
0.610415 1.395034 -0.360693
0.613735 1.391225 -0.360454
0.618170 1.388042 -0.360577
0.624249 1.385739 -0.361202
0.629054 1.382828 -0.361521
0.630629 1.378358 -0.361000
0.633580 1.374640 -0.360909
0.637338 1.371376 -0.361088
0.641853 1.368532 -0.361521
-0.375925 1.690234 -0.280987
-0.372740 1.690157 -0.281202
-0.368956 1.693699 -0.282409
-0.365823 1.692581 -0.282412
-0.362124 1.694745 -0.283320
-0.358076 1.698628 -0.284721
-0.353556 1.704852 -0.286784
-0.349939 1.705232 -0.287324
-0.345867 1.707896 -0.288512
-0.341602 1.711227 -0.289917
-0.337335 1.714149 -0.291250
-0.332949 1.717301 -0.292685
-0.329100 1.717272 -0.293299
-0.324833 1.719114 -0.294455
-0.320510 1.720920 -0.295638
-0.315743 1.724573 -0.297363
-0.311658 1.724603 -0.298135
-0.307688 1.723886 -0.298735
-0.304412 1.719827 -0.298445
-0.299991 1.720858 -0.299585
-0.293588 1.730344 -0.303100
-0.286177 1.743593 -0.307710
-0.279468 1.753195 -0.311356
-0.275122 1.752526 -0.312169
-0.270073 1.754575 -0.313770
-0.265143 1.755933 -0.315204
-0.260288 1.756810 -0.316527
-0.251526 1.772422 -0.322071
-0.243197 1.785715 -0.327006
-0.236475 1.792504 -0.330123
-0.234382 1.782255 -0.328358
-0.229671 1.781540 -0.329344
-0.224399 1.782705 -0.330889
-0.211778 1.808844 -0.339749
-0.207856 1.804794 -0.339824
-0.202766 1.804657 -0.341052
-0.194637 1.814303 -0.345185
-0.188854 1.816072 -0.347007
-0.181562 1.822448 -0.350217
-0.174939 1.826484 -0.352746
-0.166568 1.835630 -0.356831
-0.159361 1.840948 -0.359784
-0.152751 1.844282 -0.362151
-0.143757 1.854353 -0.366586
-0.135847 1.860971 -0.369990
-0.127526 1.868484 -0.373687
-0.120773 1.871377 -0.375976
-0.112447 1.878418 -0.379560
-0.104351 1.884578 -0.382888
-0.097729 1.886608 -0.384936
-0.089019 1.893968 -0.388666
-0.081347 1.898396 -0.391486
-0.072432 1.905798 -0.395259
-0.064048 1.911614 -0.398544
-0.052638 1.924673 -0.404158
-0.046541 1.924403 -0.405524
-0.034824 1.937568 -0.411217
-0.026459 1.942392 -0.414242
-0.017228 1.949056 -0.417873
-0.006446 1.959060 -0.422610
0.001077 1.961336 -0.424836
0.009568 1.965668 -0.427742
0.020218 1.974616 -0.432180
0.031323 1.984277 -0.436874
0.038815 1.985824 -0.438890
0.047841 1.990546 -0.441967
0.054907 1.990958 -0.443607
0.069125 2.006193 -0.450236
0.077586 2.009151 -0.452752
0.087146 2.014206 -0.455984
0.095916 2.017490 -0.458624
0.102534 2.016358 -0.459761
0.112799 2.022341 -0.463332
0.121179 2.024463 -0.465588
0.129877 2.027076 -0.468016
0.136608 2.025838 -0.469114
0.144669 2.027047 -0.471058
0.152564 2.027854 -0.472863
0.162145 2.031656 -0.475719
0.170152 2.032455 -0.477527
0.179449 2.035473 -0.480119
0.186456 2.034302 -0.481234
0.192471 2.031349 -0.481711
0.197409 2.026525 -0.481513
0.202181 2.021450 -0.481212
0.207349 2.017082 -0.481153
0.212403 2.012545 -0.481021
0.217626 2.008311 -0.480988
0.222798 2.004010 -0.480921
0.228358 2.000357 -0.481078
0.233183 1.995529 -0.480798
0.237409 1.989777 -0.480167
0.242382 1.985245 -0.479972
0.247365 1.980749 -0.479780
0.251303 1.974666 -0.478989
0.256604 1.970708 -0.478975
0.260500 1.964640 -0.478164
0.264512 1.958796 -0.477424
0.269379 1.954257 -0.477160
0.274586 1.950233 -0.477081
0.278955 1.945004 -0.476538
0.283432 1.939959 -0.476054
0.287319 1.934107 -0.475251
0.291252 1.928361 -0.474476
0.295343 1.922873 -0.473788
0.300754 1.919233 -0.473798
0.304902 1.913872 -0.473137
0.307607 1.906599 -0.471725
0.311330 1.900751 -0.470851
0.317565 1.898257 -0.471270
0.319045 1.889522 -0.469247
0.323284 1.884453 -0.468641
0.327526 1.879411 -0.468035
0.331376 1.873893 -0.467231
0.334824 1.867901 -0.466228
0.339419 1.863375 -0.465795
0.337854 1.851270 -0.462332
0.344164 1.848933 -0.462747
0.348147 1.843752 -0.462017
0.352562 1.839111 -0.461494
0.357549 1.835160 -0.461240
0.362468 1.831127 -0.460946
0.365500 1.824899 -0.459752
0.367134 1.817104 -0.457906
0.370338 1.811169 -0.456803
0.374316 1.806144 -0.456061
0.378124 1.800946 -0.455237
0.379071 1.792597 -0.453100
0.384543 1.789295 -0.453037
0.387983 1.783768 -0.452042
0.392809 1.779758 -0.451669
0.396413 1.774441 -0.450740
0.400025 1.769154 -0.449813
0.403568 1.763812 -0.448852
0.405585 1.756910 -0.447220
0.408056 1.750524 -0.445791
0.412968 1.746660 -0.445421
0.415534 1.740423 -0.444030
0.418238 1.734360 -0.442700
0.421086 1.728471 -0.441432
0.425164 1.723816 -0.440681
0.428750 1.718687 -0.439717
0.430226 1.711545 -0.437868
0.433502 1.706167 -0.436770
0.438048 1.702002 -0.436190
0.441993 1.697272 -0.435354
0.444881 1.691567 -0.434080
0.446352 1.684588 -0.432232
0.450910 1.680454 -0.431625
0.455350 1.676208 -0.430961
0.458552 1.670852 -0.429794
0.461508 1.665293 -0.428525
0.464930 1.660159 -0.427435
0.468938 1.655541 -0.426565
0.472821 1.650815 -0.425637
0.473881 1.643695 -0.423619
0.477981 1.639175 -0.422763
0.478481 1.631656 -0.420535
0.480520 1.625460 -0.418893
0.482740 1.619439 -0.417319
0.485189 1.613628 -0.415828
0.489248 1.609126 -0.414929
0.493526 1.604793 -0.414100
0.496118 1.599129 -0.412648
0.499101 1.593787 -0.411335
0.502121 1.588484 -0.410032
0.506207 1.584004 -0.409105
0.509832 1.579171 -0.408007
0.512098 1.573326 -0.406426
0.514700 1.567750 -0.404964
0.517508 1.562344 -0.403575
0.520007 1.556727 -0.402079
0.521943 1.550726 -0.400393
0.522946 1.544090 -0.398396
0.525526 1.538605 -0.396944
0.529445 1.534071 -0.395947
0.535011 1.530675 -0.395500
0.536140 1.524231 -0.393577
0.538061 1.518363 -0.391931
0.539270 1.512053 -0.390067
0.542351 1.507024 -0.388828
0.545500 1.502059 -0.387624
0.548928 1.497295 -0.386523
0.549880 1.490958 -0.384648
0.552970 1.486031 -0.383476
0.555413 1.480724 -0.382121
0.558855 1.476073 -0.381102
0.560919 1.470598 -0.379678
0.565606 1.466767 -0.379094
0.566635 1.460741 -0.377411
0.568569 1.455317 -0.376042
0.571057 1.450272 -0.374878
0.575247 1.446270 -0.374264
0.580425 1.442869 -0.373980
0.583144 1.438077 -0.372995
0.583999 1.432277 -0.371500
0.586492 1.427472 -0.370538
0.590200 1.423398 -0.369979
0.594749 1.419832 -0.369709
0.593496 1.413140 -0.367797
0.599989 1.410731 -0.368186
0.606262 1.408224 -0.368551
0.612872 1.405919 -0.369055
0.610614 1.398988 -0.367071
0.609756 1.392897 -0.365549
0.611073 1.388024 -0.364704
0.615753 1.384940 -0.364862
0.619367 1.381365 -0.364769
0.627136 1.379920 -0.365890
0.629760 1.375947 -0.365617
0.630430 1.371081 -0.364852
0.636038 1.368697 -0.365512
0.639739 1.365433 -0.365689
0.641232 1.361170 -0.365304
-0.380831 1.686742 -0.283297
-0.377667 1.686806 -0.283547
-0.374121 1.689132 -0.284436
-0.370562 1.691095 -0.285262
-0.366943 1.693033 -0.286114
-0.363603 1.692798 -0.286414
-0.359703 1.695704 -0.287598
-0.355259 1.701444 -0.289586
-0.351104 1.704920 -0.291001
-0.347170 1.706672 -0.291985
-0.342967 1.709568 -0.293318
-0.338620 1.712842 -0.294795
-0.335144 1.711040 -0.294919
-0.330329 1.716064 -0.296952
-0.326173 1.717244 -0.297968
-0.321667 1.719877 -0.299422
-0.317223 1.721864 -0.300735
-0.312758 1.723647 -0.302028
-0.308875 1.722415 -0.302515
-0.304953 1.721214 -0.303039
-0.301792 1.716459 -0.302593
-0.294007 1.732037 -0.307900
-0.289597 1.732282 -0.308926
-0.277900 1.763080 -0.318661
-0.272432 1.766755 -0.320753
-0.269177 1.761172 -0.320226
-0.265699 1.756549 -0.319985
-0.261316 1.755499 -0.320785
-0.253745 1.766549 -0.325111
-0.246662 1.775240 -0.328794
-0.241824 1.775242 -0.329976
-0.236441 1.777105 -0.331719
-0.230845 1.779560 -0.333655
-0.225617 1.780555 -0.335178
-0.213038 1.806590 -0.344161
-0.207621 1.807549 -0.345732
-0.202733 1.806651 -0.346756
-0.195614 1.812956 -0.349956
-0.189604 1.815435 -0.352022
-0.183026 1.819553 -0.354598
-0.176040 1.824729 -0.357512
-0.168691 1.830776 -0.360711
-0.160090 1.840320 -0.365005
-0.154143 1.841687 -0.366798
-0.144697 1.853096 -0.371716
-0.138323 1.855331 -0.373803
-0.129807 1.863461 -0.377743
-0.121818 1.869833 -0.381151
-0.113702 1.876308 -0.384609
-0.103591 1.887901 -0.389706
-0.097905 1.887382 -0.390973
-0.087187 1.899963 -0.396429
-0.081227 1.899885 -0.397849
-0.072870 1.905839 -0.401212
-0.065245 1.909741 -0.403923
-0.055710 1.918195 -0.408123
-0.046333 1.925981 -0.412125
-0.037153 1.933026 -0.415901
-0.025523 1.945632 -0.421523
-0.018397 1.947320 -0.423566
-0.009298 1.953457 -0.427087
-0.001053 1.957433 -0.429900
0.008801 1.964865 -0.433877
0.017056 1.968500 -0.436595
0.028456 1.978873 -0.441591
0.038317 1.985595 -0.445376
0.046868 1.989292 -0.448147
0.054191 1.990245 -0.449989
0.067980 2.004587 -0.456413
0.075560 2.005733 -0.458339
0.083998 2.008534 -0.460835
0.094398 2.015144 -0.464654
0.101378 2.014740 -0.466052
0.109674 2.016864 -0.468328
0.120535 2.023843 -0.472306
0.127575 2.023269 -0.473647
0.136025 2.025311 -0.475908
0.141775 2.022181 -0.476342
0.151552 2.026506 -0.479415
0.159150 2.026676 -0.481016
0.171533 2.035432 -0.485687
0.180381 2.037595 -0.488014
0.186421 2.034667 -0.488513
0.191861 2.030683 -0.488621
0.197187 2.026516 -0.488653
0.201614 2.020829 -0.488121
0.207622 2.017868 -0.488570
0.212272 2.012622 -0.488174
0.216932 2.007433 -0.487787
0.222483 2.003743 -0.487940
0.227637 1.999413 -0.487847
0.232448 1.994548 -0.487546
0.236971 1.989257 -0.487074
0.241565 1.984113 -0.486646
0.246210 1.979083 -0.486247
0.251952 1.975768 -0.486484
0.255494 1.969099 -0.485446
0.260123 1.964132 -0.485038
0.264287 1.958498 -0.484365
0.268854 1.953497 -0.483922
0.273449 1.948566 -0.483495
0.277789 1.943291 -0.482925
0.281431 1.937049 -0.481970
0.285839 1.931942 -0.481442
0.290616 1.927380 -0.481114
0.295444 1.922903 -0.480809
0.299820 1.917821 -0.480260
0.303741 1.912144 -0.479466
0.307482 1.906262 -0.478580
0.311530 1.900829 -0.477859
0.315968 1.895943 -0.477343
0.320045 1.890606 -0.476638
0.323650 1.884684 -0.475689
0.327280 1.878836 -0.474757
0.330344 1.872306 -0.473539
0.334042 1.866624 -0.472648
0.338346 1.861730 -0.472064
0.339531 1.853011 -0.469920
0.342358 1.846388 -0.468609
0.347134 1.842170 -0.468264
0.351732 1.837744 -0.467826
0.356825 1.833912 -0.467624
0.362149 1.830348 -0.467524
0.366118 1.825198 -0.466764
0.367710 1.817334 -0.464868
0.370248 1.810620 -0.463432
0.373974 1.805297 -0.462562
0.377740 1.800042 -0.461709
0.382887 1.796338 -0.461497
0.385481 1.789825 -0.460095
0.389465 1.784866 -0.459335
0.392530 1.778933 -0.458152
0.395387 1.772811 -0.456876
0.399210 1.767744 -0.456037
0.402794 1.762443 -0.455087
0.406242 1.757021 -0.454075
0.407805 1.749685 -0.452225
0.410062 1.743114 -0.450689
0.414267 1.738545 -0.450007
0.417881 1.733392 -0.449061
0.420962 1.727726 -0.447881
0.423786 1.721834 -0.446589
0.426901 1.716253 -0.445420
0.429177 1.709888 -0.443894
0.432818 1.704857 -0.442943
0.437672 1.700980 -0.442494
0.441989 1.696590 -0.441809
0.445369 1.691332 -0.440727
0.446567 1.684092 -0.438746
0.450695 1.679558 -0.437964
0.454605 1.674827 -0.437084
0.457456 1.669158 -0.435770
0.461237 1.664327 -0.434825
0.465140 1.659608 -0.433919
0.468251 1.654204 -0.432692
0.471171 1.648652 -0.431385
0.475474 1.644287 -0.430613
0.477946 1.638380 -0.429120
0.478935 1.631262 -0.427055
0.481076 1.625139 -0.425435
0.482657 1.618586 -0.423602
0.486235 1.613680 -0.422524
0.489199 1.608286 -0.421210
0.492621 1.603266 -0.420060
0.495540 1.597858 -0.418718
0.497295 1.591557 -0.416945
0.500363 1.586297 -0.415653
0.503088 1.580784 -0.414232
0.508092 1.577005 -0.413631
0.511383 1.571927 -0.412404
0.514391 1.566647 -0.411073
0.517431 1.561401 -0.409751
0.518219 1.554536 -0.407638
0.520709 1.548934 -0.406128
0.522688 1.542989 -0.404445
0.525522 1.537670 -0.403061
0.528778 1.532662 -0.401826
0.532439 1.527941 -0.400731
0.536559 1.523539 -0.399792
0.538153 1.517432 -0.398009
0.539760 1.511371 -0.396244
0.542600 1.506161 -0.394903
0.546136 1.501426 -0.393802
0.548693 1.496073 -0.392393
0.549831 1.489837 -0.390540
0.548609 1.482152 -0.387952
0.555073 1.479372 -0.387860
0.557843 1.474280 -0.386600
0.561008 1.469463 -0.385489
0.564462 1.464850 -0.384493
0.567581 1.460063 -0.383419
0.566915 1.453054 -0.381200
0.569321 1.447940 -0.379974
0.573816 1.444092 -0.379425
0.578325 1.440276 -0.378911
0.584989 1.437720 -0.379084
0.583576 1.430592 -0.376850
0.587220 1.426399 -0.376190
0.591934 1.422842 -0.375890
0.591807 1.416659 -0.374195
0.599552 1.414844 -0.374880
0.599224 1.408688 -0.373229
0.603265 1.404952 -0.372914
0.607168 1.401191 -0.372606
0.610702 1.397286 -0.372241
0.613089 1.392843 -0.371595
0.616498 1.388992 -0.371297
0.615931 1.383179 -0.369911
0.615515 1.377540 -0.368629
0.633232 1.381025 -0.372564
0.627328 1.372782 -0.369825
0.629927 1.368840 -0.369558
0.632976 1.365182 -0.369470
0.635036 1.361112 -0.369153
0.639380 1.358197 -0.369528
-0.382635 1.682797 -0.285692
-0.379085 1.685537 -0.286699
-0.375539 1.687777 -0.287604
-0.371790 1.690926 -0.288791
-0.368213 1.692463 -0.289572
-0.364690 1.693255 -0.290184
-0.361253 1.693161 -0.290587
-0.357034 1.697493 -0.292243
-0.352513 1.703108 -0.294294
-0.347688 1.709915 -0.296716
-0.344095 1.709167 -0.297088
-0.340384 1.708827 -0.297609
-0.336315 1.710161 -0.298630
-0.332191 1.711458 -0.299679
-0.327174 1.717040 -0.301964
-0.322990 1.717942 -0.302978
-0.318016 1.722458 -0.305046
-0.313939 1.722247 -0.305818
-0.309702 1.722583 -0.306777
-0.306129 1.719655 -0.306838
-0.302543 1.716716 -0.306919
-0.296039 1.726595 -0.310698
-0.290000 1.733887 -0.313781
-0.278251 1.764881 -0.323754
-0.272230 1.770733 -0.326528
-0.269345 1.763458 -0.325517
-0.265799 1.758962 -0.325322
-0.260265 1.762281 -0.327432
-0.255653 1.761822 -0.328455
-0.250278 1.764136 -0.330315
-0.244274 1.768575 -0.332828
-0.237873 1.774194 -0.335719
-0.231875 1.778078 -0.338117
-0.224558 1.786343 -0.341856
-0.212590 1.810184 -0.350338
-0.210092 1.801200 -0.348920
-0.203368 1.806443 -0.351826
-0.196535 1.811793 -0.354787
-0.190207 1.815274 -0.357192
-0.184200 1.817566 -0.359244
-0.177410 1.822145 -0.362015
-0.170182 1.827844 -0.365152
-0.162184 1.835611 -0.368954
-0.152633 1.847654 -0.374124
-0.146090 1.850531 -0.376431
-0.139315 1.853930 -0.378912
-0.130527 1.862833 -0.383156
-0.124181 1.864645 -0.385154
-0.116269 1.870626 -0.388496
-0.104281 1.887347 -0.395318
-0.098241 1.887755 -0.396897
-0.090691 1.892044 -0.399738
-0.081563 1.900221 -0.403859
-0.074637 1.902523 -0.406072
-0.065312 1.910716 -0.410228
-0.059625 1.909642 -0.411339
-0.046882 1.925734 -0.418144
-0.037298 1.933743 -0.422295
-0.028003 1.940796 -0.426143
-0.019632 1.945446 -0.429200
-0.010832 1.950905 -0.432538
-0.000894 1.958758 -0.436699
0.011650 1.972211 -0.442782
0.021096 1.978383 -0.446411
0.026880 1.976310 -0.447229
0.036995 1.983603 -0.451259
0.047314 1.991087 -0.455373
0.055410 1.993633 -0.457791
0.065786 2.000808 -0.461824
0.074065 2.003423 -0.464280
0.082604 2.006441 -0.466883
0.092894 2.012840 -0.470680
0.099989 2.012674 -0.472174
0.107522 2.013306 -0.473948
0.118664 2.020856 -0.478183
0.125244 2.019416 -0.479227
0.131205 2.016766 -0.479832
0.142553 2.024202 -0.484055
0.150282 2.024694 -0.485791
0.163759 2.035630 -0.491310
0.173092 2.038745 -0.494014
0.179608 2.036676 -0.494834
0.185751 2.033920 -0.495398
0.191512 2.030485 -0.495704
0.196592 2.025871 -0.495568
0.202329 2.022410 -0.495846
0.207515 2.018018 -0.495770
0.211970 2.012424 -0.495236
0.216322 2.006704 -0.494641
0.221349 2.002139 -0.494465
0.227058 1.998704 -0.494704
0.232053 1.994121 -0.494502
0.236174 1.988173 -0.493772
0.240285 1.982261 -0.493042
0.245437 1.978015 -0.492933
0.249891 1.972708 -0.492410
0.254889 1.968266 -0.492207
0.259281 1.962928 -0.491648
0.263512 1.957383 -0.490999
0.267770 1.951918 -0.490368
0.272390 1.947017 -0.489945
0.276138 1.940879 -0.489029
0.279916 1.934835 -0.488135
0.284096 1.929406 -0.487471
0.289414 1.925606 -0.487438
0.294361 1.921292 -0.487194
0.298497 1.915874 -0.486503
0.302199 1.909898 -0.485579
0.306560 1.904852 -0.485014
0.311166 1.900156 -0.484580
0.314218 1.893427 -0.483317
0.318726 1.888656 -0.482831
0.323322 1.884017 -0.482389
0.326223 1.877220 -0.481061
0.328701 1.869944 -0.479523
0.332329 1.864176 -0.478586
0.335634 1.858044 -0.477487
0.338641 1.851586 -0.476241
0.342801 1.846583 -0.475583
0.346298 1.840798 -0.474591
0.351697 1.837325 -0.474548
0.356753 1.833434 -0.474325
0.360501 1.828005 -0.473452
0.363078 1.821242 -0.472006
0.366464 1.815462 -0.470961
0.369693 1.809535 -0.469841
0.373151 1.803902 -0.468833
0.378085 1.799949 -0.468529
0.381931 1.794786 -0.467701
0.385873 1.789748 -0.466915
0.389026 1.783869 -0.465759
0.392429 1.778293 -0.464720
0.396358 1.773302 -0.463922
0.399913 1.767930 -0.462950
0.401361 1.760377 -0.461015
0.405334 1.755502 -0.460234
0.412209 1.753613 -0.460751
0.408846 1.741279 -0.456673
0.412625 1.736283 -0.455802
0.416463 1.731358 -0.454951
0.419302 1.725458 -0.453658
0.423063 1.720488 -0.452766
0.425632 1.714375 -0.451352
0.429454 1.709496 -0.450478
0.433508 1.704845 -0.449697
0.437928 1.700543 -0.449064
0.442320 1.696211 -0.448408
0.443834 1.689219 -0.446535
0.446619 1.683436 -0.445197
0.449591 1.677845 -0.443933
0.453996 1.673560 -0.443257
0.456686 1.667745 -0.441868
0.461061 1.663436 -0.441162
0.464260 1.658096 -0.439969
0.466492 1.651933 -0.438383
0.470119 1.646992 -0.437353
0.474288 1.642515 -0.436529
0.477459 1.637195 -0.435302
0.478757 1.630333 -0.433336
0.482463 1.625492 -0.432311
0.485114 1.619792 -0.430869
0.486005 1.612691 -0.428749
0.489824 1.607974 -0.427751
0.493478 1.603126 -0.426681
0.494546 1.596253 -0.424630
0.497334 1.590755 -0.423227
0.499226 1.584582 -0.421488
0.502688 1.579630 -0.420330
0.507005 1.575325 -0.419479
0.510544 1.570431 -0.418336
0.512471 1.564350 -0.416603
0.515026 1.558754 -0.415100
0.519706 1.554711 -0.414355
0.519728 1.547321 -0.411949
0.522276 1.541775 -0.410448
0.525675 1.536844 -0.409247
0.528568 1.531567 -0.407870
0.532958 1.527334 -0.407013
0.535845 1.522073 -0.405639
0.537500 1.515999 -0.403851
0.540829 1.511074 -0.402642
0.544397 1.506319 -0.401521
0.546367 1.500530 -0.399873
0.548571 1.494927 -0.398319
0.550403 1.489116 -0.396660
0.550843 1.482462 -0.394565
0.552858 1.476853 -0.393011
0.558652 1.473626 -0.392703
0.561253 1.468430 -0.391379
0.564299 1.463541 -0.390223
0.565562 1.457610 -0.388527
0.566342 1.451448 -0.386714
0.569539 1.446773 -0.385699
0.574672 1.443262 -0.385319
0.579055 1.439334 -0.384734
0.581655 1.434414 -0.383632
0.584220 1.429525 -0.382561
0.587526 1.425102 -0.381758
0.591945 1.421342 -0.381335
0.596939 1.417932 -0.381127
0.596155 1.411420 -0.379225
0.598943 1.406921 -0.378450
0.601890 1.402567 -0.377772
0.604549 1.398119 -0.377059
0.608360 1.394334 -0.376738
0.613980 1.391535 -0.376997
0.616652 1.387264 -0.376442
0.618058 1.382419 -0.375572
0.633104 1.384486 -0.378713
0.620600 1.372829 -0.373923
0.627616 1.370976 -0.374837
0.629062 1.366439 -0.374197
0.630469 1.361960 -0.373601
0.633004 1.358096 -0.373380
0.634313 1.353720 -0.372862
0.652734 1.357448 -0.377251
-0.387690 1.677704 -0.287513
-0.384069 1.681425 -0.288797
-0.380631 1.683288 -0.289601
-0.377036 1.685796 -0.290618
-0.373191 1.689523 -0.292008
-0.369514 1.691619 -0.292980
-0.365974 1.692401 -0.293624
-0.362310 1.693600 -0.294420
-0.358367 1.696123 -0.295621
-0.354280 1.699081 -0.296983
-0.348860 1.709341 -0.300435
-0.345260 1.708500 -0.300812
-0.341661 1.707409 -0.301153
-0.337485 1.709219 -0.302348
-0.333559 1.709360 -0.303108
-0.327354 1.721022 -0.307182
-0.322860 1.723277 -0.308625
-0.318868 1.722720 -0.309299
-0.315032 1.721212 -0.309731
-0.310256 1.724005 -0.311433
-0.306621 1.721202 -0.311550
-0.303287 1.716969 -0.311276
-0.297997 1.721401 -0.313546
-0.291075 1.732559 -0.317820
-0.279568 1.762567 -0.327683
-0.274836 1.763027 -0.328923
-0.272737 1.752591 -0.326960
-0.268148 1.752388 -0.328036
-0.259422 1.768272 -0.333934
-0.254790 1.767702 -0.334955
-0.250273 1.766606 -0.335833
-0.244828 1.768884 -0.337743
-0.236912 1.779947 -0.342340
-0.229928 1.787196 -0.345815
-0.218256 1.810500 -0.354238
-0.213601 1.808781 -0.355033
-0.210697 1.801128 -0.353998
-0.204451 1.804753 -0.356451
-0.197708 1.809809 -0.359365
-0.191400 1.813231 -0.361786
-0.184924 1.817003 -0.364331
-0.178861 1.819310 -0.366426
-0.170225 1.829329 -0.370976
-0.162885 1.835081 -0.374196
-0.156338 1.838250 -0.376607
-0.147769 1.847146 -0.380866
-0.140488 1.852023 -0.383853
-0.132939 1.857452 -0.387032
-0.125114 1.863431 -0.390404
-0.114862 1.875816 -0.395883
-0.106089 1.883797 -0.399950
-0.098852 1.887414 -0.402599
-0.090710 1.893244 -0.405987
-0.083141 1.897374 -0.408824
-0.074104 1.905067 -0.412858
-0.064772 1.913233 -0.417068
-0.058252 1.914165 -0.418865
-0.049084 1.921474 -0.422814
-0.036347 1.937117 -0.429605
-0.028971 1.939560 -0.431943
-0.019837 1.945998 -0.435649
-0.014317 1.943859 -0.436427
-0.000939 1.959639 -0.443367
0.006383 1.961319 -0.445472
0.013486 1.962412 -0.447375
0.028455 1.980675 -0.455258
0.034250 1.978541 -0.456055
0.040664 1.977723 -0.457306
0.055408 1.994464 -0.464738
0.062399 1.994551 -0.466323
0.070646 1.997159 -0.468800
0.078844 1.999541 -0.471202
0.090215 2.008185 -0.475847
0.097684 2.008800 -0.477632
0.104662 2.008367 -0.479039
0.112156 2.008880 -0.480785
0.121916 2.013660 -0.484080
0.130720 2.016447 -0.486660
0.142766 2.025178 -0.491419
0.150885 2.026363 -0.493432
0.162644 2.034118 -0.497866
0.171224 2.035867 -0.500102
0.178417 2.035022 -0.501380
0.184552 2.032248 -0.501940
0.190291 2.028768 -0.502228
0.196019 2.025275 -0.502503
0.201626 2.021575 -0.502692
0.207009 2.017503 -0.502731
0.211683 2.012258 -0.502317
0.215652 2.005883 -0.501461
0.220912 2.001685 -0.501420
0.226520 1.998069 -0.501591
0.231385 1.993262 -0.501297
0.235421 1.987165 -0.500496
0.239383 1.981007 -0.499657
0.244315 1.976409 -0.499409
0.249361 1.972008 -0.499227
0.254359 1.967550 -0.499014
0.258905 1.962429 -0.498532
0.262400 1.955770 -0.497435
0.266174 1.949585 -0.496509
0.270944 1.944904 -0.496165
0.275398 1.939788 -0.495638
0.278702 1.933054 -0.494457
0.283085 1.927909 -0.493896
0.288423 1.924130 -0.493871
0.293322 1.919742 -0.493596
0.297304 1.914107 -0.492808
0.301001 1.908120 -0.491866
0.305596 1.903386 -0.491420
0.309802 1.898150 -0.490761
0.313192 1.891866 -0.489663
0.316879 1.886017 -0.488729
0.321036 1.880815 -0.488051
0.324661 1.874956 -0.487090
0.329109 1.870180 -0.486566
0.332418 1.863989 -0.485445
0.334332 1.856109 -0.483605
0.337946 1.850399 -0.482657
0.342899 1.846354 -0.482396
0.347628 1.842039 -0.482014
0.351221 1.836374 -0.481054
0.356375 1.832588 -0.480879
0.361867 1.829193 -0.480864
0.362782 1.820470 -0.478569
0.365178 1.813540 -0.477022
0.368396 1.807601 -0.475885
0.372602 1.802812 -0.475232
0.376637 1.797844 -0.474492
0.380595 1.792807 -0.473712
0.383881 1.787051 -0.472609
0.387484 1.781670 -0.471658
0.391083 1.776306 -0.470703
0.393985 1.770223 -0.469421
0.396801 1.764084 -0.468101
0.400687 1.759099 -0.467278
0.403468 1.752985 -0.465944
0.407534 1.748222 -0.465198
0.409412 1.741247 -0.463454
0.412474 1.735514 -0.462250
0.415116 1.729388 -0.460858
0.419029 1.724550 -0.460033
0.422518 1.719307 -0.459015
0.426415 1.714474 -0.458172
0.430439 1.709772 -0.457379
0.435060 1.705641 -0.456838
0.438605 1.700492 -0.455821
0.441030 1.694313 -0.454319
0.444109 1.688769 -0.453096
0.446029 1.682184 -0.451379
0.449610 1.677141 -0.450364
0.452563 1.671546 -0.449080
0.457637 1.667851 -0.448674
0.460663 1.662339 -0.447407
0.463910 1.657036 -0.446227
0.465424 1.650250 -0.444335
0.469984 1.646108 -0.443681
0.474314 1.641759 -0.442921
0.475019 1.634367 -0.440699
0.478122 1.629015 -0.439438
0.481698 1.624064 -0.438358
0.483614 1.617765 -0.436618
0.485073 1.611129 -0.434701
0.489015 1.606509 -0.433748
0.492383 1.601432 -0.432565
0.494226 1.595168 -0.430792
0.497243 1.589842 -0.429466
0.500791 1.584932 -0.428336
0.503978 1.579751 -0.427063
0.507248 1.574640 -0.425816
0.510059 1.569192 -0.424395
0.510046 1.561677 -0.421932
0.516596 1.559004 -0.421879
0.520317 1.554245 -0.420780
0.521314 1.547539 -0.418694
0.522717 1.541160 -0.416762
0.525989 1.536124 -0.415502
0.529620 1.531345 -0.414370
0.530686 1.524808 -0.412335
0.533424 1.519447 -0.410896
0.537369 1.514915 -0.409881
0.541035 1.510199 -0.408771
0.544703 1.505491 -0.407667
0.546101 1.499310 -0.405797
0.547975 1.493477 -0.404104
0.549810 1.487653 -0.402417
0.552560 1.482444 -0.401053
0.556927 1.478273 -0.400242
0.557938 1.472032 -0.398340
0.561774 1.467573 -0.397390
0.564669 1.462562 -0.396153
0.565695 1.456462 -0.394338
0.566089 1.450043 -0.392356
0.569821 1.445654 -0.391477
0.575112 1.442200 -0.391122
0.578835 1.437854 -0.390299
0.580791 1.432537 -0.388955
0.584345 1.428176 -0.388152
0.587967 1.423894 -0.387408
0.593389 1.420647 -0.387260
0.595820 1.415789 -0.386232
0.598190 1.410957 -0.385233
0.598686 1.405183 -0.383715
0.600879 1.400393 -0.382766
0.603537 1.395913 -0.382010
0.606630 1.391722 -0.381436
0.612815 1.389181 -0.381836
0.615349 1.384809 -0.381197
0.616861 1.379989 -0.380310
0.619517 1.375818 -0.379817
0.621774 1.371517 -0.379261
0.625684 1.368096 -0.379243
0.626081 1.363027 -0.378253
0.628934 1.359226 -0.378033
0.630488 1.354871 -0.377490
0.634439 1.351723 -0.377692
0.650309 1.354200 -0.381375
0.650832 1.349522 -0.380681
-0.392272 1.675774 -0.290187
-0.389131 1.676271 -0.290578
-0.385615 1.679140 -0.291666
-0.382207 1.680727 -0.292428
-0.378489 1.684036 -0.293709
-0.374767 1.686854 -0.294887
-0.371062 1.689073 -0.295934
-0.367511 1.689845 -0.296608
-0.363643 1.692254 -0.297782
-0.359463 1.696140 -0.299413
-0.355466 1.698427 -0.300630
-0.351195 1.701903 -0.302225
-0.346752 1.705902 -0.304010
-0.342769 1.706864 -0.304967
-0.338362 1.709811 -0.306531
-0.333798 1.713196 -0.308261
-0.328625 1.719339 -0.310829
-0.324218 1.721068 -0.312162
-0.320010 1.721501 -0.313153
-0.315480 1.723261 -0.314566
-0.311198 1.723555 -0.315583
-0.307325 1.721745 -0.316011
-0.303595 1.719173 -0.316238
-0.298835 1.721119 -0.317826
-0.292732 1.728661 -0.321109
-0.282828 1.751932 -0.329131
-0.277577 1.754688 -0.331078
-0.274885 1.746727 -0.329828
-0.270251 1.746741 -0.330988
-0.256975 1.780585 -0.342437
-0.252278 1.779952 -0.343478
-0.248097 1.777289 -0.343912
-0.241562 1.783348 -0.347034
-0.235633 1.786884 -0.349405
-0.228779 1.793504 -0.352753
-0.222517 1.797723 -0.355382
-0.217939 1.795915 -0.356144
-0.212709 1.796301 -0.357599
-0.204895 1.805190 -0.361744
-0.199048 1.807279 -0.363763
-0.191806 1.813715 -0.367177
-0.185762 1.816091 -0.369313
-0.179039 1.820434 -0.372090
-0.171001 1.828597 -0.376113
-0.163669 1.834315 -0.379368
-0.156771 1.838515 -0.382145
-0.148769 1.845741 -0.385923
-0.141522 1.850526 -0.388919
-0.132940 1.858881 -0.393104
-0.126365 1.861349 -0.395363
-0.116607 1.872407 -0.400480
-0.108818 1.877774 -0.403728
-0.100595 1.884086 -0.407305
-0.090813 1.894246 -0.412190
-0.083972 1.896469 -0.414422
-0.074484 1.905313 -0.418901
-0.065134 1.913511 -0.423181
-0.058531 1.914627 -0.425061
-0.050340 1.919536 -0.428242
-0.039095 1.931609 -0.433901
-0.030481 1.937052 -0.437297
-0.021312 1.943595 -0.441086
-0.014929 1.943464 -0.442564
-0.002427 1.957246 -0.448907
0.005396 1.960071 -0.451435
0.012611 1.961411 -0.453445
0.024237 1.972342 -0.458850
0.031888 1.974319 -0.461100
0.039406 1.975900 -0.463212
0.054742 1.993910 -0.471207
0.061628 1.993766 -0.472725
0.070103 1.996837 -0.475400
0.078918 2.000464 -0.478283
0.089001 2.006490 -0.482044
0.096570 2.007304 -0.483921
0.098617 1.997179 -0.481795
0.106937 1.999409 -0.484178
0.121013 2.012567 -0.490594
0.133255 2.021871 -0.495618
0.139482 2.019612 -0.496374
0.149998 2.025284 -0.500078
0.157191 2.024665 -0.501445
0.168738 2.031878 -0.505749
0.176527 2.032124 -0.507449
0.183460 2.030774 -0.508547
0.188942 2.026839 -0.508662
0.194481 2.023016 -0.508809
0.200722 2.020404 -0.509410
0.205996 2.016137 -0.509371
0.210668 2.010880 -0.508942
0.215887 2.006569 -0.508864
0.221133 2.002318 -0.508801
0.226008 1.997483 -0.508500
0.230484 1.992035 -0.507951
0.235080 1.986818 -0.507478
0.239542 1.981425 -0.506925
0.244221 1.976407 -0.506508
0.249527 1.972383 -0.506473
0.254299 1.967554 -0.506111
0.259471 1.963353 -0.505987
0.262598 1.956113 -0.504643
0.264661 1.947377 -0.502684
0.269987 1.943509 -0.502659
0.274733 1.938806 -0.502292
0.278650 1.932937 -0.501442
0.282957 1.927663 -0.500823
0.287944 1.923372 -0.500592
0.292189 1.918063 -0.499938
0.296502 1.912877 -0.499323
0.300122 1.906777 -0.498322
0.304798 1.902143 -0.497914
0.308971 1.896854 -0.497225
0.312416 1.890634 -0.496139
0.315716 1.884270 -0.494980
0.319434 1.878496 -0.494054
0.323911 1.873731 -0.493540
0.329095 1.869879 -0.493401
0.334109 1.865811 -0.493165
0.333370 1.854594 -0.489891
0.337882 1.849984 -0.489400
0.342455 1.845460 -0.488937
0.347927 1.842031 -0.488935
0.350171 1.834732 -0.487266
0.355314 1.830929 -0.487087
0.359586 1.826100 -0.486458
0.362849 1.820115 -0.485318
0.364453 1.812259 -0.483351
0.367651 1.806290 -0.482191
0.371052 1.800587 -0.481134
0.373352 1.793684 -0.479539
0.377233 1.788584 -0.478722
0.381650 1.784089 -0.478164
0.385445 1.778925 -0.477300
0.389398 1.773951 -0.476511
0.390939 1.766424 -0.474570
0.393519 1.760055 -0.473131
0.398134 1.755852 -0.472653
0.402866 1.751769 -0.472222
0.405766 1.745807 -0.470931
0.409519 1.740741 -0.470035
0.412755 1.735171 -0.468899
0.415566 1.729201 -0.467567
0.418367 1.723251 -0.466232
0.421927 1.718073 -0.465240
0.425594 1.713014 -0.464290
0.430669 1.709315 -0.463962
0.436365 1.706191 -0.463895
0.436580 1.697892 -0.461407
0.440012 1.692659 -0.460334
0.442388 1.686467 -0.458799
0.446004 1.681439 -0.457800
0.449559 1.676365 -0.456767
0.453646 1.671777 -0.455956
0.457526 1.667005 -0.455047
0.460151 1.661133 -0.453603
0.462739 1.655253 -0.452142
0.466175 1.650127 -0.451030
0.470227 1.645535 -0.450165
0.473960 1.640672 -0.449161
0.475353 1.633853 -0.447196
0.477766 1.627919 -0.445646
0.479699 1.621615 -0.443902
0.481742 1.615429 -0.442202
0.484197 1.609602 -0.440666
0.487427 1.604414 -0.439432
0.492618 1.600780 -0.438960
0.495203 1.595088 -0.437459
0.497524 1.589208 -0.435852
0.501513 1.584626 -0.434884
0.504727 1.579451 -0.433611
0.507057 1.573619 -0.431998
0.510162 1.568384 -0.430676
0.513766 1.563523 -0.429536
0.516986 1.558383 -0.428247
0.520697 1.553604 -0.427136
0.523269 1.548011 -0.425602
0.522687 1.540205 -0.422919
0.525865 1.535092 -0.421614
0.530290 1.530851 -0.420756
0.530127 1.523456 -0.418254
0.533127 1.518263 -0.416892
0.536537 1.513358 -0.415677
0.539605 1.508235 -0.414346
0.543167 1.503450 -0.413192
0.545837 1.498091 -0.411735
0.547400 1.492042 -0.409909
0.549042 1.486081 -0.408127
0.552205 1.481118 -0.406880
0.555264 1.476109 -0.405611
0.557665 1.470716 -0.404140
0.560981 1.465916 -0.402994
0.564238 1.461104 -0.401848
0.565096 1.454881 -0.399938
0.565241 1.448294 -0.397829
0.569998 1.444481 -0.397255
0.574080 1.440291 -0.396488
0.574686 1.434130 -0.394635
0.580183 1.430818 -0.394385
0.583126 1.426083 -0.393353
0.588652 1.422832 -0.393176
0.592540 1.418698 -0.392518
0.596630 1.414714 -0.391964
0.598480 1.409561 -0.390758
0.600749 1.404700 -0.389732
0.602761 1.399767 -0.388679
0.603785 1.394384 -0.387376
0.609537 1.391532 -0.387569
0.612060 1.387055 -0.386828
0.614582 1.382645 -0.386142
0.620904 1.380212 -0.386650
0.623233 1.375823 -0.386011
0.625069 1.371261 -0.385281
0.628378 1.367494 -0.385045
0.627354 1.361695 -0.383580
0.627247 1.356437 -0.382447
0.632119 1.353633 -0.382835
0.635872 1.350352 -0.382945
0.644310 1.349308 -0.384474
0.647402 1.345816 -0.384486
-0.393346 1.677255 -0.294068
-0.390218 1.677474 -0.294410
-0.387095 1.677263 -0.294663
-0.383562 1.679668 -0.295693
-0.379931 1.682274 -0.296816
-0.376197 1.685091 -0.298035
-0.372633 1.686273 -0.298824
-0.369012 1.687430 -0.299642
-0.364949 1.691002 -0.301191
-0.360427 1.696921 -0.303457
-0.356389 1.699301 -0.304744
-0.351888 1.703986 -0.306738
-0.347904 1.705172 -0.307759
-0.343937 1.705920 -0.308691
-0.339668 1.708013 -0.310052
-0.334940 1.712198 -0.312064
-0.330379 1.715066 -0.313731
-0.325878 1.717250 -0.315235
-0.321262 1.719686 -0.316850
-0.316705 1.721499 -0.318317
-0.312238 1.722600 -0.319606
-0.308357 1.720726 -0.320037
-0.304503 1.718632 -0.320425
-0.300196 1.718474 -0.321418
-0.294590 1.723833 -0.324103
-0.283817 1.750910 -0.333418
-0.278040 1.755812 -0.336060
-0.276223 1.744135 -0.333661
-0.271595 1.744100 -0.334829
-0.257217 1.782365 -0.347836
-0.251528 1.785461 -0.350057
-0.246883 1.784373 -0.350998
-0.241985 1.784173 -0.352227
-0.236537 1.785890 -0.354069
-0.232100 1.783842 -0.354739
-0.227677 1.781736 -0.355394
-0.219076 1.794049 -0.360636
-0.213479 1.795671 -0.362504
-0.206048 1.803275 -0.366301
-0.200228 1.805277 -0.368319
-0.192419 1.813549 -0.372375
-0.186631 1.815087 -0.374268
-0.179826 1.819681 -0.377166
-0.170741 1.831044 -0.382295
-0.164245 1.834189 -0.384753
-0.157230 1.838719 -0.387677
-0.149324 1.845649 -0.391410
-0.141958 1.850763 -0.394556
-0.135146 1.854099 -0.397120
-0.126960 1.861107 -0.400927
-0.118263 1.869254 -0.405135
-0.109666 1.876837 -0.409173
-0.102301 1.880867 -0.412020
-0.095190 1.884062 -0.414591
-0.084895 1.895344 -0.419942
-0.076972 1.900208 -0.423111
-0.068015 1.907481 -0.427124
-0.058078 1.916926 -0.431907
-0.050690 1.919829 -0.434433
-0.040348 1.929716 -0.439409
-0.031120 1.936633 -0.443365
-0.022364 1.942201 -0.446861
-0.014716 1.944999 -0.449388
-0.004535 1.953453 -0.453931
0.005392 1.961058 -0.458190
0.014006 1.965482 -0.461328
0.022754 1.970028 -0.464520
0.031058 1.973434 -0.467310
0.041949 1.982236 -0.472062
0.053603 1.992370 -0.477319
0.060741 1.992754 -0.479044
0.070682 1.998849 -0.482860
0.081182 2.005870 -0.487030
0.089627 2.008515 -0.489604
0.093446 2.001822 -0.488725
0.094225 1.989242 -0.485640
0.103752 1.993894 -0.488947
0.124468 2.019858 -0.500243
0.132635 2.021326 -0.502407
0.141259 2.023548 -0.504858
0.148954 2.023925 -0.506616
0.155787 2.022641 -0.507745
0.165088 2.025788 -0.510560
0.175122 2.030104 -0.513830
0.182302 2.029193 -0.515107
0.188110 2.025824 -0.515435
0.193075 2.020994 -0.515192
0.198788 2.017477 -0.515445
0.205123 2.015018 -0.516102
0.210217 2.010456 -0.515934
0.215386 2.006042 -0.515812
0.220698 2.001884 -0.515782
0.224994 1.996089 -0.515097
0.229712 1.991021 -0.514686
0.234648 1.986331 -0.514414
0.239258 1.981152 -0.513936
0.243736 1.975802 -0.513380
0.248394 1.970763 -0.512936
0.254134 1.967402 -0.513157
0.258155 1.961445 -0.512324
0.259655 1.951777 -0.509974
0.265538 1.948698 -0.510280
0.269657 1.943031 -0.509525
0.274387 1.938287 -0.509136
0.278716 1.932990 -0.508511
0.283087 1.927784 -0.507912
0.287560 1.922749 -0.507374
0.292391 1.918236 -0.507042
0.295056 1.910764 -0.505470
0.299542 1.905840 -0.504946
0.303730 1.900536 -0.504253
0.307868 1.895195 -0.503535
0.311701 1.889480 -0.502647
0.315617 1.883912 -0.501811
0.319148 1.877879 -0.500765
0.322979 1.872271 -0.499889
0.327965 1.868161 -0.499642
0.333910 1.865257 -0.499905
0.338094 1.860144 -0.499214
0.337419 1.849076 -0.495941
0.343386 1.846237 -0.496207
0.346757 1.840244 -0.495099
0.349254 1.833247 -0.493540
0.352752 1.827490 -0.492509
0.357764 1.823542 -0.492260
0.361718 1.818363 -0.491463
0.364120 1.811423 -0.489877
0.366798 1.804852 -0.488439
0.371476 1.800583 -0.488011
0.372165 1.791863 -0.485588
0.376855 1.787656 -0.485167
0.378543 1.780164 -0.483261
0.384459 1.777319 -0.483435
0.387994 1.771892 -0.482437
0.386627 1.761274 -0.479069
0.391437 1.757287 -0.478696
0.396673 1.753741 -0.478518
0.400663 1.748893 -0.477738
0.403265 1.742635 -0.476299
0.407770 1.738344 -0.475754
0.411040 1.732814 -0.474627
0.414668 1.727662 -0.473665
0.417496 1.721738 -0.472331
0.420950 1.716455 -0.471284
0.423378 1.710196 -0.469768
0.428463 1.706516 -0.469453
0.432439 1.701772 -0.468628
0.435991 1.696634 -0.467608
0.437952 1.690030 -0.465878
0.439389 1.682982 -0.463921
0.446625 1.681274 -0.464506
0.449736 1.675784 -0.463273
0.453200 1.670627 -0.462189
0.456609 1.665434 -0.461076
0.459024 1.659378 -0.459532
0.461475 1.653381 -0.458004
0.465569 1.648823 -0.457166
0.469575 1.644190 -0.456282
0.473290 1.639308 -0.455267
0.476866 1.634314 -0.454187
0.477055 1.626519 -0.451707
0.479708 1.620805 -0.450244
0.481782 1.614637 -0.448542
0.484520 1.609031 -0.447107
0.489196 1.604984 -0.446444
0.493286 1.600460 -0.445535
0.495338 1.594338 -0.443809
0.497909 1.588644 -0.442287
0.501888 1.584042 -0.441311
0.505018 1.578793 -0.439997
0.506466 1.572290 -0.438029
0.510043 1.567400 -0.436879
0.513720 1.562585 -0.435761
0.517267 1.557675 -0.434586
0.520574 1.552592 -0.433316
0.521871 1.546082 -0.431292
0.523067 1.539534 -0.429237
0.525045 1.533569 -0.427478
0.529218 1.529145 -0.426524
0.534048 1.525167 -0.425804
0.535191 1.518675 -0.423748
0.534489 1.510984 -0.421041
0.538213 1.506296 -0.419931
0.541838 1.501545 -0.418788
0.545118 1.496577 -0.417527
0.547014 1.490730 -0.415790
0.548386 1.484583 -0.413886
0.551149 1.479352 -0.412481
0.554241 1.474349 -0.411202
0.556431 1.468812 -0.409632
0.560180 1.464260 -0.408610
0.563733 1.459607 -0.407539
0.563586 1.452763 -0.405253
0.566784 1.447968 -0.404113
0.570456 1.443480 -0.403156
0.572507 1.438080 -0.401695
0.575004 1.432984 -0.400413
0.577478 1.427921 -0.399161
0.583111 1.424679 -0.398963
0.584964 1.419352 -0.397585
0.590981 1.416373 -0.397576
0.595615 1.412657 -0.397163
0.598862 1.408228 -0.396352
0.600473 1.402978 -0.395074
0.604675 1.399165 -0.394657
0.607881 1.394877 -0.393978
0.610262 1.390220 -0.393094
0.611800 1.385199 -0.392005
0.616641 1.381927 -0.391984
0.620141 1.378028 -0.391603
0.622872 1.373806 -0.391042
0.626945 1.370310 -0.390942
0.629172 1.365973 -0.390338
0.633383 1.362663 -0.390386
0.636512 1.358892 -0.390162
0.636701 1.353797 -0.389114
0.640135 1.350312 -0.389090
0.642307 1.346303 -0.388744
0.644360 1.342311 -0.388416
0.642485 1.336604 -0.386981
-0.397710 1.676954 -0.297201
-0.394528 1.677865 -0.297740
-0.391485 1.677259 -0.297874
-0.388296 1.677387 -0.298252
-0.384418 1.682194 -0.300015
-0.381440 1.679939 -0.299772
-0.377449 1.684479 -0.301533
-0.373826 1.685930 -0.302435
-0.370045 1.688000 -0.303555
-0.366413 1.688673 -0.304306
-0.361621 1.696223 -0.307105
-0.357292 1.700254 -0.308919
-0.353673 1.699562 -0.309387
-0.348943 1.705041 -0.311709
-0.344962 1.705728 -0.312659
-0.340886 1.706632 -0.313710
-0.335828 1.712511 -0.316277
-0.331584 1.713589 -0.317457
-0.327256 1.714805 -0.318712
-0.322551 1.717621 -0.320484
-0.317866 1.720000 -0.322159
-0.313354 1.721244 -0.323527
-0.309128 1.720898 -0.324442
-0.305436 1.717940 -0.324587
-0.300923 1.718622 -0.325864
-0.295626 1.722553 -0.328165
-0.274974 1.771755 -0.345667
-0.268401 1.779202 -0.349206
-0.263259 1.780459 -0.350848
-0.258280 1.780902 -0.352255
-0.253452 1.780632 -0.353454
-0.248554 1.780537 -0.354721
-0.245883 1.772054 -0.353335
-0.241004 1.771870 -0.354584
-0.233996 1.779253 -0.358267
-0.227444 1.784679 -0.361349
-0.219742 1.793815 -0.365651
-0.213822 1.796500 -0.367891
-0.207248 1.801206 -0.370802
-0.201090 1.804322 -0.373210
-0.194271 1.809402 -0.376275
-0.187536 1.813985 -0.379193
-0.181202 1.817108 -0.381641
-0.173510 1.824236 -0.385432
-0.165256 1.832773 -0.389715
-0.158230 1.837339 -0.392689
-0.149824 1.845739 -0.396968
-0.143793 1.846996 -0.398850
-0.135210 1.855387 -0.403160
-0.127455 1.861163 -0.406599
-0.120159 1.865451 -0.409543
-0.110359 1.876338 -0.414768
-0.103101 1.880074 -0.417548
-0.094708 1.886634 -0.421317
-0.086711 1.891927 -0.424660
-0.076824 1.901837 -0.429631
-0.069178 1.905780 -0.432529
-0.058655 1.916694 -0.437895
-0.051698 1.918532 -0.440074
-0.040453 1.930609 -0.445894
-0.032705 1.933980 -0.448639
-0.024254 1.938855 -0.451928
-0.013050 1.949923 -0.457456
-0.003567 1.956708 -0.461465
0.005817 1.963032 -0.465322
0.013715 1.965821 -0.467909
0.023340 1.972279 -0.471840
0.030641 1.973463 -0.473854
0.040184 1.979362 -0.477603
0.051250 1.988277 -0.482481
0.060736 1.993603 -0.486050
0.067343 1.992786 -0.487348
0.079698 2.003652 -0.493003
0.086934 2.003869 -0.494697
0.092074 1.999839 -0.494793
0.092295 1.986157 -0.491234
0.103556 1.994200 -0.495867
0.121128 2.014112 -0.505032
0.129856 2.016695 -0.507640
0.139655 2.021156 -0.510975
0.147711 2.022209 -0.513012
0.154713 2.021234 -0.514271
0.162929 2.022409 -0.516359
0.172063 2.025130 -0.519052
0.181297 2.027893 -0.521769
0.187519 2.025241 -0.522378
0.192998 2.021284 -0.522469
0.198596 2.017545 -0.522637
0.204819 2.014871 -0.523217
0.209558 2.009692 -0.522799
0.214234 2.004445 -0.522341
0.219107 1.999559 -0.522016
0.224172 1.995014 -0.521817
0.229152 1.990355 -0.521562
0.234348 1.986060 -0.521443
0.238992 1.980915 -0.520972
0.242286 1.973700 -0.519650
0.247752 1.969905 -0.519704
0.252893 1.965617 -0.519549
0.256934 1.959685 -0.518712
0.259764 1.951994 -0.517138
0.264351 1.946978 -0.516651
0.269705 1.943108 -0.516629
0.273685 1.937257 -0.515776
0.278639 1.932841 -0.515510
0.282948 1.927526 -0.514859
0.287808 1.923012 -0.514535
0.291719 1.917198 -0.513654
0.295364 1.911059 -0.512623
0.298811 1.904697 -0.511486
0.303268 1.899745 -0.510935
0.307101 1.893983 -0.510029
0.311006 1.888354 -0.509168
0.314914 1.882764 -0.508313
0.319159 1.877643 -0.507649
0.323008 1.872038 -0.506766
0.325968 1.865342 -0.505398
0.332131 1.862717 -0.505790
0.337541 1.859132 -0.505759
0.339972 1.851874 -0.504112
0.342645 1.844974 -0.502607
0.345257 1.838058 -0.501079
0.348044 1.831408 -0.499654
0.352027 1.826223 -0.498866
0.356518 1.821655 -0.498345
0.361654 1.817846 -0.498154
0.365434 1.812474 -0.497255
0.368531 1.806351 -0.496008
0.368599 1.796854 -0.493221
0.372242 1.791449 -0.492269
0.374069 1.784062 -0.490403
0.379138 1.780285 -0.490169
0.383572 1.775814 -0.489611
0.387966 1.771304 -0.489027
0.386699 1.760784 -0.485662
0.390501 1.755721 -0.484796
0.394818 1.751212 -0.484177
0.398007 1.745542 -0.483010
0.401133 1.739837 -0.481813
0.404945 1.734853 -0.480943
0.410056 1.731185 -0.480683
0.409329 1.721703 -0.477669
0.415892 1.719496 -0.478080
0.419941 1.714797 -0.477305
0.425274 1.711343 -0.477115
0.427003 1.704426 -0.475260
0.433123 1.701714 -0.475411
0.436149 1.696067 -0.474143
0.439236 1.690499 -0.472901
0.444454 1.686912 -0.472609
0.446386 1.680313 -0.470843
0.448520 1.673934 -0.469170
0.452275 1.669041 -0.468210
0.456098 1.664213 -0.467272
0.457034 1.656857 -0.465076
0.460371 1.651639 -0.463922
0.464964 1.647512 -0.463299
0.468807 1.642735 -0.462345
0.472618 1.637933 -0.461368
0.477088 1.633683 -0.460659
0.476576 1.625303 -0.457860
0.479178 1.619542 -0.456365
0.483405 1.615119 -0.455537
0.487074 1.610241 -0.454469
0.490778 1.605392 -0.453406
0.493558 1.599815 -0.451961
0.494963 1.593181 -0.449960
0.498332 1.588098 -0.448746
0.502969 1.583989 -0.448027
0.505616 1.578358 -0.446511
0.507228 1.571966 -0.444587
0.509355 1.565987 -0.442866
0.514208 1.562032 -0.442198
0.518517 1.557662 -0.441307
0.519629 1.550982 -0.439188
