ply
format ascii 1.0
comment ---
element vertex 1676
property float x
property float y
property float z
element face 0
property list uchar uint vertex_indices
end_header
-0.047240 0.914501 -0.500244
-0.042277 0.911772 -0.498804
-0.037355 0.911953 -0.498898
-0.032426 0.915550 -0.500795
-0.027406 0.926976 -0.506820
-0.022321 0.933766 -0.510401
-0.017218 0.937541 -0.512393
-0.012165 0.937314 -0.512275
-0.007098 0.937716 -0.512489
-0.002039 0.937716 -0.512492
0.003031 0.938008 -0.512650
0.008050 0.937050 -0.512148
0.011707 0.908502 -0.497100
0.016590 0.908067 -0.496875
0.021481 0.907837 -0.496760
0.026393 0.907961 -0.496832
0.031350 0.908682 -0.497220
0.036508 0.911958 -0.498955
0.041510 0.912862 -0.499440
0.046585 0.914476 -0.500301
0.051738 0.916743 -0.501506
0.056674 0.916503 -0.501391
0.061786 0.917995 -0.502189
0.067038 0.920626 -0.503589
0.072114 0.921424 -0.504024
0.077155 0.921828 -0.504251
0.082194 0.922169 -0.504447
0.087251 0.922587 -0.504683
0.092533 0.924639 -0.505784
0.097629 0.925174 -0.506084
0.102805 0.926194 -0.506642
0.108178 0.928437 -0.507846
0.113340 0.929134 -0.508236
0.118416 0.929219 -0.508304
0.123810 0.931190 -0.509369
0.128882 0.931127 -0.509361
0.134118 0.931962 -0.509829
0.139338 0.932633 -0.510212
0.144716 0.934078 -0.511005
0.150091 0.935391 -0.511730
0.155215 0.935332 -0.511732
0.160365 0.935367 -0.511785
0.165900 0.937209 -0.512794
0.170937 0.936596 -0.512509
0.176114 0.936610 -0.512557
0.181685 0.938334 -0.513510
0.187105 0.939284 -0.514055
0.192295 0.939173 -0.514043
0.197497 0.939069 -0.514036
0.202758 0.939167 -0.514138
0.208107 0.939565 -0.514400
0.213658 0.940684 -0.515046
0.218988 0.940869 -0.515201
0.232738 0.972393 -0.531919
0.242195 0.986911 -0.539656
0.248051 0.987906 -0.540248
0.263073 1.001020 -0.547324
0.269050 1.001934 -0.547884
0.271872 0.992291 -0.542863
0.279160 0.997485 -0.545692
0.288217 1.008082 -0.551383
0.295626 1.013066 -0.554109
0.312622 1.028929 -0.562694
0.316514 1.022626 -0.559458
0.323676 1.026047 -0.561372
0.365586 1.129424 -0.616228
0.380582 1.153048 -0.628863
0.389329 1.158394 -0.631824
0.396916 1.160306 -0.632970
0.401805 1.154783 -0.630180
0.407391 1.151203 -0.628423
0.415115 1.153240 -0.629648
0.422340 1.153840 -0.630116
0.426974 1.147759 -0.627044
0.431622 1.141805 -0.624041
0.443007 1.152530 -0.629895
0.448272 1.148000 -0.627656
0.454838 1.146620 -0.627094
0.459628 1.141007 -0.624287
0.464699 1.136118 -0.621867
0.475938 1.145399 -0.626981
0.483353 1.145699 -0.627327
0.487349 1.138295 -0.623579
0.492932 1.134490 -0.621748
0.499997 1.133916 -0.621638
0.510043 1.139639 -0.624885
0.516611 1.137802 -0.624110
0.522218 1.133942 -0.622259
0.528622 1.131747 -0.621296
0.536329 1.132177 -0.621734
0.543704 1.131869 -0.621781
0.550103 1.129588 -0.620776
0.556642 1.127584 -0.619918
0.558567 1.116719 -0.614329
0.565454 1.115506 -0.613889
0.574237 1.117847 -0.615347
0.584014 1.121948 -0.617743
0.588979 1.117140 -0.615376
0.595464 1.115192 -0.614532
0.604642 1.118106 -0.616283
0.617377 1.127248 -0.621362
0.623714 1.125052 -0.620368
0.628058 1.119512 -0.617576
0.632448 1.114230 -0.614912
0.641821 1.117535 -0.616836
0.641842 1.105246 -0.610395
0.647379 1.102413 -0.609006
0.653642 1.100927 -0.608326
0.659805 1.099421 -0.607622
0.673481 1.110089 -0.613432
-0.955177 1.350306 -0.752215
-0.944597 1.347408 -0.750551
-0.937084 1.349276 -0.751457
-0.929656 1.351467 -0.752518
-0.922735 1.354633 -0.754089
-0.873869 1.292363 -0.720111
-0.863720 1.290120 -0.718719
-0.854362 1.289192 -0.718027
-0.850941 1.297919 -0.722560
-0.845000 1.302794 -0.724989
-0.836192 1.303100 -0.724928
-0.831634 1.310555 -0.728732
-0.826357 1.316997 -0.731976
-0.818925 1.319924 -0.733307
-0.814719 1.328501 -0.737690
-0.808426 1.333623 -0.740195
-0.801544 1.337803 -0.742184
-0.794257 1.341328 -0.743815
-0.786632 1.344285 -0.745135
-0.779451 1.348080 -0.746907
-0.773166 1.353577 -0.749597
-0.765948 1.357387 -0.751374
-0.758882 1.361508 -0.753319
-0.752183 1.366362 -0.755661
-0.746842 1.373916 -0.759460
-0.739930 1.378456 -0.761634
-0.732671 1.382321 -0.763446
-0.725139 1.385633 -0.764963
-0.718022 1.389785 -0.766935
-0.711242 1.394648 -0.769294
-0.705113 1.400912 -0.772410
-0.697694 1.404466 -0.774071
-0.690506 1.408506 -0.775998
-0.683813 1.413640 -0.778517
-0.677010 1.418556 -0.780923
-0.669227 1.421272 -0.782151
-0.662744 1.426943 -0.784971
-0.655444 1.430755 -0.786797
-0.647392 1.432778 -0.787667
-0.641167 1.439141 -0.790872
-0.632201 1.438888 -0.790531
-0.624292 1.441135 -0.791537
-0.617900 1.447153 -0.794571
-0.612318 1.455310 -0.798756
-0.626026 1.513636 -0.829846
-0.628943 1.545251 -0.846608
-0.619840 1.545596 -0.846609
-0.612697 1.551166 -0.849415
-0.603432 1.550942 -0.849122
-0.596246 1.556441 -0.851900
-0.589227 1.562491 -0.854977
-0.582246 1.568747 -0.858169
-0.575686 1.576354 -0.862088
-0.567221 1.578405 -0.863037
-0.559619 1.583060 -0.865385
-0.551861 1.587296 -0.867512
-0.543740 1.590439 -0.869059
-0.536029 1.594920 -0.871326
-0.530110 1.605350 -0.876779
-0.520139 1.602543 -0.875156
-0.513981 1.612517 -0.880371
-0.503202 1.606755 -0.877177
-0.480598 1.558827 -0.851449
-0.477302 1.578594 -0.861912
-0.471124 1.588469 -0.867090
-0.466386 1.604092 -0.875343
-0.456593 1.600886 -0.873537
-0.445122 1.590881 -0.868103
-0.434395 1.583344 -0.863992
-0.427377 1.590595 -0.867784
-0.419714 1.595406 -0.870275
-0.412188 1.600952 -0.873161
-0.404127 1.604349 -0.874903
-0.398883 1.620521 -0.883469
-0.390643 1.623616 -0.885054
-0.383622 1.632571 -0.889771
-0.375655 1.637338 -0.892254
-0.366819 1.637964 -0.892529
-0.359599 1.646844 -0.897212
-0.352808 1.658426 -0.903339
-0.330960 1.688617 -0.919300
-0.198666 1.141944 -0.627403
-0.190933 1.130751 -0.621409
-0.183302 1.119390 -0.615327
-0.176995 1.117569 -0.614335
-0.165817 1.125830 -0.618704
-0.159604 1.124820 -0.618148
-0.153132 1.121185 -0.616193
-0.147015 1.120724 -0.615932
-0.140898 1.120173 -0.615624
-0.133499 1.105019 -0.607528
-0.127212 1.101284 -0.605524
-0.121190 1.100426 -0.605055
-0.115125 1.098803 -0.604179
-0.108997 1.095960 -0.602653
-0.102941 1.093780 -0.601481
-0.096555 1.085296 -0.596949
-0.090884 1.088997 -0.598915
-0.084821 1.084985 -0.596768
-0.057114 0.912229 -0.504624
-0.052194 0.913143 -0.505109
-0.047254 0.913253 -0.505165
-0.042308 0.912827 -0.504937
-0.037367 0.912603 -0.504816
-0.032427 0.914329 -0.505736
-0.027414 0.924049 -0.510919
-0.022295 0.934049 -0.516252
-0.017227 0.935019 -0.516770
-0.012152 0.935894 -0.517239
-0.007029 0.938125 -0.518431
-0.001991 0.937131 -0.517904
0.003040 0.936172 -0.517396
0.007874 0.930978 -0.514631
0.011845 0.909318 -0.503085
0.016672 0.907570 -0.502158
0.021582 0.907520 -0.502137
0.026593 0.909023 -0.502946
0.031675 0.911278 -0.504156
0.036639 0.911657 -0.504366
0.041625 0.912238 -0.504686
0.046717 0.913961 -0.505614
0.051703 0.914309 -0.505811
0.056824 0.915991 -0.506720
0.061895 0.916995 -0.507267
0.067092 0.919057 -0.508381
0.072282 0.920836 -0.509344
0.077322 0.921164 -0.509534
0.082385 0.921631 -0.509800
0.087462 0.922143 -0.510090
0.092574 0.922848 -0.510485
0.097850 0.924659 -0.511471
0.103175 0.926641 -0.512550
0.108383 0.927687 -0.513130
0.113530 0.928234 -0.513445
0.118793 0.929437 -0.514112
0.124055 0.930533 -0.514723
0.129170 0.930665 -0.514821
0.134215 0.930368 -0.514692
0.139557 0.931689 -0.515428
0.144969 0.933271 -0.516305
0.150246 0.934031 -0.516744
0.155340 0.933794 -0.516654
0.160600 0.934347 -0.516986
0.165981 0.935415 -0.517596
0.171232 0.935787 -0.517835
0.176364 0.935556 -0.517755
0.181680 0.936117 -0.518100
0.187277 0.937827 -0.519060
0.192619 0.938332 -0.519380
0.197794 0.938086 -0.519300
0.203258 0.938973 -0.519827
0.208621 0.939375 -0.520098
0.214089 0.940122 -0.520555
0.219375 0.940098 -0.520603
0.232216 0.968131 -0.535650
0.239924 0.976275 -0.540071
0.245994 0.978190 -0.541166
0.251996 0.979736 -0.542067
0.262260 0.995815 -0.550743
0.268502 0.997667 -0.551814
0.273010 0.993655 -0.549753
0.280793 1.000367 -0.553431
0.288296 1.005882 -0.556473
0.294307 1.006462 -0.556879
0.301534 1.010702 -0.559246
0.309027 1.015530 -0.561934
0.383918 1.159626 -0.639592
0.389394 1.155700 -0.637626
0.392354 1.144929 -0.631994
0.397670 1.140762 -0.629905
0.403421 1.137793 -0.628461
0.412853 1.144438 -0.632179
0.418058 1.139928 -0.629918
0.424766 1.139270 -0.629727
0.429756 1.134261 -0.627205
0.435688 1.131624 -0.625959
0.444498 1.135941 -0.628454
0.448588 1.128787 -0.624789
0.451733 1.119531 -0.619998
0.460705 1.123948 -0.622559
0.470232 1.129420 -0.625694
0.479479 1.134021 -0.628365
0.485486 1.131214 -0.627056
0.489561 1.124169 -0.623468
0.495034 1.120255 -0.621567
0.503815 1.123409 -0.623476
0.512144 1.125452 -0.624791
0.516950 1.120064 -0.622103
0.523183 1.117664 -0.621027
0.530096 1.116635 -0.620692
0.538319 1.118178 -0.621746
0.546061 1.118682 -0.622240
0.550211 1.112148 -0.618935
0.556601 1.110029 -0.618012
0.559466 1.101254 -0.613490
0.569741 1.106523 -0.616555
0.575862 1.103971 -0.615390
0.583139 1.103581 -0.615391
0.591400 1.104972 -0.616351
0.599530 1.106107 -0.617168
0.609262 1.110058 -0.619504
0.619050 1.114047 -0.621854
0.624501 1.110530 -0.620130
0.632203 1.110977 -0.620544
0.636107 1.105095 -0.617516
0.638462 1.096842 -0.613189
0.643905 1.093940 -0.611750
0.651578 1.094832 -0.612355
0.658592 1.094755 -0.612421
0.664343 1.092787 -0.611445
-0.949102 1.337965 -0.754580
-0.944536 1.343981 -0.757798
-0.937172 1.346043 -0.758819
-0.930913 1.349992 -0.760855
-0.923693 1.352681 -0.762179
-0.881112 1.300369 -0.733253
-0.864747 1.288424 -0.726505
-0.858597 1.292608 -0.728605
-0.852472 1.297012 -0.730811
-0.846399 1.301669 -0.733141
-0.841996 1.309243 -0.737058
-0.838026 1.317753 -0.741476
-0.829767 1.319264 -0.742042
-0.822480 1.322487 -0.743539
-0.817158 1.329180 -0.746930
-0.809501 1.331952 -0.748164
-0.802901 1.336638 -0.750442
-0.796605 1.341951 -0.753057
-0.789158 1.345271 -0.754579
-0.781236 1.347755 -0.755640
-0.774859 1.353109 -0.758270
-0.767591 1.356856 -0.760020
-0.759571 1.359193 -0.760999
-0.753780 1.365808 -0.764316
-0.748499 1.373501 -0.768222
-0.741128 1.377172 -0.769933
-0.733557 1.380440 -0.771426
-0.726004 1.383732 -0.772936
-0.718483 1.387072 -0.774475
-0.711791 1.392126 -0.776952
-0.705147 1.397311 -0.779504
-0.698193 1.401861 -0.781713
-0.691746 1.407527 -0.784534
-0.684795 1.412128 -0.786780
-0.674460 1.409180 -0.784923
-0.670251 1.419915 -0.790515
-0.663175 1.424254 -0.792631
-0.656276 1.429015 -0.794982
-0.649213 1.433413 -0.797140
-0.641037 1.435154 -0.797861
-0.633237 1.437747 -0.799049
-0.624637 1.438326 -0.799150
-0.619055 1.446384 -0.803316
-0.616126 1.461337 -0.811226
-0.620826 1.496376 -0.830033
-0.627874 1.538568 -0.852717
-0.620933 1.544647 -0.855816
-0.613942 1.550672 -0.858892
-0.606901 1.556646 -0.861944
-0.598540 1.559008 -0.863043
-0.591333 1.564625 -0.865911
-0.584988 1.572817 -0.870179
-0.575874 1.573034 -0.870132
-0.568476 1.578296 -0.872821
-0.560497 1.581866 -0.874600
-0.552446 1.585243 -0.876278
-0.544688 1.589565 -0.878472
-0.536764 1.593416 -0.880417
-0.530325 1.602172 -0.885019
-0.521528 1.603308 -0.885502
-0.511049 1.598680 -0.882874
-0.490301 1.558231 -0.860881
-0.482787 1.562823 -0.863250
-0.477112 1.574138 -0.869258
-0.471879 1.587460 -0.876352
-0.465731 1.597819 -0.881847
-0.465258 1.630274 -0.899286
-0.449570 1.604519 -0.885273
-0.437574 1.592317 -0.878588
-0.430806 1.600863 -0.883117
-0.431130 1.639396 -0.903845
-0.416783 1.616860 -0.891590
-0.407406 1.614959 -0.890485
-0.390892 1.620969 -0.893583
-0.385876 1.639404 -0.903467
-0.378000 1.644885 -0.906359
-0.366598 1.633060 -0.899911
-0.358434 1.637069 -0.902014
-0.348519 1.680303 -0.925234
-0.326647 1.659945 -0.914141
-0.315479 1.647331 -0.907285
-0.300960 1.613308 -0.888878
-0.188614 1.111156 -0.617772
-0.182302 1.109186 -0.616686
-0.176552 1.111483 -0.617903
-0.167149 1.083638 -0.602861
-0.163313 1.101504 -0.612479
-0.158779 1.114730 -0.619595
-0.152309 1.110743 -0.617427
-0.145912 1.107035 -0.615411
-0.139373 1.101366 -0.612337
-0.132880 1.095502 -0.609160
-0.126522 1.090467 -0.606431
-0.120615 1.090519 -0.606447
-0.113937 1.079923 -0.600721
-0.108050 1.079373 -0.600414
-0.101302 1.064820 -0.592555
-0.095321 1.061045 -0.590511
-0.089639 1.062261 -0.591158
-0.084066 1.066084 -0.593212
-0.057129 0.910676 -0.509386
-0.052196 0.911028 -0.509572
-0.047286 0.913310 -0.510800
-0.042351 0.915285 -0.511863
-0.037382 0.913858 -0.511093
-0.032424 0.915709 -0.512090
-0.027393 0.925277 -0.517249
-0.022312 0.930661 -0.520153
-0.017194 0.934928 -0.522455
-0.012066 0.937642 -0.523920
-0.007006 0.936936 -0.523542
-0.001935 0.936746 -0.523443
0.003014 0.933446 -0.521667
0.007676 0.924398 -0.516792
0.011941 0.909232 -0.508618
0.016777 0.907482 -0.507681
0.021754 0.908368 -0.508165
0.026808 0.910285 -0.509206
0.031823 0.911343 -0.509784
0.036848 0.912374 -0.510349
0.041962 0.914339 -0.511419
0.046883 0.913829 -0.511154
0.051813 0.913445 -0.510958
0.056843 0.914123 -0.511337
0.062180 0.917704 -0.513281
0.067351 0.919377 -0.514198
0.072450 0.920230 -0.514673
0.077558 0.921068 -0.515142
0.082581 0.921118 -0.515187
0.087672 0.921668 -0.515502
0.092851 0.922801 -0.516133
0.098228 0.925244 -0.517472
0.103367 0.925847 -0.517819
0.108493 0.926284 -0.518079
0.113705 0.927218 -0.518609
0.119013 0.928663 -0.519414
0.124280 0.929732 -0.520020
0.129358 0.929611 -0.519984
0.134432 0.929435 -0.519920
0.139595 0.929732 -0.520113
0.145530 0.934085 -0.522498
0.150550 0.933427 -0.522178
0.155503 0.932433 -0.521680
0.160737 0.932831 -0.521935
0.166062 0.933608 -0.522396
0.171468 0.934682 -0.523020
0.176834 0.935485 -0.523500
0.182027 0.935440 -0.523524
0.187223 0.935370 -0.523536
0.192791 0.936833 -0.524379
0.198966 0.940699 -0.526522
0.203591 0.938078 -0.525164
0.208940 0.938393 -0.525393
0.214406 0.939097 -0.525836
0.220033 0.940335 -0.526570
0.231801 0.964262 -0.539572
0.239178 0.971207 -0.543399
0.243683 0.967588 -0.541517
0.250945 0.973686 -0.544893
0.260617 0.987763 -0.552589
0.267084 0.990468 -0.554138
0.274130 0.994923 -0.556638
0.281283 0.999503 -0.559210
0.288969 1.005552 -0.562581
0.293974 1.002940 -0.561268
0.299681 1.002513 -0.561141
0.304563 0.999543 -0.559641
0.359075 1.105154 -0.617215
0.371747 1.122394 -0.626695
0.381582 1.131124 -0.631571
0.390422 1.136774 -0.634782
0.394942 1.130552 -0.631561
0.399734 1.125159 -0.628793
0.405078 1.121286 -0.626852
0.416520 1.133082 -0.633421
0.419676 1.123508 -0.628395
0.427646 1.126107 -0.629982
0.430430 1.115835 -0.624582
0.434368 1.108561 -0.620813
0.441693 1.109472 -0.621495
0.449339 1.111017 -0.622528
0.454588 1.106894 -0.620482
0.460075 1.103346 -0.618752
0.467952 1.105177 -0.619952
0.474059 1.102954 -0.618951
0.484670 1.110544 -0.623298
0.493452 1.113906 -0.625347
0.494561 1.100795 -0.618423
0.505066 1.107655 -0.622386
0.510833 1.104461 -0.620870
0.518083 1.104308 -0.621016
0.524949 1.103319 -0.620706
0.533118 1.104887 -0.621795
0.540720 1.105246 -0.622224
0.547768 1.104475 -0.622036
0.551189 1.096747 -0.618044
0.559972 1.099300 -0.619671
0.560735 1.086810 -0.613067
0.572523 1.094913 -0.617726
0.578885 1.092942 -0.616869
0.588988 1.097741 -0.619714
0.596050 1.097038 -0.619541
0.601173 1.092970 -0.617516
0.604097 1.085214 -0.613461
0.618358 1.097130 -0.620182
0.629572 1.103666 -0.623945
0.631200 1.094046 -0.618835
0.633880 1.086460 -0.614825
0.641874 1.087853 -0.615730
0.650504 1.090355 -0.617229
0.656120 1.088069 -0.616085
0.662054 1.086460 -0.615296
-0.949171 1.334776 -0.761919
-0.944032 1.339890 -0.764673
-0.938934 1.345333 -0.767587
-0.931867 1.348037 -0.768953
-0.924895 1.351089 -0.770491
-0.887210 1.306524 -0.745517
-0.869931 1.293248 -0.737940
-0.861260 1.293479 -0.737860
-0.854062 1.296172 -0.739134
-0.848155 1.301098 -0.741632
-0.843681 1.308549 -0.745520
-0.838036 1.314272 -0.748433
-0.830284 1.316619 -0.749460
-0.822254 1.318568 -0.750257
-0.813387 1.319133 -0.750279
-0.810529 1.330165 -0.756097
-0.804138 1.335224 -0.758596
-0.797727 1.340341 -0.761121
-0.791014 1.345001 -0.763389
-0.783632 1.348503 -0.765013
-0.776264 1.352064 -0.766668
-0.769945 1.357614 -0.769421
-0.761547 1.359288 -0.770031
-0.755956 1.366322 -0.773604
-0.748846 1.370493 -0.775596
-0.741093 1.373413 -0.776899
-0.733783 1.377200 -0.778683
-0.726973 1.382002 -0.781029
-0.719576 1.385622 -0.782727
-0.713748 1.392501 -0.786225
-0.705701 1.394777 -0.787190
-0.698682 1.399202 -0.789343
-0.693314 1.407215 -0.793476
-0.684644 1.408084 -0.793680
-0.677354 1.411935 -0.795531
-0.672428 1.421126 -0.800324
-0.664085 1.422630 -0.800893
-0.656555 1.425954 -0.802469
-0.648730 1.428561 -0.803657
-0.642013 1.433784 -0.806286
-0.633679 1.435119 -0.806786
-0.626499 1.439226 -0.808814
-0.621817 1.449599 -0.814287
-0.616089 1.457517 -0.818416
-0.613838 1.474545 -0.827548
-0.628239 1.535629 -0.860847
-0.621343 1.541840 -0.864045
-0.615117 1.549950 -0.868288
-0.608420 1.556915 -0.871907
-0.600647 1.560992 -0.873950
-0.593671 1.567361 -0.877253
-0.585146 1.569363 -0.878168
-0.577304 1.573334 -0.880167
-0.569188 1.576519 -0.881741
-0.561002 1.579501 -0.883209
-0.553779 1.585467 -0.886316
-0.546294 1.590721 -0.889037
-0.537340 1.591365 -0.889240
-0.530896 1.600129 -0.893891
-0.522958 1.604162 -0.895957
-0.509382 1.589154 -0.887614
-0.495946 1.573957 -0.879175
-0.487303 1.574954 -0.879598
-0.474111 1.559565 -0.871066
-0.472466 1.585797 -0.885292
-0.471932 1.617193 -0.902341
-0.466087 1.629546 -0.908984
-0.461529 1.647375 -0.918622
-0.444786 1.617295 -0.902086
-0.436957 1.622150 -0.904642
-0.433898 1.647057 -0.918155
-0.427785 1.660014 -0.925143
-0.408751 1.617027 -0.901579
-0.397832 1.608213 -0.896685
-0.389167 1.609238 -0.897167
-0.357305 1.627484 -0.906849
-0.350079 1.636416 -0.911662
-0.347373 1.670202 -0.930042
-0.338255 1.670309 -0.930042
-0.326123 1.653086 -0.920587
-0.315826 1.645562 -0.916428
-0.306684 1.644544 -0.915822
-0.217039 1.219069 -0.683550
-0.210191 1.217714 -0.682781
-0.180792 1.095137 -0.615856
-0.172720 1.078528 -0.606772
-0.166328 1.074333 -0.604462
-0.160168 1.071715 -0.603013
-0.154910 1.077017 -0.605885
-0.149668 1.082972 -0.609115
-0.142755 1.072731 -0.603512
-0.137873 1.082883 -0.609032
-0.131439 1.076735 -0.605664
-0.125132 1.071297 -0.602684
-0.119089 1.068462 -0.601124
-0.113187 1.067134 -0.600388
-0.107176 1.063931 -0.598630
-0.100564 1.050494 -0.591292
-0.094885 1.050912 -0.591510
-0.089343 1.054059 -0.593217
-0.083491 1.051162 -0.591630
-0.077083 1.033918 -0.582219
-0.069471 0.977618 -0.551513
-0.063707 0.962569 -0.543302
-0.057166 0.909973 -0.514618
-0.052242 0.911196 -0.515281
-0.047340 0.914847 -0.517269
-0.042372 0.915325 -0.517527
-0.037392 0.913852 -0.516722
-0.032421 0.917056 -0.518468
-0.027372 0.926617 -0.523682
-0.022270 0.932173 -0.526711
-0.017141 0.935967 -0.528781
-0.012083 0.934884 -0.528192
-0.006999 0.935108 -0.528317
-0.001950 0.934220 -0.527836
0.002998 0.930961 -0.526062
0.007675 0.922336 -0.521364
0.012046 0.909329 -0.514277
0.016884 0.907405 -0.513234
0.021817 0.907381 -0.513227
0.026870 0.909187 -0.514220
0.031884 0.910154 -0.514756
0.036940 0.911520 -0.515510
0.042020 0.912993 -0.516323
0.047004 0.913153 -0.516422
0.051943 0.912790 -0.516236
0.057130 0.914994 -0.517451
0.062375 0.917517 -0.518841
0.067529 0.918929 -0.519626
0.072639 0.919797 -0.520116
0.077715 0.920277 -0.520396
0.082847 0.921151 -0.520891
0.087910 0.921387 -0.521040
0.093180 0.923120 -0.522006
0.098400 0.924344 -0.522697
0.103549 0.924956 -0.523054
0.108676 0.925354 -0.523297
0.113883 0.926213 -0.523792
0.119184 0.927564 -0.524557
0.124561 0.929257 -0.525511
0.129770 0.929835 -0.525858
0.134839 0.929558 -0.525740
0.140252 0.931147 -0.526642
0.145764 0.933137 -0.527765
0.150819 0.932621 -0.527522
0.155847 0.931963 -0.527204
0.161095 0.932381 -0.527475
0.166499 0.933479 -0.528119
0.172091 0.935362 -0.529194
0.177397 0.935814 -0.529490
0.182491 0.935264 -0.529241
0.187654 0.935001 -0.529150
0.193270 0.936612 -0.530087
0.198579 0.936845 -0.530272
0.204040 0.937633 -0.530764
0.209528 0.938449 -0.531273
0.214699 0.937957 -0.531071
0.223026 0.949368 -0.537377
0.232100 0.963028 -0.544917
0.239571 0.970269 -0.548953
0.245237 0.970751 -0.549296
0.251432 0.973001 -0.550611
0.257825 0.975789 -0.552222
0.262881 0.973927 -0.551294
0.272013 0.985497 -0.557718
0.280484 0.994447 -0.562715
0.292033 1.012784 -0.572855
0.294179 1.001085 -0.566559
0.296743 0.991012 -0.561154
0.307486 1.005841 -0.569389
0.319470 1.023769 -0.579330
0.330736 1.038934 -0.587765
0.356291 1.094404 -0.618298
0.366995 1.106187 -0.624901
0.372309 1.102588 -0.623076
0.386977 1.124503 -0.635250
0.393859 1.124766 -0.635556
0.392638 1.103558 -0.624084
0.398203 1.100552 -0.622603
0.406007 1.103278 -0.624272
0.414118 1.106610 -0.626280
0.417924 1.099073 -0.622323
0.425636 1.101220 -0.623690
0.431005 1.097577 -0.621880
0.437349 1.096267 -0.621357
0.444414 1.096593 -0.621738
0.452089 1.098228 -0.622844
0.457406 1.094377 -0.620935
0.461882 1.088664 -0.618005
0.469414 1.089777 -0.618836
0.477072 1.091051 -0.619761
0.484660 1.092061 -0.620544
0.490171 1.088565 -0.618847
0.496501 1.086800 -0.618107
0.507018 1.093647 -0.622121
0.514100 1.093254 -0.622144
0.521158 1.092759 -0.622112
0.530127 1.096005 -0.624148
0.537137 1.095282 -0.623994
0.541258 1.088950 -0.620737
0.550181 1.091894 -0.622609
0.551585 1.080576 -0.616588
0.560229 1.082976 -0.618154
0.565088 1.078347 -0.615826
0.578207 1.088813 -0.621854
0.584274 1.086389 -0.620738
0.590286 1.083937 -0.619599
0.592634 1.075152 -0.614940
0.600611 1.076347 -0.615806
0.607352 1.075447 -0.615500
0.616733 1.079093 -0.617707
0.617851 1.068899 -0.612217
0.627397 1.072959 -0.614630
0.639205 1.080732 -0.619092
0.647688 1.083057 -0.620513
0.651822 1.078469 -0.618077
0.653070 1.069510 -0.613194
-0.945058 1.325402 -0.765774
-0.946174 1.339751 -0.773766
-0.939892 1.343395 -0.775700
-0.932708 1.345898 -0.776967
-0.922552 1.344033 -0.775750
-0.903524 1.328486 -0.766810
-0.873820 1.295988 -0.748313
-0.864694 1.295540 -0.747843
-0.856595 1.296818 -0.748328
-0.849810 1.300333 -0.750055
-0.843188 1.304257 -0.751997
-0.837107 1.309217 -0.754508
-0.830117 1.312804 -0.756234
-0.822290 1.315078 -0.757213
-0.815466 1.319134 -0.759184
-0.810084 1.325790 -0.762604
-0.804009 1.331374 -0.765416
-0.798053 1.337279 -0.768401
-0.791837 1.342824 -0.771179
-0.785131 1.347567 -0.773504
-0.778599 1.352696 -0.776042
-0.771471 1.356775 -0.777990
-0.764015 1.360266 -0.779609
-0.756542 1.363735 -0.781217
-0.749437 1.367925 -0.783229
-0.740628 1.368779 -0.783379
-0.733816 1.373545 -0.785717
-0.727030 1.378389 -0.788101
-0.722281 1.387432 -0.792831
-0.714631 1.390594 -0.794283
-0.706339 1.392383 -0.794973
-0.698793 1.395700 -0.796520
-0.692791 1.402336 -0.799922
-0.684656 1.404369 -0.800763
-0.677214 1.407885 -0.802436
-0.671932 1.416255 -0.806816
-0.664535 1.419913 -0.808577
-0.655688 1.420199 -0.808469
-0.649661 1.427014 -0.811998
-0.641827 1.429600 -0.813182
-0.634325 1.432953 -0.814797
-0.627308 1.437486 -0.817074
-0.620560 1.442716 -0.819742
-0.615415 1.452055 -0.824698
-0.611970 1.465950 -0.832185
-0.629065 1.533861 -0.869643
-0.622015 1.539694 -0.872657
-0.616776 1.550485 -0.878424
-0.609325 1.555452 -0.880968
-0.601610 1.559734 -0.883136
-0.593386 1.562608 -0.884530
-0.585621 1.566792 -0.886655
-0.577528 1.570052 -0.888275
-0.569525 1.573590 -0.890053
-0.561822 1.578057 -0.892352
-0.554517 1.583809 -0.895366
-0.547765 1.591407 -0.899407
-0.538983 1.592694 -0.899960
-0.532653 1.601914 -0.904907
-0.523719 1.602751 -0.905221
-0.510253 1.588210 -0.897034
-0.496907 1.573428 -0.888723
-0.486130 1.598856 -0.902523
-0.478773 1.605020 -0.905807
-0.472981 1.617203 -0.912421
-0.473432 1.653620 -0.932431
-0.461376 1.642820 -0.926350
-0.441580 1.600658 -0.902947
-0.441268 1.635813 -0.922266
-0.436171 1.652589 -0.931433
-0.428360 1.658510 -0.934607
-0.415513 1.642675 -0.925769
-0.401384 1.620268 -0.913308
-0.392820 1.622157 -0.914267
-0.386737 1.635732 -0.921682
-0.381786 1.655410 -0.932468
-0.373142 1.657801 -0.933713
-0.364003 1.657737 -0.933606
-0.346062 1.611551 -0.908046
-0.344202 1.649208 -0.928765
-0.339180 1.671533 -0.941023
-0.326706 1.652555 -0.930490
-0.309510 1.657934 -0.933347
-0.299710 1.653236 -0.930703
-0.211498 1.224048 -0.693805
-0.202656 1.208371 -0.685125
-0.172352 1.073110 -0.610462
-0.164881 1.059878 -0.603140
-0.158500 1.054808 -0.600322
-0.153218 1.059178 -0.602711
-0.147727 1.061970 -0.604231
-0.141306 1.055696 -0.600753
-0.135591 1.056173 -0.600998
-0.130575 1.064526 -0.605588
-0.124520 1.061490 -0.603898
-0.118294 1.055832 -0.600764
-0.112194 1.051041 -0.598109
-0.106063 1.045001 -0.594766
-0.100071 1.040129 -0.592069
-0.093881 1.030833 -0.586933
-0.088779 1.040670 -0.592347
-0.082684 1.031299 -0.587172
-0.076915 1.027385 -0.585006
-0.069252 0.969164 -0.552899
-0.063540 0.954813 -0.544982
-0.057201 0.909195 -0.519826
-0.052288 0.911331 -0.521000
-0.047343 0.912751 -0.521779
-0.042367 0.912457 -0.521615
-0.037397 0.912445 -0.521606
-0.032421 0.915942 -0.523533
-0.027361 0.926301 -0.529243
-0.022248 0.932023 -0.532398
-0.017178 0.931840 -0.532298
-0.012093 0.932385 -0.532600
-0.007024 0.932174 -0.532486
-0.001972 0.931501 -0.532119
0.003028 0.929671 -0.531113
0.007742 0.921786 -0.526771
0.012128 0.908943 -0.519696
0.016929 0.906180 -0.518179
0.021953 0.907587 -0.518962
0.026935 0.908114 -0.519261
0.031939 0.908863 -0.519683
0.036999 0.910218 -0.520439
0.042048 0.911248 -0.521018
0.047032 0.911388 -0.521107
0.052121 0.912629 -0.521805
0.057339 0.915040 -0.523148
0.062497 0.916594 -0.524020
0.067673 0.918146 -0.524892
0.072753 0.918681 -0.525204
0.077878 0.919528 -0.525690
0.082987 0.920144 -0.526050
0.088071 0.920498 -0.526266
0.093253 0.921519 -0.526851
0.098542 0.923209 -0.527807
0.103780 0.924390 -0.528484
0.108852 0.924362 -0.528496
0.114120 0.925563 -0.529187
0.119572 0.927795 -0.530448
0.124873 0.928945 -0.531115
0.130096 0.929543 -0.531478
0.135340 0.930185 -0.531868
0.140526 0.930447 -0.532049
0.145735 0.930781 -0.532273
0.150984 0.931263 -0.532580
0.156213 0.931584 -0.532801
0.161529 0.932278 -0.533229
0.166928 0.933295 -0.533838
0.172271 0.933958 -0.534254
0.177758 0.935204 -0.534994
0.183090 0.935661 -0.535301
0.188338 0.935695 -0.535376
0.193443 0.935080 -0.535096
0.198693 0.935048 -0.535140
0.204104 0.935615 -0.535519
0.209855 0.937453 -0.536602
0.215748 0.939711 -0.537920
0.223711 0.949630 -0.543476
0.230298 0.954011 -0.545975
0.237381 0.959957 -0.549343
0.247215 0.975375 -0.557953
0.253522 0.977869 -0.559422
0.259271 0.978307 -0.559756
0.263021 0.971978 -0.556352
0.268753 0.972335 -0.556648
0.281485 0.995193 -0.569402
0.288807 1.000032 -0.572190
0.295326 1.002137 -0.573469
0.296751 0.988537 -0.566056
0.300033 0.980917 -0.561956
0.353385 1.083325 -0.619102
0.361792 1.088759 -0.622265
0.370199 1.093937 -0.625293
0.376267 1.092515 -0.624666
0.381723 1.089419 -0.623114
0.387931 1.088317 -0.622674
0.395135 1.089748 -0.623644
0.402393 1.091187 -0.624625
0.407547 1.087212 -0.622603
0.411756 1.080933 -0.619306
0.419224 1.082700 -0.620483
0.427771 1.086920 -0.623030
0.433990 1.085423 -0.622404
0.440503 1.084568 -0.622140
0.448489 1.087039 -0.623731
0.453949 1.083630 -0.622054
0.459216 1.079802 -0.620148
0.465959 1.079252 -0.620070
0.473045 1.079381 -0.620375
0.480510 1.080239 -0.621091
0.485622 1.076025 -0.618982
0.492208 1.074924 -0.618611
0.492805 1.061465 -0.611343
0.499805 1.061290 -0.611491
0.507533 1.062520 -0.612426
0.516497 1.066102 -0.614678
0.523643 1.065995 -0.614869
0.533049 1.070198 -0.617472
0.536563 1.063050 -0.613723
0.545494 1.066225 -0.615749
0.554945 1.070262 -0.618257
0.561131 1.068205 -0.617349
0.566381 1.064498 -0.615510
0.572925 1.063198 -0.615015
0.579891 1.062691 -0.614957
0.588501 1.065092 -0.616522
0.596511 1.066438 -0.617488
0.607095 1.072197 -0.620923
0.611432 1.067341 -0.618385
0.612387 1.057019 -0.612761
0.619172 1.056629 -0.612703
0.635135 1.071337 -0.621119
0.641345 1.070071 -0.620539
0.645547 1.065731 -0.618214
0.636551 1.040686 -0.604222
-0.959396 1.343274 -0.785086
-0.947129 1.337826 -0.781883
-0.939265 1.339065 -0.782469
-0.933041 1.342977 -0.784552
-0.926493 1.346622 -0.786459
-0.919097 1.349165 -0.787715
-0.876318 1.296511 -0.757506
-0.868015 1.297382 -0.757776
-0.859526 1.298067 -0.757922
-0.851581 1.299728 -0.758607
-0.843565 1.301376 -0.759269
-0.836932 1.305400 -0.761268
-0.831399 1.311394 -0.764375
-0.824554 1.315333 -0.766301
-0.817601 1.319193 -0.768172
-0.810848 1.323490 -0.770282
-0.804381 1.328380 -0.772721
-0.798716 1.334788 -0.776015
-0.792637 1.340575 -0.778950
-0.786121 1.345667 -0.781487
-0.778872 1.349483 -0.783298
-0.771761 1.353589 -0.785272
-0.764357 1.357178 -0.786952
-0.757557 1.361934 -0.789293
-0.750374 1.365991 -0.791239
-0.742708 1.369117 -0.792661
-0.734204 1.370563 -0.793136
-0.727705 1.375991 -0.795864
-0.722497 1.384098 -0.800107
-0.715595 1.388815 -0.802439
-0.707014 1.390030 -0.802800
-0.699334 1.393083 -0.804203
-0.691881 1.396600 -0.805872
-0.684329 1.399884 -0.807416
-0.677488 1.404723 -0.809841
-0.671918 1.412444 -0.813893
-0.664049 1.415028 -0.815059
-0.656718 1.418814 -0.816907
-0.649097 1.421917 -0.818377
-0.641732 1.425605 -0.820181
-0.634351 1.429252 -0.821968
-0.627299 1.433699 -0.824212
-0.620297 1.438295 -0.826544
-0.613756 1.444086 -0.829553
-0.607545 1.450790 -0.833079
-0.625324 1.520146 -0.871766
-0.624717 1.542887 -0.884290
-0.617984 1.549759 -0.887914
-0.610026 1.553391 -0.889726
-0.601041 1.554175 -0.889949
-0.593213 1.558147 -0.891965
-0.585914 1.563663 -0.894851
-0.578033 1.567561 -0.896836
-0.570285 1.571885 -0.899067
-0.562673 1.576668 -0.901558
-0.557087 1.587752 -0.907583
-0.549602 1.593188 -0.910451
-0.540703 1.594213 -0.910854
-0.531004 1.592583 -0.909779
-0.523541 1.598198 -0.912762
-0.507275 1.574248 -0.899213
-0.494488 1.561239 -0.891794
-0.490071 1.576966 -0.900448
-0.494139 1.623575 -0.926370
-0.482236 1.613737 -0.920738
-0.471220 1.606705 -0.916680
-0.469041 1.632903 -0.931196
-0.450831 1.633518 -0.931305
-0.440314 1.627993 -0.928109
-0.433889 1.639134 -0.934226
-0.425448 1.642151 -0.935808
-0.416505 1.643056 -0.936215
-0.406896 1.640965 -0.934953
-0.395178 1.629060 -0.928217
-0.387997 1.637738 -0.932975
-0.375122 1.619419 -0.922666
-0.373300 1.654645 -0.942249
-0.362386 1.645606 -0.937128
-0.347178 1.613566 -0.919175
-0.344643 1.647689 -0.938148
-0.327121 1.651038 -0.939886
-0.316196 1.640040 -0.933689
-0.304709 1.680793 -0.956309
-0.291342 1.653611 -0.941093
-0.190544 1.163846 -0.667768
-0.182741 1.152579 -0.661456
-0.164007 1.050189 -0.604332
-0.158059 1.048542 -0.603390
-0.152280 1.048219 -0.603187
-0.146328 1.046197 -0.602039
-0.140441 1.044567 -0.601111
-0.134616 1.043390 -0.600435
-0.129207 1.046703 -0.602265
-0.123457 1.046337 -0.602045
-0.117413 1.042135 -0.599687
-0.111102 1.033652 -0.594943
-0.105291 1.031168 -0.593545
-0.099184 1.023489 -0.589252
-0.093649 1.024360 -0.589726
-0.087940 1.022015 -0.588409
-0.082145 1.017251 -0.585744
-0.076573 1.016638 -0.585394
-0.057232 0.908267 -0.524967
-0.052285 0.908992 -0.525367
-0.047340 0.910308 -0.526097
-0.042370 0.910422 -0.526158
-0.037404 0.911646 -0.526838
-0.032423 0.914303 -0.528317
-0.027374 0.922698 -0.532996
-0.022299 0.925950 -0.534809
-0.017211 0.927939 -0.535918
-0.012129 0.928771 -0.536384
-0.007043 0.929400 -0.536737
-0.002015 0.928127 -0.536030
0.003008 0.927061 -0.535441
0.007837 0.921830 -0.532529
0.012150 0.907326 -0.524451
0.017035 0.906049 -0.523745
0.022027 0.906747 -0.524142
0.027079 0.908239 -0.524982
0.032118 0.909300 -0.525583
0.037114 0.909639 -0.525783
0.042091 0.909687 -0.525821
0.047135 0.910468 -0.526269
0.052310 0.912578 -0.527459
0.057511 0.914692 -0.528652
0.062646 0.915923 -0.529355
0.067726 0.916512 -0.529700
0.072816 0.917109 -0.530051
0.077953 0.918019 -0.530578
0.083065 0.918632 -0.530941
0.088179 0.919179 -0.531269
0.093319 0.919859 -0.531671
0.098737 0.922437 -0.533135
0.103919 0.923177 -0.533574
0.109192 0.924436 -0.534305
0.114443 0.925447 -0.534899
0.119926 0.927792 -0.536239
0.125153 0.928424 -0.536626
0.130313 0.928595 -0.536757
0.135444 0.928564 -0.536777
0.140619 0.928742 -0.536916
0.145895 0.929409 -0.537329
0.151157 0.929929 -0.537663
0.156595 0.931265 -0.538455
0.161932 0.932007 -0.538917
0.167189 0.932288 -0.539124
0.172624 0.933340 -0.539764
0.178114 0.934548 -0.540494
0.183509 0.935239 -0.540938
0.188738 0.935138 -0.540942
0.193818 0.934377 -0.540580
0.198994 0.934000 -0.540435
0.204599 0.935312 -0.541237
0.210081 0.936039 -0.541714
0.215506 0.936468 -0.542029
0.224115 0.948810 -0.549004
0.228473 0.944927 -0.546915
0.233659 0.944139 -0.546559
0.243765 0.960740 -0.555930
0.254588 0.979128 -0.566306
0.259520 0.976707 -0.565051
0.261237 0.963583 -0.557810
0.270483 0.975558 -0.564615
0.278017 0.981526 -0.568065
0.292616 1.009536 -0.583858
0.295813 1.001106 -0.579260
0.300056 0.996096 -0.576579
0.335072 1.046186 -0.605049
0.348921 1.067829 -0.617329
0.359579 1.079750 -0.624171
0.367440 1.083505 -0.626440
0.372226 1.078726 -0.623929
0.378755 1.078664 -0.624068
0.385578 1.079294 -0.624601
0.391137 1.076557 -0.623248
0.395601 1.071033 -0.620335
0.401229 1.068511 -0.619112
0.409560 1.072652 -0.621638
0.413987 1.067093 -0.618718
0.418994 1.063002 -0.616627
0.430887 1.075199 -0.623702
0.434665 1.068084 -0.619919
0.437920 1.059888 -0.615529
0.446634 1.064182 -0.618176
0.456238 1.070255 -0.621831
0.462674 1.069117 -0.621430
0.468494 1.066595 -0.620251
0.471042 1.057075 -0.615129
0.478855 1.058837 -0.616372
0.484221 1.055392 -0.614680
0.490078 1.052976 -0.613570
0.496268 1.051236 -0.612844
0.503569 1.051701 -0.613365
0.513782 1.057840 -0.617097
0.521609 1.059127 -0.618088
0.526883 1.055434 -0.616259
0.532758 1.052938 -0.615107
0.539719 1.052507 -0.615121
0.547068 1.052787 -0.615535
0.555798 1.055568 -0.617364
0.563869 1.057090 -0.618475
0.568932 1.053218 -0.616520
0.575313 1.051778 -0.615937
0.583416 1.053396 -0.617082
0.589712 1.051906 -0.616453
0.597868 1.053665 -0.617657
0.595062 1.036991 -0.608374
0.606317 1.044168 -0.612632
0.612638 1.043143 -0.612214
0.619363 1.042894 -0.612222
0.634669 1.056595 -0.620150
0.641117 1.055987 -0.619921
0.656205 1.069175 -0.627526
-0.964261 1.347107 -0.796583
-0.947463 1.334974 -0.789485
-0.940543 1.337593 -0.790874
-0.935199 1.342813 -0.793736
-0.931183 1.350321 -0.797891
-0.919954 1.346979 -0.795765
-0.884995 1.306651 -0.772297
-0.868752 1.295110 -0.765411
-0.861313 1.297455 -0.766509
-0.853529 1.299380 -0.767347
-0.844404 1.299229 -0.766974
-0.839215 1.305619 -0.770350
-0.832479 1.309617 -0.772336
-0.825908 1.314015 -0.774538
-0.819550 1.318894 -0.777006
-0.813178 1.323866 -0.779518
-0.808096 1.331203 -0.783379
-0.800785 1.334754 -0.785058
-0.793569 1.338529 -0.786861
-0.786223 1.342119 -0.788554
-0.779401 1.346708 -0.790816
-0.771543 1.349428 -0.792006
-0.764520 1.353721 -0.794096
-0.758190 1.359368 -0.796960
-0.751593 1.364565 -0.799568
-0.743840 1.367548 -0.800910
-0.736071 1.370485 -0.802229
-0.728675 1.374151 -0.803968
-0.721715 1.378702 -0.806216
-0.715270 1.384336 -0.809085
-0.708068 1.388432 -0.811081
-0.700128 1.390967 -0.812191
-0.692355 1.393817 -0.813486
-0.684335 1.396099 -0.814463
-0.678832 1.403894 -0.818587
-0.671585 1.407886 -0.820549
-0.665906 1.415446 -0.824548
-0.657053 1.415784 -0.824443
-0.649411 1.418853 -0.825898
-0.641837 1.422059 -0.827437
-0.634572 1.425990 -0.829395
-0.627225 1.429727 -0.831248
-0.619676 1.432960 -0.832822
-0.612979 1.438330 -0.835615
-0.608466 1.449348 -0.841620
-0.622237 1.508152 -0.874746
-0.626185 1.542755 -0.894132
-0.618860 1.548093 -0.896915
-0.610117 1.549627 -0.897548
-0.601512 1.551480 -0.898369
-0.593757 1.555682 -0.900528
-0.586445 1.561186 -0.903430
-0.578912 1.566127 -0.906019
-0.571737 1.572195 -0.909252
-0.565143 1.580123 -0.913544
-0.558929 1.589395 -0.918601
-0.550505 1.591996 -0.919887
-0.541396 1.592416 -0.919944
-0.532669 1.593991 -0.920662
-0.524610 1.597735 -0.922612
-0.508003 1.572778 -0.908336
-0.491900 1.548489 -0.894448
-0.492097 1.580145 -0.912198
-0.493116 1.615917 -0.932275
-0.483056 1.612749 -0.930342
-0.464599 1.578163 -0.910663
-0.460354 1.595949 -0.920584
-0.459854 1.628935 -0.939094
-0.438974 1.618609 -0.933023
-0.429431 1.616686 -0.931825
-0.422470 1.625552 -0.936724
-0.413690 1.626868 -0.937363
-0.407890 1.641430 -0.945484
-0.397384 1.635200 -0.941871
-0.388567 1.680060 -0.967007
-0.365754 1.613506 -0.929363
-0.362602 1.642771 -0.945797
-0.332973 1.629362 -0.938009
-0.325249 1.636469 -0.941951
-0.314470 1.626020 -0.935992
-0.301972 1.659659 -0.954844
-0.190066 1.157491 -0.671453
-0.182583 1.148615 -0.666418
-0.157849 1.044257 -0.607529
-0.151407 1.037878 -0.603909
-0.145521 1.036086 -0.602877
-0.139309 1.030806 -0.599880
-0.133704 1.031306 -0.600142
-0.127989 1.030610 -0.599731
-0.122422 1.031554 -0.600245
-0.116651 1.030003 -0.599355
-0.110561 1.023843 -0.595867
-0.104700 1.020041 -0.593711
-0.099087 1.019535 -0.593412
-0.093338 1.016515 -0.591699
-0.087556 1.012201 -0.589256
-0.081902 1.009628 -0.587796
-0.076311 1.007872 -0.586798
-0.057282 0.908072 -0.530538
-0.052338 0.909455 -0.531312
-0.047354 0.909043 -0.531076
-0.042396 0.910960 -0.532153
-0.037416 0.912190 -0.532843
-0.032423 0.913272 -0.533451
-0.027389 0.918593 -0.536449
-0.022318 0.922423 -0.538607
-0.017220 0.925402 -0.540286
-0.012133 0.926534 -0.540926
-0.007066 0.926510 -0.540915
-0.002041 0.925263 -0.540216
0.003014 0.925095 -0.540126
0.007966 0.922657 -0.538757
0.012133 0.904905 -0.528759
0.017086 0.904887 -0.528757
0.022104 0.905946 -0.529361
0.027194 0.907890 -0.530466
0.032233 0.908822 -0.531001
0.037221 0.908939 -0.531078
0.042228 0.909255 -0.531268
0.047351 0.910837 -0.532173
0.052493 0.912436 -0.533089
0.057689 0.914384 -0.534202
0.062773 0.915025 -0.534580
0.067807 0.915113 -0.534648
0.072880 0.915522 -0.534898
0.078052 0.916697 -0.535581
0.083235 0.917842 -0.536249
0.088435 0.918990 -0.536920
0.093614 0.919869 -0.537441
0.098819 0.920836 -0.538013
0.104070 0.922025 -0.538712
0.109357 0.923335 -0.539481
0.114685 0.924794 -0.540336
0.119894 0.925386 -0.540704
0.125242 0.926738 -0.541502
0.130370 0.926707 -0.541522
0.135577 0.927086 -0.541776
0.140741 0.927173 -0.541867
0.146018 0.927819 -0.542275
0.151485 0.929370 -0.543196
0.156823 0.930157 -0.543689
0.162196 0.931031 -0.544233
0.167673 0.932315 -0.545011
0.173026 0.932924 -0.545411
0.178306 0.933134 -0.545588
0.183596 0.933334 -0.545762
0.188945 0.933735 -0.546052
0.194218 0.933757 -0.546132
0.199627 0.934291 -0.546502
0.205077 0.934915 -0.546928
0.210532 0.935487 -0.547326
0.215710 0.934924 -0.547088
0.224346 0.947313 -0.554170
0.230228 0.949021 -0.555222
0.230900 0.931840 -0.545601
0.253568 0.973134 -0.569138
0.258637 0.971243 -0.568172
0.261017 0.960407 -0.562150
0.265869 0.957997 -0.560896
0.284327 0.999274 -0.584368
0.289021 0.995627 -0.582427
0.293402 0.991080 -0.579980
0.300549 0.995033 -0.582349
0.308528 1.001270 -0.586017
0.314417 1.001087 -0.586055
0.332295 1.035455 -0.605677
0.341760 1.044720 -0.611084
0.350681 1.052088 -0.615424
0.363541 1.069959 -0.625728
0.368116 1.064785 -0.622969
0.375112 1.066132 -0.623915
0.382710 1.068935 -0.625694
0.387051 1.063170 -0.622613
0.391722 1.058341 -0.620068
0.398388 1.058560 -0.620394
0.403540 1.054962 -0.618557
0.409028 1.052203 -0.617201
0.418429 1.058790 -0.621166
0.424147 1.056431 -0.620047
0.427819 1.049310 -0.616224
0.434268 1.048660 -0.616086
0.441864 1.050532 -0.617391
0.450584 1.054770 -0.620049
0.455734 1.050986 -0.618140
0.459576 1.044405 -0.614639
0.466554 1.044610 -0.615012
0.474133 1.046001 -0.616064
0.480902 1.045604 -0.616100
0.486154 1.042046 -0.614333
0.493124 1.041990 -0.614569
0.499498 1.040690 -0.614094
0.506541 1.040686 -0.614362
0.516790 1.046855 -0.618163
0.524391 1.047751 -0.618948
0.529647 1.044155 -0.617160
0.532699 1.036505 -0.613044
0.538384 1.033882 -0.611803
0.548848 1.040020 -0.615583
0.554453 1.037263 -0.614256
0.564371 1.042250 -0.617367
0.571190 1.041691 -0.617288
0.576660 1.038832 -0.615878
0.582041 1.035925 -0.614429
0.585290 1.029515 -0.610954
0.591965 1.029061 -0.610889
0.601971 1.034223 -0.614041
0.608674 1.033929 -0.614040
0.614470 1.032262 -0.613233
0.625577 1.039281 -0.617408
0.637992 1.048353 -0.622748
0.646186 1.050714 -0.624206
-0.968087 1.349381 -0.807267
-0.951025 1.336901 -0.799884
-0.942761 1.337517 -0.800120
-0.939038 1.345169 -0.804436
-0.935426 1.353297 -0.809000
-0.921821 1.346334 -0.804732
-0.892596 1.315038 -0.786251
-0.868374 1.291068 -0.772030
-0.860849 1.293238 -0.773035
-0.852934 1.294912 -0.773731
-0.847194 1.300233 -0.776534
-0.843132 1.308490 -0.781029
-0.835037 1.310272 -0.781739
-0.827350 1.312814 -0.782878
-0.820993 1.317696 -0.785366
-0.814548 1.322546 -0.787825
-0.807254 1.326027 -0.789480
-0.800999 1.331403 -0.792228
-0.794049 1.335643 -0.794310
-0.786889 1.339566 -0.796204
-0.779887 1.343826 -0.798289
-0.773257 1.348826 -0.800801
-0.765383 1.351550 -0.801992
-0.758518 1.356186 -0.804292
-0.751909 1.361358 -0.806901
-0.744156 1.364345 -0.808248
-0.735941 1.366406 -0.809062
-0.728591 1.370157 -0.810857
-0.721298 1.374025 -0.812723
-0.714684 1.379292 -0.815400
-0.708626 1.385757 -0.818773
-0.701614 1.390272 -0.821025
-0.691874 1.388954 -0.819918
-0.686678 1.397364 -0.824426
-0.678657 1.399670 -0.825420
-0.672672 1.406481 -0.829015
-0.664293 1.407942 -0.829536
-0.657576 1.413155 -0.832223
-0.649527 1.415295 -0.833148
-0.642551 1.419924 -0.835512
-0.635530 1.424471 -0.837834
-0.626821 1.424920 -0.837807
-0.619208 1.427985 -0.839291
-0.612638 1.433654 -0.842278
-0.608959 1.446773 -0.849546
-0.608259 1.467919 -0.861423
-0.623452 1.531501 -0.897646
-0.621982 1.552402 -0.909377
-0.611408 1.549098 -0.907232
-0.602618 1.550506 -0.907796
-0.595024 1.555212 -0.910258
-0.587619 1.560510 -0.913064
-0.580692 1.567269 -0.916714
-0.574821 1.577277 -0.922230
-0.567855 1.584239 -0.926006
-0.559149 1.586017 -0.926820
-0.550965 1.589386 -0.928551
-0.542441 1.591697 -0.929683
-0.533706 1.593317 -0.930425
-0.526339 1.599406 -0.933730
-0.526248 1.630044 -0.951077
-0.501878 1.578738 -0.921576
-0.487019 1.558488 -0.909843
-0.492508 1.609731 -0.938978
-0.479342 1.595260 -0.930560
-0.465966 1.579318 -0.921309
-0.461713 1.597148 -0.931359
-0.435883 1.602149 -0.933832
-0.428828 1.610240 -0.938334
-0.423218 1.624748 -0.946502
-0.410335 1.608378 -0.937048
-0.402095 1.611730 -0.938856
-0.397339 1.631030 -0.949769
-0.389527 1.636997 -0.953076
-0.381368 1.641544 -0.955576
-0.358361 1.663962 -0.968104
-0.347708 1.656222 -0.963609
-0.327071 1.642908 -0.955867
-0.317952 1.642551 -0.955594
-0.302814 1.660983 -0.965973
-0.295608 1.673441 -0.973014
-0.287796 1.682676 -0.978221
-0.274766 1.656196 -0.963070
-0.181784 1.139612 -0.668493
-0.173086 1.119695 -0.657111
-0.150809 1.030032 -0.605958
-0.143513 1.014634 -0.597159
-0.138052 1.015844 -0.597826
-0.132296 1.014046 -0.596781
-0.126966 1.016751 -0.598303
-0.121003 1.012264 -0.595727
-0.115872 1.017685 -0.598798
-0.109955 1.013164 -0.596206
-0.104315 1.011979 -0.595516
-0.098801 1.012554 -0.595830
-0.092907 1.006593 -0.592421
-0.087093 1.000909 -0.589171
-0.081618 1.001130 -0.589286
-0.075943 0.996549 -0.586667
-0.069732 0.975636 -0.574745
-0.064044 0.964471 -0.568377
-0.057415 0.911150 -0.537997
-0.052372 0.908965 -0.536746
-0.047394 0.909527 -0.537062
-0.042413 0.910474 -0.537598
-0.037421 0.911062 -0.537930
-0.032422 0.912876 -0.538961
-0.027379 0.918249 -0.542022
-0.022291 0.922603 -0.544502
-0.017210 0.923916 -0.545250
-0.012124 0.924833 -0.545774
-0.007065 0.924443 -0.545555
-0.002017 0.923847 -0.545219
0.003076 0.924573 -0.545637
0.008313 0.928351 -0.547794
0.012210 0.904369 -0.534139
0.017156 0.904076 -0.533980
0.022224 0.905822 -0.534983
0.027317 0.907652 -0.536035
0.032343 0.908252 -0.536387
0.037339 0.908361 -0.536461
0.042367 0.908832 -0.536743
0.047422 0.909527 -0.537152
0.052581 0.911245 -0.538146
0.057828 0.913652 -0.539534
0.062919 0.914286 -0.539914
0.067955 0.914321 -0.539953
0.073080 0.915119 -0.540429
0.078259 0.916270 -0.541106
0.083565 0.918309 -0.542292
0.088651 0.918473 -0.542411
0.093740 0.918611 -0.542516
0.098833 0.918750 -0.542624
0.104306 0.921440 -0.544187
0.109455 0.921777 -0.544412
0.114631 0.922235 -0.544707
0.119972 0.923645 -0.545546
0.125247 0.924544 -0.546097
0.130569 0.925625 -0.546753
0.135830 0.926264 -0.547159
0.140982 0.926237 -0.547189
0.146382 0.927489 -0.547949
0.151755 0.928496 -0.548572
0.156987 0.928711 -0.548746
0.162358 0.929543 -0.549275
0.168001 0.931586 -0.550497
0.173408 0.932394 -0.551017
0.178615 0.932228 -0.550984
0.183714 0.931553 -0.550663
0.189207 0.932551 -0.551301
0.194875 0.934188 -0.552306
0.200065 0.933756 -0.552133
0.205672 0.934962 -0.552898
0.210897 0.934577 -0.552758
0.216138 0.934219 -0.552637
0.223992 0.943609 -0.558088
0.229958 0.945637 -0.559338
0.236309 0.948914 -0.561306
0.240062 0.942861 -0.557946
0.249761 0.957516 -0.566426
0.254705 0.955452 -0.565353
0.258273 0.948834 -0.561680
0.265383 0.953956 -0.564724
0.272117 0.957623 -0.566942
0.277891 0.958076 -0.567326
0.283250 0.957173 -0.566938
0.290723 0.962648 -0.570206
0.296187 0.961880 -0.569905
0.302811 0.964471 -0.571532
0.339291 1.034982 -0.612248
0.347038 1.039166 -0.614816
0.355560 1.045262 -0.618488
0.362403 1.046555 -0.619412
0.365560 1.037950 -0.614662
0.370263 1.033575 -0.612343
0.380382 1.043176 -0.618053
0.386844 1.043146 -0.618240
0.394375 1.045700 -0.619918
0.401310 1.046632 -0.620670
0.405863 1.041692 -0.618051
0.412406 1.041557 -0.618200
0.417476 1.037884 -0.616320
0.421960 1.032881 -0.613676
0.431310 1.039036 -0.617462
0.433538 1.028924 -0.611884
0.437736 1.023386 -0.608943
0.451558 1.038956 -0.618174
0.455520 1.032771 -0.614869
0.458119 1.023784 -0.609948
0.463777 1.021385 -0.608829
0.472659 1.025648 -0.611561
0.480041 1.026674 -0.612427
0.485570 1.023880 -0.611088
0.494929 1.028711 -0.614159
0.496948 1.018975 -0.608805
0.506441 1.023910 -0.611940
0.511578 1.020356 -0.610160
0.517780 1.018867 -0.609573
0.525354 1.019947 -0.610473
0.532710 1.020584 -0.611113
0.538281 1.017951 -0.609851
0.543473 1.014701 -0.608225
0.553813 1.020672 -0.611945
0.563269 1.024975 -0.614691
0.569014 1.022776 -0.613651
0.574287 1.019861 -0.612183
0.580754 1.019086 -0.611946
0.589727 1.022588 -0.614184
0.597559 1.024199 -0.615308
0.604366 1.024179 -0.615468
0.604804 1.013927 -0.609652
0.612637 1.015859 -0.610911
0.618392 1.014565 -0.610273
0.629028 1.021098 -0.614175
-0.952232 1.322814 -0.800986
-0.955096 1.339557 -0.810785
-0.947371 1.340995 -0.811511
-0.940861 1.344457 -0.813403
-0.933753 1.347235 -0.814862
-0.928501 1.353067 -0.818095
-0.915138 1.346557 -0.814019
-0.870218 1.290509 -0.780698
-0.858516 1.286049 -0.777800
-0.853946 1.293017 -0.781621
-0.848303 1.298473 -0.784530
-0.842928 1.304553 -0.787788
-0.836449 1.308987 -0.790060
-0.828858 1.311691 -0.791299
-0.822200 1.316064 -0.793508
-0.815687 1.320795 -0.795915
-0.808735 1.324873 -0.797929
-0.800385 1.326573 -0.798538
-0.793096 1.330176 -0.800259
-0.788056 1.337884 -0.804384
-0.781224 1.342467 -0.806670
-0.774224 1.346796 -0.808805
-0.766844 1.350461 -0.810549
-0.759567 1.354343 -0.812419
-0.752404 1.358464 -0.814430
-0.743645 1.359501 -0.814639
-0.735882 1.362439 -0.815962
-0.728748 1.366617 -0.818014
-0.724262 1.376172 -0.823210
-0.715901 1.377927 -0.823853
-0.708604 1.381840 -0.825760
-0.701655 1.386484 -0.828100
-0.695704 1.393283 -0.831701
-0.683690 1.387013 -0.827688
-0.678502 1.395462 -0.832262
-0.671870 1.400819 -0.835039
-0.664075 1.403581 -0.836311
-0.655435 1.404373 -0.836444
-0.650903 1.414638 -0.842094
-0.644290 1.420172 -0.844998
-0.636062 1.421886 -0.845687
-0.627955 1.423832 -0.846519
-0.619236 1.424209 -0.846447
-0.613962 1.433132 -0.851344
-0.605986 1.435334 -0.852346
-0.601129 1.445566 -0.858014
-0.619276 1.516466 -0.898880
-0.620055 1.543153 -0.914089
-0.613087 1.549574 -0.917548
-0.604707 1.552197 -0.918812
-0.596281 1.554669 -0.919996
-0.591859 1.568526 -0.927781
-0.583472 1.571257 -0.929127
-0.577003 1.579629 -0.933746
-0.568308 1.581510 -0.934613
-0.559103 1.581795 -0.934563
-0.551313 1.586392 -0.937015
-0.543492 1.590956 -0.939454
-0.535186 1.594026 -0.941035
-0.526206 1.594905 -0.941355
-0.523294 1.616031 -0.953387
-0.505811 1.588169 -0.937105
-0.493450 1.576936 -0.930445
-0.491869 1.603421 -0.945587
-0.478297 1.587477 -0.936218
-0.469494 1.588416 -0.936610
-0.463657 1.600507 -0.943448
-0.452028 1.590703 -0.937646
-0.439762 1.577872 -0.930104
-0.434764 1.593680 -0.939101
