ply
format ascii 1.0
comment ---
element vertex 1691
property float x
property float y
property float z
element face 0
property list uchar uint vertex_indices
end_header
-0.312918 1.717361 -0.260322
-0.310270 1.717749 -0.261141
-0.308719 1.714920 -0.260928
-0.306941 1.712686 -0.260936
-0.306003 1.708088 -0.260181
-0.301942 1.711993 -0.262287
-0.296165 1.720301 -0.265914
-0.292905 1.721628 -0.267241
-0.278487 1.752017 -0.278455
-0.271063 1.763467 -0.283345
-0.263647 1.774508 -0.288165
-0.269310 1.752237 -0.281591
-0.270299 1.742056 -0.279150
-0.265936 1.745177 -0.281324
-0.252886 1.769187 -0.290839
-0.253479 1.759861 -0.288755
-0.254571 1.749511 -0.286298
-0.249805 1.753008 -0.288746
-0.244709 1.757105 -0.291446
-0.234752 1.772084 -0.298096
-0.231430 1.771715 -0.299279
-0.230140 1.766783 -0.298822
-0.226382 1.767313 -0.300360
-0.203869 1.808351 -0.316828
-0.201210 1.805891 -0.317387
-0.206016 1.787670 -0.312080
-0.195889 1.800975 -0.318521
-0.186664 1.812047 -0.324194
-0.179568 1.818466 -0.328166
-0.175956 1.817670 -0.329426
-0.167068 1.827326 -0.334707
-0.159936 1.833254 -0.338604
-0.153397 1.837841 -0.342016
-0.147361 1.841308 -0.345023
-0.139804 1.847529 -0.349138
-0.135114 1.848185 -0.351087
-0.124281 1.860157 -0.357555
-0.115596 1.867876 -0.362383
-0.111701 1.866699 -0.363669
-0.099968 1.879531 -0.370637
-0.093041 1.883521 -0.374067
-0.085851 1.887834 -0.377654
-0.077605 1.893832 -0.381965
-0.065869 1.905620 -0.388715
-0.059584 1.907875 -0.391546
-0.051235 1.913488 -0.395805
-0.043261 1.918306 -0.399760
-0.032695 1.927215 -0.405486
-0.024928 1.931348 -0.409217
-0.018527 1.933151 -0.411971
-0.009143 1.939592 -0.416749
0.003347 1.950716 -0.423603
0.014107 1.958867 -0.429217
0.019115 1.957960 -0.430888
0.031160 1.967708 -0.437282
0.037490 1.968604 -0.439786
0.047265 1.974550 -0.444565
0.055491 1.978036 -0.448272
0.065299 1.983696 -0.452990
0.073890 1.987424 -0.456863
0.084943 1.994532 -0.462313
0.095130 2.000210 -0.467148
0.105660 2.006190 -0.472161
0.111904 2.006055 -0.474361
0.120745 2.009416 -0.478209
0.129670 2.012759 -0.482076
0.131074 2.005874 -0.481118
0.136218 2.004034 -0.482539
0.145780 2.007975 -0.486734
0.156036 2.012675 -0.491326
0.168014 2.019435 -0.496954
0.180765 2.026978 -0.503012
0.185537 2.024220 -0.504069
0.189130 2.019971 -0.504387
0.192077 2.014935 -0.504304
0.195169 2.010106 -0.504308
0.198894 2.006071 -0.504697
0.203182 2.002721 -0.505421
0.207280 1.999140 -0.506024
0.211195 1.995340 -0.506508
0.214536 1.990874 -0.506643
0.218177 1.986769 -0.506953
0.221192 1.981956 -0.506887
0.226555 1.979826 -0.508207
0.228962 1.974347 -0.507773
0.232081 1.969693 -0.507759
0.234909 1.964735 -0.507571
0.237461 1.959501 -0.507223
0.241633 1.956041 -0.507812
0.246252 1.953053 -0.508651
0.249540 1.948640 -0.508717
0.252073 1.943448 -0.508347
0.255131 1.938826 -0.508276
0.258433 1.934469 -0.508341
0.261950 1.930341 -0.508524
0.263760 1.924498 -0.507743
0.268793 1.921906 -0.508768
0.272036 1.917522 -0.508784
0.274778 1.912657 -0.508518
0.277590 1.907877 -0.508289
0.282351 1.904983 -0.509132
0.286077 1.901085 -0.509396
0.288818 1.896259 -0.509117
0.291827 1.891698 -0.508981
0.294214 1.886575 -0.508505
0.296394 1.881286 -0.507917
0.300308 1.877588 -0.508261
0.302457 1.872304 -0.507653
0.306838 1.869022 -0.508235
0.310010 1.864664 -0.508166
0.310543 1.858019 -0.506696
0.313471 1.853484 -0.506495
0.318237 1.850525 -0.507254
0.321638 1.846391 -0.507288
0.324465 1.841779 -0.507019
0.327648 1.837471 -0.506929
0.330314 1.832742 -0.506568
0.332700 1.827799 -0.506060
0.335101 1.822882 -0.505557
0.338654 1.818896 -0.505639
0.343037 1.815558 -0.506135
0.344638 1.810037 -0.505214
0.346377 1.804649 -0.504361
0.350095 1.800794 -0.504503
0.354548 1.797485 -0.505002
0.355053 1.791208 -0.503525
0.355308 1.784786 -0.501927
0.358409 1.780491 -0.501740
0.363959 1.777971 -0.502750
0.371874 1.777109 -0.504903
0.374385 1.772342 -0.504393
0.376354 1.767202 -0.503614
0.377910 1.761791 -0.502633
0.381508 1.757805 -0.502634
0.383310 1.752589 -0.501764
0.386323 1.748205 -0.501469
0.388997 1.743593 -0.501005
0.394027 1.740538 -0.501652
0.397786 1.736623 -0.501683
0.396601 1.729508 -0.499376
0.394538 1.721889 -0.496665
0.396068 1.716604 -0.495642
0.401092 1.713517 -0.496240
0.406669 1.710741 -0.497077
0.402859 1.702193 -0.493567
0.406795 1.698411 -0.493630
0.411741 1.695214 -0.494143
0.416143 1.691666 -0.494390
0.418909 1.687138 -0.493881
0.424605 1.684299 -0.494685
0.427261 1.679685 -0.494103
0.429312 1.674727 -0.493242
0.431986 1.670123 -0.492651
0.434036 1.665173 -0.491775
0.435447 1.659879 -0.490610
0.438078 1.655256 -0.489978
0.442337 1.651497 -0.490051
0.446195 1.647504 -0.489934
0.447845 1.642346 -0.488845
0.450080 1.637497 -0.488005
0.454061 1.633535 -0.487910
0.456573 1.628818 -0.487172
0.464367 1.626712 -0.488682
0.461050 1.619112 -0.485443
0.464227 1.614714 -0.484968
0.467636 1.610418 -0.484582
0.470145 1.605686 -0.483810
0.473245 1.601228 -0.483280
0.476280 1.596734 -0.482717
0.478695 1.591952 -0.481892
0.480005 1.586679 -0.480610
0.482106 1.581770 -0.479655
0.486209 1.577738 -0.479519
0.488609 1.572960 -0.478686
0.490228 1.567856 -0.477539
0.493690 1.563537 -0.477141
0.495807 1.558659 -0.476205
0.497657 1.553684 -0.475170
0.499816 1.548849 -0.474268
0.501467 1.543827 -0.473176
0.503959 1.539153 -0.472430
0.507065 1.534729 -0.471938
0.510440 1.530414 -0.471565
0.514762 1.526459 -0.471575
0.515357 1.521135 -0.470153
0.516533 1.516062 -0.468984
0.519855 1.511791 -0.468667
0.523553 1.507669 -0.468518
0.527430 1.503623 -0.468461
0.529950 1.499129 -0.467915
0.532291 1.494607 -0.467332
0.534680 1.490135 -0.466802
0.540512 1.486821 -0.467602
0.542881 1.482401 -0.467134
0.544754 1.477865 -0.466520
0.548046 1.473817 -0.466477
0.550925 1.469678 -0.466320
0.552452 1.465172 -0.465706
0.553582 1.460602 -0.464991
0.557089 1.456788 -0.465198
0.559912 1.452815 -0.465198
0.562020 1.448686 -0.464981
0.564373 1.444678 -0.464901
0.566534 1.440669 -0.464797
0.570206 1.437123 -0.465289
0.574762 1.433854 -0.466146
0.577201 1.430063 -0.466280
0.582415 1.427042 -0.467461
0.585877 1.423605 -0.468053
0.585116 1.419154 -0.467166
0.586963 1.415422 -0.467265
-0.335667 1.707894 -0.255048
-0.332563 1.710839 -0.256480
-0.330204 1.711253 -0.257120
-0.327230 1.713447 -0.258369
-0.324747 1.713967 -0.259103
-0.322098 1.714859 -0.259989
-0.319081 1.716711 -0.261224
-0.316068 1.718390 -0.262435
-0.313612 1.718287 -0.263089
-0.311500 1.717086 -0.263407
-0.308853 1.717320 -0.264233
-0.307906 1.712676 -0.263452
-0.306993 1.707947 -0.262659
-0.303490 1.710305 -0.264286
-0.297261 1.719849 -0.268397
-0.294394 1.720102 -0.269389
-0.280574 1.749021 -0.280265
-0.275112 1.755426 -0.283492
-0.273959 1.750535 -0.282850
-0.277956 1.732660 -0.277690
-0.273677 1.735795 -0.279862
-0.270804 1.735303 -0.280794
-0.254448 1.767524 -0.293347
-0.250522 1.769004 -0.295093
-0.255853 1.748423 -0.288963
-0.249569 1.755466 -0.292730
-0.231050 1.774377 -0.303526
-0.231178 1.766216 -0.301881
-0.227408 1.766757 -0.303448
-0.205083 1.807482 -0.320039
-0.202111 1.805673 -0.320851
-0.204330 1.792863 -0.317513
-0.196016 1.802331 -0.322601
-0.187982 1.810935 -0.327414
-0.181935 1.815223 -0.330620
-0.176969 1.817180 -0.332954
-0.168424 1.826164 -0.338046
-0.161904 1.830902 -0.341526
-0.156069 1.834145 -0.344448
-0.148415 1.840761 -0.348733
-0.142070 1.844688 -0.351985
-0.134677 1.850443 -0.355997
-0.126145 1.858133 -0.360826
-0.116877 1.866950 -0.366158
-0.108469 1.873957 -0.370799
-0.101064 1.878962 -0.374657
-0.094096 1.883031 -0.378158
-0.085723 1.889423 -0.382653
-0.079105 1.892584 -0.385831
-0.069728 1.900357 -0.390973
-0.058461 1.911112 -0.397425
-0.050164 1.916604 -0.401690
-0.042177 1.921413 -0.405696
-0.034382 1.925751 -0.409528
-0.026583 1.929951 -0.413327
-0.018919 1.933793 -0.416997
-0.007601 1.943302 -0.423179
-0.001422 1.944483 -0.425738
0.010164 1.953990 -0.432007
0.019696 1.960083 -0.436805
0.027775 1.963782 -0.440566
0.036081 1.967689 -0.444445
0.044942 1.972284 -0.448664
0.052239 1.974422 -0.451791
0.064387 1.983534 -0.458141
0.069186 1.981788 -0.459527
0.085669 1.996715 -0.468663
0.094678 2.000704 -0.472771
0.101806 2.001916 -0.475603
0.108595 2.002571 -0.478187
0.119333 2.008567 -0.483323
0.122623 2.004263 -0.483575
0.124548 1.998148 -0.482943
0.133358 2.001250 -0.486745
0.146173 2.009501 -0.493077
0.158249 2.016554 -0.498879
0.167853 2.020209 -0.503060
0.178715 2.025330 -0.507997
0.184968 2.024448 -0.509990
0.188382 2.019959 -0.510186
0.190829 2.014288 -0.509777
0.194435 2.010081 -0.510089
0.198715 2.006706 -0.510812
0.201765 2.001845 -0.510772
0.206252 1.998722 -0.511610
0.210478 1.995279 -0.512280
0.212735 1.989533 -0.511747
0.216117 1.985126 -0.511896
0.221594 1.983135 -0.513303
0.225603 1.979443 -0.513816
0.228460 1.974457 -0.513635
0.230931 1.969066 -0.513224
0.234874 1.965327 -0.513685
0.238085 1.960789 -0.513708
0.241653 1.956650 -0.513938
0.245077 1.952363 -0.514079
0.247586 1.947118 -0.513684
0.250476 1.942298 -0.513511
0.254219 1.938383 -0.513828
0.258120 1.934631 -0.514230
0.261355 1.930199 -0.514245
0.264016 1.925198 -0.513930
0.267707 1.921247 -0.514198
0.271250 1.917150 -0.514378
0.274133 1.912411 -0.514181
0.278011 1.908650 -0.514539
0.281141 1.904169 -0.514475
0.284884 1.900279 -0.514747
0.287993 1.895792 -0.514662
0.291067 1.891281 -0.514555
0.292739 1.885487 -0.513675
0.296239 1.881397 -0.513797
0.298980 1.876623 -0.513501
0.302573 1.872625 -0.513665
0.305963 1.868447 -0.513714
0.309807 1.864669 -0.514001
0.311410 1.858938 -0.513081
0.314435 1.854463 -0.512921
0.317132 1.849716 -0.512585
0.321046 1.846009 -0.512889
0.324381 1.841809 -0.512880
0.327408 1.837356 -0.512705
0.330128 1.832658 -0.512364
0.332114 1.827376 -0.511637
0.334829 1.822702 -0.511289
0.337980 1.818382 -0.511162
0.340262 1.813383 -0.510582
0.344337 1.809795 -0.510920
0.346730 1.804899 -0.510390
0.350282 1.800900 -0.510446
0.352938 1.796219 -0.510040
0.355572 1.791530 -0.509619
0.354523 1.784128 -0.507343
0.355725 1.778436 -0.506203
0.359595 1.774705 -0.506395
0.360300 1.768694 -0.505005
0.365451 1.765872 -0.505818
0.376303 1.767022 -0.509423
0.378033 1.761719 -0.508515
0.376215 1.753997 -0.505870
0.379682 1.749940 -0.505810
0.382932 1.745728 -0.505635
0.388772 1.743237 -0.506702
0.390287 1.737856 -0.505671
0.394655 1.734353 -0.506003
0.402743 1.733227 -0.508097
0.394020 1.721308 -0.502177
0.391848 1.713681 -0.499393
0.396821 1.710580 -0.499986
0.400035 1.706363 -0.499738
0.401989 1.701369 -0.498891
0.405494 1.697322 -0.498760
0.412477 1.695338 -0.500229
0.416347 1.691460 -0.500238
0.421153 1.688111 -0.500664
0.423805 1.683491 -0.500087
0.425849 1.678522 -0.499224
0.428175 1.673719 -0.498484
0.430506 1.668920 -0.497737
0.432638 1.664015 -0.496895
0.434764 1.659111 -0.496042
0.437879 1.654743 -0.495624
0.441654 1.650717 -0.495489
0.444660 1.646270 -0.495000
0.447805 1.641887 -0.494563
0.451814 1.637937 -0.494494
0.454818 1.633459 -0.493973
0.457564 1.628843 -0.493330
0.459343 1.623745 -0.492261
0.462484 1.619319 -0.491774
0.464481 1.614333 -0.490787
0.466541 1.609381 -0.489824
0.469198 1.604713 -0.489109
0.471965 1.600093 -0.488436
0.475222 1.595695 -0.487963
0.478198 1.591159 -0.487366
0.481117 1.586593 -0.486741
0.482341 1.581277 -0.485407
0.485025 1.576612 -0.484680
0.486432 1.571399 -0.483427
0.489441 1.566879 -0.482836
0.492425 1.562346 -0.482236
0.494185 1.557311 -0.481140
0.496600 1.552555 -0.480317
0.498812 1.547727 -0.479419
0.500601 1.542744 -0.478360
0.502895 1.537977 -0.477517
0.505818 1.533464 -0.476936
0.509472 1.529236 -0.476658
0.511531 1.524418 -0.475763
0.514717 1.520036 -0.475330
0.517024 1.515348 -0.474571
0.519379 1.510702 -0.473854
0.522898 1.506488 -0.473613
0.525958 1.502131 -0.473218
0.528283 1.497547 -0.472568
0.530348 1.492909 -0.471850
0.536984 1.489814 -0.472913
0.540454 1.485684 -0.472793
0.542630 1.481168 -0.472217
0.544903 1.476724 -0.471716
0.547750 1.472501 -0.471473
0.552469 1.468889 -0.471974
0.553347 1.464146 -0.471074
0.556695 1.460194 -0.471144
0.558525 1.455839 -0.470692
0.559879 1.451403 -0.470109
0.561217 1.447021 -0.469569
0.563467 1.442953 -0.469416
0.566746 1.439219 -0.469688
0.570806 1.435740 -0.470293
0.572667 1.431717 -0.470135
0.575776 1.428077 -0.470481
0.574789 1.423432 -0.469375
0.578808 1.420133 -0.470146
0.582947 1.416904 -0.471004
0.584267 1.413023 -0.470878
-0.336297 1.709389 -0.257784
-0.334845 1.707013 -0.257501
-0.331541 1.710425 -0.259151
-0.328845 1.711739 -0.260141
-0.326220 1.712682 -0.261040
-0.323538 1.713657 -0.261981
-0.319305 1.719145 -0.264462
-0.316922 1.718893 -0.265062
-0.314475 1.718716 -0.265717
-0.311913 1.718763 -0.266479
-0.309721 1.717638 -0.266874
-0.308628 1.713336 -0.266216
-0.306793 1.711095 -0.266282
-0.305044 1.708571 -0.266274
-0.299862 1.715305 -0.269484
-0.295234 1.720280 -0.272135
-0.286736 1.735238 -0.278311
-0.277755 1.750968 -0.284838
-0.271292 1.759723 -0.288996
-0.278365 1.733819 -0.280954
-0.275026 1.734561 -0.282320
-0.272511 1.733164 -0.282951
-0.251717 1.776314 -0.299616
-0.249951 1.772450 -0.299483
-0.253794 1.755265 -0.294516
-0.225448 1.805474 -0.315538
-0.226308 1.795122 -0.313127
-0.231984 1.766162 -0.305141
-0.228137 1.766852 -0.306790
-0.204461 1.802344 -0.323142
-0.205892 1.791194 -0.320385
-0.200576 1.794404 -0.323127
-0.190910 1.806488 -0.329340
-0.183154 1.814321 -0.333963
-0.179688 1.813244 -0.335134
-0.171353 1.821865 -0.340142
-0.163419 1.829441 -0.344785
-0.157644 1.832579 -0.347699
-0.148859 1.841395 -0.352921
-0.145259 1.840086 -0.354094
-0.133571 1.853978 -0.361460
-0.122806 1.865786 -0.368047
-0.118382 1.865618 -0.369761
-0.110945 1.870881 -0.373734
-0.103066 1.876773 -0.378000
-0.096316 1.880480 -0.381385
-0.086535 1.889378 -0.386986
-0.077548 1.896653 -0.391946
-0.073268 1.895634 -0.393406
-0.067482 1.897146 -0.395953
-0.051613 1.915512 -0.405799
-0.043852 1.919958 -0.409690
-0.038538 1.920236 -0.411786
-0.029614 1.926325 -0.416445
-0.016412 1.939110 -0.424103
-0.010165 1.940506 -0.426764
-0.002957 1.943331 -0.430077
0.008380 1.952471 -0.436254
0.018902 1.960108 -0.441804
0.025643 1.961766 -0.444676
0.033701 1.965320 -0.448432
0.044641 1.973042 -0.454133
0.050102 1.972456 -0.456033
0.061031 1.979813 -0.461638
0.069372 1.983217 -0.465436
0.082006 1.992634 -0.472094
0.092041 1.998116 -0.476946
0.099296 1.999526 -0.479895
0.104709 1.998290 -0.481592
0.111272 1.998594 -0.484035
0.106460 1.983365 -0.478962
0.124155 1.998665 -0.488692
0.131394 1.999665 -0.491508
0.143665 2.007215 -0.497568
0.155578 2.014077 -0.503340
0.162443 2.014213 -0.505809
0.173062 2.019078 -0.510661
0.183399 2.023420 -0.515288
0.187369 2.019622 -0.515829
0.190212 2.014431 -0.515651
0.193739 2.010110 -0.515904
0.197797 2.006451 -0.516486
0.201770 2.002689 -0.517009
0.205366 1.998480 -0.517291
0.209986 1.995491 -0.518202
0.213397 1.991075 -0.518359
0.216543 1.986366 -0.518351
0.219988 1.982018 -0.518523
0.223685 1.977969 -0.518845
0.226842 1.973319 -0.518835
0.230290 1.969009 -0.518998
0.233823 1.964804 -0.519210
0.237848 1.961143 -0.519710
0.241220 1.956774 -0.519816
0.245017 1.952869 -0.520170
0.246150 1.946145 -0.518947
0.248810 1.941077 -0.518629
0.252930 1.937551 -0.519165
0.256994 1.933959 -0.519661
0.260412 1.929704 -0.519775
0.263594 1.925217 -0.519749
0.266555 1.920522 -0.519593
0.269845 1.916167 -0.519624
0.273758 1.912429 -0.520006
0.276396 1.907451 -0.519658
0.280355 1.903761 -0.520057
0.282473 1.898316 -0.519411
0.286095 1.894314 -0.519611
0.288744 1.889407 -0.519262
0.291935 1.885017 -0.519214
0.295104 1.880614 -0.519150
0.299285 1.877134 -0.519641
0.302838 1.873080 -0.519778
0.304821 1.867634 -0.519050
0.308542 1.863741 -0.519271
0.312286 1.859864 -0.519499
0.313197 1.853545 -0.518187
0.316211 1.849062 -0.518014
0.319557 1.844867 -0.518016
0.323670 1.841313 -0.518422
0.326741 1.836886 -0.518264
0.328823 1.831655 -0.517578
0.331500 1.826928 -0.517206
0.333999 1.822069 -0.516738
0.337077 1.817684 -0.516570
0.339554 1.812830 -0.516084
0.342264 1.808170 -0.515716
0.347139 1.805187 -0.516465
0.349826 1.800510 -0.516074
0.352333 1.795707 -0.515586
0.355118 1.791121 -0.515236
0.353932 1.783607 -0.512860
0.357422 1.779580 -0.512867
0.360160 1.775004 -0.512485
0.362100 1.769861 -0.511698
0.364181 1.764835 -0.510978
0.370432 1.762750 -0.512338
0.376669 1.760608 -0.513671
0.373378 1.751873 -0.510266
0.374717 1.746377 -0.509162
0.380350 1.743792 -0.510167
0.383325 1.739400 -0.509854
0.386992 1.735462 -0.509870
0.387148 1.729227 -0.508172
0.390195 1.724892 -0.507874
0.390012 1.718496 -0.506013
0.391057 1.712915 -0.504745
0.394014 1.708550 -0.504388
0.398733 1.705270 -0.504861
0.401342 1.700674 -0.504319
0.403907 1.696054 -0.503749
0.412127 1.694807 -0.505827
0.417616 1.691875 -0.506598
0.420341 1.687293 -0.506062
0.422723 1.682511 -0.505358
0.425053 1.677703 -0.504623
0.427629 1.673036 -0.503994
0.430036 1.668274 -0.503279
0.432298 1.663433 -0.502490
0.435271 1.658982 -0.502017
0.438769 1.654806 -0.501771
0.441690 1.650310 -0.501253
0.444517 1.645758 -0.500683
0.447302 1.641179 -0.500085
0.450788 1.636955 -0.499789
0.453929 1.632541 -0.499329
0.457417 1.628291 -0.499011
0.460141 1.623650 -0.498347
0.461604 1.618390 -0.497124
0.463684 1.613437 -0.496166
0.465822 1.608516 -0.495229
0.468324 1.603768 -0.494443
0.471544 1.599351 -0.493960
0.474356 1.594739 -0.493295
0.477897 1.590450 -0.492935
0.481012 1.585959 -0.492386
0.482984 1.580959 -0.491350
0.482727 1.574999 -0.489379
0.485073 1.570187 -0.488505
0.488946 1.566023 -0.488266
0.492487 1.561708 -0.487887
0.495182 1.557038 -0.487158
0.496074 1.551642 -0.485692
0.497547 1.546502 -0.484475
0.499313 1.541498 -0.483388
0.501816 1.536797 -0.482612
0.504779 1.532282 -0.482032
0.507369 1.527635 -0.481313
0.510994 1.523386 -0.481023
0.514588 1.519129 -0.480733
0.516975 1.514444 -0.479980
0.519635 1.509878 -0.479357
0.522919 1.505551 -0.479001
0.524787 1.500754 -0.478114
0.526653 1.495990 -0.477256
0.530378 1.491881 -0.477152
0.538204 1.489141 -0.478665
0.540438 1.484570 -0.478039
0.542471 1.479975 -0.477372
0.545107 1.475610 -0.476975
0.550073 1.472005 -0.477508
0.552937 1.467780 -0.477275
0.556542 1.463816 -0.477365
0.557433 1.459089 -0.476470
0.559693 1.454820 -0.476140
0.560655 1.450232 -0.475368
0.561548 1.445687 -0.474619
0.563729 1.441563 -0.474402
0.567164 1.437835 -0.474700
0.569219 1.433780 -0.474530
0.572181 1.430021 -0.474745
0.571465 1.425356 -0.473643
0.573902 1.421575 -0.473758
0.576731 1.417947 -0.474065
0.579841 1.414438 -0.474520
0.582740 1.410925 -0.474941
0.584786 1.407257 -0.475093
-0.339507 1.709551 -0.259615
-0.337644 1.708552 -0.259777
-0.335687 1.707761 -0.260034
-0.333973 1.706098 -0.260027
-0.330348 1.710351 -0.262027
-0.327547 1.711823 -0.263130
-0.324381 1.714253 -0.264590
-0.321223 1.716479 -0.266016
-0.318126 1.718344 -0.267357
-0.315520 1.718601 -0.268185
-0.313058 1.718315 -0.268859
-0.310969 1.716853 -0.269161
-0.308908 1.715236 -0.269436
-0.307679 1.711229 -0.268909
-0.305469 1.709920 -0.269340
-0.302915 1.709477 -0.270099
-0.297193 1.717447 -0.273844
-0.292847 1.721466 -0.276251
-0.278685 1.735203 -0.284330
-0.276135 1.733913 -0.284997
-0.273462 1.732875 -0.285776
-0.266683 1.741833 -0.290219
-0.262609 1.743944 -0.292213
-0.257219 1.749063 -0.295348
-0.229731 1.797531 -0.316003
-0.228855 1.791205 -0.315057
-0.236751 1.765098 -0.306639
-0.234542 1.762189 -0.306927
-0.231672 1.760751 -0.307780
-0.208930 1.786380 -0.322027
-0.202936 1.791065 -0.325373
-0.194382 1.800895 -0.330777
-0.186358 1.809348 -0.335694
-0.178419 1.817375 -0.340492
-0.173255 1.819607 -0.343017
-0.165047 1.827757 -0.347947
-0.157628 1.834122 -0.352201
-0.150038 1.840620 -0.356548
-0.145872 1.840387 -0.358172
-0.135591 1.851643 -0.364546
-0.131118 1.851767 -0.366357
-0.119593 1.864832 -0.373584
-0.112785 1.868963 -0.377126
-0.105744 1.873371 -0.380811
-0.098765 1.877524 -0.384415
-0.091895 1.881343 -0.387903
-0.078236 1.896842 -0.396444
-0.073765 1.896140 -0.398052
-0.060732 1.909974 -0.405995
-0.055150 1.910915 -0.408363
-0.046909 1.916212 -0.412661
-0.041110 1.917324 -0.415136
-0.031797 1.924080 -0.420139
-0.022924 1.929933 -0.424778
-0.014564 1.934790 -0.429002
-0.004234 1.942595 -0.434596
0.006057 1.950119 -0.440107
0.014868 1.955146 -0.444518
0.024678 1.961537 -0.449591
0.031665 1.963474 -0.452637
0.042244 1.970681 -0.458160
0.048935 1.971930 -0.460932
0.060393 1.980070 -0.466971
0.069023 1.983888 -0.471009
0.076027 1.985235 -0.473896
0.088142 1.993744 -0.480236
0.096056 1.996118 -0.483670
0.101513 1.994967 -0.485414
0.095866 1.978506 -0.479687
0.098441 1.973508 -0.479508
0.123901 1.999381 -0.494552
0.131472 2.000808 -0.497612
0.146055 2.011399 -0.505266
0.153750 2.012706 -0.508330
0.158943 2.010682 -0.509731
0.171231 2.017716 -0.515732
0.180769 2.021054 -0.519897
0.185083 2.017697 -0.520659
0.188883 2.013697 -0.521084
0.192486 2.009462 -0.521377
0.196393 2.005611 -0.521860
0.200712 2.002261 -0.522598
0.205139 1.999032 -0.523396
0.208514 1.994552 -0.523525
0.212098 1.990332 -0.523783
0.215812 1.986272 -0.524117
0.220128 1.982910 -0.524820
0.222036 1.976804 -0.524030
0.225779 1.972808 -0.524371
0.229470 1.968758 -0.524676
0.232924 1.964452 -0.524832
0.236386 1.960166 -0.524989
0.240469 1.956559 -0.525518
0.243519 1.951842 -0.525419
0.247372 1.947993 -0.525798
0.247770 1.940517 -0.524115
0.251673 1.936755 -0.524522
0.255945 1.933369 -0.525140
0.259560 1.929305 -0.525364
0.262660 1.924724 -0.525282
0.266315 1.920710 -0.525522
0.270827 1.917546 -0.526254
0.271982 1.911077 -0.525036
0.275437 1.906889 -0.525149
0.277469 1.901338 -0.524442
0.280839 1.897090 -0.524502
0.282934 1.891648 -0.523832
0.284626 1.885858 -0.522936
0.290158 1.883648 -0.524211
0.295045 1.880813 -0.525108
0.298551 1.876704 -0.525221
0.300930 1.871588 -0.524702
0.303874 1.866993 -0.524496
0.307385 1.862906 -0.524601
0.310505 1.858479 -0.524485
0.313393 1.853860 -0.524238
0.314349 1.847604 -0.522934
0.317959 1.843630 -0.523078
0.321342 1.839463 -0.523093
0.324722 1.835295 -0.523102
0.327527 1.830657 -0.522796
0.330363 1.826053 -0.522503
0.333333 1.821566 -0.522279
0.335605 1.816530 -0.521680
0.338450 1.811962 -0.521382
0.341031 1.807195 -0.520941
0.346193 1.804428 -0.521851
0.350299 1.800826 -0.522196
0.352849 1.796037 -0.521721
0.355713 1.791492 -0.521405
0.357504 1.786159 -0.520531
0.359747 1.781180 -0.519890
0.364771 1.778226 -0.520668
0.364558 1.771493 -0.518762
0.363369 1.764117 -0.516368
0.367670 1.760656 -0.516761
0.371523 1.756867 -0.516917
0.371161 1.750169 -0.514948
0.374217 1.745844 -0.514693
0.378525 1.742358 -0.515054
0.383058 1.739004 -0.515514
0.385396 1.734181 -0.514877
0.387963 1.729516 -0.514347
0.388963 1.723845 -0.513044
0.389548 1.717937 -0.511538
0.393512 1.714188 -0.511675
0.395077 1.708927 -0.510639
0.398602 1.704892 -0.510544
0.400899 1.700096 -0.509849
0.403740 1.695634 -0.509407
0.413622 1.695367 -0.512308
0.415607 1.690348 -0.511430
0.418719 1.685995 -0.511078
0.421956 1.681706 -0.510775
0.424757 1.677162 -0.510258
0.427411 1.672530 -0.509662
0.430549 1.668166 -0.509282
0.432770 1.663290 -0.508468
0.436263 1.659108 -0.508232
0.438572 1.654277 -0.507442
0.441301 1.649670 -0.506835
0.445075 1.645607 -0.506694
0.447360 1.640756 -0.505866
0.448592 1.635366 -0.504557
0.451863 1.631021 -0.504158
0.454184 1.626191 -0.503325
0.458722 1.622453 -0.503470
0.461076 1.617626 -0.502633
0.462735 1.612463 -0.501482
0.464665 1.607438 -0.500448
0.469413 1.603738 -0.500639
0.472259 1.599129 -0.499989
0.474430 1.594206 -0.499039
0.476633 1.589301 -0.498100
0.479490 1.584689 -0.497438
0.480944 1.579457 -0.496171
0.482179 1.574143 -0.494813
0.485977 1.569939 -0.494543
0.487874 1.564921 -0.493467
0.491969 1.560825 -0.493316
0.495752 1.556586 -0.493030
0.495588 1.550744 -0.491100
0.496845 1.545503 -0.489774
0.499183 1.540708 -0.488904
0.501824 1.536040 -0.488167
0.503755 1.531110 -0.487149
0.506538 1.526518 -0.486491
0.510529 1.522383 -0.486335
0.513737 1.517962 -0.485874
0.516600 1.513427 -0.485289
0.521499 1.509628 -0.485538
0.525129 1.505383 -0.485295
0.525426 1.500005 -0.483750
0.527441 1.495259 -0.482918
0.532292 1.491489 -0.483233
0.535819 1.487292 -0.483052
0.540626 1.483530 -0.483401
0.541357 1.478487 -0.482192
0.545448 1.474549 -0.482329
0.548822 1.470415 -0.482223
0.552676 1.466459 -0.482341
0.555538 1.462238 -0.482116
0.559541 1.458394 -0.482370
0.561576 1.454015 -0.481914
0.561329 1.449039 -0.480636
0.562639 1.444575 -0.480002
0.564918 1.440438 -0.479784
0.566815 1.436251 -0.479469
0.569425 1.432312 -0.479472
0.570246 1.427955 -0.478849
0.573649 1.424333 -0.479246
0.574742 1.420169 -0.478823
0.577346 1.416448 -0.479013
0.579374 1.412638 -0.479035
0.582583 1.409171 -0.479542
0.586628 1.405952 -0.480405
-0.341262 1.707370 -0.261153
-0.338993 1.707689 -0.261774
-0.336927 1.707223 -0.262160
-0.334857 1.706654 -0.262538
-0.332468 1.706988 -0.263251
-0.328849 1.711019 -0.265251
-0.325395 1.714321 -0.267043
-0.322390 1.716049 -0.268334
-0.319725 1.716598 -0.269255
-0.317127 1.716810 -0.270094
-0.314403 1.717269 -0.271049
-0.311850 1.717105 -0.271821
-0.309807 1.715386 -0.272080
-0.308131 1.712567 -0.271980
-0.306661 1.709147 -0.271689
-0.304296 1.708156 -0.272278
-0.298233 1.717055 -0.276416
-0.295098 1.717834 -0.277708
-0.271818 1.763102 -0.296192
-0.274535 1.748013 -0.291892
-0.278153 1.730958 -0.286841
-0.272590 1.737114 -0.290278
-0.268095 1.740402 -0.292706
-0.264332 1.741754 -0.294450
-0.259418 1.745749 -0.297211
-0.243881 1.774662 -0.309378
-0.245016 1.755931 -0.305035
-0.239231 1.761257 -0.308449
-0.235917 1.760846 -0.309696
-0.230098 1.765933 -0.313085
-0.226289 1.766437 -0.314728
-0.201988 1.811131 -0.333702
-0.206917 1.792319 -0.327866
-0.203525 1.791444 -0.329066
-0.193447 1.804449 -0.335812
-0.188497 1.806546 -0.338252
-0.179601 1.816556 -0.343907
-0.175433 1.816794 -0.345650
-0.167378 1.824681 -0.350529
-0.159169 1.832633 -0.355481
-0.152331 1.837698 -0.359286
-0.145657 1.842283 -0.362924
-0.137099 1.850276 -0.368017
-0.130532 1.854318 -0.371493
-0.121003 1.863687 -0.377252
-0.116900 1.862897 -0.378734
-0.109387 1.868228 -0.382841
-0.098741 1.878978 -0.389319
-0.089529 1.886910 -0.394634
-0.083581 1.888928 -0.397413
-0.075919 1.893806 -0.401463
-0.067146 1.900423 -0.406311
-0.058487 1.906651 -0.411026
-0.049471 1.913291 -0.415961
-0.044372 1.913275 -0.417946
-0.032591 1.924107 -0.424838
-0.027235 1.924289 -0.426952
-0.016651 1.932757 -0.432860
-0.002577 1.946500 -0.441243
0.005553 1.950613 -0.445252
0.012616 1.952936 -0.448456
0.023297 1.960684 -0.454217
0.029963 1.962141 -0.457066
0.041045 1.970119 -0.463014
0.048453 1.972431 -0.466318
0.058213 1.978082 -0.471238
0.065818 1.980430 -0.474609
0.074095 1.983635 -0.478415
0.087348 1.993780 -0.485622
0.093602 1.993815 -0.487949
0.098181 1.991457 -0.489108
0.086995 1.967376 -0.479519
0.093674 1.968070 -0.482131
0.122422 1.998457 -0.499607
0.131701 2.002167 -0.503846
0.143858 2.009540 -0.509970
0.152043 2.011499 -0.513394
0.161051 2.014416 -0.517331
0.169590 2.016604 -0.520921
0.177141 2.017425 -0.523831
0.183906 2.017170 -0.526199
0.187609 2.013039 -0.526554
0.191577 2.009245 -0.527076
0.195110 2.004925 -0.527312
0.199470 2.001616 -0.528076
0.203647 1.998081 -0.528714
0.207082 1.993666 -0.528874
0.210505 1.989250 -0.529023
0.215087 1.986192 -0.529900
0.218500 1.981778 -0.530034
0.221175 1.976539 -0.529704
0.224951 1.972567 -0.530060
0.229163 1.969085 -0.530681
0.232556 1.964692 -0.530790
0.235305 1.959607 -0.530501
0.238923 1.955488 -0.530743
0.243057 1.951926 -0.531296
0.246042 1.947140 -0.531145
0.247982 1.941273 -0.530362
0.250959 1.936525 -0.530206
0.255149 1.933042 -0.530775
0.258708 1.928907 -0.530962
0.261915 1.924422 -0.530934
0.265901 1.920726 -0.531365
0.269239 1.916383 -0.531408
0.272040 1.911522 -0.531133
0.273581 1.905457 -0.530123
0.276147 1.900416 -0.529713
0.281022 1.897594 -0.530640
0.284663 1.893586 -0.530844
0.287666 1.888983 -0.530677
0.292218 1.885822 -0.531394
0.294843 1.880881 -0.531003
0.296833 1.875383 -0.530252
0.299122 1.870183 -0.529673
0.302270 1.865767 -0.529577
0.305343 1.861292 -0.529436
0.308750 1.857115 -0.529477
0.312109 1.852898 -0.529488
0.315138 1.848403 -0.529311
0.315822 1.841936 -0.527839
0.318995 1.837595 -0.527739
0.322626 1.833637 -0.527885
0.326328 1.829734 -0.528064
0.329555 1.825442 -0.527979
0.333310 1.821574 -0.528174
0.334528 1.815686 -0.526996
0.336132 1.810135 -0.526030
0.341155 1.807272 -0.526889
0.345365 1.803756 -0.527302
0.349305 1.800018 -0.527563
0.353041 1.796117 -0.527708
0.355641 1.791359 -0.527248
0.357410 1.785997 -0.526349
0.361479 1.782339 -0.526649
0.367792 1.780292 -0.528102
0.373580 1.777821 -0.529265
0.369016 1.767972 -0.525084
0.366341 1.759563 -0.521896
0.369578 1.755342 -0.521742
0.370412 1.749467 -0.520360
0.374360 1.745741 -0.520556
0.378510 1.742136 -0.520843
0.382864 1.738650 -0.521221
0.386206 1.734477 -0.521080
0.393575 1.732919 -0.522935
0.394530 1.727170 -0.521584
0.393707 1.720315 -0.519354
0.393590 1.713954 -0.517478
0.396924 1.709785 -0.517299
0.399356 1.705052 -0.516668
0.399673 1.699034 -0.515004
0.402003 1.694262 -0.514316
0.410311 1.693055 -0.516503
0.414097 1.689109 -0.516489
0.417191 1.684744 -0.516131
0.420532 1.680515 -0.515881
0.424055 1.676381 -0.515707
0.427791 1.672352 -0.515620
0.430366 1.667663 -0.514975
0.434073 1.663594 -0.514852
0.436419 1.658770 -0.514081
0.437356 1.653192 -0.512648
0.439944 1.648508 -0.511976
0.443389 1.644271 -0.511690
0.446142 1.639662 -0.511075
0.448239 1.634713 -0.510151
0.449828 1.629511 -0.508989
0.453268 1.625241 -0.508660
0.456921 1.621062 -0.508416
0.460530 1.616845 -0.508139
0.462437 1.611794 -0.507091
0.464229 1.606695 -0.505986
0.466827 1.601979 -0.505234
0.471866 1.598387 -0.505551
0.474338 1.593592 -0.504726
0.476346 1.588587 -0.503692
0.477884 1.583378 -0.502451
0.479660 1.578284 -0.501313
0.483378 1.574038 -0.501011
0.486585 1.569559 -0.500483
0.488160 1.564387 -0.499254
0.491745 1.560061 -0.498882
0.494743 1.555485 -0.498259
0.497215 1.550695 -0.497415
0.497488 1.545037 -0.495651
0.499989 1.540283 -0.494832
0.501544 1.535171 -0.493626
0.504342 1.530552 -0.492946
0.507744 1.526166 -0.492525
0.510052 1.521379 -0.491664
0.513268 1.516939 -0.491190
0.517213 1.512768 -0.491026
0.520885 1.508504 -0.490764
0.524166 1.504112 -0.490363
0.525705 1.499138 -0.489280
0.529020 1.494799 -0.488938
0.532260 1.490453 -0.488591
0.537493 1.486781 -0.489064
0.538735 1.481830 -0.487980
0.542430 1.477702 -0.487902
0.544364 1.473051 -0.487164
0.547726 1.468883 -0.487026
0.551127 1.464759 -0.486940
0.556387 1.461221 -0.487617
0.560603 1.457398 -0.487925
0.562711 1.452999 -0.487459
0.562872 1.448102 -0.486288
0.563738 1.443472 -0.485440
0.566431 1.439408 -0.485343
0.568006 1.435093 -0.484866
0.567595 1.430313 -0.483681
0.571867 1.426832 -0.484331
0.576045 1.423366 -0.484990
0.580132 1.419918 -0.485659
0.578147 1.415002 -0.484079
0.587651 1.412987 -0.486887
0.588645 1.408923 -0.486526
0.585636 1.403976 -0.484708
0.586011 1.399915 -0.484212
-0.345442 1.704172 -0.261841
-0.343834 1.702418 -0.261752
-0.340367 1.706724 -0.263749
-0.338198 1.706563 -0.264258
-0.336228 1.705641 -0.264536
-0.333844 1.705933 -0.265258
-0.331362 1.706401 -0.266072
-0.327939 1.709642 -0.267876
-0.324730 1.712026 -0.269422
-0.320858 1.716220 -0.271636
-0.318647 1.715248 -0.272086
-0.315618 1.716580 -0.273375
-0.312849 1.717008 -0.274381
-0.310624 1.715755 -0.274824
-0.308967 1.712824 -0.274698
-0.307823 1.708438 -0.274073
-0.305110 1.708365 -0.275013
-0.298825 1.717862 -0.279435
-0.296503 1.716424 -0.279955
-0.290129 1.725603 -0.284369
-0.273691 1.760610 -0.298312
-0.268855 1.764837 -0.301077
-0.268756 1.756869 -0.299368
-0.263488 1.761933 -0.302508
-0.267160 1.744745 -0.297357
-0.266651 1.738098 -0.296129
-0.263066 1.738935 -0.297730
-0.253548 1.753736 -0.304676
-0.250251 1.753537 -0.305958
-0.247246 1.752603 -0.306973
-0.241680 1.757467 -0.310251
-0.237186 1.759735 -0.312553
-0.232589 1.762116 -0.314926
-0.227586 1.765271 -0.317630
-0.206040 1.804114 -0.334539
-0.207274 1.793223 -0.331769
-0.203456 1.793219 -0.333335
-0.194196 1.804513 -0.339483
-0.190787 1.803430 -0.340659
-0.180264 1.816799 -0.347755
-0.176736 1.815735 -0.348981
-0.170559 1.819911 -0.352382
-0.159364 1.833787 -0.359854
-0.152489 1.838911 -0.363732
-0.147576 1.840110 -0.365987
-0.141329 1.843760 -0.369294
-0.134086 1.849143 -0.373365
-0.123171 1.861148 -0.380314
-0.118501 1.861414 -0.382257
-0.110491 1.867663 -0.386807
-0.101172 1.876063 -0.392335
-0.090982 1.885764 -0.398483
-0.086301 1.885580 -0.400313
-0.076205 1.894701 -0.406288
-0.066747 1.902484 -0.411716
-0.062567 1.901131 -0.413077
-0.051290 1.911611 -0.419794
-0.043673 1.915767 -0.423690
-0.034215 1.922789 -0.428927
-0.022761 1.932833 -0.435598
-0.017506 1.932698 -0.437612
-0.007751 1.939629 -0.442924
0.003080 1.948042 -0.448972
0.011021 1.951748 -0.452854
0.019985 1.956885 -0.457441
0.028007 1.960431 -0.461304
0.036788 1.964982 -0.465675
0.046138 1.970226 -0.470411
0.056480 1.976754 -0.475807
0.064500 1.979716 -0.479508
0.074689 1.985672 -0.484702
0.085297 1.992040 -0.490140
0.091604 1.992160 -0.492526
0.096071 1.989651 -0.493613
0.085728 1.966711 -0.484459
0.088824 1.962514 -0.484632
0.117659 1.993105 -0.502415
0.129364 2.000109 -0.508365
0.141004 2.006818 -0.514215
0.147965 2.007194 -0.516854
0.157463 2.010784 -0.521171
0.165281 2.012074 -0.524325
0.178151 2.019689 -0.530811
0.184714 2.019146 -0.533060
0.187182 2.013443 -0.532587
0.190176 2.008430 -0.532463
0.194986 2.005660 -0.533526
0.198145 2.000878 -0.533504
0.201807 1.996720 -0.533808
0.205710 1.992856 -0.534262
0.209155 1.988458 -0.534417
0.213162 1.984725 -0.534929
0.217563 1.981445 -0.535685
0.220809 1.976842 -0.535702
0.223159 1.971244 -0.535152
0.229381 1.970003 -0.537036
0.231695 1.964393 -0.536459
0.235235 1.960159 -0.536649
0.238583 1.955725 -0.536715
0.241391 1.950724 -0.536446
0.244604 1.946175 -0.536426
0.248855 1.942730 -0.537040
0.251247 1.937341 -0.536513
0.253957 1.932310 -0.536181
0.257800 1.928456 -0.536534
0.261468 1.924424 -0.536777
0.264670 1.919927 -0.536735
0.267706 1.915277 -0.536593
0.271494 1.911379 -0.536895
0.273718 1.905960 -0.536267
0.276868 1.901459 -0.536187
0.280417 1.897348 -0.536339
0.284154 1.893417 -0.536595
0.287783 1.889383 -0.536784
0.291429 1.885366 -0.536978
0.294375 1.880706 -0.536762
0.294728 1.873712 -0.535056
0.297323 1.868785 -0.534642
0.301458 1.865243 -0.535105
0.304381 1.860625 -0.534872
0.307572 1.856251 -0.534789
0.310790 1.851905 -0.534718
0.312190 1.846014 -0.533623
0.316765 1.842839 -0.534305
0.320560 1.838993 -0.534543
0.324177 1.834994 -0.534676
0.325405 1.829036 -0.533486
0.329093 1.825107 -0.533650
0.332254 1.820751 -0.533520
0.335685 1.816613 -0.533532
0.337081 1.810873 -0.532435
0.340094 1.806423 -0.532214
0.343753 1.802475 -0.532336
0.347858 1.798861 -0.532689
0.351968 1.795238 -0.533037
0.354659 1.790542 -0.532620
0.356787 1.785438 -0.531901
0.361666 1.782363 -0.532632
0.362156 1.776085 -0.531043
0.362821 1.769973 -0.529552
0.364805 1.764834 -0.528752
0.366983 1.759846 -0.528050
0.368211 1.754214 -0.526855
0.370534 1.749359 -0.526225
0.373781 1.745142 -0.526064
0.378748 1.742077 -0.526775
0.381858 1.737749 -0.526525
0.384604 1.733180 -0.526084
0.390940 1.730948 -0.527448
0.395121 1.727281 -0.527707
0.392506 1.719270 -0.524553
0.391128 1.712114 -0.522029
0.393781 1.707526 -0.521517
0.401354 1.705969 -0.523430
0.397384 1.697317 -0.519632
0.403925 1.695085 -0.521008
0.408398 1.691569 -0.521351
0.413001 1.688106 -0.521742
0.416642 1.684057 -0.521651
0.419725 1.679672 -0.521279
0.423536 1.675695 -0.521246
0.426855 1.671425 -0.520965
0.430497 1.667325 -0.520827
0.433828 1.663038 -0.520529
0.434370 1.657227 -0.518901
0.436077 1.652066 -0.517821
0.438769 1.647435 -0.517198
0.441592 1.642870 -0.516626
0.445064 1.638634 -0.516346
0.447592 1.633902 -0.515617
0.449755 1.628983 -0.514711
0.452452 1.624333 -0.514043
0.457421 1.620796 -0.514404
0.460072 1.616099 -0.513692
0.462109 1.611104 -0.512695
0.466005 1.606992 -0.512530
0.469357 1.602607 -0.512108
0.470414 1.597149 -0.510650
0.473421 1.592595 -0.510059
0.475444 1.587590 -0.509024
0.477391 1.582556 -0.507952
0.481619 1.578525 -0.507879
0.484537 1.573908 -0.507222
0.486180 1.568742 -0.506007
0.489160 1.564148 -0.505371
0.491432 1.559257 -0.504427
0.493542 1.554303 -0.503415
0.495770 1.549405 -0.502456
0.498294 1.544632 -0.501626
0.500514 1.539745 -0.500672
0.504314 1.535476 -0.500390
0.506258 1.530496 -0.499332
0.508373 1.525596 -0.498357
0.512086 1.521301 -0.498060
0.514652 1.516590 -0.497295
0.516966 1.511803 -0.496442
0.520123 1.507332 -0.495953
0.523216 1.502851 -0.495455
0.525717 1.498184 -0.494736
0.527760 1.493387 -0.493856
0.533159 1.489732 -0.494359
0.536389 1.485369 -0.494009
0.539494 1.480990 -0.493638
0.542075 1.476473 -0.493088
0.544898 1.472067 -0.492670
0.546924 1.467452 -0.491972
0.552340 1.463902 -0.492655
0.557136 1.460183 -0.493127
0.560605 1.456100 -0.493115
0.561746 1.451389 -0.492233
0.562274 1.446566 -0.491159
0.564371 1.442247 -0.490749
0.565941 1.437838 -0.490181
0.565757 1.433019 -0.488984
0.566828 1.428608 -0.488325
0.573581 1.425738 -0.489904
0.578459 1.422407 -0.490804
0.586769 1.419973 -0.493064
0.592393 1.416883 -0.494335
0.585494 1.410781 -0.490869
0.578319 1.404744 -0.487359
0.572610 1.399181 -0.484466
0.574553 1.395506 -0.484535
-0.347304 1.701548 -0.263205
-0.344238 1.704693 -0.264810
-0.341043 1.708055 -0.266524
-0.339833 1.704693 -0.265952
-0.337692 1.704305 -0.266433
-0.335365 1.704394 -0.267108
-0.332348 1.706531 -0.268528
-0.329318 1.708525 -0.269935
-0.324694 1.715233 -0.273035
-0.321655 1.716844 -0.274386
-0.319506 1.715629 -0.274773
-0.316580 1.716618 -0.275973
-0.314003 1.716445 -0.276793
-0.311805 1.715075 -0.277214
-0.309633 1.713556 -0.277609
-0.307673 1.711376 -0.277790
-0.306219 1.707755 -0.277470
-0.302884 1.709242 -0.279033
-0.296878 1.717752 -0.283213
-0.292411 1.721869 -0.285829
-0.271515 1.768658 -0.304340
-0.269956 1.764318 -0.303970
-0.265842 1.766490 -0.306054
-0.263009 1.765309 -0.306907
-0.258180 1.769009 -0.309634
-0.267792 1.737289 -0.298872
-0.263073 1.740841 -0.301541
-0.255760 1.750398 -0.306566
-0.252713 1.749630 -0.307640
-0.249203 1.749890 -0.309130
-0.244458 1.752905 -0.311720
-0.237613 1.760522 -0.316161
-0.231773 1.765646 -0.319660
-0.228885 1.764098 -0.320525
-0.213456 1.789761 -0.332354
-0.204414 1.801036 -0.338490
-0.207270 1.786791 -0.334290
-0.196851 1.800604 -0.341535
-0.191216 1.804147 -0.344621
-0.183507 1.811789 -0.349434
-0.177153 1.816467 -0.353057
-0.171838 1.818916 -0.355774
-0.161752 1.830644 -0.362431
-0.155431 1.834732 -0.365906
-0.149766 1.837418 -0.368809
-0.142020 1.843944 -0.373384
-0.132831 1.852978 -0.379083
-0.123211 1.862555 -0.385069
-0.117732 1.864279 -0.387673
-0.109436 1.871019 -0.392499
-0.104412 1.871701 -0.394681
-0.095527 1.879156 -0.399890
-0.086922 1.885905 -0.404826
-0.081507 1.886935 -0.407224
-0.070862 1.896843 -0.413658
-0.064052 1.899993 -0.417066
-0.057659 1.902329 -0.420123
-0.044997 1.914934 -0.427936
-0.038475 1.917167 -0.431007
-0.025913 1.929076 -0.438612
-0.017565 1.933929 -0.442975
-0.007500 1.941342 -0.448577
-0.001631 1.941968 -0.451004
0.009365 1.950474 -0.457202
0.016065 1.952155 -0.460177
0.026142 1.958867 -0.465597
0.033760 1.961689 -0.469172
0.043998 1.968286 -0.474614
0.052960 1.972809 -0.479081
0.061297 1.976269 -0.483057
0.068829 1.978439 -0.486420
0.083358 1.990467 -0.494725
0.089801 1.990787 -0.497230
0.094547 1.988669 -0.498518
0.085417 1.967374 -0.490072
0.087398 1.961633 -0.489453
0.128135 1.999539 -0.513633
0.139643 2.006078 -0.519462
0.148945 2.009522 -0.523726
0.154211 2.007588 -0.525202
0.165196 2.012973 -0.530540
0.177650 2.020046 -0.536819
0.181715 2.016343 -0.537407
0.185260 2.011993 -0.537642
0.189922 2.009036 -0.538616
0.194297 2.005714 -0.539391
0.197393 2.000839 -0.539314
0.200328 1.995795 -0.539133
0.204123 1.991796 -0.539513
0.208289 1.988239 -0.540130
0.211117 1.983123 -0.539873
0.215411 1.979720 -0.540563
0.219275 1.975821 -0.540970
0.223491 1.972320 -0.541596
0.227447 1.968525 -0.542051
0.231086 1.964377 -0.542298
0.233988 1.959428 -0.542077
0.237319 1.954966 -0.542125
0.240085 1.949910 -0.541819
0.243656 1.945732 -0.542014
0.246927 1.941245 -0.542019
0.250037 1.936602 -0.541923
0.253403 1.932236 -0.541983
0.256483 1.927589 -0.541865
0.260601 1.924003 -0.542378
0.263934 1.919625 -0.542409
0.266505 1.914501 -0.541976
0.267284 1.907641 -0.540466
0.274095 1.906697 -0.542580
0.276242 1.901209 -0.541891
0.279324 1.896640 -0.541760
0.283473 1.893087 -0.542259
0.287275 1.889201 -0.542546
0.289907 1.884231 -0.542140
0.292218 1.878986 -0.541548
0.293578 1.872903 -0.540403
0.297338 1.869013 -0.540655
0.301003 1.865034 -0.540846
0.304038 1.860500 -0.540670
0.307987 1.856771 -0.541015
0.312426 1.853456 -0.541632
0.311769 1.845779 -0.539346
0.316090 1.842375 -0.539889
0.319681 1.838347 -0.540013
0.322487 1.833667 -0.539690
0.326036 1.829607 -0.539780
0.327232 1.823636 -0.538555
0.331261 1.819976 -0.538904
0.334928 1.816017 -0.539046
0.337379 1.811096 -0.538512
0.339152 1.805663 -0.537606
0.342346 1.801349 -0.537476
0.347104 1.798228 -0.538189
0.351787 1.795028 -0.538851
0.353270 1.789417 -0.537776
0.354642 1.783750 -0.536644
0.353766 1.776469 -0.534313
0.358406 1.773240 -0.534928
0.360155 1.767919 -0.533999
0.362852 1.763291 -0.533570
0.367635 1.760131 -0.534233
0.369633 1.755014 -0.533424
0.369354 1.748350 -0.531426
0.371956 1.743691 -0.530932
0.376786 1.740534 -0.531586
0.379220 1.735758 -0.530990
0.381793 1.731082 -0.530461
0.384256 1.726338 -0.529870
0.388699 1.722874 -0.530282
0.394642 1.720343 -0.531441
0.390055 1.711143 -0.527263
0.395751 1.708444 -0.528279
0.400505 1.705126 -0.528804
0.401868 1.699716 -0.527622
0.403370 1.694409 -0.526507
0.407666 1.690780 -0.526771
0.412477 1.687432 -0.527275
0.416561 1.683633 -0.527406
0.419546 1.679182 -0.526985
0.422800 1.674879 -0.526687
0.425645 1.670337 -0.526178
0.428824 1.665977 -0.525823
0.431787 1.661489 -0.525352
0.434732 1.656984 -0.524862
0.436266 1.651719 -0.523691
0.437846 1.646488 -0.522536
0.441151 1.642170 -0.522192
0.444325 1.637773 -0.521775
0.447474 1.633353 -0.521334
0.449421 1.628316 -0.520322
0.452871 1.624032 -0.520002
0.456842 1.619990 -0.519911
0.459430 1.615257 -0.519168
0.462579 1.610787 -0.518674
0.465005 1.605966 -0.517840
0.467009 1.600946 -0.516807
0.469934 1.596353 -0.516185
0.472258 1.591480 -0.515285
0.474629 1.586626 -0.514399
0.477007 1.581776 -0.513511
0.479667 1.577049 -0.512744
0.483394 1.572778 -0.512444
0.486654 1.568293 -0.511929
0.489003 1.563417 -0.511010
0.490808 1.558319 -0.509851
0.492073 1.553010 -0.508459
0.494551 1.548205 -0.507598
0.498651 1.544045 -0.507437
0.501590 1.539419 -0.506775
0.503868 1.534538 -0.505834
0.506148 1.529669 -0.504901
0.508444 1.524817 -0.503984
0.511852 1.520386 -0.503546
0.514931 1.515839 -0.502978
0.517208 1.511014 -0.502088
0.519894 1.506350 -0.501384
0.523145 1.501899 -0.500932
0.525031 1.496995 -0.499935
0.527989 1.492481 -0.499403
0.532905 1.488633 -0.499697
0.536554 1.484376 -0.499494
0.539848 1.480025 -0.499173
0.542439 1.475477 -0.498597
0.545370 1.471068 -0.498193
0.548115 1.466637 -0.497749
0.551666 1.462485 -0.497665
0.556104 1.458626 -0.497973
0.560329 1.454730 -0.498232
0.558237 1.449065 -0.496028
0.560572 1.444732 -0.495629
0.558939 1.439356 -0.493714
0.557613 1.434151 -0.491976
0.559677 1.429937 -0.491621
0.569225 1.427744 -0.494238
0.570797 1.423486 -0.493782
0.579035 1.420982 -0.495967
0.598609 1.421315 -0.502586
0.602933 1.417820 -0.503325
0.567083 1.404665 -0.488598
0.562742 1.399357 -0.486120
0.568780 1.396582 -0.487690
0.534212 1.384502 -0.473708
-0.352551 1.694397 -0.262486
-0.349114 1.699062 -0.264615
-0.346283 1.701427 -0.265981
-0.342264 1.707571 -0.268698
-0.340038 1.707509 -0.269287
-0.339514 1.701774 -0.267918
-0.336725 1.703343 -0.269135
-0.333609 1.705777 -0.270693
-0.330640 1.707561 -0.272058
-0.327667 1.709185 -0.273402
-0.323830 1.713268 -0.275661
-0.320760 1.714818 -0.277056
-0.317885 1.715626 -0.278220
-0.315035 1.716222 -0.279342
-0.312586 1.715530 -0.280030
-0.310584 1.713473 -0.280248
-0.308707 1.711009 -0.280341
-0.306598 1.709150 -0.280678
-0.303976 1.708640 -0.281537
-0.297589 1.718180 -0.286166
-0.293712 1.720705 -0.288233
-0.268702 1.769876 -0.309175
-0.266365 1.767418 -0.309546
-0.263973 1.765074 -0.309975
-0.259170 1.768695 -0.312714
-0.254263 1.755881 -0.311888
-0.253914 1.748668 -0.310453
-0.250913 1.747738 -0.311492
-0.246339 1.750375 -0.313963
-0.233590 1.771383 -0.323827
-0.232726 1.765253 -0.322860
-0.228830 1.765910 -0.324629
-0.208834 1.785113 -0.337144
-0.199014 1.797711 -0.343974
-0.189458 1.809405 -0.350497
-0.185119 1.810098 -0.352461
-0.178870 1.814585 -0.356041
-0.169550 1.825044 -0.362193
-0.164882 1.826037 -0.364352
-0.156599 1.834001 -0.369525
-0.150492 1.837542 -0.372828
-0.145434 1.838962 -0.375230
-0.137466 1.845772 -0.380009
-0.127513 1.856064 -0.386364
-0.118002 1.865262 -0.392292
-0.111388 1.868946 -0.395812
-0.105692 1.870852 -0.398558
-0.097222 1.877587 -0.403499
-0.090281 1.881443 -0.407173
-0.080076 1.890823 -0.413395
-0.070890 1.898200 -0.418752
-0.066554 1.897142 -0.420255
-0.055819 1.906783 -0.426731
-0.046969 1.913039 -0.431680
-0.039710 1.916499 -0.435354
-0.026915 1.928807 -0.443235
-0.018883 1.933157 -0.447405
-0.011232 1.936755 -0.451245
-0.001015 1.944249 -0.456984
0.008636 1.950648 -0.462241
0.014700 1.951347 -0.464768
0.024087 1.957023 -0.469740
0.031147 1.959022 -0.472943
0.043915 1.969413 -0.480314
0.049490 1.968939 -0.482349
0.059630 1.975064 -0.487689
0.066414 1.976161 -0.490546
0.081697 1.989297 -0.499502
0.088205 1.989713 -0.502077
0.093232 1.987988 -0.503571
0.088697 1.973014 -0.498258
0.085441 1.960034 -0.493901
0.132476 2.006444 -0.522807
0.137519 2.004333 -0.524179
0.147508 2.008691 -0.528969
0.155424 2.010197 -0.532283
0.163883 2.012302 -0.535939
0.174650 2.017232 -0.541139
0.179974 2.015129 -0.542585
0.183673 2.010966 -0.542917
0.188531 2.008248 -0.544026
0.192790 2.004777 -0.544723
0.196647 2.000815 -0.545143
0.199228 1.995330 -0.544711
0.202986 1.991276 -0.545061
0.207050 1.987588 -0.545608
0.211119 1.983905 -0.546153
0.213821 1.978646 -0.545799
0.218073 1.975184 -0.546454
0.221994 1.971340 -0.546888
0.225850 1.967426 -0.547276
0.229514 1.963299 -0.547534
0.232924 1.958902 -0.547628
0.235290 1.953382 -0.547054
0.239510 1.949885 -0.547658
0.243052 1.945660 -0.547828
0.245395 1.940179 -0.547241
0.248937 1.935980 -0.547407
0.253857 1.933207 -0.548428
0.255105 1.926661 -0.547161
0.258501 1.922338 -0.547229
0.262789 1.918916 -0.547843
0.265173 1.913596 -0.547284
0.266405 1.907172 -0.546025
0.273350 1.906348 -0.548241
0.274885 1.900256 -0.547166
0.278438 1.896128 -0.547312
0.282600 1.892576 -0.547819
0.285945 1.888251 -0.547831
0.288860 1.883536 -0.547585
0.290764 1.877908 -0.546738
0.293510 1.873074 -0.546392
0.296508 1.868482 -0.546194
0.300025 1.864361 -0.546297
0.303654 1.860339 -0.546460
0.307141 1.856192 -0.546536
0.310787 1.852183 -0.546699
0.314717 1.848414 -0.547020
0.315042 1.841594 -0.545270
0.317904 1.836948 -0.544976
0.321448 1.832877 -0.545068
0.327032 1.830474 -0.546308
0.326847 1.823359 -0.544284
0.329385 1.818488 -0.543797
0.333843 1.815156 -0.544383
0.335785 1.809829 -0.543559
0.338531 1.805149 -0.543181
0.343794 1.802417 -0.544190
0.347677 1.798603 -0.544426
0.349882 1.793514 -0.543735
0.352521 1.788764 -0.543279
0.352012 1.781700 -0.541111
0.354745 1.777062 -0.540707
0.357987 1.772801 -0.540573
0.359309 1.767163 -0.539403
0.362072 1.762574 -0.539005
0.370650 1.762065 -0.541698
0.361074 1.748886 -0.534735
0.365363 1.745407 -0.535143
0.369857 1.742049 -0.535646
0.372783 1.737615 -0.535315
0.376825 1.733923 -0.535561
0.379829 1.729535 -0.535255
0.382225 1.724749 -0.534628
0.386310 1.721057 -0.534867
0.393140 1.719093 -0.536502
0.392468 1.712356 -0.534279
0.396526 1.708609 -0.534471
0.399796 1.704360 -0.534251
0.398572 1.697371 -0.531752
0.405042 1.695064 -0.533132
0.408217 1.690746 -0.532838
0.414473 1.688232 -0.534072
0.416315 1.683105 -0.533090
0.418781 1.678347 -0.532412
0.421733 1.673867 -0.531967
0.424322 1.669178 -0.531333
0.427007 1.664541 -0.530739
0.430220 1.660192 -0.530392
0.433548 1.655895 -0.530091
0.435328 1.650759 -0.529031
0.438138 1.646175 -0.528460
0.440704 1.641459 -0.527763
0.443953 1.637093 -0.527382
0.445926 1.632065 -0.526384
