ply
format ascii 1.0
comment ---
element vertex 1704
property float x
property float y
property float z
element face 0
property list uchar uint vertex_indices
end_header
0.584210 0.974847 -0.662103
0.590742 0.972739 -0.662641
0.596683 0.969650 -0.662537
0.601512 0.964784 -0.661253
0.607462 0.961713 -0.661178
0.609849 0.953094 -0.657378
0.615196 0.949141 -0.656717
0.619787 0.944048 -0.655293
0.624240 0.938784 -0.653755
0.628763 0.933661 -0.652316
0.634233 0.929963 -0.651853
0.638083 0.923914 -0.649788
0.646199 0.924047 -0.651970
0.653639 0.923134 -0.653455
0.658894 0.919090 -0.652798
0.667021 0.919043 -0.654919
0.671639 0.914091 -0.653656
0.676792 0.909892 -0.652922
0.682982 0.907093 -0.653176
0.688942 0.903965 -0.653214
0.696076 0.902365 -0.654340
0.702160 0.899346 -0.654484
0.707753 0.895675 -0.654181
0.712846 0.891358 -0.653431
0.718155 0.887318 -0.652887
0.721436 0.880747 -0.650544
0.724118 0.873489 -0.647705
0.729174 0.869194 -0.646997
0.736449 0.867580 -0.648236
0.741225 0.862926 -0.647294
0.748282 0.860976 -0.648328
0.754464 0.857953 -0.648602
0.758123 0.851980 -0.646731
0.761991 0.846280 -0.645064
0.766535 0.841372 -0.643986
0.773113 0.838756 -0.644614
0.780132 0.836592 -0.645598
0.784599 0.831572 -0.644477
0.785888 0.823107 -0.640784
0.791143 0.818991 -0.640348
0.798378 0.816970 -0.641509
0.802158 0.811255 -0.639897
0.805133 0.804721 -0.637668
0.809367 0.799524 -0.636460
0.814738 0.795497 -0.636158
0.817766 0.789088 -0.634036
0.824431 0.786348 -0.634751
0.833955 0.786395 -0.637653
0.839241 0.782189 -0.637283
0.842362 0.775871 -0.635275
0.845714 0.769803 -0.633464
0.848762 0.763470 -0.631447
0.852367 0.757689 -0.629867
0.857917 0.753734 -0.629744
0.862950 0.749284 -0.629241
0.866528 0.743498 -0.627676
0.869623 0.737294 -0.625778
0.876608 0.734585 -0.626708
0.882389 0.730768 -0.626760
0.886713 0.725655 -0.625767
0.889998 0.719651 -0.624044
0.893995 0.714280 -0.622840
0.898834 0.709633 -0.622236
0.904189 0.705413 -0.621993
0.909979 0.701544 -0.622048
0.910163 0.693067 -0.618234
0.914539 0.688069 -0.617329
0.917724 0.682127 -0.615616
0.920368 0.675788 -0.613548
0.925890 0.671751 -0.613435
0.930779 0.667218 -0.612889
0.935225 0.662355 -0.612047
0.937450 0.655823 -0.609733
0.938514 0.648474 -0.606671
0.943777 0.644328 -0.606381
0.951492 0.642001 -0.607680
0.957335 0.638289 -0.607741
0.961754 0.633562 -0.606873
0.965324 0.628265 -0.605458
0.972650 0.625672 -0.606437
0.976983 0.620987 -0.605495
0.981950 0.616788 -0.604950
1.017743 0.633724 -0.623707
1.027668 0.632752 -0.626128
1.038573 0.632420 -0.629114
1.038929 0.625063 -0.625553
1.040582 0.618678 -0.622809
1.044429 0.613824 -0.621416
1.047130 0.608312 -0.619329
1.050789 0.603506 -0.617825
1.051027 0.596625 -0.614271
1.053418 0.591219 -0.612024
1.059884 0.588439 -0.612203
1.061211 0.582564 -0.609334
1.060447 0.575536 -0.605254
1.064332 0.571448 -0.603917
1.070684 0.568920 -0.604012
1.075667 0.565645 -0.603302
1.077900 0.560839 -0.601008
1.080896 0.556583 -0.599161
1.087142 0.554295 -0.599168
1.089846 0.550052 -0.597162
1.088876 0.543833 -0.593102
1.085639 0.536477 -0.587808
-0.072584 1.026495 -0.558133
-0.068090 1.047197 -0.571004
-0.063908 1.022891 -0.559338
-0.059627 1.011787 -0.554813
-0.055216 1.007810 -0.554152
-0.052161 0.945792 -0.521532
-0.043956 0.927130 -0.513987
-0.034693 0.935228 -0.521126
-0.030335 0.929844 -0.519431
-0.025448 0.934672 -0.523398
-0.021683 0.916845 -0.514693
-0.017097 0.914608 -0.514657
-0.011900 0.921353 -0.519636
-0.006566 0.928275 -0.524710
-0.001246 0.933293 -0.528706
0.004771 0.945906 -0.536982
0.011221 0.961593 -0.547004
0.015457 0.949587 -0.541346
0.020661 0.948753 -0.541987
0.025696 0.945754 -0.541378
0.031921 0.954176 -0.547254
0.036701 0.947946 -0.544767
0.038277 0.913461 -0.526096
0.043745 0.914663 -0.527786
0.049038 0.914031 -0.528414
0.054684 0.915916 -0.530476
0.060528 0.918880 -0.533153
0.066367 0.921353 -0.535544
0.072088 0.922611 -0.537230
0.077868 0.923982 -0.538978
0.083741 0.925691 -0.540919
0.089439 0.926032 -0.542065
0.095211 0.926652 -0.543371
0.101119 0.927898 -0.545041
0.106857 0.927987 -0.546037
0.112573 0.927841 -0.546897
0.118986 0.931318 -0.549876
0.124593 0.930333 -0.550251
0.130876 0.932713 -0.552600
0.136826 0.933259 -0.553881
0.143349 0.936427 -0.556710
0.149805 0.939049 -0.559228
0.155771 0.939259 -0.560334
0.161782 0.939594 -0.561520
0.167423 0.938263 -0.561728
0.173348 0.938126 -0.562651
0.179597 0.939265 -0.564339
0.186035 0.941057 -0.566427
0.191995 0.940845 -0.567334
0.198689 0.943399 -0.569901
0.204735 0.943361 -0.570934
0.209767 0.939550 -0.569718
0.218864 0.950457 -0.577336
0.221466 0.937996 -0.570942
0.229218 0.943754 -0.575504
0.237424 0.950775 -0.580852
0.245930 0.958469 -0.586633
0.253446 0.962593 -0.590283
0.263093 0.973318 -0.597958
0.271269 0.978984 -0.602596
0.278451 0.981328 -0.605238
0.283867 0.978187 -0.604556
0.289690 0.976314 -0.604654
0.299616 0.986431 -0.612100
0.309375 0.995665 -0.619042
0.317163 0.998968 -0.622378
0.320354 0.989338 -0.617774
0.329146 0.995258 -0.622754
0.337877 1.000762 -0.627504
0.346300 1.005215 -0.631634
0.364611 1.035196 -0.651627
0.372664 1.037901 -0.654754
0.380549 1.040035 -0.657549
0.384535 1.032352 -0.654238
0.389672 1.027648 -0.652787
0.395336 1.024290 -0.652183
0.403729 1.027440 -0.655675
0.410879 1.027525 -0.657262
0.418525 1.028679 -0.659542
0.424578 1.026112 -0.659488
0.430923 1.024200 -0.659859
0.436733 1.021091 -0.659482
0.443565 1.020223 -0.660539
0.450387 1.019287 -0.661568
0.455723 1.015154 -0.660568
0.463000 1.015121 -0.662200
0.471555 1.017654 -0.665498
0.476095 1.011871 -0.663467
0.482480 1.009873 -0.663880
0.487838 1.005819 -0.662975
0.491547 0.998567 -0.660002
0.496296 0.993436 -0.658404
0.503039 0.992168 -0.659324
0.510163 0.991575 -0.660699
0.518282 0.992774 -0.663264
0.523980 0.989419 -0.662864
0.529139 0.985095 -0.661834
0.534311 0.980825 -0.660845
0.540364 0.978144 -0.660911
0.544567 0.972215 -0.658835
0.552210 0.972297 -0.660754
0.561167 0.974541 -0.664133
0.570028 0.976495 -0.667347
0.574054 0.970267 -0.665107
0.579798 0.966938 -0.664814
0.586791 0.965640 -0.665897
0.592407 0.962080 -0.665469
0.596767 0.956526 -0.663699
0.599569 0.948572 -0.660301
0.606478 0.947101 -0.661310
0.612664 0.944474 -0.661546
0.617753 0.940162 -0.660641
0.622037 0.934659 -0.658923
0.625366 0.927782 -0.656262
0.629797 0.922594 -0.654763
0.635013 0.918583 -0.654082
0.641214 0.915992 -0.654396
0.647620 0.913668 -0.654909
0.654350 0.911770 -0.655736
0.660458 0.908966 -0.655945
0.667455 0.907363 -0.657012
0.671886 0.902226 -0.655605
0.679390 0.901245 -0.657144
0.686442 0.899600 -0.658234
0.692062 0.896024 -0.657969
0.697359 0.892020 -0.657410
0.703276 0.888813 -0.657433
0.709153 0.885536 -0.657419
0.712846 0.879493 -0.655425
0.715426 0.872105 -0.652458
0.719357 0.866450 -0.650745
0.725445 0.863459 -0.650975
0.730217 0.858853 -0.650042
0.736848 0.856475 -0.650751
0.739799 0.849709 -0.648251
0.747262 0.848269 -0.649683
0.753366 0.845198 -0.649932
0.758494 0.840980 -0.649346
0.762662 0.835673 -0.647959
0.767886 0.831566 -0.647478
0.773288 0.827649 -0.647151
0.777892 0.822844 -0.646170
0.779767 0.815081 -0.642957
0.785831 0.811885 -0.643211
0.794074 0.810976 -0.645230
0.799349 0.806867 -0.644830
0.802415 0.800446 -0.642664
0.805513 0.794093 -0.640553
0.810293 0.789489 -0.639798
0.818176 0.788013 -0.641491
0.821312 0.781727 -0.639456
0.827084 0.778078 -0.639491
0.830897 0.772488 -0.638014
0.835890 0.768055 -0.637459
0.840820 0.763553 -0.636861
0.845643 0.758941 -0.636188
0.851521 0.755312 -0.636315
0.857293 0.751559 -0.636360
0.861289 0.746151 -0.635081
0.863078 0.738748 -0.632186
0.867228 0.733520 -0.631056
0.872993 0.729736 -0.631115
0.878559 0.725754 -0.631025
0.883093 0.720855 -0.630187
0.885563 0.714179 -0.627877
0.889585 0.708867 -0.626695
0.894838 0.704604 -0.626392
0.900108 0.700348 -0.626100
0.902386 0.693612 -0.623711
0.903859 0.686265 -0.620783
0.909297 0.682184 -0.620625
0.914513 0.677918 -0.620308
0.919356 0.673357 -0.619733
0.923210 0.668029 -0.618482
0.929632 0.664717 -0.618974
0.934012 0.659826 -0.618077
0.935251 0.652574 -0.615080
0.939952 0.647995 -0.614407
0.944946 0.643656 -0.613926
0.950691 0.639889 -0.613932
0.957697 0.637050 -0.614750
0.959055 0.630143 -0.611873
0.961992 0.624444 -0.610036
0.968257 0.621154 -0.610347
0.975259 0.618395 -0.611112
0.976116 0.611405 -0.607945
1.014402 0.630082 -0.628479
1.028920 0.632272 -0.633818
1.034957 0.628708 -0.633775
1.038219 0.623346 -0.631989
1.040534 0.617447 -0.629622
1.043829 0.612281 -0.627867
1.047092 0.607182 -0.626096
1.051098 0.602644 -0.624780
1.053842 0.597392 -0.622699
1.056139 0.591960 -0.620356
1.057899 0.586300 -0.617700
1.057745 0.579580 -0.613919
1.059855 0.574368 -0.611504
1.064923 0.571042 -0.610845
1.071301 0.568571 -0.610947
1.074665 0.564384 -0.609277
1.075997 0.559103 -0.606434
1.077188 0.553855 -0.603527
1.082243 0.550945 -0.602856
1.085255 0.546946 -0.601015
1.084198 0.540744 -0.596874
1.082211 0.534153 -0.592241
-0.068098 1.037572 -0.571633
-0.063863 1.023084 -0.565278
-0.059524 1.017351 -0.563701
-0.055103 1.014198 -0.563520
-0.050615 1.011814 -0.563739
-0.046497 0.994275 -0.555495
-0.034180 0.951662 -0.535972
-0.030512 0.930031 -0.525176
-0.026131 0.925263 -0.523802
-0.022081 0.913933 -0.518692
-0.017491 0.912478 -0.519119
-0.012480 0.916882 -0.522842
-0.007174 0.924139 -0.528175
-0.001673 0.932317 -0.534030
0.004088 0.942070 -0.540780
0.009482 0.945526 -0.543935
0.014584 0.944593 -0.544566
0.019690 0.943212 -0.544919
0.025449 0.948179 -0.548898
0.031685 0.956835 -0.554994
0.038217 0.966985 -0.561953
0.038021 0.915850 -0.533513
0.043211 0.914723 -0.533896
0.048464 0.913870 -0.534421
0.053920 0.914387 -0.535729
0.059796 0.917753 -0.538684
0.065722 0.920976 -0.541554
0.071478 0.922551 -0.543459
0.077149 0.923248 -0.544847
0.082790 0.923515 -0.545978
0.088424 0.923559 -0.546974
0.094219 0.924416 -0.548444
0.100200 0.926177 -0.550445
0.105953 0.926403 -0.551543
0.112006 0.928153 -0.553540
0.118379 0.931399 -0.556425
0.124314 0.932094 -0.557808
0.129718 0.929981 -0.557530
0.135853 0.931480 -0.559395
0.142204 0.933852 -0.561786
0.148644 0.936443 -0.564318
0.154923 0.938099 -0.566302
0.160842 0.938018 -0.567258
0.167119 0.939421 -0.569108
0.173215 0.939931 -0.570434
0.179743 0.942134 -0.572786
0.184844 0.938452 -0.571612
0.192342 0.944286 -0.576172
0.198626 0.945149 -0.577753
0.204562 0.944611 -0.578500
0.210742 0.944942 -0.579783
0.220359 0.957579 -0.588540
0.226208 0.956358 -0.588917
0.231874 0.954501 -0.588915
0.237839 0.953676 -0.589551
0.244972 0.956711 -0.592555
0.252620 0.961257 -0.596503
0.261392 0.969174 -0.602539
0.269913 0.975957 -0.607910
0.276482 0.976419 -0.609421
0.281321 0.971570 -0.607675
0.286826 0.968817 -0.607225
0.294735 0.973128 -0.611153
0.302421 0.976596 -0.614583
0.309201 0.977327 -0.616336
0.317397 0.981910 -0.620502
0.326043 0.987512 -0.625329
0.333846 0.990608 -0.628620
0.343674 0.998896 -0.635183
0.352892 1.005276 -0.640586
0.368321 1.027307 -0.655856
0.372476 1.020151 -0.652820
0.380675 1.023194 -0.656217
0.386561 1.020416 -0.655958
0.392163 1.016973 -0.655287
0.400134 1.019189 -0.658216
0.406990 1.018662 -0.659423
0.412044 1.013928 -0.657963
0.419600 1.014948 -0.660183
0.424765 1.010508 -0.658927
0.430657 1.007732 -0.658743
0.437501 1.007038 -0.659908
0.443831 1.005187 -0.660343
0.450363 1.003744 -0.661053
0.458094 1.004778 -0.663381
0.464832 1.003663 -0.664335
0.469633 0.998559 -0.662708
0.475962 0.996589 -0.663128
0.484634 0.999244 -0.666583
0.487376 0.990151 -0.662366
0.493037 0.986857 -0.661949
0.498626 0.983437 -0.661456
0.504328 0.980242 -0.661120
0.510418 0.977774 -0.661274
0.518493 0.978938 -0.663848
0.524961 0.977087 -0.664440
0.530711 0.973918 -0.664167
0.536143 0.970187 -0.663528
0.542218 0.967597 -0.663660
0.549330 0.966784 -0.664997
0.558875 0.970064 -0.669109
0.564060 0.965840 -0.668185
0.568418 0.960261 -0.666349
0.573192 0.955420 -0.665014
0.576423 0.948106 -0.662000
0.582896 0.946097 -0.662603
0.588759 0.943086 -0.662533
0.594841 0.940411 -0.662705
0.599745 0.935889 -0.661617
0.606754 0.934623 -0.662783
0.616041 0.936762 -0.666325
0.620887 0.932111 -0.665183
0.623919 0.924794 -0.662191
0.628550 0.919905 -0.660888
0.633169 0.915027 -0.659597
0.638117 0.910648 -0.658662
0.644099 0.907752 -0.658778
0.650747 0.905770 -0.659554
0.655664 0.901350 -0.658617
0.658477 0.894059 -0.655647
0.665140 0.892065 -0.656450
0.672461 0.890917 -0.657875
0.675036 0.883407 -0.654758
0.686348 0.887450 -0.659951
0.692518 0.884641 -0.660243
0.697548 0.880342 -0.659471
0.703081 0.876688 -0.659176
0.707217 0.871268 -0.657607
0.710879 0.865287 -0.655630
0.716897 0.862244 -0.655813
0.722763 0.858995 -0.655859
0.728413 0.855464 -0.655713
0.731561 0.848936 -0.653358
0.736997 0.845155 -0.653047
0.742041 0.840905 -0.652400
0.748050 0.837768 -0.652598
0.753241 0.833669 -0.652091
0.759414 0.830676 -0.652431
0.760093 0.821505 -0.648107
0.766820 0.819128 -0.648938
0.772542 0.815607 -0.648917
0.776661 0.810326 -0.647564
0.778253 0.802349 -0.644144
0.785596 0.800549 -0.645487
0.793911 0.799711 -0.647603
0.799289 0.795738 -0.647314
0.803523 0.790577 -0.646110
0.809482 0.787179 -0.646299
0.814623 0.782929 -0.645836
0.819198 0.778104 -0.644932
0.821469 0.771007 -0.642232
0.825375 0.765554 -0.640839
0.830486 0.761278 -0.640395
0.836064 0.757437 -0.640314
0.842373 0.754266 -0.640791
0.848926 0.751288 -0.641446
0.853661 0.746588 -0.640718
0.857209 0.740795 -0.639105
0.861480 0.735678 -0.638049
0.861801 0.727023 -0.634073
0.868553 0.724157 -0.634882
0.875329 0.721271 -0.635694
0.880320 0.716795 -0.635193
0.882525 0.709917 -0.632676
0.886456 0.704553 -0.631425
0.890967 0.699692 -0.630599
0.896812 0.695948 -0.630726
0.898605 0.688847 -0.627979
0.902395 0.683430 -0.626661
0.906863 0.678582 -0.625825
0.915508 0.677081 -0.627894
0.917531 0.670292 -0.625354
0.922106 0.665555 -0.624589
0.927169 0.661210 -0.624155
0.931265 0.656136 -0.623060
0.934027 0.650081 -0.621065
0.938403 0.645287 -0.620166
0.943904 0.641356 -0.620017
0.947176 0.635805 -0.618377
0.953887 0.632800 -0.619014
0.957319 0.627443 -0.617477
0.958686 0.620674 -0.614595
0.963556 0.616456 -0.614006
0.971892 0.614690 -0.615649
0.988503 0.618617 -0.622576
1.020173 0.632692 -0.639034
1.023855 0.627557 -0.637510
1.036266 0.628325 -0.641504
1.039576 0.623032 -0.639717
1.040895 0.616519 -0.636689
1.043378 0.610872 -0.634402
1.046929 0.606008 -0.632783
1.051106 0.601628 -0.631552
1.052726 0.595718 -0.628754
1.055788 0.590819 -0.626847
1.054711 0.583460 -0.622442
1.056412 0.577945 -0.619742
1.060461 0.573964 -0.618460
1.067199 0.571685 -0.618778
1.070531 0.567435 -0.617063
1.071974 0.562166 -0.614241
1.070532 0.555324 -0.609748
1.072983 0.550881 -0.607557
1.079651 0.548960 -0.607819
1.082427 0.544883 -0.605826
1.080897 0.538470 -0.601376
-0.063923 1.012607 -0.565272
-0.059468 1.018404 -0.570119
-0.054930 1.022318 -0.573912
-0.050607 1.012902 -0.570226
-0.047171 0.972020 -0.548813
-0.035816 0.914757 -0.520796
-0.031255 0.917094 -0.523470
-0.026539 0.920824 -0.526922
-0.022294 0.913973 -0.524333
-0.018044 0.907164 -0.521731
-0.013335 0.907625 -0.523253
-0.007954 0.917067 -0.529906
-0.002363 0.927353 -0.537045
0.003457 0.938585 -0.544734
0.008827 0.942277 -0.548078
0.013571 0.937686 -0.546622
0.018378 0.933673 -0.545470
0.024243 0.940486 -0.550575
0.030971 0.954615 -0.559930
0.037118 0.961504 -0.565081
0.037386 0.914718 -0.538908
0.042390 0.912183 -0.538492
0.047741 0.912371 -0.539651
0.053165 0.912809 -0.540945
0.059444 0.919384 -0.545835
0.065039 0.920238 -0.547359
0.070803 0.921977 -0.549398
0.076512 0.923004 -0.551012
0.082079 0.922840 -0.551915
0.087568 0.922028 -0.552430
0.093424 0.923338 -0.554197
0.099260 0.924292 -0.555752
0.105993 0.930170 -0.560237
0.112042 0.931787 -0.562192
0.117853 0.931920 -0.563263
0.123145 0.929237 -0.562650
0.129104 0.929988 -0.564092
0.135115 0.930856 -0.565608
0.141383 0.932828 -0.567793
0.147494 0.933886 -0.569436
0.153254 0.933224 -0.570048
0.159558 0.934933 -0.572097
0.166445 0.939009 -0.575588
0.174038 0.945801 -0.580739
0.180326 0.946843 -0.582422
0.186329 0.946629 -0.583353
0.192418 0.946704 -0.584468
0.198568 0.946955 -0.585700
0.204656 0.946903 -0.586758
0.211663 0.950184 -0.589865
0.218916 0.954159 -0.593416
0.225231 0.954605 -0.594820
0.230425 0.951096 -0.593803
0.236838 0.951810 -0.595393
0.243448 0.953097 -0.597350
0.251387 0.958617 -0.601941
0.259290 0.963762 -0.606325
0.268703 0.973410 -0.613527
0.274315 0.970918 -0.613217
0.278182 0.963167 -0.609640
0.284101 0.961746 -0.610009
0.290642 0.962134 -0.611520
0.298489 0.966210 -0.615357
0.301098 0.955279 -0.609798
0.312637 0.969482 -0.620034
0.322414 0.978340 -0.626951
0.330149 0.981358 -0.630219
0.337433 0.983024 -0.632654
0.349484 0.996993 -0.642908
0.360145 1.006897 -0.650630
0.363321 0.997536 -0.646135
0.371386 1.000549 -0.649522
0.381891 1.009379 -0.656651
0.389363 1.010566 -0.658926
0.394670 1.006507 -0.657853
0.403158 1.009945 -0.661609
0.407703 1.004119 -0.659420
0.410513 0.994447 -0.654747
0.418026 0.995524 -0.657022
0.426114 0.997772 -0.660079
0.433211 0.997728 -0.661668
0.438206 0.993098 -0.660286
0.446600 0.995730 -0.663652
0.454379 0.996933 -0.666108
0.459243 0.992021 -0.664573
0.461626 0.982113 -0.659755
0.468035 0.980485 -0.660383
0.475960 0.981832 -0.662992
0.484743 0.984751 -0.666664
0.489893 0.980506 -0.665607
0.495025 0.976259 -0.664554
0.500899 0.973445 -0.664462
0.506345 0.969833 -0.663847
0.514649 0.971482 -0.666767
0.521480 0.970346 -0.667840
0.526364 0.965676 -0.666547
0.530908 0.960445 -0.664879
0.539434 0.962221 -0.667961
0.545382 0.959430 -0.667966
0.552343 0.958357 -0.669152
0.558065 0.955145 -0.668896
0.563427 0.951334 -0.668238
0.568328 0.946778 -0.667077
0.573472 0.942646 -0.666212
0.578779 0.938794 -0.665547
0.585539 0.937261 -0.666495
0.590668 0.933125 -0.665652
0.596405 0.929949 -0.665485
0.601260 0.925414 -0.664379
0.608980 0.925247 -0.666337
0.616958 0.925392 -0.668536
0.621886 0.920932 -0.667519
0.627526 0.917535 -0.667258
0.632374 0.912986 -0.666191
0.636580 0.907537 -0.664492
0.641053 0.902506 -0.663092
0.647434 0.900176 -0.663628
0.652178 0.895547 -0.662532
0.656675 0.890600 -0.661212
0.660368 0.884587 -0.659130
0.663880 0.878380 -0.656906
0.670745 0.876669 -0.657946
0.681491 0.880002 -0.662679
0.685307 0.874187 -0.660774
0.683278 0.860910 -0.653401
0.693545 0.863444 -0.657621
0.698668 0.859376 -0.657012
0.705539 0.857482 -0.658022
0.712174 0.855250 -0.658805
0.719463 0.853772 -0.660169
0.724727 0.849801 -0.659693
0.728990 0.844632 -0.658331
0.733438 0.839700 -0.657154
0.739443 0.836597 -0.657366
0.743906 0.831689 -0.656228
0.747439 0.825733 -0.654299
0.748645 0.817181 -0.650391
0.755147 0.814633 -0.651073
0.761361 0.811728 -0.651503
0.767882 0.809126 -0.652187
0.770218 0.801953 -0.649348
0.770220 0.792335 -0.644602
0.774073 0.786905 -0.643110
0.785215 0.789138 -0.647635
0.792476 0.787200 -0.648928
0.796447 0.781828 -0.647533
0.801227 0.777291 -0.646807
0.805800 0.772543 -0.645925
0.812994 0.770403 -0.647142
0.817461 0.765523 -0.646183
0.820691 0.759442 -0.644262
0.824384 0.753833 -0.642726
0.831095 0.751120 -0.643552
0.837353 0.747937 -0.644017
0.844330 0.745392 -0.645026
0.849240 0.740887 -0.644442
0.850360 0.732910 -0.640992
0.852099 0.725561 -0.638046
0.857721 0.721741 -0.638040
0.865024 0.719392 -0.639281
0.871732 0.716472 -0.640065
0.875978 0.711377 -0.639022
0.879486 0.705658 -0.637448
0.883544 0.700429 -0.636287
0.887267 0.694933 -0.634891
0.893089 0.691202 -0.635014
0.896550 0.685513 -0.633442
0.900323 0.680107 -0.632102
0.906655 0.676785 -0.632577
0.912512 0.673065 -0.632705
0.918616 0.669534 -0.632995
0.921260 0.663293 -0.630871
0.924522 0.657579 -0.629187
0.927527 0.651711 -0.627335
0.931674 0.646753 -0.626273
0.936539 0.642364 -0.625699
0.939799 0.636811 -0.624036
0.945787 0.633306 -0.624209
0.946979 0.626339 -0.621167
0.952187 0.622338 -0.620811
0.955279 0.616865 -0.619048
0.958325 0.611424 -0.617260
0.971295 0.612946 -0.621953
0.987770 0.616806 -0.628853
1.009483 0.624116 -0.639041
1.026699 0.628215 -0.646215
1.032228 0.624409 -0.645836
1.036932 0.620109 -0.644921
1.040568 0.615178 -0.643325
1.042216 0.609041 -0.640483
1.044964 0.603718 -0.638341
1.047896 0.598608 -0.636322
1.051176 0.593811 -0.634523
1.054628 0.589215 -0.632834
1.057798 0.584535 -0.630975
1.057902 0.578075 -0.627259
1.063072 0.574813 -0.626629
1.069991 0.572674 -0.627042
1.071933 0.567630 -0.624463
1.068372 0.559452 -0.618627
1.067436 0.552972 -0.614393
1.069976 0.548640 -0.612236
1.077346 0.547180 -0.612916
1.082572 0.544550 -0.612329
-0.064231 0.980113 -0.552786
-0.059801 0.993678 -0.562025
-0.054892 1.022316 -0.579792
-0.047345 0.966552 -0.551407
-0.042539 0.977956 -0.559404
-0.036098 0.910353 -0.523784
-0.031736 0.909322 -0.524573
-0.026910 0.916568 -0.530089
-0.022125 0.920636 -0.533777
-0.018025 0.911213 -0.529677
-0.013679 0.906035 -0.527985
-0.008576 0.911914 -0.532662
-0.002379 0.931370 -0.545212
0.003706 0.946207 -0.555103
0.008154 0.938493 -0.551868
0.012644 0.931448 -0.548986
0.017628 0.929959 -0.549319
0.023775 0.940173 -0.556489
0.030013 0.949760 -0.563294
0.036317 0.958592 -0.569659
0.036983 0.915495 -0.545419
0.041917 0.912479 -0.544738
0.047083 0.911269 -0.545105
0.053523 0.919889 -0.551280
0.059249 0.922120 -0.553668
0.064619 0.921319 -0.554247
0.069752 0.918677 -0.553718
0.075760 0.921910 -0.556680
0.081315 0.921761 -0.557618
0.086897 0.921606 -0.558546
0.092867 0.923660 -0.560794
0.099655 0.930242 -0.565760
0.105570 0.931292 -0.567408
0.111142 0.930240 -0.567789
0.116641 0.928741 -0.567898
0.122242 0.927751 -0.568311
0.128175 0.928393 -0.569712
0.135441 0.935481 -0.575024
0.141315 0.935423 -0.576013
0.146469 0.931914 -0.574906
0.152395 0.932027 -0.576004
0.158653 0.933528 -0.577954
0.166488 0.941716 -0.584001
0.173475 0.945862 -0.587596
0.179329 0.945073 -0.588181
0.185335 0.944870 -0.589132
0.191887 0.946764 -0.591382
0.197839 0.946205 -0.592133
0.204550 0.948472 -0.594638
0.210493 0.947753 -0.595310
0.216359 0.946729 -0.595803
0.223335 0.949619 -0.598734
0.228657 0.946604 -0.598011
0.234545 0.945574 -0.598531
0.241419 0.947816 -0.601101
0.249069 0.952454 -0.605186
0.255484 0.952902 -0.606671
0.263316 0.957736 -0.610922
0.268291 0.953509 -0.609503
0.272541 0.947180 -0.606765
0.281076 0.953788 -0.612186
0.288298 0.956268 -0.615027
0.292709 0.950510 -0.612674
0.298302 0.948236 -0.612531
0.306890 0.954313 -0.617705
0.318310 0.967877 -0.627676
0.326518 0.972297 -0.631863
0.334227 0.975190 -0.635099
0.342492 0.979380 -0.639190
0.351264 0.984675 -0.644016
0.358917 0.986919 -0.646910
0.366946 0.989962 -0.650342
0.375735 0.994713 -0.654901
0.383902 0.997753 -0.658383
0.392576 1.001842 -0.662570
0.398797 0.999999 -0.662929
0.404165 0.996175 -0.662010
0.408585 0.990236 -0.659716
0.417972 0.995535 -0.664776
0.425227 0.995902 -0.666635
0.427062 0.984376 -0.660696
0.435562 0.987426 -0.664342
0.442830 0.987709 -0.666189
0.449824 0.987342 -0.667624
0.449887 0.972615 -0.659551
0.452478 0.963356 -0.655087
0.462576 0.969348 -0.660776
0.467854 0.965558 -0.659968
0.478070 0.971456 -0.665654
0.487248 0.975123 -0.669880
0.491537 0.969306 -0.667756
0.495694 0.963313 -0.665513
0.504960 0.966891 -0.669742
0.511886 0.966014 -0.670983
0.516139 0.960239 -0.668911
0.516139 0.946922 -0.661701
0.523773 0.947349 -0.663854
0.533772 0.951823 -0.668801
0.537068 0.944551 -0.665717
0.539497 0.935900 -0.661680
0.547032 0.935978 -0.663658
0.556432 0.939079 -0.667750
0.564618 0.940037 -0.670389
0.571764 0.939204 -0.671806
0.576370 0.934236 -0.670357
0.580424 0.928430 -0.668324
0.587645 0.927646 -0.669817
0.590471 0.919989 -0.666492
0.593684 0.913021 -0.663648
0.601854 0.913644 -0.666171
0.610393 0.914726 -0.669046
0.616032 0.911409 -0.668819
0.622185 0.908839 -0.669136
0.630250 0.909013 -0.671433
0.632947 0.901419 -0.668176
0.637344 0.896318 -0.666709
0.642621 0.892479 -0.666158
0.649220 0.890474 -0.666945
0.654187 0.886196 -0.666098
0.657956 0.880305 -0.664084
0.660886 0.873336 -0.661280
0.668398 0.872505 -0.662979
0.675956 0.871667 -0.664697
0.678119 0.863772 -0.661227
0.679010 0.854329 -0.656601
0.683644 0.849752 -0.655577
0.689058 0.846166 -0.655301
0.694282 0.842334 -0.654854
0.703770 0.843733 -0.658348
0.710692 0.841899 -0.659444
0.716762 0.838992 -0.659751
0.721694 0.834702 -0.659028
0.727221 0.831115 -0.658850
0.736409 0.831774 -0.661933
0.740946 0.826974 -0.660866
0.743505 0.819927 -0.658077
0.746154 0.813038 -0.655408
0.750386 0.807968 -0.654146
0.756839 0.805363 -0.654811
0.762827 0.802212 -0.655071
0.767429 0.797534 -0.654153
0.769889 0.790569 -0.651443
0.774711 0.786154 -0.650746
0.778749 0.780915 -0.649406
0.783117 0.776031 -0.648357
0.789360 0.773076 -0.648859
0.794193 0.768654 -0.648205
0.798850 0.764053 -0.647417
0.805347 0.761276 -0.648119
0.813538 0.760123 -0.650164
0.816517 0.753828 -0.648043
0.818296 0.746409 -0.644999
0.823016 0.741848 -0.644298
0.832189 0.741478 -0.647077
0.839827 0.739586 -0.648631
0.842381 0.732943 -0.646245
0.841783 0.723463 -0.641474
0.847883 0.720132 -0.641853
0.853364 0.716219 -0.641757
0.858860 0.712303 -0.641669
0.866058 0.709861 -0.642850
0.871666 0.705996 -0.642830
0.875029 0.700193 -0.641148
0.878431 0.694449 -0.639508
0.884204 0.690719 -0.639612
0.887932 0.685279 -0.638224
0.890915 0.679251 -0.636308
0.895622 0.674660 -0.635643
0.902086 0.671489 -0.636230
0.909267 0.668869 -0.637310
0.915256 0.665284 -0.637529
0.920956 0.661466 -0.637531
0.919408 0.652068 -0.632473
0.923651 0.647206 -0.631474
0.927249 0.641886 -0.630030
0.933303 0.638441 -0.630273
0.940321 0.635714 -0.631158
0.942119 0.629168 -0.628483
0.943991 0.622754 -0.625875
0.947892 0.617870 -0.624641
0.950992 0.612469 -0.622873
0.955184 0.607899 -0.621834
0.964020 0.606601 -0.623850
0.985538 0.613999 -0.634139
1.041581 0.644672 -0.666792
1.026769 0.627037 -0.653158
1.031888 0.623000 -0.652500
1.035295 0.617893 -0.650735
1.039139 0.613155 -0.649252
1.041346 0.607439 -0.646731
1.042698 0.601277 -0.643682
1.044961 0.595807 -0.641222
1.049316 0.591753 -0.640076
1.055919 0.589176 -0.640321
1.058952 0.584453 -0.638346
1.060844 0.579130 -0.635678
1.064610 0.575050 -0.634168
1.070958 0.572605 -0.634224
1.071569 0.566813 -0.630806
1.068110 0.558746 -0.624970
1.068178 0.552900 -0.621288
1.073124 0.550000 -0.620529
1.079805 0.548170 -0.620790
1.083817 0.544879 -0.619471
-0.060007 0.975417 -0.557336
-0.054969 1.015191 -0.581602
-0.047384 0.964928 -0.556132
-0.043226 0.957291 -0.553299
-0.035528 0.926308 -0.538453
-0.031433 0.918436 -0.535341
-0.027302 0.911330 -0.532632
-0.022567 0.915452 -0.536404
-0.017729 0.919598 -0.540181
-0.013013 0.920182 -0.541870
-0.008070 0.923144 -0.544930
-0.002569 0.932638 -0.551805
0.002819 0.938696 -0.556665
0.007769 0.937902 -0.557489
0.011797 0.925806 -0.551627
0.017941 0.937664 -0.559866
0.023522 0.941857 -0.563578
0.029789 0.951926 -0.570764
0.035171 0.952185 -0.572127
0.039122 0.939047 -0.565498
0.041414 0.912353 -0.550739
0.047595 0.919671 -0.556227
0.053372 0.922857 -0.559244
0.058931 0.923828 -0.560926
0.063960 0.920565 -0.560055
0.069327 0.919668 -0.560590
0.075034 0.920911 -0.562403
0.080276 0.918808 -0.562189
0.086078 0.920192 -0.564073
0.092187 0.923185 -0.566928
0.098469 0.926838 -0.570184
0.104703 0.929845 -0.573050
0.110321 0.929103 -0.573638
0.115628 0.926599 -0.573148
0.121791 0.928603 -0.575405
0.128775 0.934564 -0.580087
0.135411 0.938369 -0.583460
0.141814 0.940759 -0.585976
0.148410 0.943837 -0.588921
0.152497 0.935216 -0.584674
0.158673 0.936247 -0.586367
0.166302 0.943465 -0.591890
0.171624 0.940486 -0.591124
0.177657 0.940524 -0.592229
0.183883 0.941272 -0.593782
0.190043 0.941664 -0.595124
0.196944 0.944837 -0.598208
0.202580 0.943032 -0.598202
0.208521 0.942374 -0.598920
0.214216 0.940796 -0.599070
0.221039 0.943225 -0.601740
0.228119 0.946393 -0.604892
0.233492 0.943567 -0.604289
0.239618 0.943306 -0.605311
0.246112 0.944207 -0.607077
0.254085 0.949767 -0.611807
0.260394 0.949819 -0.613070
0.266266 0.948462 -0.613453
0.271626 0.945540 -0.612850
0.277468 0.944102 -0.613200
0.285327 0.948573 -0.617335
0.290737 0.945777 -0.616844
0.296249 0.943306 -0.616570
0.305316 0.950758 -0.622679
0.315091 0.959846 -0.629874
0.322069 0.961039 -0.632016
0.328931 0.961827 -0.633915
0.337625 0.967307 -0.638869
0.345025 0.969230 -0.641547
0.353191 0.972968 -0.645425
0.360190 0.973624 -0.647322
0.368080 0.976377 -0.650607
0.375240 0.977223 -0.652667
0.386092 0.986752 -0.660440
0.394594 0.990435 -0.664416
0.400470 0.987878 -0.664311
0.409315 0.992084 -0.668679
0.416614 0.992634 -0.670659
0.412617 0.968127 -0.656049
0.426554 0.983330 -0.667765
0.432009 0.979809 -0.667078
0.438559 0.978636 -0.667965
0.443473 0.974004 -0.666554
0.448759 0.970195 -0.665698
0.453544 0.965396 -0.664184
0.456962 0.957907 -0.660861
0.463140 0.956015 -0.661312
0.468065 0.951652 -0.660103
0.484746 0.970023 -0.674325
0.484038 0.954713 -0.665718
0.489715 0.951732 -0.665486
0.500823 0.958843 -0.672162
0.504814 0.952647 -0.669763
0.506435 0.942239 -0.664469
0.513015 0.940885 -0.665396
0.521509 0.942871 -0.668645
0.528229 0.941640 -0.669694
0.532479 0.936105 -0.667773
0.536673 0.930532 -0.665826
0.542079 0.927057 -0.665343
0.549464 0.926879 -0.667177
0.556299 0.925727 -0.668348
0.567055 0.930890 -0.673980
0.570809 0.924621 -0.671590
0.574733 0.918689 -0.669437
0.579020 0.913388 -0.667730
0.584832 0.910492 -0.667738
0.591320 0.908619 -0.668487
0.597621 0.906428 -0.669025
0.602334 0.901831 -0.667852
0.610552 0.902445 -0.670434
0.614497 0.896713 -0.668464
0.620292 0.893706 -0.668468
0.626925 0.891883 -0.669345
0.632968 0.889187 -0.669603
0.637942 0.884972 -0.668767
0.643398 0.881437 -0.668436
0.649518 0.878803 -0.668781
0.654125 0.874099 -0.667614
0.659570 0.870534 -0.667296
0.666467 0.868885 -0.668413
0.672022 0.865431 -0.668206
0.674261 0.857674 -0.664798
0.677837 0.851712 -0.662727
0.680402 0.844511 -0.659727
0.683890 0.838536 -0.657645
0.689297 0.834982 -0.657398
0.693577 0.830036 -0.656106
0.697996 0.825276 -0.654963
0.708704 0.828079 -0.659613
0.711743 0.821628 -0.657206
0.717438 0.818345 -0.657240
0.726752 0.819249 -0.660528
0.737067 0.821194 -0.664663
0.740856 0.815582 -0.662959
0.739768 0.804503 -0.656987
0.744794 0.800378 -0.656443
0.751196 0.797763 -0.657101
0.758093 0.795650 -0.658177
0.764282 0.792723 -0.658634
0.769391 0.788611 -0.658166
0.773478 0.783409 -0.656841
0.777016 0.777646 -0.655072
0.781727 0.773123 -0.654306
0.787487 0.769671 -0.654418
0.791256 0.764178 -0.652890
0.796263 0.759944 -0.652393
0.802768 0.757186 -0.653118
0.809930 0.755033 -0.654365
0.811943 0.747827 -0.651462
0.813555 0.740289 -0.648274
0.818560 0.736035 -0.647814
0.824490 0.732642 -0.648085
0.828961 0.727865 -0.647209
0.832313 0.722059 -0.645470
0.839947 0.720178 -0.647059
0.843453 0.714517 -0.645454
0.849029 0.710724 -0.645446
0.855071 0.707326 -0.645787
0.859458 0.702457 -0.644870
0.865685 0.699184 -0.645340
0.869267 0.693625 -0.643826
0.873636 0.688754 -0.642907
0.878778 0.684541 -0.642562
0.884356 0.680686 -0.642534
0.887088 0.674492 -0.640425
0.890792 0.669129 -0.639037
0.897994 0.666598 -0.640174
0.906104 0.664758 -0.641940
0.907539 0.657634 -0.638924
0.907140 0.649157 -0.634634
0.915241 0.647317 -0.636364
0.916965 0.640592 -0.633601
0.921243 0.635861 -0.632633
0.928197 0.633156 -0.633517
0.938704 0.633062 -0.636821
0.942367 0.627920 -0.635393
0.944903 0.622017 -0.633200
0.947433 0.616180 -0.631013
0.948943 0.609695 -0.628150
0.953997 0.605779 -0.627675
0.965568 0.606416 -0.631525
0.988714 0.614937 -0.642973
1.017312 0.626954 -0.657865
1.028457 0.626982 -0.661157
1.030906 0.621203 -0.658739
1.035321 0.616814 -0.657603
1.038381 0.611613 -0.655590
1.041262 0.606386 -0.653468
1.042542 0.600231 -0.650334
1.044070 0.594346 -0.647376
1.049287 0.590886 -0.646754
1.054832 0.587699 -0.646329
1.060032 0.584366 -0.645679
1.061820 0.579023 -0.642908
1.065392 0.574867 -0.641251
1.069949 0.571391 -0.640201
1.072541 0.566829 -0.637952
1.067132 0.557658 -0.630868
1.069908 0.553442 -0.628779
1.076375 0.551455 -0.628910
1.080761 0.548334 -0.627790
-0.055429 0.987920 -0.571749
-0.050756 1.002198 -0.581631
-0.035576 0.926399 -0.544048
-0.031827 0.911384 -0.536765
-0.027440 0.910683 -0.537791
-0.022709 0.915335 -0.541933
-0.017702 0.922921 -0.547792
-0.013227 0.919862 -0.547383
-0.008321 0.922724 -0.550440
-0.003708 0.920256 -0.550331
0.001524 0.925410 -0.554713
0.006543 0.926594 -0.556729
0.013716 0.952107 -0.573210
0.018500 0.947867 -0.571987
0.023090 0.941432 -0.569422
0.030254 0.960740 -0.582239
0.037138 0.925239 -0.563394
0.041190 0.914472 -0.558091
0.047231 0.920727 -0.563019
0.052916 0.923294 -0.565717
0.058251 0.922659 -0.566467
0.062831 0.916242 -0.563695
0.068704 0.919173 -0.566579
0.074393 0.920391 -0.568416
0.079699 0.918786 -0.568523
0.084765 0.915562 -0.567630
0.090507 0.916511 -0.569277
0.097115 0.922370 -0.573929
0.104018 0.929391 -0.579302
0.110207 0.931860 -0.581886
0.116527 0.934754 -0.584734
0.126171 0.954810 -0.598176
0.128335 0.935449 -0.587296
0.134139 0.935110 -0.588153
0.140241 0.936123 -0.589849
0.145892 0.934869 -0.590141
0.152034 0.935845 -0.591822
0.158679 0.938926 -0.594821
0.164556 0.938439 -0.595604
0.170687 0.938976 -0.597031
0.175916 0.935683 -0.596068
0.182979 0.939895 -0.599814
0.189036 0.939871 -0.600914
0.194260 0.936560 -0.599953
0.201070 0.939334 -0.602831
0.207690 0.941225 -0.605168
0.214058 0.942067 -0.606855
0.219934 0.941065 -0.607386
0.226311 0.941789 -0.609021
0.232868 0.943040 -0.611004
0.237851 0.938925 -0.609584
0.244326 0.939799 -0.611351
0.253159 0.948169 -0.617926
0.258167 0.944099 -0.616564
0.264061 0.942864 -0.617026
0.269494 0.940217 -0.616590
0.274744 0.937062 -0.615834
0.281663 0.938855 -0.618278
0.288489 0.940262 -0.620492
0.295424 0.941872 -0.622855
0.302749 0.944454 -0.625868
0.310850 0.949020 -0.630193
0.318703 0.952706 -0.633971
0.326136 0.955102 -0.636932
0.333817 0.958004 -0.640247
0.340798 0.958955 -0.642305
0.348032 0.960455 -0.644744
0.356259 0.964317 -0.648758
0.363724 0.966129 -0.651446
0.370602 0.966406 -0.653141
0.377945 0.967715 -0.655539
0.386304 0.971301 -0.659469
0.392816 0.970450 -0.660473
0.399805 0.970645 -0.662191
0.403917 0.964313 -0.659564
0.409091 0.960440 -0.658583
0.417701 0.964099 -0.662666
0.426335 0.967639 -0.666698
0.434916 0.970901 -0.670572
0.441639 0.970119 -0.671741
0.446455 0.965355 -0.670227
0.449405 0.956849 -0.666175
0.454592 0.952991 -0.665280
0.458412 0.946455 -0.662563
0.462529 0.940598 -0.660309
0.470888 0.943011 -0.663726
0.478453 0.943778 -0.666039
0.483982 0.940622 -0.665672
0.489188 0.936875 -0.664905
0.496224 0.936505 -0.666484
0.502428 0.934566 -0.666992
0.509880 0.934831 -0.669049
0.517589 0.935470 -0.671389
0.524971 0.935450 -0.673290
0.529572 0.930562 -0.671798
0.533578 0.924704 -0.669626
0.541588 0.925646 -0.672252
0.547952 0.923755 -0.672899
0.553331 0.920213 -0.672390
0.557632 0.914931 -0.670653
0.564495 0.913804 -0.671881
0.566617 0.905114 -0.667719
0.572312 0.902143 -0.667647
0.580713 0.903352 -0.670594
0.587947 0.902670 -0.672205
0.594715 0.901221 -0.673283
0.602237 0.900853 -0.675164
0.605589 0.894248 -0.672531
0.610912 0.890594 -0.672048
0.615116 0.885324 -0.670393
0.621841 0.883695 -0.671414
0.628920 0.882520 -0.672789
0.634155 0.878714 -0.672242
0.638735 0.874004 -0.671036
0.643875 0.870081 -0.670420
0.648523 0.865497 -0.669322
0.655784 0.864423 -0.670856
0.663943 0.864474 -0.673258
0.668384 0.859579 -0.671967
0.672082 0.853746 -0.669974
0.675702 0.847852 -0.667935
0.678263 0.840661 -0.664912
0.681570 0.834472 -0.662648
0.686912 0.830850 -0.662348
0.690226 0.824734 -0.660147
0.693912 0.819113 -0.658327
0.698835 0.815008 -0.657683
0.705664 0.813161 -0.658804
0.713800 0.812801 -0.661106
0.720414 0.810590 -0.661995
0.725285 0.806336 -0.661302
0.730088 0.802002 -0.660559
0.737881 0.801031 -0.662486
0.740839 0.794611 -0.660119
0.744761 0.789295 -0.658630
0.748935 0.784271 -0.657381
0.753133 0.779287 -0.656171
0.763360 0.780740 -0.660157
0.769919 0.778200 -0.660960
0.774744 0.773807 -0.660282
0.780189 0.770052 -0.660137
0.786314 0.766974 -0.660561
0.790470 0.761873 -0.659342
0.795080 0.757236 -0.658513
0.802735 0.755613 -0.660193
0.804604 0.748259 -0.657132
0.806623 0.741108 -0.654230
0.811030 0.736299 -0.653285
0.817329 0.733288 -0.653864
0.821714 0.728446 -0.652912
0.822894 0.720631 -0.649435
0.828901 0.717319 -0.649790
0.834915 0.713986 -0.650143
0.840631 0.710359 -0.650256
0.847706 0.707922 -0.651413
0.850756 0.701895 -0.649465
0.854397 0.696415 -0.647985
0.858563 0.691409 -0.646915
0.862594 0.686300 -0.645750
0.867278 0.681759 -0.645082
0.872353 0.677550 -0.644706
0.879869 0.675358 -0.646133
0.882897 0.669455 -0.644233
0.887084 0.664530 -0.643195
0.893151 0.661130 -0.643526
0.899517 0.657957 -0.644061
0.904934 0.654030 -0.643897
0.905008 0.645966 -0.639905
0.906541 0.639118 -0.636984
0.912488 0.635695 -0.637204
0.918742 0.632508 -0.637625
0.925842 0.629952 -0.638618
0.932925 0.627378 -0.639576
0.939279 0.624270 -0.640005
0.942832 0.619158 -0.638491
0.947949 0.615217 -0.638048
0.951468 0.610185 -0.636509
0.955460 0.605545 -0.635291
0.966366 0.605742 -0.638714
0.999020 0.620783 -0.656608
1.019062 0.626950 -0.665910
1.027657 0.625294 -0.667532
1.031655 0.620598 -0.666099
1.035862 0.616115 -0.664802
1.040134 0.611748 -0.663544
1.042904 0.606489 -0.661313
1.044096 0.600318 -0.658077
1.044655 0.593861 -0.654455
1.048713 0.589721 -0.653079
1.052754 0.585651 -0.651692
1.059047 0.583050 -0.651720
1.060673 0.577663 -0.648816
1.062961 0.572786 -0.646341
1.065945 0.568428 -0.644308
1.069004 0.564210 -0.642330
1.071373 0.559679 -0.639938
1.070942 0.553615 -0.635858
1.077316 0.551611 -0.635924
-0.036238 0.910600 -0.540300
-0.032499 0.897495 -0.534076
-0.027270 0.915776 -0.546318
-0.022411 0.922949 -0.552023
-0.017851 0.922729 -0.553344
-0.013187 0.923192 -0.555050
-0.010135 0.898454 -0.541726
-0.005001 0.905246 -0.547139
0.000882 0.920280 -0.557482
0.006587 0.930626 -0.565033
0.013670 0.955268 -0.581180
0.017542 0.941028 -0.573955
0.023309 0.947588 -0.579227
0.028734 0.949517 -0.581694
0.032914 0.938895 -0.576544
0.036847 0.926510 -0.570279
0.041101 0.917586 -0.566072
0.046466 0.918277 -0.567688
0.052161 0.921182 -0.570641
0.057256 0.918924 -0.570428
0.062884 0.920470 -0.572527
0.068284 0.920001 -0.573380
0.073593 0.918687 -0.573701
0.079015 0.917974 -0.574380
0.084676 0.918618 -0.575884
0.089523 0.914013 -0.574137
0.096721 0.923522 -0.581113
0.103518 0.929959 -0.586198
0.109852 0.933254 -0.589339
0.115837 0.934314 -0.591093
0.121846 0.935303 -0.592802
0.127340 0.933484 -0.592759
0.132955 0.932251 -0.593077
0.138281 0.929577 -0.592491
0.144068 0.929122 -0.593294
0.150705 0.932498 -0.596506
0.157636 0.936931 -0.600395
0.164417 0.940406 -0.603693
0.168886 0.933795 -0.600631
0.175464 0.936186 -0.603259
0.181022 0.934252 -0.603156
0.187179 0.934717 -0.604580
0.192423 0.931553 -0.603705
0.199094 0.933876 -0.606328
0.206264 0.937884 -0.610040
0.212727 0.939096 -0.611984
0.218265 0.936912 -0.611765
0.224161 0.936001 -0.612369
0.229838 0.934317 -0.612486
0.236421 0.935679 -0.614572
0.244791 0.942792 -0.620382
0.248138 0.933405 -0.615560
0.254616 0.934204 -0.617323
0.261345 0.935697 -0.619550
0.266400 0.931978 -0.618408
0.271754 0.929230 -0.617903
0.278343 0.930150 -0.619797
0.286220 0.934696 -0.624078
0.293076 0.936135 -0.626350
0.300967 0.940352 -0.630463
0.306906 0.939014 -0.630951
0.313777 0.940174 -0.633096
0.324348 0.951055 -0.641674
0.331404 0.952350 -0.643959
0.338301 0.953133 -0.645924
0.345096 0.953570 -0.647677
0.352937 0.956536 -0.651131
0.359566 0.956374 -0.652525
0.367397 0.959057 -0.655835
0.373812 0.958229 -0.656820
0.380868 0.958859 -0.658797
0.387450 0.958312 -0.660003
0.393035 0.955445 -0.659660
0.399407 0.954358 -0.660530
0.407276 0.956546 -0.663631
0.412440 0.952709 -0.662669
0.420941 0.956082 -0.666617
0.425863 0.951708 -0.665313
0.435673 0.957603 -0.671030
0.440084 0.952134 -0.669003
0.446262 0.950336 -0.669496
0.451058 0.945743 -0.668080
0.454523 0.938563 -0.664883
0.460530 0.936470 -0.665200
0.467486 0.936190 -0.666786
0.473929 0.934872 -0.667669
0.478175 0.929383 -0.665663
0.483740 0.926410 -0.665414
0.489608 0.923995 -0.665566
0.498755 0.927503 -0.669888
0.501519 0.919442 -0.666101
0.507108 0.916494 -0.665915
0.518666 0.923950 -0.673097
0.524690 0.921620 -0.673389
0.528068 0.914771 -0.670480
0.534242 0.912711 -0.670982
0.545489 0.919049 -0.677503
0.549703 0.913619 -0.675634
0.554426 0.909068 -0.674399
0.556200 0.899821 -0.669784
0.561069 0.895615 -0.668799
0.566293 0.891985 -0.668239
0.571453 0.888265 -0.667622
0.581456 0.891956 -0.672417
0.585301 0.886178 -0.670329
0.593643 0.887171 -0.673208
0.604029 0.891081 -0.678261
0.606862 0.883796 -0.675098
0.606912 0.872575 -0.669017
0.617431 0.876469 -0.674131
0.624782 0.875726 -0.675837
0.628250 0.869496 -0.673471
0.636058 0.869314 -0.675633
0.639021 0.862440 -0.672794
0.640833 0.854082 -0.668832
0.645730 0.849942 -0.668050
0.658883 0.856710 -0.675554
0.662122 0.850299 -0.673088
0.668516 0.848019 -0.673776
0.673299 0.843645 -0.672878
0.676263 0.836981 -0.670229
0.677509 0.828225 -0.665964
0.683305 0.825200 -0.666121
0.689989 0.823239 -0.667121
0.692989 0.816774 -0.664634
0.696047 0.810430 -0.662238
0.702036 0.807603 -0.662604
0.707904 0.804608 -0.662855
0.717350 0.805734 -0.666384
0.720758 0.799822 -0.664369
0.725033 0.794928 -0.663167
0.732174 0.793263 -0.664554
0.737287 0.789290 -0.664116
0.739683 0.782324 -0.661280
0.742631 0.776012 -0.658968
0.746879 0.771139 -0.657823
0.752445 0.767678 -0.657838
0.763023 0.769474 -0.662173
0.770750 0.768168 -0.664009
0.775695 0.763925 -0.663455
0.780259 0.759287 -0.662585
0.786384 0.756227 -0.663038
0.794028 0.754650 -0.664750
0.797267 0.748658 -0.662788
0.801035 0.743212 -0.661287
0.804041 0.737045 -0.659177
0.810101 0.733836 -0.659578
0.817119 0.731503 -0.660744
0.823204 0.728248 -0.661145
0.823274 0.719387 -0.656735
0.825216 0.712335 -0.653863
0.832656 0.710324 -0.655356
0.841174 0.709229 -0.657673
0.844469 0.703421 -0.655888
0.846846 0.696834 -0.653409
0.850499 0.691401 -0.651936
0.855313 0.686990 -0.651363
0.857955 0.680733 -0.649139
0.862736 0.676319 -0.648552
0.867847 0.672185 -0.648212
0.872524 0.667694 -0.647543
0.878644 0.664391 -0.647947
0.882558 0.659294 -0.646708
0.887506 0.655050 -0.646232
0.893400 0.651564 -0.646442
0.898337 0.647327 -0.645945
0.900991 0.641340 -0.643794
0.905021 0.636463 -0.642644
0.910300 0.632567 -0.642385
0.916690 0.629521 -0.642904
0.921462 0.625279 -0.642263
0.927576 0.622054 -0.642558
0.932203 0.617761 -0.641797
0.940224 0.615948 -0.643383
0.946852 0.613136 -0.643976
0.951764 0.609131 -0.643370
0.956605 0.605120 -0.642707
0.970956 0.607720 -0.648483
1.006465 0.624689 -0.668441
1.021098 0.627177 -0.674166
1.026527 0.623429 -0.673672
1.031572 0.619482 -0.672913
1.034707 0.614344 -0.670885
1.039955 0.610667 -0.670248
1.043529 0.605977 -0.668510
1.045382 0.600275 -0.665658
1.045313 0.593466 -0.661582
1.048853 0.589045 -0.659848
1.051825 0.584361 -0.657756
1.057583 0.581483 -0.657438
1.059979 0.576621 -0.654988
1.059023 0.569839 -0.650448
1.060044 0.564375 -0.647177
1.066519 0.562257 -0.647311
1.071345 0.559227 -0.646414
1.075438 0.555844 -0.645064
-0.046638 0.984823 -0.584682
-0.032544 0.896990 -0.539176
-0.027819 0.905599 -0.545793
-0.022907 0.915149 -0.552979
-0.018232 0.918005 -0.556168
-0.014389 0.906035 -0.550453
-0.010690 0.892560 -0.543780
-0.005708 0.898005 -0.548450
0.010672 0.923423 -0.567941
0.015542 0.922243 -0.568575
0.020341 0.919843 -0.568443
0.031617 0.930199 -0.577373
0.036545 0.927479 -0.576988
0.041686 0.926406 -0.577591
0.046201 0.919798 -0.574769
0.051347 0.918412 -0.575133
0.056863 0.919638 -0.577093
0.062606 0.922133 -0.579825
0.068301 0.923818 -0.582049
0.073474 0.921522 -0.581791
0.081425 0.937528 -0.592903
0.085522 0.927580 -0.587865
0.090905 0.926029 -0.588039
0.096698 0.926837 -0.589676
0.102812 0.929272 -0.592328
0.107933 0.925826 -0.591288
0.113203 0.923243 -0.590780
0.120122 0.929384 -0.595756
0.125852 0.928942 -0.596591
0.131538 0.928190 -0.597227
0.137837 0.930337 -0.599697
0.142921 0.926527 -0.598395
0.148385 0.924566 -0.598262
0.157415 0.938606 -0.608305
0.161978 0.932326 -0.605434
0.167793 0.931611 -0.606107
0.172528 0.926351 -0.603878
0.179361 0.929798 -0.607219
0.184791 0.927442 -0.606852
0.189788 0.923440 -0.605430
0.196427 0.925782 -0.608091
0.202126 0.924469 -0.608408
0.208398 0.925230 -0.610073
0.215924 0.930367 -0.614581
0.222100 0.930522 -0.615881
0.228557 0.931571 -0.617773
0.232891 0.925405 -0.614985
0.240030 0.928638 -0.618321
0.244521 0.923150 -0.615982
0.250460 0.922394 -0.616737
0.258795 0.929045 -0.622359
0.264705 0.928005 -0.622960
0.270305 0.926018 -0.622949
0.277224 0.927920 -0.625510
0.283199 0.926970 -0.626207
0.290387 0.929438 -0.629178
0.295309 0.925439 -0.627883
0.304418 0.933007 -0.634276
0.309458 0.929282 -0.633187
0.317867 0.934562 -0.638110
0.329368 0.947689 -0.648307
0.336931 0.950217 -0.651458
0.343995 0.951336 -0.653687
0.348863 0.946889 -0.652193
0.353828 0.942752 -0.650913
0.363120 0.949130 -0.656738
0.370386 0.950431 -0.659162
0.372988 0.940696 -0.654123
0.382567 0.947295 -0.660176
0.389252 0.947051 -0.661604
0.394634 0.943823 -0.661012
0.401686 0.944314 -0.662974
0.410590 0.948761 -0.667668
0.416540 0.946666 -0.667898
0.420479 0.940299 -0.665196
0.428217 0.941980 -0.668051
0.431648 0.934662 -0.664701
0.437685 0.932775 -0.665115
0.449862 0.943195 -0.674101
0.450130 0.929679 -0.666454
0.457629 0.930582 -0.668858
0.464319 0.929831 -0.670126
0.470211 0.927507 -0.670308
0.475026 0.923146 -0.669067
0.478876 0.917036 -0.666597
0.484011 0.913361 -0.665849
0.487451 0.906640 -0.662947
0.496789 0.910552 -0.667605
0.501685 0.906455 -0.666587
0.507472 0.903941 -0.666707
0.511459 0.898315 -0.664609
0.519491 0.899630 -0.667499
0.524457 0.895688 -0.666630
0.533841 0.899099 -0.671080
0.539319 0.895950 -0.670813
0.546086 0.894887 -0.672073
0.550773 0.890443 -0.670888
0.557414 0.889119 -0.671988
0.564426 0.888329 -0.673499
0.569829 0.884992 -0.673159
0.574334 0.880284 -0.671819
0.581550 0.879700 -0.673532
0.584443 0.872598 -0.670436
0.586565 0.864440 -0.666549
0.589494 0.857567 -0.663610
0.598995 0.860250 -0.667816
0.609343 0.864002 -0.672863
0.616204 0.862672 -0.674129
0.621206 0.858698 -0.673421
0.629730 0.859587 -0.676405
0.627431 0.845617 -0.668132
0.633553 0.843229 -0.668649
0.641209 0.842856 -0.670724
0.646397 0.839154 -0.670273
0.652667 0.836861 -0.670919
0.659590 0.835375 -0.672206
0.668581 0.836476 -0.675523
0.669817 0.827680 -0.671182
0.672564 0.820874 -0.668379
0.679104 0.818814 -0.669288
0.686504 0.817762 -0.671010
0.688910 0.810610 -0.667952
0.694342 0.807141 -0.667801
0.699881 0.803785 -0.667756
0.704452 0.799279 -0.666810
0.710189 0.796131 -0.666959
0.716259 0.793340 -0.667413
0.720659 0.788626 -0.666338
0.723836 0.782551 -0.664169
0.729120 0.778851 -0.663930
0.732560 0.773114 -0.662045
0.738056 0.769638 -0.662013
0.742554 0.765071 -0.661101
0.747957 0.761469 -0.660994
0.755950 0.760574 -0.663144
0.763893 0.759551 -0.665222
0.769448 0.755998 -0.665221
0.775295 0.752722 -0.665470
0.780175 0.748445 -0.664894
0.784946 0.744053 -0.664232
0.790415 0.740348 -0.664163
0.794999 0.735759 -0.663356
0.801806 0.733319 -0.664396
0.806821 0.729121 -0.663948
0.812455 0.725501 -0.664009
0.817888 0.721673 -0.663903
0.818952 0.713787 -0.660273
0.823115 0.708809 -0.659168
0.829644 0.705985 -0.659955
0.837839 0.704618 -0.662047
0.843522 0.700960 -0.662133
0.844459 0.693122 -0.658503
0.848210 0.687800 -0.657096
0.854345 0.684547 -0.657542
0.858759 0.679811 -0.656654
0.862784 0.674759 -0.655472
0.867848 0.670593 -0.655086
0.873322 0.666767 -0.655004
0.875698 0.660417 -0.652591
0.878181 0.654205 -0.650276
0.882763 0.649721 -0.649534
0.888443 0.646121 -0.649600
0.892866 0.641543 -0.648732
0.896300 0.636227 -0.647142
0.901748 0.632495 -0.647016
0.910299 0.631123 -0.649115
0.911814 0.624454 -0.646137
0.915972 0.619824 -0.645061
0.919279 0.614612 -0.643382
0.927375 0.612931 -0.645077
0.938076 0.613109 -0.648562
0.945385 0.610830 -0.649632
0.946446 0.604166 -0.646348
0.950075 0.599389 -0.644853
0.991064 0.620417 -0.668926
1.010735 0.626456 -0.678205
1.023050 0.627383 -0.682385
1.026542 0.622373 -0.680564
1.031705 0.618552 -0.679864
1.034775 0.613420 -0.677762
1.040452 0.610069 -0.677390
1.043767 0.605259 -0.675451
