ply
format ascii 1.0
comment ---
element vertex 1765
property float x
property float y
property float z
element face 0
property list uchar uint vertex_indices
end_header
0.717917 1.156307 0.339289
0.723195 1.151799 0.339301
0.727694 1.146119 0.339081
0.731720 1.139766 0.338729
0.734379 1.131428 0.337976
0.737919 1.124472 0.337509
0.742126 1.118548 0.337260
0.746623 1.113080 0.337111
0.750752 1.107113 0.336865
0.752910 1.098393 0.336048
0.755253 1.090022 0.335307
0.759986 1.085051 0.335285
0.763995 1.079098 0.335063
0.769187 1.074790 0.335196
0.772686 1.068200 0.334852
0.776243 1.061732 0.334540
0.779549 1.054975 0.334170
0.782088 1.047258 0.333598
0.786620 1.042190 0.333605
0.790900 1.036809 0.333552
0.793942 1.029874 0.333166
0.798821 1.025298 0.333304
0.801992 1.018591 0.332981
0.804728 1.011390 0.332552
0.808655 1.005695 0.332464
0.812014 0.999333 0.332234
0.816402 0.994238 0.332295
0.819460 0.987571 0.332008
0.819402 0.977271 0.330897
0.823655 0.972107 0.330960
0.828622 0.967777 0.331222
0.832551 0.962251 0.331218
0.835701 0.955857 0.331018
0.839506 0.950230 0.331001
0.843440 0.944764 0.331028
0.847050 0.938955 0.330980
0.850337 0.932812 0.330857
0.854459 0.927599 0.330959
0.857931 0.921700 0.330901
0.862174 0.916641 0.331049
0.864652 0.909735 0.330752
0.867829 0.903598 0.330641
0.869616 0.896059 0.330185
0.872816 0.890018 0.330094
0.876354 0.884350 0.330093
0.880579 0.879395 0.330269
0.886683 0.876318 0.330917
0.891682 0.872132 0.331286
0.894449 0.865773 0.331099
0.894526 0.856859 0.330247
0.897556 0.850864 0.330128
0.899535 0.843915 0.329750
0.903706 0.839086 0.329907
0.907559 0.833987 0.329982
0.910755 0.828316 0.329889
0.913765 0.822524 0.329745
0.917369 0.817321 0.329737
0.920800 0.812010 0.329677
0.924178 0.806704 0.329593
0.927352 0.801273 0.329448
0.931865 0.797071 0.329608
0.934823 0.791571 0.329384
0.938763 0.786980 0.329375
0.942621 0.782380 0.329329
0.939776 0.772207 0.327694
0.948131 0.771532 0.328664
0.952879 0.767879 0.328766
0.955065 0.762188 0.328252
0.954847 0.754643 0.327165
0.959942 0.751505 0.327281
0.963792 0.747434 0.327086
0.971554 0.746537 0.327756
0.966279 0.735442 0.325444
0.971455 0.732679 0.325480
0.976766 0.730087 0.325518
0.980933 0.726684 0.325272
0.982662 0.721511 0.324461
0.982003 0.714648 0.323103
0.990329 0.714641 0.323704
0.997610 0.713893 0.324042
1.001630 0.710789 0.323641
0.992737 0.698328 0.320427
0.995355 0.694441 0.319694
0.996808 0.689809 0.318694
-0.149295 1.903170 0.394085
-0.142578 1.906143 0.395785
-0.135734 1.909492 0.397508
-0.128739 1.912193 0.399092
-0.121610 1.914948 0.400647
-0.114330 1.916635 0.401993
-0.106914 1.917434 0.403157
-0.099407 1.923545 0.405115
-0.091729 1.924728 0.406252
-0.083918 1.930723 0.408108
-0.075985 1.930421 0.408920
-0.067893 1.935131 0.410484
-0.059616 1.942485 0.412428
-0.051144 1.951387 0.414578
-0.042701 1.951005 0.415195
-0.034142 1.951210 0.415861
-0.025423 1.953359 0.416796
-0.016347 1.962480 0.418814
-0.007196 1.969163 0.420399
0.001904 1.971304 0.421210
0.011035 1.971942 0.421739
0.020346 1.974385 0.422523
0.029938 1.980046 0.423796
0.039665 1.985916 0.425071
0.049396 1.990026 0.426029
0.058993 1.990800 0.426416
0.068577 1.990534 0.426606
0.078419 1.992859 0.427195
0.088440 1.996448 0.427969
0.097750 1.991171 0.427275
0.108105 1.997100 0.428396
0.119360 2.011194 0.430837
0.129882 2.016555 0.431839
0.139885 2.016358 0.431922
0.149984 2.016753 0.432093
0.160476 2.020235 0.432764
0.171317 2.026094 0.433820
0.182397 2.033211 0.435080
0.192762 2.034253 0.435345
0.202714 2.032064 0.435081
0.211931 2.024715 0.433974
0.220844 2.015679 0.432593
0.229996 2.008706 0.431555
0.239091 2.001711 0.430518
0.247485 1.990714 0.428831
0.255408 1.977449 0.426779
0.264256 1.970292 0.425737
0.273181 1.963908 0.424832
0.281788 1.956048 0.423693
0.289685 1.944718 0.421993
0.297860 1.935374 0.420630
0.306471 1.928677 0.419712
0.314393 1.918816 0.418285
0.322379 1.909686 0.416989
0.331146 1.904648 0.416379
0.340415 1.902123 0.416197
0.345122 1.878906 0.412608
0.352611 1.869030 0.411233
0.360901 1.863007 0.410507
0.365696 1.842287 0.407359
0.367031 1.807923 0.401956
0.376203 1.806944 0.402097
0.376495 1.770350 0.396334
0.383917 1.763149 0.395460
0.391027 1.754959 0.394433
0.401291 1.758940 0.395445
0.408033 1.749644 0.394256
0.414800 1.740710 0.393137
0.422457 1.735219 0.392604
0.431691 1.735400 0.393032
0.436458 1.720074 0.390872
0.442475 1.709454 0.389509
0.443701 1.683129 0.385513
0.450107 1.674611 0.384516
0.457634 1.669920 0.384173
0.462007 1.655295 0.382162
0.466924 1.642765 0.380510
0.472973 1.634043 0.379509
0.480277 1.629316 0.379193
0.484283 1.614827 0.377227
0.487225 1.597583 0.374795
0.493826 1.591360 0.374245
0.500325 1.584960 0.373673
0.502166 1.565592 0.370888
0.505667 1.551303 0.368973
0.511965 1.544977 0.368429
0.518172 1.538512 0.367869
0.522375 1.526837 0.366416
0.524837 1.510858 0.364221
0.532059 1.507517 0.364216
0.538977 1.503417 0.364089
0.540502 1.485818 0.361619
0.544409 1.474511 0.360245
0.549704 1.466814 0.359503
0.554077 1.457019 0.358399
0.561343 1.454292 0.358539
0.562072 1.436193 0.355982
0.565420 1.424554 0.354560
0.570629 1.417397 0.353932
0.574940 1.408313 0.352966
0.579286 1.399455 0.352043
0.583836 1.391189 0.351228
0.587717 1.381591 0.350178
0.590710 1.370234 0.348816
0.593921 1.359542 0.347572
0.599289 1.353562 0.347177
0.604203 1.346706 0.346629
0.608417 1.338498 0.345840
0.612028 1.329182 0.344852
0.616046 1.320823 0.344040
0.620749 1.313939 0.343499
0.625193 1.306628 0.342884
0.629516 1.299174 0.342245
0.633913 1.291955 0.341653
0.638978 1.286088 0.341313
0.644053 1.280296 0.340992
0.648260 1.272947 0.340386
0.652033 1.264889 0.339652
0.655286 1.255988 0.338762
0.658420 1.246992 0.337855
0.664540 1.243413 0.337967
0.668490 1.236026 0.337369
0.672639 1.229067 0.336854
0.675711 1.220331 0.336006
0.679796 1.213423 0.335507
0.684435 1.207520 0.335203
0.689660 1.202637 0.335099
0.695170 1.198250 0.335097
0.699168 1.191411 0.334629
0.702569 1.183676 0.333991
0.707665 1.178729 0.333897
0.711921 1.172478 0.333556
0.714377 1.163461 0.332677
0.718705 1.157448 0.332390
0.723891 1.152793 0.332376
0.728235 1.146877 0.332119
0.730957 1.138564 0.331391
0.733726 1.130408 0.330697
0.737395 1.123660 0.330287
0.741769 1.117995 0.330098
0.746783 1.113287 0.330109
0.750434 1.106642 0.329735
0.752085 1.097217 0.328801
0.755685 1.090628 0.328446
0.761066 1.086556 0.328612
0.765916 1.081753 0.328637
0.769216 1.074853 0.328237
0.773616 1.069486 0.328160
0.775544 1.060841 0.327406
0.779451 1.054894 0.327219
0.783865 1.049642 0.327185
0.788280 1.044408 0.327163
0.791606 1.037790 0.326854
0.794979 1.031274 0.326573
0.801201 1.028385 0.327075
0.802309 1.019086 0.326209
0.805573 1.012540 0.325939
0.807598 1.004515 0.325353
0.811669 0.999035 0.325326
0.816785 0.994826 0.325585
0.818543 0.986615 0.324971
0.820297 0.978467 0.324373
0.824248 0.972947 0.324362
0.829348 0.968771 0.324659
0.833343 0.963320 0.324679
0.836321 0.956727 0.324448
0.841055 0.952144 0.324678
0.843884 0.945435 0.324430
0.846860 0.938926 0.324232
0.850334 0.932993 0.324169
0.853910 0.927193 0.324142
0.857493 0.921420 0.324125
0.860870 0.915449 0.324065
0.864720 0.909998 0.324130
0.867873 0.903835 0.324029
0.870258 0.896910 0.323745
0.873153 0.890550 0.323594
0.875952 0.884126 0.323426
0.880836 0.879831 0.323773
0.887220 0.877024 0.324486
0.892247 0.872854 0.324867
0.890449 0.862029 0.323598
0.893940 0.856438 0.323612
0.895190 0.848733 0.323087
0.897652 0.842249 0.322854
0.901581 0.837193 0.322971
0.906505 0.833090 0.323318
0.910870 0.828486 0.323526
0.913898 0.822687 0.323411
0.916929 0.816943 0.323289
0.922610 0.813625 0.323779
0.925711 0.808031 0.323654
0.927731 0.801544 0.323266
0.930908 0.796144 0.323135
0.933187 0.790031 0.322783
0.934882 0.783499 0.322284
0.939099 0.779197 0.322348
0.943571 0.775163 0.322452
0.950100 0.772898 0.323002
0.948170 0.763678 0.321612
0.953563 0.760605 0.321862
0.959282 0.757846 0.322160
0.959880 0.751016 0.321286
0.964855 0.747800 0.321369
0.966248 0.741815 0.320632
0.967488 0.735824 0.319842
0.971433 0.732051 0.319625
0.977288 0.729834 0.319801
0.982753 0.727377 0.319863
0.977377 0.716760 0.317551
0.983966 0.715346 0.317810
0.988303 0.712304 0.317556
0.988575 0.706328 0.316411
0.988931 0.700539 0.315268
0.991328 0.696365 0.314540
0.992695 0.691542 0.313577
0.998821 0.690253 0.313589
1.003378 0.687902 0.313250
-0.156990 1.902372 0.384638
-0.150270 1.902614 0.385908
-0.143471 1.904212 0.387343
-0.136579 1.907201 0.388950
-0.129539 1.909685 0.390442
-0.122352 1.911443 0.391783
-0.115072 1.916037 0.393516
-0.107629 1.919225 0.394992
-0.100047 1.922716 0.396473
-0.092329 1.929233 0.398377
-0.084464 1.925416 0.398643
-0.076470 1.929722 0.400117
-0.068321 1.934880 0.401680
-0.060032 1.939285 0.403082
-0.051575 1.945076 0.404656
-0.042993 1.949634 0.405996
-0.034362 1.950770 0.406756
-0.025474 1.956778 0.408237
-0.016425 1.963205 0.409744
-0.007271 1.968601 0.411049
0.001959 1.972671 0.412108
0.011079 1.971975 0.412379
0.020315 1.972138 0.412748
0.030067 1.980028 0.414304
0.039936 1.987531 0.415768
0.049459 1.987779 0.416057
0.059153 1.989584 0.416565
0.068799 1.989773 0.416792
0.078695 1.992415 0.417386
0.089213 2.001554 0.418989
0.098030 1.990215 0.417328
0.108130 1.993223 0.417926
0.120236 2.015868 0.421630
0.130969 2.022863 0.422839
0.141394 2.026121 0.423446
0.150863 2.020412 0.422623
0.161032 2.020900 0.422778
0.172649 2.032952 0.424769
0.183199 2.035579 0.425262
0.193330 2.034703 0.425197
0.202869 2.029449 0.424439
0.211687 2.019372 0.422916
0.221017 2.013340 0.422040
0.230839 2.010855 0.421735
0.240162 2.005265 0.420942
0.248045 1.991012 0.418777
0.256436 1.980582 0.417227
0.264535 1.968985 0.415501
0.273655 1.963766 0.414800
0.282258 1.955918 0.413690
0.290072 1.944183 0.411970
0.298136 1.934309 0.410558
0.306469 1.926253 0.409446
0.314980 1.919430 0.408543
0.322606 1.908569 0.407005
0.331480 1.904098 0.406501
0.340851 1.902092 0.406405
0.348093 1.890446 0.404776
0.351829 1.863675 0.400732
0.358337 1.850051 0.398805
0.365093 1.838001 0.397141
0.371482 1.824860 0.395312
0.372783 1.791404 0.390221
0.377588 1.773248 0.387600
0.385386 1.767497 0.386988
0.393951 1.764856 0.386889
0.402195 1.761042 0.386612
0.409556 1.754032 0.385831
0.415411 1.741726 0.384201
0.424427 1.741102 0.384476
0.431421 1.733328 0.383602
0.437949 1.724147 0.382508
0.440080 1.700295 0.379033
0.443512 1.681517 0.376387
0.448846 1.669531 0.374855
0.456420 1.665098 0.374566
0.463558 1.659350 0.374071
0.466243 1.639804 0.371320
0.474396 1.637614 0.371425
0.479046 1.624814 0.369793
0.484281 1.614077 0.368506
0.489055 1.602240 0.367043
0.493871 1.590802 0.365651
0.500192 1.583918 0.365019
0.505851 1.575299 0.364105
0.505839 1.551167 0.360615
0.511877 1.544148 0.359974
0.517625 1.536471 0.359231
0.522593 1.526865 0.358170
0.527546 1.517410 0.357139
0.535129 1.514920 0.357284
0.536415 1.496406 0.354736
0.541826 1.488663 0.354005
0.543064 1.470719 0.351552
0.549203 1.465145 0.351195
0.553693 1.455664 0.350180
0.557688 1.445172 0.348995
0.561410 1.434234 0.347736
0.566363 1.426353 0.347003
0.571104 1.418109 0.346210
0.573589 1.404891 0.344565
0.578278 1.396848 0.343812
0.583869 1.390919 0.343427
0.588396 1.382737 0.342657
0.589294 1.366864 0.340553
0.594464 1.360386 0.340082
0.599854 1.354447 0.339710
0.604266 1.346543 0.338998
0.608456 1.338295 0.338228
0.612117 1.329087 0.337291
0.616785 1.322038 0.336737
0.621809 1.315782 0.336327
0.625870 1.307705 0.335598
0.630014 1.299898 0.334919
0.634614 1.293063 0.334416
0.638902 1.285718 0.333825
0.642668 1.277480 0.333076
0.647214 1.270797 0.332610
0.652203 1.264997 0.332306
0.656118 1.257300 0.331663
0.659287 1.248358 0.330797
0.663576 1.241520 0.330315
0.668685 1.236193 0.330113
0.673311 1.230065 0.329768
0.676301 1.221182 0.328921
0.679961 1.213551 0.328306
0.684707 1.207830 0.328048
0.689848 1.202810 0.327925
0.694338 1.196747 0.327613
0.698522 1.190234 0.327221
0.702451 1.183369 0.326767
0.707062 1.177655 0.326533
0.712319 1.173002 0.326506
0.715687 1.165414 0.325928
0.719705 1.158907 0.325559
0.724487 1.153625 0.325428
0.728210 1.146765 0.325001
0.730949 1.138485 0.324303
0.733313 1.129735 0.323517
0.737238 1.123379 0.323197
0.741565 1.117655 0.323005
0.746416 1.112721 0.322974
0.749472 1.105239 0.322449
0.751721 1.096683 0.321715
0.756126 1.091233 0.321599
0.761756 1.087510 0.321833
0.766352 1.082357 0.321792
0.770967 1.077248 0.321766
0.773027 1.068713 0.321057
0.775386 1.060658 0.320448
0.778691 1.053926 0.320110
0.784781 1.050885 0.320531
0.789782 1.046407 0.320669
0.793483 1.040262 0.320473
0.796649 1.033467 0.320149
0.797108 1.023306 0.319129
0.801805 1.018541 0.319236
0.806218 1.013430 0.319279
0.808953 1.006274 0.318899
0.811519 0.998961 0.318490
0.814279 0.991933 0.318145
0.817427 0.985411 0.317913
0.820328 0.978634 0.317632
0.825195 0.974189 0.317860
0.829558 0.969157 0.317970
0.833858 0.964059 0.318074
0.837325 0.958022 0.317980
0.838694 0.949651 0.317374
0.843799 0.945507 0.317709
0.845809 0.937938 0.317287
0.850137 0.932953 0.317447
0.853618 0.927055 0.317408
0.856456 0.920490 0.317221
0.860531 0.915271 0.317344
0.866202 0.911740 0.317859
0.871119 0.907401 0.318197
0.871496 0.898371 0.317449
0.872995 0.890569 0.316980
0.877720 0.886096 0.317290
0.882315 0.881490 0.317571
0.886785 0.876762 0.317825
0.887578 0.868422 0.317212
0.889666 0.861421 0.316911
0.892662 0.855350 0.316826
0.894298 0.848015 0.316424
0.896999 0.841751 0.316271
0.900996 0.836751 0.316419
0.905749 0.832478 0.316737
0.910792 0.828488 0.317116
0.914230 0.823044 0.317118
0.917930 0.817879 0.317173
0.924428 0.815261 0.317857
0.926018 0.808285 0.317412
0.928951 0.802570 0.317263
0.930818 0.795989 0.316862
0.933296 0.790019 0.316587
0.936207 0.784492 0.316396
0.939733 0.779559 0.316327
0.943782 0.775129 0.316357
0.946247 0.769441 0.316017
0.946680 0.762161 0.315211
0.952911 0.759743 0.315663
0.957587 0.756101 0.315749
0.961514 0.751919 0.315647
0.964760 0.747269 0.315374
0.968205 0.742865 0.315121
0.970161 0.737379 0.314524
0.971769 0.731730 0.313832
0.975898 0.728136 0.313656
0.981227 0.725540 0.313708
0.986791 0.723189 0.313782
0.985657 0.715866 0.312421
0.990149 0.712887 0.312221
0.990875 0.707199 0.311213
0.991350 0.701448 0.310135
0.989437 0.694078 0.308550
0.991599 0.689806 0.307788
1.000334 0.690360 0.308345
1.002765 0.686448 0.307593
-0.158044 1.903695 0.376748
-0.151275 1.903976 0.377978
-0.144433 1.905874 0.379406
-0.137470 1.908167 0.380853
-0.130365 1.910064 0.382201
-0.123137 1.912512 0.383590
-0.115785 1.915728 0.385050
-0.108286 1.918478 0.386400
-0.100695 1.928646 0.388813
-0.092875 1.924590 0.389059
-0.084962 1.927738 0.390336
-0.076927 1.927712 0.391090
-0.068736 1.932554 0.392532
-0.060388 1.937958 0.394016
-0.051893 1.943153 0.395425
-0.043235 1.949073 0.396901
-0.034552 1.950264 0.397617
-0.025681 1.954066 0.398687
-0.016550 1.961747 0.400309
-0.007359 1.967005 0.401523
0.001916 1.971167 0.402532
0.011203 1.973153 0.403173
0.020469 1.972934 0.403441
0.029933 1.974998 0.404026
0.039560 1.978298 0.404772
0.049368 1.982956 0.405698
0.059295 1.987868 0.406638
0.069211 1.991320 0.407331
0.079280 1.995670 0.408142
0.089652 2.002578 0.409329
0.099032 1.997222 0.408612
0.108964 1.997863 0.408804
0.120507 2.014362 0.411427
0.131760 2.026251 0.413332
0.141846 2.026102 0.413375
0.151364 2.020722 0.412607
0.161715 2.022633 0.412958
0.173370 2.034828 0.414894
0.183837 2.036666 0.415233
0.193987 2.035854 0.415165
0.203908 2.033318 0.414834
0.211913 2.017383 0.412440
0.221327 2.011989 0.411678
0.230844 2.007544 0.411068
0.239254 1.996237 0.409405
0.248402 1.990115 0.408552
0.255985 1.974886 0.406300
0.265251 1.970291 0.405700
0.274127 1.963684 0.404800
0.282469 1.954426 0.403499
0.290403 1.943419 0.401939
0.298304 1.932749 0.400441
0.306812 1.925661 0.399509
0.315236 1.918453 0.398570
0.323398 1.910262 0.397490
0.330709 1.898362 0.395846
0.341963 1.905260 0.397133
0.348935 1.892361 0.395358
0.353301 1.868395 0.391872
0.359699 1.854234 0.389921
0.367920 1.848368 0.389271
0.374576 1.836166 0.387646
0.374741 1.797893 0.381961
0.378926 1.777172 0.379021
0.387285 1.773571 0.378765
0.395319 1.768798 0.378337
0.403945 1.766376 0.378289
0.412453 1.763544 0.378190
0.420730 1.759911 0.377977
0.428480 1.754455 0.377488
0.430727 1.729806 0.373987
0.435331 1.714074 0.371895
0.442464 1.707387 0.371237
0.447097 1.692522 0.369296
0.453856 1.685048 0.368530
0.456443 1.664296 0.365667
0.464062 1.660106 0.365438
0.469687 1.649750 0.364237
0.472989 1.632511 0.361945
0.477644 1.619824 0.360382
0.481858 1.606141 0.358665
0.488857 1.600967 0.358316
0.492923 1.587399 0.356627
0.499467 1.581211 0.356128
0.502187 1.564399 0.353925
0.505607 1.549935 0.352101
0.511840 1.543475 0.351574
0.516981 1.534186 0.350595
0.522007 1.524778 0.349602
0.527263 1.516155 0.348740
0.529588 1.500138 0.346677
0.536363 1.495794 0.346521
0.541200 1.486627 0.345583
0.546659 1.479167 0.344928
0.546414 1.457898 0.342006
0.553346 1.454407 0.342010
0.558968 1.447810 0.341508
0.561792 1.434737 0.339938
0.567532 1.428681 0.339534
0.571574 1.418814 0.338499
0.573558 1.404463 0.336719
0.578379 1.396726 0.336043
0.584349 1.391639 0.335815
0.589011 1.383748 0.335120
0.592027 1.372431 0.333852
0.595153 1.361544 0.332656
0.599721 1.353868 0.332004
0.604595 1.346936 0.331481
0.608177 1.337438 0.330525
0.612073 1.328723 0.329704
0.616979 1.322161 0.329253
0.622174 1.316246 0.328917
0.626316 1.308329 0.328241
0.629736 1.299115 0.327343
0.633319 1.290347 0.326522
0.638855 1.285400 0.326368
0.642865 1.277628 0.325726
0.647333 1.270803 0.325251
0.652018 1.264449 0.324863
0.656230 1.257302 0.324339
0.659708 1.248920 0.323600
0.664166 1.242380 0.323188
0.668352 1.235429 0.322707
0.672276 1.228095 0.322161
0.676860 1.221977 0.321835
0.681389 1.215818 0.321506
0.685747 1.209425 0.321139
0.690460 1.203683 0.320893
0.694239 1.196444 0.320380
0.698082 1.189384 0.319904
0.701983 1.182487 0.319460
0.706553 1.176724 0.319227
0.711233 1.171174 0.319038
0.715355 1.164789 0.318700
0.719864 1.159055 0.318487
0.724630 1.153753 0.318360
0.728538 1.147179 0.318002
0.730950 1.138411 0.317237
0.733589 1.130077 0.316555
0.736988 1.122949 0.316102
0.741783 1.117918 0.316050
0.745743 1.111703 0.315779
0.749618 1.105409 0.315499
0.753346 1.098951 0.315192
0.756951 1.092366 0.314866
0.761558 1.087220 0.314822
0.765609 1.081328 0.314642
0.769095 1.074701 0.314324
0.772901 1.068551 0.314104
0.774778 1.059863 0.313391
0.779022 1.054388 0.313314
0.784413 1.050435 0.313547
0.789245 1.045751 0.313643
0.790540 1.036531 0.312841
0.793740 1.029824 0.312544
0.796132 1.022141 0.312056
0.801377 1.018080 0.312306
0.806902 1.014355 0.312634
0.811248 1.009171 0.312676
0.811662 0.999230 0.311745
0.813657 0.991289 0.311227
0.816676 0.984628 0.310978
0.821621 0.980274 0.311216
0.825331 0.974472 0.311160
0.829258 0.968942 0.311169
0.833516 0.963805 0.311268
0.837175 0.957997 0.311231
0.839859 0.951110 0.310970
0.841923 0.943574 0.310571
0.847035 0.939449 0.310916
0.849486 0.932406 0.310632
0.852903 0.926450 0.310590
0.856416 0.920618 0.310579
0.861612 0.916593 0.310974
0.867335 0.913108 0.311497
0.871130 0.907591 0.311573
0.870631 0.897655 0.310654
0.874125 0.891901 0.310677
0.878724 0.887287 0.310961
0.883785 0.883136 0.311355
0.884785 0.874943 0.310816
0.885862 0.866895 0.310303
0.890481 0.862370 0.310605
0.894539 0.857309 0.310780
0.894905 0.848731 0.310116
0.896828 0.841714 0.309809
0.901016 0.836882 0.310013
0.906286 0.833075 0.310458
0.910523 0.828320 0.310664
0.914620 0.823461 0.310833
0.918284 0.818241 0.310898
0.919856 0.811185 0.310492
0.926617 0.808811 0.311226
0.930028 0.803486 0.311208
0.932510 0.797405 0.310974
0.935246 0.791612 0.310785
0.937028 0.785074 0.310374
0.938752 0.778573 0.309938
0.944459 0.775508 0.310350
0.948282 0.770908 0.310335
0.950536 0.765079 0.309963
0.953363 0.759809 0.309695
0.958902 0.756823 0.309985
0.960143 0.750431 0.309338
0.963413 0.745769 0.309101
0.969587 0.743486 0.309452
0.970983 0.737510 0.308774
0.971817 0.731212 0.307959
0.976621 0.728095 0.307948
0.979215 0.723360 0.307453
0.981143 0.718224 0.306799
0.987154 0.716266 0.306958
0.985990 0.709018 0.305628
0.992363 0.707493 0.305809
0.992408 0.701381 0.304686
0.990783 0.694181 0.303212
0.992225 0.689345 0.302338
0.996947 0.686973 0.302096
1.000334 0.683725 0.301567
1.001032 0.678664 0.300490
-0.165644 1.901515 0.367136
-0.158951 1.901698 0.368343
-0.152150 1.902221 0.369560
-0.145313 1.905726 0.371162
-0.138247 1.905815 0.372238
-0.131144 1.909753 0.373823
-0.123853 1.911374 0.375035
-0.116483 1.916757 0.376746
-0.108922 1.919003 0.377963
-0.101216 1.919654 0.378904
-0.093406 1.927213 0.380805
-0.085433 1.925707 0.381341
-0.077325 1.930701 0.382780
-0.069092 1.932813 0.383753
-0.060731 1.935152 0.384715
-0.052104 1.945473 0.386806
-0.043438 1.948886 0.387840
-0.034726 1.949210 0.388375
-0.025813 1.952894 0.389365
-0.016733 1.957836 0.390501
-0.007476 1.963976 0.391777
0.001805 1.967554 0.392638
0.011187 1.970919 0.393432
0.020590 1.972709 0.393959
0.030189 1.976448 0.394745
0.039686 1.976939 0.395020
0.049550 1.982006 0.395950
0.059583 1.987999 0.396994
0.069552 1.991754 0.397683
0.079784 1.997764 0.398691
0.091501 2.020067 0.402112
0.100677 2.011284 0.400882
0.110651 2.011441 0.400973
0.122240 2.027549 0.403435
0.131167 2.016305 0.401806
0.140795 2.012244 0.401243
0.151180 2.014991 0.401693
0.161382 2.015794 0.401850
0.173641 2.033074 0.404469
0.183567 2.030696 0.404151
0.193837 2.030972 0.404233
0.203295 2.025217 0.403418
0.212514 2.018095 0.402403
0.221629 2.010653 0.401346
0.230275 2.000527 0.399895
0.239292 1.993327 0.398889
0.248137 1.985442 0.397790
0.256916 1.977559 0.396700
0.265855 1.971009 0.395819
0.274561 1.963449 0.394797
0.282548 1.952278 0.393245
0.290339 1.940595 0.391627
0.298891 1.933442 0.390699
0.307396 1.926360 0.389793
0.316013 1.920136 0.389028
0.323465 1.908493 0.387461
0.331759 1.901340 0.386580
0.339908 1.893789 0.385651
0.348087 1.886660 0.384798
0.353557 1.867772 0.382185
0.360211 1.854778 0.380470
0.368406 1.848821 0.379827
0.374523 1.834400 0.377917
0.380071 1.818182 0.375746
0.381199 1.784873 0.370997
0.388151 1.775634 0.369897
0.396964 1.773842 0.369936
0.405440 1.770785 0.369796
0.413036 1.764519 0.369180
0.419765 1.755262 0.368119
0.423240 1.734644 0.365337
0.429778 1.725435 0.364300
0.436480 1.717038 0.363395
0.441786 1.704129 0.361810
0.448546 1.696431 0.361029
0.450540 1.673300 0.357889
0.459380 1.672918 0.358246
0.465747 1.664636 0.357399
0.466552 1.639186 0.353913
0.471765 1.628002 0.352628
0.475238 1.611828 0.350577
0.481568 1.604587 0.349914
0.487556 1.596484 0.349123
0.494300 1.590734 0.348705
0.501167 1.585430 0.348364
0.507680 1.579210 0.347888
0.506749 1.552518 0.344217
0.511953 1.543229 0.343267
0.517755 1.535731 0.342604
0.522589 1.525803 0.341563
0.525739 1.511675 0.339864
0.530287 1.501459 0.338785
0.534258 1.489975 0.337507
0.540862 1.485328 0.337317
0.541977 1.467145 0.334980
0.547016 1.458946 0.334232
0.551794 1.450254 0.333409
0.555974 1.440290 0.332386
0.562454 1.435906 0.332260
0.567512 1.428260 0.331616
0.571469 1.418210 0.330588
0.575667 1.408878 0.329678
0.579338 1.398525 0.328604
0.583885 1.390282 0.327875
0.589098 1.383614 0.327404
0.593148 1.374529 0.326543
0.596747 1.364628 0.325550
0.600188 1.354552 0.324529
0.604571 1.346596 0.323858
0.609053 1.338954 0.323241
0.612406 1.329126 0.322265
0.617241 1.322420 0.321808
0.622188 1.316016 0.321405
0.625951 1.307362 0.320629
0.628312 1.296113 0.319421
0.633172 1.289828 0.319045
0.638501 1.284498 0.318833
0.643404 1.278414 0.318499
0.648047 1.271909 0.318097
0.652238 1.264641 0.317569
0.656232 1.257102 0.316998
0.660618 1.250353 0.316564
0.664773 1.243265 0.316075
0.667791 1.234260 0.315259
0.671850 1.227178 0.314775
0.677074 1.222172 0.314655
0.682313 1.217222 0.314549
0.686199 1.210027 0.314057
0.690045 1.202838 0.313569
0.694461 1.196664 0.313261
0.697338 1.188032 0.312525
0.702271 1.182819 0.312395
0.706856 1.177080 0.312177
0.709181 1.167813 0.311335
0.713490 1.161759 0.311068
0.719183 1.157894 0.311198
0.724123 1.152877 0.311128
0.728194 1.146564 0.310830
0.731581 1.139273 0.310359
0.733962 1.130552 0.309632
0.738153 1.124592 0.309409
0.741531 1.117487 0.308983
0.745790 1.111714 0.308805
0.750011 1.105922 0.308629
0.754317 1.100284 0.308488
0.757125 1.092576 0.307966
0.761546 1.087176 0.307880
0.765190 1.080734 0.307605
0.769317 1.074992 0.307467
0.774250 1.070365 0.307547
0.778868 1.065325 0.307556
0.779769 1.055388 0.306636
0.784521 1.050598 0.306705
0.787057 1.042943 0.306229
0.790234 1.036173 0.305928
0.794336 1.030626 0.305870
0.798583 1.025281 0.305860
0.798915 1.015067 0.304898
0.807606 1.015292 0.306001
0.810649 1.008513 0.305729
0.813441 1.001470 0.305410
0.815137 0.993156 0.304841
0.818109 0.986430 0.304593
0.821925 0.980737 0.304560
0.826562 0.976022 0.304734
0.829319 0.969132 0.304471
0.833196 0.963564 0.304486
0.837037 0.957972 0.304502
0.840400 0.951856 0.304416
0.844673 0.946779 0.304553
0.849620 0.942450 0.304856
0.852518 0.935871 0.304692
0.851111 0.924668 0.303546
0.856539 0.920912 0.303987
0.862362 0.917555 0.304524
0.868515 0.914517 0.305141
0.868472 0.904989 0.304354
0.871682 0.898909 0.304316
0.874836 0.892798 0.304273
0.879274 0.888012 0.304525
0.883287 0.882803 0.304686
0.882941 0.873273 0.303877
0.885827 0.867019 0.303797
0.892081 0.864083 0.304469
0.895304 0.858193 0.304468
0.895686 0.849615 0.303843
0.898440 0.843368 0.303744
0.902024 0.837943 0.303827
0.906263 0.833155 0.304050
0.911924 0.829697 0.304579
0.915270 0.824124 0.304599
0.917707 0.817768 0.304417
0.919473 0.810871 0.304085
0.925871 0.808155 0.304742
0.925098 0.799132 0.303850
0.931404 0.796396 0.304464
0.935939 0.792137 0.304686
0.936726 0.784711 0.304098
0.940206 0.779669 0.304068
0.946045 0.776670 0.304518
0.950957 0.772929 0.304753
0.953131 0.766977 0.304396
0.955035 0.760895 0.303965
0.957408 0.755291 0.303613
0.959716 0.749729 0.303228
0.962585 0.744708 0.302938
0.965856 0.740096 0.302708
0.971021 0.737053 0.302841
0.974174 0.732513 0.302539
0.976240 0.727230 0.301994
0.979587 0.723031 0.301684
0.981827 0.718086 0.301128
0.981046 0.710980 0.299948
0.987200 0.709182 0.300126
0.990173 0.705094 0.299648
0.992493 0.700624 0.299018
0.992426 0.694523 0.297901
0.993541 0.689406 0.296998
0.996661 0.685841 0.296465
1.000281 0.682725 0.296006
1.003626 0.679501 0.295473
-0.166521 1.898592 0.358632
-0.159529 1.891444 0.358788
-0.152996 1.900543 0.361133
-0.146145 1.904985 0.362803
-0.139078 1.906865 0.364081
-0.131886 1.909166 0.365375
-0.124593 1.913394 0.366897
-0.117116 1.915479 0.368078
-0.109514 1.918343 0.369323
-0.101774 1.921630 0.370585
-0.093872 1.918263 0.370862
-0.085871 1.924816 0.372495
-0.077710 1.930261 0.373928
-0.069402 1.934866 0.375198
-0.060967 1.938014 0.376218
-0.052378 1.942533 0.377390
-0.043615 1.948606 0.378742
-0.034812 1.950455 0.379448
-0.025912 1.951924 0.380059
-0.016798 1.956571 0.381088
-0.007532 1.961905 0.382177
0.001691 1.963337 0.382671
0.011092 1.966610 0.383396
0.020884 1.975398 0.384885
0.030518 1.978855 0.385576
0.040204 1.981656 0.386146
0.049950 1.984106 0.386641
0.059844 1.987584 0.387263
0.069811 1.990965 0.387850
0.079799 1.993653 0.388320
0.091033 2.010197 0.390777
0.101545 2.016573 0.391752
0.112535 2.027014 0.393304
0.123116 2.032034 0.394064
0.131297 2.013314 0.391385
0.140822 2.008337 0.390689
0.151736 2.015806 0.391789
0.162212 2.018809 0.392242
0.173305 2.026444 0.393366
0.184143 2.031391 0.394103
0.193939 2.028046 0.393645
0.203577 2.023696 0.393046
0.213135 2.018996 0.392402
0.222230 2.011399 0.391346
0.230310 1.997563 0.389394
0.239408 1.990994 0.388503
0.248563 1.985112 0.387720
0.257407 1.977664 0.386720
0.266265 1.970666 0.385796
0.275044 1.963561 0.384867
0.283229 1.953520 0.383524
0.291273 1.943200 0.382151
0.299700 1.935368 0.381150
0.308208 1.928290 0.380271
0.316133 1.918612 0.379026
0.323892 1.908539 0.377735
0.331331 1.897368 0.376296
0.340456 1.894469 0.376072
0.345953 1.875208 0.373478
0.352426 1.861057 0.371638
0.360199 1.853098 0.370712
0.367556 1.843651 0.369579
0.374665 1.833502 0.368356
0.381580 1.822913 0.367078
0.386594 1.805087 0.364751
0.390279 1.782683 0.361761
0.399873 1.783785 0.362226
0.407149 1.776040 0.361405
0.413160 1.763836 0.359938
0.413575 1.731666 0.355540
0.422392 1.730570 0.355723
0.429846 1.724671 0.355210
0.434955 1.710822 0.353531
0.441217 1.701280 0.352496
0.445704 1.686080 0.350630
0.452033 1.677345 0.349730
0.459286 1.671800 0.349312
0.467299 1.668769 0.349277
0.469230 1.646789 0.346425
0.471792 1.627365 0.343955
0.476235 1.614153 0.342417
0.481530 1.603806 0.341313
0.488269 1.597933 0.340886
0.494521 1.590752 0.340270
0.501278 1.585145 0.339898
0.508107 1.579827 0.339577
0.507243 1.553328 0.336057
0.511734 1.542096 0.334847
0.517859 1.535491 0.334344
0.523590 1.527951 0.333704
0.527192 1.514985 0.332242
0.528924 1.497479 0.330086
0.533692 1.488084 0.329173
0.538341 1.478567 0.328244
0.542954 1.469136 0.327331
0.547505 1.459727 0.326425
0.552133 1.450672 0.325576
0.557055 1.442472 0.324863
0.561877 1.434172 0.324137
0.566969 1.426632 0.323533
0.571608 1.418171 0.322789
0.574822 1.406620 0.321564
0.579130 1.397722 0.320756
0.582768 1.387490 0.319740
0.587222 1.379207 0.319033
0.592966 1.373826 0.318787
0.596905 1.364660 0.317945
0.600398 1.354698 0.316979
0.604612 1.346395 0.316277
0.609222 1.339021 0.315726
0.613857 1.331796 0.315202
0.617662 1.323000 0.314428
0.621844 1.315075 0.313796
0.626190 1.307577 0.313236
0.630284 1.299688 0.312614
0.633736 1.290670 0.311810
0.639034 1.285276 0.311599
0.643565 1.278489 0.311164
0.648067 1.271725 0.310736
0.651964 1.263926 0.310141
0.656611 1.257579 0.309788
0.660789 1.250458 0.309309
0.664715 1.242967 0.308772
0.667991 1.234421 0.308061
0.672213 1.227625 0.307645
0.677824 1.223282 0.307642
0.682430 1.217249 0.307361
0.684774 1.207466 0.306451
0.689739 1.202170 0.306301
0.694012 1.195771 0.305968
0.698347 1.189530 0.305666
0.702878 1.183656 0.305431
0.706991 1.177162 0.305093
0.709289 1.167856 0.304274
0.713204 1.161191 0.303913
0.718397 1.156563 0.303909
0.723207 1.151364 0.303813
0.727911 1.146032 0.303698
0.731471 1.139013 0.303293
0.734368 1.131068 0.302728
0.738397 1.124871 0.302474
0.742777 1.119229 0.302325
0.745910 1.111820 0.301865
0.750916 1.107155 0.301900
0.752690 1.097929 0.301122
0.757452 1.092988 0.301119
0.762231 1.088089 0.301131
0.766036 1.081865 0.300908
0.770034 1.075945 0.300746
0.775618 1.072193 0.300989
0.779560 1.066242 0.300835
0.781012 1.057029 0.300083
0.784065 1.050007 0.299740
0.787272 1.043236 0.299448
0.791282 1.037542 0.299363
0.795808 1.032528 0.299414
0.799264 1.026177 0.299219
0.803178 1.020432 0.299145
0.804709 1.011766 0.298519
0.809171 1.006765 0.298600
0.814132 1.002377 0.298809
0.817999 0.996671 0.298770
0.819803 0.988530 0.298263
0.823330 0.982485 0.298170
0.827399 0.977097 0.298214
0.831307 0.971536 0.298230
0.833778 0.964344 0.297929
0.836621 0.957618 0.297725
0.840439 0.952026 0.297755
0.845000 0.947275 0.297962
0.849481 0.942433 0.298159
0.853101 0.936652 0.298172
0.852800 0.926643 0.297317
0.856936 0.921487 0.297466
0.862869 0.918248 0.298022
0.866492 0.912546 0.298072
0.869286 0.905998 0.297947
0.872629 0.900049 0.297951
0.874649 0.892768 0.297673
0.879222 0.888122 0.297959
0.882864 0.882540 0.298048
0.881854 0.872351 0.297134
0.885978 0.867322 0.297340
0.890854 0.863036 0.297709
0.894774 0.857824 0.297874
0.897928 0.851897 0.297877
0.900773 0.845706 0.297816
0.903299 0.839256 0.297687
0.907244 0.834172 0.297859
0.911863 0.829732 0.298170
0.916981 0.825760 0.298581
0.920125 0.820012 0.298571
0.922586 0.813697 0.298412
0.920090 0.803041 0.297214
0.925883 0.799816 0.297739
0.928143 0.793523 0.297518
0.931180 0.787969 0.297447
0.936992 0.784850 0.297936
0.941145 0.780345 0.298067
0.943541 0.774415 0.297823
0.946189 0.768775 0.297615
0.950775 0.764812 0.297784
0.955833 0.761287 0.298028
0.958390 0.755789 0.297745
0.960150 0.749740 0.297283
0.962648 0.744381 0.296949
0.966369 0.740082 0.296838
0.968771 0.734833 0.296441
0.972255 0.730522 0.296236
0.977944 0.727995 0.296439
0.981072 0.723575 0.296113
0.983160 0.718465 0.295561
0.985606 0.713732 0.295056
0.988204 0.709217 0.294557
0.989400 0.703770 0.293766
0.991866 0.699373 0.293198
0.994548 0.695237 0.292648
0.994536 0.689258 0.291568
0.998530 0.686277 0.291225
1.006551 0.686243 0.291611
1.010863 0.683634 0.291276
1.005129 0.674070 0.289062
-0.173790 1.890366 0.348290
-0.167224 1.892084 0.349643
-0.160461 1.891964 0.350716
-0.153683 1.894997 0.352169
-0.146817 1.899839 0.353826
-0.139804 1.905024 0.355492
-0.132695 1.913028 0.357500
-0.125293 1.914883 0.358638
-0.117758 1.916903 0.359754
-0.110087 1.918911 0.360825
-0.102265 1.918450 0.361513
-0.094332 1.918864 0.362274
-0.086280 1.920117 0.363104
-0.078065 1.929658 0.365029
-0.069697 1.935206 0.366362
-0.061193 1.939466 0.367475
-0.052574 1.942333 0.368354
-0.043798 1.946731 0.369401
-0.034931 1.949435 0.370174
-0.025921 1.953052 0.371034
-0.016800 1.956435 0.371823
-0.007610 1.958698 0.372421
0.001620 1.959614 0.372796
0.011194 1.965992 0.373901
0.020967 1.973728 0.375165
0.030782 1.979845 0.376177
0.040451 1.981753 0.376576
0.050192 1.983660 0.376951
0.060074 1.986595 0.377450
0.070138 1.990944 0.378128
0.080228 1.994613 0.378695
0.090170 1.995691 0.378886
0.100588 2.001559 0.379735
0.111092 2.007432 0.380576
0.121977 2.016278 0.381825
0.131745 2.013386 0.381428
0.141849 2.013630 0.381466
0.152688 2.020118 0.382375
0.163785 2.028112 0.383495
0.174604 2.033106 0.384197
0.184638 2.031501 0.383980
0.194414 2.027986 0.383499
0.204144 2.024300 0.383000
0.213828 2.020471 0.382488
0.222838 2.012264 0.381371
0.231500 2.002242 0.380009
0.240129 1.992574 0.378704
0.249238 1.986391 0.377898
0.257837 1.977467 0.376717
0.266315 1.968302 0.375514
0.275207 1.961935 0.374713
0.284268 1.956797 0.374096
0.292508 1.947486 0.372906
0.300362 1.936591 0.371505
0.308448 1.927373 0.370352
0.315893 1.915372 0.368819
0.322682 1.900709 0.366923
0.331381 1.895732 0.366400
0.340043 1.890760 0.365890
0.348277 1.884019 0.365144
0.353384 1.863668 0.362492
0.360936 1.854731 0.361459
0.368261 1.845144 0.360345
0.375125 1.833982 0.359019
0.382820 1.826591 0.358237
0.388216 1.810257 0.356200
0.394439 1.797728 0.354711
0.401335 1.788203 0.353657
0.408240 1.779003 0.352658
0.414114 1.766266 0.351167
0.417163 1.743658 0.348278
0.422343 1.729393 0.346583
0.429600 1.722843 0.345996
0.434395 1.707969 0.344228
0.441923 1.702784 0.343854
0.444958 1.682745 0.341360
0.451726 1.675522 0.340708
0.458944 1.669909 0.340297
0.464678 1.659705 0.339233
0.467667 1.641190 0.336976
0.472340 1.628351 0.335542
0.475333 1.610759 0.333425
0.484050 1.610661 0.333846
0.487703 1.595650 0.332111
0.493951 1.588504 0.331524
0.501127 1.584135 0.331347
0.504723 1.569779 0.329720
0.506898 1.551838 0.327570
0.511601 1.541213 0.326493
0.516199 1.530531 0.325411
0.523116 1.526209 0.325268
0.526611 1.512997 0.323821
0.530038 1.499894 0.322392
0.533552 1.487289 0.321037
0.538675 1.478976 0.320321
0.543876 1.471002 0.319659
0.548590 1.461971 0.318844
0.553380 1.453283 0.318083
0.556351 1.440419 0.316698
0.562573 1.435435 0.316498
0.566612 1.425444 0.315550
0.569956 1.414038 0.314389
0.573649 1.403630 0.313380
0.578761 1.396567 0.312879
0.582733 1.387089 0.312015
0.586603 1.377545 0.311142
0.591014 1.369319 0.310472
0.595896 1.362215 0.309976
0.601194 1.356078 0.309632
0.605185 1.347298 0.308884
0.609404 1.339116 0.308231
0.613447 1.330693 0.307542
0.617845 1.323100 0.306984
0.621585 1.314303 0.306240
0.626101 1.307152 0.305755
0.630820 1.300478 0.305348
0.635362 1.293544 0.304903
0.639412 1.285756 0.304325
0.643973 1.279025 0.303918
0.647455 1.270368 0.303207
0.651921 1.263630 0.302803
0.656515 1.257196 0.302450
0.660817 1.250303 0.302027
0.665433 1.244039 0.301708
0.669189 1.236327 0.301159
0.673098 1.228973 0.300670
0.677593 1.222702 0.300359
0.682190 1.216665 0.300090
0.685102 1.207845 0.299370
0.689336 1.201334 0.299029
0.694398 1.196246 0.298926
0.698137 1.189033 0.298477
0.702718 1.183251 0.298267
0.706897 1.176869 0.297963
0.710810 1.170122 0.297601
0.714295 1.162767 0.297141
0.718107 1.155990 0.296780
0.722564 1.150262 0.296600
0.727270 1.144949 0.296496
0.730776 1.137865 0.296095
0.733412 1.129550 0.295488
0.738881 1.125493 0.295612
0.743859 1.120722 0.295621
0.747079 1.113429 0.295201
0.749523 1.105093 0.294603
0.753529 1.099052 0.294407
0.757733 1.093325 0.294271
0.762569 1.088508 0.294301
0.766159 1.081992 0.294038
0.768546 1.073884 0.293498
0.774589 1.070779 0.293851
0.778222 1.064435 0.293635
0.781335 1.057444 0.293308
0.783452 1.049200 0.292760
0.787601 1.043666 0.292705
0.792429 1.039025 0.292820
0.795449 1.032089 0.292524
0.798789 1.025604 0.292315
0.801955 1.018940 0.292079
0.805355 1.012606 0.291909
0.809858 1.007655 0.292003
0.814703 1.003127 0.292184
0.817347 0.995952 0.291877
0.820657 0.989618 0.291733
0.825037 0.984576 0.291841
0.827322 0.977093 0.291491
0.832519 0.973031 0.291802
0.836810 0.967918 0.291921
0.837046 0.958207 0.291154
0.840436 0.952136 0.291097
0.844632 0.946984 0.291227
0.847755 0.940655 0.291131
0.851119 0.934616 0.291099
0.854149 0.928238 0.291004
0.858141 0.922920 0.291127
0.862597 0.918103 0.291358
0.867397 0.913647 0.291669
0.870573 0.907490 0.291640
0.873171 0.900761 0.291497
0.875642 0.893937 0.291335
0.877250 0.886277 0.290999
0.881134 0.880957 0.291150
0.883223 0.873863 0.290930
0.886091 0.867582 0.290879
0.891461 0.863774 0.291356
0.894449 0.857651 0.291337
0.898339 0.852424 0.291508
0.902843 0.847795 0.291808
0.906178 0.842076 0.291865
0.906853 0.833913 0.291376
0.911417 0.829413 0.291685
0.916195 0.825121 0.292033
0.917859 0.818025 0.291742
0.923048 0.814155 0.292163
0.927546 0.809682 0.292435
0.926588 0.800438 0.291599
0.928805 0.794078 0.291397
0.931683 0.788357 0.291318
0.935949 0.783884 0.291505
0.940707 0.779870 0.291776
0.942108 0.773077 0.291364
0.945260 0.767833 0.291286
0.950508 0.764388 0.291604
0.955127 0.760472 0.291777
0.958818 0.755858 0.291748
0.960667 0.749840 0.291339
0.963272 0.744524 0.291057
0.965246 0.738802 0.290633
0.968902 0.734499 0.290512
0.971807 0.729697 0.290223
0.975510 0.725603 0.290062
0.980944 0.722915 0.290206
0.983817 0.718357 0.289838
0.984519 0.712271 0.289036
0.987286 0.707847 0.288601
0.987300 0.701495 0.287630
0.991409 0.698272 0.287400
0.994035 0.694059 0.286871
0.996821 0.690064 0.286349
1.002688 0.688372 0.286368
1.008755 0.686888 0.286397
1.010266 0.682259 0.285573
1.012181 0.678022 0.284805
-0.174947 1.894546 0.340740
-0.168207 1.893374 0.341675
-0.161431 1.894287 0.342838
-0.154545 1.895706 0.344027
-0.147550 1.897893 0.345275
-0.140409 1.899757 0.346441
-0.133400 1.913480 0.349114
-0.125948 1.915542 0.350226
-0.118327 1.915565 0.351025
-0.110587 1.915645 0.351786
-0.102752 1.919029 0.352937
-0.094761 1.919153 0.353611
-0.086651 1.925152 0.355021
-0.078392 1.928724 0.356064
-0.069970 1.934832 0.357402
-0.061458 1.935922 0.358028
-0.052779 1.940127 0.359027
-0.043956 1.944815 0.360051
-0.034997 1.949489 0.361032
-0.025936 1.953220 0.361850
-0.016788 1.956052 0.362509
-0.007587 1.957524 0.362951
0.001782 1.960815 0.363605
0.011482 1.968861 0.364869
0.021185 1.974321 0.365756
0.030883 1.977766 0.366346
0.040692 1.981561 0.366958
0.050375 1.982169 0.367119
0.060332 1.985865 0.367678
0.070580 1.992356 0.368598
0.080767 1.996849 0.369233
0.090900 1.999803 0.369648
0.100983 2.001550 0.369890
0.111915 2.011749 0.371267
0.122337 2.015606 0.371780
0.132824 2.019514 0.372296
0.143188 2.021772 0.372587
0.153852 2.026312 0.373185
0.164364 2.029070 0.373544
0.175240 2.034440 0.374258
0.184913 2.029959 0.373646
0.194789 2.027245 0.373277
0.204687 2.024801 0.372951
0.214257 2.020165 0.372336
0.223049 2.010514 0.371052
0.231950 2.002140 0.369950
0.240711 1.993342 0.368799
0.249583 1.985708 0.367816
0.258406 1.978181 0.366858
0.267070 1.970108 0.365837
0.275686 1.962171 0.364846
0.284449 1.955427 0.364028
0.292044 1.942740 0.362418
0.300254 1.933863 0.361334
0.308478 1.925455 0.360326
0.315139 1.909652 0.358328
0.323589 1.903220 0.357611
0.331713 1.895496 0.356732
0.340153 1.889535 0.356103
0.347617 1.879370 0.354916
0.354790 1.868312 0.353619
0.361895 1.857370 0.352348
0.368175 1.843334 0.350666
0.375968 1.836101 0.349922
0.382700 1.824782 0.348631
0.387650 1.806737 0.346432
0.394691 1.797510 0.345446
0.401191 1.786495 0.344225
0.408201 1.777750 0.343325
0.410310 1.751138 0.339982
0.417608 1.744264 0.339355
0.424444 1.735921 0.338535
0.430650 1.725593 0.337451
0.437365 1.717304 0.336656
0.441845 1.701666 0.334854
0.448085 1.692336 0.333930
0.451024 1.672439 0.331549
0.455988 1.659640 0.330156
0.460310 1.645143 0.328533
0.469405 1.645912 0.329040
0.469633 1.619378 0.325749
0.476332 1.613135 0.325291
0.481167 1.601463 0.324081
0.487812 1.595372 0.323658
0.493694 1.587185 0.322948
0.497975 1.574611 0.321626
0.500943 1.558648 0.319829
0.506692 1.550748 0.319172
0.511627 1.540782 0.318229
0.515869 1.529158 0.317053
0.519116 1.515152 0.315542
0.525059 1.508488 0.315078
0.531810 1.504012 0.314932
0.533821 1.487543 0.313076
0.539370 1.480301 0.312542
0.545765 1.475268 0.312330
0.548752 1.461974 0.310933
0.553046 1.452097 0.310030
0.556656 1.440772 0.308920
0.561200 1.431853 0.308159
0.566107 1.423923 0.307545
0.570260 1.414390 0.306701
0.574301 1.404767 0.305845
0.578564 1.395800 0.305086
0.583029 1.387424 0.304417
0.587073 1.378257 0.303633
0.589892 1.366601 0.302483
0.594999 1.360011 0.302083
0.600392 1.354104 0.301788
0.605834 1.348362 0.301522
0.608266 1.336505 0.300345
0.612872 1.329257 0.299859
0.617317 1.321777 0.299339
0.621859 1.314586 0.298866
0.625057 1.304852 0.298011
0.631286 1.301134 0.298068
0.635657 1.293867 0.297592
0.639389 1.285476 0.296946
0.643242 1.277425 0.296353
0.647629 1.270465 0.295930
0.651919 1.263406 0.295494
0.656886 1.257653 0.295262
0.661607 1.251507 0.294973
0.665714 1.244333 0.294527
0.670051 1.237640 0.294159
0.673932 1.230225 0.293682
0.678104 1.223391 0.293297
0.682805 1.217526 0.293068
0.687175 1.211152 0.292762
0.690508 1.203111 0.292196
0.694275 1.195877 0.291759
0.697795 1.188315 0.291273
0.702479 1.182711 0.291102
0.707202 1.177207 0.290952
0.711446 1.170982 0.290691
0.715312 1.164219 0.290346
0.719028 1.157284 0.289976
0.723274 1.151224 0.289753
0.728161 1.146181 0.289700
0.731770 1.139243 0.289342
0.734618 1.131236 0.288810
0.739314 1.126028 0.288745
0.744236 1.121176 0.288744
0.747242 1.113577 0.288291
0.750356 1.106203 0.287879
0.754265 1.100018 0.287669
0.758909 1.094905 0.287646
0.762509 1.088364 0.287388
0.765311 1.080773 0.286954
0.768908 1.074330 0.286721
0.772359 1.067735 0.286466
0.777311 1.063187 0.286570
0.780634 1.056492 0.286309
0.783532 1.049288 0.285964
0.787910 1.044056 0.285969
0.792093 1.038591 0.285940
0.795305 1.031912 0.285703
0.798149 1.024811 0.285397
0.802213 1.019283 0.285375
0.807009 1.014678 0.285527
0.811754 1.010013 0.285677
0.814456 1.002871 0.285387
0.816857 0.995414 0.285044
0.820414 0.989387 0.284966
0.822244 0.981350 0.284526
0.827567 0.977453 0.284854
0.833382 0.974110 0.285296
0.837150 0.968395 0.285306
0.837646 0.958983 0.284628
0.840469 0.952273 0.284460
0.844384 0.946815 0.284535
0.847769 0.940783 0.284508
0.851098 0.934712 0.284479
0.854709 0.928969 0.284519
0.858431 0.923360 0.284592
0.863025 0.918691 0.284854
0.867787 0.914194 0.285159
0.871569 0.908669 0.285267
0.873318 0.901055 0.284965
0.874816 0.893237 0.284621
0.878016 0.887199 0.284634
0.881020 0.880988 0.284614
0.884352 0.875130 0.284668
0.888267 0.869867 0.284844
0.890856 0.863324 0.284757
0.894233 0.857578 0.284833
0.897719 0.851960 0.284934
0.902417 0.847515 0.285279
0.905278 0.841346 0.285257
0.905540 0.832796 0.284719
0.907975 0.826334 0.284614
0.913525 0.822764 0.285125
0.918388 0.818570 0.285494
0.923906 0.814973 0.285986
0.924314 0.806844 0.285468
0.927123 0.800919 0.285416
0.930244 0.795319 0.285417
0.933588 0.789965 0.285451
0.937696 0.785314 0.285623
0.941564 0.780505 0.285735
0.945502 0.775805 0.285846
0.945793 0.768125 0.285241
0.948416 0.762479 0.285070
0.954027 0.759352 0.285452
0.958428 0.755286 0.285581
0.962153 0.750738 0.285562
0.963288 0.744203 0.285034
0.967107 0.739897 0.284990
0.969704 0.734713 0.284695
0.971907 0.729321 0.284304
0.975805 0.725334 0.284205
0.978693 0.720662 0.283895
0.981838 0.716282 0.283609
0.985116 0.712098 0.283322
0.986904 0.706902 0.282739
0.989328 0.702289 0.282249
0.989883 0.696416 0.281400
0.996082 0.694764 0.281543
0.998227 0.690258 0.280934
1.002190 0.687158 0.280627
1.008447 0.685774 0.280701
1.009786 0.680990 0.279882
1.009825 0.675412 0.278819
-0.181411 1.871350 0.328670
-0.175705 1.890211 0.332070
-0.169062 1.892211 0.333359
-0.162255 1.893407 0.334510
-0.155325 1.894830 0.335649
-0.148289 1.897175 0.336864
-0.141084 1.898385 0.337894
-0.133869 1.904932 0.339556
-0.126551 1.915047 0.341631
-0.118867 1.914228 0.342278
-0.111100 1.916154 0.343227
-0.103217 1.920601 0.344454
-0.095183 1.925462 0.345691
-0.086997 1.928495 0.346650
-0.078665 1.933297 0.347792
-0.070228 1.933183 0.348257
-0.061641 1.936512 0.349123
-0.052969 1.937282 0.349617
-0.044072 1.943700 0.350801
-0.035029 1.949958 0.351926
-0.025924 1.953565 0.352670
-0.016788 1.954767 0.353067
-0.007460 1.958547 0.353764
0.002078 1.964679 0.354737
0.011621 1.968333 0.355358
0.021347 1.973601 0.356162
0.031163 1.978566 0.356902
0.040934 1.981205 0.357316
0.050716 1.982901 0.357588
0.060541 1.984350 0.357809
0.070879 1.991807 0.358799
0.081146 1.997062 0.359489
0.091508 2.002464 0.360186
0.102029 2.008727 0.360988
0.112675 2.015398 0.361836
0.123073 2.018716 0.362241
0.133584 2.022607 0.362719
0.144268 2.027568 0.363334
0.154447 2.027563 0.363303
0.164864 2.029425 0.363518
0.175280 2.031040 0.363703
0.185519 2.031066 0.363686
0.195436 2.028608 0.363351
0.205072 2.024234 0.362774
0.214456 2.018326 0.362004
0.223456 2.010170 0.360951
0.232015 1.999599 0.359591
0.240823 1.991213 0.358527
0.249950 1.985237 0.357788
0.259181 1.980199 0.357181
0.268035 1.973213 0.356333
0.276530 1.964546 0.355276
0.283785 1.949497 0.353399
0.291766 1.939069 0.352135
0.300222 1.931608 0.351272
0.307777 1.919895 0.349864
0.315919 1.911616 0.348917
0.324052 1.903641 0.348022
0.332566 1.897788 0.347417
0.339905 1.886718 0.346141
0.347392 1.876759 0.345021
0.355278 1.868948 0.344195
0.361178 1.852812 0.342287
0.368211 1.842099 0.341101
0.375570 1.833121 0.340154
0.383377 1.826265 0.339497
0.389731 1.813822 0.338115
0.393854 1.793078 0.335647
0.399264 1.777994 0.333933
0.407799 1.775175 0.333848
0.411720 1.755339 0.331523
0.418102 1.745089 0.330473
0.425072 1.737229 0.329749
0.431501 1.727682 0.328809
0.438542 1.720498 0.328192
0.443149 1.705257 0.326511
0.447173 1.688515 0.324634
0.451813 1.674266 0.323095
0.455648 1.657821 0.321267
0.460170 1.644006 0.319795
0.468194 1.641466 0.319842
0.472445 1.627360 0.318343
0.475919 1.611268 0.316579
0.480135 1.597797 0.315172
0.488030 1.595435 0.315271
0.491532 1.580390 0.313660
0.496053 1.568611 0.312495
0.501303 1.559138 0.311646
0.506623 1.550056 0.310856
0.511785 1.540725 0.310036
0.515986 1.529004 0.308893
0.520949 1.519545 0.308063
0.525615 1.509497 0.307155
0.530714 1.500761 0.306431
0.536106 1.492928 0.305836
0.539986 1.481439 0.304739
0.544978 1.472928 0.304056
0.548304 1.460497 0.302832
0.551615 1.448278 0.301638
0.557267 1.441861 0.301255
0.560386 1.429588 0.300056
0.565617 1.422442 0.299577
0.570905 1.415527 0.299134
0.575183 1.406430 0.298387
0.578745 1.395882 0.297436
0.583161 1.387400 0.296779
0.587546 1.378980 0.296133
0.590932 1.368539 0.295201
0.594310 1.358254 0.294292
0.600067 1.353133 0.294123
0.603760 1.343777 0.293350
0.608452 1.336611 0.292893
0.613036 1.329319 0.292421
0.616474 1.319823 0.291632
0.622016 1.314639 0.291470
0.627270 1.308933 0.291236
0.631418 1.301140 0.290701
0.634836 1.292052 0.289977
0.638928 1.284366 0.289461
0.643463 1.277605 0.289083
0.647609 1.270200 0.288612
0.651877 1.263105 0.288190
0.657086 1.257796 0.288036
0.661801 1.251642 0.287759
0.665526 1.243792 0.287232
0.669401 1.236297 0.286760
0.673337 1.228995 0.286319
0.677708 1.222518 0.286005
0.682776 1.217287 0.285884
0.687571 1.211634 0.285702
0.691335 1.204308 0.285269
0.695119 1.197093 0.284855
0.698851 1.189867 0.284442
0.702008 1.181787 0.283899
0.706309 1.175624 0.283655
