ply
format ascii 1.0
comment ---
element vertex 1658
property float x
property float y
property float z
element face 0
property list uchar uint vertex_indices
end_header
0.152724 1.070493 -0.486554
-0.536765 1.565762 -0.529977
-0.533383 1.567724 -0.532670
-0.529821 1.567441 -0.533947
-0.526255 1.568578 -0.536159
-0.522631 1.570033 -0.538602
-0.518976 1.572903 -0.541991
-0.515248 1.576140 -0.545647
-0.511404 1.577491 -0.548100
-0.507497 1.578666 -0.550458
-0.503534 1.579700 -0.552742
-0.499530 1.584507 -0.557537
-0.495447 1.585891 -0.560097
-0.491315 1.587444 -0.562785
-0.487075 1.593571 -0.568544
-0.482846 1.594096 -0.570588
-0.478560 1.595743 -0.573397
-0.474192 1.598761 -0.577145
-0.469843 1.599766 -0.579552
-0.465534 1.599077 -0.580821
-0.461425 1.593928 -0.579058
-0.457128 1.593230 -0.580316
-0.452979 1.589897 -0.579771
-0.448638 1.589992 -0.581572
-0.444084 1.593036 -0.585412
-0.439721 1.592942 -0.587097
-0.435587 1.589917 -0.586752
-0.431416 1.587641 -0.586918
-0.426970 1.588569 -0.589316
-0.422837 1.586116 -0.589352
-0.418396 1.586870 -0.591635
-0.414110 1.586067 -0.592826
-0.409856 1.585012 -0.593839
-0.405770 1.582615 -0.593897
-0.401691 1.580345 -0.594038
-0.397525 1.578884 -0.594750
-0.393326 1.577743 -0.595689
-0.388993 1.577593 -0.597339
-0.384776 1.576631 -0.598406
-0.380879 1.573628 -0.597995
-0.376914 1.571220 -0.598007
-0.372707 1.570391 -0.599162
-0.368339 1.570510 -0.601011
-0.364192 1.569333 -0.601914
-0.360326 1.566652 -0.601711
-0.356545 1.563634 -0.601251
-0.352599 1.561596 -0.601508
-0.348887 1.558461 -0.600946
-0.345436 1.554190 -0.599527
-0.342151 1.549323 -0.597649
-0.338340 1.547071 -0.597714
-0.334431 1.545318 -0.598151
-0.330699 1.542837 -0.598036
-0.326310 1.543197 -0.600067
-0.322412 1.541463 -0.600516
-0.318425 1.540108 -0.601252
-0.314631 1.538003 -0.601415
-0.311292 1.534193 -0.600266
-0.307386 1.532619 -0.600828
-0.304057 1.528940 -0.599765
-0.300402 1.526531 -0.599675
-0.297234 1.522455 -0.598285
-0.293766 1.519522 -0.597774
-0.289706 1.518640 -0.598861
-0.287121 1.512872 -0.596118
-0.283322 1.511191 -0.596572
-0.280317 1.507004 -0.595047
-0.276587 1.505171 -0.595375
-0.274239 1.499133 -0.592359
-0.271961 1.493052 -0.589288
-0.269868 1.486596 -0.585893
-0.266137 1.485027 -0.586398
-0.263990 1.478981 -0.583298
-0.255134 1.491702 -0.595345
-0.249197 1.495956 -0.600603
-0.244853 1.495731 -0.602251
-0.242107 1.491247 -0.600431
-0.237944 1.490514 -0.601669
-0.234486 1.487950 -0.601411
-0.231229 1.484906 -0.600754
-0.227728 1.482500 -0.600618
-0.224740 1.478866 -0.599462
-0.220214 1.478946 -0.601390
-0.219740 1.469474 -0.595346
-0.215872 1.468059 -0.596017
-0.212711 1.465023 -0.595329
-0.208769 1.463762 -0.596133
-0.205199 1.461660 -0.596231
-0.202087 1.458566 -0.595484
-0.198081 1.457411 -0.596387
-0.195197 1.453873 -0.595255
-0.191615 1.451821 -0.595392
-0.188041 1.449752 -0.595514
-0.184673 1.447271 -0.595280
-0.182110 1.443205 -0.593668
-0.179729 1.438840 -0.591785
-0.176356 1.436448 -0.591612
-0.172646 1.434701 -0.592005
-0.170465 1.430087 -0.589875
-0.167056 1.427803 -0.589789
-0.159716 1.432665 -0.596042
-0.156577 1.429807 -0.595467
-0.153659 1.426578 -0.594556
-0.150800 1.423274 -0.593572
-0.148696 1.418702 -0.591439
-0.144221 1.418217 -0.592983
-0.143661 1.411135 -0.588557
-0.139551 1.410043 -0.589549
-0.135213 1.409294 -0.590863
-0.131885 1.406883 -0.590662
-0.128456 1.404638 -0.590614
-0.124860 1.402655 -0.590807
-0.121394 1.400464 -0.590810
-0.118561 1.397308 -0.589914
-0.114153 1.396548 -0.591251
-0.111934 1.392495 -0.589510
-0.109017 1.389513 -0.588764
-0.104963 1.388198 -0.589589
-0.100854 1.386938 -0.590473
-0.096308 1.386273 -0.591931
-0.092771 1.384157 -0.592014
-0.089701 1.381396 -0.591479
-0.087848 1.376989 -0.589353
-0.084372 1.374817 -0.589375
-0.079710 1.374218 -0.590926
-0.078485 1.369067 -0.588051
-0.074320 1.367797 -0.588954
-0.071973 1.364175 -0.587552
-0.068734 1.361714 -0.587286
-0.064555 1.360431 -0.588187
-0.060618 1.358825 -0.588775
-0.055664 1.358443 -0.590592
-0.052061 1.356385 -0.590744
-0.048889 1.353808 -0.590376
-0.046347 1.350493 -0.589259
-0.044471 1.346425 -0.587371
-0.040882 1.344368 -0.587518
-0.035493 1.344350 -0.589759
-0.031754 1.342423 -0.590056
-0.028573 1.339865 -0.589706
-0.026197 1.336427 -0.588442
-0.022809 1.334111 -0.588338
-0.021101 1.329989 -0.586346
-0.018002 1.327381 -0.585931
-0.013770 1.325965 -0.586773
-0.010434 1.323596 -0.586614
-0.007554 1.320757 -0.585957
-0.005105 1.317490 -0.584839
-0.002312 1.314585 -0.584104
0.004317 1.315483 -0.587469
0.008079 1.313499 -0.587745
-0.053859 1.243104 -0.515634
-0.050248 1.241693 -0.516224
-0.053043 1.234278 -0.510193
-0.055707 1.227100 -0.504372
-0.056326 1.221901 -0.500708
-0.057649 1.216133 -0.496375
-0.057126 1.212092 -0.493949
-0.061061 1.204157 -0.487102
-0.062128 1.198854 -0.483184
-0.063009 1.193779 -0.479493
-0.056811 1.194805 -0.482771
-0.050528 1.195827 -0.486082
-0.049081 1.192744 -0.484676
-0.054335 1.184158 -0.476853
-0.053060 1.181033 -0.475348
-0.050560 1.178911 -0.475015
-0.046527 1.178004 -0.476122
-0.043852 1.175996 -0.475939
-0.039095 1.175598 -0.477686
-0.037608 1.172641 -0.476385
-0.033295 1.171843 -0.477685
-0.029515 1.170606 -0.478475
-0.022078 1.172055 -0.482561
-0.018120 1.170860 -0.483455
-0.015033 1.169001 -0.483549
-0.013154 1.166258 -0.482558
-0.009064 1.165085 -0.483526
-0.006423 1.162862 -0.483198
-0.007074 1.158352 -0.479990
-0.006188 1.154936 -0.478145
-0.002988 1.153100 -0.478308
0.004426 1.154055 -0.482072
0.010530 1.154058 -0.484664
0.015248 1.153090 -0.486038
0.014013 1.148247 -0.482373
0.010692 1.142126 -0.476993
0.015402 1.141128 -0.478348
0.019595 1.139764 -0.479247
0.023281 1.138052 -0.479706
0.024557 1.134853 -0.478178
0.026979 1.132346 -0.477586
0.029798 1.130062 -0.477309
0.035573 1.129483 -0.479394
0.046170 1.131617 -0.485288
0.047806 1.128534 -0.483994
0.048315 1.124821 -0.481813
0.051313 1.122504 -0.481595
0.054486 1.120264 -0.481503
0.054885 1.116511 -0.479252
0.057343 1.113873 -0.478600
0.061266 1.111994 -0.479062
0.063701 1.109319 -0.478377
0.064443 1.105772 -0.476408
0.066115 1.102714 -0.475151
0.076373 1.103922 -0.480309
0.080549 1.102045 -0.480883
0.081860 1.098760 -0.479326
0.084086 1.095927 -0.478450
0.090218 1.094933 -0.480427
0.092178 1.091965 -0.479349
0.101021 1.092151 -0.483243
0.100185 1.087911 -0.480151
0.101785 1.084806 -0.478828
0.101622 1.080957 -0.476272
0.105315 1.078821 -0.476464
0.112087 1.077998 -0.478815
0.123047 1.078901 -0.484064
0.123027 1.075199 -0.481655
0.131372 1.074961 -0.485047
0.146025 1.077222 -0.492737
0.146951 1.073954 -0.491003
0.144625 1.069478 -0.487098
0.145599 1.066368 -0.485479
-0.538120 1.565812 -0.534467
-0.534509 1.563141 -0.534181
-0.531101 1.565863 -0.537414
-0.527545 1.567061 -0.539683
-0.523964 1.569567 -0.542833
-0.520255 1.570540 -0.545004
-0.516539 1.573702 -0.548639
-0.512719 1.575784 -0.551590
-0.508811 1.576458 -0.553631
-0.504895 1.581691 -0.558721
-0.500867 1.582926 -0.561180
-0.496790 1.584031 -0.563569
-0.492640 1.589321 -0.568784
-0.488450 1.590503 -0.571266
-0.484226 1.591337 -0.573527
-0.479961 1.592481 -0.576011
-0.475595 1.595958 -0.580096
-0.471324 1.594886 -0.581097
-0.467177 1.590525 -0.579850
-0.462847 1.590941 -0.581870
-0.458622 1.588937 -0.582230
-0.454322 1.588447 -0.583632
-0.450052 1.587370 -0.584630
-0.445813 1.585886 -0.585344
-0.441387 1.587061 -0.587913
-0.437193 1.585032 -0.588245
-0.433015 1.582997 -0.588568
-0.428766 1.581937 -0.589573
-0.424544 1.580655 -0.590420
-0.420404 1.578652 -0.590752
-0.415908 1.580123 -0.593552
-0.411653 1.579272 -0.594704
-0.407422 1.578261 -0.595741
-0.403667 1.573467 -0.594057
-0.399135 1.575022 -0.596933
-0.395224 1.571835 -0.596390
-0.391183 1.569781 -0.596658
-0.386892 1.569539 -0.598240
-0.382481 1.570052 -0.600377
-0.378685 1.566624 -0.599632
-0.374565 1.565355 -0.600463
-0.370230 1.565387 -0.602252
-0.366174 1.563789 -0.602841
-0.362182 1.561893 -0.603204
-0.358890 1.556344 -0.600844
-0.354584 1.556313 -0.602586
-0.350933 1.552950 -0.601836
-0.347649 1.547945 -0.599840
-0.343635 1.546616 -0.600599
-0.339905 1.543999 -0.600384
-0.336284 1.540978 -0.599855
-0.333116 1.536086 -0.597893
-0.329708 1.532405 -0.596840
-0.326210 1.529224 -0.596158
-0.321469 1.531165 -0.599407
-0.317432 1.530175 -0.600412
-0.313091 1.530348 -0.602320
-0.310385 1.524293 -0.599399
-0.305851 1.525182 -0.601866
-0.302318 1.522364 -0.601449
-0.299182 1.518210 -0.599977
-0.295712 1.515324 -0.599491
-0.292790 1.510644 -0.597582
-0.289449 1.507482 -0.596860
-0.285987 1.504779 -0.596495
-0.282574 1.501963 -0.596036
-0.278121 1.502434 -0.598200
-0.275686 1.496666 -0.595369
-0.272501 1.493296 -0.594448
-0.269080 1.490687 -0.594134
-0.265187 1.489472 -0.594946
-0.260814 1.489601 -0.596853
-0.256004 1.490875 -0.599706
-0.252750 1.487790 -0.599009
-0.248336 1.487862 -0.600897
-0.244718 1.485771 -0.601015
-0.241113 1.483652 -0.601109
-0.237331 1.481995 -0.601586
-0.234177 1.478754 -0.600746
-0.230993 1.475632 -0.599999
-0.227025 1.474448 -0.600871
-0.224250 1.470397 -0.599336
-0.222137 1.464861 -0.596537
-0.219199 1.461340 -0.595424
-0.215590 1.459391 -0.595638
-0.212068 1.457248 -0.595687
-0.208188 1.455896 -0.596413
-0.204603 1.453885 -0.596578
-0.201069 1.451763 -0.596648
-0.197116 1.450523 -0.597480
-0.194358 1.446784 -0.596150
-0.191524 1.443250 -0.594989
-0.188138 1.440869 -0.594826
-0.185365 1.437281 -0.593604
-0.182304 1.434297 -0.592905
-0.178058 1.433619 -0.594236
-0.175456 1.429783 -0.592779
-0.173125 1.425489 -0.590904
-0.169984 1.422747 -0.590400
-0.166093 1.421386 -0.591130
-0.162125 1.420141 -0.591970
-0.158619 1.418056 -0.592058
-0.156507 1.413539 -0.589944
-0.153578 1.410488 -0.589147
-0.149600 1.409244 -0.589993
-0.146231 1.406953 -0.589887
-0.142825 1.404728 -0.589841
-0.138863 1.403410 -0.590631
-0.135791 1.400639 -0.590082
-0.132019 1.398992 -0.590574
-0.128217 1.397378 -0.591102
-0.125152 1.394611 -0.590553
-0.121878 1.392177 -0.590315
-0.119557 1.388313 -0.588725
-0.116320 1.385852 -0.588453
-0.113131 1.383329 -0.588120
-0.108017 1.383602 -0.590454
-0.104936 1.380904 -0.589960
-0.101630 1.378534 -0.589778
-0.098812 1.375487 -0.588942
-0.094071 1.375110 -0.590688
-0.092904 1.369823 -0.587669
-0.086994 1.370986 -0.590931
-0.086810 1.364462 -0.586678
-0.080487 1.366094 -0.590425
-0.078006 1.362654 -0.589188
-0.075831 1.358849 -0.587580
-0.072142 1.356996 -0.587905
-0.067886 1.355840 -0.588933
-0.063623 1.354667 -0.589952
-0.060624 1.351924 -0.589396
-0.057351 1.349522 -0.589183
-0.053890 1.347345 -0.589200
-0.052000 1.343317 -0.587326
-0.049076 1.340530 -0.586711
-0.045642 1.338340 -0.586708
-0.039902 1.338764 -0.589413
-0.037707 1.335145 -0.587940
-0.035272 1.331821 -0.586765
-0.031799 1.329656 -0.586798
-0.028115 1.327715 -0.587067
-0.024866 1.325297 -0.586838
-0.021007 1.323524 -0.587295
-0.017693 1.321165 -0.587133
-0.011849 1.321422 -0.589774
-0.009836 1.317699 -0.588161
-0.007694 1.314134 -0.586707
-0.005947 1.310199 -0.584841
-0.002997 1.307485 -0.584293
0.005933 1.310613 -0.590145
-0.069833 1.222495 -0.499755
-0.070562 1.217214 -0.495953
-0.068995 1.214120 -0.494573
-0.062577 1.215467 -0.498185
-0.060008 1.213265 -0.497821
-0.058513 1.210107 -0.496370
-0.060657 1.203763 -0.491269
-0.060744 1.199304 -0.488289
-0.061347 1.194450 -0.484828
-0.061437 1.190093 -0.481915
-0.054415 1.191764 -0.486004
-0.054250 1.187644 -0.483357
-0.054634 1.183114 -0.480207
-0.055244 1.178452 -0.476874
-0.053053 1.176092 -0.476253
-0.049688 1.174664 -0.476747
-0.045841 1.173595 -0.477683
-0.042262 1.172287 -0.478349
-0.038614 1.171007 -0.479063
-0.038903 1.166716 -0.476118
-0.033457 1.166764 -0.478475
-0.026373 1.167968 -0.482293
-0.021901 1.167172 -0.483683
-0.020762 1.163926 -0.482038
-0.019010 1.161132 -0.480954
-0.014999 1.159940 -0.481889
-0.013929 1.156660 -0.480196
-0.015129 1.151831 -0.476517
-0.013361 1.149075 -0.475468
-0.012365 1.145802 -0.473752
-0.004620 1.147034 -0.477882
0.003132 1.148176 -0.481957
0.007313 1.146905 -0.482922
0.007864 1.143269 -0.480781
0.009834 1.140551 -0.479853
0.012776 1.138439 -0.479738
0.014828 1.135759 -0.478872
0.018319 1.133953 -0.479196
0.020649 1.131421 -0.478548
0.023194 1.129008 -0.478071
0.025491 1.126436 -0.477385
0.030234 1.125275 -0.478674
0.032140 1.122443 -0.477653
0.032620 1.118804 -0.475491
0.034944 1.116211 -0.474808
0.048300 1.119686 -0.482834
0.050895 1.117144 -0.482303
0.049881 1.112655 -0.478948
0.053997 1.110922 -0.479600
0.057705 1.108943 -0.479918
0.059122 1.105760 -0.478464
0.059373 1.101993 -0.476126
0.063463 1.100174 -0.476714
0.069714 1.099397 -0.478913
0.072993 1.097116 -0.478850
0.072724 1.093118 -0.476139
0.082091 1.093724 -0.480582
0.080896 1.089305 -0.477196
0.087266 1.088425 -0.479378
0.091069 1.086334 -0.479663
0.091801 1.082862 -0.477722
0.094839 1.080441 -0.477459
0.098701 1.078387 -0.477789
0.101586 1.075915 -0.477423
0.102632 1.072681 -0.475765
0.105658 1.070314 -0.475524
0.123295 1.073967 -0.485503
0.120991 1.069402 -0.481524
0.127545 1.068460 -0.483723
0.131240 1.066387 -0.483947
0.126494 1.061067 -0.478414
0.124466 1.056909 -0.474804
-0.539216 1.561082 -0.535861
-0.535821 1.562313 -0.538117
-0.532399 1.564584 -0.541082
-0.528841 1.565604 -0.543252
-0.525229 1.567036 -0.545716
-0.521563 1.568980 -0.548545
-0.517839 1.571485 -0.551771
-0.514046 1.574339 -0.555257
-0.510152 1.575643 -0.557733
-0.506225 1.579174 -0.561724
-0.502219 1.582398 -0.565536
-0.498142 1.586362 -0.569874
-0.494001 1.587555 -0.572363
-0.489820 1.588355 -0.574600
-0.485570 1.591187 -0.578237
-0.481351 1.589866 -0.579054
-0.477118 1.588795 -0.580043
-0.472925 1.586192 -0.579981
-0.468727 1.584030 -0.580218
-0.464435 1.584241 -0.582097
-0.460123 1.584505 -0.584018
-0.455720 1.586156 -0.586914
-0.451542 1.583586 -0.586867
-0.447341 1.581656 -0.587263
-0.443169 1.579495 -0.587492
-0.438894 1.578897 -0.588819
-0.434587 1.578668 -0.590409
-0.430395 1.577105 -0.591052
-0.426288 1.574756 -0.591131
-0.422218 1.572248 -0.591089
-0.418300 1.568530 -0.590170
-0.413799 1.570366 -0.593240
-0.409562 1.569729 -0.594534
-0.405713 1.565954 -0.593553
-0.401377 1.566254 -0.595523
-0.397144 1.565714 -0.596885
-0.393111 1.563756 -0.597211
-0.389542 1.558731 -0.595277
-0.384917 1.561004 -0.598704
-0.380572 1.561282 -0.600672
-0.376766 1.558205 -0.600156
-0.372587 1.557493 -0.601390
-0.367971 1.559278 -0.604491
-0.364621 1.553904 -0.602242
-0.360855 1.551045 -0.601864
-0.357063 1.548443 -0.601670
-0.353302 1.545791 -0.601433
-0.349138 1.545208 -0.602758
-0.345385 1.542654 -0.602586
-0.341778 1.539513 -0.601960
-0.338413 1.535391 -0.600573
-0.335056 1.531396 -0.599271
-0.331761 1.527284 -0.597864
-0.327983 1.525331 -0.598116
-0.324176 1.523539 -0.598489
-0.320196 1.522456 -0.599414
-0.316393 1.520683 -0.599801
-0.313317 1.516179 -0.598048
-0.309975 1.512805 -0.597167
-0.305294 1.514359 -0.600166
-0.301515 1.512597 -0.600557
-0.297559 1.511461 -0.601443
-0.295057 1.505383 -0.598397
-0.291229 1.503900 -0.598999
-0.287561 1.501890 -0.599181
-0.284302 1.498595 -0.598327
-0.281365 1.494364 -0.596710
-0.277629 1.492681 -0.597144
-0.273578 1.491945 -0.598348
-0.269821 1.490309 -0.598824
-0.266221 1.488218 -0.598929
-0.262652 1.486050 -0.598971
-0.258905 1.484393 -0.599431
-0.255688 1.481285 -0.598694
-0.252014 1.479449 -0.599006
-0.246265 1.483097 -0.603878
-0.244457 1.476321 -0.600085
-0.241439 1.472803 -0.598992
-0.237541 1.471546 -0.599790
-0.233643 1.470268 -0.600575
-0.230676 1.466712 -0.599437
-0.226766 1.465457 -0.600244
-0.225013 1.459116 -0.596724
-0.221241 1.457579 -0.597285
-0.217889 1.455073 -0.597017
-0.215385 1.450686 -0.595128
-0.211620 1.449151 -0.595689
-0.207520 1.448327 -0.596869
-0.204886 1.444335 -0.595303
-0.200812 1.443432 -0.596420
-0.199060 1.437684 -0.593302
-0.194688 1.437392 -0.594957
-0.191933 1.433797 -0.593710
-0.189101 1.430399 -0.592629
-0.185285 1.428960 -0.593280
-0.182060 1.426363 -0.592903
-0.179151 1.423183 -0.592001
-0.175810 1.420841 -0.591846
-0.172181 1.419037 -0.592174
-0.168580 1.417171 -0.592449
-0.165447 1.414460 -0.591959
-0.162913 1.410707 -0.590515
-0.159309 1.408862 -0.590807
-0.156503 1.405638 -0.589834
-0.152870 1.403846 -0.590174
-0.149890 1.400950 -0.589497
-0.145778 1.399943 -0.590567
-0.142769 1.397109 -0.589944
-0.140083 1.393772 -0.588846
-0.134684 1.394773 -0.591810
-0.131912 1.391575 -0.590843
-0.129654 1.387608 -0.589142
-0.126225 1.385474 -0.589168
-0.122505 1.383778 -0.589612
-0.119222 1.381419 -0.589425
-0.117278 1.377098 -0.587355
-0.114745 1.373684 -0.586143
-0.110660 1.372521 -0.587100
-0.105411 1.372978 -0.589638
-0.102737 1.369774 -0.588628
-0.099940 1.366764 -0.587800
-0.096224 1.365024 -0.588214
-0.093503 1.361935 -0.587302
-0.089700 1.360302 -0.587826
-0.086489 1.357878 -0.587569
-0.083012 1.355804 -0.587659
-0.080034 1.353086 -0.587105
-0.076579 1.350982 -0.587167
-0.072408 1.349767 -0.588129
-0.067966 1.348862 -0.589415
-0.064082 1.347244 -0.589985
-0.060697 1.345007 -0.589930
-0.057628 1.342394 -0.589488
-0.056258 1.337790 -0.586990
-0.052999 1.335434 -0.586802
-0.048769 1.334193 -0.587774
-0.044986 1.332419 -0.588201
-0.043112 1.328491 -0.586372
-0.038698 1.327415 -0.587535
-0.036524 1.323856 -0.586081
-0.032219 1.322629 -0.587099
-0.028311 1.320951 -0.587645
-0.025871 1.317704 -0.586515
-0.020063 1.317996 -0.589191
-0.019851 1.312444 -0.585571
-0.014399 1.312313 -0.587813
-0.009500 1.311571 -0.589412
-0.009103 1.306297 -0.586058
-0.006841 1.302926 -0.584774
0.003020 1.306982 -0.591702
-0.046892 1.253291 -0.534490
-0.050276 1.245092 -0.527568
-0.077730 1.214362 -0.495300
-0.079103 1.208560 -0.490841
-0.075458 1.207459 -0.491669
-0.071410 1.206699 -0.492898
-0.068920 1.204508 -0.492505
-0.065382 1.203247 -0.493182
-0.061929 1.201890 -0.493761
-0.058680 1.200335 -0.494120
-0.054004 1.199989 -0.495899
-0.053681 1.195904 -0.493318
-0.058466 1.187571 -0.485715
-0.056930 1.184622 -0.484414
-0.055989 1.181198 -0.482542
-0.056489 1.176633 -0.479291
-0.055792 1.173078 -0.477229
-0.050920 1.172858 -0.479182
-0.047430 1.171507 -0.479791
-0.045822 1.168676 -0.478604
-0.043254 1.166590 -0.478328
-0.039356 1.165501 -0.479290
-0.033617 1.165757 -0.481938
-0.032008 1.162898 -0.480739
-0.030319 1.160107 -0.479620
-0.027987 1.157786 -0.479093
-0.024119 1.156554 -0.479952
-0.022132 1.153966 -0.479101
-0.019722 1.151673 -0.478628
-0.019751 1.147694 -0.475986
-0.018669 1.144502 -0.474347
-0.011930 1.145121 -0.477681
-0.008407 1.143529 -0.478159
-0.006928 1.140570 -0.476850
-0.003095 1.139142 -0.477575
0.004799 1.140277 -0.481756
0.011987 1.140871 -0.485274
0.010390 1.135901 -0.481308
0.011354 1.132561 -0.479530
0.013235 1.129791 -0.478528
0.017270 1.128313 -0.479316
0.019073 1.125476 -0.478239
0.021669 1.123101 -0.477812
0.026490 1.122000 -0.479194
0.028809 1.119425 -0.478518
0.029188 1.115748 -0.476273
0.032951 1.113972 -0.476753
0.043641 1.115967 -0.482733
0.046680 1.113690 -0.482571
0.046203 1.109517 -0.479632
0.049679 1.107461 -0.479807
0.054967 1.106324 -0.481378
0.055257 1.102576 -0.479054
0.057067 1.099621 -0.477914
0.060756 1.097608 -0.478213
0.063587 1.095150 -0.477846
0.066243 1.092600 -0.477342
0.071894 1.091479 -0.479084
0.073473 1.088395 -0.477758
0.076637 1.086062 -0.477618
0.081463 1.084487 -0.478699
0.086675 1.083062 -0.480047
0.088661 1.080175 -0.479025
0.093000 1.078339 -0.479719
0.094429 1.075235 -0.478308
0.095156 1.071863 -0.476412
0.117075 1.073729 -0.487200
0.116592 1.069877 -0.484452
0.112705 1.064721 -0.479358
0.111447 1.060716 -0.476164
0.112676 1.057763 -0.474743
0.114004 1.054902 -0.473421
0.124375 1.055535 -0.478334
-0.540617 1.561765 -0.540787
-0.537319 1.564840 -0.544284
-0.533708 1.563411 -0.544829
-0.530119 1.563609 -0.546468
-0.526560 1.566149 -0.549689
-0.522909 1.568389 -0.552738
-0.519147 1.569441 -0.555017
-0.515331 1.570794 -0.557518
-0.511517 1.575630 -0.562391
-0.507549 1.575915 -0.564217
-0.503561 1.579164 -0.568071
-0.499498 1.581724 -0.571482
-0.495370 1.585478 -0.575731
-0.491188 1.587150 -0.578580
-0.486977 1.587459 -0.580507
-0.482878 1.580480 -0.577413
-0.478719 1.578070 -0.577460
-0.474416 1.580643 -0.580966
-0.470179 1.580068 -0.582296
-0.465955 1.578951 -0.583250
-0.461685 1.578771 -0.584862
-0.457314 1.580308 -0.587688
-0.452945 1.581309 -0.590147
-0.448929 1.576484 -0.588487
-0.444786 1.574139 -0.588571
-0.440605 1.572543 -0.589183
-0.436394 1.571449 -0.590152
-0.432057 1.571872 -0.592207
-0.427870 1.570559 -0.593019
-0.423794 1.568210 -0.593080
-0.419811 1.565168 -0.592630
-0.415817 1.562501 -0.592443
-0.411459 1.563188 -0.594695
-0.407780 1.558188 -0.592790
-0.403161 1.560978 -0.596588
-0.398826 1.561346 -0.598618
-0.394868 1.558930 -0.598597
-0.391203 1.554630 -0.597171
-0.386934 1.554642 -0.598937
-0.382761 1.553987 -0.600210
-0.378683 1.552752 -0.601051
-0.374565 1.551791 -0.602097
-0.370566 1.550169 -0.602644
-0.366659 1.548085 -0.602841
-0.362818 1.545736 -0.602831
-0.358840 1.544194 -0.603431
-0.355039 1.541791 -0.603372
-0.351516 1.538111 -0.602328
-0.347630 1.536323 -0.602727
-0.343799 1.534326 -0.602963
-0.340136 1.531619 -0.602645
-0.336522 1.528785 -0.602224
-0.333058 1.525396 -0.601363
-0.329955 1.520607 -0.599399
-0.326689 1.516665 -0.598082
-0.322789 1.515381 -0.598843
-0.319247 1.512705 -0.598506
-0.316795 1.505952 -0.594939
-0.312788 1.505221 -0.596125
-0.308853 1.504203 -0.597085
-0.306197 1.498626 -0.594409
-0.301519 1.500256 -0.597487
-0.297028 1.501118 -0.599965
-0.293485 1.498728 -0.599833
-0.288932 1.499667 -0.602392
-0.285630 1.496506 -0.601638
-0.283291 1.490392 -0.598471
-0.280646 1.485394 -0.596192
-0.276937 1.483731 -0.596631
-0.271549 1.487033 -0.601155
-0.269073 1.481701 -0.598581
-0.265009 1.481020 -0.599841
-0.262009 1.477333 -0.598609
-0.259098 1.473466 -0.597217
-0.255895 1.470464 -0.596539
-0.252010 1.469308 -0.597404
-0.247713 1.469202 -0.599157
-0.243905 1.467787 -0.599816
-0.240482 1.465386 -0.599642
-0.237243 1.462549 -0.599095
-0.232998 1.462189 -0.600657
-0.231680 1.454777 -0.596190
-0.228830 1.451149 -0.594943
-0.223474 1.453372 -0.598734
-0.220732 1.449512 -0.597284
-0.217526 1.446748 -0.596777
-0.214219 1.444232 -0.596482
-0.212064 1.439229 -0.594009
-0.207935 1.438542 -0.595306
-0.204850 1.435614 -0.594638
-0.201208 1.433868 -0.595010
-0.198301 1.430611 -0.594044
-0.194920 1.428344 -0.593952
-0.191609 1.425943 -0.593741
-0.188430 1.423297 -0.593307
-0.185605 1.419983 -0.592270
-0.182811 1.416645 -0.591203
-0.178763 1.415689 -0.592288
-0.176269 1.411836 -0.590744
-0.171384 1.412378 -0.593202
-0.168666 1.408961 -0.592052
-0.165890 1.405683 -0.591020
-0.162174 1.404075 -0.591522
-0.158389 1.402573 -0.592127
-0.156515 1.397809 -0.589704
-0.154400 1.393519 -0.587704
-0.150822 1.391705 -0.588010
-0.145463 1.392782 -0.591036
-0.144137 1.387290 -0.587886
-0.140830 1.385028 -0.587773
-0.136364 1.384585 -0.589388
-0.133164 1.382139 -0.589105
-0.129255 1.380782 -0.589863
-0.124671 1.380422 -0.591586
-0.122041 1.377108 -0.590471
-0.119554 1.373614 -0.589175
-0.117261 1.369872 -0.587626
-0.114481 1.366866 -0.586785
-0.111000 1.364869 -0.586929
-0.107001 1.363590 -0.587780
-0.104372 1.360401 -0.586753
-0.099852 1.359808 -0.588293
-0.096196 1.358014 -0.588650
-0.093638 1.354754 -0.587544
-0.089942 1.353010 -0.587953
-0.086653 1.350726 -0.587821
-0.083753 1.347945 -0.587188
-0.079997 1.346260 -0.587664
-0.076192 1.344621 -0.588192
-0.072261 1.343122 -0.588869
-0.068838 1.340986 -0.588898
-0.063509 1.341139 -0.591294
-0.064917 1.333226 -0.585341
-0.061089 1.331595 -0.585887
-0.056917 1.330349 -0.586841
-0.050674 1.331451 -0.590274
-0.049583 1.326635 -0.587491
-0.046799 1.323773 -0.586757
-0.043574 1.321409 -0.586551
-0.039837 1.319607 -0.586945
-0.035136 1.318833 -0.588450
-0.033390 1.314865 -0.586524
-0.028441 1.314315 -0.588289
-0.026188 1.310908 -0.586962
-0.022763 1.308734 -0.586974
-0.019354 1.306536 -0.586963
-0.015251 1.305032 -0.587721
-0.013090 1.301570 -0.586321
-0.009803 1.299241 -0.586171
-0.003826 1.299525 -0.588948
-0.083305 1.203960 -0.490185
-0.079080 1.203423 -0.491653
-0.075452 1.202307 -0.492475
-0.072781 1.200307 -0.492288
-0.069536 1.198814 -0.492692
-0.065131 1.198321 -0.494271
-0.060758 1.197760 -0.495793
-0.056080 1.197422 -0.497598
-0.053370 1.195372 -0.497398
-0.055489 1.189272 -0.492381
-0.056105 1.184503 -0.488913
-0.058331 1.178473 -0.483899
-0.058949 1.173829 -0.480515
-0.058207 1.170326 -0.478491
-0.055579 1.168341 -0.478306
-0.048224 1.170040 -0.482650
-0.051603 1.163357 -0.476702
-0.049824 1.160710 -0.475707
-0.041947 1.162668 -0.480457
-0.040702 1.159581 -0.478936
-0.042098 1.154563 -0.474973
-0.038164 1.153484 -0.475973
-0.034882 1.151904 -0.476354
-0.034503 1.148238 -0.474074
-0.024969 1.151030 -0.480113
-0.023875 1.147837 -0.478465
-0.022994 1.144512 -0.476635
-0.019630 1.142887 -0.477030
-0.014505 1.142416 -0.478966
-0.010312 1.141276 -0.480050
-0.010245 1.137402 -0.477505
-0.008186 1.134843 -0.476710
-0.002255 1.134747 -0.479256
0.004777 1.135279 -0.482705
0.010285 1.134781 -0.484802
0.005878 1.128138 -0.478456
0.009321 1.126349 -0.478789
0.011169 1.123579 -0.477770
0.014050 1.121417 -0.477610
0.017423 1.119525 -0.477849
0.022294 1.118471 -0.479304
0.026312 1.116884 -0.480032
0.027644 1.113756 -0.478555
0.031985 1.112300 -0.479514
0.038370 1.111923 -0.482092
0.040235 1.109041 -0.481017
0.042703 1.106479 -0.480420
0.044603 1.103610 -0.479372
0.047348 1.101178 -0.478986
0.049743 1.098556 -0.478320
0.051945 1.095830 -0.477501
0.057858 1.094947 -0.479541
0.058994 1.091671 -0.477888
0.060853 1.088759 -0.476795
0.066933 1.087865 -0.478902
0.071051 1.086001 -0.479500
0.072524 1.082894 -0.478106
0.076434 1.080917 -0.478536
0.082409 1.079856 -0.480483
0.085572 1.077513 -0.480338
0.087242 1.074521 -0.479102
0.090499 1.072239 -0.479035
0.093747 1.069960 -0.478963
0.099553 1.068763 -0.480735
0.108088 1.068675 -0.484443
0.100154 1.061853 -0.476414
0.099402 1.058059 -0.473560
0.101128 1.055314 -0.472490
0.103106 1.052711 -0.471621
0.109271 1.051759 -0.473689
0.173167 1.072635 -0.515694
-0.542024 1.562348 -0.545678
-0.538626 1.563586 -0.547983
-0.535083 1.563454 -0.549397
-0.531464 1.563025 -0.550631
-0.527890 1.565059 -0.553539
-0.524242 1.567179 -0.556531
-0.520477 1.567990 -0.558662
-0.516639 1.568207 -0.560409
-0.512853 1.573501 -0.565631
-0.508908 1.574864 -0.568204
-0.504913 1.576789 -0.571180
-0.500861 1.579287 -0.574571
-0.496748 1.581842 -0.578024
-0.492582 1.583384 -0.580797
-0.488434 1.579582 -0.579875
-0.484305 1.575636 -0.578844
-0.480125 1.574790 -0.579971
-0.475912 1.574711 -0.581638
-0.471649 1.575597 -0.583991
-0.467435 1.574585 -0.585015
-0.463246 1.572949 -0.585598
-0.459001 1.572514 -0.587031
-0.454491 1.576636 -0.591716
-0.450615 1.569714 -0.588527
-0.446605 1.565773 -0.587449
-0.442212 1.567511 -0.590444
-0.438009 1.566525 -0.591485
-0.433790 1.565775 -0.592696
-0.429473 1.566125 -0.594707
-0.425418 1.563674 -0.594681
-0.421213 1.562903 -0.595877
-0.417266 1.559771 -0.595340
-0.413327 1.556845 -0.594943
-0.409176 1.555924 -0.596018
-0.405286 1.552963 -0.595582
-0.401071 1.552698 -0.597139
-0.396686 1.553644 -0.599604
-0.392697 1.551701 -0.599915
-0.388804 1.549223 -0.599821
-0.384871 1.547143 -0.600019
-0.380721 1.546522 -0.601314
-0.377000 1.543324 -0.600658
-0.372390 1.545448 -0.604039
-0.368743 1.541987 -0.603176
-0.365104 1.538650 -0.602396
-0.360630 1.539867 -0.605103
-0.357860 1.532258 -0.601022
-0.353553 1.532664 -0.603104
-0.349604 1.531266 -0.603797
-0.345729 1.529548 -0.604240
-0.341807 1.528085 -0.604880
-0.338183 1.525321 -0.604502
-0.334631 1.522333 -0.603942
-0.331233 1.518790 -0.602936
-0.328822 1.511320 -0.598816
-0.324573 1.511508 -0.600738
-0.321459 1.507197 -0.599091
-0.318229 1.503470 -0.597895
-0.315646 1.497438 -0.594842
-0.312596 1.493323 -0.593307
-0.308676 1.492430 -0.594355
-0.304965 1.490786 -0.594800
-0.302103 1.486251 -0.592900
-0.298698 1.483661 -0.592569
-0.292743 1.489467 -0.599089
-0.288451 1.489638 -0.601033
-0.285909 1.484243 -0.598413
-0.282690 1.481083 -0.597616
-0.279236 1.478690 -0.597447
-0.276230 1.475002 -0.596200
-0.272786 1.472662 -0.596066
-0.269584 1.469653 -0.595370
-0.266325 1.466854 -0.594844
-0.262052 1.466883 -0.596693
-0.258285 1.465480 -0.597343
-0.254701 1.463577 -0.597574
-0.252293 1.458614 -0.595204
-0.246662 1.462016 -0.599951
-0.243314 1.459488 -0.599655
-0.241561 1.453035 -0.595986
-0.237602 1.452103 -0.597047
-0.234215 1.449769 -0.596903
-0.230690 1.447777 -0.597054
-0.226956 1.446269 -0.597627
-0.223872 1.443263 -0.596895
-0.220335 1.441308 -0.597079
-0.217081 1.438729 -0.596713
-0.215037 1.433534 -0.594037
-0.212271 1.429984 -0.592799
-0.207665 1.430362 -0.595042
-0.204529 1.427613 -0.594512
-0.201456 1.424759 -0.593884
-0.197838 1.423026 -0.594259
-0.193886 1.421946 -0.595225
-0.191058 1.418640 -0.594184
-0.188630 1.414598 -0.592467
-0.185207 1.412502 -0.592511
-0.181808 1.410364 -0.592517
-0.178689 1.407708 -0.592047
-0.175624 1.404970 -0.591499
-0.172824 1.401775 -0.590524
-0.169596 1.399367 -0.590273
-0.164882 1.399561 -0.592444
-0.161699 1.397057 -0.592109
-0.158794 1.394089 -0.591336
-0.156145 1.390717 -0.590176
-0.153785 1.386900 -0.588588
-0.150630 1.384424 -0.588262
-0.146352 1.383763 -0.589662
-0.143392 1.380972 -0.589035
-0.140532 1.378041 -0.588270
-0.138238 1.374254 -0.586676
-0.133581 1.374114 -0.588598
-0.131640 1.369835 -0.586515
-0.125294 1.372154 -0.590849
-0.124293 1.366518 -0.587432
-0.120947 1.364367 -0.587413
-0.117397 1.362506 -0.587681
-0.114442 1.359797 -0.587111
-0.111248 1.357433 -0.586882
-0.108381 1.354626 -0.586208
-0.104822 1.352772 -0.586485
-0.100848 1.351468 -0.587319
-0.096579 1.350532 -0.588533
-0.095089 1.345925 -0.586034
-0.091072 1.344646 -0.586905
-0.087550 1.342710 -0.587112
-0.083211 1.341798 -0.588374
-0.080657 1.338629 -0.587321
-0.077014 1.336824 -0.587671
-0.074060 1.334168 -0.587143
-0.070831 1.331852 -0.586966
-0.067863 1.329229 -0.586467
-0.065532 1.325864 -0.585186
-0.061931 1.323999 -0.585480
-0.057760 1.322776 -0.586460
-0.056061 1.318728 -0.584440
-0.050067 1.319527 -0.587593
-0.045936 1.318191 -0.588481
-0.043389 1.315102 -0.587485
-0.040424 1.312481 -0.586991
-0.036210 1.311198 -0.587952
-0.033159 1.308663 -0.587556
-0.027958 1.308372 -0.589626
-0.027130 1.303527 -0.586688
-0.023176 1.301922 -0.587321
-0.019820 1.299694 -0.587269
-0.017243 1.296686 -0.586347
-0.014516 1.293839 -0.585602
-0.006281 1.296350 -0.590908
-0.083137 1.203422 -0.494138
-0.080015 1.201857 -0.494442
-0.076467 1.200665 -0.495186
-0.075949 1.196736 -0.492747
-0.072241 1.195672 -0.493651
-0.069644 1.193610 -0.493391
-0.066496 1.192021 -0.493695
-0.062165 1.191428 -0.495194
-0.057850 1.190784 -0.496653
-0.055870 1.188150 -0.495740
-0.053586 1.185775 -0.495136
-0.054602 1.180707 -0.491259
-0.058393 1.173462 -0.484689
-0.057454 1.170103 -0.482833
-0.052553 1.169893 -0.484850
-0.054232 1.164505 -0.480470
-0.055458 1.159536 -0.476574
-0.055881 1.155239 -0.473487
-0.052405 1.153919 -0.474132
-0.049963 1.151806 -0.473787
-0.044753 1.151720 -0.476031
-0.039874 1.151338 -0.477933
-0.038224 1.148590 -0.476814
-0.033731 1.147864 -0.478315
-0.030686 1.146080 -0.478465
-0.029198 1.143201 -0.477190
-0.028012 1.140122 -0.475648
-0.022858 1.139735 -0.477676
-0.019147 1.138331 -0.478383
-0.015676 1.136740 -0.478860
-0.012188 1.135133 -0.479334
-0.009731 1.132836 -0.478889
-0.007039 1.130678 -0.478644
-0.003918 1.128775 -0.478762
-0.001042 1.126699 -0.478656
0.004006 1.125933 -0.480397
0.003358 1.121676 -0.477266
0.005515 1.119128 -0.476528
0.003866 1.114331 -0.472593
0.010170 1.114209 -0.475330
0.016527 1.114047 -0.478066
0.020325 1.112367 -0.478647
0.024118 1.110652 -0.479204
0.028104 1.109013 -0.479899
0.029652 1.106014 -0.478600
0.033577 1.104295 -0.479217
0.034514 1.100961 -0.477423
0.037076 1.098490 -0.476932
0.039981 1.096185 -0.476705
0.043061 1.093955 -0.476608
0.045085 1.091180 -0.475676
0.047326 1.088512 -0.474913
0.053605 1.087812 -0.477268
0.055999 1.085189 -0.476602
0.058808 1.082762 -0.476254
0.063859 1.081379 -0.477604
0.067229 1.079189 -0.477663
0.067746 1.075697 -0.475577
0.071232 1.073565 -0.475724
0.066796 1.067936 -0.469995
0.077238 1.068874 -0.475297
0.084272 1.068266 -0.478041
0.088082 1.066257 -0.478407
0.092926 1.064684 -0.479523
0.096402 1.062545 -0.479645
0.091347 1.056975 -0.473662
0.088911 1.052567 -0.469620
0.093126 1.050858 -0.470348
0.102508 1.051164 -0.474724
0.116751 1.053286 -0.482479
0.129868 1.054899 -0.489384
-0.543435 1.562831 -0.550533
-0.539832 1.560471 -0.550439
-0.536350 1.561244 -0.552470
-0.532785 1.561749 -0.554342
-0.529189 1.563061 -0.556782
-0.525574 1.565764 -0.560193
-0.521857 1.567845 -0.563207
-0.518029 1.568567 -0.565314
-0.514153 1.569591 -0.567646
-0.510254 1.572548 -0.571330
-0.506279 1.575274 -0.574880
-0.502233 1.577497 -0.578104
-0.498127 1.578455 -0.580470
-0.493991 1.576708 -0.580960
-0.489852 1.574273 -0.580969
-0.485702 1.572603 -0.581514
-0.481571 1.569808 -0.581265
-0.477393 1.569119 -0.582502
-0.473151 1.570081 -0.584915
-0.468972 1.568679 -0.585653
-0.464797 1.567218 -0.586350
-0.460575 1.566787 -0.587782
-0.456396 1.565440 -0.588560
-0.452145 1.565356 -0.590247
-0.447920 1.564773 -0.591578
-0.443895 1.561397 -0.590881
-0.439677 1.560887 -0.592261
-0.435619 1.558458 -0.592240
-0.431463 1.557368 -0.593193
-0.427088 1.558645 -0.595888
-0.423194 1.554961 -0.594930
-0.418680 1.557421 -0.598509
-0.414983 1.552330 -0.596493
-0.410923 1.550750 -0.597075
-0.406853 1.549356 -0.597792
-0.402969 1.546610 -0.597493
-0.398800 1.546154 -0.598909
-0.394514 1.546515 -0.600945
-0.390519 1.544826 -0.601433
-0.386600 1.542733 -0.601612
-0.382857 1.539636 -0.601021
-0.378928 1.537845 -0.601419
-0.375004 1.536098 -0.601846
-0.371424 1.532473 -0.600826
-0.367502 1.530902 -0.601380
-0.363499 1.529815 -0.602308
-0.359542 1.528503 -0.603061
-0.355609 1.527096 -0.603739
-0.351699 1.525607 -0.604354
-0.347687 1.524632 -0.605372
-0.344434 1.520174 -0.603649
-0.340352 1.519598 -0.604977
-0.336500 1.517992 -0.605494
-0.333303 1.513645 -0.603831
-0.329093 1.513636 -0.605613
-0.327014 1.504995 -0.600497
-0.323350 1.502933 -0.600624
-0.320094 1.499342 -0.599519
-0.317551 1.493188 -0.596332
-0.314276 1.489930 -0.595469
-0.310668 1.487952 -0.595638
-0.307168 1.485618 -0.595516
-0.304087 1.481890 -0.594249
-0.301400 1.476936 -0.591964
-0.297442 1.476303 -0.593222
-0.293248 1.476390 -0.595082
-0.288789 1.477248 -0.597593
-0.286623 1.470925 -0.594141
-0.282412 1.470982 -0.595992
-0.277862 1.471984 -0.598645
-0.274817 1.468495 -0.597539
-0.271162 1.466820 -0.597954
-0.268282 1.462965 -0.596527
-0.265480 1.458975 -0.594973
-0.261486 1.458291 -0.596225
-0.257991 1.456244 -0.596318
-0.254695 1.453684 -0.595971
-0.252258 1.448944 -0.593744
-0.248527 1.447572 -0.594410
-0.245077 1.445484 -0.594460
-0.240873 1.445244 -0.596115
-0.237763 1.442326 -0.595445
-0.233070 1.443175 -0.598067
-0.229841 1.440537 -0.597644
-0.226377 1.438458 -0.597710
-0.223075 1.436018 -0.597458
-0.219765 1.433610 -0.597231
-0.217522 1.428895 -0.594946
-0.214685 1.425534 -0.593856
-0.211545 1.422856 -0.593372
-0.207722 1.421619 -0.594180
-0.204759 1.418598 -0.593382
-0.202566 1.414052 -0.591196
-0.199223 1.411865 -0.591141
-0.194811 1.411778 -0.593003
-0.191318 1.409860 -0.593200
-0.187470 1.408611 -0.594014
-0.184497 1.405700 -0.593300
-0.184169 1.397927 -0.588076
-0.180464 1.396464 -0.588682
-0.176947 1.394648 -0.588963
-0.173208 1.393216 -0.589606
-0.171027 1.389045 -0.587678
-0.167776 1.386776 -0.587531
-0.162630 1.387727 -0.590435
-0.160920 1.382841 -0.587809
-0.157865 1.380252 -0.587358
-0.153565 1.379705 -0.588859
-0.149815 1.378230 -0.589480
-0.146472 1.376093 -0.589466
-0.143935 1.372694 -0.588230
-0.140963 1.370000 -0.587671
-0.137973 1.367347 -0.587149
-0.134551 1.365359 -0.587275
-0.131462 1.362871 -0.586910
-0.127914 1.361066 -0.587218
-0.124459 1.359115 -0.587384
-0.122240 1.355394 -0.585790
-0.119132 1.352966 -0.585476
-0.115282 1.351578 -0.586205
-0.111638 1.349886 -0.586634
-0.107990 1.348188 -0.587062
-0.103680 1.347366 -0.588384
-0.100423 1.345114 -0.588259
-0.099021 1.340437 -0.585650
-0.095014 1.339188 -0.586546
-0.091128 1.337759 -0.587266
-0.088612 1.334584 -0.586181
-0.084514 1.333402 -0.587165
-0.079959 1.332756 -0.588718
-0.076593 1.330626 -0.588728
-0.075904 1.325280 -0.585350
-0.071991 1.323831 -0.586070
-0.069273 1.320963 -0.585290
-0.066060 1.318682 -0.585130
-0.062497 1.316801 -0.585402
-0.059168 1.314646 -0.585382
-0.056801 1.311413 -0.584198
-0.053936 1.308751 -0.583627
-0.047984 1.309464 -0.586736
-0.043402 1.308629 -0.588178
-0.039861 1.306649 -0.588376
-0.038511 1.302353 -0.586017
-0.035576 1.299750 -0.585521
-0.031733 1.298087 -0.586072
-0.027793 1.296505 -0.586722
-0.026374 1.292370 -0.584507
-0.021794 1.291414 -0.585871
-0.017827 1.289820 -0.586528
-0.011338 1.290653 -0.589965
-0.049449 1.243677 -0.540904
-0.048583 1.239575 -0.538474
-0.073477 1.207128 -0.505224
-0.076241 1.200144 -0.499216
-0.075958 1.195994 -0.496500
-0.077346 1.190413 -0.492065
-0.074787 1.188358 -0.491793
-0.071642 1.186805 -0.492126
-0.067290 1.186268 -0.493690
-0.062568 1.186003 -0.495605
-0.058958 1.184765 -0.496363
-0.055863 1.183078 -0.496587
-0.055825 1.178885 -0.493741
-0.052727 1.177200 -0.493970
-0.053514 1.172407 -0.490351
-0.053118 1.168602 -0.487934
-0.053340 1.164349 -0.484937
-0.058347 1.156464 -0.477335
-0.058373 1.152490 -0.474618
-0.055393 1.150809 -0.474806
-0.050597 1.150458 -0.476710
-0.048373 1.148173 -0.476152
-0.043211 1.148013 -0.478353
-0.036478 1.148922 -0.481984
-0.038490 1.143568 -0.477452
-0.037021 1.140713 -0.476174
-0.037432 1.136568 -0.473182
-0.036046 1.133686 -0.471853
-0.027033 1.135950 -0.477433
-0.023232 1.134629 -0.478247
-0.019759 1.133060 -0.478749
-0.015272 1.132122 -0.480135
-0.011316 1.130802 -0.481026
-0.011244 1.126987 -0.478485
-0.011747 1.122839 -0.475463
-0.009621 1.120351 -0.474746
-0.007798 1.117671 -0.473765
-0.002907 1.116837 -0.475413
0.000660 1.115166 -0.475902
0.002764 1.112608 -0.475135
0.002615 1.108739 -0.472470
0.011201 1.109891 -0.477130
0.016733 1.109216 -0.479183
0.020515 1.107509 -0.479753
0.021547 1.104262 -0.478046
0.023932 1.101758 -0.477451
0.024808 1.098437 -0.475627
0.025670 1.095122 -0.473801
0.027629 1.092391 -0.472865
0.031961 1.090877 -0.473819
0.036320 1.089342 -0.474774
0.036748 1.085810 -0.472610
0.037801 1.082609 -0.470950
0.046174 1.082975 -0.474999
0.052712 1.082379 -0.477573
0.055708 1.080055 -0.477382
0.058338 1.077554 -0.476906
0.061024 1.075079 -0.476472
0.063940 1.072711 -0.476213
0.062641 1.068465 -0.472783
0.068099 1.067243 -0.474441
0.073813 1.066106 -0.476270
0.077828 1.064218 -0.476823
0.080547 1.061785 -0.476420
0.085762 1.060402 -0.477849
0.087857 1.057738 -0.477001
0.087655 1.054183 -0.474511
0.082038 1.048546 -0.468167
0.089252 1.048041 -0.471073
0.106512 1.051382 -0.481104
0.113404 1.050668 -0.483712
0.113792 1.047519 -0.481734
-0.544327 1.554971 -0.549771
-0.541023 1.557131 -0.552729
-0.537576 1.558225 -0.554989
-0.534077 1.559780 -0.557589
-0.530496 1.561191 -0.560113
-0.526886 1.563686 -0.563407
-0.523197 1.566252 -0.566776
-0.519421 1.568477 -0.569936
-0.515541 1.569407 -0.572222
-0.511558 1.567766 -0.572736
-0.507665 1.574723 -0.579260
-0.503620 1.576847 -0.582440
-0.499512 1.577091 -0.584321
-0.495378 1.573926 -0.583809
-0.491267 1.568605 -0.581768
-0.487149 1.566152 -0.581746
-0.483026 1.564145 -0.582038
-0.478874 1.563316 -0.583169
-0.474659 1.564252 -0.585568
-0.470451 1.564221 -0.587283
-0.466378 1.560665 -0.586461
-0.462235 1.559115 -0.587079
-0.457983 1.559742 -0.589276
-0.453658 1.561287 -0.592149
-0.449486 1.560072 -0.593017
-0.445328 1.558727 -0.593789
-0.441431 1.554077 -0.592128
-0.437306 1.552755 -0.592905
-0.433156 1.551825 -0.593970
-0.429199 1.548891 -0.593547
-0.425080 1.547862 -0.594533
-0.421221 1.544416 -0.593712
-0.417070 1.543915 -0.595087
-0.412653 1.545696 -0.598181
-0.408530 1.544856 -0.599309
-0.404700 1.541777 -0.598743
-0.400642 1.540610 -0.599619
-0.396926 1.537060 -0.598679
-0.392663 1.537495 -0.600773
-0.389028 1.533710 -0.599638
-0.384873 1.533464 -0.601212
-0.380937 1.531845 -0.601731
-0.377223 1.528987 -0.601288
-0.372726 1.530736 -0.604415
-0.369475 1.525446 -0.602072
-0.365675 1.523376 -0.602226
-0.362898 1.516083 -0.598281
-0.357590 1.521888 -0.604610
-0.353781 1.519990 -0.604896
-0.350136 1.517370 -0.604606
-0.346320 1.515630 -0.605010
-0.342546 1.513736 -0.605290
-0.338826 1.511652 -0.605416
-0.335917 1.506171 -0.602814
-0.332546 1.502823 -0.601908
-0.328869 1.500820 -0.602078
-0.325105 1.499193 -0.602552
-0.321503 1.496966 -0.602537
-0.319628 1.488284 -0.597257
-0.316119 1.485940 -0.597123
-0.312535 1.483915 -0.597248
-0.309324 1.480605 -0.596313
-0.306583 1.475762 -0.594103
-0.303086 1.473605 -0.594102
-0.300195 1.469482 -0.592465
-0.296526 1.467979 -0.593000
-0.292970 1.466118 -0.593237
-0.288864 1.465971 -0.594913
-0.284734 1.465842 -0.596614
-0.281172 1.463966 -0.596848
-0.276913 1.464133 -0.598816
-0.273138 1.462844 -0.599555
-0.271144 1.456527 -0.596004
-0.267192 1.455788 -0.597208
-0.263766 1.453586 -0.597161
-0.260629 1.450628 -0.596460
-0.258051 1.446249 -0.594524
-0.255153 1.442782 -0.593365
-0.251837 1.440431 -0.593172
-0.248218 1.438851 -0.593648
-0.243952 1.438841 -0.595506
-0.242084 1.433007 -0.592248
-0.238219 1.432025 -0.593255
-0.234329 1.431069 -0.594290
-0.229396 1.432471 -0.597430
-0.225724 1.430924 -0.597959
-0.223223 1.426773 -0.596157
-0.219801 1.424698 -0.596210
-0.217855 1.419458 -0.593408
-0.213849 1.418672 -0.594617
-0.210223 1.417057 -0.595083
-0.208077 1.412398 -0.592775
-0.205402 1.408886 -0.591501
-0.201544 1.407771 -0.592419
-0.198816 1.404415 -0.591278
-0.195367 1.402490 -0.591452
-0.192277 1.399879 -0.590991
-0.189658 1.396400 -0.589718
-0.186902 1.393216 -0.588712
-0.183415 1.391395 -0.588977
-0.179645 1.390074 -0.589717
-0.176736 1.387209 -0.589002
-0.173184 1.385489 -0.589368
-0.169624 1.383772 -0.589741
-0.166989 1.380474 -0.588604
-0.164170 1.377516 -0.587786
-0.160407 1.376143 -0.588490
-0.156639 1.374758 -0.589187
-0.153458 1.372407 -0.588953
-0.151168 1.368651 -0.587347
-0.147839 1.366563 -0.587362
-0.144373 1.364687 -0.587586
-0.141511 1.361884 -0.586898
-0.138129 1.359881 -0.586996
-0.134754 1.357863 -0.587082
-0.130913 1.356526 -0.587848
-0.129414 1.351777 -0.585205
-0.125991 1.349844 -0.585372
-0.122715 1.347699 -0.585328
-0.119857 1.344970 -0.584692
-0.115550 1.344249 -0.586095
-0.111714 1.342852 -0.586820
-0.109452 1.339326 -0.585367
-0.105178 1.338496 -0.586681
-0.101018 1.337484 -0.587819
-0.101759 1.330113 -0.582363
-0.097363 1.329422 -0.583829
-0.092137 1.329739 -0.586365
-0.089984 1.326170 -0.584837
-0.085514 1.325482 -0.586339
-0.082847 1.322568 -0.585496
-0.080230 1.319611 -0.584601
-0.076882 1.317536 -0.584643
-0.072694 1.316441 -0.585741
-0.069841 1.313773 -0.585153
-0.066926 1.311185 -0.584649
-0.062673 1.310117 -0.585795
-0.059682 1.307611 -0.585383
-0.057240 1.304504 -0.584311
-0.054000 1.302286 -0.584211
-0.049049 1.301907 -0.586149
-0.047037 1.298354 -0.584579
-0.043571 1.296359 -0.584737
-0.039703 1.294773 -0.585358
-0.036086 1.292911 -0.585677
-0.032914 1.290585 -0.585477
-0.029532 1.288467 -0.585516
-0.027431 1.285072 -0.584101
-0.023165 1.283821 -0.585136
-0.017912 1.283498 -0.587256
-0.046563 1.250676 -0.551747
-0.049339 1.243035 -0.545219
-0.048423 1.238969 -0.542815
-0.046319 1.236041 -0.541730
-0.045958 1.231534 -0.538776
-0.072039 1.203205 -0.507528
-0.068732 1.201703 -0.507971
-0.079036 1.188178 -0.494016
-0.080196 1.182887 -0.489844
-0.076167 1.182139 -0.491134
-0.072031 1.181447 -0.492512
-0.069425 1.179433 -0.492292
-0.063877 1.179861 -0.495079
-0.060134 1.178742 -0.495990
-0.056903 1.177180 -0.496367
-0.056390 1.173416 -0.494008
-0.053243 1.171776 -0.494297
-0.051459 1.169050 -0.493226
-0.055719 1.161646 -0.486218
-0.058576 1.155435 -0.480664
-0.058926 1.151212 -0.477608
-0.055899 1.149559 -0.477841
-0.052993 1.147800 -0.477948
-0.051966 1.144653 -0.476256
-0.050848 1.141588 -0.474664
-0.044952 1.141947 -0.477579
-0.040827 1.140990 -0.478794
-0.042314 1.136088 -0.474770
-0.041153 1.133065 -0.473232
-0.036073 1.132719 -0.475302
-0.029739 1.133160 -0.478481
-0.024864 1.132560 -0.480289
-0.026848 1.127418 -0.475883
-0.019823 1.128166 -0.479591
-0.017419 1.125877 -0.479130
-0.018982 1.121074 -0.475153
-0.019680 1.116863 -0.471974
-0.018227 1.114013 -0.470703
-0.012573 1.113720 -0.473087
-0.007090 1.113263 -0.475283
-0.000817 1.113215 -0.478120
0.000009 1.109912 -0.476263
0.001926 1.107253 -0.475341
0.007284 1.106548 -0.477320
0.012627 1.105781 -0.479252
0.015387 1.103527 -0.478996
0.017992 1.101172 -0.478602
0.018232 1.097527 -0.476255
0.019129 1.094253 -0.474460
0.021127 1.091571 -0.473571
0.022355 1.088487 -0.472059
0.025291 1.086284 -0.471926
0.028095 1.084000 -0.471678
0.030171 1.081342 -0.470844
0.032693 1.078902 -0.470363
0.038101 1.077850 -0.472144
0.050873 1.080263 -0.479642
0.050721 1.076465 -0.477017
0.054484 1.074516 -0.477436
0.059243 1.073005 -0.478607
0.058147 1.068837 -0.475296
0.060753 1.066363 -0.474827
0.066370 1.065211 -0.476629
0.068188 1.062396 -0.475563
0.070798 1.059941 -0.475100
0.078013 1.059425 -0.478057
0.078641 1.056160 -0.476131
0.080938 1.053620 -0.475457
0.081179 1.050286 -0.473299
0.082928 1.047603 -0.472267
0.093598 1.048422 -0.477687
0.101036 1.047949 -0.480746
0.105052 1.046172 -0.481348
0.106100 1.043317 -0.479855
-0.545518 1.552007 -0.552280
-0.542246 1.554386 -0.555409
-0.538914 1.557258 -0.558906
-0.535395 1.558265 -0.561148
-0.531795 1.559068 -0.563272
-0.528166 1.560765 -0.566035
-0.524462 1.562411 -0.568787
-0.520741 1.565735 -0.572733
-0.516884 1.567048 -0.575298
-0.512968 1.568369 -0.577890
-0.509070 1.574649 -0.583994
-0.505016 1.575914 -0.586594
-0.500909 1.576380 -0.588644
-0.496765 1.574773 -0.589231
-0.492645 1.567750 -0.585956
-0.488537 1.563841 -0.584885
-0.484440 1.560444 -0.584174
-0.480342 1.557799 -0.583995
-0.476184 1.557595 -0.585576
-0.472014 1.557311 -0.587103
-0.467941 1.554334 -0.586677
-0.463765 1.554038 -0.588198
-0.459533 1.554646 -0.590385
-0.455415 1.552989 -0.590916
-0.451034 1.555626 -0.594610
-0.447017 1.552423 -0.594002
-0.443109 1.548155 -0.592593
-0.438978 1.547179 -0.593618
-0.434905 1.545583 -0.594180
-0.430769 1.544804 -0.595351
-0.426815 1.542204 -0.595153
-0.422872 1.539727 -0.595040
-0.418810 1.538552 -0.595905
-0.414559 1.539087 -0.598066
-0.410267 1.539862 -0.600417
-0.406643 1.535256 -0.598667
-0.402789 1.532744 -0.598504
-0.398987 1.530019 -0.598170
-0.394913 1.529354 -0.599416
-0.391105 1.526926 -0.599301
-0.387393 1.524021 -0.598808
-0.382903 1.526078 -0.602170
-0.378776 1.525785 -0.603713
-0.375291 1.521774 -0.602347
-0.371601 1.519115 -0.602030
-0.368072 1.515707 -0.601115
-0.364259 1.513946 -0.601493
-0.360166 1.513646 -0.603028
-0.356992 1.508807 -0.600954
-0.352120 1.512285 -0.605507
-0.349728 1.504024 -0.600676
-0.344896 1.507150 -0.604967
-0.341674 1.502995 -0.603408
-0.337738 1.502048 -0.604432
-0.334097 1.499862 -0.604453
-0.331400 1.493890 -0.601386
-0.327519 1.492845 -0.602323
-0.324827 1.487192 -0.599485
-0.321558 1.483922 -0.598586
-0.318006 1.481785 -0.598613
-0.314503 1.479509 -0.598523
-0.311640 1.475015 -0.596587
-0.308344 1.472148 -0.595992
-0.304991 1.469536 -0.595604
-0.301804 1.466422 -0.594790
-0.298560 1.463562 -0.594183
-0.295146 1.461294 -0.594070
-0.292405 1.456966 -0.592209
-0.289829 1.452238 -0.589994
-0.285507 1.452856 -0.592323
-0.281576 1.452238 -0.593608
-0.278958 1.447808 -0.591627
-0.274336 1.449137 -0.594594
-0.270190 1.449037 -0.596343
-0.266367 1.447997 -0.597289
-0.263682 1.443892 -0.595572
-0.260413 1.441403 -0.595254
-0.257265 1.438626 -0.594680
-0.254972 1.433716 -0.592226
-0.251536 1.431762 -0.592362
-0.248063 1.429899 -0.592579
-0.243634 1.430338 -0.594844
-0.241433 1.425427 -0.592352
-0.237907 1.423702 -0.592694
-0.234310 1.422131 -0.593176
-0.229002 1.424408 -0.597128
-0.225148 1.423327 -0.598072
-0.223437 1.417538 -0.594750
-0.220483 1.414538 -0.593944
-0.216241 1.414298 -0.595654
-0.212162 1.413664 -0.597015
-0.212026 1.404898 -0.590901
-0.208977 1.402223 -0.590369
-0.205215 1.400988 -0.591168
-0.201885 1.398882 -0.591164
-0.198573 1.396743 -0.591128
-0.195475 1.394202 -0.590715
-0.192833 1.390818 -0.589506
-0.189909 1.387995 -0.588819
-0.187269 1.384676 -0.587655
-0.183136 1.384075 -0.589071
