ply
format ascii 1.0
comment ---
element vertex 1685
property float x
property float y
property float z
element face 0
property list uchar uint vertex_indices
end_header
-0.313225 1.729102 -0.427901
-0.307909 1.731683 -0.430398
-0.302255 1.735694 -0.433498
-0.296563 1.739644 -0.436583
-0.290222 1.746278 -0.440809
-0.284712 1.748930 -0.443366
-0.279261 1.751172 -0.445754
-0.273757 1.753498 -0.448182
-0.267978 1.756805 -0.451034
-0.261407 1.763110 -0.455180
-0.255787 1.765376 -0.457601
-0.248305 1.774663 -0.463064
-0.243033 1.775210 -0.464758
-0.237040 1.778353 -0.467581
-0.229958 1.785272 -0.472062
-0.223829 1.788495 -0.474940
-0.217696 1.791562 -0.477757
-0.210835 1.796959 -0.481610
-0.204547 1.800183 -0.484514
-0.198438 1.802654 -0.487091
-0.190254 1.811709 -0.492611
-0.183832 1.814785 -0.495481
-0.176507 1.820528 -0.499556
-0.170507 1.821945 -0.501698
-0.162764 1.828533 -0.506181
-0.156482 1.830499 -0.508587
-0.148378 1.837674 -0.513369
-0.140427 1.844123 -0.517840
-0.132078 1.851436 -0.522727
-0.125494 1.853533 -0.525238
-0.116677 1.861638 -0.530526
-0.108326 1.868172 -0.535113
-0.101535 1.870288 -0.537670
-0.095452 1.870419 -0.539310
-0.087401 1.875569 -0.543296
-0.077087 1.886267 -0.549899
-0.068279 1.892809 -0.554581
-0.060921 1.895507 -0.557474
-0.050944 1.904447 -0.563329
-0.044709 1.904068 -0.564793
-0.035557 1.910547 -0.569522
-0.026961 1.915475 -0.573533
-0.017019 1.923302 -0.578951
-0.009542 1.925236 -0.581565
-0.000329 1.930944 -0.586007
0.005376 1.928657 -0.586605
0.012657 1.929799 -0.588864
0.022228 1.935777 -0.593485
0.030559 1.938884 -0.596726
0.038559 1.941144 -0.599567
0.047313 1.944831 -0.603122
0.060393 1.957209 -0.610975
0.061999 1.945998 -0.607213
0.068545 1.944853 -0.608412
0.072548 1.938647 -0.607097
0.081218 1.941603 -0.610341
0.089869 1.944377 -0.613508
0.097434 1.944941 -0.615582
0.103571 1.942733 -0.616267
0.110161 1.941341 -0.617365
0.116290 1.939060 -0.618015
0.120796 1.933817 -0.617158
0.130507 1.937934 -0.621067
0.137504 1.937075 -0.622450
0.144177 1.935594 -0.623519
0.148470 1.929958 -0.622451
0.155628 1.929266 -0.623927
0.161886 1.926993 -0.624589
0.169326 1.926664 -0.626264
0.173700 1.921209 -0.625271
0.182000 1.922202 -0.627643
0.186809 1.917464 -0.627018
0.192157 1.913614 -0.626855
0.199126 1.912328 -0.628041
0.206003 1.910848 -0.629130
0.208722 1.902913 -0.626789
0.214471 1.899692 -0.626947
0.220587 1.897020 -0.627395
0.229259 1.898139 -0.629881
0.234287 1.893780 -0.629428
0.237992 1.887506 -0.627934
0.241740 1.881350 -0.626493
0.245497 1.875261 -0.625075
0.249927 1.870175 -0.624194
0.257784 1.869911 -0.625944
0.263794 1.867021 -0.626261
0.269156 1.863225 -0.626079
0.274428 1.859310 -0.625827
0.277033 1.851827 -0.623591
0.280444 1.845489 -0.621975
0.285058 1.840783 -0.621259
0.291303 1.838215 -0.621733
0.294318 1.831473 -0.619861
0.299455 1.827490 -0.619531
0.304720 1.823670 -0.619290
0.308937 1.818546 -0.618303
0.314706 1.815362 -0.618413
0.320795 1.812555 -0.618738
0.324002 1.806245 -0.617053
0.328777 1.801858 -0.616461
0.332182 1.795859 -0.614932
0.335361 1.789637 -0.613262
0.339394 1.784452 -0.612181
0.343305 1.779151 -0.611024
0.348439 1.775267 -0.610686
0.353565 1.771371 -0.610337
0.354741 1.763073 -0.607388
0.357069 1.756130 -0.605218
0.361359 1.751386 -0.604338
0.366810 1.747910 -0.604205
0.372302 1.744467 -0.604089
0.378188 1.741426 -0.604212
0.375452 1.729319 -0.598876
0.385461 1.730605 -0.601593
0.387289 1.723371 -0.599162
0.388192 1.715253 -0.596174
0.392417 1.710561 -0.595255
0.399082 1.708311 -0.595826
0.404450 1.704740 -0.595586
0.409072 1.700423 -0.594883
0.414095 1.696492 -0.594414
0.418270 1.691738 -0.593429
0.421713 1.686295 -0.592005
0.425579 1.681269 -0.590832
0.427448 1.674393 -0.588487
0.431218 1.669315 -0.587259
0.434887 1.664154 -0.585969
0.436393 1.657050 -0.583435
0.439424 1.651359 -0.581782
0.445083 1.648015 -0.581620
0.448487 1.642668 -0.580170
0.451127 1.636668 -0.578289
0.456160 1.632749 -0.577742
0.459144 1.627070 -0.576047
0.463023 1.622162 -0.574843
0.466744 1.617122 -0.573545
0.470246 1.611904 -0.572122
0.474132 1.607005 -0.570900
0.477193 1.601438 -0.569228
0.481032 1.596506 -0.567967
0.482093 1.589370 -0.565229
0.484941 1.583679 -0.563439
0.488298 1.578397 -0.561913
0.490733 1.572410 -0.559904
0.494682 1.567593 -0.558675
0.498372 1.562576 -0.557304
0.502650 1.557995 -0.556224
0.506183 1.552854 -0.554756
0.509708 1.547708 -0.553278
0.511408 1.541246 -0.550883
0.512779 1.534578 -0.548332
0.515577 1.528951 -0.546492
0.519068 1.523822 -0.544992
0.522355 1.518554 -0.543389
0.526460 1.513853 -0.542180
0.529512 1.508434 -0.540461
0.531874 1.502564 -0.538414
0.536316 1.498096 -0.537361
0.540109 1.493197 -0.535999
0.538714 1.484939 -0.532211
0.541378 1.479366 -0.530346
0.547413 1.475955 -0.530051
0.555800 1.474002 -0.530830
0.557248 1.467693 -0.528427
0.557786 1.460875 -0.525638
0.572481 1.462716 -0.529260
0.560642 1.448502 -0.520962
0.563768 1.443409 -0.519429
0.567181 1.438524 -0.518051
0.578549 1.438300 -0.520197
0.572902 1.428239 -0.514901
0.577339 1.424070 -0.514066
0.582888 1.420563 -0.513744
0.586475 1.415994 -0.512611
0.589693 1.411277 -0.511364
0.591613 1.405917 -0.509615
0.591496 1.399542 -0.507062
0.602765 1.399343 -0.509359
0.608254 1.396079 -0.509262
0.615529 1.393800 -0.509956
0.607548 1.383676 -0.504382
0.603074 1.375545 -0.500358
0.608378 1.372525 -0.500432
0.614389 1.369920 -0.500849
0.627545 1.370916 -0.504222
-0.486579 1.624080 -0.344906
-0.483573 1.615854 -0.342572
-0.480325 1.618544 -0.344285
-0.477094 1.617717 -0.344737
-0.473639 1.622527 -0.347312
-0.470283 1.621816 -0.347878
-0.466708 1.625443 -0.350093
-0.463148 1.626792 -0.351497
-0.459570 1.627197 -0.352582
-0.455931 1.627752 -0.353755
-0.452128 1.630264 -0.355699
-0.448079 1.635656 -0.358769
-0.444149 1.637837 -0.360660
-0.440285 1.638199 -0.361888
-0.436298 1.639619 -0.363547
-0.432325 1.640231 -0.364922
-0.427424 1.651286 -0.370348
-0.423653 1.648213 -0.370356
-0.419443 1.649766 -0.372170
-0.414521 1.658034 -0.376625
-0.410190 1.659616 -0.378500
-0.406000 1.659551 -0.379747
-0.401632 1.660853 -0.381545
-0.396929 1.664679 -0.384355
-0.392032 1.669606 -0.387625
-0.386991 1.675138 -0.391158
-0.382287 1.677624 -0.393494
-0.377297 1.681878 -0.396555
-0.372671 1.683223 -0.398458
-0.367954 1.685009 -0.400547
-0.362726 1.689897 -0.403906
-0.357744 1.692876 -0.406502
-0.352533 1.696988 -0.409573
-0.347128 1.701942 -0.413003
-0.341980 1.705090 -0.415702
-0.336740 1.708514 -0.418525
-0.330604 1.716525 -0.423266
-0.325613 1.718068 -0.425328
-0.320181 1.721738 -0.428285
-0.313991 1.728936 -0.432736
-0.308158 1.734006 -0.436308
-0.303000 1.735597 -0.438417
-0.297494 1.738679 -0.441163
-0.291798 1.742433 -0.444203
-0.285551 1.748393 -0.448197
-0.280212 1.750149 -0.450397
-0.274782 1.752165 -0.452712
-0.267770 1.760551 -0.457791
-0.262053 1.763334 -0.460456
-0.255937 1.767531 -0.463743
-0.249484 1.772809 -0.467514
-0.243804 1.774910 -0.469902
-0.237734 1.778329 -0.472875
-0.230889 1.784379 -0.477020
-0.224779 1.787538 -0.479897
-0.218573 1.790859 -0.482855
-0.211956 1.795421 -0.486374
-0.205821 1.798144 -0.489082
-0.200011 1.799645 -0.491245
-0.192032 1.808080 -0.496543
-0.184659 1.814236 -0.500833
-0.178347 1.816798 -0.503506
-0.171874 1.819717 -0.506349
-0.165418 1.822427 -0.509104
-0.156807 1.831416 -0.514750
-0.148767 1.838379 -0.519490
-0.141471 1.842911 -0.523127
-0.134229 1.847086 -0.526613
-0.126645 1.852026 -0.530467
-0.118059 1.859504 -0.535522
-0.110936 1.862728 -0.538608
-0.102875 1.868294 -0.542805
-0.096312 1.869689 -0.545056
-0.088121 1.875194 -0.549255
-0.079748 1.880935 -0.553584
-0.069582 1.890947 -0.559965
-0.062030 1.894127 -0.563118
-0.057181 1.890549 -0.563047
-0.043811 1.907515 -0.572836
-0.036862 1.908696 -0.575074
-0.027074 1.916417 -0.580480
-0.018195 1.921757 -0.584759
-0.012121 1.920491 -0.585845
-0.005217 1.921049 -0.587821
0.002259 1.922790 -0.590381
0.008155 1.920951 -0.591195
0.022050 1.936355 -0.600500
0.029138 1.936781 -0.602458
0.037218 1.939206 -0.605412
0.043939 1.938671 -0.606908
0.051402 1.939595 -0.609136
0.064399 1.951618 -0.616926
0.063249 1.934995 -0.610381
0.069806 1.933916 -0.611617
0.076463 1.932981 -0.612928
0.084113 1.933903 -0.615184
0.091068 1.933406 -0.616728
0.099907 1.936381 -0.620049
0.105249 1.932719 -0.619991
0.108471 1.925181 -0.617938
0.115089 1.923895 -0.619088
0.121842 1.922804 -0.620342
0.131400 1.926624 -0.624144
0.137020 1.923391 -0.624302
0.144550 1.923458 -0.626177
0.150992 1.921585 -0.627046
0.160549 1.924937 -0.630660
0.163324 1.916818 -0.628254
0.172092 1.918689 -0.631105
0.177169 1.914423 -0.630720
0.180053 1.906639 -0.628460
0.185699 1.903354 -0.628581
0.192216 1.901438 -0.629433
0.196018 1.895254 -0.627996
0.203369 1.894601 -0.629526
0.209228 1.891611 -0.629800
0.214255 1.887353 -0.629386
0.219383 1.883261 -0.629058
0.228550 1.885139 -0.631980
0.232694 1.879569 -0.630844
0.236578 1.873665 -0.629515
0.239781 1.866839 -0.627666
0.245574 1.863739 -0.627862
0.252792 1.862621 -0.629156
0.258917 1.859936 -0.629585
0.262802 1.854166 -0.628293
0.265933 1.847420 -0.626442
0.271317 1.843755 -0.626309
0.277478 1.841120 -0.626753
0.283481 1.838254 -0.627068
0.285717 1.830480 -0.624596
0.289570 1.824867 -0.623337
0.295203 1.821556 -0.623383
0.300657 1.818008 -0.623290
0.304366 1.812284 -0.621944
0.304595 1.802309 -0.618133
0.311842 1.801020 -0.619324
0.323057 1.804470 -0.623276
0.324934 1.796613 -0.620659
0.327383 1.789512 -0.618465
0.330178 1.782879 -0.616530
0.335479 1.779208 -0.616323
0.339117 1.773621 -0.614981
0.341195 1.766297 -0.612598
0.343425 1.759210 -0.610337
0.347456 1.754189 -0.609293
0.353691 1.751619 -0.609709
0.358918 1.747919 -0.609447
0.361220 1.741053 -0.607270
0.366941 1.737898 -0.607324
0.371743 1.733751 -0.606775
0.375868 1.728894 -0.605787
0.376014 1.719923 -0.602272
0.381123 1.716144 -0.601921
0.386871 1.713009 -0.601962
0.387853 1.705051 -0.599019
0.393375 1.701692 -0.598909
0.400288 1.699687 -0.599642
0.407581 1.698009 -0.600582
0.413302 1.694755 -0.600540
0.417206 1.689738 -0.599386
0.419815 1.683503 -0.597453
0.423300 1.678126 -0.596050
0.433181 1.678711 -0.598433
0.430843 1.667948 -0.593581
0.435813 1.663967 -0.593042
0.439676 1.658974 -0.591849
0.439179 1.650093 -0.588134
0.444042 1.646036 -0.587520
0.448080 1.641243 -0.586424
0.449436 1.634127 -0.583801
0.453189 1.629115 -0.582540
0.458042 1.625041 -0.581888
0.462545 1.620657 -0.581027
0.465515 1.614988 -0.579308
0.469250 1.609965 -0.578008
0.472372 1.604443 -0.576367
0.476961 1.600116 -0.575517
0.479535 1.594167 -0.573569
0.483809 1.589581 -0.572531
0.484912 1.582502 -0.569795
0.487876 1.576908 -0.568053
0.492237 1.572395 -0.567041
0.497301 1.568404 -0.566383
0.497897 1.561034 -0.563393
0.501060 1.555619 -0.561737
0.505197 1.550927 -0.560575
0.508302 1.545474 -0.558879
0.509083 1.538354 -0.556004
0.514982 1.534925 -0.555712
0.516334 1.528253 -0.553130
0.519158 1.522643 -0.551288
0.522233 1.517218 -0.549569
0.525823 1.512155 -0.548103
0.529355 1.507054 -0.546605
0.532241 1.501525 -0.544794
0.535361 1.496166 -0.543100
0.538537 1.490857 -0.541436
0.541339 1.485319 -0.539600
0.542988 1.479063 -0.537231
0.548933 1.475566 -0.536889
0.552665 1.470664 -0.535513
0.557260 1.466310 -0.534545
0.562182 1.462162 -0.533734
0.560721 1.454152 -0.530020
0.558391 1.445713 -0.525959
0.562177 1.441005 -0.524708
0.568550 1.437841 -0.524637
0.577827 1.436361 -0.525870
0.579217 1.430326 -0.523615
0.582669 1.425531 -0.522311
0.582106 1.418533 -0.519289
0.586631 1.414459 -0.518540
0.590861 1.410267 -0.517700
0.591793 1.404336 -0.515486
0.594382 1.399387 -0.514041
0.601598 1.396975 -0.514619
0.599521 1.389704 -0.511304
0.605720 1.386874 -0.511552
0.607862 1.382001 -0.510147
0.607195 1.375789 -0.507637
0.616418 1.374688 -0.509305
0.618898 1.370242 -0.508230
0.625428 1.367893 -0.508887
-0.487975 1.607739 -0.342591
-0.484755 1.613706 -0.345517
-0.481550 1.614095 -0.346404
-0.478127 1.620727 -0.349664
-0.474713 1.623275 -0.351438
-0.471283 1.624035 -0.352577
-0.467749 1.625944 -0.354185
-0.464203 1.626496 -0.355316
-0.460597 1.627120 -0.356507
-0.456869 1.629052 -0.358229
-0.453137 1.629886 -0.359566
-0.449237 1.632629 -0.361666
-0.445211 1.636242 -0.364134
-0.441337 1.636604 -0.365382
-0.437063 1.641775 -0.368519
-0.432826 1.645383 -0.371085
-0.428799 1.645676 -0.372387
-0.424396 1.649813 -0.375215
-0.420191 1.651081 -0.376944
-0.415855 1.653279 -0.379060
-0.411362 1.656537 -0.381617
-0.406924 1.658772 -0.383789
-0.402671 1.658992 -0.385173
-0.397556 1.666308 -0.389415
-0.392611 1.671505 -0.392834
-0.388103 1.672766 -0.394684
-0.383241 1.676465 -0.397534
-0.378486 1.679029 -0.399938
-0.373469 1.683139 -0.402986
-0.368779 1.684693 -0.405000
-0.363479 1.690032 -0.408581
-0.358520 1.692823 -0.411126
-0.353094 1.698226 -0.414765
-0.347773 1.702625 -0.418002
-0.342569 1.706046 -0.420843
-0.336513 1.713958 -0.425581
-0.331772 1.714278 -0.427140
-0.326536 1.717141 -0.429775
-0.321363 1.719486 -0.432197
-0.314719 1.729002 -0.437681
-0.309682 1.730194 -0.439630
-0.303674 1.735884 -0.443512
-0.298212 1.738736 -0.446186
-0.292371 1.743129 -0.449533
-0.286865 1.745799 -0.452141
-0.281253 1.748765 -0.454884
-0.275766 1.751034 -0.457329
-0.269244 1.757428 -0.461588
-0.263001 1.762380 -0.465228
-0.257516 1.764094 -0.467450
-0.250857 1.770229 -0.471636
-0.245333 1.771773 -0.473795
-0.238862 1.776724 -0.477477
-0.231860 1.783371 -0.481932
-0.225580 1.787135 -0.485108
-0.219309 1.790681 -0.488196
-0.213221 1.793412 -0.490925
-0.207191 1.795801 -0.493504
-0.199410 1.803849 -0.498668
-0.192314 1.809333 -0.502683
-0.185370 1.814082 -0.506377
-0.179085 1.816544 -0.509031
-0.172416 1.820052 -0.512175
-0.164656 1.826697 -0.516783
-0.156835 1.833247 -0.521367
-0.149755 1.837348 -0.524828
-0.142840 1.840779 -0.527989
-0.135258 1.845937 -0.531971
-0.128552 1.848416 -0.534708
-0.119639 1.856839 -0.540262
-0.112769 1.859397 -0.543063
-0.103500 1.868222 -0.548853
-0.096720 1.870167 -0.551389
-0.086699 1.880387 -0.557893
-0.080384 1.880774 -0.559711
-0.070705 1.889550 -0.565572
-0.065117 1.887857 -0.566404
-0.056822 1.892760 -0.570431
-0.045416 1.904955 -0.578022
-0.037952 1.907366 -0.580882
-0.030604 1.909369 -0.583552
-0.022113 1.913886 -0.587467
-0.015559 1.913789 -0.589128
-0.007904 1.916100 -0.591983
-0.000224 1.918329 -0.594809
0.006788 1.918965 -0.596854
0.018806 1.930323 -0.604253
0.025291 1.929512 -0.605606
0.032541 1.930255 -0.607742
0.042042 1.935582 -0.612193
0.046824 1.931016 -0.611671
0.053589 1.930507 -0.613196
0.058367 1.925960 -0.612674
0.065535 1.926168 -0.614567
0.072824 1.926530 -0.616547
0.078393 1.923495 -0.616792
0.085180 1.922774 -0.618224
0.093698 1.925245 -0.621310
0.098521 1.920722 -0.620789
0.104500 1.918350 -0.621378
0.108292 1.911994 -0.619891
0.118152 1.916576 -0.624109
0.125843 1.917134 -0.626240
0.132449 1.915706 -0.627337
0.137968 1.912356 -0.627422
0.145261 1.912034 -0.629107
0.153761 1.913681 -0.631847
0.161633 1.914163 -0.633979
0.160675 1.899990 -0.628288
0.165886 1.896123 -0.628084
0.174584 1.897888 -0.630907
0.181068 1.896006 -0.631777
0.185688 1.891150 -0.631038
0.191857 1.888741 -0.631622
0.197577 1.885615 -0.631816
0.202051 1.880580 -0.630965
0.207684 1.877326 -0.631083
0.211678 1.871623 -0.629851
0.217933 1.869301 -0.630476
0.225694 1.869149 -0.632305
0.230453 1.864592 -0.631694
0.233621 1.857783 -0.629822
0.241069 1.857089 -0.631357
0.245908 1.852686 -0.630817
0.248004 1.844509 -0.628146
0.251669 1.838574 -0.626723
0.258493 1.836961 -0.627738
0.265980 1.836193 -0.629238
0.273083 1.834857 -0.630422
0.277705 1.830217 -0.629720
0.283340 1.826911 -0.629778
0.285500 1.819134 -0.627257
0.290373 1.814887 -0.626759
0.298025 1.814145 -0.628289
0.300022 1.806304 -0.625694
0.300956 1.797235 -0.622361
0.304897 1.791939 -0.621217
0.310841 1.789091 -0.621503
0.318706 1.788518 -0.623133
0.319628 1.779669 -0.619869
0.321887 1.772486 -0.617571
0.324774 1.766098 -0.615730
0.328255 1.760440 -0.614311
0.335948 1.759598 -0.615774
0.338906 1.753375 -0.614002
0.342483 1.747884 -0.612659
0.350106 1.746879 -0.614027
0.353458 1.741158 -0.612532
0.357735 1.736468 -0.611654
0.362110 1.731897 -0.610842
0.368398 1.729357 -0.611273
0.368824 1.720649 -0.607896
0.371160 1.714010 -0.605776
0.376660 1.710669 -0.605692
0.380205 1.705324 -0.604354
0.385152 1.701413 -0.603905
0.390402 1.697796 -0.603636
0.397117 1.695611 -0.604268
0.405013 1.694536 -0.605608
0.410200 1.690778 -0.605250
0.413601 1.685297 -0.603791
0.411873 1.674978 -0.599221
0.416272 1.670521 -0.598386
0.425728 1.670761 -0.600574
0.427517 1.663857 -0.598153
0.436394 1.663451 -0.599937
0.438615 1.656963 -0.597766
0.442421 1.651926 -0.596530
0.441843 1.643023 -0.592745
0.445874 1.638235 -0.591646
0.449131 1.632777 -0.590096
0.451463 1.626541 -0.588018
0.457742 1.623682 -0.588178
0.460629 1.617934 -0.586407
0.463678 1.612339 -0.584726
0.466611 1.606663 -0.582979
0.472363 1.603297 -0.582786
0.473713 1.596350 -0.580158
0.477868 1.591683 -0.579069
0.481601 1.586674 -0.577740
0.485448 1.581754 -0.576465
0.490450 1.577725 -0.575798
0.492626 1.571510 -0.573614
0.496450 1.566566 -0.572301
0.498566 1.560338 -0.570084
0.500730 1.554168 -0.567895
0.504056 1.548874 -0.566310
0.507679 1.543799 -0.564873
0.511146 1.538610 -0.563349
0.512822 1.532148 -0.560909
0.517246 1.527649 -0.559864
0.518986 1.521269 -0.557462
0.521507 1.515454 -0.555455
0.526409 1.511280 -0.554632
0.530901 1.506811 -0.553595
0.532267 1.500247 -0.551021
0.534685 1.494412 -0.548972
0.537966 1.489164 -0.547348
0.540883 1.483691 -0.545552
0.544668 1.478791 -0.544178
0.547095 1.473040 -0.542166
0.552395 1.469114 -0.541520
0.557251 1.464906 -0.540666
0.559451 1.459074 -0.538581
0.562390 1.453729 -0.536861
0.559140 1.444716 -0.532322
0.563091 1.440079 -0.531125
0.572435 1.438620 -0.532395
0.577294 1.434529 -0.531638
0.584892 1.432025 -0.532129
0.592699 1.429631 -0.532725
0.585441 1.418804 -0.526666
0.588309 1.413764 -0.525159
0.590958 1.408667 -0.523600
0.592590 1.403088 -0.521649
0.594711 1.397855 -0.519967
0.604626 1.390611 -0.519204
0.604951 1.384670 -0.516921
0.606298 1.379363 -0.515143
0.607464 1.374065 -0.513357
0.614991 1.372068 -0.514310
0.622225 1.369965 -0.515188
0.627225 1.366807 -0.515185
-0.489060 1.613263 -0.348378
-0.485894 1.613889 -0.349343
-0.482608 1.617372 -0.351425
-0.479258 1.619982 -0.353216
-0.475804 1.623506 -0.355394
-0.472369 1.623818 -0.356389
-0.468879 1.624092 -0.357402
-0.465288 1.625466 -0.358870
-0.461608 1.627394 -0.360587
-0.457877 1.629030 -0.362225
-0.454088 1.630580 -0.363863
-0.450315 1.630855 -0.365038
-0.446175 1.636183 -0.368210
-0.442220 1.637463 -0.369838
-0.437985 1.641895 -0.372730
-0.433944 1.642824 -0.374276
-0.429842 1.643978 -0.375933
-0.425350 1.649101 -0.379188
-0.421090 1.650850 -0.381130
-0.416760 1.652879 -0.383204
-0.412419 1.654570 -0.385163
-0.407712 1.659301 -0.388364
-0.403028 1.663229 -0.391265
-0.398400 1.666172 -0.393787
-0.393527 1.670739 -0.396989
-0.388968 1.672354 -0.399002
-0.384102 1.676052 -0.401882
-0.379553 1.677082 -0.403677
-0.374199 1.683583 -0.407745
-0.369635 1.684221 -0.409398
-0.364627 1.687643 -0.412217
-0.359306 1.692767 -0.415760
-0.353691 1.699307 -0.419916
-0.348631 1.702100 -0.422510
-0.343571 1.704682 -0.425023
-0.338105 1.709336 -0.428424
-0.332740 1.713141 -0.431476
-0.327774 1.714585 -0.433526
-0.322507 1.717457 -0.436193
-0.315854 1.727078 -0.441780
-0.310757 1.728583 -0.443878
-0.305061 1.732824 -0.447168
-0.298608 1.740333 -0.451895
-0.293200 1.742708 -0.454393
-0.287932 1.744318 -0.456560
-0.281931 1.748983 -0.460076
-0.276393 1.751445 -0.462630
-0.269503 1.759341 -0.467602
-0.263965 1.761392 -0.469989
-0.257987 1.765057 -0.473103
-0.252380 1.767087 -0.475491
-0.246423 1.770318 -0.478424
-0.239696 1.776239 -0.482582
-0.233165 1.781170 -0.486306
-0.226939 1.784769 -0.489437
-0.220687 1.788273 -0.492533
-0.213470 1.794922 -0.497081
-0.206328 1.801022 -0.501394
-0.199727 1.805053 -0.504771
-0.193011 1.809262 -0.508241
-0.186796 1.811664 -0.510884
-0.179414 1.817600 -0.515181
-0.172669 1.821307 -0.518453
-0.166461 1.823196 -0.520883
-0.158748 1.829468 -0.525382
-0.151010 1.835549 -0.529810
-0.145622 1.834569 -0.530914
-0.136498 1.844200 -0.537056
-0.129722 1.846884 -0.539918
-0.121814 1.852546 -0.544213
-0.114221 1.857110 -0.548000
-0.106750 1.861144 -0.551548
-0.098352 1.867436 -0.556200
-0.090009 1.873327 -0.560680
-0.081719 1.878846 -0.564999
-0.073654 1.883564 -0.568948
-0.065342 1.888693 -0.573115
-0.056628 1.894589 -0.577677
-0.049322 1.896848 -0.580471
-0.039371 1.905266 -0.586317
-0.033253 1.904383 -0.587586
-0.027036 1.903683 -0.588948
-0.018531 1.908150 -0.592887
-0.008645 1.915532 -0.598301
-0.000973 1.917726 -0.601142
0.005538 1.917241 -0.602648
0.012085 1.916771 -0.604164
0.018193 1.915302 -0.605179
0.030148 1.926112 -0.612431
0.032736 1.917092 -0.609620
0.044230 1.926505 -0.616207
0.047853 1.919655 -0.614494
0.054403 1.918757 -0.615825
0.060749 1.917402 -0.616925
0.068352 1.918456 -0.619274
0.073618 1.914904 -0.619242
0.078509 1.910648 -0.618839
0.087660 1.914427 -0.622627
0.085310 1.896683 -0.615155
0.081555 1.876712 -0.606460
0.085037 1.870262 -0.604838
0.095356 1.876132 -0.609722
0.101449 1.874311 -0.610551
0.110687 1.877958 -0.614293
0.118182 1.878432 -0.616362
0.133758 1.892623 -0.625792
0.147843 1.903891 -0.633708
0.151959 1.898187 -0.632517
0.156612 1.893422 -0.631824
0.163384 1.892142 -0.633015
0.168038 1.887401 -0.632326
0.172743 1.882770 -0.631690
0.177561 1.878343 -0.631160
0.183156 1.875150 -0.631302
0.188115 1.870971 -0.630898
0.196779 1.872454 -0.633623
0.202587 1.869522 -0.633912
0.206883 1.864325 -0.632939
0.213895 1.863168 -0.634215
0.219085 1.859303 -0.633978
0.220702 1.850288 -0.630840
0.223957 1.843729 -0.629066
0.229502 1.840468 -0.629146
0.242316 1.847354 -0.634991
0.241101 1.834630 -0.629691
0.244415 1.828290 -0.628006
0.247614 1.821854 -0.626253
0.255627 1.821920 -0.628230
0.262122 1.819897 -0.629013
0.272373 1.822764 -0.632633
0.269943 1.809048 -0.626629
0.273572 1.803316 -0.625243
0.288587 1.812085 -0.632338
0.289954 1.803444 -0.629249
0.292215 1.796016 -0.626852
0.298083 1.793103 -0.627108
0.301627 1.787341 -0.625673
0.308348 1.785450 -0.626533
0.311951 1.779796 -0.625148
0.315802 1.774474 -0.623950
0.318368 1.767679 -0.621856
0.321521 1.761624 -0.620192
0.316452 1.746192 -0.612832
0.326654 1.748312 -0.616095
0.328070 1.740447 -0.613285
0.332641 1.736167 -0.612649
0.340264 1.735253 -0.614077
0.345759 1.731960 -0.614045
0.352667 1.730175 -0.614946
0.356741 1.725322 -0.613946
0.359070 1.718639 -0.611797
0.367213 1.718091 -0.613470
0.368432 1.710301 -0.610606
0.372869 1.705882 -0.609846
0.377877 1.702049 -0.609449
0.382989 1.698311 -0.609109
0.387147 1.693617 -0.608157
0.392911 1.690511 -0.608212
0.397227 1.685970 -0.607347
0.406960 1.686663 -0.609845
0.401192 1.672438 -0.602719
0.404742 1.667226 -0.601387
0.413938 1.667320 -0.603500
0.419855 1.664281 -0.603581
0.428750 1.663949 -0.605438
0.432277 1.658652 -0.604041
0.430019 1.648162 -0.599201
0.434463 1.643760 -0.598364
0.437325 1.637959 -0.596590
0.441417 1.633254 -0.595536
0.445830 1.628825 -0.594660
0.449599 1.623840 -0.593404
0.453713 1.619151 -0.592340
0.457813 1.614448 -0.591259
0.461773 1.609625 -0.590091
0.465605 1.604695 -0.588843
0.468373 1.598901 -0.586993
0.472462 1.594187 -0.585876
0.475743 1.588824 -0.584304
0.479351 1.583726 -0.582907
0.483131 1.578763 -0.581596
0.487362 1.574147 -0.580521
0.491519 1.569465 -0.579395
0.494766 1.564086 -0.577772
0.496832 1.557827 -0.575517
0.499979 1.552393 -0.573835
0.503328 1.547113 -0.572256
0.507131 1.542165 -0.570907
0.509804 1.536402 -0.568965
0.512886 1.530943 -0.567233
0.515603 1.525234 -0.565312
0.518000 1.519315 -0.563228
0.520501 1.513485 -0.561200
0.527101 1.510462 -0.561230
0.530244 1.505068 -0.559514
0.534345 1.500322 -0.558274
0.537524 1.494963 -0.556575
0.538033 1.487875 -0.553574
0.541961 1.483042 -0.552254
0.544522 1.477339 -0.550275
0.547709 1.472056 -0.548607
0.553151 1.468196 -0.548024
0.554638 1.461886 -0.545565
0.560777 1.458458 -0.545318
0.564616 1.453629 -0.543995
0.565601 1.447117 -0.541361
0.568071 1.441542 -0.539446
0.569115 1.435180 -0.536905
0.576597 1.432596 -0.537340
0.579981 1.427663 -0.535923
0.580456 1.421133 -0.533227
0.583560 1.416153 -0.531761
0.589795 1.412955 -0.531729
0.592487 1.407845 -0.530156
0.581957 1.395666 -0.522806
0.600601 1.399289 -0.528352
0.609569 1.397693 -0.529660
0.600751 1.386810 -0.523287
0.606708 1.383775 -0.523395
0.606189 1.377476 -0.520771
0.599292 1.368069 -0.515500
0.620450 1.372904 -0.522251
0.622643 1.368236 -0.520974
0.629479 1.365943 -0.521719
-0.490193 1.615843 -0.353116
-0.486996 1.616660 -0.354181
-0.483727 1.617894 -0.355442
-0.480389 1.619221 -0.356775
-0.477017 1.619236 -0.357640
-0.473635 1.617822 -0.357986
-0.470120 1.618969 -0.359353
-0.466343 1.625145 -0.362710
-0.462678 1.626419 -0.364200
-0.458951 1.627704 -0.365729
-0.455017 1.631766 -0.368379
-0.451212 1.632182 -0.369631
-0.447365 1.632533 -0.370884
-0.443047 1.639246 -0.374686
-0.439025 1.640425 -0.376326
-0.434955 1.641635 -0.378004
-0.430895 1.642159 -0.379429
-0.426370 1.647656 -0.382875
-0.422125 1.649185 -0.384750
-0.417635 1.652832 -0.387503
-0.413459 1.652784 -0.388777
-0.408268 1.662085 -0.393880
-0.403896 1.663004 -0.395585
-0.399291 1.665691 -0.398030
-0.394482 1.669698 -0.401035
-0.389915 1.671353 -0.403084
-0.385003 1.675385 -0.406132
-0.379804 1.681125 -0.409911
-0.375136 1.682630 -0.411935
-0.370571 1.683253 -0.413594
-0.365238 1.688813 -0.417344
-0.360079 1.692846 -0.420464
-0.354758 1.697561 -0.423887
-0.349552 1.701250 -0.426887
-0.343890 1.707309 -0.430914
-0.338942 1.708962 -0.433061
-0.333347 1.714011 -0.436680
-0.328416 1.715213 -0.438644
-0.322190 1.723003 -0.443479
-0.317306 1.723593 -0.445189
-0.311830 1.727020 -0.448142
-0.305717 1.733274 -0.452349
-0.299852 1.738030 -0.455911
-0.293946 1.742708 -0.459450
-0.288668 1.744339 -0.461644
-0.282959 1.747725 -0.464626
-0.277502 1.749849 -0.467049
-0.270343 1.758896 -0.472590
-0.264154 1.763578 -0.476187
-0.258954 1.764091 -0.477907
-0.253183 1.766758 -0.480606
-0.246934 1.771091 -0.484070
-0.240433 1.776145 -0.487876
-0.234796 1.777796 -0.490132
-0.227987 1.783537 -0.494276
-0.221492 1.787904 -0.497802
-0.213644 1.796727 -0.503406
-0.207704 1.798711 -0.505854
-0.202116 1.799396 -0.507700
-0.195497 1.803371 -0.511089
-0.187814 1.810572 -0.516005
-0.180937 1.814919 -0.519598
-0.173845 1.819731 -0.523423
-0.167000 1.823567 -0.526801
-0.159619 1.828824 -0.530867
-0.153582 1.829882 -0.532944
-0.145201 1.837646 -0.538239
-0.137321 1.843672 -0.542722
-0.129259 1.849953 -0.547349
-0.122448 1.852515 -0.550197
-0.114610 1.857728 -0.554342
-0.108771 1.857359 -0.555786
-0.099008 1.867290 -0.562264
-0.091074 1.872104 -0.566266
-0.084517 1.873179 -0.568448
-0.076331 1.878266 -0.572616
-0.066238 1.887878 -0.579041
-0.058746 1.890769 -0.582164
-0.051500 1.892912 -0.584926
-0.045385 1.892227 -0.586286
-0.038564 1.893149 -0.588454
-0.027724 1.903281 -0.595259
-0.018670 1.908985 -0.599868
-0.010599 1.912244 -0.603263
-0.002774 1.914793 -0.606312
0.008231 1.924174 -0.612853
0.008239 1.909430 -0.607109
0.014793 1.908979 -0.608647
0.021867 1.909559 -0.610718
0.028461 1.909052 -0.612236
0.036983 1.912441 -0.615775
0.042753 1.910087 -0.616352
0.047037 1.904743 -0.615371
0.056002 1.908707 -0.619240
0.057659 1.898233 -0.615566
0.067260 1.903256 -0.620007
0.072494 1.899766 -0.619986
0.067541 1.877125 -0.609834
0.089675 1.892056 -0.621366
0.092930 1.884975 -0.619417
0.089539 1.866081 -0.611126
0.098107 1.868729 -0.614351
0.116903 1.889132 -0.627163
0.119083 1.880255 -0.624224
0.121481 1.871882 -0.621535
0.115412 1.849329 -0.611110
0.119859 1.844774 -0.610441
0.132930 1.854481 -0.617575
0.142115 1.857551 -0.621106
0.148276 1.855601 -0.621891
0.164617 1.869849 -0.631636
0.173771 1.872372 -0.634936
0.179311 1.869129 -0.635046
0.182773 1.862678 -0.633363
0.186896 1.857300 -0.632268
0.191897 1.853290 -0.631932
0.195692 1.847493 -0.630584
0.202597 1.846332 -0.631848
0.210024 1.845882 -0.633522
0.213399 1.839520 -0.631838
0.218603 1.835830 -0.631667
0.223404 1.831574 -0.631169
0.227686 1.826608 -0.630257
0.233960 1.824425 -0.630944
0.240190 1.822151 -0.631580
0.242478 1.814520 -0.629106
0.247182 1.810206 -0.628548
0.253628 1.808213 -0.629341
0.260644 1.806933 -0.630557
0.263847 1.800661 -0.628839
0.266636 1.793912 -0.626826
0.273614 1.792544 -0.627989
0.279578 1.789855 -0.628371
0.288212 1.790463 -0.630723
0.293231 1.786535 -0.630372
0.298996 1.783518 -0.630564
0.300711 1.775606 -0.627804
0.307487 1.773813 -0.628727
0.311989 1.769295 -0.627999
0.316465 1.764760 -0.627255
0.316394 1.754980 -0.623297
0.322265 1.752123 -0.623558
0.320266 1.740327 -0.618314
0.323884 1.734990 -0.617024
0.329169 1.731534 -0.616890
0.333432 1.726947 -0.616050
0.337851 1.722541 -0.615316
0.343370 1.719328 -0.615323
0.349759 1.717028 -0.615903
0.359057 1.717764 -0.618404
0.357437 1.706995 -0.613632
0.368026 1.708989 -0.616940
0.368103 1.700095 -0.613323
0.376088 1.699314 -0.614875
0.378898 1.693270 -0.613055
0.383850 1.689391 -0.612617
0.387677 1.684398 -0.611455
0.392964 1.680841 -0.611217
0.393396 1.672588 -0.607913
0.397224 1.667654 -0.606758
0.401535 1.663188 -0.605902
0.406783 1.659601 -0.605619
0.415598 1.659301 -0.607510
0.422067 1.656766 -0.607930
0.417500 1.644171 -0.601644
0.425835 1.643334 -0.603184
0.430164 1.638857 -0.602289
0.433039 1.633097 -0.600523
0.436533 1.627898 -0.599124
0.441626 1.624090 -0.598661
0.446779 1.620314 -0.598219
0.450386 1.615211 -0.596865
0.454158 1.610252 -0.595602
0.458560 1.605818 -0.594693
0.462866 1.601296 -0.593718
0.466262 1.596027 -0.592219
0.470111 1.591128 -0.590969
0.480517 1.591446 -0.593372
0.478421 1.581809 -0.588785
0.481121 1.576004 -0.586876
0.485205 1.571282 -0.585724
0.489676 1.566848 -0.584772
0.493452 1.561876 -0.583431
0.495379 1.555517 -0.581088
0.498996 1.550435 -0.579652
0.503522 1.546016 -0.578690
0.505301 1.539592 -0.576267
0.508768 1.534404 -0.574733
0.511256 1.528523 -0.572685
0.514063 1.522881 -0.570801
0.517987 1.518026 -0.569492
0.522106 1.513299 -0.568275
0.524822 1.507612 -0.566338
0.529391 1.503182 -0.565337
0.533250 1.498269 -0.563971
0.536951 1.493251 -0.562523
0.538633 1.486922 -0.560075
0.541234 1.481217 -0.558092
0.544250 1.475797 -0.556319
0.548039 1.470880 -0.554930
0.554602 1.467697 -0.554883
0.555631 1.461082 -0.552174
0.562555 1.458105 -0.552298
0.564493 1.452101 -0.550056
0.565458 1.445562 -0.547380
0.566962 1.439400 -0.544990
0.570926 1.434726 -0.543776
0.573832 1.429471 -0.542094
0.577431 1.424654 -0.540762
0.579940 1.419263 -0.538962
0.581997 1.413679 -0.536996
0.588704 1.410720 -0.537172
0.604953 1.412968 -0.541650
0.601228 1.404370 -0.537202
0.597502 1.395919 -0.532835
0.600923 1.391380 -0.531705
0.599449 1.384360 -0.528480
0.602498 1.379799 -0.527305
0.608461 1.376804 -0.527454
0.613603 1.373444 -0.527297
0.620619 1.371083 -0.527998
0.626015 1.367966 -0.528052
0.628262 1.363376 -0.526822
-0.491379 1.613427 -0.355971
-0.488158 1.615498 -0.357545
-0.484878 1.616673 -0.358809
-0.481542 1.617281 -0.359889
-0.478155 1.617516 -0.360859
-0.474655 1.619611 -0.362590
-0.471064 1.622232 -0.364564
-0.467424 1.624203 -0.366320
-0.463759 1.625135 -0.367702
-0.459918 1.628601 -0.370118
-0.456222 1.627761 -0.370861
-0.452226 1.631560 -0.373478
-0.448253 1.633734 -0.375480
-0.444154 1.636912 -0.377915
-0.440019 1.639627 -0.380195
-0.435973 1.640370 -0.381705
-0.431827 1.641867 -0.383543
-0.427252 1.647852 -0.387230
-0.422843 1.651050 -0.389812
-0.418575 1.652173 -0.391564
-0.414319 1.652825 -0.393139
-0.409356 1.659925 -0.397394
-0.404741 1.663052 -0.400030
-0.400180 1.665283 -0.402311
-0.395701 1.666511 -0.404187
-0.390757 1.671229 -0.407537
-0.385820 1.675417 -0.410683
-0.381308 1.676066 -0.412349
-0.376061 1.681810 -0.416184
-0.371228 1.684237 -0.418626
-0.365844 1.690081 -0.422538
-0.360997 1.692049 -0.424804
-0.355307 1.699052 -0.429248
-0.350224 1.701936 -0.431931
-0.344733 1.706972 -0.435557
-0.339676 1.709216 -0.437981
-0.334083 1.714233 -0.441623
-0.328969 1.716374 -0.444016
-0.323646 1.719451 -0.446826
-0.318173 1.723077 -0.449887
-0.313049 1.724766 -0.452096
-0.307065 1.730456 -0.456092
-0.300654 1.737822 -0.460852
-0.294948 1.741579 -0.464013
-0.289353 1.744625 -0.466863
-0.284097 1.746019 -0.468972
-0.278050 1.750672 -0.472563
-0.272140 1.754509 -0.475793
-0.265692 1.760324 -0.479937
-0.260424 1.761152 -0.481811
-0.253597 1.767982 -0.486446
-0.247570 1.771429 -0.489538
-0.241655 1.774272 -0.492360
-0.235287 1.778617 -0.495887
-0.229538 1.780517 -0.498285
-0.221138 1.791650 -0.505008
-0.215198 1.793795 -0.507545
-0.209127 1.796254 -0.510236
-0.203196 1.798103 -0.512645
-0.195638 1.805163 -0.517530
-0.189213 1.808272 -0.520557
-0.182123 1.813319 -0.524519
-0.175272 1.817391 -0.528029
-0.167766 1.823266 -0.532418
-0.161091 1.826393 -0.535502
-0.153231 1.832853 -0.540208
-0.146144 1.836795 -0.543713
-0.138760 1.841398 -0.547553
-0.131295 1.846021 -0.551419
-0.122970 1.852815 -0.556364
-0.116640 1.853893 -0.558525
-0.109307 1.857562 -0.561967
-0.100927 1.863824 -0.566706
-0.092466 1.870040 -0.571444
-0.084711 1.874192 -0.575178
-0.076366 1.879645 -0.579577
-0.067089 1.887190 -0.585045
-0.060937 1.886775 -0.586541
-0.054281 1.887520 -0.588624
-0.047766 1.887838 -0.590498
-0.038992 1.893385 -0.595029
-0.032174 1.894170 -0.597160
-0.023162 1.899878 -0.601810
-0.014789 1.903915 -0.605629
-0.009311 1.901326 -0.606063
-0.003714 1.898994 -0.606626
0.004020 1.901277 -0.609573
0.010203 1.900109 -0.610744
0.016230 1.898567 -0.611722
0.026993 1.906853 -0.617829
0.032317 1.903668 -0.617967
0.037972 1.901161 -0.618457
0.041567 1.894515 -0.616765
0.046550 1.890706 -0.616558
0.054749 1.893197 -0.619684
0.057560 1.885157 -0.617226
0.056646 1.870147 -0.611031
0.059013 1.861601 -0.608252
0.082077 1.891653 -0.626171
0.089107 1.891466 -0.627917
0.090831 1.881580 -0.624431
0.083668 1.855931 -0.612377
0.088464 1.851990 -0.612044
0.104964 1.868549 -0.622887
0.121921 1.885433 -0.633976
0.119932 1.869469 -0.627101
0.109870 1.840165 -0.612833
0.113433 1.834210 -0.611369
0.132717 1.854259 -0.624307
0.140359 1.854785 -0.626470
0.148225 1.855584 -0.628797
0.135195 1.822974 -0.612438
0.136216 1.813174 -0.608779
0.180312 1.847178 -0.633594
0.183946 1.841186 -0.632114
0.189666 1.838362 -0.632430
0.198258 1.839758 -0.635162
0.203711 1.836471 -0.635220
0.209733 1.833999 -0.635746
0.214089 1.829129 -0.634887
0.219233 1.825399 -0.634682
0.221371 1.817479 -0.632034
0.228681 1.816793 -0.633592
0.233676 1.812884 -0.633270
0.237645 1.807596 -0.632133
0.240708 1.801133 -0.630293
0.244556 1.795768 -0.629089
0.252445 1.795733 -0.631042
0.253027 1.786156 -0.627318
0.262711 1.788371 -0.630621
0.267189 1.783861 -0.629908
0.275494 1.784172 -0.632092
0.281519 1.781568 -0.632529
0.286893 1.778141 -0.632468
0.291621 1.773921 -0.631922
0.292193 1.764706 -0.628321
0.293921 1.756982 -0.625607
0.299266 1.753604 -0.625545
0.305549 1.751314 -0.626153
0.308836 1.745530 -0.624600
0.311628 1.739219 -0.622708
0.315364 1.734028 -0.621499
0.321839 1.731935 -0.622219
0.325350 1.726516 -0.620854
0.329495 1.721823 -0.619937
0.332521 1.715931 -0.618253
0.337378 1.712047 -0.617830
0.343415 1.709420 -0.618204
0.346368 1.703512 -0.616483
0.350395 1.698763 -0.615492
0.353460 1.693034 -0.613862
0.357249 1.688079 -0.612720
0.365804 1.687968 -0.614711
0.374071 1.687488 -0.616475
0.379145 1.683765 -0.616133
0.383779 1.679599 -0.615497
0.386486 1.673557 -0.613622
0.391357 1.669633 -0.613132
0.395560 1.665066 -0.612212
0.398787 1.659581 -0.610674
0.398111 1.650469 -0.606703
0.411335 1.654313 -0.611388
0.413829 1.648163 -0.609383
0.416716 1.642402 -0.607626
0.420736 1.637682 -0.606564
0.423657 1.631989 -0.604831
0.422762 1.622962 -0.600807
0.431931 1.622786 -0.602826
0.436478 1.618537 -0.602057
0.435208 1.609314 -0.597844
0.438958 1.604423 -0.596607
0.450138 1.605748 -0.599694
0.455275 1.601946 -0.599221
0.459579 1.597441 -0.598253
0.462851 1.592090 -0.596684
0.468872 1.588955 -0.596674
0.474894 1.585783 -0.596641
0.476977 1.579477 -0.594374
0.479533 1.573565 -0.592375
0.484186 1.569285 -0.591539
0.488637 1.564835 -0.590578
0.491598 1.559248 -0.588787
0.495120 1.554088 -0.587299
0.498796 1.549043 -0.585888
0.501309 1.543145 -0.583844
0.504594 1.537821 -0.582212
0.506833 1.531752 -0.580021
0.509475 1.525987 -0.578045
0.512814 1.520723 -0.576433
0.516539 1.515730 -0.575018
0.521377 1.511496 -0.574172
0.526291 1.507295 -0.573352
0.528027 1.500943 -0.570897
0.532202 1.496238 -0.569688
0.536638 1.491698 -0.568604
0.537925 1.485106 -0.565938
0.540561 1.479416 -0.563957
0.543974 1.474241 -0.562368
0.547916 1.469408 -0.561044
0.554535 1.466241 -0.561030
0.556231 1.460023 -0.558615
0.562055 1.456353 -0.558213
0.563410 1.449987 -0.555667
0.560980 1.441425 -0.551347
0.562638 1.435367 -0.549014
0.567858 1.431428 -0.548386
0.571728 1.426724 -0.547141
0.575611 1.422059 -0.545927
0.579500 1.417432 -0.544742
0.584007 1.413188 -0.543872
0.588053 1.408725 -0.542822
0.602338 1.409865 -0.546455
0.592566 1.398020 -0.539219
0.599568 1.395296 -0.539622
0.599840 1.389063 -0.537054
0.603144 1.384510 -0.535898
0.601997 1.377743 -0.532832
0.605898 1.373667 -0.532060
0.614101 1.371826 -0.533224
0.623198 1.370460 -0.534817
0.626621 1.366326 -0.533992
0.624619 1.359633 -0.530892
-0.492593 1.606424 -0.357033
-0.489333 1.613021 -0.360403
-0.486044 1.614304 -0.361735
-0.482688 1.615559 -0.363091
-0.479221 1.618608 -0.365192
-0.475713 1.620241 -0.366772
-0.472174 1.620738 -0.367936
-0.468576 1.621305 -0.369161
-0.464700 1.627224 -0.372557
-0.460988 1.627376 -0.373684
-0.457222 1.627653 -0.374889
-0.453334 1.629290 -0.376671
-0.449222 1.633709 -0.379609
-0.445195 1.635558 -0.381537
-0.441148 1.636937 -0.383300
-0.436898 1.640392 -0.385937
-0.432761 1.641595 -0.387677
-0.428424 1.644686 -0.390216
-0.423850 1.649792 -0.393613
-0.419405 1.652730 -0.396139
-0.415053 1.654199 -0.398072
-0.410767 1.654709 -0.399619
-0.405794 1.661270 -0.403720
-0.401177 1.663990 -0.406229
-0.396670 1.665434 -0.408212
-0.391356 1.673113 -0.412856
-0.386852 1.673852 -0.414567
-0.382262 1.675081 -0.416493
-0.376738 1.682810 -0.421221
-0.371963 1.684759 -0.423481
-0.366929 1.688244 -0.426413
-0.361796 1.692071 -0.429506
-0.356757 1.695018 -0.432226
-0.351298 1.700261 -0.435962
-0.346257 1.702702 -0.438480
-0.340011 1.711789 -0.443940
-0.335156 1.712651 -0.445782
-0.330003 1.715021 -0.448296
-0.323905 1.722143 -0.452936
-0.319026 1.722676 -0.454644
-0.313118 1.728220 -0.458605
-0.307962 1.729828 -0.460805
-0.302227 1.734035 -0.464185
-0.296225 1.739223 -0.468020
-0.290383 1.743415 -0.471416
-0.284582 1.747189 -0.474631
-0.278510 1.751910 -0.478291
-0.272968 1.754170 -0.480828
-0.267568 1.755708 -0.483037
-0.261536 1.759661 -0.486369
-0.254642 1.766777 -0.491184
-0.248851 1.769330 -0.493888
-0.242239 1.774811 -0.497970
-0.236184 1.777978 -0.500980
-0.230239 1.780580 -0.503732
-0.223359 1.786334 -0.507983
-0.216370 1.792201 -0.512304
-0.210590 1.793680 -0.514552
-0.204395 1.796435 -0.517415
-0.197075 1.802735 -0.521985
-0.190901 1.805057 -0.524661
-0.183335 1.811651 -0.529407
-0.176494 1.815703 -0.532943
-0.168582 1.822836 -0.537989
-0.162953 1.822800 -0.539562
-0.153801 1.833131 -0.546208
-0.147018 1.836165 -0.549306
-0.139770 1.840370 -0.552992
-0.133192 1.842488 -0.555662
-0.125072 1.848751 -0.560394
-0.118865 1.849531 -0.562422
-0.112715 1.850067 -0.564334
-0.101619 1.863616 -0.572760
-0.093830 1.868063 -0.576664
-0.086339 1.871543 -0.580099
-0.078301 1.876237 -0.584160
-0.068883 1.884164 -0.589879
-0.062825 1.883532 -0.591277
-0.057046 1.882171 -0.592305
-0.049424 1.885178 -0.595567
-0.040039 1.892179 -0.600893
-0.033685 1.891873 -0.602485
-0.028417 1.889018 -0.602765
-0.021170 1.890635 -0.605357
-0.013880 1.892228 -0.607947
-0.007696 1.891275 -0.609222
-0.001128 1.891105 -0.610908
0.004034 1.887856 -0.610985
0.009337 1.884915 -0.611219
0.015392 1.883544 -0.612280
0.023743 1.886853 -0.615820
0.029358 1.884449 -0.616343
0.035475 1.883036 -0.617394
0.038768 1.875994 -0.615438
0.037409 1.859961 -0.608644
0.039654 1.851209 -0.605720
0.044079 1.846754 -0.605093
0.070689 1.870973 -0.621811
0.084383 1.883245 -0.630333
0.084842 1.871129 -0.625575
0.085490 1.859568 -0.621088
0.086699 1.849200 -0.617225
0.092055 1.846260 -0.617435
0.105207 1.856799 -0.625106
0.118609 1.867443 -0.632882
0.102802 1.828420 -0.613028
0.099412 1.810960 -0.605098
0.107703 1.813108 -0.608112
0.135182 1.846439 -0.628690
0.138179 1.839450 -0.626638
0.140327 1.831190 -0.623850
0.132866 1.807896 -0.612499
0.132489 1.796094 -0.607623
0.138622 1.794514 -0.608559
0.169127 1.830043 -0.630794
0.178961 1.833556 -0.634741
0.183567 1.829124 -0.634123
0.191368 1.829425 -0.636242
0.196741 1.826103 -0.636266
0.196320 1.814425 -0.631414
0.201898 1.811480 -0.631640
0.206955 1.807790 -0.631427
0.211944 1.804008 -0.631158
0.225323 1.811816 -0.637738
0.227959 1.804710 -0.635512
0.227672 1.793730 -0.630964
0.232640 1.789933 -0.630673
0.236823 1.785103 -0.629760
0.241902 1.781471 -0.629560
0.247474 1.778481 -0.629744
0.252817 1.775183 -0.629741
0.257994 1.771669 -0.629606
0.257119 1.760560 -0.624838
0.265602 1.761226 -0.627239
0.274652 1.762498 -0.630027
0.279794 1.758916 -0.629843
0.284405 1.754693 -0.629260
0.289470 1.751022 -0.629015
0.294409 1.747200 -0.628672
0.299255 1.743271 -0.628259
0.304149 1.739401 -0.627878
0.306981 1.733175 -0.626012
0.308668 1.725702 -0.623345
0.314613 1.723073 -0.623726
0.319819 1.719598 -0.623571
0.324380 1.715409 -0.622958
0.325363 1.707339 -0.619855
0.331901 1.705324 -0.620620
0.339583 1.704489 -0.622150
0.344421 1.700594 -0.621710
0.342972 1.690140 -0.617005
0.349598 1.688152 -0.617785
0.350238 1.680005 -0.614541
0.352237 1.673314 -0.612228
0.365101 1.677559 -0.617105
0.367316 1.671076 -0.614922
0.370777 1.665863 -0.613565
0.378374 1.664688 -0.614890
0.387964 1.665371 -0.617467
0.392567 1.661205 -0.616808
0.395744 1.655690 -0.615235
0.400064 1.651265 -0.614387
0.398447 1.641353 -0.609808
0.408288 1.642035 -0.612416
0.412350 1.637378 -0.611392
0.416241 1.632572 -0.610258
0.416804 1.624818 -0.607083
0.420010 1.619451 -0.605538
0.426976 1.617367 -0.606264
0.431387 1.613035 -0.605428
0.430143 1.603874 -0.601207
0.437169 1.601781 -0.601923
0.447017 1.601990 -0.604273
0.452830 1.598764 -0.604209
0.456388 1.593659 -0.602811
0.461020 1.589429 -0.602029
0.465937 1.585412 -0.601398
0.470127 1.580801 -0.600337
0.471418 1.573905 -0.597618
0.476425 1.569935 -0.597007
0.482416 1.566700 -0.596930
0.486069 1.561647 -0.595527
0.489576 1.556484 -0.594036
0.490343 1.549279 -0.591031
0.492664 1.543264 -0.588887
0.499001 1.540196 -0.588927
0.503013 1.535407 -0.587686
0.505450 1.529485 -0.585590
0.507751 1.523481 -0.583422
0.511214 1.518309 -0.581873
0.514825 1.513239 -0.580396
0.520292 1.509437 -0.579883
0.523791 1.504275 -0.578331
0.526470 1.498565 -0.576351
0.530582 1.493818 -0.575108
0.534459 1.488911 -0.573740
0.542235 1.486528 -0.574345
0.540415 1.477943 -0.570090
0.544513 1.473189 -0.568832
0.548066 1.468095 -0.567303
0.550962 1.462602 -0.565454
0.552656 1.456394 -0.563025
0.565204 1.456802 -0.565913
0.566992 1.450660 -0.563540
0.564681 1.442134 -0.559216
0.560038 1.432345 -0.553827
0.561986 1.426507 -0.551642
0.569282 1.423781 -0.552018
0.573234 1.419148 -0.550825
0.579221 1.415687 -0.550609
0.583592 1.411342 -0.549659
0.589774 1.408025 -0.549577
0.594031 1.403684 -0.548634
0.599969 1.400290 -0.548497
0.603239 1.395514 -0.547181
0.598569 1.386649 -0.542327
0.599085 1.380630 -0.539894
0.601309 1.375590 -0.538290
0.611901 1.374876 -0.540468
0.617772 1.371797 -0.540583
0.624404 1.369149 -0.541082
0.627386 1.364761 -0.540031
0.628780 1.359692 -0.538353
-0.493723 1.609805 -0.362154
-0.490507 1.609938 -0.363018
-0.487190 1.612947 -0.365059
-0.483816 1.614576 -0.366590
-0.480331 1.617979 -0.368867
-0.476829 1.618879 -0.370181
-0.473279 1.619348 -0.371355
-0.469702 1.619011 -0.372236
-0.465800 1.625567 -0.375935
-0.462033 1.626701 -0.377479
-0.458193 1.628193 -0.379198
-0.454280 1.629961 -0.381060
-0.450235 1.632997 -0.383471
-0.446180 1.635123 -0.385539
-0.441918 1.639453 -0.388544
-0.437752 1.641438 -0.390609
-0.433555 1.643186 -0.392599
-0.429339 1.644602 -0.394472
-0.424893 1.648169 -0.397264
-0.420316 1.652500 -0.400402
-0.416066 1.652840 -0.401880
-0.411782 1.653276 -0.403408
-0.406649 1.661349 -0.408197
-0.402376 1.660967 -0.409406
-0.397681 1.664045 -0.412105
-0.392596 1.669911 -0.416018
-0.388028 1.671211 -0.417981
-0.383041 1.675441 -0.421222
-0.377548 1.682925 -0.425896
-0.372837 1.684386 -0.427963
-0.368269 1.684732 -0.429546
-0.362787 1.690912 -0.433700
-0.357884 1.693011 -0.436069
-0.352580 1.697365 -0.439445
-0.347387 1.700759 -0.442406
-0.341187 1.709644 -0.447831
-0.336139 1.711603 -0.450176
-0.330805 1.714952 -0.453151
-0.324839 1.721385 -0.457529
-0.319763 1.722905 -0.459697
-0.313999 1.727721 -0.463367
-0.309085 1.728151 -0.465047
-0.302745 1.735236 -0.469776
-0.296611 1.740993 -0.473914
-0.291143 1.743445 -0.476543
-0.285230 1.747698 -0.480012
-0.279638 1.750337 -0.482741
-0.273969 1.753142 -0.485554
-0.268172 1.756307 -0.488542
-0.261476 1.762895 -0.493145
-0.256230 1.763470 -0.494935
-0.249411 1.770018 -0.499548
-0.243510 1.772800 -0.502394
-0.237437 1.776057 -0.505473
-0.230937 1.780681 -0.509215
-0.224529 1.784750 -0.512703
-0.217880 1.789451 -0.516508
-0.212179 1.790688 -0.518656
-0.204942 1.796973 -0.523250
-0.198089 1.801712 -0.527114
-0.192171 1.803204 -0.529411
-0.183992 1.811765 -0.535167
-0.176863 1.816696 -0.539171
-0.170045 1.820445 -0.542610
-0.163637 1.822770 -0.545359
-0.154860 1.831982 -0.551526
-0.148391 1.834096 -0.554199
-0.140983 1.838774 -0.558156
-0.134820 1.839721 -0.560267
-0.127134 1.844806 -0.564457
-0.120896 1.845705 -0.566561
-0.114279 1.847529 -0.569136
-0.104724 1.857024 -0.575603
-0.096204 1.863458 -0.580550
-0.088787 1.866795 -0.583942
-0.081851 1.868741 -0.586639
-0.076282 1.867147 -0.587530
-0.068804 1.870227 -0.590824
-0.058094 1.880988 -0.598095
-0.052677 1.878713 -0.598660
-0.046313 1.878661 -0.600375
-0.036898 1.885629 -0.605752
-0.030801 1.884726 -0.607045
-0.025354 1.882304 -0.607543
-0.018339 1.883369 -0.609873
-0.010936 1.885186 -0.612609
-0.005018 1.883657 -0.613587
0.000420 1.881064 -0.614001
0.004474 1.875540 -0.612853
0.010141 1.873449 -0.613527
0.016789 1.873357 -0.615271
0.024323 1.874991 -0.617950
0.029427 1.871636 -0.617951
0.032669 1.864602 -0.615959
0.034640 1.855184 -0.612657
0.038222 1.849038 -0.611111
0.048765 1.856244 -0.616843
0.050493 1.846597 -0.613376
0.043240 1.820405 -0.600791
0.051322 1.822954 -0.603967
0.079977 1.862715 -0.627742
0.079036 1.848369 -0.621645
0.079551 1.836871 -0.617092
0.081186 1.827532 -0.613712
0.096545 1.842082 -0.623691
0.104080 1.842842 -0.625980
0.098604 1.821523 -0.615834
0.091342 1.797644 -0.604171
0.097798 1.796888 -0.605552
0.116272 1.815685 -0.618073
0.134188 1.833080 -0.629873
0.114396 1.789879 -0.607021
0.121008 1.789207 -0.608469
0.122667 1.780758 -0.605439
0.136114 1.790594 -0.612969
0.164081 1.822265 -0.633226
0.170277 1.820351 -0.634050
0.175436 1.816859 -0.633954
0.178421 1.810167 -0.631980
0.186353 1.810757 -0.634275
0.189158 1.803867 -0.632168
0.195451 1.802027 -0.633036
0.202365 1.801029 -0.634409
0.207391 1.797344 -0.634187
0.211028 1.791746 -0.632817
0.211702 1.782147 -0.629035
0.223139 1.787217 -0.634062
0.227769 1.783009 -0.633514
0.231533 1.777670 -0.632274
0.234352 1.771133 -0.630296
0.237308 1.764837 -0.628449
0.248958 1.769732 -0.633446
0.246520 1.756598 -0.627391
0.249158 1.750029 -0.625342
0.257152 1.750166 -0.627431
0.263258 1.747908 -0.628044
0.273250 1.750344 -0.631587
0.279456 1.748101 -0.632227
0.282122 1.741616 -0.630206
0.287597 1.738495 -0.630289
0.296679 1.739568 -0.633024
0.297575 1.731095 -0.629720
0.297947 1.722121 -0.626072
0.306258 1.722226 -0.628199
0.308609 1.715583 -0.626013
0.312948 1.711200 -0.625265
0.314341 1.703598 -0.622431
0.320663 1.701419 -0.623092
0.325658 1.697781 -0.622807
0.333745 1.697424 -0.624662
0.330869 1.685458 -0.618922
0.335715 1.681697 -0.618536
0.342849 1.680291 -0.619702
0.353722 1.682652 -0.623371
0.355349 1.675537 -0.620766
0.359078 1.670588 -0.619587
0.363305 1.666146 -0.618739
0.366780 1.660974 -0.617393
0.368444 1.654064 -0.614864
0.377627 1.654433 -0.617248
0.381729 1.649876 -0.616301
