ply
format ascii 1.0
comment ---
element vertex 1679
property float x
property float y
property float z
element face 0
property list uchar uint vertex_indices
end_header
0.660013 1.281529 -1.299730
0.662724 1.269457 -1.292252
0.669965 1.263910 -1.290218
0.675265 1.255687 -1.285942
0.679135 1.245583 -1.280076
0.684894 1.238164 -1.276458
0.690217 1.230227 -1.272394
0.693953 1.220270 -1.266606
0.699759 1.213154 -1.263206
0.706057 1.206742 -1.260393
0.710099 1.197503 -1.255153
0.711057 1.184492 -1.246658
0.718014 1.179195 -1.244729
0.725070 1.174069 -1.242929
0.730746 1.167307 -1.239698
0.728930 1.151583 -1.228692
0.733999 1.144386 -1.224996
0.740714 1.139253 -1.223049
0.747412 1.134178 -1.221116
0.751741 1.126450 -1.216826
0.755703 1.118449 -1.212242
0.760881 1.111992 -1.208946
0.766809 1.106513 -1.206450
0.763441 1.090845 -1.194926
0.769290 1.085643 -1.192528
0.774023 1.079363 -1.189110
0.777962 1.072394 -1.185007
0.784893 1.068801 -1.183818
0.789378 1.062751 -1.180372
0.786634 1.049320 -1.170266
0.786102 1.038503 -1.162384
0.791708 1.034266 -1.160281
0.799463 1.032377 -1.160197
0.809699 1.033116 -1.162390
0.809387 1.023389 -1.155110
0.821615 1.026363 -1.159151
0.825101 1.020795 -1.155429
0.824802 1.011735 -1.148466
0.819022 0.997626 -1.136846
0.821510 0.991786 -1.132595
0.834276 0.995940 -1.137296
-0.834329 1.288470 -1.095945
-0.815766 1.257630 -1.076459
-0.805103 1.245670 -1.069700
-0.791096 1.225479 -1.057283
-0.682347 0.980924 -0.892920
-0.679116 0.985174 -0.896787
-0.700611 1.067831 -0.955247
-0.695423 1.068877 -0.956908
-0.652223 0.968034 -0.888577
-0.647034 0.968185 -0.889479
-0.644198 0.975049 -0.894970
-0.731842 1.276173 -1.104943
-0.726545 1.281970 -1.109791
-0.720183 1.285007 -1.112702
-0.712506 1.284366 -1.113037
-0.707909 1.293427 -1.120057
-0.701827 1.298328 -1.124173
-0.694785 1.300515 -1.126381
-0.688852 1.306564 -1.131245
-0.682228 1.310697 -1.134757
-0.675801 1.315795 -1.138921
-0.669815 1.322742 -1.144354
-0.663373 1.328470 -1.148925
-0.656056 1.331377 -1.151519
-0.648053 1.331958 -1.152480
-0.641246 1.337129 -1.156628
-0.634964 1.344597 -1.162371
-0.627158 1.346446 -1.164190
-0.619260 1.348028 -1.165816
-0.611951 1.352129 -1.169198
-0.605404 1.359654 -1.174972
-0.598317 1.365208 -1.179372
-0.590283 1.366799 -1.181002
-0.582709 1.370547 -1.184143
-0.576126 1.379120 -1.190670
-0.568585 1.383488 -1.194260
-0.560905 1.387354 -1.197504
-0.551650 1.383304 -1.195205
-0.543508 1.384808 -1.196807
-0.539586 1.409350 -1.214597
-0.534000 1.426041 -1.226898
-0.546084 1.546707 -1.312324
-0.538641 1.557976 -1.320897
-0.530631 1.566409 -1.327494
-0.521772 1.569849 -1.330593
-0.512848 1.572994 -1.333499
-0.503560 1.573719 -1.334713
-0.493563 1.569200 -1.332241
-0.483670 1.564947 -1.329966
-0.474227 1.563765 -1.329870
-0.465618 1.569296 -1.334532
-0.456414 1.570033 -1.335822
-0.448413 1.581812 -1.344943
-0.437523 1.566623 -1.334985
-0.425656 1.539457 -1.316535
-0.372182 1.210438 -1.085246
-0.364394 1.202146 -1.080025
-0.372844 1.562057 -1.337689
-0.363984 1.566899 -1.342044
-0.354447 1.559568 -1.337736
-0.344520 1.541874 -1.326037
-0.335430 1.539825 -1.325507
-0.327130 1.559691 -1.340656
-0.317999 1.558619 -1.340860
-0.308929 1.559555 -1.342515
-0.299570 1.544933 -1.333032
-0.290325 1.526099 -1.320522
-0.281368 1.518650 -1.316175
-0.272528 1.543868 -1.335311
-0.263514 1.544932 -1.337115
-0.254488 1.545674 -1.338703
-0.245507 1.542840 -1.337726
-0.236528 1.541230 -1.337641
-0.227391 1.545936 -1.342127
-0.218240 1.549294 -1.345657
-0.209442 1.542318 -1.341729
-0.200536 1.539434 -1.340765
-0.191062 1.548474 -1.348452
-0.182000 1.548105 -1.349338
-0.173070 1.545477 -1.348593
-0.163723 1.549417 -1.352632
-0.155021 1.543696 -1.349657
-0.147150 1.528024 -1.339437
-0.138868 1.519258 -1.334239
-0.128979 1.529442 -1.342874
-0.120302 1.525554 -1.341252
-0.112127 1.516995 -1.336218
-0.102138 1.526258 -1.344233
-0.093746 1.520231 -1.341064
-0.085450 1.513851 -1.337638
-0.077445 1.505603 -1.332840
-0.066656 1.519457 -1.344297
-0.057092 1.522964 -1.348167
-0.047489 1.526347 -1.351963
-0.039838 1.516062 -1.345688
-0.030979 1.514354 -1.345744
-0.021547 1.516274 -1.348493
-0.013022 1.512433 -1.346988
-0.005159 1.504854 -1.342717
0.001906 1.493132 -1.335368
0.007118 1.471864 -1.320916
0.022975 1.508545 -1.349552
0.034023 1.518049 -1.358019
0.042560 1.514297 -1.356629
0.050779 1.509105 -1.354168
0.058657 1.502490 -1.350644
0.067543 1.500775 -1.350788
0.076305 1.498491 -1.350514
0.084885 1.495435 -1.349668
0.093341 1.491901 -1.348469
0.105061 1.501984 -1.357518
0.116706 1.511171 -1.365923
0.117956 1.478762 -1.342988
0.127969 1.481571 -1.346597
0.137569 1.482597 -1.348876
0.144614 1.474062 -1.343930
0.149814 1.459157 -1.334151
0.169142 1.494619 -1.362588
0.173041 1.475229 -1.349416
0.184516 1.482152 -1.356246
0.194175 1.482681 -1.358230
0.203913 1.483349 -1.360336
0.213951 1.484847 -1.363091
0.223736 1.485402 -1.365142
0.230422 1.476357 -1.359852
0.228876 1.442847 -1.335783
0.239709 1.446947 -1.340559
0.250346 1.450234 -1.344734
0.247648 1.415439 -1.319582
0.276937 1.471000 -1.364107
0.285322 1.467236 -1.362917
0.294098 1.464557 -1.362576
0.298486 1.450250 -1.353232
0.308438 1.450806 -1.355412
0.316426 1.446220 -1.353612
0.326926 1.448004 -1.356780
0.333252 1.439291 -1.351785
0.342069 1.436830 -1.351670
0.354409 1.442792 -1.358159
0.365822 1.446276 -1.362741
0.374810 1.443910 -1.362761
0.377624 1.427381 -1.351662
0.379864 1.409951 -1.339833
0.390677 1.411976 -1.343323
0.403239 1.417660 -1.349733
0.411307 1.413386 -1.348298
0.420870 1.412302 -1.349405
0.427625 1.405262 -1.345803
0.433249 1.395979 -1.340422
0.442443 1.394110 -1.340947
0.461219 1.411402 -1.356785
0.473323 1.414905 -1.361672
0.480987 1.409536 -1.359489
0.485128 1.397421 -1.351904
0.495033 1.396456 -1.353274
0.503479 1.392667 -1.352394
0.513190 1.391199 -1.353405
0.519835 1.384063 -1.349857
0.526719 1.377424 -1.346719
0.533869 1.371311 -1.344017
0.547338 1.376303 -1.350355
0.557319 1.375013 -1.351622
0.565463 1.370497 -1.350281
0.572348 1.363852 -1.347215
0.581862 1.361621 -1.347777
0.587415 1.352816 -1.342963
0.592674 1.343628 -1.337835
0.599677 1.337337 -1.335097
0.606784 1.331240 -1.332530
0.613689 1.324853 -1.329733
0.625709 1.326388 -1.333523
0.633460 1.321253 -1.331800
0.638710 1.312353 -1.326949
0.640008 1.297666 -1.317258
0.645875 1.289922 -1.313360
0.654734 1.286585 -1.313164
0.660299 1.278484 -1.308973
0.663024 1.266431 -1.301445
0.668359 1.258202 -1.297129
0.676837 1.254403 -1.296563
0.680493 1.243987 -1.290382
0.686362 1.236698 -1.286845
0.690407 1.227036 -1.281274
0.694392 1.217420 -1.275720
0.700968 1.211309 -1.273151
0.704539 1.201373 -1.267279
0.709821 1.193760 -1.263378
0.712755 1.183278 -1.256975
0.718764 1.176793 -1.253995
0.727315 1.173519 -1.253779
0.733271 1.167095 -1.250803
0.726269 1.145140 -1.234236
0.732356 1.139229 -1.231604
0.739114 1.134202 -1.229709
0.745941 1.129336 -1.227916
0.751745 1.123376 -1.225114
0.757402 1.117364 -1.222214
0.763571 1.112057 -1.219881
0.768447 1.105422 -1.216311
0.771359 1.096768 -1.210876
0.771796 1.085603 -1.203123
0.778849 1.081877 -1.201921
0.782735 1.074865 -1.197711
0.789411 1.071011 -1.196246
0.787342 1.058077 -1.186550
0.790019 1.050410 -1.181484
0.794301 1.044618 -1.178015
0.800523 1.041002 -1.176424
0.801740 1.032455 -1.170286
0.802317 1.023506 -1.163685
0.811301 1.023199 -1.164824
0.821854 1.024551 -1.167393
0.828227 1.021883 -1.166228
0.827784 1.012731 -1.159072
0.823363 0.999993 -1.148546
0.825048 0.993415 -1.143541
0.828963 0.989171 -1.140578
-0.851954 1.327568 -1.131150
-0.813822 1.250013 -1.079569
-0.805330 1.243196 -1.076290
-0.792826 1.226634 -1.066271
-0.684064 0.982529 -0.900718
-0.679897 0.984332 -0.902955
-0.746764 1.273246 -1.109994
-0.741461 1.278220 -1.114407
-0.735121 1.280608 -1.116985
-0.728537 1.282604 -1.119255
-0.722332 1.286026 -1.122485
-0.716758 1.291692 -1.127252
-0.709880 1.293753 -1.129469
-0.703059 1.296263 -1.131970
-0.696055 1.298467 -1.134229
-0.689497 1.302377 -1.137656
-0.682589 1.305429 -1.140458
-0.676227 1.310585 -1.144715
-0.670293 1.317551 -1.150225
-0.663667 1.322484 -1.154291
-0.656179 1.324633 -1.156385
-0.649683 1.330591 -1.161144
-0.642967 1.336053 -1.165545
-0.635766 1.339965 -1.168845
-0.627982 1.341814 -1.170684
-0.620376 1.344492 -1.173101
-0.613525 1.350415 -1.177803
-0.606394 1.355457 -1.181882
-0.598680 1.358230 -1.184360
-0.591073 1.361600 -1.187259
-0.584180 1.368373 -1.192568
-0.577701 1.377410 -1.199485
-0.570604 1.383941 -1.204637
-0.561801 1.382355 -1.204050
-0.554096 1.386200 -1.207315
-0.546006 1.388194 -1.209276
-0.537747 1.389312 -1.210624
-0.534856 1.420459 -1.233293
-0.545708 1.533113 -1.313869
-0.538533 1.545615 -1.323391
-0.530103 1.551122 -1.327960
-0.522094 1.559642 -1.334689
-0.512609 1.558833 -1.334797
-0.503352 1.559422 -1.335912
-0.492852 1.550937 -1.330574
-0.483488 1.550171 -1.330746
-0.474961 1.555825 -1.335511
-0.466647 1.563637 -1.341835
-0.457673 1.566369 -1.344552
-0.447426 1.557614 -1.339072
-0.437333 1.549244 -1.333874
-0.425933 1.526433 -1.318343
-0.415716 1.513486 -1.309869
-0.373752 1.215544 -1.097746
-0.365864 1.206739 -1.092102
-0.359239 1.214561 -1.098407
-0.371593 1.520836 -1.319339
-0.364582 1.553891 -1.344009
-0.354971 1.544471 -1.338140
-0.345196 1.529150 -1.328020
-0.336267 1.530039 -1.329590
-0.327126 1.525154 -1.327006
-0.318675 1.541339 -1.339654
-0.309567 1.537910 -1.338150
-0.300363 1.527201 -1.331387
-0.291181 1.508730 -1.319001
-0.282349 1.509683 -1.320688
-0.273519 1.517813 -1.327597
-0.264580 1.529621 -1.337201
-0.255639 1.527653 -1.336818
-0.246707 1.526309 -1.336900
-0.237728 1.527732 -1.339007
-0.228395 1.541756 -1.350316
-0.219389 1.540505 -1.350510
-0.210647 1.532527 -1.345801
-0.202350 1.516262 -1.335035
-0.192759 1.529891 -1.346134
-0.184670 1.513179 -1.335040
-0.175448 1.518194 -1.339864
-0.166121 1.523789 -1.345134
-0.157307 1.521231 -1.344433
-0.148976 1.512703 -1.339349
-0.140157 1.511057 -1.339331
-0.132820 1.492863 -1.327124
-0.123978 1.492621 -1.328147
-0.113684 1.506733 -1.339782
-0.104317 1.510475 -1.343784
-0.094896 1.514191 -1.347783
-0.086945 1.504945 -1.342195
-0.079496 1.492375 -1.334137
-0.071582 1.484407 -1.329487
-0.060437 1.500940 -1.343051
-0.051014 1.503768 -1.346453
-0.042392 1.500796 -1.345549
-0.033352 1.500687 -1.346786
-0.023818 1.503591 -1.350286
-0.015921 1.496212 -1.346112
-0.008494 1.486460 -1.340160
-0.001140 1.476840 -1.334302
0.008846 1.482220 -1.339692
0.021153 1.499529 -1.354066
0.031277 1.504403 -1.359127
0.039887 1.501285 -1.358192
0.049511 1.503183 -1.361044
0.056145 1.490717 -1.353068
0.065530 1.491495 -1.355091
0.073461 1.485620 -1.352093
0.081219 1.479193 -1.348676
0.088682 1.471740 -1.344482
0.099846 1.479902 -1.352146
0.112209 1.492419 -1.363150
0.119912 1.485839 -1.359648
0.126561 1.475402 -1.353205
0.134272 1.469347 -1.350100
0.138902 1.452118 -1.338453
0.151806 1.465355 -1.350106
0.167439 1.487539 -1.368656
0.176888 1.487355 -1.370097
0.181987 1.472387 -1.360190
0.190648 1.469718 -1.359730
0.199351 1.467195 -1.359392
0.208502 1.466099 -1.360163
0.219457 1.470568 -1.365248
0.227188 1.464915 -1.362525
0.231097 1.447920 -1.351015
0.235128 1.431817 -1.340175
0.248834 1.444153 -1.351417
0.256985 1.440190 -1.350017
0.270728 1.451850 -1.360802
0.284317 1.462581 -1.370905
0.292557 1.458454 -1.369435
0.298843 1.449201 -1.363959
0.304717 1.439088 -1.357806
0.316474 1.444247 -1.363640
0.325483 1.442228 -1.363860
0.332317 1.434794 -1.359828
0.341361 1.432873 -1.360146
0.350727 1.431680 -1.361056
0.359214 1.428351 -1.360292
0.367910 1.425505 -1.359923
0.375217 1.419466 -1.357033
0.374162 1.394686 -1.339246
0.385826 1.398741 -1.344384
0.397663 1.402944 -1.349674
0.408929 1.405692 -1.353834
0.416601 1.400627 -1.351771
0.426407 1.400062 -1.353326
0.434169 1.395190 -1.351445
0.442694 1.391897 -1.350846
0.453900 1.393949 -1.354572
0.467094 1.399757 -1.361363
0.474941 1.394880 -1.359553
0.482913 1.390262 -1.357965
0.492515 1.388739 -1.358904
0.499767 1.382749 -1.356233
0.506253 1.375390 -1.352456
0.518675 1.378903 -1.357565
0.518858 1.360239 -1.344566
0.526027 1.354315 -1.341984
0.539585 1.359593 -1.348616
0.548092 1.355897 -1.347908
0.551841 1.344072 -1.340513
0.566278 1.350392 -1.348110
0.577238 1.350659 -1.350745
0.582873 1.342065 -1.346058
0.585423 1.328573 -1.337299
0.591931 1.321615 -1.333971
0.600882 1.318560 -1.333911
0.610386 1.316318 -1.334553
0.621493 1.316473 -1.337229
0.628568 1.310368 -1.334675
0.633204 1.300627 -1.329064
0.636788 1.289439 -1.322223
0.645333 1.285667 -1.321650
0.654269 1.282432 -1.321548
0.664262 1.280666 -1.322712
0.669267 1.271775 -1.317821
0.673346 1.261687 -1.311897
0.672650 1.245134 -1.300419
0.680050 1.239902 -1.298620
0.685120 1.231547 -1.294131
0.688489 1.221017 -1.287751
0.694615 1.214264 -1.284611
0.697583 1.203465 -1.277949
0.709429 1.204246 -1.281322
0.713438 1.194960 -1.275932
0.714497 1.182099 -1.267386
0.720680 1.175828 -1.264559
0.726321 1.168967 -1.261187
0.732976 1.163438 -1.258952
0.739163 1.157418 -1.256253
0.743641 1.149459 -1.251799
0.741115 1.133402 -1.240115
0.746094 1.126400 -1.236388
0.753474 1.122299 -1.235189
0.757648 1.114627 -1.230755
0.761950 1.107264 -1.226529
0.764981 1.098648 -1.221110
0.769094 1.091424 -1.216864
0.772350 1.083441 -1.211856
0.774318 1.074263 -1.205686
0.784981 1.074631 -1.208058
0.786730 1.065587 -1.201841
0.789469 1.057819 -1.196688
0.792811 1.050897 -1.192209
0.798999 1.047117 -1.190499
0.804120 1.042398 -1.187848
0.796604 1.025043 -1.173561
0.801272 1.020327 -1.170715
0.811239 1.021068 -1.172781
0.821820 1.022505 -1.175409
0.825905 1.017659 -1.172187
0.826559 1.009665 -1.165977
0.827641 1.002321 -1.160270
0.830799 0.997186 -1.156507
0.826427 0.985092 -1.146234
-0.860624 1.345273 -1.152102
-0.816542 1.253690 -1.090397
-0.804821 1.239004 -1.081672
-0.791752 1.220962 -1.070554
-0.691388 0.998242 -0.918355
-0.688044 1.002239 -0.922178
-0.754956 1.218984 -1.076612
-0.758857 1.246387 -1.096891
-0.757070 1.259408 -1.107100
-0.754853 1.271884 -1.116906
-0.749609 1.276558 -1.121213
-0.741885 1.274624 -1.120839
-0.735379 1.276383 -1.123022
-0.729928 1.281519 -1.127547
-0.724460 1.287008 -1.132288
-0.717645 1.288852 -1.134428
-0.710602 1.290277 -1.136237
-0.703677 1.292323 -1.138453
-0.697961 1.298474 -1.143542
-0.691003 1.301016 -1.146052
-0.684155 1.304183 -1.148980
-0.677557 1.308463 -1.152672
-0.670587 1.311772 -1.155655
-0.663826 1.316072 -1.159322
-0.658003 1.324003 -1.165551
-0.651211 1.328834 -1.169566
-0.647766 1.346419 -1.182637
-0.636326 1.334420 -1.174663
-0.628709 1.336808 -1.176907
-0.622077 1.343273 -1.182048
-0.615236 1.349219 -1.186815
-0.607469 1.351593 -1.189035
-0.599547 1.353424 -1.190865
-0.593033 1.361537 -1.197177
-0.586218 1.368698 -1.202815
-0.578485 1.371956 -1.205670
-0.570581 1.374537 -1.208045
-0.563326 1.380406 -1.212777
-0.555756 1.384974 -1.216587
-0.547521 1.386283 -1.218073
-0.539159 1.386922 -1.219085
-0.531437 1.391072 -1.222623
-0.546791 1.527945 -1.321348
-0.539124 1.537428 -1.328789
-0.531072 1.545122 -1.334963
-0.521886 1.546033 -1.336282
-0.513402 1.551562 -1.340933
-0.503435 1.547185 -1.338476
-0.493392 1.541770 -1.335282
-0.483770 1.538921 -1.333943
-0.475915 1.549531 -1.342312
-0.467264 1.554492 -1.346631
-0.457107 1.546846 -1.341874
-0.444916 1.519851 -1.323155
-0.436014 1.521184 -1.324888
-0.425902 1.510320 -1.317819
-0.415712 1.497153 -1.309087
-0.383574 1.231347 -1.117459
-0.374659 1.212206 -1.104267
-0.366746 1.203270 -1.098465
-0.359375 1.200469 -1.097116
-0.371493 1.498153 -1.313955
-0.363245 1.508136 -1.322080
-0.354707 1.514686 -1.327734
-0.346178 1.522863 -1.334593
-0.337113 1.520365 -1.333700
-0.328104 1.518541 -1.333310
-0.318983 1.512267 -1.329684
-0.310444 1.526308 -1.340899
-0.301475 1.526276 -1.341859
-0.292377 1.516712 -1.335861
-0.283377 1.505889 -1.328943
-0.274531 1.508199 -1.331646
-0.265614 1.523424 -1.343838
-0.256650 1.524466 -1.345652
-0.247913 1.508974 -1.335333
-0.238853 1.517915 -1.342972
-0.229768 1.523730 -1.348337
-0.220779 1.524249 -1.349820
-0.212466 1.506384 -1.337759
-0.203835 1.500466 -1.334503
-0.195234 1.495182 -1.331721
-0.186006 1.502394 -1.338186
-0.176992 1.504545 -1.340926
-0.167962 1.506436 -1.343488
-0.158932 1.507889 -1.345741
-0.149971 1.508109 -1.347092
-0.141515 1.502072 -1.343803
-0.134611 1.479195 -1.327986
-0.126491 1.471852 -1.323716
-0.115692 1.491981 -1.339933
-0.106193 1.497535 -1.345314
-0.097338 1.496621 -1.345880
-0.089052 1.490843 -1.342818
-0.081245 1.481596 -1.337159
-0.073244 1.474569 -1.333161
-0.063973 1.477455 -1.336604
-0.053885 1.485802 -1.344167
-0.045981 1.478461 -1.339953
-0.036929 1.479112 -1.341757
-0.027217 1.483777 -1.346600
-0.017932 1.485396 -1.349164
-0.009791 1.480060 -1.346485
-0.000857 1.479492 -1.347416
0.010116 1.490077 -1.356807
0.020307 1.495723 -1.362482
0.027900 1.487489 -1.357639
0.036404 1.484208 -1.356558
0.044948 1.481208 -1.355697
0.054385 1.482501 -1.358115
0.063371 1.481544 -1.358829
0.070567 1.472521 -1.353392
0.075006 1.451838 -1.339029
0.084949 1.455515 -1.343297
0.096310 1.464786 -1.351876
0.105925 1.466441 -1.354636
0.115412 1.467418 -1.356891
0.123746 1.463805 -1.355627
0.128581 1.447085 -1.344265
0.135875 1.440069 -1.340372
0.147215 1.447831 -1.347901
0.163065 1.471042 -1.367416
0.173552 1.474684 -1.371828
0.180948 1.467645 -1.367971
0.189708 1.465306 -1.367767
0.196870 1.457788 -1.363542
0.204998 1.453533 -1.361859
0.213404 1.450215 -1.360913
0.220806 1.443862 -1.357603
0.228351 1.438079 -1.354740
0.233232 1.424584 -1.345837
0.239632 1.415869 -1.340671
0.254489 1.431331 -1.354503
0.266813 1.439097 -1.362329
0.278714 1.445334 -1.368986
0.288003 1.444240 -1.369887
0.291825 1.428648 -1.359342
0.300593 1.426318 -1.359279
0.313249 1.433892 -1.367083
0.323762 1.435733 -1.370371
0.328911 1.424168 -1.363019
0.339901 1.427062 -1.367177
0.346913 1.420251 -1.363619
0.349009 1.401976 -1.350901
0.359785 1.404278 -1.354631
0.371447 1.408428 -1.359870
0.377843 1.400514 -1.355453
0.385924 1.396458 -1.354141
0.398271 1.401718 -1.360348
0.403915 1.392319 -1.354760
0.412684 1.389697 -1.354650
0.423712 1.391755 -1.358348
0.434660 1.393479 -1.361806
0.441383 1.386479 -1.358202
0.450708 1.384763 -1.358907
0.457687 1.378360 -1.355810
0.469427 1.381268 -1.360331
0.479005 1.379839 -1.361337
0.486849 1.375055 -1.359615
0.491391 1.364128 -1.352857
0.504910 1.369886 -1.359834
0.509058 1.358368 -1.352604
0.512220 1.345268 -1.344060
0.520777 1.341925 -1.343585
0.532500 1.344070 -1.347685
0.542277 1.342689 -1.348891
0.547954 1.334255 -1.344245
0.553654 1.325953 -1.339712
0.567469 1.331176 -1.346500
0.578622 1.331791 -1.349475
0.585297 1.325039 -1.346292
0.589449 1.314308 -1.339767
0.600954 1.315294 -1.343124
0.608300 1.309667 -1.340923
0.615806 1.304299 -1.338953
0.623072 1.298574 -1.336691
0.633170 1.297109 -1.338067
0.637623 1.287205 -1.332263
0.646311 1.283608 -1.331848
0.654932 1.279882 -1.331337
0.665438 1.278816 -1.333127
0.669813 1.269018 -1.327414
0.674444 1.259695 -1.322098
0.679107 1.250524 -1.316900
0.681936 1.238967 -1.309615
0.685984 1.229217 -1.303874
0.688542 1.217613 -1.296494
0.695474 1.211927 -1.294255
0.702553 1.206474 -1.292209
0.708771 1.199956 -1.289214
0.715447 1.194089 -1.286772
0.720477 1.186217 -1.282538
0.720397 1.172120 -1.272761
0.725284 1.164369 -1.268551
0.731627 1.158505 -1.265977
0.739348 1.154379 -1.264917
0.744019 1.146689 -1.260638
0.746752 1.136866 -1.254395
0.749519 1.127274 -1.248293
0.758624 1.125155 -1.248848
0.766503 1.121687 -1.248143
0.757273 1.099063 -1.230064
0.762366 1.092860 -1.226731
0.766863 1.086155 -1.222870
0.772865 1.081259 -1.220578
0.778217 1.075802 -1.217700
0.782547 1.069411 -1.213888
0.785714 1.061970 -1.209028
0.792042 1.058053 -1.207308
0.795988 1.051806 -1.203365
0.799202 1.045001 -1.198815
0.805885 1.041944 -1.197623
0.807909 1.034319 -1.192130
0.803655 1.020626 -1.180927
0.813929 1.021711 -1.183289
0.820763 1.019488 -1.182508
0.822615 1.012534 -1.177251
0.823735 1.005091 -1.171443
0.830768 1.003564 -1.171043
0.834485 0.999004 -1.167737
0.839252 0.995621 -1.165440
-0.860284 1.341591 -1.158400
-0.818693 1.256047 -1.100362
-0.807028 1.241469 -1.091660
-0.798460 1.234424 -1.088161
-0.706834 1.034252 -0.950448
-0.692507 1.010772 -0.935058
-0.685498 1.005712 -0.932550
-0.754969 1.215269 -1.082398
-0.758937 1.242618 -1.102854
-0.762299 1.269342 -1.122876
-0.760127 1.281940 -1.132897
-0.750656 1.274912 -1.128985
-0.742788 1.272457 -1.128264
-0.736593 1.274969 -1.131027
-0.730976 1.279490 -1.135182
-0.726347 1.287313 -1.141654
-0.719077 1.287703 -1.142803
-0.710810 1.285291 -1.141916
-0.708657 1.301983 -1.154624
-0.698398 1.293860 -1.149595
-0.692494 1.299637 -1.154459
-0.687419 1.308524 -1.161524
-0.680214 1.310796 -1.163833
-0.671912 1.309564 -1.163610
-0.665532 1.315094 -1.168208
-0.659046 1.320592 -1.172766
-0.653020 1.328095 -1.178747
-0.644883 1.328194 -1.179402
-0.637241 1.330244 -1.181443
-0.630598 1.336316 -1.186364
-0.624745 1.345850 -1.193768
-0.616954 1.348006 -1.195861
-0.608489 1.347485 -1.196021
-0.601214 1.352019 -1.199817
-0.595616 1.364118 -1.209066
-0.587438 1.365262 -1.210422
-0.579220 1.366254 -1.211668
-0.571132 1.367885 -1.213377
-0.563710 1.372815 -1.217473
-0.556948 1.381305 -1.224149
-0.549208 1.385181 -1.227500
-0.541112 1.387333 -1.229613
-0.532828 1.388512 -1.231030
-0.539477 1.527811 -1.333118
-0.530798 1.531460 -1.336410
-0.521426 1.530877 -1.336645
-0.512295 1.531727 -1.337932
-0.504088 1.538853 -1.343789
-0.493903 1.532360 -1.339768
-0.484272 1.529305 -1.338254
-0.474846 1.527448 -1.337622
-0.466635 1.535164 -1.343971
-0.455470 1.518320 -1.332448
-0.445814 1.513138 -1.329425
-0.436132 1.507024 -1.325731
-0.426704 1.502614 -1.323289
-0.414857 1.471867 -1.301617
-0.375384 1.206529 -1.109099
-0.366499 1.184987 -1.094002
-0.360716 1.203391 -1.108158
-0.370694 1.465090 -1.300725
-0.363090 1.483049 -1.314755
-0.354950 1.494772 -1.324240
-0.346576 1.504315 -1.332151
-0.337770 1.506193 -1.334450
-0.328621 1.499286 -1.330299
-0.319949 1.504910 -1.335385
-0.310814 1.494993 -1.329033
-0.302331 1.511798 -1.342402
-0.293434 1.513056 -1.344323
-0.284377 1.497491 -1.333824
-0.275545 1.498176 -1.335340
-0.266652 1.518663 -1.351534
-0.257670 1.521614 -1.354773
-0.248928 1.504960 -1.343484
-0.240115 1.501286 -1.341824
-0.230961 1.512542 -1.351268
-0.222327 1.502794 -1.345115
-0.214106 1.484715 -1.332759
-0.205204 1.487354 -1.335831
-0.196029 1.494906 -1.342585
-0.186725 1.503099 -1.349841
-0.177841 1.502561 -1.350595
-0.168792 1.504488 -1.353205
-0.160121 1.500670 -1.351527
-0.151403 1.497916 -1.350653
-0.143730 1.482747 -1.340469
-0.135815 1.472164 -1.333719
-0.127745 1.464412 -1.329093
-0.119509 1.459100 -1.326305
-0.107936 1.485852 -1.347688
-0.099524 1.481328 -1.345526
-0.091686 1.472229 -1.339912
-0.083495 1.466753 -1.337035
-0.072849 1.480716 -1.348876
-0.063626 1.482789 -1.351742
-0.055667 1.475575 -1.347577
-0.048390 1.464162 -1.340221
-0.038259 1.472286 -1.347714
-0.029011 1.474106 -1.350434
-0.020570 1.470759 -1.349230
-0.011190 1.473072 -1.352351
-0.001369 1.477636 -1.357208
0.010707 1.494218 -1.371277
0.018439 1.486474 -1.366759
0.025028 1.473183 -1.357987
0.030812 1.456544 -1.346632
0.041624 1.465265 -1.354749
0.050520 1.464323 -1.355458
0.060253 1.467180 -1.359105
0.066676 1.454957 -1.351137
0.074420 1.449040 -1.348028
0.084416 1.452892 -1.352476
0.094383 1.456334 -1.356627
0.101827 1.449312 -1.352683
0.108951 1.441268 -1.347945
0.117519 1.439062 -1.347743
0.124619 1.431336 -1.343252
0.134055 1.432457 -1.345654
0.144041 1.435409 -1.349502
0.156755 1.447737 -1.360696
0.167059 1.451140 -1.364947
0.178460 1.458003 -1.371930
0.184887 1.448062 -1.365756
0.194567 1.448948 -1.368085
0.201691 1.441594 -1.363946
0.201935 1.413039 -1.343100
0.208087 1.403501 -1.337213
0.221980 1.417388 -1.349831
0.230331 1.414388 -1.349133
0.239401 1.413477 -1.350099
0.250184 1.417343 -1.354872
0.264497 1.430786 -1.367282
0.271754 1.424394 -1.363954
0.278180 1.415895 -1.358948
0.285251 1.409287 -1.355449
0.291458 1.400562 -1.350261
0.304786 1.410180 -1.359760
0.316408 1.415102 -1.365536
0.325064 1.412448 -1.365258
0.335508 1.414118 -1.368472
0.342185 1.406633 -1.364334
0.343343 1.386313 -1.349836
0.356027 1.393184 -1.357292
0.366708 1.395176 -1.360836
0.374748 1.391080 -1.359470
0.385899 1.393872 -1.363712
0.395106 1.392243 -1.364387
0.400703 1.382813 -1.358721
0.407888 1.376905 -1.355930
0.419187 1.379626 -1.360207
0.431233 1.383687 -1.365615
0.442923 1.386804 -1.370286
0.446947 1.374431 -1.362252
0.453540 1.367341 -1.358560
0.461438 1.362864 -1.357032
0.473301 1.365977 -1.361797
0.480504 1.360100 -1.359149
0.489729 1.358027 -1.359670
0.497192 1.352657 -1.357472
0.504806 1.347585 -1.355534
0.508844 1.336139 -1.348286
0.518137 1.334138 -1.348935
0.529334 1.335385 -1.352331
0.536682 1.329867 -1.350079
0.545577 1.326991 -1.350064
0.547596 1.312562 -1.340323
0.558342 1.312794 -1.342958
0.576026 1.324213 -1.355106
0.585863 1.322584 -1.356248
0.591094 1.313547 -1.351113
0.596181 1.304387 -1.345871
0.600766 1.294550 -1.340048
0.604185 1.283048 -1.332793
0.616208 1.284722 -1.336838
0.629066 1.287478 -1.341853
0.635466 1.280519 -1.338528
0.643199 1.275551 -1.336927
0.652399 1.272698 -1.337168
0.660531 1.268276 -1.336063
0.666948 1.261435 -1.332858
0.672320 1.253195 -1.328429
0.678283 1.245850 -1.324773
0.684428 1.238821 -1.321384
0.686679 1.226635 -1.313451
0.688197 1.213666 -1.304791
0.694985 1.207806 -1.302372
0.703068 1.203670 -1.301466
0.707309 1.194632 -1.296198
0.713717 1.188467 -1.293453
0.719934 1.182133 -1.290533
0.721907 1.170631 -1.282961
0.726226 1.162200 -1.278085
0.731893 1.155538 -1.274754
0.738274 1.149839 -1.272246
0.744883 1.144500 -1.270022
0.747665 1.134778 -1.263783
0.748928 1.123493 -1.256055
0.755980 1.119071 -1.254491
0.763584 1.115372 -1.253530
0.757472 1.096380 -1.238539
0.762565 1.090237 -1.235192
0.773045 1.090168 -1.237344
0.774471 1.080289 -1.230420
0.777775 1.072676 -1.225487
0.781875 1.066113 -1.221435
0.787422 1.061269 -1.218881
0.791166 1.054698 -1.214643
0.801297 1.054948 -1.216641
0.803222 1.046843 -1.210798
0.803544 1.037338 -1.203551
0.806617 1.030870 -1.199030
0.807422 1.022340 -1.192487
0.814348 1.020128 -1.191748
0.821370 1.018151 -1.191143
0.824534 1.012545 -1.187052
0.825859 1.005355 -1.181380
0.828620 0.999766 -1.177118
0.836326 0.999089 -1.177383
0.838680 0.993467 -1.172915
-0.824733 1.267758 -1.116948
-0.813925 1.255316 -1.109712
-0.798131 1.230703 -1.093821
-0.692358 1.007668 -0.939807
-0.685333 1.002462 -0.937193
-0.764814 1.254323 -1.119820
-0.764451 1.270998 -1.132894
-0.762307 1.283553 -1.143010
-0.751689 1.273294 -1.136777
-0.743379 1.269480 -1.135104
-0.737872 1.273803 -1.139217
-0.734658 1.285144 -1.148334
-0.727472 1.285421 -1.149476
-0.719953 1.284948 -1.150038
-0.714525 1.291040 -1.155289
-0.711729 1.305694 -1.166679
-0.702647 1.301303 -1.164316
-0.692240 1.292706 -1.158879
-0.690484 1.312191 -1.173683
-0.684744 1.319345 -1.179564
-0.676860 1.319662 -1.180481
-0.667378 1.314608 -1.177484
-0.660784 1.319665 -1.181781
-0.653643 1.323075 -1.184868
-0.646443 1.326509 -1.187957
-0.639490 1.331110 -1.191878
-0.633278 1.338841 -1.198061
-0.626383 1.344294 -1.202582
-0.618818 1.347346 -1.205353
-0.610512 1.347516 -1.206022
-0.602082 1.347181 -1.206317
-0.595562 1.355136 -1.212641
-0.589080 1.363677 -1.219395
-0.580394 1.362555 -1.219114
-0.572322 1.364240 -1.220877
-0.565215 1.370663 -1.226100
-0.558309 1.378418 -1.232302
-0.550814 1.383566 -1.236611
-0.543391 1.389351 -1.241395
-0.537157 1.401954 -1.251173
-0.529759 1.408738 -1.256712
-0.536090 1.496285 -1.321362
-0.530065 1.515062 -1.335743
-0.521507 1.519194 -1.339422
-0.511624 1.514883 -1.336926
-0.502772 1.517126 -1.339244
-0.494116 1.520820 -1.342643
-0.484023 1.514127 -1.338430
-0.474495 1.511070 -1.336895
-0.464948 1.507447 -1.334954
-0.456593 1.513431 -1.340091
-0.446724 1.506446 -1.335701
-0.438261 1.511748 -1.340369
-0.428905 1.508698 -1.338900
-0.376726 1.208138 -1.119301
-0.368569 1.196638 -1.111474
-0.361341 1.196067 -1.111732
-0.371450 1.455985 -1.304843
-0.364493 1.483967 -1.326423
-0.355872 1.487445 -1.329881
-0.347363 1.493858 -1.335535
-0.338801 1.500628 -1.341476
-0.329399 1.487170 -1.332405
-0.320261 1.477044 -1.325812
-0.311773 1.486940 -1.334124
-0.303075 1.492067 -1.338910
-0.294382 1.501303 -1.346780
-0.285454 1.496762 -1.344393
-0.276536 1.480869 -1.333535
-0.267734 1.497373 -1.346891
-0.258792 1.507253 -1.355325
-0.250061 1.492832 -1.345586
-0.241182 1.494629 -1.347998
-0.232142 1.501929 -1.354555
-0.224162 1.471624 -1.332892
-0.215291 1.475313 -1.336755
-0.206546 1.474849 -1.337511
-0.196969 1.491832 -1.351421
-0.188274 1.488512 -1.350061
-0.179257 1.491136 -1.353194
-0.170245 1.493110 -1.355854
-0.161096 1.496562 -1.359647
-0.153550 1.478383 -1.347082
-0.145422 1.469711 -1.341706
-0.137688 1.457580 -1.333705
-0.129532 1.451326 -1.330159
-0.119542 1.464109 -1.341087
-0.110028 1.470857 -1.347456
-0.101494 1.467953 -1.346494
-0.094404 1.452876 -1.336256
-0.084804 1.459566 -1.342623
-0.074186 1.473462 -1.354522
-0.064964 1.475647 -1.357495
-0.058248 1.459654 -1.346559
-0.050384 1.452705 -1.342543
-0.039211 1.467962 -1.355576
-0.031200 1.461935 -1.352288
-0.024855 1.446049 -1.341414
-0.014192 1.456633 -1.350917
-0.000953 1.481079 -1.371143
0.014816 1.467857 -1.363743
0.022328 1.459770 -1.358900
0.029232 1.449015 -1.351987
0.036412 1.440126 -1.346513
0.041034 1.419532 -1.331942
0.064498 1.445068 -1.354685
0.072578 1.440753 -1.352792
0.082840 1.445833 -1.358238
0.092357 1.447473 -1.361018
0.097857 1.432703 -1.350968
0.103164 1.417784 -1.340785
0.113207 1.421704 -1.345370
0.125159 1.432528 -1.355404
0.133664 1.430093 -1.355039
0.142984 1.430599 -1.357001
0.152072 1.430168 -1.358238
0.163904 1.439102 -1.366890
0.167976 1.421419 -1.354514
0.171577 1.402815 -1.341387
0.183321 1.411191 -1.349639
0.192669 1.411546 -1.351552
0.199930 1.405309 -1.348237
0.207187 1.399204 -1.345028
0.218648 1.405796 -1.351953
0.231763 1.416896 -1.362512
0.239883 1.413108 -1.361200
0.250429 1.416219 -1.365425
0.260319 1.417298 -1.368044
0.269499 1.416303 -1.369017
0.275821 1.407587 -1.363789
0.280224 1.394017 -1.354646
0.286840 1.386537 -1.350406
0.297568 1.389668 -1.354747
0.310223 1.397420 -1.362861
0.318284 1.393507 -1.361549
0.325974 1.388718 -1.359537
0.337045 1.392039 -1.364134
0.348175 1.395290 -1.368704
0.355613 1.389807 -1.366173
0.362540 1.383228 -1.362753
0.370397 1.378824 -1.361121
0.382743 1.384347 -1.367646
0.392601 1.384191 -1.369543
0.399010 1.376549 -1.365298
0.395928 1.349012 -1.344645
0.407603 1.352826 -1.349845
0.426841 1.371912 -1.367725
0.436981 1.371975 -1.369911
0.445317 1.368332 -1.369045
0.448025 1.353634 -1.358994
0.454316 1.346165 -1.354953
0.465955 1.348989 -1.359517
0.479525 1.355256 -1.367002
0.481051 1.338876 -1.355540
0.487722 1.332242 -1.352246
0.498290 1.332708 -1.354939
0.507396 1.330438 -1.355354
0.517749 1.330300 -1.357595
0.529794 1.332984 -1.362259
0.534838 1.323480 -1.356616
0.537153 1.309485 -1.347152
0.546331 1.307185 -1.347640
0.559494 1.311388 -1.353706
0.573884 1.317359 -1.361334
0.583747 1.315781 -1.362540
0.588217 1.305568 -1.356348
0.592496 1.295185 -1.350003
0.593779 1.280306 -1.339766
0.596727 1.268217 -1.331919
0.610836 1.273141 -1.338816
0.622894 1.274770 -1.342898
0.629465 1.268163 -1.339838
0.637747 1.264087 -1.338991
0.644766 1.258179 -1.336552
0.653735 1.255067 -1.336568
0.658810 1.246458 -1.331761
0.669006 1.245039 -1.333284
0.673319 1.235496 -1.327638
0.683364 1.233829 -1.328954
0.684727 1.220495 -1.319914
0.685606 1.206740 -1.310456
0.691868 1.200244 -1.307433
0.698319 1.194060 -1.304669
0.703617 1.186468 -1.300623
0.710937 1.181528 -1.298931
0.717399 1.175566 -1.296296
0.725227 1.171365 -1.295222
0.730084 1.163583 -1.290876
0.734334 1.155200 -1.285937
0.738386 1.146729 -1.280864
0.744057 1.140326 -1.277620
0.752555 1.137342 -1.277452
0.755609 1.128128 -1.271525
0.757502 1.117783 -1.264485
0.758252 1.106370 -1.256378
0.758770 1.094949 -1.248173
0.766655 1.091946 -1.247661
0.772465 1.086764 -1.245063
0.778983 1.082496 -1.243237
0.775961 1.068109 -1.231915
0.781336 1.062997 -1.229124
0.793522 1.065227 -1.233108
0.799310 1.060806 -1.230801
0.800216 1.051491 -1.223820
0.805935 1.047366 -1.221605
0.807881 1.039570 -1.215847
0.805626 1.027770 -1.206217
0.810070 1.022961 -1.203068
0.815273 1.019086 -1.200706
0.823562 1.018409 -1.201277
0.826320 1.012460 -1.196775
0.825759 1.003502 -1.189329
0.825350 0.994938 -1.182158
0.832627 0.993933 -1.182067
0.851623 1.004130 -1.192533
-0.816087 1.257753 -1.119835
-0.810532 1.258077 -1.121595
-0.805447 1.259833 -1.124341
-0.695773 1.013611 -0.951001
-0.684468 0.997500 -0.940576
-0.767915 1.258674 -1.131665
-0.764214 1.266300 -1.138374
-0.760947 1.275593 -1.146257
-0.752242 1.270425 -1.143666
-0.744452 1.267934 -1.142960
-0.740605 1.276830 -1.150451
-0.733880 1.277956 -1.152282
-0.727120 1.279268 -1.154209
-0.721413 1.283998 -1.158577
-0.716429 1.291305 -1.164787
-0.711979 1.300728 -1.172506
-0.703985 1.299602 -1.172519
-0.696557 1.300438 -1.173925
-0.691945 1.310641 -1.182130
-0.685407 1.315031 -1.186071
-0.677218 1.314188 -1.186166
-0.669215 1.314097 -1.186782
-0.661769 1.316097 -1.188902
-0.655280 1.321730 -1.193659
-0.648606 1.327034 -1.198159
-0.641772 1.332065 -1.202446
-0.634384 1.335279 -1.205389
-0.627370 1.340171 -1.209551
-0.619686 1.342659 -1.211941
-0.611757 1.344293 -1.213696
-0.603167 1.343254 -1.213481
-0.596342 1.349800 -1.218834
-0.589144 1.355036 -1.223225
-0.581889 1.360287 -1.227627
-0.573365 1.359866 -1.227858
-0.566403 1.366914 -1.233591
-0.559709 1.375671 -1.240590
-0.552183 1.380653 -1.244815
-0.544712 1.386181 -1.249452
-0.537707 1.394538 -1.256188
-0.530621 1.402920 -1.262955
-0.534046 1.472891 -1.315246
-0.527972 1.490576 -1.328946
-0.519681 1.495631 -1.333327
-0.512087 1.505485 -1.341275
-0.502739 1.504210 -1.341001
-0.494702 1.511904 -1.347384
-0.485595 1.512323 -1.348392
-0.474742 1.499348 -1.339475
-0.466010 1.501981 -1.342146
-0.457438 1.506093 -1.345933
-0.448435 1.506710 -1.347139
-0.439554 1.508406 -1.349163
-0.430163 1.505162 -1.347525
-0.417376 1.466119 -1.319234
-0.378504 1.214620 -1.133231
-0.369461 1.192840 -1.117652
-0.362320 1.193529 -1.118846
-0.366144 1.488540 -1.340926
-0.357389 1.490580 -1.343336
-0.348382 1.487965 -1.342275
-0.339657 1.490886 -1.345377
-0.330506 1.483546 -1.340797
-0.320889 1.459463 -1.323648
-0.312431 1.467594 -1.330697
-0.304173 1.489215 -1.347919
-0.295335 1.489793 -1.349338
-0.286566 1.497749 -1.356332
-0.277642 1.491088 -1.352326
-0.268782 1.492762 -1.354618
-0.259977 1.483650 -1.348777
-0.251118 1.486835 -1.352235
-0.242734 1.462182 -1.334642
-0.233595 1.480201 -1.349357
-0.224537 1.488463 -1.356711
-0.216729 1.458931 -1.335403
-0.207685 1.467280 -1.342846
-0.198752 1.471088 -1.346861
-0.190259 1.465636 -1.343846
-0.182681 1.445529 -1.329669
-0.172301 1.472378 -1.351290
-0.163216 1.476241 -1.355414
-0.154993 1.468048 -1.350343
-0.147136 1.456416 -1.342641
-0.139236 1.446678 -1.336383
-0.131949 1.431470 -1.325928
-0.122070 1.444077 -1.336809
-0.112171 1.455359 -1.346705
-0.104410 1.446044 -1.340790
-0.095853 1.444362 -1.340748
-0.086320 1.450710 -1.346905
-0.076977 1.454883 -1.351408
-0.068987 1.448495 -1.347771
-0.062446 1.432176 -1.336455
-0.055439 1.420256 -1.328529
-0.046150 1.424196 -1.332887
-0.036832 1.427918 -1.337095
-0.027463 1.431582 -1.341277
-0.017110 1.440690 -1.349712
-0.006686 1.449479 -1.357928
0.004899 1.464000 -1.370642
0.005443 1.418525 -1.336562
0.015471 1.424836 -1.342882
0.031616 1.461380 -1.372883
0.038031 1.448266 -1.364063
0.045534 1.440950 -1.359778
0.053102 1.434237 -1.355966
0.061506 1.431530 -1.355304
0.070873 1.433065 -1.357989
0.078449 1.426812 -1.354551
0.086327 1.422029 -1.352274
0.090661 1.403068 -1.338794
0.097848 1.396166 -1.334833
0.111222 1.413305 -1.349923
0.122775 1.422710 -1.358925
0.131775 1.422212 -1.360093
0.140842 1.421878 -1.361405
0.149623 1.420454 -1.361862
0.151310 1.394607 -1.342845
0.157822 1.385987 -1.337551
0.168838 1.392477 -1.344340
0.177888 1.392257 -1.345784
0.189089 1.398757 -1.352633
0.196321 1.392592 -1.349339
0.207524 1.398650 -1.355880
0.219688 1.407252 -1.364501
0.229173 1.407585 -1.366488
0.241326 1.415476 -1.374600
0.246539 1.403394 -1.366586
0.251152 1.389983 -1.357483
0.264715 1.401315 -1.368449
0.275365 1.404362 -1.372727
0.277642 1.385186 -1.358939
0.284098 1.377362 -1.354379
0.295292 1.381741 -1.359784
0.305856 1.384298 -1.363730
0.317552 1.389451 -1.369832
0.323859 1.381305 -1.365054
0.339198 1.394808 -1.378070
0.333338 1.358128 -1.349830
0.351592 1.378087 -1.368219
0.347861 1.347419 -1.344867
0.367704 1.370275 -1.365741
0.375853 1.366591 -1.364704
0.387074 1.369571 -1.369215
0.394785 1.364856 -1.367359
0.400905 1.356821 -1.362748
0.409675 1.354407 -1.362832
0.414564 1.344017 -1.356264
0.421842 1.338629 -1.353882
0.437748 1.350416 -1.365925
0.443759 1.342382 -1.361366
0.446524 1.328191 -1.351624
0.459002 1.332772 -1.357708
0.475476 1.344616 -1.369978
0.479243 1.332484 -1.362003
0.483803 1.322011 -1.355425
0.492267 1.318736 -1.354967
0.502456 1.318501 -1.357117
0.515592 1.323322 -1.363618
0.524414 1.320427 -1.363562
0.534553 1.319736 -1.365418
0.538136 1.307880 -1.357710
0.545707 1.302849 -1.355868
0.556608 1.303300 -1.358771
0.568272 1.304854 -1.362663
0.578941 1.304652 -1.365071
0.585712 1.298166 -1.362052
0.588005 1.284724 -1.352983
0.591022 1.272612 -1.345054
0.598498 1.267473 -1.343208
0.602529 1.257157 -1.336833
0.614816 1.259247 -1.341348
0.622345 1.254185 -1.339601
0.629968 1.249266 -1.337988
0.638740 1.245998 -1.337843
0.642502 1.235608 -1.331392
0.651907 1.233248 -1.332062
0.661334 1.230870 -1.332729
0.676885 1.236805 -1.340834
0.676144 1.220524 -1.329084
0.682372 1.213819 -1.325878
0.688341 1.206838 -1.322409
0.690326 1.194747 -1.314307
0.696292 1.187980 -1.310976
0.699179 1.177376 -1.304140
0.704602 1.170137 -1.300315
0.715878 1.170280 -1.303184
0.723537 1.165919 -1.301932
0.729852 1.159975 -1.299199
0.734344 1.151931 -1.294497
0.738132 1.143196 -1.289104
0.744366 1.137507 -1.286457
0.752557 1.134205 -1.285963
0.757870 1.127655 -1.282411
0.759019 1.116502 -1.274519
0.758461 1.103670 -1.264975
0.761475 1.095110 -1.259315
0.767142 1.089685 -1.256498
0.773751 1.085437 -1.254707
0.771625 1.071861 -1.244086
0.785385 1.075638 -1.249665
0.784066 1.063389 -1.240096
0.791155 1.060287 -1.239044
0.802271 1.061513 -1.242000
0.807980 1.057214 -1.239651
0.803442 1.042592 -1.227422
0.807226 1.036761 -1.223419
0.811626 1.031744 -1.220093
0.816496 1.027380 -1.217295
0.821145 1.022972 -1.214360
0.827063 1.019986 -1.212689
0.823641 1.008065 -1.202392
0.819631 0.995871 -1.191729
0.821254 0.989370 -1.186412
0.830809 0.990616 -1.188427
0.839891 0.991506 -1.190023
-0.819345 1.262885 -1.131930
-0.810710 1.255685 -1.128331
-0.800890 1.245681 -1.122662
-0.697519 1.015388 -0.959272
-0.691922 1.013769 -0.959260
-0.682445 1.002350 -0.952114
-0.764920 1.246982 -1.131929
-0.761585 1.255306 -1.139228
-0.757043 1.260856 -1.144480
-0.752066 1.265635 -1.149135
-0.747832 1.272894 -1.155566
-0.745728 1.286658 -1.166720
-0.732971 1.270503 -1.155963
-0.726728 1.273101 -1.158873
-0.722494 1.281983 -1.166351
-0.717585 1.289362 -1.172699
-0.711510 1.293648 -1.176745
-0.704174 1.294369 -1.178137
-0.696858 1.295386 -1.179712
-0.690554 1.299910 -1.183834
-0.684930 1.307027 -1.189840
-0.676963 1.306725 -1.190351
-0.669353 1.307785 -1.191838
-0.662572 1.311933 -1.195580
-0.656751 1.319806 -1.202053
-0.650248 1.325644 -1.207006
-0.642949 1.328874 -1.210015
-0.635036 1.330002 -1.211454
-0.627387 1.332279 -1.213729
-0.620308 1.336999 -1.217802
-0.612328 1.338312 -1.219342
-0.604314 1.339586 -1.220844
-0.596843 1.343274 -1.224132
-0.590768 1.353314 -1.232135
-0.582851 1.355560 -1.234350
-0.574577 1.356257 -1.235415
-0.567094 1.360755 -1.239306
-0.561345 1.374023 -1.249728
-0.553219 1.375990 -1.251750
-0.545251 1.378857 -1.254446
-0.538295 1.387314 -1.261317
-0.531569 1.397548 -1.269524
-0.525529 1.412363 -1.281167
-0.525544 1.464311 -1.320551
-0.517184 1.468125 -1.324032
-0.508580 1.470564 -1.326499
-0.504930 1.506178 -1.353788
-0.495068 1.501427 -1.350915
-0.485650 1.499380 -1.350074
-0.475768 1.493530 -1.346396
-0.465906 1.487179 -1.342349
-0.459544 1.509149 -1.359554
-0.449774 1.503514 -1.356072
-0.438558 1.483862 -1.342073
-0.428261 1.470802 -1.333021
-0.417467 1.450948 -1.318862
-0.406033 1.421454 -1.297441
-0.380162 1.219338 -1.145999
-0.370482 1.190522 -1.124963
-0.363567 1.194421 -1.128581
-0.358268 1.222515 -1.150477
-0.366759 1.476064 -1.342705
-0.357993 1.477193 -1.344435
-0.349157 1.477075 -1.345238
-0.340245 1.475126 -1.344670
-0.330731 1.457262 -1.332055
-0.321802 1.450553 -1.327892
-0.313293 1.455910 -1.332892
-0.304826 1.465813 -1.341366
-0.296355 1.482209 -1.354803
-0.287481 1.478760 -1.353175
-0.278746 1.494879 -1.366459
-0.269852 1.470597 -1.348988
-0.261060 1.473749 -1.352425
-0.252241 1.475987 -1.355183
-0.243879 1.451072 -1.337208
-0.234967 1.461427 -1.346188
-0.226243 1.461187 -1.347086
-0.217674 1.456456 -1.344556
-0.209386 1.446076 -1.337699
-0.200167 1.458074 -1.348022
-0.192906 1.429936 -1.327529
-0.183883 1.437551 -1.334513
-0.174240 1.453366 -1.347835
-0.164535 1.467308 -1.359750
-0.155662 1.467984 -1.361465
-0.147658 1.457758 -1.354773
-0.140023 1.444531 -1.345757
-0.132419 1.432516 -1.337670
-0.124666 1.423302 -1.331747
-0.116624 1.417758 -1.328668
-0.105888 1.437094 -1.344912
-0.097211 1.436668 -1.345838
-0.088637 1.435317 -1.346057
-0.079327 1.439731 -1.350777
-0.071062 1.435847 -1.349045
-0.065512 1.412743 -1.332313
-0.056963 1.411993 -1.333025
-0.048419 1.411166 -1.333689
-0.039702 1.411399 -1.335194
-0.030044 1.417265 -1.341129
-0.020642 1.421105 -1.345498
-0.010187 1.430596 -1.354328
-0.001843 1.427701 -1.353440
0.005305 1.418503 -1.347591
0.015922 1.427728 -1.356275
0.029366 1.450490 -1.375683
0.036006 1.438658 -1.367785
0.039680 1.413349 -1.349205
0.050291 1.421281 -1.356945
0.061247 1.430231 -1.365524
0.068211 1.421200 -1.359839
0.075498 1.413909 -1.355535
0.081274 1.400635 -1.346461
0.087303 1.388938 -1.338633
0.097359 1.393574 -1.343844
0.107967 1.400017 -1.350526
0.117401 1.401654 -1.353384
0.126970 1.403618 -1.356523
0.137030 1.407157 -1.360946
0.143845 1.399052 -1.356025
0.146013 1.375230 -1.338441
0.156859 1.381501 -1.345093
0.164568 1.377090 -1.343146
0.174481 1.379870 -1.347022
0.183133 1.378458 -1.347524
0.194814 1.386391 -1.355620
0.203110 1.383633 -1.355066
0.210060 1.376869 -1.351264
0.226607 1.398337 -1.370464
0.233541 1.391312 -1.366485
0.239335 1.381229 -1.360007
0.241253 1.360680 -1.344959
0.253753 1.369535 -1.353979
0.269227 1.385927 -1.369226
0.277155 1.381844 -1.367701
0.283723 1.374288 -1.363325
0.291972 1.371147 -1.362592
0.305124 1.380246 -1.371981
0.312104 1.373796 -1.368551
0.319287 1.367941 -1.365619
0.321005 1.349187 -1.351986
0.342116 1.376267 -1.376431
0.340316 1.349663 -1.356265
0.351877 1.354054 -1.361905
0.352753 1.334363 -1.347457
0.370457 1.352139 -1.364339
0.375032 1.340859 -1.356933
0.387548 1.346738 -1.363933
0.397978 1.347953 -1.367051
0.402616 1.337035 -1.359971
0.405580 1.322905 -1.350171
0.415301 1.322654 -1.352098
0.424817 1.321895 -1.353620
0.435201 1.322741 -1.356531
0.441447 1.315476 -1.352572
0.449799 1.312300 -1.352104
0.468021 1.327591 -1.367429
0.480707 1.332116 -1.373620
0.479873 1.311753 -1.358515
0.484567 1.301761 -1.352281
0.493531 1.299494 -1.352697
0.506085 1.303457 -1.358510
0.516591 1.303656 -1.361114
0.523623 1.297805 -1.358510
0.534086 1.297762 -1.360958
0.544073 1.296806 -1.362645
0.550290 1.289573 -1.358887
0.557328 1.283730 -1.356350
0.572812 1.291413 -1.365668
0.580484 1.286454 -1.363951
0.583553 1.274327 -1.355941
0.590592 1.268489 -1.353460
0.594802 1.258378 -1.347210
0.600343 1.250397 -1.342837
0.609386 1.247686 -1.343138
0.617212 1.243144 -1.341828
0.623674 1.236628 -1.338766
0.629192 1.228809 -1.334536
0.636188 1.223157 -1.332241
0.645159 1.220289 -1.332446
0.660888 1.226697 -1.341014
0.664194 1.215941 -1.334133
0.671626 1.210893 -1.332388
0.680537 1.207839 -1.332445
0.687874 1.202703 -1.330605
0.693847 1.195831 -1.327169
0.697637 1.186239 -1.321222
0.698778 1.173438 -1.312292
0.703225 1.165011 -1.307321
0.710123 1.159758 -1.305229
0.724700 1.163991 -1.311862
0.730080 1.156935 -1.308053
0.732923 1.146960 -1.301486
0.737592 1.139342 -1.297045
0.746925 1.137345 -1.297780
0.750794 1.129040 -1.292582
0.755380 1.121735 -1.288247
0.757848 1.112184 -1.281734
0.758848 1.101199 -1.273784
0.760996 1.091742 -1.267181
0.768412 1.088316 -1.266179
0.779507 1.089013 -1.269005
0.785827 1.084590 -1.266917
0.783253 1.070795 -1.255844
0.787750 1.064820 -1.252094
0.791444 1.058186 -1.247622
0.803111 1.060043 -1.251159
0.802545 1.049342 -1.242615
0.808986 1.046077 -1.241081
0.807036 1.034466 -1.231452
0.813756 1.031854 -1.230350
0.815830 1.024761 -1.224851
0.821834 1.021766 -1.223196
0.829721 1.020768 -1.223376
0.829568 1.012082 -1.216053
0.815772 0.990488 -1.196168
0.819343 0.985944 -1.192641
0.826448 0.984930 -1.192442
0.839471 0.989617 -1.197680
-0.823224 1.269555 -1.145211
-0.809436 1.249849 -1.132547
-0.796444 1.231937 -1.121104
-0.695948 1.021321 -0.971804
-0.697022 1.037020 -0.984448
-0.693201 1.040613 -0.988229
-0.757232 1.223078 -1.123100
-0.756550 1.238032 -1.135340
-0.755440 1.252496 -1.147207
-0.754429 1.267903 -1.159751
-0.749785 1.273921 -1.165361
-0.744678 1.279081 -1.170304
-0.740037 1.285990 -1.176504
-0.729820 1.277166 -1.171041
-0.724174 1.281813 -1.175489
-0.717553 1.283922 -1.178022
-0.711409 1.287795 -1.181825
-0.704290 1.289000 -1.183614
-0.697291 1.290839 -1.185837
-0.690706 1.294280 -1.189217
-0.684335 1.298742 -1.193326
-0.677301 1.301336 -1.196016
-0.670148 1.303795 -1.198578
-0.663185 1.307163 -1.201792
-0.658769 1.319846 -1.211933
-0.651095 1.321384 -1.213741
-0.643333 1.322775 -1.215420
-0.635038 1.322306 -1.215689
-0.627373 1.324336 -1.217811
-0.620587 1.330017 -1.222650
-0.613387 1.334348 -1.226471
-0.605281 1.335163 -1.227651
-0.598746 1.342754 -1.233902
-0.592065 1.350122 -1.239985
-0.585188 1.357010 -1.245708
-0.577177 1.359033 -1.247782
-0.570376 1.366905 -1.254248
-0.563178 1.373269 -1.259588
-0.554777 1.373923 -1.260641
-0.546204 1.373677 -1.261021
-0.539237 1.381975 -1.267835
-0.532071 1.389662 -1.274201
-0.525251 1.399783 -1.282414
-0.519300 1.415691 -1.295005
-0.514049 1.436980 -1.311676
-0.507722 1.452927 -1.324344
-0.498718 1.452306 -1.324524
-0.491778 1.465754 -1.335344
-0.482134 1.460821 -1.332291
-0.475141 1.475231 -1.343879
-0.466525 1.478123 -1.346774
-0.455188 1.458814 -1.332868
-0.450401 1.494006 -1.360265
-0.440050 1.482217 -1.352080
-0.426091 1.434333 -1.316506
-0.417580 1.436088 -1.318592
-0.409125 1.438546 -1.321229
-0.372257 1.197346 -1.139268
-0.364261 1.187674 -1.132586
-0.367070 1.458811 -1.340749
-0.358773 1.466866 -1.347765
-0.349807 1.463722 -1.346251
-0.340493 1.452116 -1.338281
-0.331616 1.447896 -1.335961
-0.322927 1.447609 -1.336663
-0.314215 1.446282 -1.336581
-0.305593 1.448050 -1.338886
-0.297021 1.453805 -1.344267
-0.288415 1.462266 -1.351749
-0.279620 1.454941 -1.347121
-0.270910 1.460304 -1.352259
-0.262176 1.458809 -1.352138
-0.253512 1.452525 -1.348338
-0.245018 1.440446 -1.340072
-0.236444 1.437776 -1.339069
-0.227830 1.437429 -1.339871
-0.219301 1.434597 -1.338765
-0.210543 1.438113 -1.342583
-0.202528 1.424530 -1.333166
-0.193574 1.431917 -1.340013
-0.184998 1.431162 -1.340561
-0.175946 1.437925 -1.346965
-0.165794 1.459301 -1.364766
-0.156704 1.463112 -1.368930
-0.148333 1.457363 -1.365659
-0.140921 1.441214 -1.354273
-0.132967 1.432822 -1.348936
-0.124138 1.434213 -1.351251
-0.115581 1.432725 -1.351327
-0.107461 1.427307 -1.348332
-0.098858 1.426490 -1.348953
-0.089379 1.432835 -1.355211
-0.081275 1.427716 -1.352476
-0.072473 1.428164 -1.354129
-0.063712 1.428172 -1.355448
-0.056056 1.420470 -1.350696
-0.048946 1.409653 -1.343483
-0.039946 1.411567 -1.346331
-0.031582 1.409340 -1.345917
-0.022280 1.412712 -1.349951
-0.013408 1.413293 -1.351789
-0.005759 1.406984 -1.348165
0.000527 1.393685 -1.338980
0.007733 1.385877 -1.334158
0.020210 1.404917 -1.350746
0.025558 1.387983 -1.338658
0.037930 1.405178 -1.353837
0.048225 1.411759 -1.360568
0.056382 1.408303 -1.359279
0.061415 1.391317 -1.347139
0.075026 1.411534 -1.364873
0.078202 1.387443 -1.347012
