ply
format ascii 1.0
comment ---
element vertex 1665
property float x
property float y
property float z
element face 0
property list uchar uint vertex_indices
end_header
0.242421 1.091593 -0.498435
0.240634 1.086494 -0.494268
0.247150 1.086384 -0.496419
0.250506 1.084435 -0.496202
0.231634 1.069747 -0.479483
-0.529881 1.570499 -0.586869
-0.526419 1.573081 -0.589855
-0.522965 1.576172 -0.593195
-0.519313 1.578743 -0.596220
-0.515637 1.581656 -0.599491
-0.511547 1.582834 -0.601646
-0.507493 1.584579 -0.604189
-0.503595 1.587598 -0.607588
-0.499556 1.590256 -0.610769
-0.495123 1.590983 -0.612690
-0.489540 1.584889 -0.610096
-0.482649 1.570221 -0.601783
-0.476177 1.557481 -0.594714
-0.470149 1.547020 -0.589131
-0.466216 1.550900 -0.593130
-0.461470 1.549184 -0.593387
-0.457914 1.556705 -0.599866
-0.452840 1.552692 -0.598582
-0.447986 1.550258 -0.598357
-0.443111 1.547494 -0.597901
-0.438589 1.547821 -0.599542
-0.433743 1.545015 -0.599048
-0.429165 1.544751 -0.600286
-0.424215 1.540322 -0.598666
-0.419507 1.538212 -0.598627
-0.414977 1.538077 -0.599944
-0.410328 1.536276 -0.600110
-0.405867 1.536975 -0.602003
-0.401291 1.535894 -0.602662
-0.396693 1.534197 -0.602890
-0.391984 1.529843 -0.601257
-0.387526 1.529994 -0.602764
-0.383056 1.529839 -0.604058
-0.378590 1.529677 -0.605347
-0.374092 1.528243 -0.605740
-0.369548 1.523903 -0.604074
-0.365124 1.523829 -0.605418
-0.360714 1.524855 -0.607546
-0.356291 1.525394 -0.609332
-0.351864 1.521693 -0.608093
-0.347445 1.523760 -0.610973
-0.343118 1.515720 -0.606607
-0.338724 1.516778 -0.608762
-0.334422 1.513286 -0.607641
-0.330167 1.509395 -0.606220
-0.325952 1.505570 -0.604837
-0.321743 1.502605 -0.604068
-0.317559 1.499771 -0.603385
-0.313354 1.497905 -0.603403
-0.309327 1.493170 -0.601317
-0.305346 1.488487 -0.599255
-0.301370 1.484421 -0.597633
-0.296561 1.492293 -0.604806
-0.292267 1.492427 -0.606290
-0.288128 1.490639 -0.606352
-0.283942 1.489506 -0.606899
-0.279961 1.486307 -0.605907
-0.276118 1.482019 -0.604094
-0.271780 1.482719 -0.606003
-0.267485 1.482894 -0.607525
-0.263733 1.478391 -0.605534
-0.259952 1.474456 -0.603958
-0.256002 1.472095 -0.603563
-0.252037 1.469960 -0.603335
-0.247896 1.469166 -0.604122
-0.243147 1.472476 -0.608038
-0.239333 1.469357 -0.607062
-0.235709 1.465196 -0.605283
-0.231393 1.465444 -0.606876
-0.227548 1.462839 -0.606281
-0.224136 1.457886 -0.603869
-0.220066 1.456774 -0.604415
-0.216041 1.455417 -0.604772
-0.212371 1.452243 -0.603718
-0.209215 1.446619 -0.600748
-0.205198 1.445415 -0.601215
-0.201400 1.443174 -0.600871
-0.197633 1.440846 -0.600456
-0.194301 1.436631 -0.598552
-0.190391 1.435072 -0.598734
-0.186645 1.432825 -0.598372
-0.183003 1.430197 -0.597705
-0.179606 1.426645 -0.596298
-0.175366 1.426497 -0.597599
-0.171719 1.424018 -0.597041
-0.168512 1.419940 -0.595199
-0.164407 1.419263 -0.596079
-0.161156 1.415498 -0.594476
-0.157381 1.413663 -0.594423
-0.153745 1.411366 -0.593995
-0.149472 1.411229 -0.595318
-0.145810 1.409036 -0.594974
-0.141293 1.409607 -0.596883
-0.138117 1.405881 -0.595286
-0.135237 1.401330 -0.593004
-0.131221 1.400323 -0.593625
-0.127795 1.397545 -0.592787
-0.124983 1.393031 -0.590510
-0.121107 1.391657 -0.590824
-0.116905 1.391182 -0.591887
-0.113518 1.388431 -0.591057
-0.109771 1.386690 -0.591068
-0.105677 1.385871 -0.591851
-0.102615 1.382339 -0.590358
-0.097894 1.383111 -0.592484
-0.093122 1.383924 -0.594657
-0.090730 1.378785 -0.591797
-0.087336 1.376189 -0.591083
-0.083722 1.374149 -0.590839
-0.081468 1.368932 -0.587879
-0.077543 1.367684 -0.588302
-0.072737 1.368423 -0.590436
-0.068698 1.367371 -0.591038
-0.065154 1.365209 -0.590685
-0.061631 1.363016 -0.590303
-0.058599 1.359790 -0.589022
-0.054275 1.359322 -0.590136
-0.050664 1.357343 -0.589937
-0.048277 1.352878 -0.587559
-0.044628 1.351026 -0.587464
-0.040817 1.349497 -0.587652
-0.037017 1.347942 -0.587820
-0.032515 1.347729 -0.589177
-0.028615 1.346331 -0.589490
-0.055534 1.279632 -0.533020
-0.057209 1.268981 -0.524884
-0.057409 1.261220 -0.519297
-0.059313 1.250621 -0.511120
-0.070940 1.216731 -0.483118
-0.069470 1.212742 -0.480776
-0.067303 1.209985 -0.479544
-0.067204 1.203852 -0.475218
-0.059954 1.209478 -0.481655
-0.058480 1.205643 -0.479425
-0.057390 1.201258 -0.476676
-0.054121 1.200358 -0.477136
-0.049872 1.200956 -0.478992
-0.046762 1.199764 -0.479192
-0.044131 1.197841 -0.478713
-0.040722 1.197084 -0.479324
-0.037852 1.195517 -0.479179
-0.035450 1.193270 -0.478394
-0.032074 1.192435 -0.478940
-0.026684 1.194431 -0.482177
-0.021551 1.195980 -0.485011
-0.023595 1.187542 -0.478331
-0.018790 1.188611 -0.480715
-0.015095 1.188117 -0.481614
-0.016573 1.180709 -0.475860
-0.011229 1.182411 -0.478877
-0.006307 1.183485 -0.481306
-0.004961 1.179898 -0.479220
-0.002599 1.177645 -0.478424
0.000405 1.176209 -0.478426
0.001865 1.172851 -0.476543
0.006518 1.173442 -0.478543
0.014622 1.178157 -0.484637
0.017663 1.176659 -0.484611
0.019099 1.173253 -0.482690
0.023049 1.172823 -0.483732
0.024903 1.169936 -0.482322
0.029009 1.169644 -0.483516
0.033978 1.170289 -0.485668
0.036937 1.168628 -0.485506
0.039053 1.166030 -0.484395
0.040178 1.162361 -0.482188
0.043481 1.161080 -0.482415
0.044235 1.157060 -0.479837
0.045595 1.153723 -0.477949
0.052245 1.155933 -0.481790
0.061124 1.160344 -0.487949
0.065334 1.159844 -0.489045
0.066821 1.156559 -0.487243
0.070236 1.155220 -0.487476
0.074730 1.154922 -0.488816
0.080290 1.155619 -0.491224
0.081890 1.152430 -0.489534
0.084610 1.150325 -0.488994
0.087676 1.148540 -0.488800
0.090992 1.146972 -0.488847
0.092591 1.143802 -0.487176
0.094476 1.140908 -0.485799
0.097441 1.138995 -0.485487
0.099788 1.136518 -0.484565
0.100768 1.132835 -0.482326
0.103709 1.130883 -0.481982
0.111501 1.133095 -0.486243
0.119040 1.134980 -0.490189
0.121703 1.132660 -0.489495
0.124863 1.130745 -0.489260
0.131004 1.131263 -0.491767
0.137435 1.131942 -0.494489
0.138647 1.128350 -0.492405
0.134938 1.120867 -0.485886
0.137710 1.118583 -0.485264
0.143357 1.118518 -0.487198
0.145891 1.116006 -0.486335
0.143968 1.110109 -0.481552
0.154079 1.113304 -0.487326
0.158378 1.112059 -0.487969
0.162460 1.110622 -0.488402
0.166110 1.108845 -0.488448
0.168945 1.106467 -0.487789
0.174944 1.106320 -0.489794
0.182043 1.106887 -0.492684
0.185171 1.104644 -0.492222
0.184778 1.100000 -0.488851
0.186582 1.096892 -0.487321
0.192297 1.096411 -0.488992
0.195986 1.094561 -0.488998
0.194764 1.089519 -0.485054
0.196558 1.086491 -0.483570
0.202510 1.086136 -0.485407
0.207331 1.085047 -0.486332
0.212742 1.084320 -0.487712
0.216330 1.082467 -0.487666
0.225116 1.083785 -0.491649
0.227168 1.081023 -0.490423
0.232023 1.079971 -0.491367
0.233931 1.077209 -0.490082
0.237417 1.075420 -0.490022
0.283490 1.098062 -0.521908
-0.532303 1.574180 -0.594477
-0.527766 1.571709 -0.594186
-0.523902 1.572751 -0.596209
-0.520676 1.577365 -0.600601
-0.516787 1.579138 -0.603145
-0.512791 1.580758 -0.605606
-0.508798 1.582790 -0.608358
-0.505127 1.587023 -0.612590
-0.500854 1.588326 -0.614892
-0.496720 1.590801 -0.617991
-0.492569 1.593582 -0.621312
-0.487089 1.588368 -0.619281
-0.479022 1.566036 -0.605711
-0.472817 1.554890 -0.599622
-0.466131 1.539645 -0.590725
-0.461241 1.536514 -0.589999
-0.457531 1.542296 -0.595329
-0.453319 1.544682 -0.598366
-0.448679 1.543805 -0.599184
-0.443953 1.542170 -0.599482
-0.439203 1.540220 -0.599559
-0.434520 1.538761 -0.599970
-0.429741 1.536182 -0.599603
-0.424983 1.533555 -0.599196
-0.420513 1.533960 -0.600886
-0.415943 1.533190 -0.601761
-0.411280 1.531049 -0.601678
-0.406699 1.529743 -0.602172
-0.402214 1.529696 -0.603546
-0.397548 1.526475 -0.602689
-0.392963 1.524068 -0.602396
-0.388448 1.522561 -0.602731
-0.383862 1.518848 -0.601500
-0.379593 1.522955 -0.605810
-0.375116 1.521436 -0.606131
-0.370608 1.517852 -0.604973
-0.366179 1.516339 -0.605287
-0.361765 1.514614 -0.605445
-0.357393 1.515983 -0.607823
-0.353002 1.513365 -0.607334
-0.348634 1.512023 -0.607760
-0.344292 1.509558 -0.607370
-0.339966 1.507817 -0.607499
-0.335606 1.508495 -0.609386
-0.331424 1.502267 -0.606236
-0.327194 1.499572 -0.605652
-0.322989 1.496949 -0.605115
-0.318800 1.494581 -0.604757
-0.314692 1.491017 -0.603513
-0.310769 1.484767 -0.600275
-0.306673 1.482450 -0.599931
-0.302591 1.480234 -0.599657
-0.298581 1.477294 -0.598839
-0.294514 1.475446 -0.598829
-0.290084 1.478124 -0.602201
-0.286182 1.474449 -0.600824
-0.281834 1.475845 -0.603250
-0.277305 1.478811 -0.606869
-0.273464 1.474898 -0.605305
-0.269277 1.474393 -0.606313
-0.265958 1.466472 -0.601691
-0.262024 1.464205 -0.601349
-0.258074 1.462179 -0.601188
-0.253838 1.462372 -0.602720
-0.249791 1.461127 -0.603157
-0.246081 1.457599 -0.601838
-0.241966 1.456923 -0.602708
-0.237817 1.456431 -0.603725
-0.233920 1.454364 -0.603524
-0.230134 1.451707 -0.602864
-0.225379 1.454669 -0.606573
-0.221501 1.452530 -0.606318
-0.218103 1.447895 -0.604107
-0.214742 1.443276 -0.601897
-0.210922 1.441159 -0.601642
-0.207448 1.437406 -0.600095
-0.203095 1.437949 -0.601934
-0.199342 1.435632 -0.601516
-0.195809 1.432383 -0.600355
-0.192460 1.428434 -0.598628
-0.188846 1.425742 -0.597897
-0.185449 1.422221 -0.596497
-0.181437 1.421277 -0.597157
-0.177456 1.420189 -0.597706
-0.173471 1.419104 -0.598258
-0.170965 1.412456 -0.594312
-0.167098 1.411030 -0.594581
-0.163633 1.408161 -0.593677
-0.159942 1.406143 -0.593462
-0.156069 1.404771 -0.593774
-0.152323 1.402965 -0.593731
-0.148451 1.401586 -0.594038
-0.144631 1.400030 -0.594202
-0.142065 1.394534 -0.591110
-0.138080 1.393567 -0.591753
-0.133348 1.394831 -0.594253
-0.130923 1.389152 -0.590984
-0.126877 1.388338 -0.591759
-0.122689 1.387901 -0.592854
-0.118954 1.386152 -0.592853
-0.115358 1.384025 -0.592533
-0.112071 1.381082 -0.591524
-0.108855 1.378002 -0.590393
-0.105299 1.375853 -0.590046
-0.101700 1.373834 -0.589808
-0.098371 1.371149 -0.589000
-0.094132 1.370744 -0.590137
-0.089420 1.371447 -0.592232
-0.086078 1.368802 -0.591458
-0.083493 1.364410 -0.589173
-0.079899 1.362437 -0.588968
-0.076682 1.359616 -0.588027
-0.071399 1.361449 -0.591127
-0.067515 1.360094 -0.591465
-0.064375 1.357118 -0.590388
-0.063745 1.348829 -0.584644
-0.056311 1.355026 -0.591609
-0.053895 1.350607 -0.589251
-0.050547 1.348167 -0.588629
-0.046972 1.346204 -0.588428
-0.043778 1.343495 -0.587562
-0.039302 1.343313 -0.588946
-0.035350 1.342078 -0.589396
-0.032149 1.339408 -0.588561
-0.063056 1.265539 -0.525049
-0.059982 1.263674 -0.524751
-0.057859 1.260115 -0.522915
-0.060897 1.247512 -0.512837
-0.059942 1.242156 -0.509315
-0.069823 1.211790 -0.484167
-0.068653 1.207359 -0.481384
-0.067731 1.202597 -0.478279
-0.066374 1.198628 -0.475893
-0.063333 1.197428 -0.476064
-0.060344 1.196139 -0.476155
-0.056410 1.196321 -0.477623
-0.051977 1.197230 -0.479783
-0.047434 1.198246 -0.482057
-0.043595 1.198138 -0.483286
-0.041523 1.195369 -0.482006
-0.041137 1.190156 -0.478400
-0.039401 1.186990 -0.476722
-0.034858 1.187881 -0.478910
-0.029980 1.189182 -0.481506
-0.028451 1.185739 -0.479562
-0.025273 1.184614 -0.479840
-0.021344 1.184499 -0.481100
-0.018999 1.182215 -0.480267
-0.019423 1.176266 -0.475862
-0.016026 1.175438 -0.476432
-0.010043 1.177945 -0.480275
-0.006460 1.177275 -0.481024
-0.007350 1.170911 -0.476167
-0.001825 1.172690 -0.479334
-0.000888 1.168707 -0.476808
0.001878 1.167014 -0.476548
0.010280 1.172131 -0.483093
0.011282 1.168245 -0.480662
0.014221 1.166694 -0.480566
0.018589 1.166804 -0.482149
0.022433 1.166263 -0.483088
0.026805 1.166293 -0.484618
0.029763 1.164683 -0.484490
0.031391 1.161581 -0.482841
0.033138 1.158636 -0.481347
0.037522 1.158584 -0.482827
0.039802 1.156222 -0.481935
0.041184 1.152909 -0.480054
0.045306 1.152510 -0.481201
0.049422 1.152065 -0.482314
0.054493 1.152565 -0.484432
0.059559 1.153000 -0.486503
0.060732 1.149457 -0.484394
0.064253 1.148280 -0.484786
0.068680 1.147970 -0.486110
0.072916 1.147428 -0.487204
0.076767 1.146477 -0.487875
0.080185 1.145082 -0.488082
0.084513 1.144518 -0.489198
0.087500 1.142668 -0.488934
0.087639 1.138185 -0.485810
0.088340 1.134259 -0.483278
0.089504 1.130781 -0.481228
0.095003 1.131175 -0.483440
0.096183 1.127711 -0.481408
0.100105 1.126647 -0.482039
0.107241 1.128308 -0.485728
0.113118 1.128804 -0.488152
0.117372 1.127867 -0.488995
0.120900 1.126288 -0.489129
0.124929 1.125095 -0.489715
0.127223 1.122461 -0.488673
0.129689 1.119964 -0.487790
0.128279 1.114391 -0.483370
0.131847 1.112782 -0.483505
0.138415 1.113468 -0.486320
0.141762 1.111613 -0.486206
0.143216 1.108308 -0.484402
0.145197 1.105412 -0.483073
0.152464 1.106423 -0.486369
0.156764 1.105186 -0.487031
0.160723 1.103671 -0.487379
0.163725 1.101450 -0.486889
0.169197 1.100961 -0.488496
0.174129 1.100051 -0.489614
0.178164 1.098490 -0.489956
0.179871 1.095330 -0.488348
0.183304 1.093352 -0.488181
0.188034 1.092231 -0.489077
0.192855 1.091149 -0.490032
0.194385 1.087918 -0.488305
0.192393 1.082469 -0.483766
0.194628 1.079784 -0.482669
0.203182 1.081078 -0.486611
0.211175 1.081966 -0.490064
0.216608 1.081247 -0.491474
0.217815 1.077972 -0.489584
0.223369 1.077350 -0.491098
0.222451 1.072913 -0.487628
0.228786 1.072798 -0.489766
0.233258 1.071609 -0.490481
0.240974 1.072298 -0.493662
-0.532631 1.568071 -0.595701
-0.529368 1.571512 -0.599307
-0.525779 1.573881 -0.602227
-0.522166 1.576574 -0.605384
-0.518192 1.577901 -0.607651
-0.514153 1.579268 -0.609962
-0.510262 1.581811 -0.613076
-0.506352 1.584680 -0.616427
-0.502488 1.588263 -0.620278
-0.498407 1.591062 -0.623621
-0.493998 1.592301 -0.625926
-0.489748 1.594853 -0.629133
-0.484767 1.593057 -0.629400
-0.463563 1.542572 -0.599306
-0.457192 1.528486 -0.591048
-0.452703 1.528134 -0.592200
-0.448990 1.534252 -0.597819
-0.444253 1.532180 -0.597795
-0.439824 1.532774 -0.599615
-0.435149 1.531137 -0.599888
-0.430177 1.526336 -0.597950
-0.425997 1.529517 -0.601577
-0.421542 1.529967 -0.603302
-0.416882 1.527987 -0.603323
-0.412219 1.525679 -0.603108
-0.407579 1.523309 -0.602842
-0.402978 1.521125 -0.602700
-0.398591 1.522118 -0.604807
-0.394002 1.519502 -0.604350
-0.389411 1.516180 -0.603383
-0.384841 1.512424 -0.602093
-0.380387 1.510659 -0.602220
-0.376061 1.512343 -0.604820
-0.371698 1.513201 -0.606833
-0.367243 1.509797 -0.605772
-0.362852 1.508196 -0.606007
-0.358477 1.506177 -0.605935
-0.354127 1.504785 -0.606313
-0.349790 1.504034 -0.607156
-0.345476 1.501682 -0.606828
-0.341171 1.500484 -0.607341
-0.336917 1.497318 -0.606405
-0.332682 1.494754 -0.605903
-0.328462 1.492571 -0.605678
-0.324264 1.490376 -0.605438
-0.320088 1.488181 -0.605193
-0.315995 1.484717 -0.603999
-0.312008 1.479923 -0.601804
-0.307886 1.478249 -0.601928
-0.303983 1.473416 -0.599682
-0.300115 1.468788 -0.597575
-0.296021 1.467723 -0.598139
-0.291803 1.468238 -0.599896
-0.287510 1.469469 -0.602201
-0.283558 1.466818 -0.601569
-0.279471 1.465763 -0.602145
-0.275798 1.460789 -0.599734
-0.271496 1.461934 -0.601987
-0.267446 1.460733 -0.602450
-0.263546 1.458331 -0.601991
-0.260142 1.452194 -0.598651
-0.256442 1.448719 -0.597349
-0.251818 1.452071 -0.601322
-0.247830 1.450710 -0.601656
-0.243724 1.450150 -0.602614
-0.239482 1.450427 -0.604228
-0.235803 1.447146 -0.603067
-0.232246 1.443299 -0.601454
-0.228695 1.439597 -0.599947
-0.224576 1.439207 -0.601039
-0.220763 1.437126 -0.600801
-0.216439 1.437753 -0.602704
-0.212570 1.435971 -0.602705
-0.209247 1.431559 -0.600610
-0.205643 1.428658 -0.599710
-0.200723 1.431912 -0.603728
-0.197373 1.427878 -0.601921
-0.194146 1.423447 -0.599785
-0.191255 1.417744 -0.596613
-0.187404 1.416244 -0.596819
-0.183486 1.415018 -0.597248
-0.179013 1.415969 -0.599447
-0.176586 1.408938 -0.595157
-0.173324 1.405302 -0.593615
-0.169405 1.404178 -0.594121
-0.165530 1.402882 -0.594489
-0.161795 1.401085 -0.594446
-0.158283 1.398536 -0.593783
-0.154290 1.397646 -0.594487
-0.150887 1.394793 -0.593567
-0.148072 1.390102 -0.591113
-0.143762 1.390250 -0.592681
-0.140243 1.387886 -0.592157
-0.136925 1.384946 -0.591147
-0.132730 1.384663 -0.592364
-0.129862 1.380468 -0.590291
-0.125708 1.380040 -0.591390
-0.121062 1.380948 -0.593627
-0.117581 1.378561 -0.593076
-0.114503 1.375115 -0.591621
-0.111314 1.372028 -0.590464
-0.108207 1.368778 -0.589161
-0.104279 1.367685 -0.589703
-0.101041 1.364839 -0.588739
-0.097215 1.363487 -0.589059
-0.092014 1.365464 -0.592264
-0.089096 1.361868 -0.590647
-0.086094 1.358535 -0.589252
-0.082080 1.357591 -0.589933
-0.079196 1.354056 -0.588351
-0.074591 1.354430 -0.590191
-0.069835 1.355071 -0.592278
-0.067694 1.349974 -0.589310
-0.065683 1.344706 -0.586174
-0.061491 1.344127 -0.587184
-0.057825 1.342425 -0.587200
-0.053353 1.342366 -0.588684
-0.049727 1.340559 -0.588611
-0.047247 1.336492 -0.586508
-0.042892 1.336143 -0.587742
-0.039692 1.333538 -0.586946
-0.035532 1.332775 -0.587814
-0.037927 1.319760 -0.577559
-0.077296 1.232017 -0.500485
-0.065683 1.238761 -0.509347
-0.065061 1.232922 -0.505328
-0.063396 1.228988 -0.503048
-0.064929 1.219711 -0.495800
-0.069346 1.205829 -0.484228
-0.068665 1.200670 -0.480723
-0.068801 1.194281 -0.476048
-0.066485 1.191953 -0.475156
-0.062118 1.192892 -0.477335
-0.058446 1.192682 -0.478444
-0.055487 1.191341 -0.478490
-0.050266 1.193438 -0.481802
-0.045325 1.195023 -0.484647
-0.044343 1.190656 -0.481824
-0.045915 1.182616 -0.475465
-0.042670 1.181707 -0.475925
-0.035848 1.185894 -0.481303
-0.034632 1.182026 -0.478925
-0.031252 1.181233 -0.479517
-0.028511 1.179538 -0.479237
-0.025448 1.178284 -0.479388
-0.023583 1.175410 -0.477954
-0.022050 1.172124 -0.476110
-0.018554 1.171454 -0.476835
-0.014151 1.171933 -0.478705
-0.012576 1.168740 -0.476945
-0.007936 1.169461 -0.479073
-0.006278 1.166395 -0.477435
-0.003007 1.165353 -0.477818
-0.000407 1.163475 -0.477367
0.003771 1.163503 -0.478838
0.007688 1.163177 -0.479966
0.008771 1.159475 -0.477674
0.011743 1.158016 -0.477659
0.018977 1.161459 -0.482660
0.023038 1.161165 -0.483865
0.024297 1.157679 -0.481795
0.025549 1.154221 -0.479745
0.026474 1.150436 -0.477347
0.031090 1.150706 -0.479157
0.035663 1.150879 -0.480883
0.038379 1.149027 -0.480505
0.042530 1.148677 -0.481711
0.047110 1.148733 -0.483360
0.049836 1.146836 -0.482958
0.051829 1.144188 -0.481761
0.054926 1.142659 -0.481756
0.058227 1.141317 -0.481959
0.061876 1.140296 -0.482516
0.064638 1.138386 -0.482125
0.070371 1.139318 -0.484820
0.076519 1.140569 -0.487890
0.078757 1.138072 -0.486900
0.079622 1.134304 -0.484515
0.081404 1.131407 -0.483080
0.079280 1.124980 -0.477740
0.083865 1.124654 -0.479138
0.088598 1.124411 -0.480651
0.095349 1.125883 -0.484106
0.095082 1.121189 -0.480669
0.102647 1.123246 -0.484835
0.107440 1.122853 -0.486269
0.109828 1.120397 -0.485378
0.115932 1.121010 -0.487999
0.120309 1.120135 -0.488948
0.121724 1.116827 -0.487108
0.122340 1.112895 -0.484540
0.125566 1.111052 -0.484392
0.127327 1.108046 -0.482895
0.129583 1.105431 -0.481855
0.138027 1.107529 -0.486381
0.141712 1.105933 -0.486579
0.140383 1.100581 -0.482313
0.144203 1.099079 -0.482629
0.153271 1.101367 -0.487517
0.153578 1.097249 -0.484717
0.158371 1.096352 -0.485813
0.160155 1.093308 -0.484305
0.166846 1.093680 -0.486983
0.170289 1.091764 -0.486871
0.176929 1.092004 -0.489436
0.179265 1.089308 -0.488372
0.181371 1.086475 -0.487127
0.189562 1.087636 -0.490899
0.190270 1.083899 -0.488508
0.189408 1.079210 -0.484874
0.190928 1.076095 -0.483210
0.198858 1.077010 -0.486705
0.205031 1.076795 -0.488762
0.211226 1.076574 -0.490821
0.212046 1.073108 -0.488641
0.216652 1.071954 -0.489458
0.223496 1.072130 -0.492015
0.225552 1.069514 -0.490868
0.234066 1.070664 -0.494704
0.235014 1.067493 -0.492753
-0.535668 1.574424 -0.605179
-0.530922 1.571040 -0.604272
-0.527255 1.573011 -0.606951
-0.523621 1.575566 -0.610041
-0.519675 1.577009 -0.612404
-0.515637 1.578365 -0.614726
-0.511869 1.581533 -0.618287
-0.508099 1.585162 -0.622181
-0.503983 1.587336 -0.625108
-0.500011 1.590741 -0.628889
-0.495766 1.592986 -0.631898
-0.491322 1.594374 -0.634335
-0.486904 1.596244 -0.637114
-0.482723 1.600017 -0.641214
-0.458976 1.530770 -0.597776
-0.453071 1.519590 -0.591412
-0.448257 1.516357 -0.590549
-0.444652 1.523209 -0.596721
-0.440370 1.524764 -0.599211
-0.435250 1.518635 -0.596313
-0.430882 1.519360 -0.598219
-0.426558 1.520663 -0.600538
-0.421533 1.514294 -0.597435
-0.417368 1.517380 -0.601017
-0.412568 1.512750 -0.599126
-0.408226 1.513739 -0.601224
-0.403828 1.514045 -0.602838
-0.399475 1.515128 -0.605012
-0.394867 1.511765 -0.603999
-0.390362 1.509694 -0.603904
-0.385852 1.506911 -0.603291
-0.381435 1.505708 -0.603812
-0.377120 1.507184 -0.606273
-0.372760 1.507516 -0.607910
-0.368349 1.505567 -0.607887
-0.363892 1.499132 -0.604582
-0.359578 1.499842 -0.606488
-0.355246 1.497905 -0.606456
-0.350939 1.494081 -0.605030
-0.346676 1.489963 -0.603376
-0.342398 1.490698 -0.605300
-0.338131 1.490291 -0.606382
-0.333883 1.489234 -0.606983
-0.329671 1.487275 -0.606910
-0.325494 1.484901 -0.606524
-0.321299 1.483536 -0.606887
-0.317219 1.479973 -0.605598
-0.313139 1.477098 -0.604818
-0.309260 1.471257 -0.601794
-0.305463 1.465092 -0.598505
-0.301466 1.462734 -0.598084
-0.297440 1.461041 -0.598165
-0.293861 1.453982 -0.594153
-0.289198 1.460301 -0.600340
-0.285010 1.460604 -0.601948
-0.281290 1.456018 -0.599808
-0.277237 1.455073 -0.600457
-0.273147 1.454485 -0.601384
-0.269208 1.452567 -0.601283
-0.265452 1.449244 -0.600091
-0.261820 1.445163 -0.598302
-0.257663 1.445321 -0.599806
-0.254229 1.440164 -0.597163
-0.250315 1.438676 -0.597380
-0.245411 1.443812 -0.602796
-0.241353 1.443060 -0.603605
-0.237869 1.438752 -0.601609
-0.234700 1.432794 -0.598297
-0.230706 1.431905 -0.598988
-0.226540 1.431956 -0.600428
-0.222734 1.429994 -0.600269
-0.219469 1.425257 -0.597892
-0.215328 1.425163 -0.599221
-0.211334 1.424277 -0.599921
-0.207093 1.424548 -0.601555
-0.203561 1.421449 -0.600475
-0.201212 1.413120 -0.595156
-0.196758 1.414387 -0.597596
-0.193359 1.411022 -0.596279
-0.189723 1.408739 -0.595838
-0.185760 1.407828 -0.596517
-0.181945 1.406307 -0.596697
-0.178686 1.402647 -0.595120
-0.175094 1.400346 -0.594654
-0.171634 1.397596 -0.593815
-0.168673 1.393117 -0.591538
-0.163671 1.395939 -0.595314
-0.161194 1.389896 -0.591726
-0.157381 1.388542 -0.592035
-0.153803 1.386405 -0.591689
-0.150301 1.384053 -0.591161
-0.146914 1.381369 -0.590350
-0.143104 1.380039 -0.590678
-0.139571 1.377861 -0.590289
-0.136006 1.375805 -0.590002
-0.131469 1.376597 -0.592136
-0.128673 1.372323 -0.589959
-0.125149 1.370192 -0.589605
-0.120311 1.371696 -0.592366
-0.116466 1.370404 -0.592737
-0.113602 1.366502 -0.590859
-0.110040 1.364495 -0.590610
-0.106941 1.361318 -0.589345
-0.103226 1.359745 -0.589468
-0.099258 1.358795 -0.590134
-0.096823 1.354096 -0.587527
-0.093289 1.352126 -0.587298
-0.089638 1.350442 -0.587319
-0.085411 1.350089 -0.588514
-0.080636 1.350937 -0.590777
-0.077627 1.347757 -0.589482
-0.073240 1.347658 -0.590919
-0.069247 1.346655 -0.591558
-0.066379 1.343232 -0.590038
-0.064957 1.336827 -0.585837
-0.061655 1.334453 -0.585236
-0.056242 1.336395 -0.588523
-0.052819 1.334240 -0.588124
-0.049806 1.331287 -0.587000
-0.046795 1.328367 -0.585900
-0.042099 1.328713 -0.587774
-0.039771 1.324523 -0.585509
-0.079088 1.228505 -0.501658
-0.080951 1.218269 -0.493523
-0.067412 1.228506 -0.505693
-0.067224 1.222078 -0.501055
-0.064024 1.220875 -0.501282
-0.064741 1.213131 -0.495369
-0.066490 1.203856 -0.487980
-0.069186 1.193251 -0.479291
-0.069243 1.187112 -0.474782
-0.063613 1.190086 -0.478908
-0.063862 1.183773 -0.474207
-0.058560 1.186132 -0.477770
-0.053716 1.187697 -0.480595
-0.049518 1.188214 -0.482431
-0.048497 1.183970 -0.479685
-0.050052 1.176026 -0.473341
-0.047533 1.174128 -0.472831
-0.041774 1.176863 -0.476832
-0.038294 1.176279 -0.477617
-0.034432 1.176203 -0.478907
-0.030208 1.176587 -0.480660
-0.031321 1.169675 -0.475228
-0.027151 1.169979 -0.476906
-0.024626 1.168056 -0.476385
-0.023071 1.164869 -0.474605
-0.018011 1.166253 -0.477383
-0.014421 1.165686 -0.478226
-0.012824 1.162573 -0.476517
-0.008826 1.162490 -0.477858
-0.005683 1.161314 -0.478104
0.000797 1.164192 -0.482473
0.003954 1.162958 -0.482684
0.004293 1.158355 -0.479455
0.006329 1.155813 -0.478322
0.009818 1.154977 -0.478943
0.014489 1.155477 -0.480953
0.017288 1.153793 -0.480717
0.020785 1.152889 -0.481295
0.022148 1.149591 -0.479383
0.023110 1.145883 -0.477033
0.026196 1.144519 -0.477136
0.030950 1.144931 -0.479120
0.036234 1.145849 -0.481659
0.039966 1.145072 -0.482421
0.042067 1.142574 -0.481360
0.044504 1.140429 -0.480674
0.045841 1.137170 -0.478793
0.050044 1.136806 -0.480029
0.056262 1.138396 -0.483396
0.058689 1.136188 -0.482669
0.059192 1.132117 -0.479910
0.062875 1.131128 -0.480515
0.070777 1.134101 -0.485490
0.071917 1.130630 -0.483398
0.073563 1.127651 -0.481843
0.074293 1.123848 -0.479368
0.076365 1.121289 -0.478273
0.080374 1.120464 -0.479124
0.085256 1.120373 -0.480819
0.088095 1.118444 -0.480458
0.094771 1.119813 -0.483853
0.097722 1.117915 -0.483560
0.101035 1.116306 -0.483606
0.104368 1.114692 -0.483657
0.108624 1.113816 -0.484574
0.114029 1.113836 -0.486550
0.116645 1.111547 -0.485864
0.119876 1.109741 -0.485748
0.122016 1.107056 -0.484609
0.121894 1.102613 -0.481391
0.127417 1.102549 -0.483359
0.132652 1.102208 -0.485025
0.136517 1.100784 -0.485420
0.139598 1.098751 -0.485096
0.144114 1.097756 -0.486037
0.145971 1.094798 -0.484607
0.152560 1.095237 -0.487330
0.152897 1.091186 -0.484567
0.155938 1.089061 -0.484165
0.158258 1.086434 -0.483143
0.162317 1.085001 -0.483606
0.167717 1.084453 -0.485189
0.170103 1.081861 -0.484213
0.175441 1.081225 -0.485710
0.179251 1.079565 -0.485916
0.185705 1.079601 -0.488294
0.184860 1.074962 -0.484672
0.186938 1.072232 -0.483475
0.194274 1.072793 -0.486542
0.200834 1.072838 -0.488953
0.203292 1.070374 -0.488074
0.202673 1.066105 -0.484780
0.206140 1.064337 -0.484756
0.211650 1.063794 -0.486345
0.229375 1.070321 -0.497426
0.226909 1.065153 -0.492794
0.223136 1.059363 -0.487237
-0.534910 1.563397 -0.603081
-0.532537 1.570809 -0.609423
-0.528807 1.572457 -0.611908
-0.525152 1.574885 -0.614939
-0.521338 1.576966 -0.617755
-0.517174 1.577682 -0.619659
-0.513357 1.580562 -0.623053
-0.509740 1.584977 -0.627516
-0.505759 1.587900 -0.630981
-0.501636 1.590458 -0.634212
-0.497288 1.592100 -0.636828
-0.492963 1.594221 -0.639789
-0.488663 1.596864 -0.643124
-0.484522 1.600933 -0.647464
-0.479665 1.600630 -0.648780
-0.474381 1.597447 -0.648090
-0.456138 1.531853 -0.605140
-0.449674 1.516094 -0.595476
-0.443949 1.505121 -0.589134
-0.440693 1.514897 -0.597420
-0.435895 1.511448 -0.596372
-0.431202 1.508699 -0.595811
-0.426838 1.509063 -0.597458
-0.422405 1.508748 -0.598624
-0.417939 1.508013 -0.599490
-0.413446 1.506837 -0.600038
-0.409094 1.507394 -0.601830
-0.404873 1.509959 -0.605073
-0.400360 1.508281 -0.605260
-0.395587 1.501662 -0.601861
-0.391277 1.502609 -0.603937
-0.386799 1.500050 -0.603464
-0.382429 1.499422 -0.604394
-0.378062 1.498647 -0.605217
-0.373539 1.491977 -0.601712
-0.369236 1.491651 -0.602852
-0.364938 1.491319 -0.603988
-0.360665 1.492801 -0.606467
-0.356346 1.489034 -0.605063
-0.352070 1.484622 -0.603169
-0.347823 1.483826 -0.603955
-0.343588 1.482735 -0.604520
-0.339318 1.484391 -0.607140
-0.335229 1.477119 -0.603070
-0.330927 1.480223 -0.606782
-0.326625 1.482209 -0.609665
-0.322572 1.477285 -0.607336
-0.318446 1.475121 -0.607084
-0.314379 1.472210 -0.606259
-0.310483 1.466788 -0.603515
-0.306581 1.462374 -0.601525
-0.302642 1.459159 -0.600439
-0.298817 1.454830 -0.598491
-0.294805 1.453387 -0.598751
-0.291152 1.447850 -0.595852
-0.286991 1.448506 -0.597724
-0.282793 1.449392 -0.599782
-0.278724 1.448847 -0.600736
-0.274714 1.447728 -0.601246
-0.270748 1.446260 -0.601484
-0.266851 1.444275 -0.601316
-0.262961 1.442340 -0.601187
-0.259005 1.440998 -0.601520
-0.255098 1.439343 -0.601607
-0.251689 1.434265 -0.598988
-0.248079 1.430852 -0.597673
-0.244036 1.430415 -0.598715
-0.240482 1.426901 -0.597310
-0.236581 1.425632 -0.597689
-0.232752 1.423963 -0.597749
-0.228950 1.422170 -0.597709
-0.225104 1.420664 -0.597898
-0.220978 1.420643 -0.599286
-0.216942 1.420089 -0.600249
-0.213012 1.418977 -0.600763
-0.209529 1.415717 -0.599534
-0.206488 1.410513 -0.596714
-0.203052 1.407308 -0.595511
-0.198955 1.407113 -0.596767
-0.195552 1.403889 -0.595542
-0.191978 1.401470 -0.594972
-0.187913 1.401102 -0.596092
-0.184304 1.398877 -0.595681
-0.180752 1.396469 -0.595115
-0.176931 1.395123 -0.595430
-0.173906 1.390839 -0.593295
-0.170821 1.386902 -0.591440
-0.167426 1.384167 -0.590581
-0.163681 1.382693 -0.590778
-0.159452 1.382845 -0.592347
-0.155539 1.381888 -0.592986
-0.152494 1.378106 -0.591235
-0.148743 1.376649 -0.591449
-0.144901 1.375472 -0.591903
-0.141591 1.372666 -0.590968
-0.138059 1.370567 -0.590634
-0.135283 1.366286 -0.588423
-0.130867 1.366801 -0.590331
-0.126893 1.365995 -0.591108
-0.123192 1.364409 -0.591214
-0.119299 1.363341 -0.591770
-0.116212 1.360117 -0.590453
-0.112827 1.357725 -0.589854
-0.108984 1.356534 -0.590304
-0.105523 1.354366 -0.589899
-0.101959 1.352473 -0.589734
-0.098219 1.351015 -0.589951
-0.095336 1.347505 -0.588354
-0.091872 1.345423 -0.588016
-0.088157 1.343934 -0.588203
-0.085024 1.341116 -0.587206
-0.081736 1.338685 -0.586550
-0.076307 1.340988 -0.590138
-0.075045 1.334140 -0.585512
-0.072043 1.331165 -0.584355
-0.067799 1.330838 -0.585589
-0.063563 1.330452 -0.586776
-0.059563 1.329548 -0.587499
-0.055711 1.328322 -0.587932
-0.053516 1.323809 -0.585360
-0.049360 1.323197 -0.586354
-0.045568 1.321854 -0.586682
-0.041234 1.321525 -0.587948
-0.085213 1.217153 -0.495497
-0.085042 1.210685 -0.490778
-0.083156 1.207376 -0.488991
-0.074402 1.216040 -0.498447
-0.071015 1.215238 -0.499037
-0.066573 1.216199 -0.501298
-0.062640 1.216246 -0.502707
-0.059387 1.215135 -0.503024
-0.065906 1.198163 -0.488215
-0.066810 1.190585 -0.482305
-0.067955 1.182788 -0.476149
-0.064151 1.182868 -0.477541
-0.063370 1.178256 -0.474411
-0.057636 1.181249 -0.478629
-0.055443 1.178817 -0.477605
-0.054558 1.174472 -0.474711
-0.051497 1.173379 -0.474980
-0.048504 1.172178 -0.475146
-0.045180 1.171440 -0.475770
-0.041833 1.170713 -0.476412
-0.037278 1.171646 -0.478702
-0.033895 1.170908 -0.479350
-0.032136 1.167945 -0.477788
-0.030940 1.164262 -0.475499
-0.026298 1.165188 -0.477818
-0.023344 1.163847 -0.477874
-0.020189 1.162756 -0.478187
-0.017742 1.160748 -0.477575
-0.016134 1.157690 -0.475896
-0.013649 1.155757 -0.475355
-0.009469 1.155915 -0.476953
-0.002119 1.159885 -0.482477
0.002137 1.160000 -0.484073
0.002336 1.155250 -0.480657
0.003252 1.151409 -0.478163
0.006520 1.150345 -0.478546
0.008216 1.147459 -0.477036
0.014452 1.149745 -0.480935
0.014952 1.145505 -0.478007
0.016563 1.142549 -0.476417
0.020512 1.142176 -0.477557
0.022375 1.139509 -0.476273
0.026713 1.139507 -0.477826
0.033587 1.142141 -0.482218
0.037257 1.141318 -0.482935
0.038021 1.137461 -0.480393
0.039627 1.134504 -0.478812
0.043462 1.133819 -0.479694
0.047551 1.133353 -0.480829
0.054999 1.136168 -0.485570
0.055290 1.131878 -0.482551
0.055557 1.127612 -0.479541
0.056078 1.123633 -0.476835
0.060243 1.123131 -0.477981
0.061185 1.119582 -0.475743
0.068369 1.121817 -0.479978
0.072745 1.121387 -0.481258
0.078211 1.121895 -0.483619
0.082188 1.121009 -0.484426
0.083733 1.117945 -0.482771
0.089174 1.118286 -0.485007
0.090971 1.115426 -0.483595
0.093540 1.113230 -0.482947
0.095530 1.110538 -0.481732
0.099703 1.109665 -0.482633
0.103496 1.108440 -0.483142
0.105688 1.105882 -0.482103
0.108357 1.103707 -0.481517
0.115358 1.104958 -0.484998
0.116211 1.101298 -0.482676
0.115625 1.096547 -0.479041
0.118964 1.094852 -0.479055
0.126581 1.096375 -0.482964
0.131043 1.095441 -0.483943
0.136185 1.094970 -0.485508
0.140469 1.093824 -0.486269
0.146906 1.094198 -0.488922
0.149074 1.091458 -0.487758
0.152439 1.089569 -0.487649
0.153186 1.085845 -0.485252
0.154942 1.082847 -0.483751
0.158004 1.080754 -0.483382
0.158650 1.077036 -0.480952
0.163008 1.075821 -0.481692
0.168523 1.075346 -0.483390
0.176514 1.076441 -0.487132
0.177811 1.073184 -0.485267
0.181534 1.071501 -0.485428
0.181899 1.067723 -0.482838
0.188805 1.068043 -0.485609
0.194057 1.067318 -0.487013
0.195932 1.064550 -0.485696
0.197024 1.061361 -0.483781
0.202688 1.060924 -0.485531
0.211332 1.062223 -0.489622
0.214963 1.060599 -0.489754
0.217547 1.058414 -0.489088
0.203119 1.046701 -0.475284
-0.536648 1.563740 -0.608591
-0.533778 1.568810 -0.613399
-0.530302 1.571595 -0.616678
-0.526867 1.575045 -0.620434
-0.523017 1.576940 -0.623146
-0.518869 1.577746 -0.625129
-0.514840 1.579512 -0.627784
-0.511188 1.583687 -0.632119
-0.507215 1.586618 -0.635615
-0.502923 1.588184 -0.638182
-0.498672 1.590334 -0.641169
-0.494498 1.593331 -0.644760
-0.490330 1.596782 -0.648685
-0.485758 1.598073 -0.651114
-0.481376 1.600916 -0.654643
-0.476792 1.602730 -0.657461
-0.472012 1.603431 -0.659504
-0.446845 1.517203 -0.602809
-0.434954 1.489892 -0.586091
-0.431960 1.502469 -0.596470
-0.427643 1.503067 -0.598285
-0.423298 1.503479 -0.599971
-0.418867 1.502958 -0.600985
-0.414440 1.502429 -0.601994
-0.409936 1.500796 -0.602200
-0.405645 1.501937 -0.604421
-0.400907 1.496296 -0.601700
-0.396506 1.495298 -0.602355
-0.392107 1.494076 -0.602845
-0.387649 1.491287 -0.602180
-0.383336 1.491192 -0.603493
-0.378935 1.488546 -0.602922
-0.374604 1.487186 -0.603296
-0.370299 1.486223 -0.603962
-0.366015 1.485748 -0.604990
-0.361703 1.482602 -0.604026
-0.357445 1.481804 -0.604809
-0.353191 1.478459 -0.603682
-0.348969 1.476717 -0.603750
-0.344764 1.475140 -0.603940
-0.340638 1.469544 -0.601091
-0.336529 1.466132 -0.599878
-0.332273 1.469493 -0.603797
-0.328019 1.471564 -0.606750
-0.324015 1.466412 -0.604204
-0.319792 1.467516 -0.606428
-0.315736 1.464898 -0.605805
-0.311772 1.461099 -0.604269
-0.307751 1.458860 -0.603926
-0.303821 1.455555 -0.602754
-0.299857 1.453164 -0.602282
-0.296245 1.446561 -0.598536
-0.292297 1.444767 -0.598510
-0.288491 1.441547 -0.597371
-0.284536 1.440182 -0.597674
-0.280662 1.438110 -0.597422
-0.276930 1.434844 -0.596230
-0.273162 1.432159 -0.595487
-0.268813 1.434543 -0.598742
-0.264829 1.433704 -0.599460
-0.261117 1.430772 -0.598519
-0.256718 1.433053 -0.601720
-0.253382 1.427592 -0.598760
-0.249740 1.424559 -0.597726
-0.246007 1.422270 -0.597281
-0.242642 1.417770 -0.595056
-0.238876 1.415935 -0.594966
-0.234312 1.418791 -0.598665
-0.230372 1.417869 -0.599322
-0.226736 1.415285 -0.598631
-0.223000 1.413314 -0.598435
-0.219823 1.408544 -0.595953
-0.215504 1.409628 -0.598247
-0.211749 1.407872 -0.598223
-0.208628 1.403185 -0.595789
-0.205081 1.400620 -0.595090
-0.201118 1.399962 -0.595964
-0.197273 1.398755 -0.596386
-0.193854 1.395762 -0.595327
-0.190386 1.393052 -0.594497
-0.186496 1.392084 -0.595117
-0.183243 1.388629 -0.593658
-0.180160 1.384624 -0.591729
-0.176651 1.382317 -0.591219
-0.173178 1.379919 -0.590629
-0.169423 1.378557 -0.590913
-0.165894 1.376414 -0.590535
-0.161709 1.376512 -0.592062
-0.158877 1.372075 -0.589728
-0.155737 1.368759 -0.588341
-0.152092 1.367113 -0.588378
-0.148727 1.364608 -0.587676
-0.144006 1.366259 -0.590554
-0.140688 1.363609 -0.589730
-0.136510 1.363511 -0.591112
-0.133910 1.358838 -0.588527
-0.128945 1.360928 -0.591820
-0.125357 1.359086 -0.591695
-0.122653 1.354860 -0.589482
-0.119626 1.351589 -0.588095
-0.116179 1.349473 -0.587718
-0.111866 1.349595 -0.589317
-0.108021 1.348479 -0.589827
-0.104156 1.347393 -0.590368
-0.100686 1.345331 -0.590042
-0.097159 1.343417 -0.589846
-0.094216 1.340142 -0.588430
-0.091147 1.337213 -0.587317
-0.087764 1.335039 -0.586879
-0.084561 1.332481 -0.586091
-0.081064 1.330596 -0.585909
-0.078040 1.327697 -0.584806
-0.074300 1.326364 -0.585122
-0.070203 1.325769 -0.586115
-0.065637 1.326110 -0.587972
-0.062054 1.324389 -0.587945
-0.059404 1.320800 -0.586197
-0.056150 1.318460 -0.585593
-0.052143 1.317604 -0.586363
-0.046922 1.319052 -0.589279
-0.042705 1.318510 -0.590357
-0.043147 1.309260 -0.583301
-0.084897 1.217461 -0.500131
-0.086413 1.207958 -0.492510
-0.084457 1.204787 -0.490835
-0.080303 1.205477 -0.492813
-0.074965 1.208132 -0.496674
-0.071115 1.208165 -0.498056
-0.064294 1.213103 -0.504144
-0.062380 1.209809 -0.502365
-0.057534 1.211312 -0.505196
-0.067733 1.188681 -0.484730
-0.067506 1.183056 -0.480620
-0.066468 1.178802 -0.477818
-0.063908 1.176959 -0.477351
-0.064324 1.170610 -0.472476
-0.060044 1.171420 -0.474595
-0.056684 1.170810 -0.475332
-0.053380 1.170096 -0.475973
-0.049826 1.169721 -0.476955
-0.047269 1.167899 -0.476507
-0.045696 1.164701 -0.474688
-0.041217 1.165578 -0.476933
-0.037005 1.166027 -0.478765
-0.036068 1.161992 -0.476100
-0.033065 1.160780 -0.476270
-0.028569 1.161531 -0.478431
-0.024609 1.161524 -0.479838
-0.022246 1.159418 -0.479119
-0.020335 1.156747 -0.477819
-0.018774 1.153658 -0.476085
-0.017447 1.150312 -0.474078
-0.014577 1.148900 -0.474060
-0.010648 1.148767 -0.475370
-0.009595 1.145143 -0.473063
-0.007017 1.143374 -0.472679
-0.001024 1.145606 -0.476486
0.001111 1.143275 -0.475529
0.004581 1.142484 -0.476194
0.009280 1.143059 -0.478314
0.013396 1.142924 -0.479701
0.013529 1.138345 -0.476365
0.014986 1.135274 -0.474624
0.019620 1.135661 -0.476588
0.024238 1.135977 -0.478495
0.029643 1.137071 -0.481263
0.033699 1.136684 -0.482451
0.033688 1.132063 -0.479043
0.036027 1.129896 -0.478299
0.041211 1.130599 -0.480706
0.045256 1.130102 -0.481817
0.048433 1.128712 -0.481956
0.051210 1.126913 -0.481650
0.052405 1.123581 -0.479641
0.052521 1.119246 -0.476503
0.053594 1.115859 -0.474413
0.059501 1.116995 -0.477416
0.062967 1.115806 -0.477821
0.072780 1.120363 -0.484771
0.078387 1.120981 -0.487291
0.082658 1.120340 -0.488400
0.084469 1.117498 -0.486993
0.084246 1.112898 -0.483552
0.086082 1.110112 -0.482200
0.084991 1.104850 -0.477959
0.091097 1.105686 -0.480835
0.096237 1.105644 -0.482715
0.099140 1.103711 -0.482389
0.096829 1.097540 -0.477041
0.099510 1.095449 -0.476521
0.103961 1.094747 -0.477672
0.108413 1.094001 -0.478794
0.111419 1.092096 -0.478535
0.115010 1.090622 -0.478810
0.120875 1.090837 -0.481162
0.124766 1.089516 -0.481662
0.130696 1.089667 -0.483994
0.136375 1.089572 -0.486055
0.137133 1.085880 -0.483668
0.145621 1.087710 -0.488177
0.149553 1.086240 -0.488589
0.149297 1.081842 -0.485312
0.152419 1.079808 -0.485012
0.154006 1.076731 -0.483381
0.153938 1.072568 -0.480343
0.159278 1.072031 -0.481956
0.165592 1.072095 -0.484368
0.166854 1.068855 -0.482492
0.172642 1.068536 -0.484425
0.177782 1.067778 -0.485795
0.183092 1.067110 -0.487290
0.175618 1.058565 -0.478285
0.184047 1.059858 -0.482362
0.191189 1.060326 -0.485353
0.196257 1.059534 -0.486649
0.204166 1.060412 -0.490213
0.206932 1.058278 -0.489661
0.212575 1.057837 -0.491408
0.208983 1.052168 -0.485903
0.198321 1.042663 -0.474970
-0.538580 1.564897 -0.614693
-0.534849 1.566019 -0.616837
-0.531746 1.570458 -0.621280
-0.528314 1.573860 -0.625034
-0.524467 1.575734 -0.627753
-0.520382 1.576826 -0.629948
-0.516403 1.578821 -0.632783
-0.512556 1.581923 -0.636406
-0.508428 1.583953 -0.639299
-0.504132 1.585431 -0.641821
-0.499917 1.587716 -0.644921
-0.496295 1.593927 -0.650800
-0.491731 1.594963 -0.653053
-0.487081 1.595731 -0.655127
-0.482603 1.597870 -0.658180
-0.478285 1.601449 -0.662270
-0.473634 1.603084 -0.664989
-0.468955 1.604781 -0.667764
-0.436427 1.490554 -0.591594
-0.428099 1.493646 -0.596579
-0.423558 1.491527 -0.596418
-0.419772 1.497666 -0.602272
-0.415172 1.494846 -0.601601
-0.410316 1.488303 -0.598194
-0.406174 1.490684 -0.601320
-0.401660 1.487821 -0.600595
-0.397407 1.488736 -0.602650
-0.392919 1.485473 -0.601618
-0.388564 1.484156 -0.602021
-0.384235 1.483066 -0.602588
-0.379957 1.482978 -0.603902
-0.375586 1.479831 -0.602930
-0.371300 1.478530 -0.603333
-0.367062 1.478864 -0.604962
-0.362766 1.475380 -0.603720
-0.358523 1.473336 -0.603554
-0.354307 1.472559 -0.604342
-0.350100 1.471585 -0.604981
-0.345926 1.467978 -0.603618
-0.341787 1.464700 -0.602494
-0.337699 1.460650 -0.600772
-0.333570 1.459965 -0.601616
-0.329438 1.459546 -0.602665
-0.325412 1.456291 -0.601534
-0.321316 1.455485 -0.602283
-0.317286 1.453426 -0.602064
-0.313238 1.452049 -0.602370
-0.309186 1.450939 -0.602883
-0.305009 1.451830 -0.604957
-0.301517 1.442896 -0.599360
-0.297574 1.441069 -0.599301
-0.293754 1.437943 -0.598219
-0.290007 1.434307 -0.596729
-0.286070 1.433049 -0.597106
-0.282321 1.429985 -0.596054
-0.278473 1.428106 -0.595936
-0.274775 1.425009 -0.594846
-0.270535 1.426738 -0.597596
-0.266968 1.422779 -0.595814
-0.263164 1.420932 -0.595712
-0.258721 1.423894 -0.599471
-0.255793 1.415795 -0.594343
-0.251250 1.419250 -0.598513
-0.247509 1.417116 -0.598181
-0.244274 1.411886 -0.595335
-0.240369 1.411020 -0.596022
-0.237375 1.404810 -0.592356
-0.233789 1.402291 -0.591686
-0.229639 1.402940 -0.593608
-0.225094 1.405568 -0.597165
-0.221096 1.405156 -0.598236
-0.217682 1.401790 -0.596873
-0.214003 1.399831 -0.596666
-0.210451 1.397314 -0.595995
-0.206953 1.394622 -0.595175
-0.203382 1.392329 -0.594683
-0.198618 1.395230 -0.598532
-0.196957 1.384890 -0.591296
-0.193124 1.383890 -0.591876
-0.189319 1.382757 -0.592347
-0.186561 1.377542 -0.589369
-0.182739 1.376550 -0.589954
-0.178581 1.376783 -0.591583
-0.175015 1.374798 -0.591331
-0.171496 1.372669 -0.590954
-0.168013 1.370448 -0.590497
-0.164629 1.367924 -0.589777
-0.161065 1.366041 -0.589604
-0.157087 1.365515 -0.590602
-0.154215 1.361443 -0.588535
-0.150688 1.359511 -0.588316
-0.147502 1.356556 -0.587205
-0.142440 1.359256 -0.591021
-0.138785 1.357673 -0.591112
-0.136161 1.353138 -0.588613
-0.132387 1.351949 -0.589043
-0.129002 1.349673 -0.588519
-0.125676 1.347264 -0.587873
-0.122598 1.344225 -0.586665
-0.118406 1.344149 -0.588085
-0.114780 1.342567 -0.588171
-0.111176 1.340930 -0.588207
-0.108006 1.338219 -0.587281
-0.104540 1.336269 -0.587034
-0.100310 1.336154 -0.588442
-0.097564 1.332501 -0.586658
-0.094597 1.329425 -0.585387
-0.090870 1.328127 -0.585726
-0.087357 1.326339 -0.585620
-0.083416 1.325498 -0.586381
-0.080236 1.322983 -0.585610
-0.077167 1.320260 -0.584645
-0.074066 1.317635 -0.583764
-0.070553 1.315894 -0.583696
-0.066193 1.315880 -0.585231
-0.063137 1.313200 -0.584295
-0.059463 1.311772 -0.584522
-0.053483 1.314819 -0.588939
-0.052709 1.307753 -0.583891
-0.049313 1.305794 -0.583621
-0.041910 1.311302 -0.590398
-0.083975 1.212023 -0.500693
-0.085160 1.203249 -0.493667
-0.081487 1.203100 -0.494861
-0.080016 1.199150 -0.492412
-0.076799 1.198213 -0.492852
-0.073480 1.197432 -0.493448
-0.066310 1.202950 -0.500155
-0.063756 1.200808 -0.499455
-0.061123 1.198810 -0.498891
-0.064319 1.187636 -0.489348
-0.067982 1.175990 -0.479282
-0.066527 1.172464 -0.477152
-0.065230 1.168753 -0.474826
-0.062461 1.167300 -0.474725
-0.059207 1.166563 -0.475336
-0.055653 1.166244 -0.476370
-0.052924 1.164708 -0.476195
-0.049462 1.164214 -0.477066
-0.049137 1.159290 -0.473486
-0.045590 1.158917 -0.474480
-0.039484 1.162018 -0.479002
-0.037846 1.158961 -0.477298
-0.034913 1.157671 -0.477387
-0.031460 1.157058 -0.478172
-0.028801 1.155386 -0.477877
-0.025797 1.154160 -0.478043
-0.022176 1.153706 -0.479010
-0.020771 1.150440 -0.477072
-0.019982 1.146445 -0.474367
-0.017450 1.144643 -0.473937
-0.013697 1.144324 -0.475058
-0.008714 1.145444 -0.477704
-0.006619 1.143078 -0.476696
-0.004153 1.141158 -0.476158
-0.002086 1.138780 -0.475134
0.000300 1.136780 -0.474509
0.006064 1.138599 -0.477969
0.012158 1.140700 -0.481760
0.010030 1.133636 -0.475717
0.012181 1.131357 -0.474806
0.016599 1.131531 -0.476553
0.022128 1.132839 -0.479555
0.027727 1.134145 -0.482581
0.029522 1.131414 -0.481209
0.030506 1.127862 -0.478932
0.033656 1.126549 -0.479117
0.038483 1.126904 -0.481161
0.040797 1.124703 -0.480383
0.044424 1.123794 -0.481049
0.046606 1.121451 -0.480121
0.047755 1.118118 -0.478079
0.050141 1.115986 -0.477386
0.052850 1.114154 -0.477038
0.058241 1.114800 -0.479521
0.064247 1.115943 -0.482601
0.068906 1.115784 -0.484222
0.073896 1.115872 -0.486150
0.074305 1.111842 -0.483332
0.079653 1.112175 -0.485579
0.080206 1.108292 -0.482929
0.079526 1.103387 -0.479066
0.080709 1.100113 -0.477104
0.083073 1.097844 -0.476326
0.097023 1.105144 -0.486935
0.092707 1.097298 -0.479554
0.093177 1.093436 -0.476901
0.095574 1.091144 -0.476127
0.100778 1.091058 -0.478031
0.104425 1.089702 -0.478418
0.107411 1.087808 -0.478165
0.113780 1.088473 -0.481064
0.114838 1.085069 -0.478978
0.119589 1.084429 -0.480315
0.124309 1.083721 -0.481590
0.125816 1.080641 -0.479915
0.127007 1.077349 -0.477967
0.133788 1.078035 -0.481045
0.137110 1.076228 -0.480991
0.145682 1.078037 -0.485568
0.148417 1.075763 -0.484951
0.149824 1.072594 -0.483175
0.153347 1.070860 -0.483248
0.157988 1.069855 -0.484278
0.162101 1.068485 -0.484838
0.165753 1.066807 -0.484996
0.166919 1.063551 -0.483056
0.175696 1.065109 -0.487517
0.176841 1.061867 -0.485572
0.183105 1.061805 -0.487888
0.173183 1.051924 -0.476889
0.191420 1.059092 -0.489017
0.194367 1.057039 -0.488605
0.197190 1.054947 -0.488111
0.204626 1.055557 -0.491333
0.208223 1.053957 -0.491477
0.209672 1.051179 -0.489941
0.183715 1.033168 -0.466891
-0.539592 1.561923 -0.617984
-0.536562 1.566131 -0.622282
-0.533248 1.569550 -0.626057
-0.529596 1.571867 -0.629088
-0.525763 1.573742 -0.631829
-0.521834 1.575554 -0.634542
-0.518078 1.578644 -0.638167
-0.513963 1.580321 -0.640818
-0.509780 1.582012 -0.643493
-0.505569 1.583911 -0.646329
-0.502302 1.591574 -0.653263
-0.497828 1.592850 -0.655692
-0.493154 1.593215 -0.657483
-0.488775 1.595671 -0.660773
-0.484341 1.598135 -0.664083
-0.479901 1.600914 -0.667632
-0.475419 1.603767 -0.671247
-0.470836 1.606260 -0.674617
-0.466297 1.609421 -0.678482
-0.459959 1.598555 -0.672194
-0.434254 1.497421 -0.603048
-0.427680 1.475815 -0.588622
-0.423203 1.473465 -0.588253
-0.419943 1.484297 -0.597577
-0.415747 1.485557 -0.599881
-0.411018 1.480256 -0.597340
-0.406788 1.480932 -0.599213
-0.402615 1.482548 -0.601788
-0.398271 1.481683 -0.602522
-0.393841 1.479093 -0.601968
-0.389471 1.477062 -0.601824
-0.385174 1.476111 -0.602485
-0.380858 1.474366 -0.602548
-0.376507 1.470916 -0.601321
-0.372226 1.468537 -0.600894
-0.368032 1.468847 -0.602498
-0.363796 1.466697 -0.602237
-0.359595 1.465544 -0.602730
-0.355421 1.467378 -0.605503
-0.351230 1.465024 -0.605080
-0.347060 1.463564 -0.605337
-0.342934 1.459850 -0.603859
-0.338903 1.453130 -0.600051
-0.334829 1.451347 -0.600039
-0.330733 1.450904 -0.601062
-0.326681 1.449299 -0.601184
-0.322679 1.446841 -0.600640
-0.318619 1.446126 -0.601452
-0.314623 1.444288 -0.601386
-0.310728 1.440992 -0.600173
-0.306456 1.444078 -0.603971
-0.302399 1.443497 -0.604895
-0.298917 1.435341 -0.599835
-0.295043 1.433065 -0.599406
-0.291247 1.430126 -0.598447
-0.287612 1.425739 -0.596327
-0.283702 1.424559 -0.596756
-0.280200 1.419545 -0.594117
-0.276350 1.418118 -0.594342
-0.272195 1.419379 -0.596728
-0.268850 1.413820 -0.593625
-0.265177 1.411248 -0.592921
-0.261042 1.412267 -0.595121
-0.256908 1.413115 -0.597193
-0.253039 1.412002 -0.597677
-0.249847 1.406447 -0.594535
-0.245715 1.407183 -0.596527
-0.242518 1.402088 -0.593742
-0.239048 1.398882 -0.592497
-0.235301 1.397391 -0.592659
-0.231625 1.395540 -0.592523
-0.227961 1.393665 -0.592367
-0.224264 1.392008 -0.592390
-0.220410 1.391163 -0.593089
-0.216296 1.391553 -0.594823
-0.212302 1.391286 -0.596016
-0.208661 1.389352 -0.595814
-0.205661 1.384600 -0.593238
-0.202183 1.382106 -0.592554
-0.198508 1.380500 -0.592619
-0.194816 1.378975 -0.592752
-0.191441 1.376196 -0.591819
-0.188272 1.372682 -0.590253
-0.184663 1.370942 -0.590196
-0.180488 1.371322 -0.591957
-0.176708 1.370188 -0.592425
-0.173322 1.367642 -0.591679
-0.169777 1.365698 -0.591448
-0.166397 1.363215 -0.590750
-0.162746 1.361674 -0.590866
-0.160352 1.356060 -0.587434
-0.155885 1.357201 -0.589884
-0.152598 1.354564 -0.589039
-0.149424 1.351628 -0.587927
-0.146681 1.347462 -0.585724
-0.142910 1.346410 -0.586261
-0.138785 1.346355 -0.587683
-0.134864 1.345670 -0.588553
-0.131587 1.343176 -0.587818
-0.128174 1.341081 -0.587435
-0.124608 1.339415 -0.587434
-0.120918 1.338076 -0.587727
-0.118636 1.333117 -0.584763
-0.114392 1.333223 -0.586354
-0.110592 1.332169 -0.586905
-0.107132 1.330270 -0.586692
-0.104014 1.327563 -0.585742
-0.100571 1.325656 -0.585518
-0.096824 1.324464 -0.585947
-0.093149 1.323094 -0.586215
-0.089636 1.321354 -0.586146
-0.085922 1.320060 -0.586487
-0.082190 1.318793 -0.586856
-0.079511 1.315271 -0.585134
-0.076932 1.311597 -0.583260
-0.073198 1.310372 -0.583663
-0.069284 1.309502 -0.584401
-0.065563 1.308219 -0.584757
