ply
format ascii 1.0
comment ---
element vertex 1689
property float x
property float y
property float z
element face 0
property list uchar uint vertex_indices
end_header
-0.024229 0.908417 -0.537051
-0.019901 0.910168 -0.538209
-0.015563 0.912124 -0.539436
-0.011173 0.913054 -0.540314
-0.006769 0.913870 -0.541153
-0.002347 0.914322 -0.541866
0.002013 0.918893 -0.543989
0.006430 0.922546 -0.545801
0.010898 0.924341 -0.546976
0.015388 0.925258 -0.547850
0.019888 0.925469 -0.548480
0.024397 0.926122 -0.549262
0.028897 0.925306 -0.549535
0.033366 0.922942 -0.549269
0.037757 0.917964 -0.548090
0.041886 0.904990 -0.544123
0.046302 0.904737 -0.544572
0.050877 0.908743 -0.546508
0.055312 0.908346 -0.546908
0.059821 0.909505 -0.547851
0.064373 0.911189 -0.548980
0.068916 0.912329 -0.549918
0.073474 0.913435 -0.550845
0.078001 0.913829 -0.551522
0.082558 0.914521 -0.552304
0.087166 0.915702 -0.553260
0.091786 0.916815 -0.554192
0.096463 0.918387 -0.555288
0.101092 0.919207 -0.556118
0.105654 0.919161 -0.556640
0.110192 0.918831 -0.557061
0.114925 0.920301 -0.558124
0.119771 0.922597 -0.559484
0.124434 0.923058 -0.560189
0.129103 0.923465 -0.560875
0.133909 0.924877 -0.561923
0.138639 0.925544 -0.562703
0.143359 0.926035 -0.563421
0.148155 0.926975 -0.564302
0.152989 0.928057 -0.565235
0.157746 0.928506 -0.565940
0.162563 0.929261 -0.566756
0.167261 0.929176 -0.567268
0.172252 0.930810 -0.568405
0.177194 0.932015 -0.569389
0.181965 0.932134 -0.569976
0.186659 0.931776 -0.570389
0.191446 0.931883 -0.570973
0.196548 0.933590 -0.572144
0.201511 0.934450 -0.573005
0.206404 0.934879 -0.573708
0.211105 0.934313 -0.574045
0.216013 0.934702 -0.574734
0.221419 0.937324 -0.576250
0.226551 0.938548 -0.577251
0.231284 0.937921 -0.577565
0.235967 0.937064 -0.577794
0.240810 0.936874 -0.578270
0.246556 0.940361 -0.580117
0.251644 0.941010 -0.580908
0.256489 0.940630 -0.581314
0.261479 0.940785 -0.581920
0.266802 0.942154 -0.582982
0.271256 0.940199 -0.582795
0.275387 0.937102 -0.582176
0.280847 0.938827 -0.583372
0.286214 0.940116 -0.584405
0.290272 0.936815 -0.583702
0.294999 0.935849 -0.583880
0.299985 0.935734 -0.584379
0.304708 0.934722 -0.584538
0.310145 0.935989 -0.585561
0.315328 0.936371 -0.586249
0.321675 0.940301 -0.588291
0.328614 0.945858 -0.590959
0.336778 0.954856 -0.594951
0.343381 0.958922 -0.597061
0.348051 0.957207 -0.596954
0.354417 0.960339 -0.598710
0.360343 0.962093 -0.599937
0.368837 0.970852 -0.603869
0.372403 0.965863 -0.602497
0.375918 0.960839 -0.601106
0.380259 0.958099 -0.600593
0.387640 0.963313 -0.603163
0.393661 0.964831 -0.604302
0.396960 0.959362 -0.602722
0.402799 0.960338 -0.603647
0.408525 0.960956 -0.604432
0.420137 0.962365 -0.606069
0.422400 0.954591 -0.603564
0.428035 0.954827 -0.604193
0.431594 0.950231 -0.602921
0.440547 0.957934 -0.606486
0.445536 0.956503 -0.606457
0.453245 0.961062 -0.608790
0.457327 0.957532 -0.607929
0.461958 0.955216 -0.607543
0.463517 0.946366 -0.604562
0.467981 0.943774 -0.604056
0.475540 0.947601 -0.606097
0.484965 0.955089 -0.609598
0.494929 0.963419 -0.613442
0.500642 0.962989 -0.613797
0.499663 0.949302 -0.608850
0.505373 0.948913 -0.609210
0.513721 0.953546 -0.611582
0.520151 0.954350 -0.612420
0.524717 0.951561 -0.611814
0.527910 0.946217 -0.610176
0.531950 0.942482 -0.609179
0.543986 0.953269 -0.614036
0.547784 0.948962 -0.612805
0.550257 0.942332 -0.610629
0.558684 0.946213 -0.612703
0.562542 0.942020 -0.611504
0.570576 0.944996 -0.613213
0.574982 0.941689 -0.612368
0.581074 0.941206 -0.612669
0.585906 0.938573 -0.612093
0.590860 0.936125 -0.611589
0.600305 0.940924 -0.614046
0.599450 0.929065 -0.609688
0.605045 0.927602 -0.609579
0.614514 0.932162 -0.611941
0.623899 0.926160 -0.610461
0.631738 0.927922 -0.611680
0.635504 0.923482 -0.610344
0.648748 0.933121 -0.614821
0.651330 0.926870 -0.612739
0.656483 0.924426 -0.612230
0.656769 0.915002 -0.608827
0.660197 0.910193 -0.607334
0.664625 0.906848 -0.606449
0.665459 0.898543 -0.603501
0.676469 0.904380 -0.606444
0.677291 0.896204 -0.603550
0.683969 0.896070 -0.604015
0.693919 0.900295 -0.606313
0.700513 0.900001 -0.606728
0.702969 0.894307 -0.604885
0.697558 0.878549 -0.598812
0.704196 0.878568 -0.599373
0.712170 0.880313 -0.600672
0.726712 0.890324 -0.605476
0.743819 0.903392 -0.611596
0.756062 0.910262 -0.615120
0.757257 0.903543 -0.612897
0.758168 0.896662 -0.610609
0.760369 0.891523 -0.609065
-0.579665 1.458451 -0.653053
-0.574868 1.463570 -0.655402
-0.594639 1.530632 -0.675876
-0.598565 1.559375 -0.685263
-0.593370 1.565646 -0.688134
-0.588767 1.573851 -0.691618
-0.579907 1.571264 -0.691968
-0.575664 1.581147 -0.696029
-0.568448 1.583439 -0.697886
-0.560173 1.583058 -0.698980
-0.553990 1.588648 -0.701876
-0.547205 1.592843 -0.704387
-0.540110 1.596392 -0.706731
-0.531232 1.594957 -0.707603
-0.523907 1.598159 -0.709882
-0.518718 1.607951 -0.714168
-0.510058 1.607511 -0.715386
-0.501676 1.607957 -0.716879
-0.494415 1.611975 -0.719466
-0.486732 1.614779 -0.721694
-0.478654 1.616384 -0.723562
-0.474553 1.631240 -0.729499
-0.466316 1.632602 -0.731309
-0.445160 1.589481 -0.719398
-0.440411 1.602259 -0.724700
-0.435449 1.614694 -0.729914
-0.424617 1.606158 -0.728621
-0.418261 1.613828 -0.732360
-0.408622 1.609287 -0.732288
-0.397944 1.600460 -0.730857
-0.398527 1.635556 -0.743209
-0.392375 1.644922 -0.747501
-0.387531 1.659954 -0.753588
-0.378690 1.658751 -0.754549
-0.365887 1.640391 -0.750049
-0.357067 1.638557 -0.750771
-0.350809 1.648022 -0.755086
-0.334687 1.612528 -0.745022
-0.320533 1.584480 -0.737281
-0.311489 1.579554 -0.736919
-0.214232 1.230502 -0.628432
-0.206345 1.220990 -0.626251
-0.183764 1.160651 -0.608327
-0.166569 1.198418 -0.624096
-0.138470 1.164278 -0.616082
-0.134170 1.175156 -0.620500
-0.118055 1.136107 -0.609034
-0.112087 1.132350 -0.608537
-0.106316 1.130012 -0.608506
-0.098803 1.110684 -0.602753
-0.092749 1.104110 -0.601269
-0.087160 1.101739 -0.601191
-0.081507 1.098371 -0.600769
-0.075204 1.086904 -0.597594
-0.070009 1.087897 -0.598631
-0.064844 1.089374 -0.599832
-0.058705 1.077181 -0.596371
-0.029597 0.915600 -0.543606
-0.024946 0.911022 -0.542602
-0.020616 0.913186 -0.543916
-0.016167 0.912651 -0.544297
-0.011724 0.912213 -0.544710
-0.007330 0.913495 -0.545716
-0.002936 0.915465 -0.546961
0.001460 0.918530 -0.548587
0.005909 0.919860 -0.549611
0.010375 0.921143 -0.550619
0.014854 0.922983 -0.551821
0.019354 0.924711 -0.552986
0.023864 0.925029 -0.553656
0.028361 0.923663 -0.553734
0.032825 0.920977 -0.553345
0.037314 0.920425 -0.553703
0.041542 0.910114 -0.550614
0.045821 0.904494 -0.549171
0.050344 0.906929 -0.550574
0.054863 0.908598 -0.551708
0.059367 0.909466 -0.552557
0.063884 0.910314 -0.553401
0.068426 0.911365 -0.554317
0.072979 0.912347 -0.555209
0.077534 0.913122 -0.556028
0.082074 0.913507 -0.556707
0.086660 0.914354 -0.557552
0.091329 0.916065 -0.558709
0.095942 0.916848 -0.559533
0.100628 0.918278 -0.560591
0.105218 0.918489 -0.561209
0.109768 0.918218 -0.561654
0.114463 0.919282 -0.562581
0.119284 0.921326 -0.563866
0.124018 0.922372 -0.564791
0.128564 0.921727 -0.565099
0.133305 0.922622 -0.565970
0.138039 0.923337 -0.566775
0.142758 0.923837 -0.567503
0.147715 0.925938 -0.568818
0.152487 0.926567 -0.569595
0.157440 0.928305 -0.570780
0.162173 0.928467 -0.571388
0.166772 0.927737 -0.571666
0.171769 0.929403 -0.572828
0.176776 0.930973 -0.573958
0.181454 0.930540 -0.574346
0.186142 0.930141 -0.574747
0.190996 0.930606 -0.575468
0.195709 0.930263 -0.575890
0.201316 0.934441 -0.577997
0.206080 0.934183 -0.578452
0.210886 0.934098 -0.578972
0.216040 0.935610 -0.580090
0.221563 0.938707 -0.581805
0.226433 0.938678 -0.582348
0.231038 0.937444 -0.582437
0.235810 0.936934 -0.582798
0.240934 0.937891 -0.583712
0.245767 0.937562 -0.584140
0.250479 0.936717 -0.584373
0.254798 0.934315 -0.584014
0.259569 0.933718 -0.584338
0.264074 0.932092 -0.584269
0.268765 0.931179 -0.584470
0.273609 0.930815 -0.584880
0.278013 0.928852 -0.584677
0.282775 0.928176 -0.584965
0.288263 0.929979 -0.586204
0.292656 0.927977 -0.585981
0.297124 0.926252 -0.585863
0.302896 0.928793 -0.587387
0.307762 0.928301 -0.587743
0.312580 0.927634 -0.588029
0.317456 0.927127 -0.588377
0.324579 0.933432 -0.591366
0.332689 0.942444 -0.595414
0.338469 0.944255 -0.596670
0.344421 0.946461 -0.598081
0.349154 0.945072 -0.598092
0.354687 0.945930 -0.598979
0.360756 0.948196 -0.600417
0.367302 0.951645 -0.602321
0.371680 0.949128 -0.601886
0.374964 0.943739 -0.600319
0.382176 0.948695 -0.602817
0.384136 0.939970 -0.599927
0.389660 0.940466 -0.600666
0.396294 0.943670 -0.602476
0.399943 0.939384 -0.601323
0.404271 0.936815 -0.600846
0.409890 0.937353 -0.601597
0.416949 0.941223 -0.603675
0.420619 0.937042 -0.602548
0.426193 0.937292 -0.603184
0.432635 0.939447 -0.604580
0.439771 0.943043 -0.606554
0.445631 0.943670 -0.607341
0.448716 0.938172 -0.605671
0.450568 0.930102 -0.602961
0.456565 0.930985 -0.603842
0.462925 0.932548 -0.604997
0.469075 0.933574 -0.605936
0.471304 0.926490 -0.603599
0.488926 0.938927 -0.609674
0.494223 0.937894 -0.609779
0.500507 0.938742 -0.610647
0.506715 0.939357 -0.611418
0.510254 0.934814 -0.610090
0.513790 0.930305 -0.608768
0.520883 0.932436 -0.610153
0.524381 0.927855 -0.608793
0.529514 0.926271 -0.608656
0.532693 0.921153 -0.607066
0.545373 0.932908 -0.612398
0.550048 0.930307 -0.611840
0.553562 0.925683 -0.610445
0.559810 0.925769 -0.610986
0.567355 0.927974 -0.612402
0.571386 0.924179 -0.611339
0.574369 0.918663 -0.609561
0.579568 0.916821 -0.609298
0.587819 0.919880 -0.611067
0.592630 0.917303 -0.610498
0.598636 0.916599 -0.610706
0.603945 0.914752 -0.610438
0.607274 0.909814 -0.608879
0.615636 0.912615 -0.610549
0.624099 0.915443 -0.612233
0.631142 0.916021 -0.612981
0.631923 0.907259 -0.609816
0.635560 0.902811 -0.608454
0.642969 0.903866 -0.609405
0.652246 0.907526 -0.611455
0.655000 0.901815 -0.609564
0.654854 0.892115 -0.605987
0.657223 0.886073 -0.603950
0.661494 0.882740 -0.603057
0.669782 0.884915 -0.604501
0.675923 0.884138 -0.604701
0.682360 0.883760 -0.605077
0.693531 0.889631 -0.608119
0.690218 0.876474 -0.603065
0.690878 0.868723 -0.600312
0.696230 0.867149 -0.600198
0.706358 0.871691 -0.602711
0.715866 0.875401 -0.604883
0.714778 0.865892 -0.601391
0.744476 0.894581 -0.614333
0.747851 0.890632 -0.613259
0.750316 0.885713 -0.611773
0.745237 0.871888 -0.606440
-0.577888 1.448870 -0.657615
-0.575170 1.459077 -0.661507
-0.597902 1.552170 -0.691068
-0.594721 1.563579 -0.695512
-0.591761 1.576078 -0.700332
-0.585087 1.579368 -0.702442
-0.576785 1.578614 -0.703372
-0.568576 1.578274 -0.704455
-0.560777 1.579217 -0.705951
-0.555097 1.586220 -0.709306
-0.546801 1.586194 -0.710561
-0.541124 1.593772 -0.714149
-0.534292 1.598328 -0.716843
-0.526308 1.599713 -0.718588
-0.518993 1.603209 -0.720996
-0.511872 1.607455 -0.723650
-0.504119 1.609918 -0.725768
-0.495783 1.610647 -0.727360
-0.488033 1.613279 -0.729547
-0.478289 1.609501 -0.729746
-0.470525 1.612122 -0.731936
-0.465777 1.624963 -0.737324
-0.453895 1.613748 -0.735188
-0.443445 1.607065 -0.734455
-0.436482 1.612480 -0.737520
-0.428376 1.613884 -0.739320
-0.418096 1.607221 -0.738560
-0.415432 1.628932 -0.746798
-0.414171 1.656822 -0.757033
-0.403863 1.650238 -0.756293
-0.395823 1.652362 -0.758322
-0.387994 1.655332 -0.760617
-0.379766 1.656654 -0.762377
-0.370968 1.655487 -0.763326
-0.363447 1.659732 -0.766013
-0.355755 1.663291 -0.768475
-0.342261 1.640376 -0.762327
-0.327961 1.612479 -0.754511
-0.318582 1.606707 -0.753867
-0.206619 1.216700 -0.631075
-0.201672 1.223017 -0.634060
-0.166196 1.117666 -0.601608
-0.116165 1.112915 -0.606970
-0.103772 1.099002 -0.603718
-0.096803 1.083632 -0.599199
-0.091433 1.082720 -0.599601
-0.086127 1.082344 -0.600183
-0.080122 1.074141 -0.598072
-0.074373 1.067979 -0.596650
-0.069259 1.068933 -0.597669
-0.063347 1.059441 -0.595078
-0.057811 1.053933 -0.593851
-0.050595 1.022187 -0.583519
-0.044506 1.003801 -0.577783
-0.030434 0.919942 -0.549824
-0.025587 0.911838 -0.547572
-0.021170 0.912162 -0.548255
-0.016796 0.913740 -0.549376
-0.012354 0.913740 -0.549944
-0.007885 0.912778 -0.550171
-0.003501 0.915304 -0.551624
0.000914 0.917614 -0.553003
0.005359 0.919438 -0.554211
0.009843 0.919043 -0.554633
0.014321 0.919945 -0.555515
0.018814 0.922104 -0.556842
0.023318 0.922171 -0.557427
0.027818 0.921601 -0.557783
0.032345 0.922706 -0.558736
0.036786 0.919121 -0.558011
0.040932 0.905443 -0.553665
0.045310 0.903377 -0.553469
0.049845 0.906110 -0.554996
0.054381 0.908095 -0.556255
0.058897 0.909117 -0.557168
0.063364 0.908862 -0.557621
0.067838 0.908690 -0.558104
0.072486 0.911315 -0.559599
0.077084 0.912710 -0.560650
0.081635 0.913149 -0.561355
0.086212 0.913804 -0.562139
0.090850 0.915055 -0.563140
0.095489 0.916104 -0.564069
0.100129 0.916973 -0.564933
0.104771 0.917710 -0.565750
0.109378 0.917953 -0.566386
0.114030 0.918540 -0.567148
0.119013 0.922016 -0.568976
0.123491 0.920744 -0.569055
0.128202 0.921454 -0.569866
0.132840 0.921473 -0.570421
0.137542 0.921918 -0.571134
0.142283 0.922562 -0.571923
0.147079 0.923506 -0.572822
0.152116 0.925985 -0.574296
0.157044 0.927513 -0.575417
0.161782 0.927675 -0.576030
0.166418 0.927139 -0.576382
0.171460 0.929041 -0.577647
0.176319 0.929705 -0.578450
0.181098 0.929832 -0.579051
0.186122 0.931253 -0.580141
0.190997 0.931749 -0.580883
0.195983 0.932757 -0.581819
0.200915 0.933389 -0.582614
0.205886 0.934136 -0.583454
0.210685 0.933969 -0.583948
0.215802 0.935264 -0.584997
0.220882 0.936285 -0.585944
0.225699 0.936032 -0.586406
0.230518 0.935754 -0.586858
0.235376 0.935616 -0.587364
0.240295 0.935694 -0.587952
0.244726 0.933721 -0.587753
0.248825 0.930450 -0.587053
0.253237 0.928506 -0.586859
0.257333 0.925378 -0.586207
0.262034 0.924626 -0.586469
0.267329 0.926064 -0.587577
0.271798 0.924401 -0.587485
0.275907 0.921474 -0.586900
0.280825 0.921445 -0.587439
0.285926 0.922006 -0.588207
0.290186 0.919668 -0.587845
0.294180 0.916484 -0.587150
0.299309 0.917072 -0.587925
0.305589 0.921283 -0.590120
0.309484 0.917797 -0.589302
0.313996 0.916300 -0.589259
0.319452 0.917679 -0.590347
0.327221 0.925896 -0.594129
0.332245 0.925718 -0.594609
0.338647 0.929495 -0.596650
0.344461 0.931431 -0.597968
0.349633 0.931457 -0.598530
0.355363 0.932980 -0.599685
0.360864 0.933788 -0.600558
0.362503 0.924159 -0.597276
0.365971 0.919604 -0.596005
0.375836 0.931797 -0.601417
0.379901 0.928699 -0.600726
0.383556 0.924603 -0.599632
0.388430 0.923614 -0.599779
0.393704 0.923588 -0.600310
0.398432 0.922186 -0.600287
0.403375 0.921283 -0.600464
0.409827 0.923915 -0.602064
0.415819 0.925351 -0.603183
0.421416 0.925788 -0.603899
0.426260 0.924453 -0.603897
0.437873 0.913960 -0.601237
0.445040 0.917615 -0.603255
0.451018 0.918594 -0.604184
0.457497 0.920540 -0.605509
0.461202 0.916635 -0.604440
0.464758 0.912461 -0.603257
0.481206 0.922852 -0.608572
0.488118 0.925177 -0.610056
0.491066 0.919666 -0.608314
0.499663 0.925084 -0.611073
0.503702 0.921647 -0.610179
0.504180 0.911539 -0.606521
0.511840 0.914923 -0.608439
0.518609 0.916527 -0.609623
0.521381 0.910781 -0.607754
0.526925 0.910063 -0.607970
0.533736 0.911533 -0.609096
0.543175 0.917493 -0.612095
0.547824 0.914964 -0.611556
0.552045 0.911689 -0.610701
0.556604 0.908986 -0.610081
0.562622 0.908708 -0.610476
0.565667 0.903454 -0.608781
0.571963 0.903557 -0.609331
0.580889 0.907831 -0.611639
0.581574 0.898779 -0.608334
0.591495 0.904443 -0.611232
0.590941 0.893553 -0.607139
0.600093 0.897825 -0.609452
0.608875 0.901373 -0.611465
0.613366 0.898294 -0.610671
0.619254 0.897309 -0.610765
0.625350 0.896591 -0.610974
0.628849 0.892033 -0.609549
0.632979 0.888431 -0.608528
0.643794 0.894426 -0.611608
0.644332 0.885693 -0.608397
0.648419 0.882074 -0.607371
0.651635 0.877289 -0.605844
0.654760 0.872446 -0.604292
0.660543 0.871289 -0.604325
0.668122 0.872550 -0.605406
0.674474 0.872143 -0.605774
0.679711 0.870268 -0.605515
0.683122 0.866052 -0.604247
0.688523 0.864498 -0.604136
0.694030 0.863127 -0.604111
0.698291 0.860228 -0.603428
0.703449 0.858541 -0.603279
0.722995 0.874810 -0.610967
0.717870 0.860441 -0.605305
0.742910 0.875331 -0.613071
0.742608 0.867303 -0.610193
-0.585141 1.461292 -0.668732
-0.577547 1.459703 -0.669140
-0.573868 1.468059 -0.672587
-0.594151 1.537215 -0.694486
-0.597822 1.565964 -0.704251
-0.593125 1.574057 -0.707807
-0.586161 1.576641 -0.709727
-0.578211 1.576877 -0.710963
-0.569950 1.576464 -0.712028
-0.562991 1.579759 -0.714256
-0.555787 1.582617 -0.716378
-0.548568 1.585649 -0.718578
-0.542268 1.591500 -0.721674
-0.534980 1.594772 -0.723994
-0.527635 1.598054 -0.726336
-0.520368 1.601733 -0.728819
-0.513507 1.606808 -0.731753
-0.505569 1.608756 -0.733723
-0.497935 1.611736 -0.736025
-0.491450 1.618478 -0.739521
-0.478816 1.605501 -0.736795
-0.468960 1.601207 -0.736800
-0.462220 1.607186 -0.740062
-0.453625 1.606992 -0.741364
-0.458564 1.653858 -0.757701
-0.439664 1.617848 -0.747556
-0.429419 1.611674 -0.746930
-0.423971 1.622858 -0.751879
-0.416977 1.628583 -0.755076
-0.416051 1.657701 -0.765848
-0.410226 1.668750 -0.770795
-0.396367 1.648080 -0.765429
-0.388118 1.649294 -0.767159
-0.381056 1.655394 -0.770480
-0.374046 1.661870 -0.773924
-0.371310 1.687111 -0.783535
-0.358335 1.667835 -0.778512
-0.343009 1.636843 -0.769580
-0.331267 1.620962 -0.765592
-0.325230 1.631426 -0.770308
-0.321604 1.654085 -0.779084
-0.316212 1.668921 -0.785279
-0.305568 1.657394 -0.782681
-0.211996 1.240075 -0.645154
-0.204202 1.231188 -0.643076
-0.190847 1.189832 -0.630040
-0.153785 1.102869 -0.603896
-0.145315 1.082678 -0.597797
-0.122391 1.070243 -0.596522
-0.114569 1.092407 -0.605611
-0.107220 1.075034 -0.600347
-0.095968 1.067932 -0.599319
-0.090159 1.061988 -0.597961
-0.084797 1.060065 -0.597990
-0.078988 1.053000 -0.596222
-0.073885 1.053282 -0.597006
-0.066766 1.028793 -0.589121
-0.062528 1.038847 -0.593309
-0.057159 1.034439 -0.592428
-0.050660 1.012461 -0.585359
-0.044841 0.998017 -0.580914
-0.039302 0.986019 -0.577312
-0.025985 0.907415 -0.550709
-0.021669 0.909759 -0.552111
-0.017352 0.912735 -0.553738
-0.012879 0.911860 -0.553996
-0.008426 0.911440 -0.554413
-0.004013 0.912707 -0.555432
0.000372 0.916273 -0.557273
0.004821 0.917805 -0.558388
0.009298 0.918191 -0.559092
0.013781 0.918977 -0.559938
0.018272 0.918355 -0.560278
0.022769 0.919043 -0.561088
0.027316 0.923296 -0.563187
0.031891 0.926445 -0.564890
0.036506 0.929875 -0.566699
0.040577 0.910600 -0.560257
0.044780 0.901708 -0.557572
0.049359 0.905721 -0.559582
0.053930 0.908425 -0.561118
0.058422 0.908716 -0.561774
0.062856 0.907675 -0.561941
0.067316 0.907192 -0.562311
0.072007 0.910555 -0.564095
0.076560 0.911184 -0.564875
0.081125 0.911820 -0.565659
0.085744 0.913001 -0.566644
0.090351 0.913815 -0.567494
0.095007 0.915036 -0.568496
0.099614 0.915511 -0.569222
0.104207 0.915715 -0.569848
0.108852 0.916350 -0.570635
0.113341 0.915377 -0.570822
0.118034 0.916282 -0.571710
0.123042 0.919794 -0.573575
0.127784 0.920730 -0.574478
0.132554 0.921762 -0.575419
0.137298 0.922449 -0.576231
0.141939 0.922267 -0.576716
0.146607 0.922243 -0.577261
0.151630 0.924605 -0.578708
0.156747 0.927386 -0.580316
0.161413 0.927033 -0.580740
0.166142 0.927033 -0.581297
0.170982 0.927665 -0.582095
0.175822 0.928202 -0.582857
0.180628 0.928473 -0.583519
0.185622 0.929717 -0.584554
0.190604 0.930779 -0.585520
0.195613 0.931886 -0.586504
0.200426 0.931882 -0.587064
0.205364 0.932456 -0.587847
0.210251 0.932710 -0.588506
0.215163 0.933027 -0.589191
0.219867 0.932324 -0.589482
0.224440 0.931021 -0.589540
0.228849 0.929009 -0.589322
0.234145 0.930863 -0.590603
0.238864 0.930166 -0.590893
0.242924 0.926741 -0.590121
0.246814 0.922736 -0.589119
0.250986 0.919968 -0.588595
0.255407 0.918234 -0.588473
0.259618 0.915728 -0.588046
0.264733 0.916640 -0.588957
0.268372 0.912101 -0.587727
0.272290 0.908689 -0.586935
0.279059 0.915353 -0.590110
0.283523 0.913802 -0.590051
0.286830 0.908359 -0.588450
0.290943 0.905742 -0.587962
0.296189 0.906868 -0.588956
0.301034 0.906629 -0.589408
0.305742 0.905924 -0.589674
0.310148 0.904265 -0.589560
0.316368 0.908143 -0.591652
0.322665 0.912079 -0.593772
0.327866 0.912615 -0.594536
0.333866 0.915408 -0.596204
0.339876 0.918096 -0.597834
0.345209 0.918754 -0.598650
0.348071 0.912515 -0.596691
0.354168 0.915229 -0.598332
0.359085 0.914650 -0.598648
0.362629 0.910411 -0.597482
0.368210 0.911554 -0.598491
0.375730 0.917592 -0.601485
0.378079 0.910329 -0.599084
0.382443 0.908248 -0.598781
0.388528 0.910407 -0.600203
0.392526 0.907396 -0.599517
0.396898 0.905309 -0.599205
0.403952 0.909554 -0.601481
0.406402 0.902923 -0.599304
0.412114 0.903901 -0.600242
0.416088 0.900863 -0.599530
0.419868 0.897418 -0.598646
0.432579 0.901846 -0.601535
0.439025 0.904084 -0.602992
0.446311 0.907989 -0.605141
0.451466 0.907275 -0.605379
0.456714 0.906710 -0.605678
0.459923 0.901933 -0.604225
0.461398 0.893715 -0.601334
0.467370 0.894597 -0.602225
0.476053 0.900732 -0.605309
0.481003 0.899396 -0.605277
0.484928 0.896059 -0.604405
0.491451 0.886937 -0.601621
0.498759 0.889939 -0.603399
0.505295 0.891389 -0.604526
0.515405 0.899205 -0.608337
0.519716 0.896398 -0.607674
0.523869 0.893306 -0.606887
0.541972 0.904049 -0.612474
0.543613 0.896475 -0.609783
0.546841 0.891681 -0.608265
0.552302 0.890651 -0.608343
0.557893 0.889787 -0.608491
0.563039 0.888145 -0.608306
0.570240 0.889785 -0.609522
0.574209 0.886162 -0.608489
0.577131 0.880896 -0.606748
0.581752 0.878329 -0.606160
0.590945 0.882807 -0.608596
0.592183 0.874980 -0.605747
0.608344 0.889785 -0.612637
0.604650 0.874561 -0.606596
0.619570 0.887097 -0.612527
0.617095 0.873894 -0.607346
0.623008 0.873042 -0.607499
0.632373 0.877092 -0.609781
0.636895 0.874160 -0.609039
0.641092 0.870793 -0.608109
0.644341 0.866146 -0.606621
0.647567 0.861533 -0.605147
0.652996 0.859976 -0.605008
0.660820 0.861648 -0.606284
0.659307 0.850865 -0.602114
0.667188 0.852649 -0.603449
0.677044 0.856972 -0.605908
0.680984 0.853588 -0.604989
0.689850 0.856576 -0.606882
0.690404 0.849015 -0.604132
0.692121 0.843086 -0.602101
0.701607 0.846948 -0.604405
0.712451 0.852453 -0.607452
0.713482 0.845952 -0.605185
0.723516 0.850498 -0.607831
0.740024 0.862781 -0.613942
-0.587578 1.461946 -0.676407
-0.581195 1.463418 -0.677759
-0.575605 1.467134 -0.679837
-0.592569 1.527787 -0.699484
-0.597901 1.560624 -0.710662
-0.592796 1.567661 -0.713940
-0.587204 1.573819 -0.716985
-0.579683 1.575241 -0.718597
-0.572071 1.576634 -0.720228
-0.564982 1.579654 -0.722394
-0.557841 1.582761 -0.724613
-0.550431 1.585333 -0.726689
-0.543002 1.588038 -0.728828
-0.536332 1.593107 -0.731732
-0.528206 1.594144 -0.733381
-0.521768 1.600293 -0.736664
-0.514898 1.605375 -0.739626
-0.507439 1.608839 -0.742087
-0.499771 1.611775 -0.744390
-0.491564 1.613095 -0.746181
-0.478241 1.597915 -0.742674
-0.471733 1.604577 -0.746179
-0.464967 1.610570 -0.749476
-0.459958 1.622717 -0.754774
-0.449382 1.615936 -0.753942
-0.441777 1.619331 -0.756406
-0.430505 1.609573 -0.754576
-0.423141 1.613696 -0.757266
-0.424367 1.650050 -0.770531
-0.417539 1.657010 -0.774179
-0.408741 1.656476 -0.775359
-0.395957 1.639968 -0.771249
-0.389656 1.648975 -0.775558
-0.383500 1.658859 -0.780164
-0.373756 1.653857 -0.779819
-0.364700 1.651497 -0.780338
-0.356052 1.650723 -0.781374
-0.342429 1.627245 -0.774787
-0.334585 1.629354 -0.776753
-0.329977 1.646823 -0.783887
-0.326864 1.672319 -0.793747
-0.319078 1.675660 -0.796139
-0.311389 1.679555 -0.798716
-0.305440 1.692684 -0.804426
-0.172317 1.143159 -0.621838
-0.164659 1.130802 -0.618400
-0.143577 1.065130 -0.597299
-0.137883 1.062154 -0.597012
-0.125308 1.046622 -0.593081
-0.120442 1.048767 -0.594546
-0.107030 1.066166 -0.602773
-0.082833 1.031514 -0.593373
-0.077117 1.024093 -0.591425
-0.072300 1.026146 -0.592821
-0.067390 1.027279 -0.593891
-0.062080 1.023352 -0.593159
-0.056818 1.019551 -0.592464
-0.050236 0.995622 -0.584579
-0.044728 0.985125 -0.581462
-0.039042 0.969790 -0.576597
-0.026437 0.904148 -0.554232
-0.022359 0.911782 -0.557551
-0.017904 0.911540 -0.558037
-0.013472 0.911959 -0.558760
-0.008949 0.909392 -0.558401
-0.004548 0.911027 -0.559561
-0.000180 0.915365 -0.561704
0.004268 0.917159 -0.562924
0.008732 0.919458 -0.564330
0.013232 0.919301 -0.564841
0.017734 0.918520 -0.565122
0.022244 0.920052 -0.566248
0.026786 0.922885 -0.567853
0.031357 0.925475 -0.569371
0.035933 0.926903 -0.570463
0.040274 0.918195 -0.567820
0.044292 0.901463 -0.562201
0.048865 0.905151 -0.564115
0.053427 0.907538 -0.565552
0.057944 0.908285 -0.566382
0.062407 0.907697 -0.566715
0.066989 0.909301 -0.567865
0.071417 0.907951 -0.567914
0.076047 0.909850 -0.569174
0.080578 0.909960 -0.569768
0.085144 0.910448 -0.570502
0.089771 0.911572 -0.571476
0.094440 0.912982 -0.572559
0.099085 0.913902 -0.573459
0.103681 0.914125 -0.574097
0.108158 0.913062 -0.574249
0.112755 0.913196 -0.574853
0.117488 0.914490 -0.575896
0.122563 0.918593 -0.578008
0.127335 0.919759 -0.579008
0.132239 0.921827 -0.580353
0.136956 0.922241 -0.581069
0.141720 0.922908 -0.581883
0.146356 0.922561 -0.582310
0.151258 0.924022 -0.583429
0.156045 0.924566 -0.584199
0.160985 0.926006 -0.585314
0.165696 0.925873 -0.585825
0.170390 0.925595 -0.586280
0.175104 0.925406 -0.586769
0.179793 0.925032 -0.587187
0.184441 0.924405 -0.587506
0.189708 0.927101 -0.589115
0.194742 0.928386 -0.590178
0.199524 0.928269 -0.590698
0.204355 0.928355 -0.591297
0.209251 0.928709 -0.592000
0.214144 0.928986 -0.592674
0.218535 0.926892 -0.592420
0.222656 0.923634 -0.591708
0.227375 0.923113 -0.592066
0.232255 0.923267 -0.592690
0.236568 0.920987 -0.592355
0.240577 0.917509 -0.591544
0.244829 0.915118 -0.591159
0.249200 0.913256 -0.590981
0.252984 0.909156 -0.589913
0.257443 0.907736 -0.589904
0.261985 0.906641 -0.590024
0.266209 0.904391 -0.589682
0.269942 0.900428 -0.588653
0.274765 0.900398 -0.589192
0.280379 0.903044 -0.590801
0.283716 0.897863 -0.589277
0.288158 0.896494 -0.589276
0.292942 0.896245 -0.589724
0.297657 0.895744 -0.590070
0.301387 0.892117 -0.589155
0.306832 0.893876 -0.590411
0.312691 0.896797 -0.592139
0.318723 0.900097 -0.594023
0.324558 0.902667 -0.595616
0.329102 0.901368 -0.595639
0.334910 0.903675 -0.597128
0.338291 0.899051 -0.595795
0.343241 0.898861 -0.596265
0.350792 0.905712 -0.599614
0.354895 0.903068 -0.599083
0.358899 0.900191 -0.598454
0.362104 0.895277 -0.596984
0.367674 0.896521 -0.598040
0.371840 0.894133 -0.597601
0.377414 0.895274 -0.598615
0.383514 0.897627 -0.600130
0.388536 0.897252 -0.600520
0.392226 0.893655 -0.599573
0.396410 0.891271 -0.599126
0.400508 0.888698 -0.598596
0.404944 0.886918 -0.598393
0.411307 0.889494 -0.600002
0.413625 0.882912 -0.597793
0.417042 0.878873 -0.596638
0.423300 0.881064 -0.598084
0.438859 0.891566 -0.603552
0.443360 0.889669 -0.603291
0.447699 0.887426 -0.602880
0.451922 0.884942 -0.602366
0.457244 0.884677 -0.602785
0.461783 0.882795 -0.602519
0.468045 0.884289 -0.603680
0.472939 0.883025 -0.603673
0.476748 0.879647 -0.602766
0.480964 0.877056 -0.602190
0.486888 0.877662 -0.602972
0.492273 0.877190 -0.603294
0.499036 0.879185 -0.604668
0.505083 0.879772 -0.605443
0.512905 0.883450 -0.607540
0.518784 0.883540 -0.608105
0.520759 0.876742 -0.605713
0.526132 0.875896 -0.605871
0.535453 0.881736 -0.608906
0.541295 0.881504 -0.609331
0.547153 0.881232 -0.609739
0.549641 0.875341 -0.607718
0.553509 0.871760 -0.606690
0.559652 0.871855 -0.607253
0.565057 0.870703 -0.607274
0.570061 0.868874 -0.607002
0.576489 0.869238 -0.607682
0.582619 0.869068 -0.608131
0.584930 0.863014 -0.606015
0.590603 0.862097 -0.606137
0.593405 0.856855 -0.604368
0.600457 0.857939 -0.605366
0.604734 0.854892 -0.604556
0.612458 0.856833 -0.605936
0.618755 0.856643 -0.606385
0.626215 0.858056 -0.607543
0.629973 0.854220 -0.606390
0.632013 0.848050 -0.604206
0.640030 0.850159 -0.605682
0.644659 0.847607 -0.605100
0.647465 0.842643 -0.603449
0.652464 0.840676 -0.603130
0.657931 0.839355 -0.603103
0.665770 0.841145 -0.604467
0.672724 0.841767 -0.605318
0.675186 0.836660 -0.603616
0.679592 0.834130 -0.603069
0.685200 0.833180 -0.603235
0.691674 0.833356 -0.603914
0.698570 0.834089 -0.604852
0.705373 0.834747 -0.605765
0.717693 0.842103 -0.609713
0.745493 0.867892 -0.622018
-0.590462 1.463655 -0.684450
-0.582444 1.461231 -0.684608
-0.577814 1.467362 -0.687469
-0.574273 1.476596 -0.691343
-0.597040 1.552917 -0.716308
-0.594057 1.565360 -0.721325
-0.588433 1.571471 -0.724395
-0.581522 1.574550 -0.726543
-0.574216 1.576835 -0.728470
-0.567413 1.580706 -0.730927
-0.560114 1.583466 -0.733057
-0.552153 1.584586 -0.734687
-0.544357 1.586315 -0.736530
-0.536876 1.589089 -0.738725
-0.530480 1.595184 -0.742004
-0.523582 1.600042 -0.744903
-0.516528 1.604620 -0.747729
-0.509439 1.609265 -0.750589
-0.501210 1.610525 -0.752361
-0.492555 1.610469 -0.753709
-0.479857 1.597376 -0.750800
-0.473030 1.603027 -0.754005
-0.467353 1.612668 -0.758527
-0.458579 1.612090 -0.759699
-0.448347 1.606389 -0.759176
-0.441413 1.612018 -0.762385
-0.432058 1.609095 -0.762762
-0.425204 1.615120 -0.766102
-0.423014 1.638681 -0.775288
-0.419181 1.656839 -0.782701
-0.407972 1.647008 -0.780761
-0.399378 1.647024 -0.782102
-0.391894 1.651417 -0.784907
-0.386694 1.665322 -0.790918
-0.371767 1.638668 -0.783229
-0.360701 1.627367 -0.780691
-0.352847 1.629611 -0.782727
-0.351676 1.662008 -0.795022
-0.340131 1.647890 -0.791487
-0.336847 1.672054 -0.801011
-0.326136 1.661291 -0.798592
-0.320488 1.675027 -0.804563
-0.311391 1.671775 -0.804696
-0.305093 1.682881 -0.809769
-0.305166 1.728689 -0.826847
-0.294058 1.715199 -0.823438
-0.279252 1.679838 -0.812408
-0.166950 1.139000 -0.627094
-0.159019 1.124426 -0.622799
-0.145676 1.073073 -0.605578
-0.137923 1.056372 -0.600459
-0.123223 1.025082 -0.590882
-0.117299 1.018435 -0.589235
-0.111855 1.015001 -0.588714
-0.106926 1.015480 -0.589572
-0.102503 1.020268 -0.591959
-0.097623 1.021363 -0.593034
-0.081640 1.011252 -0.591448
-0.075972 1.003424 -0.589304
-0.071240 1.005372 -0.590662
-0.066637 1.009088 -0.592656
-0.061983 1.012585 -0.594573
-0.056895 1.010599 -0.594510
-0.050244 0.985383 -0.586031
-0.044803 0.975400 -0.583043
-0.039387 0.964193 -0.579595
-0.032063 0.915347 -0.562430
-0.027566 0.914757 -0.562797
-0.023339 0.920222 -0.565373
-0.018734 0.917397 -0.564921
-0.014258 0.917574 -0.565564
-0.009737 0.916363 -0.565696
-0.005243 0.915828 -0.566074
-0.000722 0.913805 -0.565901
0.003719 0.916027 -0.567292
0.008177 0.919101 -0.568998
0.012691 0.917250 -0.568884
0.017191 0.918594 -0.569952
0.021717 0.921796 -0.571710
0.026208 0.917847 -0.570811
0.030709 0.916952 -0.571044
0.035257 0.918650 -0.572243
0.039771 0.918120 -0.572611
0.043866 0.903408 -0.567665
0.048336 0.903638 -0.568306
0.052888 0.905804 -0.569675
0.057414 0.906766 -0.570593
0.061947 0.907565 -0.571450
0.066419 0.906983 -0.571786
0.070990 0.908091 -0.572760
0.075466 0.907461 -0.573077
0.080122 0.909428 -0.574379
0.084641 0.909216 -0.574854
0.089208 0.909546 -0.575536
0.093953 0.911880 -0.576982
0.098696 0.913859 -0.578295
0.103175 0.912756 -0.578431
0.108268 0.917894 -0.580957
0.112606 0.915206 -0.580487
0.117278 0.915768 -0.581262
0.122100 0.917534 -0.582501
0.126896 0.918876 -0.583580
0.131677 0.919921 -0.584545
0.136537 0.921445 -0.585698
0.141059 0.920276 -0.585808
0.145991 0.922082 -0.587072
0.150484 0.920663 -0.587086
0.155197 0.920759 -0.587687
0.159908 0.920790 -0.588263
0.164884 0.922418 -0.589463
0.169424 0.921261 -0.589576
0.174204 0.921526 -0.590245
0.178778 0.920558 -0.590431
0.183784 0.921990 -0.591559
0.188251 0.920388 -0.591495
0.193265 0.921703 -0.592579
0.198275 0.922876 -0.593609
0.202786 0.921462 -0.593618
0.207631 0.921695 -0.594277
0.212377 0.921402 -0.594729
0.216769 0.919447 -0.594521
0.221272 0.918039 -0.594527
0.225847 0.916969 -0.594667
0.230514 0.916307 -0.594969
0.235028 0.914980 -0.595004
0.239013 0.911496 -0.594175
0.242938 0.907874 -0.593286
0.246347 0.902322 -0.591618
0.250548 0.900020 -0.591250
0.255061 0.898954 -0.591377
0.259535 0.897743 -0.591445
0.263554 0.894882 -0.590845
0.267148 0.890569 -0.589653
0.271073 0.887541 -0.588978
0.275303 0.885632 -0.588753
0.280993 0.888686 -0.590542
0.286324 0.890395 -0.591788
0.290772 0.889130 -0.591824
0.293252 0.881564 -0.589285
0.297728 0.880497 -0.589396
0.303566 0.883639 -0.591227
0.308359 0.883455 -0.591699
0.314758 0.888043 -0.594131
0.319946 0.888876 -0.595023
0.325297 0.890108 -0.596082
0.330204 0.889993 -0.596585
0.332608 0.882817 -0.594171
0.336033 0.878635 -0.592986
0.342022 0.881514 -0.594723
0.349680 0.888737 -0.598266
0.352423 0.882721 -0.596315
0.357981 0.884161 -0.597460
0.364095 0.886938 -0.599164
0.368665 0.885685 -0.599189
0.372675 0.883025 -0.598624
0.378497 0.884843 -0.599930
0.382497 0.882148 -0.599345
0.387097 0.880911 -0.599370
0.390350 0.876486 -0.598052
0.393499 0.871887 -0.596654
0.399775 0.874530 -0.598306
0.402869 0.869852 -0.596868
0.406854 0.867236 -0.596296
0.413026 0.869451 -0.597768
0.417304 0.867437 -0.597448
0.421784 0.865853 -0.597307
0.427512 0.866898 -0.598283
0.434056 0.869568 -0.599952
0.439333 0.869496 -0.600455
0.445716 0.871624 -0.601897
0.450767 0.870958 -0.602145
0.455793 0.870197 -0.602352
0.460336 0.868444 -0.602132
0.465321 0.867532 -0.602272
0.470904 0.867726 -0.602885
0.475906 0.866749 -0.602994
0.480132 0.864281 -0.602459
0.483385 0.860005 -0.601139
0.490015 0.861938 -0.602500
0.498910 0.867854 -0.605591
0.504779 0.868160 -0.606254
0.509877 0.867030 -0.606293
0.513809 0.863825 -0.605428
0.520472 0.865333 -0.606613
0.525711 0.864310 -0.606696
0.529643 0.861039 -0.605795
0.534750 0.859729 -0.605749
0.542420 0.862601 -0.607536
0.547050 0.860388 -0.607094
0.550990 0.857044 -0.606153
0.552679 0.850120 -0.603634
0.557846 0.848760 -0.603559
0.567991 0.855112 -0.606889
0.575167 0.856686 -0.608115
0.578416 0.852180 -0.606654
0.585073 0.852842 -0.607480
0.590869 0.852145 -0.607706
0.592157 0.844760 -0.604960
0.597650 0.843606 -0.604981
0.604753 0.844746 -0.606026
0.611377 0.845127 -0.606737
0.613907 0.839675 -0.604844
0.618873 0.837697 -0.604503
0.625345 0.837803 -0.605099
0.626878 0.831121 -0.602651
0.631630 0.828906 -0.602207
0.643510 0.836260 -0.606075
0.646495 0.831659 -0.604566
0.650347 0.828277 -0.603608
0.656585 0.828062 -0.604084
0.661559 0.826230 -0.603833
0.664881 0.822343 -0.602654
0.670873 0.821916 -0.603050
0.679533 0.824858 -0.604985
0.684901 0.823707 -0.605066
0.689684 0.821898 -0.604853
0.695493 0.821420 -0.605254
0.699212 0.818487 -0.604537
0.713237 0.827966 -0.609520
-0.589628 1.456392 -0.689704
-0.583884 1.459501 -0.691611
-0.577867 1.462254 -0.693441
-0.573376 1.469108 -0.696612
-0.597002 1.547310 -0.722575
-0.596040 1.564887 -0.729303
-0.589895 1.569709 -0.731998
-0.583175 1.573340 -0.734345
-0.575865 1.575673 -0.736304
-0.569007 1.579450 -0.738754
-0.561903 1.582800 -0.741093
-0.554317 1.585032 -0.743092
-0.545972 1.585289 -0.744468
-0.538291 1.587545 -0.746509
-0.531751 1.593252 -0.749693
-0.524990 1.598541 -0.752757
-0.518216 1.603992 -0.755891
-0.510839 1.607803 -0.758500
-0.503246 1.611074 -0.760940
-0.493626 1.608056 -0.761305
-0.481339 1.596355 -0.758786
-0.474418 1.601726 -0.761923
-0.467454 1.607096 -0.765067
-0.458804 1.606904 -0.766357
-0.449965 1.605988 -0.767400
-0.444258 1.615955 -0.772093
-0.436711 1.619639 -0.774679
-0.426580 1.613965 -0.774105
-0.420288 1.622235 -0.778234
-0.415765 1.637441 -0.784722
-0.402721 1.620224 -0.780201
-0.399582 1.641265 -0.788684
-0.397728 1.668252 -0.799224
-0.383835 1.646760 -0.793194
-0.383872 1.682765 -0.806859
-0.362548 1.665302 -0.803474
-0.348728 1.680224 -0.811216
-0.336863 1.664705 -0.807112
-0.338203 1.712027 -0.824837
-0.322650 1.678045 -0.814278
-0.311065 1.662330 -0.810041
-0.304325 1.715846 -0.831277
-0.298109 1.729012 -0.837161
-0.283928 1.697826 -0.827429
-0.273150 1.684492 -0.823946
-0.139067 1.058099 -0.606540
-0.132176 1.046454 -0.603115
-0.122528 1.013853 -0.592168
-0.117129 1.010853 -0.591788
-0.111373 1.004776 -0.590295
-0.106229 1.003143 -0.590390
-0.101384 1.003876 -0.591332
-0.096520 1.004458 -0.592218
-0.090623 0.995489 -0.589643
-0.084915 0.987466 -0.587396
-0.075351 0.988644 -0.589131
-0.070017 0.983042 -0.587738
-0.060867 0.988986 -0.591197
-0.055186 0.977531 -0.587640
-0.050012 0.971806 -0.586170
-0.044887 0.965957 -0.584645
-0.039350 0.952181 -0.580188
-0.033082 0.922474 -0.569831
-0.028106 0.913081 -0.566946
-0.023775 0.916126 -0.568655
-0.019401 0.918854 -0.570250
-0.014822 0.916514 -0.569962
-0.010363 0.917464 -0.570895
-0.005813 0.915252 -0.570648
-0.001286 0.913226 -0.570467
0.003227 0.911000 -0.570207
0.007697 0.911087 -0.570810
0.012175 0.910422 -0.571130
0.016648 0.913148 -0.572724
0.021157 0.916978 -0.574736
0.025673 0.917198 -0.575390
0.030165 0.915198 -0.575204
0.034689 0.915738 -0.575976
0.039133 0.912549 -0.575335
0.043341 0.902103 -0.571933
0.047830 0.902863 -0.572780
0.052325 0.903450 -0.573562
0.056864 0.904790 -0.574632
0.061415 0.906005 -0.575655
0.065944 0.906465 -0.576391
0.070439 0.906184 -0.576842
0.075112 0.908654 -0.578350
0.079734 0.909921 -0.579397
0.084251 0.909516 -0.579802
0.088865 0.910325 -0.580675
0.093619 0.912623 -0.582124
0.098327 0.914084 -0.583253
0.103061 0.915585 -0.584398
0.107422 0.913082 -0.583990
0.112124 0.914044 -0.584927
0.116792 0.914538 -0.585683
0.121585 0.916029 -0.586829
0.126311 0.916769 -0.587684
0.130969 0.916842 -0.588278
0.135548 0.916233 -0.588605
0.140547 0.918752 -0.590160
0.144993 0.917050 -0.590058
0.149553 0.916208 -0.590293
0.154257 0.916335 -0.590910
0.159063 0.917056 -0.591762
0.163446 0.915038 -0.591530
0.168259 0.915701 -0.592360
0.172906 0.915297 -0.592767
0.177757 0.916039 -0.593629
0.182243 0.914660 -0.593648
0.187415 0.917016 -0.595156
0.191718 0.914635 -0.594774
0.196301 0.913764 -0.594994
0.200809 0.912523 -0.595065
0.205424 0.911815 -0.595348
0.210155 0.911649 -0.595849
0.214925 0.911628 -0.596408
0.220237 0.914012 -0.597938
0.224296 0.910717 -0.597177
0.228476 0.908055 -0.596669
0.233477 0.908923 -0.597587
0.237851 0.907127 -0.597426
0.240436 0.898153 -0.594346
0.244308 0.894594 -0.593459
0.248430 0.892108 -0.593005
0.252518 0.889552 -0.592519
0.256605 0.887052 -0.592054
0.260364 0.883417 -0.591121
0.264649 0.881759 -0.590994
0.269048 0.880523 -0.591039
0.273468 0.879366 -0.591115
0.278493 0.880252 -0.592031
0.284832 0.885426 -0.594718
0.287913 0.879760 -0.592932
0.291125 0.874673 -0.591379
0.295477 0.873304 -0.591360
0.300292 0.873373 -0.591937
0.304548 0.871699 -0.591789
0.309577 0.872351 -0.592608
0.316764 0.879291 -0.596050
0.320826 0.876918 -0.595611
0.324609 0.873783 -0.594850
0.329142 0.872804 -0.594989
0.333049 0.870083 -0.594395
0.336768 0.866894 -0.593602
0.341164 0.865566 -0.593587
0.347334 0.868919 -0.595544
0.352432 0.869338 -0.596266
0.360364 0.876963 -0.600034
0.365050 0.876124 -0.600229
0.368236 0.871527 -0.598830
0.368974 0.861001 -0.594908
0.372895 0.858427 -0.594354
0.380298 0.864186 -0.597344
0.385191 0.863830 -0.597735
0.390927 0.865391 -0.598942
0.394692 0.862345 -0.598182
0.399025 0.860610 -0.597979
0.402383 0.856696 -0.596840
0.406743 0.855038 -0.596664
0.410905 0.852940 -0.596297
0.415506 0.851783 -0.596332
0.419547 0.849414 -0.595844
0.425835 0.851749 -0.597384
0.430867 0.851374 -0.597754
0.437305 0.853820 -0.599346
0.441613 0.851858 -0.599029
0.446130 0.850302 -0.598886
0.450818 0.849059 -0.598876
0.453826 0.844528 -0.597433
0.463324 0.852483 -0.601432
0.466848 0.848872 -0.600387
0.473317 0.850796 -0.601760
0.479375 0.851850 -0.602754
0.483805 0.849841 -0.602405
0.489614 0.850303 -0.603140
0.490599 0.842081 -0.600054
0.498705 0.846541 -0.602548
0.505443 0.848446 -0.603919
0.508070 0.843158 -0.602115
0.518170 0.850648 -0.605959
0.524523 0.851593 -0.606913
0.528113 0.847848 -0.605787
0.533255 0.846671 -0.605798
0.535672 0.841019 -0.603817
0.538988 0.836872 -0.602501
0.546532 0.839473 -0.604193
0.551220 0.837458 -0.603826
0.556196 0.835868 -0.603648
0.562483 0.836265 -0.604360
0.573506 0.843791 -0.608276
0.581946 0.847205 -0.610354
0.582668 0.838997 -0.607206
0.586545 0.835550 -0.606197
0.591535 0.833740 -0.605925
0.594442 0.828916 -0.604291
0.600713 0.828937 -0.604847
0.605250 0.826468 -0.604278
0.608993 0.822898 -0.603209
0.612894 0.819585 -0.602256
0.617934 0.817861 -0.602027
0.621932 0.814738 -0.601162
0.631706 0.819382 -0.603845
0.637249 0.818312 -0.603927
0.643245 0.817849 -0.604289
0.647851 0.815587 -0.603832
0.651191 0.811748 -0.602653
0.656152 0.810058 -0.602463
0.659804 0.806769 -0.601541
0.672270 0.814562 -0.605739
0.678738 0.814830 -0.606474
0.680717 0.809638 -0.604686
0.684859 0.807210 -0.604181
0.690411 0.806576 -0.604514
0.696975 0.807217 -0.605446
-0.590369 1.452934 -0.696139
-0.584995 1.456965 -0.698367
-0.579010 1.459834 -0.700258
-0.572530 1.461773 -0.701882
-0.597471 1.562983 -0.736841
-0.591306 1.567794 -0.739564
-0.584267 1.570637 -0.741677
-0.576973 1.573048 -0.743677
-0.569836 1.576106 -0.745914
-0.562910 1.579963 -0.748437
-0.555618 1.583037 -0.750726
-0.547551 1.584126 -0.752378
-0.539688 1.585910 -0.754275
-0.533216 1.591846 -0.757563
-0.527064 1.598958 -0.761261
-0.519306 1.601528 -0.763462
-0.511972 1.605485 -0.766135
-0.503948 1.607445 -0.768149
-0.494211 1.604078 -0.768376
-0.483889 1.598696 -0.767919
-0.474431 1.595900 -0.768324
-0.468002 1.602983 -0.772069
-0.458197 1.598890 -0.772027
-0.451993 1.606933 -0.776104
-0.447484 1.621125 -0.782287
-0.440723 1.627753 -0.785900
-0.429266 1.617504 -0.783731
-0.418855 1.610632 -0.782699
-0.411663 1.615532 -0.785703
-0.404244 1.619655 -0.788438
-0.400820 1.639539 -0.796627
-0.394885 1.650075 -0.801596
-0.368822 1.685625 -0.819238
-0.358695 1.679077 -0.818245
-0.347678 1.668024 -0.815649
-0.341543 1.679216 -0.820864
-0.333384 1.681113 -0.822805
-0.325880 1.686212 -0.825873
-0.316550 1.682234 -0.825722
-0.307937 1.681650 -0.826761
-0.307054 1.722039 -0.842379
-0.297166 1.715316 -0.841240
-0.285913 1.700426 -0.837161
-0.280311 1.717244 -0.844413
-0.269144 1.701823 -0.840108
-0.141160 1.066161 -0.614950
-0.134679 1.057788 -0.612657
-0.126069 1.033357 -0.604516
-0.118592 1.015565 -0.598754
-0.112341 1.005907 -0.595928
-0.105472 0.990435 -0.590962
-0.097924 0.967902 -0.583389
-0.083813 0.969460 -0.585910
-0.078692 0.965796 -0.585204
-0.074494 0.971535 -0.587963
-0.069272 0.966393 -0.586701
-0.064291 0.963480 -0.586256
-0.060087 0.969991 -0.589303
-0.055147 0.967456 -0.588993
-0.049957 0.960961 -0.587202
-0.044297 0.946234 -0.582330
-0.039113 0.937045 -0.579506
-0.033565 0.919615 -0.573583
-0.028446 0.907363 -0.569579
-0.024201 0.911816 -0.571832
-0.019758 0.912455 -0.572654
-0.015306 0.913072 -0.573468
-0.010769 0.911180 -0.573334
-0.006288 0.910834 -0.573781
-0.001809 0.910548 -0.574248
0.002658 0.910967 -0.574982
0.007139 0.910781 -0.575485
0.011630 0.909125 -0.575428
0.016106 0.910149 -0.576390
0.020599 0.912162 -0.577730
0.025116 0.914314 -0.579125
0.029628 0.914148 -0.579633
0.034118 0.912707 -0.579651
0.038562 0.909673 -0.579055
0.042957 0.905820 -0.578138
0.047305 0.901553 -0.577058
0.051793 0.901914 -0.577758
0.056438 0.905693 -0.579782
0.060988 0.906626 -0.580707
0.065498 0.906520 -0.581231
0.070068 0.907378 -0.582128
0.074699 0.908956 -0.583306
0.079250 0.909047 -0.583907
0.083775 0.908693 -0.584334
0.088364 0.909119 -0.585065
0.093026 0.910288 -0.586088
0.097650 0.910831 -0.586867
0.102233 0.910797 -0.587420
0.106776 0.910284 -0.587784
0.111442 0.910948 -0.588612
0.116132 0.911710 -0.589479
0.120699 0.911254 -0.589866
0.125417 0.912054 -0.590750
0.129890 0.910741 -0.590797
0.134674 0.911894 -0.591823
0.139347 0.912079 -0.592465
0.144115 0.912870 -0.593349
0.148656 0.911977 -0.593562
0.153206 0.911146 -0.593799
0.158056 0.912274 -0.594819
0.161962 0.907346 -0.593412
0.166364 0.905691 -0.593315
0.171586 0.908926 -0.595184
0.176407 0.909632 -0.596037
0.180890 0.908361 -0.596094
0.184858 0.904336 -0.595036
0.189377 0.903382 -0.595217
0.194802 0.907069 -0.597280
0.199620 0.907497 -0.598023
0.203905 0.905263 -0.597685
0.208627 0.905173 -0.598218
0.213553 0.905983 -0.599118
0.217757 0.903454 -0.598655
0.221553 0.899199 -0.597483
0.225570 0.896049 -0.596759
0.230536 0.896995 -0.597712
0.234106 0.892105 -0.596268
0.237853 0.888098 -0.595181
0.242427 0.887484 -0.595489
0.246569 0.885180 -0.595098
0.250544 0.882299 -0.594467
0.254258 0.878524 -0.593461
0.257748 0.874037 -0.592155
0.261765 0.871566 -0.591682
0.266356 0.871160 -0.592066
0.271728 0.873421 -0.593561
0.275838 0.871294 -0.593228
0.278586 0.864684 -0.591016
0.282473 0.861980 -0.590433
0.288412 0.865902 -0.592626
0.293257 0.866205 -0.593304
0.296989 0.863015 -0.592512
0.301601 0.862570 -0.592874
0.305324 0.859436 -0.592100
0.312206 0.865660 -0.595277
0.317035 0.865698 -0.595844
0.321063 0.863410 -0.595426
0.323111 0.855596 -0.592658
0.325342 0.848490 -0.590182
0.331160 0.851311 -0.591924
0.336228 0.851993 -0.592757
0.341240 0.852465 -0.593501
0.347185 0.855305 -0.595259
0.349217 0.847995 -0.592673
0.359750 0.862309 -0.599354
0.356372 0.841551 -0.590986
0.362448 0.844527 -0.592802
0.367842 0.845726 -0.593858
0.374223 0.849195 -0.595894
0.379446 0.849798 -0.596696
0.384964 0.851022 -0.597767
0.385825 0.841499 -0.594182
0.392249 0.844745 -0.596128
0.398196 0.846793 -0.597557
0.401503 0.842928 -0.596414
0.405989 0.841670 -0.596403
0.410897 0.841296 -0.596777
0.417551 0.844571 -0.598745
0.419948 0.838816 -0.596764
0.424952 0.838529 -0.597173
0.430383 0.839061 -0.597942
0.434488 0.836855 -0.597508
0.440317 0.838072 -0.598578
0.443787 0.834570 -0.597569
0.448611 0.833720 -0.597727
0.455451 0.836689 -0.599573
0.461751 0.838506 -0.600913
0.469398 0.842732 -0.603324
0.474079 0.841319 -0.603236
0.479104 0.840502 -0.603411
0.481818 0.835473 -0.601709
0.485940 0.833003 -0.601144
0.489533 0.829596 -0.600156
0.495812 0.830878 -0.601263
0.502669 0.833058 -0.602775
0.506537 0.830035 -0.601956
0.515071 0.834862 -0.604661
0.526234 0.834280 -0.605479
0.530999 0.832569 -0.605249
0.532786 0.826044 -0.602841
0.539063 0.826731 -0.603691
0.545798 0.828055 -0.604832
0.549389 0.824398 -0.603716
0.553404 0.821409 -0.602899
0.563253 0.827285 -0.606117
0.569630 0.827753 -0.606879
0.574619 0.826086 -0.606669
0.575902 0.818945 -0.603957
0.583132 0.820553 -0.605244
0.587047 0.817301 -0.604307
0.591572 0.814937 -0.603777
0.596013 0.812459 -0.603194
0.600117 0.809518 -0.602399
0.608087 0.811931 -0.604073
0.611740 0.808371 -0.602995
0.615302 0.804733 -0.601881
0.619687 0.802245 -0.601299
0.623867 0.799520 -0.600608
0.627663 0.796337 -0.599706
0.640990 0.805560 -0.604580
0.646414 0.804465 -0.604662
0.646515 0.796643 -0.601606
0.654130 0.798438 -0.603044
0.658208 0.795817 -0.602422
0.666792 0.798836 -0.604448
0.672395 0.798193 -0.604765
0.675423 0.794489 -0.603646
0.682702 0.796004 -0.604989
0.690326 0.797963 -0.606550
-0.592804 1.453524 -0.703891
-0.586081 1.454363 -0.705107
-0.579711 1.456325 -0.706723
-0.574076 1.460381 -0.709060
-0.577260 1.486850 -0.718812
-0.599668 1.563004 -0.745027
-0.592624 1.565619 -0.747055
-0.586026 1.569651 -0.749581
-0.577691 1.569372 -0.750704
-0.570674 1.572768 -0.753070
-0.564314 1.578181 -0.756134
-0.556432 1.579668 -0.757908
-0.548934 1.582372 -0.760106
-0.544175 1.593022 -0.764993
-0.535713 1.593377 -0.766437
-0.528555 1.597608 -0.769198
-0.521098 1.601118 -0.771729
-0.513446 1.604161 -0.774111
-0.505211 1.605512 -0.775924
-0.496884 1.606601 -0.777651
-0.487508 1.604363 -0.778241
-0.477586 1.600241 -0.778178
-0.466910 1.593433 -0.777183
-0.461463 1.603870 -0.782117
-0.456748 1.617128 -0.788039
-0.450884 1.626799 -0.792735
-0.440595 1.621053 -0.792087
-0.430616 1.616122 -0.791707
-0.421809 1.615218 -0.792716
-0.414871 1.621205 -0.796126
-0.411399 1.640622 -0.804244
-0.407309 1.658310 -0.811778
-0.402656 1.674373 -0.818760
-0.393352 1.672032 -0.819263
-0.373403 1.660968 -0.817969
-0.367841 1.674101 -0.823927
-0.355642 1.658149 -0.819540
-0.346104 1.653466 -0.819141
-0.344285 1.684470 -0.831485
-0.335085 1.681579 -0.831723
-0.320499 1.694153 -0.838763
-0.316476 1.717620 -0.848478
-0.312266 1.741233 -0.858271
-0.297961 1.711121 -0.848644
-0.289117 1.709739 -0.849384
-0.281940 1.717757 -0.853531
-0.253782 1.702464 -0.851611
-0.241556 1.678047 -0.843866
-0.128640 1.045590 -0.614406
-0.120876 1.026289 -0.608004
-0.114331 1.014891 -0.604493
-0.107160 0.997504 -0.598745
-0.097578 0.958443 -0.584928
-0.091808 0.949295 -0.582175
-0.087563 0.953214 -0.584272
-0.082592 0.950528 -0.583909
-0.078021 0.951551 -0.584925
