ply
format ascii 1.0
comment ---
element vertex 1688
property float x
property float y
property float z
element face 0
property list uchar uint vertex_indices
end_header
0.582315 1.428801 -0.452059
0.586731 1.421968 -0.451063
0.591845 1.417149 -0.450387
0.596559 1.411322 -0.449538
0.600369 1.403201 -0.448304
0.605423 1.398465 -0.447617
0.607398 1.385892 -0.445639
0.612137 1.380584 -0.444844
0.616310 1.373936 -0.443822
0.620651 1.367814 -0.442880
0.625026 1.361868 -0.441962
0.629122 1.355346 -0.440944
0.630662 1.342888 -0.438949
0.635735 1.338936 -0.438345
0.640992 1.335450 -0.437815
0.642475 1.323417 -0.435881
0.647078 1.318641 -0.435137
0.651097 1.312639 -0.434192
0.654998 1.306482 -0.433223
0.658148 1.298811 -0.432007
0.662946 1.294809 -0.431397
0.665632 1.286413 -0.430070
0.667519 1.276524 -0.428503
0.671535 1.271231 -0.427698
0.675531 1.266003 -0.426913
0.680001 1.261836 -0.426312
0.682792 1.254418 -0.425187
0.685335 1.246678 -0.424021
0.688897 1.241096 -0.423225
0.692115 1.234986 -0.422356
0.697646 1.233426 -0.422256
0.702152 1.229992 -0.421865
0.702124 1.218219 -0.420113
0.706394 1.214645 -0.419738
0.711029 1.211849 -0.419513
0.713987 1.206130 -0.418827
0.716718 1.200170 -0.418123
0.719878 1.195144 -0.417598
0.721894 1.188272 -0.416790
0.725652 1.184618 -0.416544
0.729166 1.180682 -0.416278
0.732904 1.177274 -0.416126
0.735450 1.171995 -0.415686
0.738901 1.168402 -0.415557
0.742189 1.164683 -0.415433
0.745544 1.161223 -0.415380
0.749613 1.159069 -0.415576
0.751809 1.154014 -0.415303
0.753681 1.148613 -0.414993
0.756538 1.144953 -0.415006
0.757869 1.139034 -0.414652
0.760830 1.135845 -0.414792
0.762014 1.130037 -0.414497
0.764620 1.126595 -0.414635
-0.524325 1.600981 -0.373695
-0.520015 1.604707 -0.374055
-0.516096 1.609591 -0.374568
-0.511620 1.613435 -0.375034
-0.507113 1.617460 -0.375567
-0.499843 1.615102 -0.375567
-0.495623 1.620288 -0.376308
-0.491634 1.626330 -0.377179
-0.485780 1.628050 -0.377707
-0.479160 1.628066 -0.378131
-0.473600 1.630947 -0.378871
-0.468702 1.635766 -0.379843
-0.464424 1.642480 -0.381047
-0.458933 1.646333 -0.382039
-0.452472 1.647855 -0.382863
-0.447075 1.652441 -0.384027
-0.440849 1.655029 -0.385052
-0.434516 1.657529 -0.386117
-0.428590 1.661371 -0.387357
-0.422107 1.663860 -0.388512
-0.416270 1.668395 -0.389908
-0.409929 1.671695 -0.391227
-0.404271 1.677215 -0.392804
-0.398584 1.682893 -0.394437
-0.392114 1.686433 -0.395893
-0.385435 1.689500 -0.397335
-0.379043 1.693624 -0.398912
-0.373099 1.699361 -0.400684
-0.366509 1.703218 -0.402290
-0.360618 1.709540 -0.404175
-0.353582 1.712246 -0.405706
-0.346611 1.715275 -0.407288
-0.340748 1.722256 -0.409305
-0.334422 1.727836 -0.411191
-0.327640 1.731959 -0.412934
-0.320493 1.734871 -0.414556
-0.314048 1.740474 -0.416479
-0.306842 1.743356 -0.418112
-0.300927 1.751303 -0.420310
-0.294006 1.755539 -0.422103
-0.286824 1.758830 -0.423792
-0.279498 1.761604 -0.425422
-0.273461 1.769824 -0.427673
-0.266883 1.776004 -0.429694
-0.259141 1.777282 -0.431147
-0.251638 1.779606 -0.432716
-0.245361 1.787547 -0.434938
-0.239259 1.796584 -0.437292
-0.231983 1.800336 -0.439018
-0.224522 1.803277 -0.440640
-0.216869 1.805303 -0.442145
-0.209141 1.806952 -0.443594
-0.204213 1.823322 -0.446831
-0.196554 1.825697 -0.448358
-0.189157 1.829559 -0.450060
-0.182049 1.835170 -0.451970
-0.174790 1.840116 -0.453792
-0.167849 1.847162 -0.455872
-0.160493 1.851946 -0.457661
-0.152703 1.854155 -0.459115
-0.144874 1.856145 -0.460531
-0.137113 1.858628 -0.461998
-0.130110 1.866485 -0.464150
-0.122640 1.871395 -0.465916
-0.115290 1.877454 -0.467824
-0.107779 1.882601 -0.469607
-0.100254 1.887934 -0.471408
-0.092616 1.892635 -0.473119
-0.084390 1.892496 -0.474179
-0.074703 1.878968 -0.473439
-0.065176 1.865661 -0.472699
-0.056710 1.861587 -0.473176
0.049291 0.917269 -0.347341
0.053355 0.912104 -0.347077
0.056795 0.914335 -0.347819
0.060183 0.917523 -0.348692
0.063766 0.918266 -0.349224
0.067331 0.919345 -0.349799
0.070949 0.919673 -0.350265
0.074529 0.920722 -0.350828
0.078177 0.920561 -0.351218
0.081645 0.924321 -0.352156
0.085237 0.925850 -0.352778
0.088991 0.923231 -0.352807
0.092621 0.923778 -0.353281
0.096272 0.923734 -0.353667
0.099855 0.926672 -0.354477
0.103488 0.928348 -0.355105
0.107129 0.930473 -0.355795
0.110794 0.932196 -0.356424
0.114482 0.932131 -0.356791
0.118172 0.934563 -0.357520
0.121862 0.932616 -0.357604
0.125572 0.934472 -0.358243
0.129283 0.935173 -0.358709
0.132991 0.935289 -0.359086
0.136715 0.935979 -0.359544
0.140488 0.938119 -0.360216
0.144183 0.937243 -0.360436
0.147896 0.937009 -0.360747
0.151623 0.937128 -0.361109
0.155359 0.937358 -0.361483
0.159077 0.937155 -0.361789
0.162856 0.938046 -0.362258
0.166709 0.939964 -0.362880
0.170498 0.940595 -0.363304
0.174267 0.940808 -0.363662
0.178045 0.941077 -0.364026
0.181886 0.942078 -0.364498
0.185759 0.943297 -0.365003
0.189491 0.942761 -0.365234
0.193245 0.942473 -0.365500
0.197130 0.943523 -0.365970
0.200973 0.944021 -0.366352
0.204786 0.944158 -0.366675
0.208490 0.943271 -0.366835
0.212314 0.943446 -0.367157
0.216275 0.944706 -0.367647
0.220112 0.944845 -0.367957
0.223932 0.944806 -0.368237
0.228093 0.947249 -0.368906
0.231953 0.947350 -0.369202
0.235742 0.946907 -0.369409
0.239620 0.947051 -0.369705
0.245914 0.962830 -0.372487
0.380814 1.739339 -0.497122
0.387647 1.734509 -0.496861
0.394435 1.729613 -0.496579
0.401378 1.725776 -0.496458
0.409228 1.727033 -0.497147
0.416386 1.724453 -0.497211
0.421236 1.709917 -0.495334
0.427155 1.701443 -0.494422
0.432744 1.691664 -0.493287
0.437893 1.680134 -0.491854
0.443721 1.672265 -0.491003
0.449459 1.664257 -0.490117
0.454798 1.654718 -0.488970
0.460254 1.646034 -0.487950
0.465131 1.635132 -0.486554
0.470157 1.625239 -0.485310
0.475124 1.615424 -0.484066
0.480144 1.606142 -0.482898
0.485559 1.598725 -0.482024
0.490860 1.591072 -0.481100
0.496193 1.583758 -0.480220
0.501743 1.577455 -0.479496
0.507052 1.570416 -0.478638
0.510540 1.556939 -0.476702
0.515488 1.549075 -0.475683
0.520786 1.542635 -0.474890
0.526137 1.536522 -0.474141
0.531572 1.530823 -0.473449
0.535864 1.521438 -0.472132
0.541269 1.515923 -0.471449
0.545675 1.507299 -0.470236
0.549388 1.496682 -0.468677
0.553803 1.488508 -0.467516
0.557122 1.477159 -0.465811
0.561694 1.469860 -0.464774
0.566129 1.462305 -0.463683
0.570116 1.453589 -0.462387
0.574995 1.447625 -0.461543
0.580070 1.442319 -0.460800
0.582858 1.430695 -0.458983
0.585691 1.419460 -0.457222
0.591081 1.415412 -0.456662
0.594457 1.406013 -0.455191
0.599850 1.402126 -0.454641
0.604760 1.397015 -0.453876
0.606644 1.384211 -0.451805
0.612435 1.381570 -0.451442
0.618245 1.378973 -0.451081
0.619662 1.365566 -0.448885
0.625377 1.362882 -0.448496
0.628040 1.352891 -0.446866
0.630976 1.343741 -0.445374
0.635100 1.337541 -0.444376
0.639935 1.333076 -0.443669
0.641761 1.321823 -0.441811
0.647033 1.318539 -0.441300
0.650421 1.311108 -0.440086
0.654946 1.306301 -0.439318
0.657490 1.297287 -0.437837
0.661087 1.290701 -0.436771
0.665252 1.285435 -0.435932
0.667857 1.277014 -0.434563
0.671393 1.270682 -0.433554
0.673847 1.262273 -0.432199
0.678786 1.259044 -0.431734
0.682930 1.254297 -0.431020
0.685864 1.247272 -0.429931
0.689883 1.242516 -0.429241
0.693196 1.236514 -0.428353
0.696937 1.231471 -0.427644
0.700859 1.226896 -0.427031
0.703296 1.219679 -0.425986
0.707905 1.216647 -0.425675
0.711134 1.211199 -0.424972
0.714501 1.206153 -0.424359
0.717096 1.199881 -0.423558
0.720231 1.194742 -0.422975
0.721701 1.186849 -0.421942
0.725853 1.183817 -0.421770
0.731140 1.182859 -0.421983
0.734159 1.178133 -0.421572
0.737160 1.173541 -0.421210
0.738492 1.166325 -0.420416
0.741653 1.162344 -0.420211
0.747319 1.162622 -0.420778
0.750823 1.159467 -0.420773
0.750362 1.150061 -0.419692
0.752238 1.144635 -0.419333
0.755693 1.141891 -0.419473
0.758529 1.138306 -0.419488
0.760230 1.133097 -0.419236
0.762908 1.129570 -0.419305
0.766161 1.127070 -0.419581
-0.525204 1.597586 -0.379578
-0.521489 1.602735 -0.380121
-0.517233 1.606900 -0.380619
-0.512814 1.610945 -0.381154
-0.506817 1.611505 -0.381407
-0.501229 1.613238 -0.381822
-0.496925 1.618296 -0.382607
-0.492465 1.623264 -0.383436
-0.486394 1.624529 -0.383963
-0.480089 1.625418 -0.384505
-0.475057 1.629720 -0.385430
-0.470573 1.635699 -0.386573
-0.464972 1.639092 -0.387517
-0.459265 1.642455 -0.388511
-0.454330 1.648107 -0.389783
-0.448110 1.650601 -0.390794
-0.442091 1.653850 -0.391929
-0.436431 1.658316 -0.393234
-0.429741 1.660149 -0.394321
-0.423396 1.663133 -0.395567
-0.417321 1.667088 -0.396954
-0.411407 1.671727 -0.398452
-0.405349 1.676168 -0.399970
-0.399445 1.681282 -0.401594
-0.393481 1.686443 -0.403260
-0.387009 1.690249 -0.404815
-0.380720 1.694805 -0.406479
-0.373832 1.697632 -0.407985
-0.367509 1.702418 -0.409725
-0.361278 1.707684 -0.411540
-0.354522 1.711378 -0.413205
-0.347623 1.714711 -0.414846
-0.341939 1.722368 -0.416981
-0.335657 1.728168 -0.418928
-0.328520 1.731086 -0.420563
-0.321623 1.734954 -0.422313
-0.315172 1.740588 -0.424272
-0.308817 1.746753 -0.426300
-0.301846 1.750727 -0.428082
-0.294511 1.753363 -0.429710
-0.286885 1.754872 -0.431204
-0.280389 1.761007 -0.433242
-0.273958 1.767597 -0.435337
-0.267796 1.775535 -0.437596
-0.260582 1.779146 -0.439335
-0.253335 1.782683 -0.441061
-0.246646 1.788835 -0.443101
-0.240459 1.797517 -0.445452
-0.232852 1.799744 -0.447004
-0.225427 1.802870 -0.448659
-0.218517 1.808624 -0.450635
-0.210422 1.808509 -0.451867
-0.203975 1.816932 -0.454169
-0.197156 1.823696 -0.456259
-0.189980 1.828743 -0.458124
-0.182673 1.833220 -0.459909
-0.175598 1.839201 -0.461881
-0.168969 1.848099 -0.464229
-0.161445 1.851901 -0.465907
-0.153485 1.853052 -0.467227
-0.145406 1.853403 -0.468428
-0.137652 1.855872 -0.469898
-0.130669 1.863787 -0.472087
-0.123262 1.869079 -0.473920
-0.115964 1.875468 -0.475895
-0.108400 1.880158 -0.477633
-0.100628 1.883439 -0.479173
-0.094465 1.900304 -0.482565
-0.086806 1.905454 -0.484352
0.034911 0.911406 -0.348442
0.038597 0.910849 -0.348823
0.042264 0.910392 -0.349213
0.045945 0.909703 -0.349565
0.049479 0.910584 -0.350132
0.052977 0.911954 -0.350764
0.056703 0.910539 -0.350997
0.060208 0.911920 -0.351623
0.063489 0.916700 -0.352733
0.066998 0.918590 -0.353427
0.070559 0.919864 -0.354030
0.074244 0.919074 -0.354330
0.077782 0.921004 -0.355021
0.081318 0.923365 -0.355773
0.084908 0.924886 -0.356399
0.088518 0.926242 -0.356999
0.092225 0.924918 -0.357201
0.095913 0.923841 -0.357433
0.099514 0.926102 -0.358157
0.103145 0.927870 -0.358805
0.106802 0.928922 -0.359344
0.110456 0.931432 -0.360099
0.114138 0.932879 -0.360693
0.117833 0.931509 -0.360859
0.121534 0.933864 -0.361585
0.125238 0.934100 -0.361987
0.128951 0.934812 -0.362458
0.132668 0.935299 -0.362893
0.136394 0.935905 -0.363342
0.140173 0.938147 -0.364040
0.143908 0.938394 -0.364430
0.147604 0.937455 -0.364633
0.151352 0.937903 -0.365047
0.155092 0.938064 -0.365413
0.158878 0.939044 -0.365904
0.162649 0.939558 -0.366320
0.166419 0.939931 -0.366712
0.170131 0.939314 -0.366945
0.173895 0.939480 -0.367297
0.177839 0.942020 -0.368022
0.181702 0.943188 -0.368528
0.185498 0.943383 -0.368878
0.189270 0.943249 -0.369172
0.193032 0.942974 -0.369442
0.196865 0.943423 -0.369823
0.200767 0.944466 -0.370297
0.204549 0.944253 -0.370567
0.208415 0.944780 -0.370953
0.212231 0.944786 -0.371252
0.216291 0.946779 -0.371869
0.219907 0.945046 -0.371882
0.223973 0.946863 -0.372466
0.227906 0.947526 -0.372860
0.231735 0.947361 -0.373117
0.235508 0.946778 -0.373302
0.239453 0.947350 -0.373673
0.245473 0.961335 -0.376240
0.371903 1.733804 -0.503427
0.381404 1.745352 -0.505853
0.386469 1.729788 -0.503807
0.393176 1.724503 -0.503444
0.400557 1.723218 -0.503733
0.407871 1.721564 -0.503953
0.414813 1.717932 -0.503837
0.420928 1.710094 -0.503011
0.426439 1.699499 -0.501714
0.432077 1.689964 -0.500580
0.437396 1.679250 -0.499236
0.442616 1.668484 -0.497871
0.448554 1.661453 -0.497119
0.454108 1.652914 -0.496102
0.459309 1.643104 -0.494859
0.464608 1.634059 -0.493732
0.469441 1.623332 -0.492308
0.475046 1.616180 -0.491477
0.480263 1.607656 -0.490402
0.485024 1.597572 -0.489049
0.490680 1.591305 -0.488333
0.496010 1.583949 -0.487421
0.501871 1.578793 -0.486872
0.506486 1.569136 -0.485544
0.511193 1.560089 -0.484309
0.515940 1.551428 -0.483127
0.520814 1.543442 -0.482049
0.526066 1.536956 -0.481216
0.530982 1.529476 -0.480202
0.536127 1.522929 -0.479336
0.539822 1.511779 -0.477668
0.543761 1.501701 -0.476172
0.548431 1.494186 -0.475106
0.553129 1.486920 -0.474071
0.555323 1.472127 -0.471726
0.560822 1.467691 -0.471158
0.565325 1.460356 -0.470079
0.569089 1.451002 -0.468639
0.574019 1.445211 -0.467806
0.578695 1.438793 -0.466854
0.583023 1.431514 -0.465744
0.586761 1.422741 -0.464364
0.591553 1.417008 -0.463502
0.594472 1.406347 -0.461774
0.598895 1.399881 -0.460767
0.604055 1.395437 -0.460103
0.607515 1.386681 -0.458680
0.610383 1.376593 -0.457018
0.617652 1.377686 -0.457295
0.620440 1.367650 -0.455628
0.622658 1.356429 -0.453746
0.627628 1.352027 -0.453048
0.630507 1.342733 -0.451491
0.633862 1.334726 -0.450154
0.637789 1.328181 -0.449068
0.642284 1.323034 -0.448223
0.646591 1.317541 -0.447316
0.650010 1.310160 -0.446078
0.652930 1.301822 -0.444672
0.656723 1.295530 -0.443624
0.660788 1.289927 -0.442698
0.664458 1.283589 -0.441646
0.668072 1.277251 -0.440599
0.671103 1.269833 -0.439368
0.674620 1.263555 -0.438342
0.679605 1.260354 -0.437863
0.682478 1.253014 -0.436669
0.686127 1.247358 -0.435779
0.690357 1.242956 -0.435122
0.692002 1.233688 -0.433624
0.695987 1.229080 -0.432958
0.700756 1.226062 -0.432588
0.703820 1.219958 -0.431693
0.707999 1.216064 -0.431205
0.711100 1.210321 -0.430412
0.714311 1.204937 -0.429702
0.716412 1.197727 -0.428691
0.720200 1.193691 -0.428264
0.723974 1.189766 -0.427881
0.727333 1.185262 -0.427419
0.731644 1.182539 -0.427300
0.735611 1.179356 -0.427125
0.738588 1.174639 -0.426703
0.738074 1.164268 -0.425293
0.741074 1.159968 -0.424995
0.746138 1.159206 -0.425359
0.751585 1.159165 -0.425883
0.749769 1.147520 -0.424334
0.752367 1.143206 -0.424134
0.755817 1.140400 -0.424233
0.758154 1.135981 -0.424061
0.760476 1.131699 -0.423937
0.763097 1.128038 -0.423949
0.767150 1.126718 -0.424416
0.774793 1.130977 -0.425943
-0.531571 1.593311 -0.385355
-0.527744 1.598021 -0.385861
-0.523539 1.602129 -0.386355
-0.518726 1.605084 -0.386783
-0.513399 1.607075 -0.387164
-0.507979 1.609069 -0.387595
-0.503234 1.612899 -0.388261
-0.497921 1.615615 -0.388868
-0.492698 1.618793 -0.389573
-0.486852 1.620686 -0.390202
-0.482093 1.625506 -0.391180
-0.477575 1.631219 -0.392302
-0.472572 1.635996 -0.393385
-0.466753 1.638951 -0.394334
-0.461160 1.642728 -0.395420
-0.455295 1.646035 -0.396509
-0.449028 1.648499 -0.397560
-0.443010 1.651842 -0.398751
-0.437630 1.657166 -0.400196
-0.431411 1.660418 -0.401470
-0.424595 1.662190 -0.402630
-0.418619 1.666528 -0.404103
-0.412420 1.670436 -0.405571
-0.406301 1.674782 -0.407122
-0.400254 1.679549 -0.408755
-0.394527 1.685499 -0.410552
-0.388516 1.690809 -0.412310
-0.381756 1.693985 -0.413861
-0.375088 1.697593 -0.415484
-0.368876 1.702816 -0.417312
-0.362321 1.707099 -0.419054
-0.355214 1.709686 -0.420621
-0.348459 1.713557 -0.422349
-0.342755 1.721179 -0.424526
-0.336567 1.727348 -0.426550
-0.329729 1.731385 -0.428336
-0.322941 1.735710 -0.430164
-0.316432 1.741191 -0.432137
-0.309724 1.746077 -0.434045
-0.302893 1.750623 -0.435916
-0.295175 1.751796 -0.437379
-0.288086 1.755475 -0.439145
-0.280818 1.758497 -0.440828
-0.275555 1.769935 -0.443554
-0.268469 1.774010 -0.445368
-0.261544 1.778873 -0.447278
-0.254555 1.783583 -0.449165
-0.247635 1.788727 -0.451104
-0.240770 1.794271 -0.453091
-0.233648 1.798756 -0.454937
-0.226203 1.801791 -0.456589
-0.219335 1.807747 -0.458614
-0.212656 1.814862 -0.460787
-0.205051 1.817399 -0.462353
-0.197651 1.821071 -0.464059
-0.190542 1.826433 -0.465983
-0.183293 1.831201 -0.467820
-0.175631 1.833728 -0.469349
-0.169619 1.846165 -0.472209
-0.161819 1.848230 -0.473662
-0.153968 1.849999 -0.475062
-0.148634 1.868206 -0.478710
-0.139836 1.864144 -0.479294
-0.131652 1.863987 -0.480401
-0.124404 1.870456 -0.482418
-0.116922 1.875532 -0.484234
-0.109265 1.879538 -0.485894
-0.100571 1.875454 -0.486403
-0.092082 1.872660 -0.487077
-0.087969 1.907381 -0.493079
0.034707 0.909493 -0.351882
0.038349 0.909301 -0.352311
0.041876 0.910249 -0.352899
0.045395 0.911333 -0.353503
0.048968 0.911886 -0.354026
0.052539 0.912490 -0.354551
0.056080 0.913505 -0.355134
0.059660 0.914095 -0.355649
0.063205 0.915226 -0.356241
0.066743 0.916599 -0.356865
0.070272 0.918289 -0.357534
0.073865 0.919091 -0.358067
0.077431 0.920529 -0.358692
0.080994 0.922293 -0.359364
0.084617 0.922992 -0.359872
0.088189 0.925200 -0.360606
0.091827 0.926017 -0.361126
0.095458 0.927283 -0.361711
0.099131 0.927248 -0.362095
0.102805 0.927177 -0.362469
0.106442 0.929654 -0.363233
0.110115 0.930768 -0.363784
0.113806 0.930381 -0.364100
0.117493 0.931561 -0.364655
0.121193 0.932948 -0.365241
0.124898 0.933310 -0.365664
0.128609 0.933843 -0.366111
0.132330 0.934559 -0.366583
0.136077 0.936087 -0.367182
0.139817 0.936786 -0.367647
0.143584 0.938057 -0.368200
0.147388 0.939979 -0.368855
0.151124 0.939776 -0.369170
0.154887 0.940141 -0.369572
0.158594 0.939309 -0.369779
0.162441 0.941092 -0.370403
0.166296 0.942700 -0.370997
0.170051 0.942480 -0.371294
0.173757 0.941539 -0.371471
0.177567 0.942077 -0.371884
0.181370 0.942426 -0.372265
0.185184 0.942837 -0.372653
0.188978 0.942924 -0.372985
0.192811 0.943399 -0.373378
0.196652 0.943862 -0.373766
0.200482 0.944137 -0.374121
0.204390 0.945083 -0.374584
0.208237 0.945363 -0.374934
0.212128 0.945961 -0.375335
0.215916 0.945619 -0.375577
0.219897 0.946808 -0.376070
0.223844 0.947613 -0.376498
0.227639 0.947194 -0.376717
0.231532 0.947463 -0.377049
0.235265 0.946575 -0.377184
0.238692 0.943643 -0.376971
0.244028 0.953289 -0.378875
0.368522 1.714944 -0.507948
0.379761 1.737678 -0.512326
0.386155 1.730175 -0.511580
0.391977 1.719700 -0.510316
0.399771 1.720829 -0.511017
0.407272 1.720219 -0.511415
0.414484 1.718024 -0.511535
0.420706 1.710698 -0.510767
0.426048 1.699173 -0.509268
0.431227 1.687323 -0.507699
0.437135 1.679487 -0.506807
0.442325 1.668531 -0.505365
0.447627 1.658513 -0.504072
0.453345 1.650743 -0.503156
0.458880 1.642426 -0.502133
0.463900 1.632149 -0.500757
0.469405 1.624285 -0.499789
0.474903 1.616640 -0.498847
0.480394 1.609194 -0.497928
0.485459 1.600262 -0.496738
0.490111 1.589983 -0.495300
0.495849 1.584196 -0.494637
0.501204 1.577103 -0.493734
0.505158 1.565008 -0.491940
0.510430 1.558063 -0.491040
0.515935 1.552124 -0.490305
0.520128 1.541716 -0.488771
0.525652 1.536179 -0.488084
0.531024 1.530235 -0.487315
0.535003 1.519779 -0.485738
0.539464 1.511169 -0.484474
0.543133 1.500212 -0.482784
0.548219 1.494023 -0.481926
0.552221 1.484575 -0.480479
0.556464 1.476086 -0.479191
0.559032 1.462724 -0.477025
0.563719 1.455996 -0.476028
0.569202 1.451724 -0.475458
0.572301 1.440630 -0.473661
0.576643 1.433318 -0.472529
0.581575 1.427794 -0.471705
0.586297 1.421775 -0.470784
0.591351 1.416752 -0.470031
0.595174 1.408499 -0.468691
0.599052 1.400548 -0.467396
0.603154 1.393327 -0.466223
0.608142 1.388502 -0.465470
0.611591 1.379842 -0.464023
0.616487 1.374955 -0.463244
0.621149 1.369549 -0.462365
0.622138 1.355298 -0.459891
0.627358 1.351492 -0.459286
0.632301 1.347063 -0.458564
0.632908 1.332564 -0.456027
0.637881 1.328433 -0.455349
0.642540 1.323631 -0.454547
0.646390 1.317077 -0.453427
0.650284 1.310726 -0.452342
0.653198 1.302338 -0.450889
0.656709 1.295395 -0.449696
0.661563 1.291447 -0.449043
0.664868 1.284285 -0.447814
0.668542 1.278024 -0.446749
0.671520 1.270447 -0.445452
0.675950 1.265975 -0.444720
0.680277 1.261378 -0.443973
0.682641 1.252969 -0.442546
0.685765 1.246231 -0.441430
0.689630 1.241079 -0.440610
0.691620 1.232440 -0.439173
0.696572 1.229626 -0.438803
0.699568 1.223210 -0.437796
0.703686 1.219034 -0.437210
0.707437 1.214298 -0.436541
0.710991 1.209336 -0.435850
0.713408 1.202464 -0.434833
0.716427 1.196849 -0.434063
0.719697 1.191838 -0.433426
0.724813 1.190204 -0.433428
0.728071 1.185449 -0.432885
0.730739 1.179840 -0.432210
0.735355 1.177708 -0.432197
0.738819 1.173754 -0.431877
0.738347 1.163396 -0.430402
0.742312 1.160625 -0.430349
0.744830 1.155621 -0.429910
0.747262 1.150649 -0.429501
0.749221 1.145088 -0.429007
0.753955 1.144132 -0.429396
0.756790 1.140281 -0.429271
0.758193 1.134336 -0.428776
0.760679 1.130265 -0.428655
0.763388 1.126691 -0.428650
0.766504 1.123886 -0.428813
0.775183 1.129671 -0.430636
-0.534540 1.594650 -0.391732
-0.529927 1.597668 -0.392115
-0.525538 1.601436 -0.392623
-0.520272 1.603431 -0.392996
-0.514713 1.604965 -0.393371
-0.509664 1.607914 -0.393943
-0.505140 1.612356 -0.394723
-0.499315 1.613945 -0.395258
-0.493440 1.615628 -0.395855
-0.488247 1.619203 -0.396703
-0.483992 1.625369 -0.397878
-0.479545 1.631364 -0.399090
-0.474163 1.635292 -0.400137
-0.468804 1.639541 -0.401272
-0.463059 1.643046 -0.402379
-0.456423 1.644443 -0.403310
-0.450049 1.646720 -0.404383
-0.444665 1.651875 -0.405816
-0.439541 1.658012 -0.407404
-0.432805 1.659953 -0.408578
-0.425957 1.661744 -0.409776
-0.420224 1.666876 -0.411383
-0.413865 1.670431 -0.412854
-0.407714 1.674786 -0.414450
-0.401403 1.678863 -0.416049
-0.395710 1.684994 -0.417913
-0.389544 1.689910 -0.419670
-0.382882 1.693469 -0.421296
-0.376180 1.697042 -0.422947
-0.369922 1.702185 -0.424803
-0.363079 1.705588 -0.426474
-0.356212 1.709027 -0.428164
-0.349894 1.714435 -0.430103
-0.343906 1.721146 -0.432215
-0.337226 1.725645 -0.434072
-0.330942 1.731683 -0.436126
-0.324281 1.736528 -0.438044
-0.317009 1.739245 -0.439703
-0.310764 1.745886 -0.441854
-0.303825 1.750049 -0.443700
-0.296794 1.753957 -0.445514
-0.289398 1.756486 -0.447152
-0.282456 1.760895 -0.449027
-0.275661 1.766021 -0.450993
-0.269198 1.772692 -0.453158
-0.262019 1.776457 -0.454944
-0.255108 1.781484 -0.456890
-0.248219 1.786743 -0.458863
-0.241566 1.793243 -0.460997
-0.234742 1.799138 -0.463047
-0.227284 1.802142 -0.464705
-0.219749 1.804812 -0.466309
-0.212800 1.810499 -0.468314
-0.205986 1.817074 -0.470435
-0.198599 1.820827 -0.472164
-0.191196 1.824589 -0.473886
-0.184501 1.832445 -0.476168
-0.176286 1.831836 -0.477266
-0.168506 1.833680 -0.478694
-0.162087 1.843870 -0.481285
-0.154556 1.847560 -0.482957
-0.148088 1.858286 -0.485621
-0.140876 1.864610 -0.487656
-0.133285 1.868616 -0.489354
-0.125567 1.871888 -0.490938
-0.117874 1.875485 -0.492560
-0.110326 1.880353 -0.494358
-0.102205 1.880921 -0.495522
-0.095041 1.889364 -0.497828
-0.088461 1.903429 -0.500960
0.033651 0.915521 -0.356484
0.038067 0.908071 -0.355832
0.041568 0.909241 -0.356455
0.045007 0.911166 -0.357188
0.048487 0.912797 -0.357874
0.052092 0.913073 -0.358352
0.055756 0.912608 -0.358713
0.059238 0.914496 -0.359427
0.062789 0.915601 -0.360019
0.066363 0.916481 -0.360574
0.069911 0.917900 -0.361207
0.073482 0.919117 -0.361807
0.077066 0.920274 -0.362395
0.080639 0.921862 -0.363046
0.084263 0.922561 -0.363557
0.087897 0.923131 -0.364044
0.091436 0.926748 -0.365005
0.095112 0.926701 -0.365390
0.098777 0.927050 -0.365834
0.102405 0.929501 -0.366607
0.106089 0.929719 -0.367024
0.109770 0.930370 -0.367507
0.113461 0.930388 -0.367885
0.117153 0.929500 -0.368115
0.120850 0.931516 -0.368808
0.124559 0.932691 -0.369363
0.128269 0.933055 -0.369785
0.131995 0.934069 -0.370310
0.135729 0.934929 -0.370807
0.139488 0.936370 -0.371397
0.143243 0.937227 -0.371889
0.147047 0.939166 -0.372557
0.150831 0.940108 -0.373059
0.154561 0.939640 -0.373327
0.158358 0.940532 -0.373816
0.162145 0.941062 -0.374243
0.165934 0.941486 -0.374650
0.169679 0.941135 -0.374925
0.173505 0.941958 -0.375393
0.177307 0.942313 -0.375781
0.181015 0.941378 -0.375949
0.184763 0.940991 -0.376206
0.188734 0.943154 -0.376890
0.192591 0.943828 -0.377321
0.196418 0.944075 -0.377678
0.200226 0.944087 -0.377992
0.204120 0.944860 -0.378432
0.208025 0.945632 -0.378871
0.211845 0.945576 -0.379165
0.215627 0.945162 -0.379396
0.219494 0.945422 -0.379738
0.223510 0.946774 -0.380266
0.227465 0.947546 -0.380692
0.231080 0.945773 -0.380676
0.235220 0.947737 -0.381303
0.239045 0.947415 -0.381531
0.243606 0.951883 -0.382588
0.382598 1.757463 -0.523516
0.387018 1.737564 -0.520583
0.391661 1.719984 -0.518037
0.399041 1.718724 -0.518332
0.406749 1.719270 -0.518938
0.414343 1.719097 -0.519411
0.420534 1.711531 -0.518575
0.425364 1.697334 -0.516557
0.431016 1.687831 -0.515353
0.436979 1.680203 -0.514469
0.442919 1.672745 -0.513604
0.447471 1.659116 -0.511631
0.452941 1.650173 -0.510478
0.458651 1.642607 -0.509557
0.463616 1.632051 -0.508092
0.468778 1.622702 -0.506829
0.474425 1.615678 -0.505970
0.480021 1.608650 -0.505100
0.485062 1.599604 -0.503856
0.489693 1.589227 -0.502360
0.495117 1.582217 -0.501458
0.499229 1.570446 -0.499686
0.504465 1.563196 -0.498718
0.509805 1.556514 -0.497840
0.515090 1.549794 -0.496945
0.519790 1.541182 -0.495696
0.524947 1.534368 -0.494761
0.530410 1.528749 -0.494033
0.534808 1.519690 -0.492668
0.538768 1.509422 -0.491071
0.543746 1.502693 -0.490107
0.548643 1.495849 -0.489111
0.552154 1.484823 -0.487341
0.558536 1.482875 -0.487217
0.560668 1.468072 -0.484733
0.563376 1.455365 -0.482619
0.568459 1.449917 -0.481824
0.571742 1.439365 -0.480082
0.575913 1.431572 -0.478835
0.580498 1.425088 -0.477819
0.585472 1.419788 -0.477010
0.589551 1.412132 -0.475759
0.594907 1.408035 -0.475153
0.598025 1.398069 -0.473457
0.602986 1.393102 -0.472673
0.607919 1.388125 -0.471879
0.611636 1.380132 -0.470521
0.616867 1.376059 -0.469877
0.620957 1.369214 -0.468715
0.623425 1.358540 -0.466839
0.627240 1.351305 -0.465590
0.631955 1.346320 -0.464752
0.633336 1.333615 -0.462480
0.638153 1.329087 -0.461716
0.642564 1.323689 -0.460787
0.645526 1.315113 -0.459266
0.649878 1.309778 -0.458343
0.656008 1.308411 -0.458152
0.658864 1.299948 -0.456648
0.660663 1.289388 -0.454754
0.665241 1.284901 -0.453987
0.667364 1.275366 -0.452286
0.671107 1.269357 -0.451243
0.675605 1.264995 -0.450509
0.680042 1.260587 -0.449773
0.681945 1.251224 -0.448125
0.685537 1.245376 -0.447137
0.689146 1.239688 -0.446189
0.693529 1.235608 -0.445552
0.696178 1.228329 -0.444332
0.699795 1.223035 -0.443495
0.703622 1.218263 -0.442771
0.707442 1.213599 -0.442083
0.711054 1.208685 -0.441368
0.713296 1.201442 -0.440236
0.716568 1.196222 -0.439502
0.720497 1.192310 -0.439034
0.724050 1.187872 -0.438490
0.726259 1.181258 -0.437561
0.729077 1.175876 -0.436886
0.733704 1.173728 -0.436845
0.736190 1.168098 -0.436172
0.740293 1.165336 -0.436067
0.742772 1.160028 -0.435506
0.745492 1.155289 -0.435077
0.746389 1.147768 -0.434142
0.749820 1.144529 -0.434048
0.753781 1.142277 -0.434170
0.757375 1.139575 -0.434231
0.758461 1.133081 -0.433585
0.761123 1.129231 -0.433471
0.763808 1.125570 -0.433417
0.767783 1.124029 -0.433798
0.771775 1.122629 -0.434230
-0.533938 1.574971 -0.395847
-0.535404 1.591293 -0.397662
-0.532616 1.598487 -0.398540
-0.528201 1.602289 -0.399100
-0.523298 1.605226 -0.399616
-0.517787 1.606990 -0.400055
-0.512147 1.608672 -0.400536
-0.506984 1.611705 -0.401216
-0.501736 1.614780 -0.401953
-0.495929 1.616751 -0.402623
-0.490164 1.619047 -0.403381
-0.485684 1.624754 -0.404566
-0.480865 1.629917 -0.405747
-0.475462 1.633889 -0.406850
-0.469768 1.637375 -0.407951
-0.464363 1.641852 -0.409214
-0.457905 1.643823 -0.410246
-0.451501 1.646133 -0.411363
-0.446127 1.651419 -0.412864
-0.441341 1.658578 -0.414626
-0.434404 1.660085 -0.415787
-0.427729 1.662482 -0.417088
-0.422403 1.668884 -0.418893
-0.415947 1.672293 -0.420387
-0.409192 1.674999 -0.421833
-0.402963 1.679418 -0.423511
-0.397160 1.685314 -0.425396
-0.390338 1.688307 -0.426962
-0.383840 1.692436 -0.428688
-0.377359 1.696778 -0.430462
-0.370546 1.700205 -0.432144
-0.364208 1.705301 -0.434049
-0.357768 1.710222 -0.435948
-0.351744 1.716703 -0.438056
-0.345044 1.721059 -0.439912
-0.338302 1.725394 -0.441775
-0.331874 1.730962 -0.443803
-0.325617 1.737310 -0.445939
-0.317658 1.737553 -0.447295
-0.311672 1.745170 -0.449604
-0.304810 1.749661 -0.451511
-0.297754 1.753497 -0.453334
-0.290621 1.757106 -0.455125
-0.283744 1.761826 -0.457061
-0.277344 1.768636 -0.459275
-0.270169 1.772367 -0.461075
-0.263243 1.777247 -0.463025
-0.256086 1.781229 -0.464850
-0.248840 1.784890 -0.466624
-0.242619 1.793362 -0.469055
-0.235598 1.798345 -0.471002
-0.228071 1.801023 -0.472623
-0.220348 1.802759 -0.474102
-0.212827 1.805510 -0.475714
-0.206868 1.816420 -0.478470
-0.199216 1.818761 -0.480010
-0.191901 1.822972 -0.481806
-0.184669 1.827780 -0.483681
-0.176955 1.829965 -0.485170
-0.169547 1.833995 -0.486916
-0.162732 1.841777 -0.489199
-0.155348 1.846349 -0.491011
-0.147990 1.851273 -0.492866
-0.141100 1.859546 -0.495209
-0.133504 1.863376 -0.496891
-0.126039 1.868310 -0.498729
-0.118738 1.874703 -0.500778
-0.110962 1.877826 -0.502331
-0.103102 1.880424 -0.503797
-0.095154 1.882411 -0.505161
-0.087772 1.889309 -0.507262
0.032942 0.918220 -0.360634
0.037677 0.907856 -0.359499
0.041210 0.908727 -0.360079
0.044696 0.910138 -0.360740
0.048166 0.911852 -0.361444
0.051741 0.912478 -0.361976
0.055447 0.911488 -0.362251
0.058905 0.913654 -0.363015
0.062424 0.915200 -0.363681
0.065978 0.916404 -0.364289
0.069523 0.917920 -0.364944
0.073130 0.918549 -0.365454
0.076678 0.920405 -0.366158
0.080264 0.921785 -0.366783
0.083902 0.922233 -0.367256
0.087539 0.922784 -0.367741
0.091146 0.924368 -0.368391
0.094794 0.925041 -0.368891
0.098464 0.925030 -0.369276
0.102083 0.927618 -0.370082
0.105746 0.928892 -0.370672
0.109425 0.929744 -0.371190
0.113117 0.929809 -0.371576
0.116811 0.929198 -0.371848
0.120506 0.930191 -0.372381
0.124217 0.931976 -0.373043
0.127938 0.933071 -0.373589
0.131656 0.933416 -0.374007
0.135415 0.935395 -0.374696
0.139175 0.936646 -0.375262
0.142869 0.935364 -0.375400
0.146683 0.937707 -0.376145
0.150475 0.938924 -0.376698
0.154234 0.939115 -0.377076
0.158053 0.940432 -0.377643
0.161816 0.940435 -0.377984
0.165516 0.939348 -0.378136
0.169328 0.940120 -0.378603
0.173222 0.941938 -0.379247
0.177025 0.942246 -0.379629
0.180826 0.942448 -0.379992
0.184569 0.941880 -0.380218
0.188530 0.943846 -0.380881
0.192357 0.944099 -0.381244
0.196227 0.944747 -0.381674
0.200076 0.945080 -0.382047
0.203779 0.943973 -0.382166
0.207886 0.946566 -0.382929
0.211839 0.947577 -0.383414
0.215380 0.945045 -0.383273
0.219190 0.944818 -0.383534
0.223239 0.946415 -0.384115
0.227156 0.946877 -0.384492
0.231034 0.946998 -0.384807
0.234666 0.945353 -0.384805
0.238814 0.947258 -0.385431
0.243149 0.950229 -0.386246
0.382389 1.758552 -0.531554
0.386632 1.737485 -0.528324
0.392149 1.724917 -0.526601
0.398517 1.717760 -0.525838
0.406260 1.718476 -0.526485
0.413754 1.717745 -0.526865
0.420056 1.710746 -0.526102
0.425582 1.700065 -0.524661
0.430866 1.688613 -0.523068
0.436801 1.680791 -0.522120
0.442170 1.670569 -0.520725
0.447241 1.659349 -0.519134
0.452417 1.649028 -0.517694
0.458275 1.642109 -0.516865
0.463353 1.632018 -0.515442
0.467861 1.619852 -0.513626
0.473591 1.613201 -0.512810
0.479281 1.606576 -0.511989
0.484621 1.598738 -0.510933
0.489482 1.589253 -0.509561
0.494265 1.579751 -0.508174
0.499554 1.572441 -0.507181
0.504364 1.563550 -0.505883
0.509939 1.557694 -0.505137
0.515251 1.551027 -0.504229
0.520590 1.544613 -0.503358
0.524326 1.532821 -0.501473
0.529442 1.526030 -0.500509
0.534422 1.518938 -0.499477
0.538714 1.509752 -0.498043
0.544281 1.504896 -0.497408
0.548951 1.497280 -0.496245
0.554357 1.492120 -0.495531
0.560589 1.489582 -0.495301
0.564582 1.480281 -0.493789
0.565690 1.462606 -0.490690
0.569076 1.452064 -0.488920
0.574502 1.447644 -0.488293
0.577481 1.436324 -0.486354
0.578717 1.420386 -0.483532
0.582848 1.412815 -0.482279
0.588785 1.410294 -0.481970
0.592110 1.400771 -0.480328
0.597216 1.396142 -0.479602
0.602221 1.391304 -0.478828
0.606552 1.384791 -0.477729
0.612000 1.381207 -0.477176
0.617391 1.377504 -0.476593
0.621823 1.371464 -0.475559
0.622611 1.356659 -0.472853
0.626944 1.350674 -0.471815
0.629843 1.341383 -0.470142
0.633860 1.334874 -0.468992
0.638212 1.329238 -0.468002
0.640464 1.318905 -0.466115
0.645540 1.315114 -0.465468
0.649669 1.309256 -0.464424
0.652687 1.301058 -0.462933
0.655263 1.292052 -0.461286
0.660556 1.289018 -0.460777
0.664999 1.284217 -0.459931
0.665860 1.272028 -0.457679
0.670398 1.267658 -0.456920
0.675356 1.264212 -0.456340
0.678454 1.257080 -0.455063
0.681872 1.250725 -0.453941
0.686007 1.245905 -0.453119
0.689220 1.239391 -0.451982
0.693816 1.235671 -0.451390
0.698368 1.231950 -0.450809
0.700470 1.223719 -0.449379
0.704259 1.218810 -0.448599
0.707772 1.213516 -0.447761
0.710732 1.207355 -0.446773
0.713880 1.201692 -0.445899
0.717298 1.196665 -0.445166
0.721064 1.192394 -0.444600
0.725396 1.189245 -0.444271
0.725832 1.179490 -0.442690
0.729280 1.175133 -0.442174
0.732993 1.171372 -0.441797
0.735888 1.166382 -0.441207
0.739384 1.162556 -0.440867
0.743361 1.159669 -0.440736
0.748083 1.158130 -0.440895
0.746552 1.146596 -0.439123
0.750733 1.144501 -0.439223
0.754604 1.142038 -0.439277
0.757052 1.137465 -0.438941
0.760299 1.134308 -0.438909
0.763381 1.131037 -0.438878
0.765393 1.126266 -0.438571
0.767700 1.122114 -0.438409
0.773905 1.124021 -0.439484
-0.538611 1.580074 -0.402643
-0.536047 1.587490 -0.403560
-0.533262 1.594726 -0.404504
-0.529465 1.599985 -0.405276
-0.525384 1.604876 -0.406056
-0.519743 1.606438 -0.406513
-0.513982 1.607937 -0.407014
-0.508004 1.609139 -0.407532
-0.503131 1.613191 -0.408427
-0.497868 1.616568 -0.409298
-0.492341 1.619559 -0.410178
-0.487329 1.624062 -0.411285
-0.482161 1.628453 -0.412432
-0.476333 1.631446 -0.413471
-0.470192 1.633873 -0.414496
-0.464392 1.637396 -0.415697
-0.458952 1.642103 -0.417087
-0.452866 1.645350 -0.418353
-0.447202 1.649953 -0.419825
-0.441797 1.655506 -0.421456
-0.435530 1.658940 -0.422878
-0.429183 1.662348 -0.424336
-0.423696 1.668386 -0.426149
-0.417264 1.671959 -0.427701
-0.410735 1.675422 -0.429272
-0.404271 1.679241 -0.430916
-0.398114 1.684147 -0.432722
-0.391539 1.687968 -0.434420
-0.384617 1.690858 -0.436024
-0.377704 1.693883 -0.437663
-0.371761 1.700129 -0.439729
-0.365642 1.706001 -0.441766
-0.358772 1.709573 -0.443523
-0.352174 1.714161 -0.445423
-0.346052 1.720513 -0.447564
-0.339743 1.726405 -0.449656
-0.332960 1.730776 -0.451556
-0.325670 1.733423 -0.453232
-0.319758 1.741190 -0.455593
-0.312202 1.743015 -0.457162
-0.305698 1.748870 -0.459274
-0.298503 1.752184 -0.461042
-0.291289 1.755481 -0.462804
-0.284645 1.761143 -0.464889
-0.278613 1.769483 -0.467344
-0.271528 1.773639 -0.469217
-0.264765 1.779274 -0.471294
-0.257361 1.782234 -0.472990
-0.250093 1.785847 -0.474771
-0.242902 1.789884 -0.476606
-0.236014 1.795434 -0.478650
-0.229079 1.800922 -0.480680
-0.221597 1.803875 -0.482338
-0.214969 1.811191 -0.484622
-0.206864 1.811120 -0.485823
-0.199641 1.815633 -0.487683
-0.191944 1.817698 -0.489174
-0.184570 1.821587 -0.490926
-0.178049 1.830492 -0.493416
-0.171143 1.837523 -0.495625
-0.163706 1.841635 -0.497390
-0.156270 1.845898 -0.499170
-0.148941 1.851017 -0.501073
-0.141472 1.855433 -0.502861
-0.133977 1.859851 -0.504643
-0.126170 1.862262 -0.506109
-0.118171 1.863338 -0.507359
-0.111040 1.870999 -0.509618
-0.103914 1.879178 -0.511954
-0.095764 1.879506 -0.513063
-0.087661 1.880166 -0.514212
0.032121 0.921896 -0.364966
0.037240 0.908059 -0.363231
0.040808 0.908610 -0.363764
0.044302 0.909966 -0.364420
0.047771 0.911708 -0.365135
0.051353 0.912265 -0.365657
0.054910 0.913182 -0.366233
0.058513 0.913551 -0.366717
0.062133 0.913709 -0.367163
0.065581 0.916459 -0.368027
0.069182 0.917108 -0.368546
0.072809 0.917391 -0.369002
0.076309 0.920114 -0.369855
0.079877 0.921911 -0.370555
0.083536 0.921959 -0.370963
0.087185 0.922246 -0.371407
0.090801 0.923600 -0.372025
0.094454 0.924087 -0.372496
0.098122 0.924143 -0.372892
0.101767 0.925379 -0.373482
0.105398 0.928309 -0.374356
0.109084 0.928600 -0.374783
0.112773 0.928997 -0.375226
0.116467 0.928689 -0.375546
0.120161 0.928784 -0.375930
0.123876 0.931417 -0.376746
0.127601 0.932833 -0.377352
0.131332 0.933718 -0.377865
0.135078 0.934852 -0.378419
0.138827 0.935644 -0.378912
0.142571 0.935954 -0.379320
0.146288 0.935405 -0.379576
0.150080 0.936777 -0.380162
0.153869 0.937751 -0.380678
0.157730 0.939961 -0.381407
0.161432 0.938802 -0.381546
0.165166 0.938325 -0.381801
0.169026 0.939870 -0.382409
0.172899 0.941336 -0.383001
0.176692 0.941485 -0.383359
0.180568 0.942645 -0.383893
0.184446 0.943656 -0.384400
0.188224 0.943366 -0.384673
0.192118 0.944328 -0.385166
0.195978 0.944812 -0.385572
0.199903 0.945848 -0.386075
0.203748 0.946003 -0.386418
0.207803 0.948008 -0.387091
0.211582 0.947408 -0.387293
0.215321 0.946491 -0.387435
0.219064 0.945630 -0.387584
0.223203 0.947869 -0.388292
0.226875 0.946416 -0.388328
0.230680 0.945989 -0.388546
0.234565 0.946110 -0.388862
0.238185 0.944394 -0.388839
0.241955 0.943732 -0.389005
0.377114 1.728423 -0.533869
0.385517 1.733030 -0.535264
0.391479 1.723105 -0.533975
0.397919 1.716347 -0.533259
0.405470 1.715996 -0.533719
0.412808 1.714450 -0.533951
0.419330 1.708636 -0.533383
0.425735 1.702439 -0.532733
0.430971 1.690642 -0.531029
0.436070 1.678663 -0.529276
0.441399 1.668259 -0.527805
0.446435 1.656887 -0.526140
0.451828 1.647563 -0.524845
0.457465 1.639657 -0.523805
0.463457 1.633554 -0.523093
0.468022 1.621563 -0.521261
0.473102 1.612134 -0.519898
0.478696 1.605108 -0.518978
0.484186 1.597872 -0.518007
0.489171 1.588857 -0.516688
0.494349 1.580858 -0.515550
0.499429 1.572710 -0.514372
0.504637 1.565267 -0.513316
0.509977 1.558496 -0.512378
0.515450 1.552368 -0.511551
0.520627 1.545344 -0.510543
0.524095 1.532588 -0.508426
0.528918 1.524787 -0.507246
0.533138 1.515166 -0.505704
0.538793 1.510488 -0.505101
0.543908 1.504149 -0.504167
0.548594 1.496576 -0.502986
0.554211 1.492070 -0.502384
0.561513 1.492803 -0.502783
0.565811 1.484354 -0.501402
0.566592 1.465623 -0.498022
0.570294 1.455945 -0.496378
0.575999 1.452256 -0.495883
0.579050 1.441057 -0.493923
0.579259 1.422158 -0.490458
0.583071 1.413668 -0.488999
0.589307 1.411934 -0.488842
0.590900 1.397733 -0.486254
0.595638 1.392161 -0.485333
0.601149 1.388681 -0.484810
0.606089 1.383753 -0.483996
0.611942 1.381194 -0.483636
0.617498 1.377886 -0.483122
0.621718 1.371304 -0.481962
0.621682 1.354483 -0.478797
0.627596 1.352298 -0.478480
0.630493 1.342960 -0.476760
0.634202 1.335692 -0.475438
0.637275 1.327080 -0.473847
0.643773 1.326409 -0.473803
0.645471 1.314914 -0.471639
0.648273 1.306095 -0.469994
0.652944 1.301528 -0.469178
0.656709 1.295059 -0.467987
0.660498 1.288747 -0.466827
0.665121 1.284298 -0.466031
0.668891 1.278133 -0.464899
0.670501 1.267631 -0.462920
0.676299 1.265855 -0.462654
0.678146 1.256149 -0.460837
0.682112 1.250851 -0.459890
0.685350 1.244226 -0.458689
0.690281 1.241019 -0.458168
0.693314 1.234232 -0.456953
0.697325 1.229448 -0.456142
0.701387 1.224869 -0.455383
0.704494 1.218625 -0.454311
0.708140 1.213519 -0.453477
0.711470 1.207971 -0.452572
0.714008 1.201144 -0.451432
0.716684 1.194739 -0.450393
0.721465 1.192208 -0.450140
0.724869 1.187376 -0.449453
0.728304 1.182747 -0.448828
0.730280 1.175777 -0.447760
0.733283 1.170740 -0.447099
0.736522 1.166262 -0.446572
0.739310 1.161194 -0.445953
0.744363 1.160015 -0.446136
0.746326 1.153908 -0.445358
0.751595 1.153328 -0.445714
0.752581 1.145993 -0.444738
0.755455 1.141867 -0.444431
0.758629 1.138375 -0.444277
0.761740 1.134932 -0.444157
0.765171 1.132135 -0.444193
0.767064 1.127115 -0.443799
0.767486 1.120027 -0.443001
0.769141 1.115006 -0.442645
-0.542489 1.583411 -0.409325
-0.537463 1.585454 -0.409677
-0.533492 1.590085 -0.410379
-0.529597 1.595159 -0.411183
-0.525449 1.599938 -0.412003
-0.522571 1.607933 -0.413252
-0.516238 1.608218 -0.413650
-0.510509 1.610121 -0.414289
-0.505072 1.612941 -0.415088
-0.500201 1.617369 -0.416132
-0.495494 1.622472 -0.417309
-0.489516 1.624740 -0.418203
-0.483205 1.626401 -0.419076
-0.477458 1.629689 -0.420194
-0.471325 1.632231 -0.421273
-0.465319 1.635316 -0.422467
-0.459713 1.639670 -0.423863
-0.454858 1.646262 -0.425580
-0.449151 1.650867 -0.427102
-0.442613 1.653455 -0.428418
-0.436534 1.657485 -0.429952
-0.430430 1.661655 -0.431544
-0.424245 1.665803 -0.433169
-0.417953 1.669837 -0.434814
-0.411692 1.674144 -0.436525
-0.405223 1.678017 -0.438210
-0.399128 1.683179 -0.440088
-0.392208 1.686011 -0.441688
-0.385357 1.689168 -0.443351
-0.378610 1.692768 -0.445090
-0.372172 1.697475 -0.446991
-0.365923 1.702945 -0.449008
-0.359512 1.708042 -0.450991
-0.352576 1.711527 -0.452769
-0.346496 1.718025 -0.454962
-0.340731 1.725811 -0.457341
-0.333547 1.728799 -0.459074
-0.326312 1.731655 -0.460790
-0.320677 1.740441 -0.463329
-0.313278 1.742885 -0.464992
-0.306012 1.745859 -0.466726
-0.299268 1.750907 -0.468750
-0.292140 1.754552 -0.470574
-0.285834 1.761586 -0.472877
-0.279200 1.767472 -0.475016
-0.272482 1.773159 -0.477125
-0.265277 1.776900 -0.478949
-0.258557 1.782845 -0.481088
-0.251051 1.785422 -0.482729
-0.243769 1.789054 -0.484517
-0.237228 1.796230 -0.486823
-0.230395 1.802246 -0.488953
-0.223689 1.809071 -0.491199
-0.215530 1.808808 -0.492377
-0.208160 1.812506 -0.494138
-0.200196 1.813151 -0.495427
-0.192483 1.815089 -0.496901
-0.185382 1.820449 -0.498888
-0.179678 1.834012 -0.502131
-0.172803 1.841341 -0.504416
-0.164608 1.840990 -0.505505
-0.156911 1.843624 -0.507045
-0.150465 1.854375 -0.509846
-0.142674 1.856783 -0.511336
-0.134779 1.858537 -0.512714
-0.127767 1.866564 -0.515074
-0.119155 1.863335 -0.515642
-0.112813 1.877004 -0.518892
-0.104906 1.879282 -0.520320
-0.096623 1.878576 -0.521259
-0.088434 1.878523 -0.522291
0.036787 0.908377 -0.366987
0.040318 0.909348 -0.367589
0.043815 0.910732 -0.368255
0.047365 0.911635 -0.368839
0.050798 0.913988 -0.369659
0.054350 0.915091 -0.370270
0.057979 0.915294 -0.370728
0.061558 0.916187 -0.371297
0.065168 0.916711 -0.371801
0.068720 0.918218 -0.372467
0.072339 0.918773 -0.372970
0.075921 0.920111 -0.373601
0.079501 0.921736 -0.374279
0.083159 0.921867 -0.374701
0.086826 0.921803 -0.375086
0.090404 0.924292 -0.375904
0.094056 0.925058 -0.376426
0.097746 0.924575 -0.376729
0.101379 0.926652 -0.377471
0.105048 0.927737 -0.378040
0.108731 0.928490 -0.378548
0.112424 0.928767 -0.378972
0.116122 0.928322 -0.379266
0.119816 0.927836 -0.379550
0.123530 0.930489 -0.380382
0.127260 0.932263 -0.381058
0.130996 0.933388 -0.381618
0.134743 0.934432 -0.382162
0.138491 0.935120 -0.382641
0.142241 0.935557 -0.383073
0.145995 0.935975 -0.383500
0.149740 0.935998 -0.383854
0.153509 0.936509 -0.384292
0.157417 0.939708 -0.385210
0.161081 0.937774 -0.385206
0.164839 0.937707 -0.385533
0.168792 0.940708 -0.386413
0.172669 0.942112 -0.387003
0.176365 0.940814 -0.387101
0.180226 0.941756 -0.387603
0.184041 0.941992 -0.387974
0.188034 0.944215 -0.388707
0.191794 0.943621 -0.388923
0.195602 0.943553 -0.389232
0.199523 0.944565 -0.389737
0.203500 0.945986 -0.390316
0.207184 0.944583 -0.390372
0.211194 0.946095 -0.390964
0.214907 0.944969 -0.391065
0.218966 0.946672 -0.391688
0.222768 0.946222 -0.391910
0.226606 0.946031 -0.392176
0.230499 0.946219 -0.392511
0.234439 0.946684 -0.392895
0.238218 0.946000 -0.393061
0.242634 0.949491 -0.394009
0.377461 1.732866 -0.542425
0.387384 1.746402 -0.545540
0.390623 1.720185 -0.541129
0.397902 1.718205 -0.541294
0.405084 1.715723 -0.541356
0.412164 1.712746 -0.541316
0.418766 1.707347 -0.540806
0.424674 1.698597 -0.539647
0.430280 1.688686 -0.538254
0.435447 1.677037 -0.536514
0.440263 1.664181 -0.534530
0.445689 1.654670 -0.533175
0.451183 1.645815 -0.531934
0.457037 1.638872 -0.531050
0.462627 1.631005 -0.529976
0.468261 1.623581 -0.528978
0.472929 1.612354 -0.527231
0.478221 1.604062 -0.526041
0.483587 1.596317 -0.524945
0.488803 1.588212 -0.523768
0.493633 1.578853 -0.522335
0.498771 1.570936 -0.521172
0.504131 1.564063 -0.520202
0.509440 1.557180 -0.519218
0.514899 1.551002 -0.518362
0.519967 1.543596 -0.517254
0.524359 1.534036 -0.515712
0.527992 1.522153 -0.513702
0.533182 1.515788 -0.512764
0.538045 1.508489 -0.511632
0.543606 1.503598 -0.510963
0.548739 1.497435 -0.510034
0.553509 1.490256 -0.508893
0.559992 1.488487 -0.508812
0.564606 1.481045 -0.507599
0.565293 1.462068 -0.504086
0.567967 1.449416 -0.501815
0.575269 1.450421 -0.502243
0.577470 1.436820 -0.499761
0.578198 1.419419 -0.496509
0.583449 1.414923 -0.495814
0.586614 1.404809 -0.493990
0.590760 1.397536 -0.492722
0.594981 1.390589 -0.491509
0.600246 1.386475 -0.490853
0.605928 1.383469 -0.490409
0.612653 1.383106 -0.490487
0.617141 1.377092 -0.489426
0.620680 1.368825 -0.487906
0.624324 1.360961 -0.486459
0.625544 1.347421 -0.483866
0.631012 1.344211 -0.483336
0.636139 1.340218 -0.482643
0.638678 1.330297 -0.480755
0.642690 1.323911 -0.479570
0.646535 1.317247 -0.478325
0.649749 1.309286 -0.476815
0.654003 1.303742 -0.475788
0.657522 1.296687 -0.474453
0.661400 1.290517 -0.473295
0.664810 1.283458 -0.471958
0.669443 1.279071 -0.471157
0.671266 1.268961 -0.469207
0.674060 1.261027 -0.467696
0.677961 1.255468 -0.466666
0.681474 1.249239 -0.465506
0.685985 1.245086 -0.464771
0.688017 1.236202 -0.463089
0.692350 1.231917 -0.462342
0.696762 1.227869 -0.461653
0.700865 1.223331 -0.460877
0.704371 1.217790 -0.459911
0.707670 1.212001 -0.458908
0.711701 1.207682 -0.458218
0.713230 1.198988 -0.456658
0.716886 1.194284 -0.455924
0.720142 1.189012 -0.455093
0.724576 1.185939 -0.454729
0.728188 1.181564 -0.454122
0.731181 1.176273 -0.453351
0.734123 1.171060 -0.452618
0.737274 1.166363 -0.452013
0.740655 1.162207 -0.451542
0.742288 1.155335 -0.450539
0.746175 1.152333 -0.450354
0.752261 1.153012 -0.450954
0.753544 1.146090 -0.450012
0.756017 1.141264 -0.449526
0.758089 1.135978 -0.448969
0.761612 1.133134 -0.448942
0.765245 1.130599 -0.449004
0.767869 1.126655 -0.448796
0.769508 1.121368 -0.448327
0.770083 1.114652 -0.447577
-0.543690 1.580873 -0.415370
-0.539554 1.584950 -0.416008
-0.534592 1.587443 -0.416502
-0.529618 1.590142 -0.417071
-0.526283 1.596812 -0.418172
-0.522418 1.602584 -0.419217
-0.518220 1.607888 -0.420258
-0.512174 1.609149 -0.420859
-0.506775 1.612159 -0.421726
-0.502503 1.618117 -0.423009
-0.498186 1.624282 -0.424373
-0.490937 1.623563 -0.424939
-0.484616 1.625304 -0.425859
-0.478986 1.628985 -0.427072
-0.473121 1.632315 -0.428291
-0.466144 1.633015 -0.429227
-0.460998 1.638646 -0.430831
-0.456152 1.645350 -0.432619
-0.450423 1.649989 -0.434191
-0.444096 1.653247 -0.435629
-0.437893 1.657037 -0.437175
-0.431766 1.661236 -0.438810
-0.425648 1.665661 -0.440511
-0.418998 1.668759 -0.442071
-0.412681 1.672977 -0.443807
-0.406670 1.678273 -0.445714
-0.400317 1.682741 -0.447537
-0.393287 1.685316 -0.449129
-0.386582 1.688990 -0.450888
-0.379891 1.692834 -0.452686
-0.373129 1.696570 -0.454484
-0.367192 1.703097 -0.456680
-0.360256 1.706520 -0.458460
-0.353279 1.709899 -0.460243
-0.346595 1.714353 -0.462182
-0.340791 1.721976 -0.464575
-0.334272 1.727294 -0.466651
-0.327329 1.731221 -0.468533
-0.321435 1.739075 -0.470979
-0.313682 1.740214 -0.472463
-0.306822 1.744720 -0.474429
-0.300432 1.751147 -0.476675
-0.293343 1.754981 -0.478541
-0.286233 1.758802 -0.480400
-0.279266 1.763280 -0.482352
-0.273037 1.770958 -0.484778
-0.266227 1.776372 -0.486863
-0.258649 1.778562 -0.488459
-0.252061 1.785188 -0.490717
-0.245717 1.793127 -0.493173
-0.238579 1.797616 -0.495099
-0.231446 1.802235 -0.497038
-0.223950 1.805200 -0.498715
-0.216319 1.807525 -0.500283
-0.208935 1.811143 -0.502042
-0.201690 1.815580 -0.503921
-0.193589 1.815511 -0.505084
-0.187638 1.827289 -0.508105
-0.180023 1.830115 -0.509708
-0.172666 1.834511 -0.511551
-0.165095 1.837772 -0.513205
-0.157590 1.841538 -0.514932
-0.150566 1.848519 -0.517169
-0.143702 1.856900 -0.519629
-0.135804 1.858678 -0.521013
-0.127981 1.861004 -0.522476
-0.120033 1.862491 -0.523792
-0.113587 1.875333 -0.526965
-0.105677 1.877575 -0.528392
-0.097681 1.879195 -0.529707
-0.089847 1.882226 -0.531247
0.036195 0.909984 -0.370964
0.039817 0.910141 -0.371433
0.043481 0.909843 -0.371820
0.046931 0.911844 -0.372593
0.050330 0.914616 -0.373494
0.053860 0.916073 -0.374170
0.057500 0.916234 -0.374621
0.061135 0.916446 -0.375076
0.064720 0.917418 -0.375659
0.068338 0.917978 -0.376168
0.071961 0.918513 -0.376668
0.075582 0.919152 -0.377184
0.079168 0.920605 -0.377839
0.082721 0.923106 -0.378675
0.086380 0.923501 -0.379140
0.090049 0.923681 -0.379564
