ply
format ascii 1.0
comment ---
element vertex 1683
property float x
property float y
property float z
element face 0
property list uchar uint vertex_indices
end_header
0.386249 1.737266 -0.534109
0.392194 1.732064 -0.533190
0.398350 1.728320 -0.532535
0.406527 1.736296 -0.534050
0.412341 1.730533 -0.533004
0.417743 1.722741 -0.531573
0.423517 1.717224 -0.530557
0.428443 1.707506 -0.528752
0.432923 1.695930 -0.526594
0.438945 1.692392 -0.525922
0.443510 1.681935 -0.523957
0.448908 1.675769 -0.522781
0.452392 1.661021 -0.520004
0.457429 1.653792 -0.518618
0.462581 1.647287 -0.517358
0.467827 1.641373 -0.516202
0.471496 1.629001 -0.513841
0.476141 1.621060 -0.512296
0.481078 1.614533 -0.511008
0.485305 1.605378 -0.509228
0.489668 1.597026 -0.507591
0.493423 1.586618 -0.505570
0.497810 1.578876 -0.504038
0.502093 1.570972 -0.502473
0.505528 1.560254 -0.500385
0.510505 1.555282 -0.499358
0.514146 1.545819 -0.497498
0.518941 1.540540 -0.496412
0.523553 1.534792 -0.495238
0.527149 1.525868 -0.493478
0.531904 1.520939 -0.492458
0.534808 1.510285 -0.490384
0.538662 1.502918 -0.488921
0.542230 1.494896 -0.487341
0.545328 1.485708 -0.485553
0.547290 1.473441 -0.483206
0.550896 1.466365 -0.481822
0.555423 1.462173 -0.480979
0.559462 1.456753 -0.479919
0.563728 1.452169 -0.479026
0.566915 1.444799 -0.477633
0.569767 1.436789 -0.476136
0.573788 1.432199 -0.475284
0.578744 1.430283 -0.474939
0.583393 1.427711 -0.474492
0.585416 1.418558 -0.472853
0.588862 1.413357 -0.471961
0.592135 1.407973 -0.471054
0.596118 1.404601 -0.470540
0.600356 1.402065 -0.470201
0.603684 1.397529 -0.469516
0.607209 1.393711 -0.468985
0.610523 1.389628 -0.468429
0.613814 1.385733 -0.467931
0.616559 1.380816 -0.467266
0.619094 1.375676 -0.466581
-0.678807 1.513812 -0.431682
-0.675081 1.517803 -0.432451
-0.671919 1.522782 -0.433393
-0.666032 1.524029 -0.433873
-0.661204 1.526950 -0.434618
-0.655768 1.529141 -0.435305
-0.650016 1.531004 -0.435985
-0.645668 1.535099 -0.437008
-0.641297 1.539325 -0.438088
-0.635443 1.541463 -0.438918
-0.630916 1.545756 -0.440080
-0.625540 1.548889 -0.441117
-0.620020 1.551923 -0.442172
-0.614548 1.555148 -0.443284
-0.609196 1.558676 -0.444467
-0.604683 1.563667 -0.445882
-0.599297 1.567367 -0.447142
-0.592542 1.568917 -0.448121
-0.587338 1.573087 -0.449490
-0.581572 1.576406 -0.450756
-0.576717 1.581337 -0.452271
-0.571030 1.584936 -0.453609
-0.565374 1.588647 -0.454976
-0.559569 1.592149 -0.456323
-0.554102 1.596294 -0.457772
-0.548390 1.600053 -0.459172
-0.542170 1.602930 -0.460448
-0.536162 1.606209 -0.461786
-0.530387 1.609935 -0.463193
-0.524701 1.613852 -0.464629
-0.519099 1.617953 -0.466094
-0.513450 1.621990 -0.467548
-0.507410 1.625292 -0.468890
-0.501778 1.629395 -0.470350
-0.496752 1.634719 -0.471993
-0.491218 1.639071 -0.473485
-0.485170 1.642403 -0.474816
-0.479109 1.645705 -0.476136
-0.473578 1.650103 -0.477621
-0.467736 1.653871 -0.479001
-0.461332 1.656448 -0.480189
-0.455083 1.659336 -0.481417
-0.450134 1.665046 -0.483082
-0.443968 1.668123 -0.484326
-0.437147 1.669725 -0.485327
-0.431336 1.673571 -0.486676
-0.425493 1.677355 -0.488008
-0.419471 1.680736 -0.489268
-0.414465 1.686511 -0.490904
-0.409054 1.691386 -0.492390
-0.403657 1.696340 -0.493882
-0.397251 1.698868 -0.494974
-0.390709 1.701045 -0.496000
-0.384351 1.703662 -0.497089
-0.379070 1.709015 -0.498618
-0.372862 1.712039 -0.499759
-0.366428 1.714474 -0.500794
-0.360119 1.717232 -0.501875
-0.354441 1.721692 -0.503230
-0.349094 1.727111 -0.504738
-0.343224 1.731158 -0.506013
-0.337206 1.734832 -0.507219
-0.331130 1.738373 -0.508396
-0.324807 1.741234 -0.509453
-0.318481 1.744099 -0.510504
-0.312643 1.748440 -0.511797
-0.306566 1.752118 -0.512972
-0.300437 1.755684 -0.514123
-0.294346 1.759413 -0.515296
-0.288562 1.764174 -0.516639
-0.281883 1.766125 -0.517499
-0.275275 1.768309 -0.518392
-0.269319 1.772679 -0.519653
-0.263544 1.777756 -0.521031
-0.257154 1.780810 -0.522058
-0.250362 1.782496 -0.522844
-0.244688 1.788188 -0.524316
-0.238395 1.791764 -0.525419
-0.231850 1.794471 -0.526366
-0.225014 1.796116 -0.527126
-0.218522 1.799094 -0.528111
-0.212145 1.802580 -0.529181
-0.205792 1.806243 -0.530278
-0.199577 1.810560 -0.531486
-0.193375 1.815048 -0.532720
-0.187459 1.820889 -0.534189
0.029855 0.917165 -0.376035
0.033832 0.912100 -0.375312
0.035877 0.915791 -0.376130
0.038364 0.917517 -0.376600
0.041177 0.917717 -0.376799
0.044013 0.917785 -0.376974
0.046545 0.919396 -0.377420
0.049289 0.919948 -0.377677
0.052251 0.919336 -0.377726
0.054728 0.921351 -0.378241
0.057463 0.921990 -0.378510
0.060342 0.921806 -0.378630
0.063015 0.922823 -0.378964
0.065667 0.924008 -0.379326
0.068405 0.924697 -0.379599
0.071121 0.925546 -0.379900
0.073883 0.926121 -0.380149
0.076552 0.927371 -0.380520
0.079279 0.928256 -0.380824
0.082080 0.928625 -0.381033
0.084883 0.928989 -0.381241
0.087694 0.929287 -0.381435
0.090428 0.930235 -0.381746
0.093250 0.930474 -0.381927
0.096050 0.930903 -0.382141
0.098807 0.931761 -0.382433
0.101470 0.933615 -0.382905
0.104322 0.933649 -0.383045
0.107191 0.933462 -0.383142
0.109891 0.935221 -0.383595
0.112752 0.935151 -0.383711
0.115556 0.935808 -0.383960
0.118365 0.936437 -0.384202
0.121179 0.937070 -0.384444
0.123977 0.938016 -0.384743
0.126757 0.939409 -0.385123
0.129598 0.939870 -0.385330
0.132447 0.940206 -0.385513
0.135292 0.940666 -0.385718
0.138147 0.940977 -0.385893
0.140999 0.941397 -0.386088
0.143852 0.941898 -0.386296
0.146699 0.942803 -0.386578
0.149567 0.942989 -0.386726
0.152437 0.943111 -0.386859
0.155315 0.942592 -0.386872
0.158179 0.943411 -0.387133
0.161051 0.944024 -0.387354
0.163928 0.944649 -0.387575
0.166809 0.944996 -0.387743
0.169687 0.944933 -0.387833
0.172564 0.944863 -0.387920
0.175469 0.946015 -0.388234
0.178363 0.946355 -0.388394
0.181244 0.946175 -0.388455
0.184198 0.948044 -0.388899
0.187115 0.948564 -0.389088
0.189948 0.947117 -0.388905
0.192859 0.947458 -0.389056
0.195887 0.949838 -0.389589
0.198794 0.949796 -0.389664
0.201690 0.949569 -0.389702
0.204473 0.947714 -0.389430
0.207342 0.947231 -0.389415
0.210364 0.948729 -0.389773
0.213277 0.948709 -0.389840
0.216175 0.948504 -0.389871
0.219281 0.950523 -0.390320
0.222138 0.949759 -0.390239
0.224839 0.947512 -0.389875
0.227811 0.947960 -0.390019
0.231069 0.950891 -0.390632
0.233951 0.950334 -0.390579
0.236950 0.950737 -0.390707
0.240720 0.957199 -0.391984
0.362918 1.764124 -0.545722
0.370272 1.767425 -0.546434
0.376970 1.766047 -0.546248
0.380050 1.741277 -0.541598
0.386127 1.736691 -0.540785
0.392315 1.732962 -0.540128
0.398612 1.729998 -0.539609
0.405870 1.732621 -0.540147
0.411636 1.726669 -0.539043
0.417209 1.719885 -0.537772
0.422648 1.712645 -0.536406
0.427905 1.704737 -0.534905
0.433859 1.700632 -0.534122
0.437144 1.683506 -0.530848
0.443183 1.680312 -0.530223
0.448631 1.674402 -0.529073
0.451858 1.658489 -0.526008
0.457489 1.653955 -0.525107
0.461497 1.642420 -0.522863
0.466753 1.636635 -0.521709
0.471209 1.627647 -0.519939
0.476107 1.620753 -0.518561
0.480721 1.612910 -0.516997
0.485973 1.607811 -0.515950
0.489699 1.596931 -0.513797
0.492332 1.582251 -0.510918
0.496876 1.575151 -0.509476
0.502580 1.572477 -0.508873
0.505929 1.561398 -0.506668
0.508884 1.549275 -0.504263
0.513718 1.544007 -0.503159
0.518436 1.538470 -0.502002
0.522686 1.531518 -0.500576
0.527023 1.525045 -0.499241
0.531474 1.519112 -0.498009
0.534461 1.508717 -0.495935
0.536874 1.496851 -0.493586
0.541804 1.493054 -0.492768
0.547098 1.490463 -0.492184
0.550283 1.481702 -0.490438
0.551272 1.466808 -0.487541
0.554503 1.458831 -0.485961
0.559272 1.455473 -0.485263
0.562663 1.448405 -0.483876
0.564979 1.438635 -0.481990
0.570721 1.438484 -0.481934
0.571493 1.425119 -0.479398
0.577833 1.426878 -0.479733
0.581632 1.422069 -0.478844
0.585681 1.418124 -0.478137
0.588794 1.412012 -0.477039
0.592384 1.407366 -0.476237
0.596170 1.403438 -0.475592
0.599394 1.398365 -0.474751
0.603307 1.395208 -0.474295
0.607206 1.392234 -0.473895
0.610651 1.388403 -0.473356
0.613715 1.383918 -0.472715
0.615920 1.377702 -0.471767
0.619638 1.375231 -0.471553
-0.679305 1.511771 -0.437617
-0.677033 1.517861 -0.438713
-0.672241 1.520570 -0.439377
-0.667340 1.523283 -0.440081
-0.661720 1.525113 -0.440701
-0.657767 1.529522 -0.441722
-0.652406 1.532033 -0.442516
-0.648304 1.536564 -0.443632
-0.642958 1.539399 -0.444546
-0.637278 1.541866 -0.445444
-0.631784 1.544742 -0.446433
-0.627342 1.549369 -0.447707
-0.621479 1.551932 -0.448716
-0.615330 1.554147 -0.449703
-0.609967 1.557703 -0.450912
-0.605443 1.562717 -0.452358
-0.600460 1.567114 -0.453740
-0.594849 1.570590 -0.455009
-0.588481 1.572893 -0.456125
-0.583192 1.577055 -0.457531
-0.577928 1.581340 -0.458972
-0.571773 1.584177 -0.460211
-0.565687 1.587172 -0.461484
-0.560278 1.591387 -0.462950
-0.554609 1.595198 -0.464363
-0.548986 1.599135 -0.465802
-0.543190 1.602797 -0.467203
-0.537394 1.606487 -0.468612
-0.531627 1.610258 -0.470036
-0.526196 1.614676 -0.471560
-0.520391 1.618424 -0.472981
-0.514582 1.622180 -0.474402
-0.508511 1.625444 -0.475743
-0.502798 1.629407 -0.477190
-0.497338 1.633885 -0.478715
-0.491749 1.638133 -0.480201
-0.485678 1.641420 -0.481528
-0.479836 1.645174 -0.482925
-0.474226 1.649415 -0.484393
-0.468248 1.652899 -0.485734
-0.462087 1.655995 -0.487006
-0.456249 1.659773 -0.488380
-0.450262 1.663237 -0.489696
-0.443765 1.665573 -0.490820
-0.437647 1.668727 -0.492070
-0.432091 1.673147 -0.493520
-0.426566 1.677665 -0.494979
-0.420828 1.681717 -0.496354
-0.415083 1.685775 -0.497723
-0.409351 1.689883 -0.499093
-0.403334 1.693329 -0.500346
-0.397684 1.697678 -0.501742
-0.391376 1.700432 -0.502863
-0.385545 1.704378 -0.504177
-0.380090 1.709306 -0.505650
-0.373768 1.712053 -0.506747
-0.366979 1.713573 -0.507629
-0.361018 1.717255 -0.508869
-0.355478 1.722098 -0.510301
-0.349597 1.726072 -0.511578
-0.343993 1.730856 -0.512988
-0.338071 1.734807 -0.514250
-0.332044 1.738505 -0.515462
-0.325560 1.740915 -0.516445
-0.319068 1.743304 -0.517417
-0.313103 1.747268 -0.518656
-0.307342 1.751902 -0.520006
-0.301074 1.755054 -0.521093
-0.294853 1.758384 -0.522206
-0.288805 1.762304 -0.523416
-0.282298 1.764801 -0.524371
-0.276022 1.768076 -0.525458
-0.270070 1.772478 -0.526737
-0.264189 1.777205 -0.528070
-0.257561 1.779454 -0.528961
-0.251256 1.782852 -0.530051
-0.245113 1.786888 -0.531249
-0.238870 1.790647 -0.532393
-0.231914 1.791836 -0.533076
-0.225360 1.794528 -0.534022
-0.219254 1.798993 -0.535280
-0.213020 1.803068 -0.536465
-0.206451 1.805902 -0.537425
-0.199814 1.808513 -0.538340
-0.193376 1.812005 -0.539410
-0.186938 1.815584 -0.540493
0.029090 0.919336 -0.379283
0.033087 0.914255 -0.378530
0.035806 0.914864 -0.378805
0.038260 0.916744 -0.379310
0.040881 0.917877 -0.379677
0.043668 0.918212 -0.379898
0.046352 0.919072 -0.380214
0.048948 0.920412 -0.380616
0.051697 0.920981 -0.380875
0.054585 0.920787 -0.380994
0.057333 0.921360 -0.381252
0.060095 0.921859 -0.381494
0.062757 0.922966 -0.381848
0.065317 0.924745 -0.382324
0.068101 0.925183 -0.382553
0.070966 0.925100 -0.382683
0.073748 0.925551 -0.382911
0.076410 0.926852 -0.383296
0.079050 0.928375 -0.383721
0.081820 0.929017 -0.383981
0.084690 0.928893 -0.384098
0.087456 0.929588 -0.384367
0.090244 0.930131 -0.384605
0.093045 0.930578 -0.384825
0.095836 0.931132 -0.385064
0.098607 0.931899 -0.385342
0.101383 0.932674 -0.385620
0.104175 0.933323 -0.385873
0.106943 0.934290 -0.386185
0.109847 0.933744 -0.386212
0.112596 0.935024 -0.386581
0.115379 0.935986 -0.386890
0.118156 0.937147 -0.387235
0.121021 0.937107 -0.387352
0.123879 0.937158 -0.387486
0.126631 0.939037 -0.387964
0.129464 0.939674 -0.388206
0.132251 0.941350 -0.388644
0.135146 0.940891 -0.388676
0.137960 0.942358 -0.389072
0.140868 0.941439 -0.389014
0.143734 0.941632 -0.389166
0.146589 0.942292 -0.389405
0.149447 0.943075 -0.389667
0.152327 0.942813 -0.389728
0.155195 0.943399 -0.389949
0.158072 0.943313 -0.390041
0.160947 0.943652 -0.390212
0.163826 0.944437 -0.390467
0.166709 0.944746 -0.390630
0.169594 0.945023 -0.390785
0.172493 0.945937 -0.391061
0.175376 0.945773 -0.391128
0.178279 0.946364 -0.391338
0.181214 0.947806 -0.391711
0.184148 0.948812 -0.391998
0.187023 0.948124 -0.391957
0.189890 0.947405 -0.391908
0.192846 0.948552 -0.392217
0.195758 0.948685 -0.392328
0.198729 0.949766 -0.392621
0.201636 0.949657 -0.392682
0.204457 0.948308 -0.392500
0.207394 0.948668 -0.392647
0.210353 0.949235 -0.392832
0.213176 0.948078 -0.392680
0.216180 0.949071 -0.392943
0.219176 0.949846 -0.393161
0.222101 0.949793 -0.393216
0.224945 0.948913 -0.393108
0.228022 0.950256 -0.393430
0.230924 0.949888 -0.393416
0.233908 0.950222 -0.393537
0.236869 0.950302 -0.393605
0.240069 0.952235 -0.394031
0.362854 1.763973 -0.552598
0.369637 1.763308 -0.552556
0.376194 1.761086 -0.552203
0.381743 1.752400 -0.550580
0.386546 1.739464 -0.548119
0.392452 1.733908 -0.547092
0.398438 1.729053 -0.546194
0.405066 1.728060 -0.546043
0.410929 1.722745 -0.545040
0.416572 1.716425 -0.543833
0.422334 1.710963 -0.542786
0.427440 1.702296 -0.541104
0.433269 1.697596 -0.540190
0.437340 1.684390 -0.537606
0.443108 1.679859 -0.536710
0.446971 1.666511 -0.534083
0.452578 1.661659 -0.533110
0.457742 1.654943 -0.531766
0.461329 1.641525 -0.529104
0.466389 1.634900 -0.527765
0.470985 1.626515 -0.526074
0.475798 1.619279 -0.524603
0.480912 1.613458 -0.523401
0.485561 1.605949 -0.521865
0.489069 1.594244 -0.519504
0.492351 1.582056 -0.517045
0.497762 1.578160 -0.516199
0.501299 1.567504 -0.514031
0.506105 1.561708 -0.512808
0.510859 1.555872 -0.511574
0.513915 1.544325 -0.509225
0.518184 1.537232 -0.507742
0.522092 1.529135 -0.506063
0.526610 1.523259 -0.504817
0.530556 1.515700 -0.503244
0.532888 1.503254 -0.500723
0.537336 1.497769 -0.499557
0.542209 1.493741 -0.498678
0.546995 1.489562 -0.497774
0.550263 1.481015 -0.496028
0.543890 1.444612 -0.488886
0.548157 1.439898 -0.487900
0.556271 1.446235 -0.489065
0.560076 1.440400 -0.487880
0.564280 1.435876 -0.486960
0.569733 1.434918 -0.486744
0.570506 1.421551 -0.484138
0.575638 1.420104 -0.483856
0.582576 1.423474 -0.484522
0.585804 1.417335 -0.483364
0.589817 1.413443 -0.482659
0.592757 1.407079 -0.481495
0.594400 1.397794 -0.479783
0.598106 1.393889 -0.479135
0.603123 1.393373 -0.479166
0.607672 1.391894 -0.479032
0.610298 1.386063 -0.478075
0.613868 1.382712 -0.477621
0.616362 1.377109 -0.476751
0.620197 1.374838 -0.476553
-0.678099 1.507356 -0.443220
-0.676753 1.514773 -0.444552
-0.673907 1.520290 -0.445650
-0.668247 1.521973 -0.446231
-0.662475 1.523634 -0.446846
-0.658317 1.527792 -0.447865
-0.654878 1.533185 -0.449103
-0.650255 1.537011 -0.450150
-0.644764 1.539695 -0.451065
-0.637913 1.540453 -0.451730
-0.632649 1.543729 -0.452800
-0.627734 1.547673 -0.454002
-0.622108 1.550647 -0.455089
-0.615741 1.552565 -0.456046
-0.610566 1.556459 -0.457326
-0.606063 1.561541 -0.458810
-0.601113 1.566028 -0.460228
-0.595453 1.569462 -0.461507
-0.589622 1.572689 -0.462773
-0.584135 1.576559 -0.464154
-0.578166 1.579686 -0.465434
-0.571705 1.582023 -0.466604
-0.566046 1.585769 -0.468002
-0.560808 1.590300 -0.469532
-0.555004 1.593893 -0.470922
-0.549368 1.597820 -0.472371
-0.544471 1.603116 -0.474040
-0.539080 1.607576 -0.475581
-0.533201 1.611175 -0.476988
-0.527215 1.614590 -0.478364
-0.521528 1.618581 -0.479832
-0.515643 1.622213 -0.481241
-0.509727 1.625795 -0.482639
-0.504148 1.630040 -0.484141
-0.498250 1.633676 -0.485540
-0.492066 1.636744 -0.486841
-0.486166 1.640376 -0.488229
-0.480490 1.644470 -0.489688
-0.474739 1.648422 -0.491117
-0.469075 1.652566 -0.492572
-0.463197 1.656271 -0.493947
-0.456831 1.658930 -0.495141
-0.450685 1.662049 -0.496403
-0.444770 1.665663 -0.497742
-0.439205 1.670066 -0.499206
-0.433345 1.673824 -0.500553
-0.427289 1.677145 -0.501820
-0.421597 1.681307 -0.503222
-0.415459 1.684446 -0.504441
-0.409139 1.687150 -0.505579
-0.403591 1.691700 -0.507025
-0.397895 1.695924 -0.508409
-0.392218 1.700230 -0.509800
-0.386280 1.703914 -0.511077
-0.380721 1.708580 -0.512517
-0.374049 1.710428 -0.513460
-0.367738 1.713191 -0.514554
-0.361976 1.717408 -0.515895
-0.356397 1.722159 -0.517325
-0.350396 1.725818 -0.518556
-0.344262 1.729142 -0.519722
-0.338344 1.733095 -0.520992
-0.332300 1.736732 -0.522201
-0.326259 1.740416 -0.523412
-0.320127 1.743870 -0.524576
-0.314075 1.747599 -0.525783
-0.308243 1.752040 -0.527112
-0.302108 1.755622 -0.528283
-0.295609 1.758110 -0.529252
-0.289136 1.760694 -0.530232
-0.282893 1.764038 -0.531343
-0.276779 1.767852 -0.532534
-0.270576 1.771433 -0.533678
-0.264526 1.775590 -0.534923
-0.258036 1.778310 -0.535902
-0.251736 1.781728 -0.537003
-0.245609 1.785829 -0.538225
-0.239187 1.788941 -0.539262
-0.232455 1.790955 -0.540094
-0.225922 1.793741 -0.541062
-0.219870 1.798424 -0.542375
-0.213698 1.802756 -0.543620
-0.206994 1.805077 -0.544492
-0.200215 1.807122 -0.545309
-0.194050 1.811755 -0.546600
-0.187391 1.814420 -0.547524
0.027786 0.923875 -0.382997
0.032514 0.915610 -0.381627
0.035574 0.914684 -0.381617
0.037661 0.918317 -0.382455
0.040645 0.917735 -0.382506
0.043341 0.918541 -0.382815
0.045991 0.919601 -0.383170
0.048709 0.920333 -0.383462
0.051483 0.920785 -0.383701
0.054241 0.921329 -0.383955
0.057024 0.921734 -0.384182
0.059778 0.922312 -0.384441
0.062560 0.922735 -0.384669
0.065331 0.923227 -0.384908
0.067771 0.925835 -0.385548
0.070822 0.924577 -0.385454
0.073619 0.924938 -0.385666
0.076124 0.927335 -0.386263
0.078712 0.929283 -0.386775
0.081576 0.929277 -0.386914
0.084439 0.929250 -0.387047
0.087261 0.929540 -0.387240
0.090009 0.930447 -0.387550
0.092781 0.931188 -0.387827
0.095559 0.931926 -0.388103
0.098231 0.933709 -0.388578
0.101141 0.933269 -0.388626
0.103913 0.934198 -0.388936
0.106757 0.934420 -0.389108
0.109615 0.934457 -0.389244
0.112441 0.934877 -0.389452
0.115119 0.937258 -0.390039
0.117962 0.937622 -0.390235
0.120848 0.937372 -0.390311
0.123647 0.938452 -0.390643
0.126460 0.939440 -0.390957
0.129321 0.939654 -0.391119
0.132181 0.939905 -0.391288
0.134970 0.941799 -0.391775
0.137889 0.940780 -0.391694
0.140746 0.941239 -0.391899
0.143614 0.941449 -0.392055
0.146473 0.942087 -0.392293
0.149327 0.943166 -0.392616
0.152193 0.944125 -0.392914
0.155080 0.943800 -0.392960
0.157960 0.944150 -0.393137
0.160843 0.943867 -0.393188
0.163726 0.944336 -0.393385
0.166615 0.944986 -0.393616
0.169510 0.945755 -0.393869
0.172398 0.945621 -0.393943
0.175311 0.946696 -0.394254
0.178215 0.947073 -0.394425
0.181130 0.947656 -0.394636
0.184048 0.948147 -0.394826
0.186947 0.948052 -0.394900
0.189840 0.947837 -0.394947
0.192745 0.947862 -0.395040
0.195690 0.948595 -0.395272
0.198585 0.948367 -0.395311
0.201489 0.948261 -0.395372
0.204518 0.949975 -0.395793
0.207412 0.949605 -0.395797
0.210295 0.949114 -0.395776
0.213277 0.949834 -0.395993
0.216338 0.951353 -0.396366
0.219142 0.949909 -0.396148
0.222058 0.949731 -0.396180
0.225011 0.949901 -0.396278
0.227921 0.949613 -0.396282
0.231075 0.951510 -0.396720
0.233907 0.950443 -0.396564
0.236934 0.951036 -0.396737
0.240111 0.952747 -0.397130
0.364453 1.727775 -0.552363
0.373279 1.741805 -0.555254
0.379691 1.739259 -0.554822
0.386346 1.738305 -0.554702
0.392033 1.731422 -0.553387
0.398524 1.729590 -0.553076
0.404847 1.726804 -0.552567
0.410750 1.721729 -0.551591
0.416294 1.714869 -0.550251
0.422383 1.711158 -0.549534
0.426839 1.699106 -0.547137
0.432180 1.692009 -0.545726
0.437704 1.686059 -0.544538
0.443278 1.680534 -0.543427
0.447230 1.667564 -0.540817
0.452656 1.661841 -0.539652
0.458035 1.656071 -0.538471
0.461941 1.644004 -0.536021
0.467725 1.640406 -0.535261
0.471978 1.630452 -0.533222
0.475458 1.617639 -0.530604
0.480724 1.612445 -0.529506
0.484389 1.601061 -0.527163
0.488610 1.592185 -0.525317
0.492792 1.583423 -0.523490
0.497802 1.577991 -0.522324
0.502796 1.572626 -0.521167
0.506532 1.562883 -0.519132
0.510668 1.554829 -0.517431
0.515383 1.548996 -0.516171
0.519470 1.541176 -0.514513
0.521274 1.525978 -0.511382
0.525797 1.520142 -0.510119
0.529948 1.513262 -0.508648
0.533961 1.506139 -0.507130
0.538048 1.499445 -0.505699
0.542644 1.494498 -0.504620
0.545322 1.483924 -0.502424
0.550927 1.482343 -0.502023
0.545684 1.449184 -0.495347
0.551563 1.448978 -0.495234
0.556255 1.445442 -0.494466
0.560145 1.439805 -0.493291
0.561620 1.427739 -0.490848
0.562955 1.415686 -0.488421
0.568629 1.415610 -0.488386
0.576576 1.421588 -0.489567
0.583759 1.425502 -0.490354
0.587876 1.421546 -0.489594
0.591054 1.415418 -0.488420
0.593923 1.408786 -0.487164
0.593896 1.395294 -0.484563
0.598200 1.392805 -0.484169
0.603234 1.392266 -0.484184
0.607981 1.391193 -0.484114
0.611437 1.387255 -0.483496
0.613703 1.380786 -0.482394
0.617063 1.377126 -0.481874
0.621683 1.376570 -0.481996
-0.680549 1.508085 -0.449580
-0.678157 1.514081 -0.450750
-0.674255 1.518144 -0.451670
-0.670015 1.521909 -0.452584
-0.664274 1.523679 -0.453236
-0.659271 1.526664 -0.454108
-0.655935 1.532255 -0.455414
-0.651213 1.535986 -0.456475
-0.644528 1.536934 -0.457146
-0.638594 1.539118 -0.458039
-0.633769 1.543109 -0.459241
-0.628734 1.546919 -0.460447
-0.622871 1.549576 -0.461504
-0.617659 1.553353 -0.462762
-0.612120 1.556728 -0.463983
-0.607409 1.561528 -0.465450
-0.601768 1.564945 -0.466723
-0.595725 1.567787 -0.467924
-0.590062 1.571318 -0.469251
-0.584411 1.574941 -0.470608
-0.578189 1.577665 -0.471835
-0.572092 1.580641 -0.473113
-0.566566 1.584635 -0.474563
-0.561553 1.589576 -0.476174
-0.555697 1.593101 -0.477564
-0.549919 1.596794 -0.478985
-0.544784 1.601674 -0.480604
-0.539775 1.606836 -0.482273
-0.533696 1.610081 -0.483628
-0.527790 1.613656 -0.485038
-0.522012 1.617485 -0.486488
-0.516415 1.621672 -0.487995
-0.510740 1.625730 -0.489479
-0.505362 1.630383 -0.491059
-0.499082 1.633284 -0.492341
-0.492768 1.636103 -0.493603
-0.486678 1.639359 -0.494932
-0.480834 1.643109 -0.496340
-0.475255 1.647414 -0.497836
-0.469559 1.651490 -0.499287
-0.464055 1.655987 -0.500804
-0.457764 1.658816 -0.502028
-0.451712 1.662148 -0.503330
-0.446080 1.666399 -0.504784
-0.440365 1.670485 -0.506203
-0.433950 1.673010 -0.507343
-0.427908 1.676362 -0.508618
-0.421805 1.679573 -0.509861
-0.415937 1.683333 -0.511193
-0.410037 1.687033 -0.512507
-0.403987 1.690381 -0.513752
-0.398203 1.694387 -0.515106
-0.392711 1.699138 -0.516586
-0.387227 1.703956 -0.518071
-0.380960 1.706836 -0.519204
-0.374660 1.709631 -0.520314
-0.368443 1.712643 -0.521456
-0.362970 1.717627 -0.522945
-0.357749 1.723355 -0.524564
-0.351423 1.726160 -0.525649
-0.345043 1.728824 -0.526702
-0.338452 1.730900 -0.527640
-0.332617 1.735116 -0.528961
-0.327005 1.740026 -0.530404
-0.321187 1.744413 -0.531747
-0.314975 1.747690 -0.532881
-0.308760 1.750993 -0.534013
-0.302644 1.754633 -0.535203
-0.296452 1.758083 -0.536352
-0.290444 1.762161 -0.537612
-0.283789 1.764223 -0.538495
-0.277269 1.766731 -0.539454
-0.270880 1.769693 -0.540492
-0.264782 1.773681 -0.541717
-0.258585 1.777402 -0.542887
-0.252415 1.781284 -0.544084
-0.246169 1.784975 -0.545241
-0.239691 1.787892 -0.546250
-0.233188 1.790766 -0.547245
-0.226703 1.793758 -0.548259
-0.220377 1.797413 -0.549394
-0.213905 1.800580 -0.550434
-0.207325 1.803386 -0.551401
-0.200885 1.806812 -0.552482
-0.194626 1.811080 -0.553720
-0.187973 1.813792 -0.554660
0.031656 0.918241 -0.384985
0.035157 0.915352 -0.384594
0.037873 0.916030 -0.384882
0.040299 0.918125 -0.385441
0.043026 0.918806 -0.385727
0.045686 0.919834 -0.386080
0.048508 0.920053 -0.386275
0.051323 0.920294 -0.386473
0.054025 0.921152 -0.386789
0.056758 0.921859 -0.387074
0.059514 0.922450 -0.387336
0.062108 0.924026 -0.387788
0.064704 0.925656 -0.388249
0.067679 0.924966 -0.388260
0.070581 0.924682 -0.388348
0.073327 0.925415 -0.388632
0.075798 0.928091 -0.389294
0.078522 0.929105 -0.389631
0.081314 0.929664 -0.389879
0.084201 0.929504 -0.389986
0.086997 0.930042 -0.390227
0.089786 0.930656 -0.390483
0.092509 0.931870 -0.390855
0.095271 0.932812 -0.391174
0.098047 0.933682 -0.391477
0.100854 0.934309 -0.391732
0.103717 0.934378 -0.391875
0.106557 0.934693 -0.392066
0.109446 0.934441 -0.392145
0.112286 0.934746 -0.392331
0.114946 0.937383 -0.392979
0.117803 0.937618 -0.393150
0.120631 0.938299 -0.393409
0.123457 0.939070 -0.393685
0.126315 0.939389 -0.393870
0.129189 0.939423 -0.393997
0.132050 0.939724 -0.394176
0.134912 0.940021 -0.394353
0.137758 0.940748 -0.394615
0.140612 0.941402 -0.394861
0.143483 0.941688 -0.395032
0.146351 0.942134 -0.395235
0.149206 0.943385 -0.395597
0.152090 0.943406 -0.395712
0.154970 0.943829 -0.395906
0.157853 0.944218 -0.396092
0.160739 0.944924 -0.396340
0.163627 0.944245 -0.396309
0.166524 0.945627 -0.396691
0.169423 0.946141 -0.396896
0.172330 0.946786 -0.397127
0.175215 0.946216 -0.397111
0.178121 0.946614 -0.397289
0.181026 0.946831 -0.397428
0.183940 0.947239 -0.397605
0.186881 0.948198 -0.397891
0.189796 0.948368 -0.398016
0.192718 0.948632 -0.398159
0.195580 0.947721 -0.398061
0.198477 0.947531 -0.398107
0.201429 0.948192 -0.398324
0.204543 0.951094 -0.398995
0.207419 0.950374 -0.398928
0.210293 0.949682 -0.398864
0.213238 0.949895 -0.398982
0.216255 0.950879 -0.399255
0.219187 0.950804 -0.399311
0.222076 0.950275 -0.399271
0.225039 0.950486 -0.399379
0.228059 0.951180 -0.399584
0.231021 0.951264 -0.399662
0.233956 0.951075 -0.399682
0.236797 0.950089 -0.399536
0.240190 0.953526 -0.400292
0.361398 1.754042 -0.564402
0.366055 1.738974 -0.561412
0.371671 1.731187 -0.559904
0.379425 1.737620 -0.561305
0.385943 1.735824 -0.561012
0.392245 1.732726 -0.560445
0.398342 1.728501 -0.559640
0.404739 1.726139 -0.559209
0.410930 1.722667 -0.558543
0.416647 1.716697 -0.557357
0.421676 1.707300 -0.555461
0.427151 1.700582 -0.554106
0.431799 1.689939 -0.551939
0.437256 1.683686 -0.550665
0.441962 1.674035 -0.548686
0.448303 1.672392 -0.548344
0.452281 1.659914 -0.545771
0.457901 1.655241 -0.544793
0.463199 1.649267 -0.543541
0.467138 1.637637 -0.541121
0.472183 1.631041 -0.539729
0.477402 1.625338 -0.538513
0.481238 1.614214 -0.536179
0.485738 1.606067 -0.534450
0.487718 1.588422 -0.530769
0.492651 1.582556 -0.529498
0.497656 1.577100 -0.528307
0.502496 1.571166 -0.527013
0.505994 1.560576 -0.524762
0.510215 1.552839 -0.523092
0.515037 1.547383 -0.521887
0.519193 1.539801 -0.520244
0.523995 1.534572 -0.519081
0.528059 1.527055 -0.517449
0.531069 1.516362 -0.515169
0.534653 1.507793 -0.513324
0.539610 1.503739 -0.512402
0.542044 1.492077 -0.509930
0.544829 1.481826 -0.507750
0.551803 1.484285 -0.508168
0.549753 1.460370 -0.503213
0.551073 1.446861 -0.500387
0.558816 1.451925 -0.501355
0.562800 1.446401 -0.500174
0.561223 1.425816 -0.495934
0.562168 1.412687 -0.493226
0.568159 1.413434 -0.493356
0.576157 1.419505 -0.494583
0.582712 1.421744 -0.495044
0.586929 1.418027 -0.494309
0.590138 1.411958 -0.493111
0.592314 1.403574 -0.491458
0.594692 1.396011 -0.489992
0.598708 1.392741 -0.489419
0.603412 1.391332 -0.489246
0.607889 1.389555 -0.489019
0.611473 1.385864 -0.488422
0.614309 1.380669 -0.487539
0.617031 1.375477 -0.486677
0.619699 1.370430 -0.485866
-0.688121 1.515967 -0.457091
-0.679339 1.513085 -0.456925
-0.675733 1.517618 -0.457950
-0.671373 1.521264 -0.458876
-0.665964 1.523570 -0.459630
-0.661357 1.527191 -0.460628
-0.656872 1.531156 -0.461716
-0.651334 1.533727 -0.462621
-0.645021 1.535275 -0.463398
-0.639839 1.538640 -0.464494
-0.635061 1.542753 -0.465741
-0.630556 1.547431 -0.467109
-0.624756 1.550245 -0.468208
-0.619413 1.553878 -0.469465
-0.614661 1.558555 -0.470914
-0.608846 1.561656 -0.472132
-0.602644 1.564213 -0.473282
-0.596496 1.566922 -0.474473
-0.591011 1.570781 -0.475868
-0.585103 1.574010 -0.477174
-0.579014 1.576988 -0.478451
-0.572787 1.579771 -0.479705
-0.567564 1.584311 -0.481259
-0.562420 1.589051 -0.482855
-0.556899 1.593188 -0.484356
-0.551015 1.596721 -0.485761
-0.546045 1.601921 -0.487449
-0.539828 1.604911 -0.488767
-0.534031 1.608677 -0.490216
-0.528342 1.612661 -0.491701
-0.522682 1.616718 -0.493198
-0.516982 1.620720 -0.494683
-0.511532 1.625216 -0.496250
-0.505593 1.628786 -0.497654
-0.499582 1.632216 -0.499029
-0.493541 1.635582 -0.500388
-0.487607 1.639161 -0.501777
-0.481931 1.643265 -0.503253
-0.475706 1.646249 -0.504526
-0.469955 1.650208 -0.505964
-0.464490 1.654781 -0.507504
-0.458326 1.657881 -0.508776
-0.452485 1.661672 -0.510164
-0.446545 1.665251 -0.511507
-0.440751 1.669156 -0.512901
-0.434472 1.671982 -0.514094
-0.428358 1.675170 -0.515344
-0.422400 1.678713 -0.516651
-0.416799 1.683098 -0.518102
-0.411206 1.687531 -0.519557
-0.405093 1.690749 -0.520783
-0.398757 1.693425 -0.521902
-0.392953 1.697403 -0.523252
-0.387549 1.702407 -0.524784
-0.381619 1.706135 -0.526076
-0.375277 1.708827 -0.527169
-0.369376 1.712664 -0.528467
-0.364024 1.717981 -0.530033
-0.358073 1.721766 -0.531310
-0.352410 1.726367 -0.532732
-0.346514 1.730384 -0.534040
-0.339768 1.732069 -0.534906
-0.333248 1.734370 -0.535880
-0.327944 1.740171 -0.537505
-0.321835 1.743723 -0.538703
-0.315324 1.746119 -0.539677
-0.309071 1.749301 -0.540794
-0.302806 1.752477 -0.541904
-0.297014 1.757158 -0.543295
-0.290999 1.761216 -0.544562
-0.284519 1.763851 -0.545555
-0.277798 1.765719 -0.546396
-0.271379 1.768586 -0.547422
-0.265153 1.772144 -0.548576
-0.258781 1.775259 -0.549641
-0.252641 1.779234 -0.550866
-0.246517 1.783345 -0.552114
-0.240313 1.787255 -0.553320
-0.234071 1.791110 -0.554512
-0.227595 1.794168 -0.555546
-0.221063 1.797072 -0.556547
-0.214337 1.799269 -0.557407
-0.207838 1.802401 -0.558445
-0.201600 1.806666 -0.559699
-0.195075 1.809853 -0.560741
-0.188437 1.812640 -0.561702
0.031478 0.917780 -0.387770
0.035082 0.914432 -0.387272
0.037547 0.916292 -0.387793
0.040008 0.918237 -0.388331
0.042811 0.918557 -0.388548
0.045545 0.919226 -0.388832
0.048411 0.919218 -0.388981
0.051178 0.919723 -0.389231
0.053793 0.921057 -0.389643
0.056439 0.922274 -0.390031
0.059203 0.922856 -0.390292
0.061885 0.923936 -0.390652
0.064701 0.924235 -0.390855
0.067412 0.925196 -0.391188
0.070296 0.925070 -0.391305
0.073080 0.925583 -0.391547
0.075797 0.926578 -0.391885
0.078454 0.928046 -0.392316
0.081202 0.928926 -0.392630
0.083819 0.930857 -0.393153
0.086683 0.930934 -0.393304
0.089500 0.931377 -0.393527
0.092297 0.932014 -0.393788
0.095084 0.932778 -0.394074
0.097904 0.933264 -0.394303
0.100744 0.933584 -0.394497
0.103562 0.934134 -0.394737
0.106399 0.934510 -0.394941
0.109257 0.934658 -0.395098
0.111988 0.936343 -0.395565
0.114811 0.937020 -0.395828
0.117614 0.938038 -0.396158
0.120413 0.939217 -0.396521
0.123256 0.939863 -0.396774
0.126161 0.939508 -0.396823
0.129024 0.939841 -0.397010
0.131858 0.940795 -0.397324
0.134766 0.940246 -0.397329
0.137602 0.941365 -0.397674
0.140480 0.941542 -0.397826
0.143353 0.941870 -0.398007
0.146209 0.942977 -0.398346
0.149090 0.943335 -0.398531
0.151960 0.944510 -0.398883
0.154876 0.942448 -0.398568
0.157761 0.942254 -0.398636
0.160640 0.943663 -0.399032
0.163532 0.945208 -0.399455
0.166433 0.946062 -0.399735
0.169335 0.946342 -0.399895
0.172231 0.946125 -0.399951
0.175129 0.946100 -0.400045
0.178015 0.945643 -0.400048
0.180946 0.946716 -0.400366
0.183864 0.947168 -0.400554
0.186802 0.947967 -0.400812
0.189725 0.948268 -0.400965
0.192605 0.947635 -0.400923
0.195550 0.948268 -0.401142
0.198467 0.948322 -0.401239
0.201486 0.949919 -0.401655
0.204516 0.951433 -0.402052
0.207390 0.950625 -0.401964
0.210291 0.950221 -0.401957
0.213255 0.950596 -0.402111
0.216233 0.951059 -0.402282
0.219147 0.950761 -0.402291
0.222074 0.950596 -0.402326
0.225041 0.950803 -0.402436
0.228359 0.954248 -0.403220
0.230971 0.951033 -0.402610
0.233622 0.948391 -0.402117
0.237035 0.952216 -0.402975
0.239849 0.950950 -0.402765
0.361476 1.754746 -0.571438
0.368558 1.756340 -0.571873
0.375205 1.754836 -0.571652
0.380475 1.744436 -0.569557
0.386265 1.737839 -0.568252
0.391805 1.730009 -0.566682
0.398131 1.727188 -0.566155
0.404534 1.724876 -0.565729
0.410569 1.720534 -0.564869
0.416113 1.713658 -0.563469
0.421350 1.705417 -0.561774
0.426845 1.698828 -0.560420
0.432059 1.691051 -0.558809
0.437247 1.683433 -0.557223
0.442432 1.676064 -0.555683
0.446753 1.664891 -0.553336
0.451792 1.657416 -0.551759
0.457332 1.652425 -0.550698
0.462740 1.646976 -0.549533
0.465849 1.631823 -0.546323
0.471757 1.628947 -0.545686
0.475776 1.618343 -0.543419
0.481047 1.613114 -0.542276
0.483709 1.597729 -0.538993
0.488653 1.591672 -0.537665
0.492737 1.582511 -0.535680
0.497416 1.575823 -0.534209
0.502098 1.569317 -0.532772
0.505258 1.557533 -0.530224
0.510322 1.552786 -0.529149
0.515404 1.548200 -0.528105
0.518823 1.538084 -0.525898
0.522842 1.530254 -0.524170
0.526799 1.522434 -0.522443
0.530711 1.514684 -0.520730
0.534559 1.506944 -0.519020
0.539832 1.503851 -0.518284
0.541349 1.489350 -0.515163
0.545580 1.483451 -0.513845
0.548465 1.473741 -0.511735
0.552100 1.466512 -0.510148
0.555326 1.458334 -0.508369
0.559384 1.452763 -0.507142
0.564984 1.451670 -0.506859
0.564129 1.432945 -0.502904
0.567105 1.425151 -0.501242
0.572123 1.423070 -0.500783
0.576909 1.420500 -0.500235
0.582929 1.421272 -0.500398
0.585770 1.413977 -0.498893
0.588534 1.406771 -0.497423
0.592764 1.403509 -0.496793
0.595874 1.397682 -0.495645
0.599621 1.393669 -0.494894
0.603991 1.391375 -0.494522
0.608218 1.388931 -0.494139
0.611795 1.385162 -0.493499
0.614788 1.380271 -0.492645
0.617131 1.374148 -0.491553
0.618505 1.366113 -0.490080
-0.683816 1.507276 -0.462053
-0.681571 1.513572 -0.463358
-0.677298 1.517221 -0.464276
-0.672011 1.519598 -0.465026
-0.665586 1.520489 -0.465571
-0.661677 1.525154 -0.466764
-0.657254 1.529250 -0.467902
-0.652076 1.532396 -0.468920
-0.645983 1.534323 -0.469771
-0.640248 1.536903 -0.470761
-0.635743 1.541471 -0.472108
-0.631524 1.546628 -0.473582
-0.626489 1.550674 -0.474901
-0.619556 1.551873 -0.475773
-0.614854 1.556658 -0.477264
-0.609547 1.560599 -0.478636
-0.602984 1.562612 -0.479705
-0.596871 1.565405 -0.480920
-0.591663 1.569746 -0.482411
-0.586016 1.573438 -0.483807
-0.580366 1.577184 -0.485223
-0.574142 1.580011 -0.486492
-0.568635 1.584097 -0.487985
-0.563303 1.588537 -0.489545
-0.557801 1.592730 -0.491068
-0.553210 1.598581 -0.492884
-0.547280 1.602101 -0.494298
-0.541136 1.605251 -0.495648
-0.534662 1.607798 -0.496891
-0.529028 1.611896 -0.498405
-0.523465 1.616146 -0.499945
-0.518010 1.620621 -0.501522
-0.511798 1.623668 -0.502843
-0.505791 1.627104 -0.504228
-0.499713 1.630398 -0.505582
-0.494478 1.635363 -0.507231
-0.488303 1.638468 -0.508541
-0.482373 1.642059 -0.509932
-0.476424 1.645612 -0.511309
-0.470270 1.648733 -0.512602
-0.464820 1.653331 -0.514156
-0.459151 1.657485 -0.515624
-0.453113 1.660855 -0.516941
-0.447074 1.664218 -0.518249
-0.441413 1.668418 -0.519704
-0.435393 1.671829 -0.521007
-0.429343 1.675172 -0.522290
-0.423378 1.678711 -0.523601
-0.417483 1.682419 -0.524937
-0.412108 1.687371 -0.526498
-0.406416 1.691606 -0.527919
-0.400326 1.694906 -0.529158
-0.393626 1.696709 -0.530108
-0.387584 1.700124 -0.531354
-0.381932 1.704535 -0.532781
-0.375967 1.708186 -0.534058
-0.370303 1.712644 -0.535483
-0.364417 1.716561 -0.536798
-0.358411 1.720194 -0.538054
-0.352581 1.724333 -0.539400
-0.347054 1.729350 -0.540909
-0.340717 1.732180 -0.541993
-0.334593 1.735622 -0.543189
-0.328284 1.738565 -0.544282
-0.322060 1.741775 -0.545422
-0.315855 1.745070 -0.546572
-0.309469 1.747852 -0.547618
-0.303077 1.750636 -0.548658
-0.297122 1.754800 -0.549962
-0.291176 1.759060 -0.551280
-0.284775 1.761933 -0.552323
-0.278248 1.764427 -0.553287
-0.272088 1.768157 -0.554488
-0.265669 1.771077 -0.555526
-0.259094 1.773501 -0.556462
-0.252863 1.777152 -0.557636
-0.246933 1.781941 -0.559029
-0.240784 1.786052 -0.560286
-0.234544 1.789918 -0.561492
-0.228118 1.793172 -0.562573
-0.221511 1.795800 -0.563526
-0.214920 1.798531 -0.564496
-0.208363 1.801452 -0.565500
-0.201627 1.803706 -0.566368
-0.195087 1.806803 -0.567401
-0.188661 1.810461 -0.568543
-0.184803 1.825303 -0.571920
0.031342 0.917122 -0.390517
0.034800 0.914461 -0.390138
0.037260 0.916358 -0.390674
0.039843 0.917733 -0.391104
0.042641 0.918086 -0.391327
0.045504 0.918108 -0.391482
0.048236 0.918791 -0.391768
0.050947 0.919599 -0.392079
0.053283 0.922478 -0.392809
0.055980 0.923471 -0.393156
0.058852 0.923480 -0.393303
0.061779 0.923145 -0.393378
0.064549 0.923726 -0.393638
0.067316 0.924343 -0.393905
0.070044 0.925231 -0.394226
0.072837 0.925718 -0.394464
0.075641 0.926142 -0.394688
0.078436 0.926633 -0.394925
0.081096 0.928142 -0.395370
0.083569 0.931178 -0.396128
0.086415 0.931445 -0.396317
0.089330 0.931133 -0.396386
0.092193 0.931226 -0.396537
0.094975 0.932033 -0.396834
0.097823 0.932258 -0.397010
0.100700 0.932203 -0.397127
0.103491 0.933006 -0.397421
0.106212 0.934639 -0.397886
0.109017 0.935449 -0.398179
0.111848 0.936015 -0.398422
0.114660 0.936864 -0.398722
0.117470 0.937821 -0.399044
0.120231 0.939603 -0.399537
0.123097 0.939973 -0.399736
0.125989 0.939922 -0.399845
0.128838 0.940627 -0.400112
0.131790 0.939330 -0.399959
0.134594 0.941072 -0.400440
0.137476 0.941235 -0.400590
0.140363 0.941230 -0.400703
0.143227 0.941952 -0.400968
0.146086 0.943117 -0.401325
0.148956 0.944205 -0.401665
0.151839 0.945050 -0.401952
0.154744 0.944631 -0.401973
0.157655 0.942548 -0.401643
0.160537 0.944768 -0.402216
0.163436 0.945473 -0.402470
0.166340 0.946076 -0.402701
0.169244 0.946215 -0.402832
0.172135 0.945568 -0.402796
0.175031 0.945387 -0.402857
0.177983 0.947380 -0.403377
0.180883 0.947113 -0.403416
0.183806 0.947543 -0.403602
0.186729 0.947868 -0.403764
0.189625 0.947490 -0.403776
0.192507 0.946905 -0.403741
0.195475 0.947960 -0.404053
0.198527 0.950256 -0.404627
0.201347 0.948559 -0.404351
0.204288 0.948839 -0.404493
0.207296 0.949967 -0.404814
0.210244 0.950168 -0.404935
0.213237 0.950852 -0.405158
0.216192 0.951011 -0.405266
0.219100 0.950614 -0.405254
0.221980 0.949935 -0.405179
0.224953 0.950204 -0.405305
0.228127 0.952309 -0.405821
0.230946 0.951008 -0.405606
0.233821 0.950268 -0.405508
0.236925 0.951440 -0.405818
0.239980 0.952098 -0.406015
0.367796 1.751139 -0.577671
0.374010 1.746877 -0.576855
0.380437 1.744168 -0.576365
0.386857 1.741496 -0.575876
0.391878 1.730375 -0.573565
0.397734 1.724734 -0.572424
0.404095 1.722214 -0.571946
0.409590 1.714901 -0.570431
0.415533 1.710321 -0.569497
0.420704 1.701788 -0.567705
0.426713 1.697922 -0.566909
0.432039 1.690712 -0.565387
0.437708 1.685442 -0.564276
0.441500 1.671324 -0.561254
0.447194 1.666673 -0.560261
0.451870 1.657476 -0.558283
0.457075 1.650961 -0.556876
0.460964 1.638881 -0.554264
0.465907 1.631738 -0.552708
0.470635 1.623899 -0.550997
0.475103 1.615223 -0.549099
0.480087 1.608884 -0.547697
0.483621 1.597001 -0.545098
0.488160 1.589376 -0.543409
0.493064 1.583341 -0.542057
0.497207 1.574630 -0.540125
0.501936 1.568295 -0.538699
0.506159 1.560307 -0.536914
0.510854 1.554191 -0.535527
0.514491 1.544578 -0.533387
0.518231 1.535588 -0.531378
0.521927 1.526700 -0.529389
0.526865 1.522117 -0.528323
0.530999 1.515054 -0.526724
0.534781 1.507070 -0.524927
0.539858 1.503331 -0.524041
0.540067 1.484816 -0.519993
0.545747 1.483303 -0.519588
0.549178 1.475171 -0.517769
0.551567 1.464252 -0.515359
0.556513 1.460994 -0.514594
0.561087 1.456793 -0.513633
0.562163 1.443008 -0.510631
0.566368 1.438230 -0.509564
0.572794 1.439625 -0.509825
0.576524 1.433852 -0.508566
0.578479 1.423640 -0.506371
0.583728 1.422305 -0.506085
0.586683 1.415228 -0.504587
0.589894 1.409074 -0.503301
0.592696 1.402160 -0.501869
0.596176 1.397194 -0.500871
0.600395 1.394265 -0.500326
0.605038 1.392548 -0.500059
0.608701 1.388683 -0.499353
0.612335 1.384980 -0.498700
0.615426 1.380252 -0.497849
0.617912 1.374394 -0.496774
0.621391 1.371065 -0.496263
-0.689369 1.512330 -0.469237
-0.684166 1.514571 -0.469912
-0.679128 1.517204 -0.470690
-0.671841 1.516791 -0.470995
-0.666493 1.519268 -0.471818
-0.661777 1.522810 -0.472855
-0.657661 1.527390 -0.474101
-0.653185 1.531613 -0.475322
-0.647411 1.534067 -0.476277
-0.641330 1.536183 -0.477206
-0.636015 1.539568 -0.478378
-0.632282 1.545501 -0.480013
-0.627149 1.549436 -0.481335
-0.621098 1.552056 -0.482456
-0.613807 1.552804 -0.483275
-0.608649 1.556988 -0.484706
-0.603096 1.560638 -0.486063
-0.597783 1.564756 -0.487518
-0.592375 1.568800 -0.488975
-0.587351 1.573555 -0.490569
-0.581510 1.577017 -0.491949
-0.575178 1.579694 -0.493199
-0.569275 1.583128 -0.494588
-0.564250 1.588117 -0.496260
-0.558734 1.592309 -0.497795
-0.553425 1.596904 -0.499406
-0.548202 1.601698 -0.501055
-0.542071 1.604890 -0.502418
-0.535832 1.607890 -0.503745
-0.530091 1.611808 -0.505236
-0.524381 1.615799 -0.506738
-0.518326 1.619151 -0.508120
-0.512182 1.622329 -0.509467
-0.506355 1.626115 -0.510921
-0.500874 1.630585 -0.512496
-0.495013 1.634322 -0.513931
-0.489426 1.638611 -0.515462
-0.483171 1.641556 -0.516739
-0.477187 1.645042 -0.518109
-0.471161 1.648437 -0.519455
-0.465157 1.651873 -0.520802
-0.459312 1.655646 -0.522205
-0.453355 1.659181 -0.523557
-0.447492 1.662919 -0.524940
-0.441982 1.667449 -0.526466
-0.435881 1.670677 -0.527738
-0.429728 1.673783 -0.528980
-0.423533 1.676788 -0.530195
-0.418157 1.681693 -0.531766
-0.412317 1.685545 -0.533129
-0.406739 1.690043 -0.534610
-0.400733 1.693538 -0.535891
-0.394393 1.696224 -0.537008
-0.388341 1.699617 -0.538256
-0.382447 1.703424 -0.539577
-0.376346 1.706725 -0.540793
-0.370908 1.711761 -0.542341
-0.365057 1.715773 -0.543684
-0.359000 1.719273 -0.544921
-0.352841 1.722523 -0.546103
-0.346806 1.726131 -0.547349
-0.341004 1.730422 -0.548725
-0.334854 1.733783 -0.549911
-0.328499 1.736585 -0.550982
-0.322257 1.739729 -0.552114
-0.316135 1.743258 -0.553318
-0.309992 1.746762 -0.554511
-0.303592 1.749526 -0.555552
-0.297342 1.752775 -0.556685
-0.291251 1.756563 -0.557921
-0.284922 1.759650 -0.559012
-0.278614 1.762843 -0.560120
-0.272350 1.766226 -0.561261
-0.266313 1.770425 -0.562563
-0.259730 1.772835 -0.563501
-0.253417 1.776215 -0.564630
-0.247327 1.780442 -0.565926
-0.240908 1.783576 -0.566998
-0.234420 1.786512 -0.568026
-0.227973 1.789654 -0.569093
-0.221771 1.793791 -0.570358
-0.215356 1.797202 -0.571473
-0.208601 1.799341 -0.572325
-0.201613 1.800568 -0.572988
-0.194921 1.803012 -0.573895
-0.188745 1.807678 -0.575254
-0.183322 1.815731 -0.577305
0.030098 0.921446 -0.394287
0.034430 0.914882 -0.393092
0.037172 0.915480 -0.393367
0.039791 0.916676 -0.393764
0.042504 0.917444 -0.394072
0.045207 0.918279 -0.394393
0.047926 0.919051 -0.394700
0.050580 0.920192 -0.395082
0.053085 0.922184 -0.395640
0.055756 0.923332 -0.396023
0.058433 0.924485 -0.396406
0.061516 0.923279 -0.396296
0.064418 0.923090 -0.396397
0.067143 0.923977 -0.396721
0.069776 0.925491 -0.397176
0.072585 0.925907 -0.397400
0.075386 0.926387 -0.397636
0.078185 0.926888 -0.397876
0.080865 0.928281 -0.398303
0.083530 0.929874 -0.398771
0.086322 0.930553 -0.399046
0.089265 0.930010 -0.399064
0.092102 0.930321 -0.399260
0.094745 0.932370 -0.399821
0.097685 0.931797 -0.399829
0.100590 0.931486 -0.399891
0.103412 0.931975 -0.400121
0.105987 0.935175 -0.400924
0.108830 0.935628 -0.401145
0.111679 0.936028 -0.401354
0.114515 0.936623 -0.401604
0.117354 0.937224 -0.401854
0.120225 0.937420 -0.402017
0.123107 0.937427 -0.402139
0.125872 0.939410 -0.402681
0.128780 0.939056 -0.402724
0.131713 0.938076 -0.402632
0.134542 0.939202 -0.402988
0.137375 0.940476 -0.403376
0.140230 0.941412 -0.403691
0.143088 0.942482 -0.404033
0.145972 0.942881 -0.404231
0.148858 0.943345 -0.404441
0.151741 0.944223 -0.404740
0.154637 0.944578 -0.404925
0.157540 0.944207 -0.404952
0.160439 0.943648 -0.404938
0.163340 0.945797 -0.405506
0.166247 0.946079 -0.405671
0.169156 0.946284 -0.405817
0.172064 0.946378 -0.405939
0.174981 0.946832 -0.406136
0.177904 0.947361 -0.406349
0.180829 0.947779 -0.406536
0.183734 0.947517 -0.406574
0.186658 0.947774 -0.406723
0.189563 0.947531 -0.406762
0.192441 0.946780 -0.406689
0.195584 0.951007 -0.407696
0.198319 0.947641 -0.407051
0.201209 0.947197 -0.407039
0.204188 0.948064 -0.407311
0.207246 0.949876 -0.407787
0.210234 0.950552 -0.408014
0.213180 0.950618 -0.408106
0.216146 0.950871 -0.408236
0.219015 0.950033 -0.408127
0.221845 0.948836 -0.407937
0.225029 0.951200 -0.408522
0.227988 0.951207 -0.408591
0.230915 0.950906 -0.408590
0.233889 0.950991 -0.408671
0.236830 0.950770 -0.408682
0.240084 0.953014 -0.409231
0.372951 1.739775 -0.582180
0.380258 1.742947 -0.582972
0.386963 1.742058 -0.582866
0.393103 1.737696 -0.581991
0.397895 1.725528 -0.579393
0.403500 1.718612 -0.577942
0.409253 1.712811 -0.576729
0.415074 1.707595 -0.575637
0.419953 1.697563 -0.573479
0.425387 1.690810 -0.572035
0.431753 1.688988 -0.571669
0.437279 1.683034 -0.570386
0.441843 1.672655 -0.568123
0.446879 1.664869 -0.566424
0.452213 1.658705 -0.565074
0.456788 1.649328 -0.563011
0.460525 1.636597 -0.560204
0.465993 1.631729 -0.559119
0.469483 1.618687 -0.556231
0.475039 1.614564 -0.555298
0.479034 1.604246 -0.552996
0.484337 1.599402 -0.551893
0.488240 1.589256 -0.549619
0.492396 1.580375 -0.547617
0.497220 1.574224 -0.546211
0.501673 1.566871 -0.544536
0.505882 1.558838 -0.542708
0.511024 1.554293 -0.541642
0.515072 1.546069 -0.539765
0.517301 1.531919 -0.536585
0.522846 1.529213 -0.535914
0.526254 1.519564 -0.533718
0.530908 1.514185 -0.532459
0.535054 1.507335 -0.530876
0.539649 1.502058 -0.529639
0.544386 1.497351 -0.528527
0.544985 1.480346 -0.524724
0.549286 1.474794 -0.523433
0.551113 1.462206 -0.520606
0.556194 1.459321 -0.519909
0.561295 1.456586 -0.519249
0.561515 1.440387 -0.515652
0.566592 1.437982 -0.515080
0.570370 1.432179 -0.513774
0.574508 1.427540 -0.512733
0.578683 1.423186 -0.511766
0.583089 1.419617 -0.510983
0.586892 1.414680 -0.509915
0.588533 1.404518 -0.507719
0.591834 1.398842 -0.506519
0.595372 1.393996 -0.505517
0.600587 1.393452 -0.505474
0.605131 1.391440 -0.505128
0.609441 1.389051 -0.504718
0.613423 1.386092 -0.504203
0.616358 1.380925 -0.503224
0.618410 1.374002 -0.501879
0.619904 1.366122 -0.500342
-0.687108 1.506529 -0.474643
-0.684879 1.512938 -0.476055
-0.679289 1.514837 -0.476728
-0.673092 1.516018 -0.477313
-0.667519 1.518225 -0.478110
-0.663212 1.522406 -0.479282
-0.658087 1.525564 -0.480312
-0.653408 1.529527 -0.481514
-0.648718 1.533631 -0.482773
-0.643374 1.536905 -0.483918
-0.638396 1.540861 -0.485211
-0.632731 1.543901 -0.486370
-0.627759 1.548119 -0.487762
-0.621660 1.550701 -0.488888
-0.615108 1.552652 -0.489922
-0.609151 1.555608 -0.491153
-0.605147 1.561774 -0.492974
-0.598531 1.563830 -0.494076
-0.592691 1.567194 -0.495426
-0.587694 1.572010 -0.497049
-0.582235 1.576133 -0.498558
-0.575840 1.578726 -0.499797
-0.569961 1.582222 -0.501207
-0.564441 1.586373 -0.502741
-0.559972 1.592402 -0.504624
-0.553827 1.595545 -0.505981
-0.548067 1.599385 -0.507468
-0.542636 1.603841 -0.509068
-0.537131 1.608192 -0.510650
-0.531280 1.611930 -0.512115
-0.525058 1.614982 -0.513450
-0.518273 1.616961 -0.514579
-0.512495 1.620832 -0.516059
-0.507408 1.626050 -0.517789
-0.501597 1.629887 -0.519254
-0.496014 1.634181 -0.520801
-0.489678 1.636977 -0.522057
-0.483734 1.640549 -0.523454
-0.477849 1.644242 -0.524868
-0.472018 1.648047 -0.526298
-0.465790 1.651019 -0.527560
-0.459408 1.653646 -0.528748
-0.453725 1.657761 -0.530216
-0.448319 1.662493 -0.531798
-0.442715 1.666820 -0.533295
-0.436732 1.670316 -0.534624
-0.430002 1.672122 -0.535614
-0.424174 1.675962 -0.536995
-0.418387 1.679908 -0.538390
-0.412846 1.684456 -0.539897
-0.406749 1.687709 -0.541143
-0.400789 1.691297 -0.542448
-0.394771 1.694758 -0.543721
-0.388883 1.698554 -0.545054
-0.383043 1.702495 -0.546409
-0.377309 1.706737 -0.547819
-0.371103 1.709794 -0.548986
-0.365591 1.714683 -0.550514
-0.359552 1.718230 -0.551768
-0.353279 1.721173 -0.552894
-0.346996 1.724098 -0.554010
-0.341056 1.727992 -0.555316
-0.335062 1.731774 -0.556594
-0.328946 1.735248 -0.557805
-0.322568 1.737997 -0.558863
-0.316541 1.741799 -0.560131
-0.310457 1.745475 -0.561368
-0.304150 1.748525 -0.562472
-0.297831 1.751566 -0.563569
-0.291527 1.754687 -0.564679
-0.285151 1.757615 -0.565744
-0.278638 1.760130 -0.566719
-0.272768 1.764792 -0.568133
-0.266692 1.768860 -0.569420
-0.260597 1.772938 -0.570706
-0.254086 1.775656 -0.571707
-0.247805 1.779225 -0.572881
-0.241280 1.781981 -0.573883
-0.234616 1.784271 -0.574784
-0.228187 1.787469 -0.575870
-0.222198 1.792403 -0.577315
-0.215862 1.796130 -0.578505
-0.208911 1.797504 -0.579202
-0.201915 1.798699 -0.579857
-0.195483 1.802212 -0.580994
-0.190030 1.809938 -0.583011
