ply
format ascii 1.0
comment ---
element vertex 1676
property float x
property float y
property float z
element face 0
property list uchar uint vertex_indices
end_header
0.252539 0.614120 -0.220428
0.254211 0.609962 -0.219267
0.254522 0.602923 -0.217220
0.258353 0.603567 -0.217535
0.263768 0.607510 -0.218866
0.268133 0.609128 -0.219484
0.269036 0.603538 -0.217882
0.269836 0.597853 -0.216249
0.273501 0.598043 -0.216426
0.280019 0.603874 -0.218344
0.284155 0.604876 -0.218772
0.288482 0.606211 -0.219303
0.292389 0.606702 -0.219571
0.295946 0.606516 -0.219628
0.297782 0.603116 -0.218686
0.299526 0.599631 -0.217714
0.305581 0.604122 -0.219209
0.309803 0.605217 -0.219649
0.313353 0.605110 -0.219710
0.316668 0.604619 -0.219647
0.319348 0.603064 -0.219248
0.325402 0.607428 -0.220681
0.324160 0.599242 -0.218205
0.318940 0.584524 -0.213688
0.319125 0.579237 -0.212095
0.313183 0.563918 -0.207371
-0.360496 0.599560 -0.222104
-0.358256 0.601305 -0.222625
-0.355746 0.602692 -0.223023
-0.353437 0.604529 -0.223555
-0.351454 0.607041 -0.224291
-0.347148 0.605544 -0.223747
-0.343629 0.605482 -0.223651
-0.339786 0.604882 -0.223376
-0.336379 0.605112 -0.223358
-0.333456 0.606284 -0.223631
-0.330709 0.607843 -0.224021
-0.327489 0.608567 -0.224141
-0.323441 0.607741 -0.223766
-0.319529 0.607172 -0.223469
-0.316555 0.608439 -0.223749
-0.313350 0.609282 -0.223891
-0.309828 0.609505 -0.223835
-0.306345 0.609804 -0.223801
-0.302166 0.608661 -0.223313
-0.298786 0.609143 -0.223335
-0.295774 0.610395 -0.223598
-0.292792 0.611717 -0.223884
-0.289188 0.611696 -0.223747
-0.284901 0.610137 -0.223129
-0.280956 0.609268 -0.222728
-0.277395 0.609207 -0.222583
-0.274291 0.610154 -0.222755
-0.270918 0.610461 -0.222727
-0.266624 0.608565 -0.222013
-0.263525 0.609428 -0.222163
-0.260458 0.610351 -0.222333
-0.257005 0.610305 -0.222204
-0.253844 0.610941 -0.222289
-0.250614 0.611374 -0.222313
-0.246327 0.609060 -0.221485
-0.242764 0.608517 -0.221210
-0.239502 0.608707 -0.221166
-0.236670 0.610011 -0.221471
-0.233636 0.610757 -0.221605
-0.230414 0.610960 -0.221573
-0.226185 0.608296 -0.220653
-0.223418 0.609673 -0.220990
-0.220152 0.609600 -0.220880
-0.217288 0.610666 -0.221125
-0.214035 0.610558 -0.221009
-0.210875 0.610684 -0.220967
-0.207259 0.609365 -0.220481
-0.203955 0.608934 -0.220272
-0.200778 0.608856 -0.220175
-0.197749 0.609217 -0.220216
-0.194892 0.610117 -0.220426
-0.192310 0.611938 -0.220921
-0.188706 0.610279 -0.220345
-0.186073 0.611912 -0.220787
-0.182472 0.610123 -0.220174
-0.179510 0.610547 -0.220247
-0.176564 0.611011 -0.220334
-0.173408 0.610665 -0.220173
-0.170399 0.610834 -0.220173
-0.167317 0.610693 -0.220079
-0.164300 0.610771 -0.220054
-0.161412 0.611341 -0.220183
-0.158461 0.611648 -0.220232
-0.155163 0.610455 -0.219821
-0.151923 0.609435 -0.219466
-0.148998 0.609736 -0.219518
-0.146043 0.609888 -0.219526
-0.143207 0.610567 -0.219698
-0.140220 0.610537 -0.219653
-0.137306 0.610830 -0.219708
-0.134657 0.612440 -0.220170
-0.131368 0.610820 -0.219640
-0.128530 0.611463 -0.219807
-0.125561 0.611415 -0.219763
-0.122660 0.611707 -0.219825
-0.119697 0.611647 -0.219779
-0.116848 0.612223 -0.219930
-0.113920 0.612335 -0.219940
-0.110913 0.611941 -0.219796
-0.108335 0.614261 -0.220485
-0.105059 0.612071 -0.219791
-0.102070 0.611681 -0.219651
-0.099155 0.611772 -0.219659
-0.096263 0.612023 -0.219717
-0.093315 0.611845 -0.219644
-0.090307 0.611150 -0.219414
-0.087392 0.611155 -0.219399
-0.084577 0.612002 -0.219644
-0.081531 0.610836 -0.219271
-0.078658 0.611165 -0.219358
-0.075617 0.609848 -0.218941
-0.072892 0.611670 -0.219487
-0.070051 0.612397 -0.219698
-0.067155 0.612553 -0.219735
-0.064244 0.612542 -0.219720
-0.061297 0.612026 -0.219552
-0.058420 0.612411 -0.219661
-0.055473 0.611788 -0.219461
-0.052568 0.611736 -0.219436
-0.049702 0.612338 -0.219613
-0.046859 0.613468 -0.219952
-0.043870 0.611759 -0.219422
-0.040955 0.611374 -0.219297
-0.038063 0.611501 -0.219330
-0.035483 0.621101 -0.222267
-0.032435 0.617342 -0.221110
-0.029412 0.613114 -0.219810
-0.026504 0.612861 -0.219728
-0.023542 0.608408 -0.218361
-0.020652 0.607271 -0.218009
-0.017781 0.608433 -0.218362
-0.014901 0.608898 -0.218503
-0.012011 0.610060 -0.218857
-0.009102 0.611962 -0.219438
-0.006082 0.619693 -0.221806
-0.003169 0.618577 -0.221463
-0.000405 0.612031 -0.219458
0.002437 0.610142 -0.218880
0.005452 0.613665 -0.219960
0.008443 0.615742 -0.220597
0.011326 0.614948 -0.220356
0.014233 0.614773 -0.220304
0.017076 0.613443 -0.219899
0.019995 0.613600 -0.219951
0.022876 0.613135 -0.219812
0.026168 0.618636 -0.221501
0.028956 0.616625 -0.220890
0.031896 0.616762 -0.220937
0.034809 0.616542 -0.220875
0.037646 0.615491 -0.220559
0.040448 0.614149 -0.220155
0.043229 0.612719 -0.219724
0.046153 0.612795 -0.219755
0.049216 0.614125 -0.220172
0.052172 0.614384 -0.220260
0.055052 0.613956 -0.220139
0.057765 0.612195 -0.219610
0.060185 0.608266 -0.218417
0.062493 0.603770 -0.217051
0.066183 0.609603 -0.218852
0.069129 0.609801 -0.218926
0.072038 0.609717 -0.218915
0.074854 0.609014 -0.218715
0.077724 0.608679 -0.218628
0.081031 0.611033 -0.219367
0.085017 0.617288 -0.221304
0.088220 0.618615 -0.221731
0.090754 0.616081 -0.220974
0.093195 0.613156 -0.220097
0.095175 0.607903 -0.218507
0.097500 0.604694 -0.217545
0.100547 0.605281 -0.217750
0.103401 0.604869 -0.217649
0.107044 0.608253 -0.218714
0.110189 0.609111 -0.219006
0.115463 0.619702 -0.222288
0.117979 0.617384 -0.221607
0.120550 0.615385 -0.221026
0.122259 0.609738 -0.219324
0.123819 0.603680 -0.217497
0.126372 0.601940 -0.216998
0.130119 0.605065 -0.217996
0.133207 0.605425 -0.218146
0.136169 0.605258 -0.218136
0.138915 0.604242 -0.217866
0.142320 0.605694 -0.218357
0.144960 0.604264 -0.217962
0.147967 0.604170 -0.217981
0.150961 0.604000 -0.217978
0.154267 0.604889 -0.218304
0.157455 0.605307 -0.218486
0.160763 0.606076 -0.218779
0.163283 0.604200 -0.218257
0.166430 0.604372 -0.218370
0.174240 0.619304 -0.223040
0.176400 0.616068 -0.222106
0.178474 0.612635 -0.221113
0.178645 0.603525 -0.218367
0.180884 0.600815 -0.217600
0.184978 0.603576 -0.218526
0.189650 0.607877 -0.219932
0.192821 0.607747 -0.219969
0.195703 0.606775 -0.219749
0.198585 0.605789 -0.219526
0.201825 0.605758 -0.219601
0.211539 0.622964 -0.225023
0.210108 0.610314 -0.221192
0.211154 0.604405 -0.219452
0.213935 0.603054 -0.219127
0.216225 0.600460 -0.218419
0.219750 0.600963 -0.218674
0.223858 0.602833 -0.219358
0.227191 0.602739 -0.219433
0.228823 0.598555 -0.218237
0.232037 0.598153 -0.218221
0.235863 0.599140 -0.218639
0.240123 0.601047 -0.219347
0.243390 0.600626 -0.219331
0.251426 0.610783 -0.222620
0.251484 0.603122 -0.220347
0.253543 0.599954 -0.219478
0.257700 0.601323 -0.220028
0.261843 0.602591 -0.220548
0.267291 0.606517 -0.221903
0.269998 0.604674 -0.221451
0.270465 0.598296 -0.219575
0.274012 0.598236 -0.219681
0.282272 0.607504 -0.222717
0.285014 0.605724 -0.222282
0.288662 0.605726 -0.222406
0.291703 0.604561 -0.222161
0.296618 0.606964 -0.223037
0.298842 0.604287 -0.222309
0.299893 0.599513 -0.220916
0.306726 0.605419 -0.222887
0.310451 0.605600 -0.223048
0.313495 0.604586 -0.222827
0.316377 0.603341 -0.222525
0.319532 0.602637 -0.222389
0.327824 0.610876 -0.225075
0.327037 0.603450 -0.222797
0.322038 0.589089 -0.218312
0.323076 0.585201 -0.217134
0.328036 0.587971 -0.218057
-0.362791 0.602799 -0.226399
-0.358835 0.601639 -0.225993
-0.356392 0.603133 -0.226433
-0.354469 0.605633 -0.227189
-0.351089 0.605694 -0.227147
-0.347871 0.606106 -0.227210
-0.344187 0.605747 -0.227015
-0.340616 0.605638 -0.226894
-0.337539 0.606475 -0.227070
-0.334608 0.607640 -0.227344
-0.331238 0.608046 -0.227368
-0.328160 0.609039 -0.227574
-0.324746 0.609432 -0.227583
-0.320714 0.608653 -0.227211
-0.316925 0.608341 -0.226986
-0.313854 0.609450 -0.227213
-0.310456 0.609927 -0.227235
-0.306488 0.609249 -0.226885
-0.302851 0.609224 -0.226743
-0.299270 0.609300 -0.226632
-0.296157 0.610346 -0.226831
-0.292503 0.610237 -0.226660
-0.289141 0.610731 -0.226682
-0.285797 0.611249 -0.226713
-0.281156 0.608854 -0.225815
-0.277856 0.609389 -0.225854
-0.274441 0.609637 -0.225802
-0.271310 0.610512 -0.225951
-0.267859 0.610616 -0.225856
-0.263861 0.609377 -0.225337
-0.260606 0.609855 -0.225366
-0.257331 0.610256 -0.225372
-0.253913 0.610263 -0.225256
-0.250504 0.610250 -0.225136
-0.247444 0.611084 -0.225287
-0.242741 0.607624 -0.224081
-0.240015 0.609232 -0.224482
-0.236977 0.610003 -0.224620
-0.233917 0.610694 -0.224736
-0.229719 0.608219 -0.223854
-0.227654 0.611600 -0.224824
-0.223172 0.608159 -0.223643
-0.220601 0.610092 -0.224161
-0.217335 0.609998 -0.224042
-0.214070 0.609860 -0.223911
-0.211006 0.610286 -0.223961
-0.207987 0.610819 -0.224047
-0.204680 0.610426 -0.223844
-0.201223 0.609497 -0.223474
-0.197960 0.609124 -0.223283
-0.195207 0.610385 -0.223607
-0.192414 0.611512 -0.223891
-0.189253 0.611386 -0.223783
-0.185937 0.610672 -0.223494
-0.182809 0.610561 -0.223396
-0.179639 0.610259 -0.223240
-0.176790 0.611093 -0.223442
-0.173843 0.611552 -0.223529
-0.170613 0.610911 -0.223273
-0.167401 0.610282 -0.223023
-0.164332 0.610161 -0.222934
-0.161367 0.610427 -0.222968
-0.158383 0.610591 -0.222972
-0.154997 0.609027 -0.222436
-0.152616 0.611721 -0.223236
-0.148975 0.608918 -0.222316
-0.146327 0.610465 -0.222759
-0.143496 0.611204 -0.222951
-0.140569 0.611489 -0.223002
-0.137647 0.611790 -0.223060
-0.134728 0.612094 -0.223120
-0.131749 0.612074 -0.223080
-0.128640 0.611349 -0.222821
-0.125632 0.611103 -0.222714
-0.122667 0.611063 -0.222672
-0.119815 0.611633 -0.222821
-0.116965 0.612230 -0.222980
-0.114060 0.612505 -0.223040
-0.111133 0.612634 -0.223056
-0.108084 0.611970 -0.222825
-0.105182 0.612215 -0.222878
-0.102141 0.611503 -0.222634
-0.099186 0.611327 -0.222559
-0.096252 0.611280 -0.222524
-0.093337 0.611354 -0.222528
-0.090356 0.610883 -0.222363
-0.087446 0.610952 -0.222368
-0.084531 0.610964 -0.222355
-0.081633 0.611108 -0.222385
-0.078652 0.610465 -0.222170
-0.075704 0.610069 -0.222032
-0.072886 0.610974 -0.222301
-0.070089 0.612180 -0.222664
-0.067150 0.611861 -0.222553
-0.064240 0.611857 -0.222541
-0.061417 0.612959 -0.222874
-0.058429 0.611908 -0.222536
-0.055508 0.611695 -0.222460
-0.052598 0.611603 -0.222423
-0.049733 0.612262 -0.222620
-0.046849 0.612677 -0.222742
-0.043931 0.612451 -0.222664
-0.040998 0.611794 -0.222453
-0.038116 0.612306 -0.222606
-0.035434 0.619024 -0.224694
-0.032424 0.616384 -0.223866
-0.029459 0.614606 -0.223308
-0.026546 0.614652 -0.223318
-0.023534 0.607343 -0.221038
-0.020625 0.603829 -0.219940
-0.017772 0.605895 -0.220581
-0.014901 0.605766 -0.220539
-0.012021 0.607297 -0.221014
-0.009132 0.608275 -0.221317
-0.006143 0.615010 -0.223414
-0.003232 0.614766 -0.223338
-0.000349 0.613486 -0.222939
0.002480 0.610842 -0.222116
0.005381 0.610952 -0.222151
0.008444 0.615063 -0.223433
0.011389 0.615634 -0.223613
0.014240 0.614204 -0.223170
0.017230 0.615565 -0.223597
0.020111 0.614854 -0.223379
0.023047 0.615089 -0.223456
0.025936 0.614609 -0.223311
0.029123 0.618181 -0.224429
0.032065 0.618206 -0.224443
0.034886 0.616771 -0.224002
0.037779 0.616291 -0.223859
0.040377 0.612708 -0.222751
0.043205 0.611789 -0.222472
0.046128 0.611869 -0.222506
0.049117 0.612521 -0.222718
0.052049 0.612611 -0.222757
0.055098 0.613663 -0.223095
0.057849 0.612197 -0.222650
0.060255 0.608130 -0.221395
0.063143 0.607974 -0.221359
0.066305 0.609798 -0.221942
0.069330 0.610519 -0.222181
0.072146 0.609755 -0.221958
0.075098 0.609921 -0.222026
0.078065 0.610147 -0.222115
0.081004 0.610174 -0.222141
0.084947 0.616162 -0.224028
0.087895 0.616028 -0.224007
0.090455 0.613691 -0.223299
0.093552 0.614404 -0.223545
0.095766 0.610351 -0.222304
0.096657 0.599613 -0.218978
0.100265 0.603154 -0.220108
0.103197 0.603153 -0.220135
0.106347 0.604185 -0.220485
0.110397 0.609372 -0.222135
0.114847 0.616136 -0.224278
0.117918 0.616376 -0.224386
0.120881 0.616106 -0.224337
0.123485 0.614278 -0.223801
0.123792 0.602844 -0.220265
0.125245 0.596574 -0.218343
0.129456 0.601659 -0.219972
0.132721 0.602770 -0.220361
0.135855 0.603301 -0.220570
0.138955 0.603652 -0.220725
0.141786 0.602960 -0.220555
0.144690 0.602528 -0.220469
0.147747 0.602629 -0.220551
0.151119 0.603802 -0.220971
0.154210 0.603930 -0.221065
0.157341 0.604154 -0.221192
0.160153 0.603272 -0.220974
0.163052 0.602671 -0.220846
0.165703 0.601256 -0.220464
0.174622 0.619718 -0.226324
0.176437 0.615387 -0.225033
0.178213 0.611037 -0.223737
0.179766 0.606118 -0.222265
0.182156 0.603802 -0.221611
0.185610 0.604627 -0.221947
0.189611 0.606959 -0.222760
0.192593 0.606291 -0.222632
0.195984 0.606745 -0.222860
0.198939 0.605943 -0.222695
0.201876 0.605075 -0.222511
0.210187 0.618512 -0.226840
0.210663 0.610937 -0.224547
0.212253 0.606419 -0.223219
0.214862 0.604589 -0.222742
0.218308 0.604869 -0.222933
0.221536 0.604557 -0.222940
0.225405 0.605776 -0.223433
0.228377 0.604755 -0.223220
0.232473 0.606390 -0.223851
0.233941 0.601774 -0.222504
0.238138 0.603554 -0.223185
0.242986 0.606728 -0.224313
0.247293 0.608558 -0.225016
0.249273 0.605131 -0.224052
0.251223 0.601689 -0.223083
0.254269 0.600671 -0.222886
0.258877 0.602979 -0.223749
0.261651 0.601328 -0.223353
0.265208 0.601318 -0.223480
0.270376 0.604592 -0.224655
0.273369 0.603341 -0.224387
0.279310 0.608012 -0.226011
0.282466 0.607033 -0.225830
0.285321 0.605475 -0.225461
0.288205 0.603999 -0.225118
0.291151 0.602671 -0.224818
0.291785 0.597009 -0.223126
0.298664 0.603134 -0.225210
0.300006 0.598915 -0.223972
0.307439 0.605914 -0.226332
0.310778 0.605396 -0.226273
0.313887 0.604505 -0.226089
0.316614 0.602992 -0.225698
0.319868 0.602471 -0.225618
0.332123 0.617553 -0.230556
0.326927 0.602535 -0.225793
0.326105 0.595281 -0.223520
0.325456 0.588517 -0.221395
0.319414 0.572994 -0.216435
-0.361977 0.600789 -0.229013
-0.359932 0.602852 -0.229660
-0.357372 0.604145 -0.230044
-0.354986 0.605838 -0.230548
-0.351653 0.605974 -0.230531
-0.348125 0.605831 -0.230412
-0.344951 0.606375 -0.230511
-0.341078 0.605719 -0.230207
-0.337906 0.606376 -0.230327
-0.335231 0.608011 -0.230759
-0.332106 0.608872 -0.230931
-0.327793 0.607535 -0.230377
-0.324825 0.608764 -0.230658
-0.322231 0.610762 -0.231185
-0.318892 0.611360 -0.231250
-0.314233 0.609357 -0.230462
-0.310558 0.609279 -0.230301
-0.306124 0.607652 -0.229633
-0.302960 0.608588 -0.229799
-0.299939 0.609830 -0.230063
-0.295886 0.608905 -0.229621
-0.292575 0.609519 -0.229679
-0.289251 0.610095 -0.229725
-0.285785 0.610345 -0.229666
-0.282220 0.610350 -0.229528
-0.278334 0.609594 -0.229144
-0.274847 0.609693 -0.229040
-0.271269 0.609544 -0.228857
-0.268046 0.610185 -0.228931
-0.264337 0.609643 -0.228625
-0.260849 0.609578 -0.228475
-0.257493 0.609787 -0.228416
-0.253794 0.609106 -0.228073
-0.250630 0.609710 -0.228146
-0.247645 0.610744 -0.228360
-0.244054 0.610187 -0.228065
-0.240412 0.609430 -0.227708
-0.237230 0.609838 -0.227729
-0.234184 0.610580 -0.227859
-0.230894 0.610625 -0.227769
-0.227855 0.611329 -0.227892
-0.224664 0.611577 -0.227872
-0.220725 0.609625 -0.227150
-0.217015 0.608240 -0.226612
-0.213987 0.608799 -0.226700
-0.211230 0.610153 -0.227045
-0.208101 0.610365 -0.227027
-0.204981 0.610568 -0.227008
-0.201842 0.610675 -0.226962
-0.198352 0.609605 -0.226541
-0.195546 0.610714 -0.226820
-0.192170 0.609908 -0.226489
-0.189203 0.610432 -0.226585
-0.186125 0.610551 -0.226555
-0.182848 0.609929 -0.226290
-0.179889 0.610397 -0.226375
-0.176971 0.610995 -0.226503
-0.173853 0.610830 -0.226391
-0.170715 0.610545 -0.226242
-0.167617 0.610373 -0.226132
-0.164317 0.609355 -0.225754
-0.161204 0.609022 -0.225596
-0.158095 0.608657 -0.225430
-0.155497 0.610413 -0.225941
-0.152974 0.612542 -0.226571
-0.149509 0.610561 -0.225897
-0.146614 0.611041 -0.226006
-0.143572 0.610834 -0.225899
-0.140678 0.611290 -0.226004
-0.137807 0.611855 -0.226146
-0.134489 0.610189 -0.225580
-0.131615 0.610685 -0.225702
-0.128669 0.610800 -0.225705
-0.125656 0.610536 -0.225588
-0.122721 0.610665 -0.225598
-0.119882 0.611320 -0.225776
-0.117078 0.612198 -0.226026
-0.114150 0.612359 -0.226050
-0.110931 0.610693 -0.225495
-0.108046 0.611043 -0.225581
-0.105155 0.611359 -0.225657
-0.102253 0.611598 -0.225711
-0.099253 0.611134 -0.225542
-0.096280 0.610817 -0.225420
-0.093451 0.611559 -0.225636
-0.090499 0.611362 -0.225554
-0.087517 0.610875 -0.225382
-0.084551 0.610477 -0.225239
-0.081728 0.611305 -0.225485
-0.078790 0.611109 -0.225407
-0.075860 0.610960 -0.225345
-0.073080 0.612331 -0.225766
-0.070092 0.611567 -0.225510
-0.067169 0.611444 -0.225459
-0.064313 0.612108 -0.225658
-0.061381 0.611861 -0.225568
-0.058452 0.611596 -0.225474
-0.055500 0.610952 -0.225260
-0.052609 0.611156 -0.225316
-0.049759 0.612105 -0.225608
-0.046910 0.613232 -0.225957
-0.043946 0.612148 -0.225606
-0.041037 0.612103 -0.225585
-0.038121 0.611850 -0.225499
-0.035469 0.619509 -0.227918
-0.032455 0.616920 -0.227093
-0.029488 0.615277 -0.226568
-0.026550 0.614307 -0.226257
-0.023593 0.611275 -0.225293
-0.020676 0.609285 -0.224660
-0.017796 0.612395 -0.225642
-0.014890 0.613050 -0.225847
-0.011987 0.611899 -0.225481
-0.009067 0.613394 -0.225953
-0.006180 0.611832 -0.225458
-0.003233 0.613909 -0.226115
-0.000319 0.613897 -0.226112
0.002529 0.611720 -0.225423
0.005416 0.611218 -0.225266
0.008410 0.613493 -0.225988
0.011412 0.615438 -0.226606
0.014275 0.614214 -0.226221
0.017086 0.612235 -0.225598
0.020263 0.616690 -0.227012
0.023140 0.615836 -0.226746
0.025670 0.610085 -0.224931
0.028944 0.615067 -0.226514
0.031995 0.616615 -0.227010
0.035084 0.618427 -0.227591
0.037781 0.615626 -0.226711
0.040618 0.614587 -0.226390
0.043593 0.615031 -0.226540
0.046749 0.617158 -0.227223
0.049335 0.613841 -0.226182
0.051885 0.610473 -0.225127
0.054994 0.612086 -0.225649
0.058227 0.614564 -0.226446
0.060704 0.610942 -0.225312
0.062998 0.606193 -0.223822
0.066143 0.607929 -0.224387
0.069265 0.609369 -0.224859
0.072251 0.609770 -0.225002
0.075124 0.609390 -0.224900
0.078017 0.609145 -0.224840
0.081016 0.609545 -0.224987
0.085798 0.620517 -0.228486
0.088276 0.617514 -0.227556
0.091044 0.616292 -0.227192
0.093550 0.613675 -0.226386
0.096196 0.611926 -0.225856
0.098327 0.607574 -0.224502
0.101627 0.609325 -0.225086
0.105110 0.611874 -0.225924
0.107804 0.610478 -0.225511
0.110903 0.611023 -0.225716
0.113814 0.610662 -0.225634
0.116793 0.610593 -0.225647
0.120435 0.613409 -0.226578
0.123474 0.613486 -0.226640
0.125144 0.607787 -0.224869
0.128007 0.607201 -0.224724
0.131127 0.607650 -0.224909
0.134254 0.608076 -0.225089
0.137810 0.610116 -0.225783
0.140643 0.609303 -0.225573
0.143489 0.608540 -0.225380
0.146223 0.607367 -0.225058
0.150859 0.613015 -0.226910
0.153268 0.610594 -0.226196
0.156217 0.610092 -0.226094
0.159322 0.610102 -0.226157
0.162363 0.609863 -0.226144
0.165292 0.609227 -0.226006
0.169836 0.613779 -0.227524
0.172373 0.611787 -0.226958
0.176064 0.613416 -0.227550
0.178251 0.610349 -0.226645
0.180708 0.608154 -0.226021
0.183150 0.605945 -0.225394
0.186384 0.606076 -0.225517
0.190310 0.608148 -0.226263
0.193078 0.606844 -0.225933
0.196067 0.606150 -0.225800
0.199626 0.606999 -0.226164
0.203401 0.608364 -0.226696
0.210684 0.618981 -0.230198
0.210631 0.610006 -0.227420
0.213939 0.609933 -0.227500
0.217741 0.611075 -0.227973
0.220534 0.609608 -0.227611
0.223799 0.609304 -0.227625
0.226802 0.608325 -0.227424
0.229885 0.607524 -0.227283
0.233402 0.607730 -0.227468
0.235374 0.604268 -0.226474
0.238444 0.603394 -0.226315
0.244012 0.608192 -0.227990
0.247422 0.607971 -0.228047
0.248195 0.601867 -0.226205
0.251062 0.600469 -0.225883
0.258399 0.608726 -0.228689
0.262064 0.608905 -0.228882
0.263888 0.605169 -0.227809
0.265696 0.601465 -0.226744
0.268835 0.600558 -0.226586
0.276964 0.609762 -0.229712
0.279231 0.606984 -0.228948
0.283601 0.608411 -0.229549
0.286857 0.607616 -0.229427
0.290036 0.606683 -0.229257
0.292021 0.603488 -0.228347
0.294149 0.600639 -0.227546
0.296795 0.598825 -0.227078
0.302415 0.602541 -0.228412
0.305956 0.602402 -0.228482
0.311138 0.605245 -0.229523
0.314187 0.604252 -0.229303
0.317650 0.604046 -0.229334
0.320633 0.603046 -0.229097
0.330337 0.613708 -0.232674
0.334278 0.614362 -0.232964
0.326848 0.595834 -0.226956
0.326136 0.588975 -0.224762
0.317666 0.569449 -0.218401
-0.363829 0.603274 -0.233114
-0.360253 0.602744 -0.232907
-0.357814 0.604230 -0.233363
-0.355288 0.605669 -0.233792
-0.351580 0.605136 -0.233552
-0.348414 0.605615 -0.233640
-0.344815 0.605387 -0.233483
-0.340838 0.604527 -0.233106
-0.338476 0.606644 -0.233714
-0.335229 0.607216 -0.233799
-0.331463 0.606868 -0.233570
-0.327828 0.606787 -0.233424
-0.324823 0.607935 -0.233681
-0.322233 0.609927 -0.234214
-0.317925 0.608618 -0.233645
-0.314146 0.608331 -0.233412
-0.311004 0.609313 -0.233597
-0.307680 0.609947 -0.233664
-0.303644 0.609121 -0.233246
-0.300039 0.609159 -0.233113
-0.297046 0.610471 -0.233400
-0.293506 0.610625 -0.233304
-0.289425 0.609586 -0.232814
-0.286012 0.609956 -0.232790
-0.282248 0.609525 -0.232502
-0.278977 0.610155 -0.232566
-0.275828 0.611046 -0.232717
-0.272181 0.610770 -0.232485
-0.268211 0.609688 -0.231990
-0.264538 0.609239 -0.231706
-0.261183 0.609502 -0.231658
-0.257317 0.608481 -0.231191
-0.253896 0.608488 -0.231064
-0.250786 0.609233 -0.231181
-0.247334 0.609078 -0.231007
-0.244605 0.610750 -0.231433
-0.240975 0.610052 -0.231086
-0.237375 0.609368 -0.230747
-0.234040 0.609335 -0.230623
-0.231013 0.610104 -0.230764
-0.227763 0.610227 -0.230697
-0.224461 0.610159 -0.230571
-0.220869 0.609207 -0.230160
-0.217029 0.607452 -0.229490
-0.214373 0.609125 -0.229939
-0.211409 0.609874 -0.230090
-0.208414 0.610511 -0.230207
-0.205087 0.610085 -0.229981
-0.201919 0.610111 -0.229905
-0.198704 0.609940 -0.229768
-0.195135 0.608560 -0.229240
-0.192117 0.608935 -0.229285
-0.189377 0.610235 -0.229632
-0.186646 0.611576 -0.229995
-0.183434 0.611222 -0.229811
-0.179948 0.609830 -0.229292
-0.176852 0.609781 -0.229211
-0.174221 0.611437 -0.229685
-0.170970 0.610756 -0.229403
-0.167837 0.610469 -0.229252
-0.164219 0.608210 -0.228464
-0.161899 0.611094 -0.229343
-0.158770 0.610709 -0.229166
-0.155959 0.611628 -0.229413
-0.152818 0.611122 -0.229200
-0.149966 0.611847 -0.229388
-0.146923 0.611707 -0.229297
-0.143598 0.610223 -0.228774
-0.140700 0.610667 -0.228876
-0.137850 0.611338 -0.229053
-0.134841 0.611222 -0.228977
-0.131806 0.610943 -0.228849
-0.128810 0.610825 -0.228776
-0.125771 0.610448 -0.228620
-0.122897 0.610935 -0.228744
-0.120021 0.611413 -0.228867
-0.116966 0.610844 -0.228654
-0.114174 0.611808 -0.228936
-0.111191 0.611617 -0.228847
-0.107974 0.609891 -0.228264
-0.105115 0.610406 -0.228405
-0.102225 0.610717 -0.228481
-0.099264 0.610532 -0.228399
-0.096364 0.610754 -0.228448
-0.093507 0.611311 -0.228607
-0.090576 0.611295 -0.228582
-0.087613 0.611001 -0.228468
-0.084678 0.610899 -0.228418
-0.081767 0.610990 -0.228430
-0.078928 0.611749 -0.228658
-0.076048 0.612156 -0.228773
-0.073146 0.612360 -0.228824
-0.070075 0.610724 -0.228284
-0.067192 0.611063 -0.228380
-0.064317 0.611514 -0.228513
-0.061420 0.611721 -0.228568
-0.058442 0.610821 -0.228267
-0.055520 0.610613 -0.228190
-0.052642 0.611055 -0.228323
-0.049813 0.612413 -0.228751
-0.046910 0.612599 -0.228803
-0.043970 0.612036 -0.228614
-0.041027 0.611253 -0.228355
-0.038125 0.611355 -0.228381
-0.035528 0.620678 -0.231375
-0.032429 0.615408 -0.229674
-0.029462 0.613593 -0.229085
-0.026555 0.614072 -0.229235
-0.023627 0.613304 -0.228984
-0.020725 0.614626 -0.229406
-0.017806 0.614892 -0.229489
-0.014884 0.615526 -0.229691
-0.011962 0.615003 -0.229521
-0.009061 0.613037 -0.228888
-0.006153 0.612740 -0.228791
-0.003194 0.615025 -0.229526
-0.000252 0.615784 -0.229771
0.002647 0.614838 -0.229468
0.005543 0.614086 -0.229227
0.008507 0.615181 -0.229582
0.011354 0.613436 -0.229023
0.014170 0.611396 -0.228370
0.017160 0.612872 -0.228848
0.020304 0.616680 -0.230078
0.023079 0.614184 -0.229280
0.025717 0.610065 -0.227960
0.028810 0.612574 -0.228773
0.032050 0.616616 -0.230081
0.035093 0.617825 -0.230477
0.037948 0.616793 -0.230153
0.040956 0.617474 -0.230381
0.044348 0.621954 -0.231832
0.047120 0.620022 -0.231221
0.049665 0.616172 -0.229993
0.052216 0.612691 -0.228884
0.055195 0.613085 -0.229024
0.058322 0.614629 -0.229534
0.061250 0.614489 -0.229503
0.062900 0.604770 -0.226390
0.066129 0.607132 -0.227166
0.069311 0.608984 -0.227779
0.072329 0.609594 -0.227993
0.075109 0.608585 -0.227687
0.078400 0.610862 -0.228440
0.081088 0.609278 -0.227951
0.085904 0.620421 -0.231563
0.088721 0.619362 -0.231245
0.091386 0.617485 -0.230665
0.094424 0.617728 -0.230769
0.096369 0.612125 -0.228990
0.098883 0.609730 -0.228246
0.103003 0.615549 -0.230152
0.106241 0.616710 -0.230558
0.109083 0.615890 -0.230326
0.111537 0.613264 -0.229513
0.113925 0.610430 -0.228633
0.116542 0.608726 -0.228120
0.120053 0.610984 -0.228887
0.123422 0.612512 -0.229421
0.126303 0.611901 -0.229265
0.128824 0.609807 -0.228632
0.131899 0.610001 -0.228740
0.134774 0.609365 -0.228582
0.137773 0.609209 -0.228580
0.141361 0.611256 -0.229293
0.144381 0.611084 -0.229290
0.147227 0.610253 -0.229076
0.150478 0.610868 -0.229332
0.154241 0.613226 -0.230155
0.157479 0.613657 -0.230356
0.160076 0.611862 -0.229838
0.163277 0.612109 -0.229984
0.166313 0.611768 -0.229942
0.169109 0.610633 -0.229645
0.172292 0.610720 -0.229746
0.175783 0.611727 -0.230148
0.178989 0.611787 -0.230246
0.181242 0.608941 -0.229403
0.183608 0.606480 -0.228686
0.186851 0.606611 -0.228815
0.190547 0.607997 -0.229354
0.193646 0.607612 -0.229319
0.197274 0.608669 -0.229757
0.200441 0.608390 -0.229763
0.203768 0.608505 -0.229900
0.210330 0.617173 -0.232829
0.212692 0.614544 -0.232078
0.215022 0.611864 -0.231313
0.219019 0.613456 -0.231945
0.220284 0.608109 -0.230312
0.224851 0.611031 -0.231384
0.228698 0.612071 -0.231845
0.232563 0.613082 -0.232299
0.235824 0.612588 -0.232263
0.236812 0.606751 -0.230478
0.238457 0.602544 -0.229228
0.246643 0.613288 -0.232886
0.248732 0.610022 -0.231949
0.248703 0.602111 -0.229486
0.253879 0.605743 -0.230818
0.260424 0.612201 -0.233083
0.264902 0.614053 -0.233836
0.266646 0.610079 -0.232670
0.268556 0.606520 -0.231640
0.274065 0.610399 -0.233064
0.276944 0.608833 -0.232692
0.281064 0.609766 -0.233144
0.284742 0.609787 -0.233294
0.289104 0.611127 -0.233880
0.292974 0.611481 -0.234137
0.295348 0.608972 -0.233443
0.298639 0.608249 -0.233337
0.301175 0.606144 -0.232769
0.303221 0.603198 -0.231916
0.307766 0.604880 -0.232594
0.311267 0.604671 -0.232639
0.314691 0.604359 -0.232643
0.317653 0.603274 -0.232383
0.321819 0.604350 -0.232835
0.334088 0.619412 -0.237940
0.331518 0.608908 -0.234516
0.332800 0.605179 -0.233339
0.328869 0.592864 -0.229287
0.339909 0.605650 -0.233599
-0.363021 0.601280 -0.235727
-0.360497 0.602505 -0.236115
-0.357901 0.603707 -0.236484
-0.354763 0.604066 -0.236555
-0.351013 0.603434 -0.236279
-0.347894 0.603968 -0.236388
-0.345632 0.606101 -0.237030
-0.341396 0.604774 -0.236489
-0.338381 0.605692 -0.236700
-0.335291 0.606537 -0.236878
-0.331673 0.606453 -0.236734
-0.328443 0.607129 -0.236841
-0.325404 0.608210 -0.237079
-0.321332 0.607341 -0.236652
-0.317830 0.607577 -0.236594
-0.314543 0.608253 -0.236680
-0.311207 0.608848 -0.236736
-0.307748 0.609205 -0.236708
-0.304048 0.609069 -0.236513
-0.300407 0.609037 -0.236351
-0.297002 0.609486 -0.236350
-0.293565 0.609855 -0.236322
-0.289972 0.609872 -0.236175
-0.285890 0.608788 -0.235660
-0.282632 0.609477 -0.235740
-0.279357 0.610108 -0.235801
-0.275902 0.610314 -0.235722
-0.272591 0.610816 -0.235743
-0.268575 0.609644 -0.235206
-0.264512 0.608283 -0.234609
-0.261480 0.609326 -0.234818
-0.258267 0.609911 -0.234875
-0.254805 0.609852 -0.234720
-0.251167 0.609306 -0.234406
-0.247764 0.609294 -0.234273
-0.244545 0.609714 -0.234286
-0.241522 0.610616 -0.234462
-0.237675 0.609299 -0.233903
-0.235057 0.611225 -0.234425
-0.230795 0.608641 -0.233452
-0.227605 0.608927 -0.233436
-0.223981 0.607944 -0.233002
-0.220780 0.608103 -0.232949
-0.217471 0.607907 -0.232781
-0.214821 0.609619 -0.233248
-0.211776 0.610147 -0.233325
-0.208500 0.609942 -0.233163
-0.205327 0.610009 -0.233094
-0.201728 0.608681 -0.232567
-0.198810 0.609466 -0.232740
-0.195702 0.609616 -0.232706
-0.192334 0.608857 -0.232376
-0.189689 0.610494 -0.232837
-0.186778 0.611233 -0.233006
-0.183691 0.611335 -0.232966
-0.180099 0.609586 -0.232319
-0.177288 0.610597 -0.232584
-0.174367 0.611204 -0.232718
-0.171155 0.610685 -0.232484
-0.167983 0.610264 -0.232284
-0.165031 0.610670 -0.232358
-0.162147 0.611335 -0.232519
-0.159243 0.611911 -0.232653
-0.156101 0.611470 -0.232455
-0.152985 0.611092 -0.232280
-0.149972 0.611124 -0.232241
-0.146759 0.610220 -0.231897
-0.143756 0.610216 -0.231850
-0.140819 0.610495 -0.231898
-0.137915 0.610920 -0.231995
-0.134959 0.611085 -0.232009
-0.131948 0.610941 -0.231923
-0.128969 0.610936 -0.231884
-0.125938 0.610627 -0.231747
-0.122952 0.610524 -0.231679
-0.119929 0.610175 -0.231532
-0.116819 0.609275 -0.231205
-0.114056 0.610389 -0.231540
-0.111134 0.610562 -0.231568
-0.108337 0.611522 -0.231855
-0.105151 0.609952 -0.231314
-0.102227 0.610044 -0.231319
-0.099336 0.610351 -0.231396
-0.096422 0.610500 -0.231421
-0.093520 0.610725 -0.231473
-0.090596 0.610773 -0.231468
-0.087583 0.610074 -0.231219
-0.084721 0.610598 -0.231372
-0.081830 0.610885 -0.231448
-0.078864 0.610476 -0.231297
-0.076042 0.611433 -0.231594
-0.073177 0.612018 -0.231770
-0.070255 0.612028 -0.231759
-0.067218 0.610706 -0.231313
-0.064320 0.610899 -0.231363
-0.061453 0.611499 -0.231547
-0.058519 0.611239 -0.231451
-0.055569 0.610697 -0.231263
-0.052706 0.611449 -0.231499
-0.049825 0.611979 -0.231663
-0.046911 0.611982 -0.231655
-0.043938 0.610745 -0.231243
-0.041038 0.610894 -0.231284
-0.038175 0.612045 -0.231654
-0.035617 0.622764 -0.235151
-0.032439 0.615194 -0.232671
-0.029511 0.615113 -0.232640
-0.026626 0.617341 -0.233364
-0.023701 0.618278 -0.233666
-0.020760 0.618321 -0.233677
-0.017823 0.619390 -0.234023
-0.014877 0.619016 -0.233899
-0.011951 0.615762 -0.232834
-0.009075 0.610888 -0.231240
-0.006039 0.619168 -0.233945
-0.003095 0.619040 -0.233904
-0.000113 0.620441 -0.234363
0.002934 0.623504 -0.235365
0.005906 0.623603 -0.235399
0.008638 0.617716 -0.233477
0.011407 0.613892 -0.232230
0.014193 0.611144 -0.231336
0.017460 0.617629 -0.233459
0.020481 0.618922 -0.233887
0.022884 0.610457 -0.231126
0.026323 0.618049 -0.233613
0.029365 0.619303 -0.234030
0.032347 0.619637 -0.234146
0.034930 0.615191 -0.232701
0.038301 0.620034 -0.234293
0.041579 0.623383 -0.235397
0.044626 0.624046 -0.235625
0.047296 0.621007 -0.234642
0.050081 0.619284 -0.234091
0.052874 0.617760 -0.233605
0.055590 0.615696 -0.232944
0.058804 0.617809 -0.233649
0.061505 0.615756 -0.232993
0.063128 0.605776 -0.229745
0.066358 0.608076 -0.230514
0.069465 0.609347 -0.230948
0.072447 0.609677 -0.231075
0.075466 0.610203 -0.231267
0.078303 0.609531 -0.231068
0.081129 0.608811 -0.230855
0.086081 0.620740 -0.234783
0.088969 0.620057 -0.234584
0.092070 0.620588 -0.234785
0.095343 0.622004 -0.235276
0.098268 0.621475 -0.235132
0.099609 0.612757 -0.232306
0.102175 0.610630 -0.231641
0.106593 0.617694 -0.233988
0.110426 0.621584 -0.235298
0.113361 0.621064 -0.235163
0.115233 0.615667 -0.233432
0.117771 0.613471 -0.232751
0.121274 0.615570 -0.233480
0.124592 0.616760 -0.233913
0.126943 0.613815 -0.232992
0.130253 0.614902 -0.233394
0.132843 0.613023 -0.232826
0.135207 0.610301 -0.231982
0.138428 0.610961 -0.232250
0.141832 0.612258 -0.232730
0.145177 0.613255 -0.233113
0.148378 0.613655 -0.233303
0.150870 0.611478 -0.232647
0.154712 0.614079 -0.233565
0.158257 0.615532 -0.234109
0.161161 0.614729 -0.233912
0.164014 0.613747 -0.233658
0.167047 0.613353 -0.233600
0.170041 0.612807 -0.233495
0.174634 0.617293 -0.235051
0.177418 0.615973 -0.234696
0.179952 0.613895 -0.234094
0.182062 0.610572 -0.233082
0.182046 0.601028 -0.230018
0.186877 0.605850 -0.231700
0.190636 0.607409 -0.232308
0.194082 0.607995 -0.232597
0.197201 0.607612 -0.232569
0.200564 0.607867 -0.232755
0.206004 0.613666 -0.234780
0.210327 0.616285 -0.235756
0.213737 0.616397 -0.235905
0.216201 0.614023 -0.235233
0.218443 0.611108 -0.234383
0.221641 0.610627 -0.234343
0.225654 0.612124 -0.234963
0.228654 0.611070 -0.234739
0.233612 0.614698 -0.236075
0.236563 0.613436 -0.235786
0.239487 0.612099 -0.235476
0.243301 0.612805 -0.235848
0.247677 0.614727 -0.236629
0.251927 0.616275 -0.237288
0.254980 0.615095 -0.237038
0.256596 0.610772 -0.235739
0.261463 0.613524 -0.236807
0.265569 0.614556 -0.237302
0.268422 0.612899 -0.236897
0.271839 0.612422 -0.236887
0.274956 0.611316 -0.236667
0.278043 0.610154 -0.236427
0.282728 0.612191 -0.237262
0.285784 0.610950 -0.236994
0.290323 0.612614 -0.237701
0.293307 0.611241 -0.237384
0.295407 0.608215 -0.236507
0.299400 0.608819 -0.236849
0.301631 0.606144 -0.236081
0.304486 0.604688 -0.235718
0.308109 0.604679 -0.235839
0.311713 0.604662 -0.235950
0.314837 0.603821 -0.235777
0.317918 0.602958 -0.235588
0.320821 0.601847 -0.235306
0.324656 0.602409 -0.235583
0.328194 0.602506 -0.235692
0.331719 0.602637 -0.235803
0.335055 0.602511 -0.235817
0.337139 0.600385 -0.235142
-0.363606 0.601635 -0.239136
-0.361207 0.603059 -0.239602
-0.358242 0.603619 -0.239757
-0.354996 0.603779 -0.239762
-0.351243 0.603126 -0.239475
-0.348015 0.603453 -0.239516
-0.345473 0.605068 -0.239991
-0.342335 0.605702 -0.240117
-0.338657 0.605413 -0.239917
-0.335685 0.606465 -0.240169
-0.332249 0.606712 -0.240136
-0.329042 0.607429 -0.240258
-0.325809 0.608142 -0.240372
-0.321725 0.607247 -0.239928
-0.318558 0.608138 -0.240092
-0.315095 0.608471 -0.240060
-0.311436 0.608425 -0.239895
-0.307775 0.608371 -0.239724
-0.304237 0.608561 -0.239635
-0.300595 0.608528 -0.239467
-0.296787 0.608128 -0.239173
-0.293456 0.608714 -0.239216
-0.290179 0.609407 -0.239295
-0.286285 0.608741 -0.238910
-0.282966 0.609302 -0.238945
-0.279884 0.610379 -0.239156
-0.276242 0.610172 -0.238931
-0.272173 0.608937 -0.238359
-0.268460 0.608461 -0.238047
-0.264961 0.608439 -0.237892
-0.261469 0.608392 -0.237730
-0.258274 0.609024 -0.237801
-0.254998 0.609429 -0.237798
-0.251709 0.609768 -0.237775
-0.247940 0.608847 -0.237328
-0.244587 0.608931 -0.237225
-0.241446 0.609525 -0.237296
-0.238441 0.610455 -0.237484
-0.234305 0.608308 -0.236637
-0.230858 0.607941 -0.236394
-0.226947 0.606220 -0.235697
-0.224617 0.608881 -0.236480
-0.221464 0.609211 -0.236481
-0.218459 0.609938 -0.236618
-0.214887 0.608962 -0.236185
-0.211624 0.608841 -0.236043
-0.208595 0.609389 -0.236129
-0.205523 0.609780 -0.236165
-0.202374 0.609899 -0.236112
-0.199129 0.609668 -0.235945
-0.195680 0.608718 -0.235539
-0.192430 0.608357 -0.235334
-0.189561 0.609242 -0.235549
-0.186816 0.610553 -0.235909
-0.183736 0.610686 -0.235878
-0.180401 0.609870 -0.235531
-0.177262 0.609704 -0.235404
-0.174266 0.610030 -0.235444
-0.171143 0.609851 -0.235317
-0.168065 0.609801 -0.235236
-0.165189 0.610517 -0.235413
-0.162311 0.611221 -0.235589
-0.159297 0.611359 -0.235577
-0.156228 0.611241 -0.235482
-0.152987 0.610337 -0.235127
-0.149977 0.610386 -0.235092
-0.146982 0.610474 -0.235071
-0.143813 0.609731 -0.234776
-0.140900 0.610134 -0.234864
-0.138108 0.611112 -0.235146
-0.135177 0.611426 -0.235208
-0.132064 0.610799 -0.234959
-0.128981 0.610269 -0.234743
-0.125944 0.609932 -0.234593
-0.123023 0.610187 -0.234642
-0.120082 0.610326 -0.234654
-0.117101 0.610207 -0.234581
-0.114209 0.610597 -0.234679
-0.111337 0.611109 -0.234820
-0.108437 0.611458 -0.234907
-0.105465 0.611322 -0.234834
-0.102434 0.610758 -0.234619
-0.099499 0.610810 -0.234612
-0.096512 0.610467 -0.234474
-0.093562 0.610355 -0.234413
-0.090703 0.610929 -0.234582
-0.087677 0.610168 -0.234309
-0.084801 0.610605 -0.234434
-0.081887 0.610716 -0.234452
-0.078910 0.610237 -0.234275
-0.076059 0.610926 -0.234487
-0.073206 0.611646 -0.234710
-0.070247 0.611273 -0.234571
-0.067319 0.611205 -0.234534
-0.064354 0.610647 -0.234335
-0.061426 0.610494 -0.234272
-0.058551 0.611037 -0.234440
-0.055621 0.610817 -0.234356
-0.052714 0.610927 -0.234382
-0.049832 0.611468 -0.234552
-0.046918 0.611478 -0.234546
-0.044022 0.611857 -0.234664
-0.041117 0.612113 -0.234741
-0.038204 0.612198 -0.234763
-0.035694 0.624476 -0.238832
-0.032699 0.623784 -0.238597
-0.029766 0.625453 -0.239146
-0.026809 0.626714 -0.239560
-0.023838 0.627857 -0.239935
-0.020801 0.622640 -0.238200
-0.017839 0.623698 -0.238549
-0.014871 0.621324 -0.237758
-0.011887 0.625313 -0.239081
-0.005923 0.625652 -0.239192
-0.002943 0.625564 -0.239163
0.000055 0.626219 -0.239381
0.003037 0.626133 -0.239354
0.006327 0.634739 -0.242213
0.009215 0.631260 -0.241061
0.012135 0.629242 -0.240395
0.015089 0.628287 -0.240082
0.018230 0.630877 -0.240946
0.021193 0.630070 -0.240684
0.023939 0.626024 -0.239346
0.026672 0.622330 -0.238126
0.029553 0.621101 -0.237726
0.032677 0.623070 -0.238388
0.035483 0.621022 -0.237717
0.038840 0.625350 -0.239163
0.041732 0.624280 -0.238818
0.044575 0.622800 -0.238338
0.047394 0.621219 -0.237825
0.050199 0.619637 -0.237312
0.053349 0.621202 -0.237846
0.056708 0.624375 -0.238914
0.059280 0.620933 -0.237786
0.061923 0.618281 -0.236922
0.063566 0.608336 -0.233635
0.066526 0.608576 -0.233733
0.069601 0.609576 -0.234084
0.072601 0.609990 -0.234242
0.075557 0.610072 -0.234291
0.078477 0.609904 -0.234257
0.081766 0.611978 -0.234970
0.086120 0.620231 -0.237740
0.089090 0.620014 -0.237694
0.092322 0.621251 -0.238133
0.095602 0.622665 -0.238633
0.098730 0.623171 -0.238832
0.100411 0.616152 -0.236529
0.103060 0.614341 -0.235959
0.107608 0.621922 -0.238518
0.111256 0.624800 -0.239513
0.113433 0.620631 -0.238163
0.115597 0.616568 -0.236850
0.119913 0.622279 -0.238794
0.124159 0.627404 -0.240545
0.127862 0.629959 -0.241442
0.128899 0.621224 -0.238579
0.130878 0.616682 -0.237113
0.133715 0.615741 -0.236850
0.136519 0.614675 -0.236548
0.139634 0.614817 -0.236650
0.142271 0.613123 -0.236141
0.146363 0.616847 -0.237444
0.149417 0.616629 -0.237432
0.154069 0.622085 -0.239319
0.156033 0.617895 -0.237985
0.158624 0.615975 -0.237412
0.161480 0.614984 -0.237152
0.164788 0.615492 -0.237395
0.167563 0.614208 -0.237042
0.172396 0.619528 -0.238901
0.176120 0.621135 -0.239522
0.178550 0.618639 -0.238770
0.180735 0.615438 -0.237784
0.182582 0.611285 -0.236481
0.184826 0.608396 -0.235604
0.187775 0.607608 -0.235434
0.190236 0.605407 -0.234792
0.193719 0.606112 -0.235128
0.197452 0.607444 -0.235679
0.200416 0.606594 -0.235500
0.205068 0.610267 -0.236845
0.209218 0.612456 -0.237695
0.213838 0.615766 -0.238927
0.216871 0.614850 -0.238738
0.218271 0.609776 -0.237150
0.221478 0.609318 -0.237120
0.223789 0.606623 -0.236338
0.227749 0.607963 -0.236921
0.230199 0.605608 -0.236258
0.235796 0.610707 -0.238120
0.237483 0.606513 -0.236840
0.240846 0.606242 -0.236889
0.245003 0.607738 -0.237541
0.248006 0.606571 -0.237291
0.250269 0.603765 -0.236486
0.253141 0.602320 -0.236145
0.257169 0.603364 -0.236651
0.260489 0.602844 -0.236626
0.263867 0.602429 -0.236638
0.268142 0.603852 -0.237277
0.271010 0.602337 -0.236915
0.275735 0.604587 -0.237837
0.278028 0.601914 -0.237077
0.282778 0.604129 -0.237987
0.286707 0.604683 -0.238327
0.289461 0.602960 -0.237886
0.294167 0.604981 -0.238724
0.297994 0.605310 -0.238979
0.301220 0.604526 -0.238847
0.304233 0.603383 -0.238587
0.308124 0.603877 -0.238884
0.312386 0.605052 -0.239408
0.315567 0.604315 -0.239268
0.318030 0.602372 -0.238704
0.320868 0.601161 -0.238384
0.324884 0.602050 -0.238777
0.328819 0.602836 -0.239125
0.331912 0.602246 -0.238989
0.334661 0.601156 -0.238669
0.336467 0.598598 -0.237832
-0.367020 0.606737 -0.244222
-0.362451 0.604517 -0.243419
-0.358776 0.603862 -0.243152
-0.355786 0.604453 -0.243311
-0.352255 0.604182 -0.243155
-0.350504 0.607111 -0.244110
-0.346562 0.606259 -0.243729
-0.343699 0.607389 -0.244032
-0.339970 0.607018 -0.243799
-0.336045 0.606323 -0.243444
-0.332899 0.607103 -0.243597
-0.329436 0.607338 -0.243552
-0.326009 0.607675 -0.243535
-0.322505 0.607891 -0.243470
-0.318949 0.608028 -0.243373
-0.315795 0.608972 -0.243552
-0.311862 0.608385 -0.243194
-0.308103 0.608137 -0.242951
-0.304751 0.608708 -0.242990
-0.300958 0.608369 -0.242711
-0.296740 0.607116 -0.242113
-0.293449 0.607779 -0.242181
-0.290276 0.608692 -0.242335
-0.286445 0.608168 -0.241990
-0.283445 0.609436 -0.242267
-0.280435 0.610686 -0.242538
-0.277481 0.612059 -0.242852
-0.272347 0.608412 -0.241434
-0.269001 0.608802 -0.241413
-0.265211 0.608110 -0.241020
-0.261801 0.608270 -0.240924
-0.258245 0.608034 -0.240694
-0.255078 0.608710 -0.240780
-0.251705 0.608843 -0.240683
-0.248233 0.608685 -0.240488
-0.244803 0.608582 -0.240316
-0.241519 0.608814 -0.240261
-0.238379 0.609390 -0.240327
-0.234641 0.608321 -0.239833
-0.231631 0.609172 -0.239999
-0.228108 0.608572 -0.239672
-0.224796 0.608507 -0.239532
-0.221544 0.608563 -0.239436
-0.218532 0.609278 -0.239568
-0.214702 0.607547 -0.238868
-0.211961 0.608994 -0.239257
-0.208701 0.608859 -0.239108
-0.205664 0.609367 -0.239181
-0.202560 0.609641 -0.239178
-0.199452 0.609868 -0.239161
-0.196267 0.609807 -0.239050
-0.192355 0.607276 -0.238100
-0.189553 0.608388 -0.238393
-0.186749 0.609493 -0.238687
-0.183786 0.610041 -0.238794
-0.180646 0.609935 -0.238680
-0.177256 0.608873 -0.238245
-0.174174 0.608884 -0.238177
-0.171130 0.609001 -0.238147
-0.168262 0.609772 -0.238341
-0.165469 0.610835 -0.238637
-0.162421 0.610879 -0.238589
-0.159317 0.610657 -0.238454
-0.156089 0.609873 -0.238130
-0.153016 0.609687 -0.238011
-0.150122 0.610255 -0.238149
-0.147115 0.610309 -0.238115
-0.143913 0.609431 -0.237768
-0.140983 0.609769 -0.237835
-0.138197 0.610789 -0.238134
-0.135352 0.611545 -0.238345
-0.132266 0.611082 -0.238146
-0.128978 0.609512 -0.237574
-0.126051 0.609768 -0.237621
-0.123163 0.610226 -0.237738
-0.120268 0.610646 -0.237844
-0.117276 0.610503 -0.237761
-0.114464 0.611404 -0.238032
-0.111510 0.611463 -0.238020
-0.108466 0.610924 -0.237808
-0.105538 0.611092 -0.237835
-0.102562 0.610922 -0.237750
-0.099585 0.610710 -0.237652
-0.096576 0.610228 -0.237464
-0.093621 0.610103 -0.237398
-0.090702 0.610228 -0.237417
-0.087882 0.611157 -0.237709
-0.084936 0.611067 -0.237658
-0.081949 0.610579 -0.237473
-0.079000 0.610391 -0.237391
-0.076135 0.610988 -0.237575
-0.073196 0.610861 -0.237515
-0.070290 0.611059 -0.237566
-0.067352 0.610910 -0.237501
-0.064442 0.611050 -0.237534
-0.061482 0.610549 -0.237352
-0.058527 0.610033 -0.237165
-0.055643 0.610490 -0.237308
-0.052739 0.610666 -0.237356
-0.049830 0.610779 -0.237384
-0.047008 0.612541 -0.237969
-0.044093 0.612699 -0.238014
-0.041120 0.611552 -0.237619
-0.038199 0.611439 -0.237574
-0.035291 0.611664 -0.237643
-0.032358 0.611107 -0.237449
-0.029452 0.611432 -0.237553
-0.026532 0.611123 -0.237445
-0.023619 0.611149 -0.237449
-0.020713 0.612012 -0.237737
-0.017798 0.612580 -0.237926
-0.014879 0.612144 -0.237777
-0.011962 0.611966 -0.237715
-0.009047 0.611713 -0.237629
-0.006131 0.611730 -0.237635
-0.003221 0.611375 -0.237516
-0.000306 0.611369 -0.237515
0.002633 0.612150 -0.237780
0.005525 0.611359 -0.237515
0.008469 0.612050 -0.237751
0.011409 0.612480 -0.237900
0.014311 0.612039 -0.237755
0.017227 0.611933 -0.237725
0.020127 0.611563 -0.237605
0.023023 0.611178 -0.237482
0.025974 0.611609 -0.237634
0.029061 0.613798 -0.238380
0.032028 0.614187 -0.238520
0.034832 0.612604 -0.237995
0.037752 0.612462 -0.237958
0.040673 0.612337 -0.237926
0.043577 0.612034 -0.237836
0.046541 0.612314 -0.237943
0.049490 0.612423 -0.237993
0.052402 0.612175 -0.237924
0.055249 0.611392 -0.237675
0.058390 0.613022 -0.238241
0.061245 0.612293 -0.238013
0.063797 0.609341 -0.237035
0.066727 0.609297 -0.237039
0.069745 0.609851 -0.237247
0.072803 0.610622 -0.237528
0.075696 0.610247 -0.237425
0.078589 0.609877 -0.237323
0.081655 0.610560 -0.237579
0.084721 0.611187 -0.237817
0.087661 0.611035 -0.237794
0.090577 0.610730 -0.237720
0.093499 0.610455 -0.237658
0.096593 0.611083 -0.237902
0.099909 0.612801 -0.238516
0.102389 0.610207 -0.237674
0.105761 0.612090 -0.238347
0.108393 0.610313 -0.237784
0.111471 0.610681 -0.237949
0.114664 0.611532 -0.238278
0.117619 0.611254 -0.238227
0.120505 0.610664 -0.238073
0.123547 0.610734 -0.238143
0.126472 0.610289 -0.238042
0.129288 0.609385 -0.237787
0.132175 0.608773 -0.237632
0.135721 0.610742 -0.238354
0.138312 0.608930 -0.237797
0.141345 0.608822 -0.237820
0.144582 0.609443 -0.238092
0.147607 0.609240 -0.238087
0.150367 0.608065 -0.237754
0.153219 0.607223 -0.237537
0.156682 0.608475 -0.238033
0.159677 0.608068 -0.237969
0.162475 0.606987 -0.237677
0.165398 0.606312 -0.237526
0.168338 0.605682 -0.237393
0.172691 0.609481 -0.238770
0.175222 0.607474 -0.238174
0.178393 0.607445 -0.238254
0.181544 0.607314 -0.238302
0.184304 0.605999 -0.237950
0.187794 0.606799 -0.238321
0.190925 0.606509 -0.238324
0.194545 0.607563 -0.238788
0.197590 0.606948 -0.238687
0.200649 0.606347 -0.238592
0.203809 0.605993 -0.238585
0.207770 0.607727 -0.239296
0.210914 0.607234 -0.239248
0.214383 0.607549 -0.239480
0.217300 0.606411 -0.239216
0.220341 0.605570 -0.239058
0.223993 0.606214 -0.239412
0.226613 0.604294 -0.238888
0.230166 0.604612 -0.239136
0.233893 0.605291 -0.239512
0.236885 0.604199 -0.239280
0.239783 0.602878 -0.238972
0.243641 0.603726 -0.239413
0.247150 0.603733 -0.239568
0.250383 0.603091 -0.239500
0.253694 0.602602 -0.239486
0.258308 0.604886 -0.240433
0.261571 0.604216 -0.240360
0.265444 0.604809 -0.240725
0.269315 0.605355 -0.241074
0.272463 0.604388 -0.240899
0.274699 0.601586 -0.240087
0.280116 0.605163 -0.241488
0.283830 0.605294 -0.241691
0.286996 0.604346 -0.241518
0.290522 0.604108 -0.241588
0.294629 0.604977 -0.242041
0.297839 0.604148 -0.241898
0.300958 0.603182 -0.241702
0.304510 0.603044 -0.241790
0.308389 0.603523 -0.242087
0.312415 0.604282 -0.242475
0.316062 0.604387 -0.242627
0.318714 0.602783 -0.242173
0.321701 0.601837 -0.241939
0.325754 0.602791 -0.242361
0.329779 0.603732 -0.242769
0.332889 0.603175 -0.242641
0.334799 0.600692 -0.241826
0.337147 0.599048 -0.241293
-0.367294 0.606568 -0.247492
-0.362442 0.603855 -0.246503
-0.359024 0.603617 -0.246383
-0.356402 0.604825 -0.246767
-0.353685 0.605965 -0.247113
-0.350488 0.606348 -0.247179
-0.347379 0.606959 -0.247314
-0.343560 0.606366 -0.247009
-0.340115 0.606492 -0.246950
-0.336718 0.606755 -0.246931
-0.333288 0.607003 -0.246897
-0.330125 0.607793 -0.247048
-0.326185 0.607156 -0.246685
-0.322857 0.607702 -0.246736
-0.319250 0.607736 -0.246599
-0.315937 0.608360 -0.246666
-0.312601 0.608960 -0.246721
-0.308971 0.608981 -0.246567
-0.305430 0.609182 -0.246474
-0.300905 0.607340 -0.245657
-0.297800 0.608414 -0.245869
-0.294472 0.609023 -0.245915
-0.291249 0.609852 -0.246039
-0.287721 0.610014 -0.245927
-0.283943 0.609598 -0.245612
-0.280778 0.610511 -0.245766
-0.277358 0.610835 -0.245714
-0.273934 0.611125 -0.245651
-0.269292 0.608541 -0.244583
-0.265813 0.608597 -0.244443
-0.262380 0.608722 -0.244329
-0.259024 0.608997 -0.244271
-0.255402 0.608578 -0.243972
-0.252014 0.608691 -0.243863
-0.248778 0.609144 -0.243875
-0.245135 0.608519 -0.243514
-0.241787 0.608599 -0.243402
-0.238827 0.609666 -0.243637
-0.235631 0.610084 -0.243650
-0.231886 0.608966 -0.243130
-0.228755 0.609473 -0.243180
-0.225620 0.609938 -0.243218
-0.221226 0.606762 -0.241995
-0.218590 0.608563 -0.242503
-0.215625 0.609403 -0.242681
-0.212235 0.608946 -0.242413
-0.209076 0.609136 -0.242371
-0.205833 0.609027 -0.242229
-0.202714 0.609266 -0.242211
-0.199447 0.608993 -0.242019
-0.196592 0.610021 -0.242280
-0.193270 0.609487 -0.242003
-0.189732 0.608158 -0.241455
-0.186754 0.608677 -0.241548
-0.183912 0.609654 -0.241802
-0.180877 0.609938 -0.241820
-0.177488 0.608902 -0.241384
-0.174316 0.608596 -0.241203
-0.171769 0.610618 -0.241828
-0.168735 0.610796 -0.241819
-0.165633 0.610680 -0.241711
-0.162566 0.610666 -0.241641
-0.159212 0.609429 -0.241152
-0.156067 0.608993 -0.240941
-0.153186 0.609638 -0.241104
-0.150295 0.610235 -0.241253
-0.147265 0.610208 -0.241189
-0.144186 0.609920 -0.241038
-0.141095 0.609528 -0.240853
-0.138359 0.610811 -0.241246
-0.135393 0.610987 -0.241260
-0.132108 0.609522 -0.240712
-0.129171 0.609766 -0.240753
-0.126142 0.609507 -0.240623
-0.123205 0.609713 -0.240654
-0.120344 0.610337 -0.240830
-0.117440 0.610721 -0.240926
-0.114482 0.610779 -0.240911
-0.111576 0.611141 -0.241002
-0.108570 0.610858 -0.240873
-0.105546 0.610423 -0.240693
-0.102672 0.610951 -0.240845
-0.099648 0.610438 -0.240642
