ply
format ascii 1.0
comment ---
element vertex 1681
property float x
property float y
property float z
element face 0
property list uchar uint vertex_indices
end_header
-0.008950 0.592892 -0.266491
-0.004541 0.594129 -0.266991
-0.000161 0.592613 -0.266623
0.004244 0.592982 -0.266854
0.008607 0.591515 -0.266506
0.012971 0.590506 -0.266306
0.017299 0.588684 -0.265850
0.021751 0.590391 -0.266515
0.026242 0.592594 -0.267340
0.030910 0.597898 -0.269151
0.035437 0.599608 -0.269826
0.039742 0.597230 -0.269207
0.044023 0.594789 -0.268569
0.048316 0.592847 -0.268092
0.052968 0.596000 -0.269237
0.057118 0.592315 -0.268211
0.061001 0.585809 -0.266288
0.065372 0.585532 -0.266349
0.070161 0.589751 -0.267845
0.074487 0.588770 -0.267688
0.079012 0.589791 -0.268171
0.083864 0.593723 -0.269587
0.089211 0.601687 -0.272294
0.093038 0.595974 -0.270638
0.096655 0.588967 -0.268570
0.100835 0.586901 -0.268082
0.105398 0.587847 -0.268560
0.109867 0.588005 -0.268789
0.114934 0.592330 -0.270357
0.119610 0.593666 -0.270972
0.123170 0.587511 -0.269187
0.126910 0.582855 -0.267885
0.132714 0.591232 -0.270770
0.137640 0.593797 -0.271795
0.142225 0.594179 -0.272122
0.145814 0.588851 -0.270615
0.152799 0.602516 -0.275228
0.156060 0.595409 -0.273155
0.160731 0.596005 -0.273568
0.165818 0.598649 -0.274647
0.170370 0.598459 -0.274815
0.173863 0.593101 -0.273317
0.177597 0.589097 -0.272259
0.181881 0.587776 -0.272072
0.187188 0.591096 -0.273393
0.192057 0.592288 -0.274031
0.196862 0.593103 -0.274552
0.201884 0.594756 -0.275351
0.206699 0.595439 -0.275841
0.210741 0.592910 -0.275290
0.214368 0.588784 -0.274223
0.219045 0.588864 -0.274531
0.223430 0.587779 -0.274464
0.227970 0.587263 -0.274589
0.234880 0.595415 -0.277555
0.240536 0.598696 -0.278938
0.245114 0.597990 -0.279021
0.250266 0.599250 -0.279757
0.254335 0.596717 -0.279253
0.260050 0.599730 -0.280578
0.266754 0.605840 -0.282933
0.267100 0.591113 -0.278429
0.270063 0.585151 -0.276814
0.278780 0.597324 -0.281195
0.283253 0.595986 -0.281122
0.289414 0.599740 -0.282743
0.294180 0.599157 -0.282935
0.298779 0.598045 -0.282959
0.301902 0.592647 -0.281565
0.306482 0.591492 -0.281587
0.311421 0.591317 -0.281942
0.316459 0.591352 -0.282375
0.322189 0.593203 -0.283424
0.327966 0.595061 -0.284484
0.331978 0.592154 -0.283957
0.335537 0.588091 -0.283046
0.341444 0.590086 -0.284177
0.348242 0.594205 -0.286033
0.352702 0.592335 -0.285880
0.358534 0.593813 -0.286865
0.363689 0.593554 -0.287271
0.368362 0.592091 -0.287275
0.372908 0.590308 -0.287176
0.378601 0.591171 -0.287982
0.383833 0.590895 -0.288407
0.388865 0.590121 -0.288667
0.396231 0.594504 -0.290695
0.401326 0.593731 -0.290967
0.407959 0.596261 -0.292376
0.414577 0.598642 -0.293739
0.419316 0.596948 -0.293705
0.422066 0.591104 -0.292240
0.427244 0.590370 -0.292534
0.432605 0.589990 -0.292948
0.437299 0.588248 -0.292889
0.448824 0.600083 -0.297540
0.455007 0.601135 -0.298449
0.455397 0.590923 -0.295429
0.459790 0.588608 -0.295147
0.464262 0.586492 -0.294922
0.468848 0.584642 -0.294779
0.472508 0.581132 -0.294039
0.479076 0.583035 -0.295183
0.488099 0.589359 -0.297868
0.495885 0.593365 -0.299726
0.499335 0.589649 -0.298846
0.502756 0.586008 -0.297968
0.505153 0.580721 -0.296483
0.511692 0.582703 -0.297543
0.516881 0.582419 -0.297776
0.521784 0.581731 -0.297840
0.536451 0.597385 -0.303677
0.537779 0.590833 -0.301605
0.542617 0.590226 -0.301613
0.547582 0.589929 -0.301701
0.553352 0.591024 -0.302252
0.557842 0.590165 -0.302077
0.559301 0.584649 -0.300211
0.560704 0.579242 -0.298352
0.536515 0.534374 -0.282402
-0.489574 0.580214 -0.271171
-0.489141 0.587238 -0.273753
-0.485632 0.588594 -0.274465
-0.482371 0.590590 -0.275360
-0.478019 0.590616 -0.275586
-0.472708 0.588870 -0.275206
-0.467194 0.586812 -0.274696
-0.463250 0.588010 -0.275224
-0.459324 0.589391 -0.275787
-0.454405 0.588872 -0.275701
-0.450384 0.590325 -0.276235
-0.445937 0.591022 -0.276497
-0.441629 0.592136 -0.276871
-0.437114 0.592923 -0.277114
-0.432093 0.592718 -0.277010
-0.427450 0.593425 -0.277183
-0.422599 0.593761 -0.277215
-0.418045 0.594846 -0.277473
-0.412805 0.594447 -0.277227
-0.406698 0.592076 -0.276320
-0.402092 0.593218 -0.276548
-0.397502 0.594466 -0.276796
-0.392675 0.595203 -0.276866
-0.387765 0.595776 -0.276871
-0.382704 0.596005 -0.276755
-0.376809 0.594144 -0.275950
-0.370859 0.592088 -0.275076
-0.366348 0.593693 -0.275389
-0.361766 0.595145 -0.275648
-0.356501 0.594794 -0.275317
-0.351413 0.594888 -0.275129
-0.346433 0.595249 -0.275027
-0.341175 0.594810 -0.274665
-0.335577 0.593350 -0.273974
-0.330639 0.593705 -0.273872
-0.325776 0.594241 -0.273832
-0.320807 0.594428 -0.273680
-0.315906 0.594773 -0.273584
-0.310725 0.594213 -0.273199
-0.305665 0.593952 -0.272915
-0.300294 0.592633 -0.272295
-0.295074 0.591696 -0.271804
-0.290199 0.591799 -0.271653
-0.285622 0.592842 -0.271810
-0.281176 0.594309 -0.272109
-0.276276 0.594182 -0.271901
-0.270943 0.592445 -0.271182
-0.265962 0.591848 -0.270836
-0.260556 0.589594 -0.269964
-0.256105 0.590774 -0.270201
-0.251729 0.592228 -0.270532
-0.247148 0.592866 -0.270608
-0.242135 0.591740 -0.270124
-0.237653 0.592668 -0.270305
-0.232983 0.592784 -0.270232
-0.228287 0.592734 -0.270113
-0.223560 0.592478 -0.269933
-0.218722 0.591652 -0.269578
-0.214072 0.591581 -0.269470
-0.209300 0.590874 -0.269166
-0.204629 0.590553 -0.268990
-0.200024 0.590476 -0.268899
-0.195603 0.591263 -0.269089
-0.191230 0.592278 -0.269358
-0.186558 0.591704 -0.269125
-0.181906 0.591149 -0.268904
-0.177306 0.590800 -0.268753
-0.172796 0.590891 -0.268749
-0.168229 0.590590 -0.268625
-0.163820 0.591180 -0.268791
-0.159421 0.591818 -0.268976
-0.154865 0.591424 -0.268838
-0.150075 0.589394 -0.268182
-0.145717 0.590153 -0.268421
-0.141226 0.589969 -0.268364
-0.136896 0.590912 -0.268671
-0.132475 0.591181 -0.268767
-0.127976 0.590801 -0.268661
-0.123571 0.591119 -0.268781
-0.119156 0.591333 -0.268873
-0.114668 0.590862 -0.268750
-0.110146 0.589985 -0.268502
-0.105697 0.589692 -0.268444
-0.101352 0.590429 -0.268719
-0.097047 0.591629 -0.269145
-0.092615 0.591464 -0.269139
-0.088118 0.590427 -0.268859
-0.083698 0.590226 -0.268849
-0.079312 0.590445 -0.268976
-0.074851 0.589530 -0.268745
-0.070433 0.589118 -0.268677
-0.066112 0.590312 -0.269127
-0.061743 0.590784 -0.269349
-0.057257 0.588848 -0.268803
-0.052932 0.590203 -0.269314
-0.048559 0.590625 -0.269529
-0.044177 0.590851 -0.269685
-0.039814 0.591839 -0.270088
-0.035466 0.593810 -0.270809
-0.031051 0.593197 -0.270705
-0.026620 0.590965 -0.270084
-0.022228 0.590708 -0.270100
-0.017839 0.590409 -0.270105
-0.013451 0.590789 -0.270330
-0.009058 0.591258 -0.270587
-0.004665 0.591341 -0.270723
-0.000262 0.591910 -0.271017
0.004196 0.594872 -0.272084
0.008581 0.593744 -0.271838
0.012814 0.587815 -0.270051
0.017282 0.590296 -0.270972
0.021834 0.594249 -0.272369
0.026108 0.591024 -0.271459
0.030805 0.597008 -0.273517
0.035435 0.600620 -0.274815
0.039617 0.596000 -0.273462
0.043553 0.588170 -0.271075
0.048098 0.590298 -0.271903
0.052875 0.595280 -0.273656
0.057321 0.595361 -0.273829
0.060986 0.586006 -0.270955
0.065604 0.588476 -0.271905
0.070140 0.589764 -0.272476
0.074550 0.589602 -0.272582
0.078886 0.588695 -0.272449
0.083552 0.590903 -0.273328
0.088807 0.598134 -0.275840
0.093472 0.599679 -0.276513
0.096485 0.587540 -0.272746
0.100717 0.585895 -0.272387
0.105042 0.585045 -0.272289
0.110255 0.590703 -0.274311
0.115709 0.597631 -0.276752
0.120546 0.599854 -0.277667
0.124844 0.598331 -0.277366
0.127740 0.587911 -0.274165
0.132514 0.589723 -0.274956
0.138018 0.595770 -0.277135
0.141929 0.592137 -0.276157
0.147162 0.596162 -0.277685
0.151533 0.595172 -0.277578
0.156872 0.599390 -0.279181
0.161192 0.598014 -0.278956
0.165808 0.598177 -0.279240
0.170501 0.598673 -0.279637
0.174248 0.594513 -0.278510
0.177816 0.589664 -0.277159
0.181878 0.587278 -0.276620
0.187744 0.593103 -0.278789
0.192090 0.591911 -0.278654
0.196490 0.590955 -0.278601
0.201471 0.592452 -0.279362
0.206980 0.596027 -0.280816
0.211137 0.593922 -0.280399
0.214114 0.587173 -0.278449
0.218589 0.586472 -0.278505
0.223591 0.587759 -0.279225
0.228280 0.587771 -0.279529
0.235620 0.597460 -0.283057
0.240596 0.598223 -0.283626
0.245023 0.596966 -0.283530
0.248384 0.592001 -0.282203
0.253434 0.592915 -0.282842
0.260235 0.599600 -0.285417
0.266976 0.605801 -0.287843
0.270427 0.601097 -0.286627
0.270586 0.586034 -0.281940
0.275028 0.584797 -0.281891
0.280842 0.587758 -0.283260
0.287383 0.592764 -0.285328
0.293870 0.597387 -0.287278
0.298013 0.594941 -0.286855
0.301168 0.589665 -0.285480
0.306548 0.590800 -0.286279
0.311667 0.591110 -0.286806
0.316988 0.591901 -0.287506
0.322065 0.591947 -0.287961
0.327386 0.592579 -0.288623
0.331192 0.589145 -0.287909
0.335273 0.586461 -0.287455
0.342098 0.590795 -0.289405
0.348597 0.594125 -0.291025
0.352581 0.591054 -0.290460
0.357954 0.591405 -0.291075
0.362965 0.590810 -0.291372
0.367347 0.588674 -0.291145
0.372205 0.587652 -0.291306
0.378136 0.589082 -0.292321
0.383446 0.588998 -0.292819
0.389826 0.591269 -0.294139
0.396078 0.593142 -0.295329
0.401482 0.593051 -0.295842
0.407774 0.594836 -0.297013
0.414092 0.596585 -0.298176
0.419080 0.595436 -0.298330
0.422264 0.590515 -0.297161
0.427602 0.590113 -0.297573
0.432760 0.589324 -0.297847
0.439098 0.590894 -0.298950
0.448288 0.598056 -0.302024
0.452696 0.595661 -0.301723
0.455146 0.589522 -0.300087
0.460685 0.589429 -0.300581
0.465146 0.587298 -0.300340
0.469492 0.585010 -0.300031
0.473889 0.582879 -0.299762
0.478514 0.581234 -0.299649
0.487642 0.587788 -0.302448
0.498439 0.597218 -0.306265
0.504736 0.598529 -0.307162
0.502875 0.585587 -0.302925
0.506041 0.581674 -0.301896
0.511794 0.582337 -0.302485
0.519358 0.586124 -0.304173
0.531969 0.598389 -0.308891
0.533392 0.591885 -0.306820
0.539625 0.593514 -0.307651
0.543104 0.590707 -0.306850
0.546831 0.588448 -0.306214
0.552170 0.588910 -0.306530
0.555703 0.586595 -0.305809
0.563902 0.591774 -0.307766
0.555928 0.571702 -0.300558
0.553363 0.560450 -0.296507
-0.493727 0.587910 -0.278328
-0.489086 0.586923 -0.278313
-0.485709 0.588479 -0.279114
-0.482338 0.590209 -0.279947
-0.477599 0.589419 -0.279917
-0.472830 0.588683 -0.279878
-0.467934 0.587808 -0.279765
-0.463478 0.587928 -0.279955
-0.459254 0.588644 -0.280318
-0.455854 0.591197 -0.281264
-0.450706 0.590275 -0.281029
-0.446443 0.591307 -0.281417
-0.441938 0.591952 -0.281653
-0.437506 0.592870 -0.281955
-0.432613 0.592897 -0.281936
-0.427473 0.592464 -0.281743
-0.422713 0.592951 -0.281835
-0.418251 0.594192 -0.282158
-0.413515 0.594905 -0.282286
-0.407373 0.592429 -0.281337
-0.402102 0.591984 -0.281049
-0.397549 0.593273 -0.281322
-0.392711 0.593945 -0.281376
-0.387877 0.594668 -0.281437
-0.382701 0.594577 -0.281218
-0.377779 0.595135 -0.281205
-0.371948 0.593390 -0.280422
-0.367055 0.594018 -0.280419
-0.362308 0.595034 -0.280540
-0.357306 0.595383 -0.280436
-0.351846 0.594482 -0.279917
-0.346768 0.594574 -0.279725
-0.341606 0.594398 -0.279444
-0.335973 0.592847 -0.278710
-0.331043 0.593228 -0.278614
-0.326292 0.594099 -0.278682
-0.321562 0.595010 -0.278764
-0.316505 0.594913 -0.278519
-0.311174 0.593916 -0.277982
-0.306063 0.593512 -0.277644
-0.301486 0.594737 -0.277844
-0.295468 0.591281 -0.276516
-0.290709 0.591783 -0.276490
-0.285925 0.592159 -0.276428
-0.281305 0.593046 -0.276539
-0.276699 0.593946 -0.276660
-0.271636 0.593195 -0.276247
-0.266476 0.592002 -0.275696
-0.261202 0.590270 -0.274977
-0.256529 0.590663 -0.274957
-0.252141 0.592097 -0.275283
-0.247535 0.592671 -0.275334
-0.242844 0.592861 -0.275267
-0.237895 0.591945 -0.274846
-0.233204 0.591997 -0.274748
-0.228550 0.592142 -0.274685
-0.223900 0.592246 -0.274616
-0.219158 0.591881 -0.274401
-0.214320 0.590998 -0.274023
-0.209718 0.591109 -0.273975
-0.204982 0.590525 -0.273707
-0.200324 0.590227 -0.273538
-0.195778 0.590422 -0.273536
-0.191264 0.590726 -0.273574
-0.186857 0.591551 -0.273787
-0.182051 0.590205 -0.273302
-0.177695 0.591224 -0.273589
-0.173104 0.590906 -0.273449
-0.168582 0.590914 -0.273419
-0.163918 0.590012 -0.273099
-0.159508 0.590583 -0.273263
-0.155081 0.591032 -0.273392
-0.150447 0.590071 -0.273069
-0.146105 0.591018 -0.273369
-0.141762 0.591961 -0.273673
-0.137297 0.592028 -0.273697
-0.132746 0.591388 -0.273497
-0.128285 0.591370 -0.273503
-0.123866 0.591643 -0.273608
-0.119362 0.591170 -0.273475
-0.114836 0.590400 -0.273250
-0.110349 0.589885 -0.273113
-0.105942 0.590067 -0.273205
-0.101751 0.592476 -0.274023
-0.097234 0.591526 -0.273756
-0.092799 0.591375 -0.273752
-0.088378 0.591341 -0.273790
-0.083961 0.591310 -0.273832
-0.079525 0.590966 -0.273777
-0.074986 0.589007 -0.273200
-0.070624 0.589548 -0.273439
-0.066242 0.589806 -0.273589
-0.061828 0.589438 -0.273539
-0.057488 0.590554 -0.273975
-0.053091 0.590522 -0.274041
-0.048690 0.590380 -0.274074
-0.044303 0.590560 -0.274216
-0.039886 0.589716 -0.274027
-0.035520 0.590705 -0.274437
-0.031181 0.593621 -0.275479
-0.026752 0.591980 -0.275039
-0.022334 0.589883 -0.274454
-0.017940 0.588610 -0.274140
-0.013557 0.588137 -0.274089
-0.009134 0.595517 -0.276602
-0.004734 0.593868 -0.276174
-0.000336 0.593029 -0.276012
0.004186 0.598714 -0.277984
0.008644 0.599598 -0.278391
0.012959 0.595308 -0.277111
0.017420 0.596404 -0.277593
0.021916 0.598109 -0.278277
0.025881 0.587376 -0.274896
0.030844 0.599034 -0.278843
0.035297 0.599131 -0.279010
0.039433 0.593754 -0.277387
0.043823 0.593170 -0.277336
0.048200 0.592436 -0.277238
0.052858 0.595583 -0.278417
0.057243 0.594819 -0.278315
0.061194 0.588872 -0.276514
0.065433 0.586824 -0.275995
0.070089 0.589448 -0.277015
0.074480 0.589062 -0.277048
0.078774 0.587732 -0.276773
0.083169 0.587416 -0.276835
0.087930 0.590353 -0.277971
0.092741 0.593435 -0.279160
0.096234 0.585438 -0.276699
0.100556 0.584547 -0.276583
0.105397 0.587619 -0.277779
0.110846 0.594877 -0.280362
0.115790 0.598027 -0.281595
0.120710 0.600762 -0.282694
0.124715 0.597248 -0.281730
0.128686 0.593694 -0.280754
0.132358 0.588477 -0.279229
0.137141 0.590192 -0.280006
0.142228 0.593551 -0.281333
0.145489 0.586323 -0.279149
0.150943 0.591541 -0.281102
0.156062 0.594643 -0.282359
0.160959 0.596380 -0.283168
0.165530 0.596323 -0.283383
0.170328 0.597359 -0.283968
0.174603 0.595761 -0.283680
0.178289 0.591409 -0.282475
0.183196 0.592861 -0.283212
0.187747 0.592590 -0.283380
0.191834 0.590237 -0.282855
0.196267 0.589436 -0.282854
0.201394 0.591553 -0.283837
0.206853 0.594902 -0.285240
0.211351 0.594179 -0.285283
0.215412 0.591698 -0.284739
0.220426 0.592973 -0.285465
0.225134 0.592982 -0.285771
0.228917 0.589483 -0.284899
0.233416 0.588689 -0.284945
0.238954 0.591606 -0.286251
0.243987 0.592586 -0.286911
0.249315 0.594492 -0.287891
0.255582 0.599477 -0.289925
0.261936 0.604519 -0.291988
0.267809 0.607749 -0.293447
0.270823 0.601576 -0.291715
0.271089 0.586826 -0.287063
0.274905 0.583596 -0.286336
0.280797 0.586790 -0.287809
0.286912 0.590492 -0.289466
0.292807 0.593360 -0.290848
0.297679 0.593086 -0.291164
0.301750 0.590452 -0.290677
0.306668 0.590239 -0.291027
0.312251 0.591824 -0.292005
0.316966 0.590915 -0.292133
0.322153 0.591246 -0.292696
0.326940 0.590438 -0.292874
0.330125 0.585383 -0.291588
0.335666 0.586511 -0.292449
0.342880 0.591810 -0.294768
0.348184 0.592091 -0.295355
0.352096 0.588851 -0.294724
0.357175 0.588492 -0.295102
0.362584 0.588878 -0.295747
0.366199 0.584929 -0.294881
0.371648 0.585324 -0.295541
0.380515 0.593555 -0.298961
0.385973 0.593732 -0.299562
0.390706 0.592215 -0.299572
0.395104 0.589943 -0.299318
0.400142 0.589080 -0.299564
0.404871 0.587522 -0.299566
0.412914 0.593037 -0.302079
0.418610 0.593419 -0.302775
0.422525 0.590049 -0.302136
0.427875 0.589675 -0.302561
0.433486 0.589811 -0.303166
0.438812 0.589346 -0.303554
0.445495 0.591559 -0.304897
0.449425 0.588317 -0.304277
0.455079 0.588477 -0.304870
0.461495 0.590084 -0.305976
0.466715 0.589400 -0.306247
0.471940 0.588747 -0.306515
0.474609 0.583409 -0.305073
0.481061 0.585119 -0.306165
0.488325 0.588288 -0.307770
0.495725 0.591667 -0.309436
0.498922 0.587591 -0.308371
0.503250 0.585629 -0.308049
0.508356 0.585112 -0.308230
0.515673 0.588456 -0.309794
0.520130 0.586953 -0.309562
0.525483 0.587060 -0.309890
0.537351 0.598078 -0.314183
0.539122 0.592345 -0.312314
0.541919 0.588482 -0.311097
0.546458 0.587603 -0.310941
0.551127 0.587043 -0.310870
0.554917 0.585198 -0.310295
0.559178 0.584231 -0.310009
0.567228 0.581927 -0.309203
-0.493974 0.588246 -0.283087
-0.489344 0.587233 -0.283074
-0.486097 0.588993 -0.283968
-0.482210 0.589672 -0.284471
-0.477275 0.588439 -0.284304
-0.472938 0.588497 -0.284544
-0.468274 0.588028 -0.284579
-0.463595 0.587647 -0.284616
-0.459234 0.588028 -0.284883
-0.455463 0.589752 -0.285577
-0.451379 0.590978 -0.286076
-0.446278 0.590202 -0.285872
-0.442164 0.591616 -0.286382
-0.437899 0.592838 -0.286803
-0.432747 0.592252 -0.286589
-0.427457 0.591438 -0.286274
-0.422534 0.591504 -0.286236
-0.418106 0.592764 -0.286580
-0.413710 0.594195 -0.286962
-0.409074 0.595166 -0.287171
-0.402830 0.592443 -0.286116
-0.397689 0.592313 -0.285921
-0.392862 0.592972 -0.285980
-0.387941 0.593446 -0.285963
-0.382956 0.593794 -0.285893
-0.377814 0.593770 -0.285689
-0.372818 0.594124 -0.285603
-0.367786 0.594395 -0.285483
-0.362960 0.595201 -0.285538
-0.357985 0.595626 -0.285460
-0.352565 0.594837 -0.284971
-0.347194 0.594135 -0.284510
-0.342265 0.594609 -0.284442
-0.337022 0.594175 -0.284070
-0.332020 0.594382 -0.283914
-0.327071 0.594706 -0.283798
-0.322152 0.595080 -0.283701
-0.317130 0.595108 -0.283491
-0.311941 0.594570 -0.283096
-0.306910 0.594451 -0.282845
-0.300943 0.591301 -0.281589
-0.296096 0.591597 -0.281486
-0.291449 0.592499 -0.281589
-0.286697 0.593023 -0.281572
-0.281515 0.592032 -0.281057
-0.276649 0.592042 -0.280881
-0.271850 0.592222 -0.280767
-0.267132 0.592633 -0.280736
-0.261956 0.591312 -0.280136
-0.257095 0.591056 -0.279897
-0.252565 0.591984 -0.280056
-0.248052 0.592953 -0.280236
-0.243229 0.592657 -0.280003
-0.238307 0.591884 -0.279618
-0.233354 0.590884 -0.279166
-0.228823 0.591563 -0.279275
-0.224425 0.592782 -0.279568
-0.219741 0.592724 -0.279446
-0.214650 0.590753 -0.278699
-0.209869 0.590066 -0.278383
-0.205244 0.590025 -0.278286
-0.200565 0.589656 -0.278087
-0.196061 0.590087 -0.278158
-0.191583 0.590604 -0.278263
-0.186629 0.588590 -0.277540
-0.182630 0.591570 -0.278469
-0.177932 0.590773 -0.278158
-0.173427 0.590972 -0.278182
-0.168763 0.590194 -0.277889
-0.164148 0.589606 -0.277664
-0.159769 0.590409 -0.277903
-0.155425 0.591429 -0.278218
-0.151009 0.591982 -0.278385
-0.146577 0.592416 -0.278517
-0.142089 0.592428 -0.278516
-0.137582 0.592244 -0.278455
-0.133094 0.592147 -0.278427
-0.128652 0.592360 -0.278506
-0.124191 0.592383 -0.278527
-0.119739 0.592437 -0.278563
-0.115148 0.591194 -0.278176
-0.110619 0.590374 -0.277932
-0.106167 0.590198 -0.277905
-0.101737 0.590191 -0.277937
-0.097385 0.590989 -0.278239
-0.092916 0.590475 -0.278113
-0.088515 0.590702 -0.278234
-0.084167 0.591595 -0.278579
-0.079713 0.591109 -0.278473
-0.075167 0.589134 -0.277880
-0.070763 0.589081 -0.277924
-0.066389 0.589531 -0.278138
-0.062023 0.590167 -0.278416
-0.057623 0.590180 -0.278492
-0.053216 0.590002 -0.278509
-0.048845 0.590686 -0.278814
-0.044437 0.590443 -0.278816
-0.040042 0.590541 -0.278933
-0.035798 0.597039 -0.281169
-0.031341 0.595517 -0.280758
-0.026864 0.591487 -0.279521
-0.022428 0.587685 -0.278360
-0.018041 0.586568 -0.278091
-0.013663 0.585581 -0.277867
-0.009225 0.597362 -0.281875
-0.004807 0.596092 -0.281565
-0.000393 0.595341 -0.281429
0.004062 0.596921 -0.282069
0.008613 0.601705 -0.283775
0.013044 0.600832 -0.283608
0.017572 0.602997 -0.284452
0.021937 0.600427 -0.283728
0.026351 0.599486 -0.283546
0.030711 0.597587 -0.283049
0.035122 0.596929 -0.282967
0.039499 0.595775 -0.282723
0.043960 0.596067 -0.282963
0.048325 0.594895 -0.282717
0.052791 0.595196 -0.282966
0.057129 0.593800 -0.282652
0.061430 0.592078 -0.282232
0.065655 0.589643 -0.281575
0.069981 0.588509 -0.281356
0.074388 0.588283 -0.281443
0.078996 0.590006 -0.282184
0.084124 0.596370 -0.284481
0.087883 0.589950 -0.282507
0.092232 0.589070 -0.282388
0.097063 0.592161 -0.283602
0.101288 0.590211 -0.283131
0.106297 0.594310 -0.284691
0.110668 0.593412 -0.284580
0.114469 0.588515 -0.283130
0.119585 0.592869 -0.284789
0.124078 0.592796 -0.284965
0.128159 0.590055 -0.284248
0.132465 0.588835 -0.284045
0.136892 0.588372 -0.284101
0.141079 0.586503 -0.283687
0.145852 0.588010 -0.284415
0.150261 0.587390 -0.284430
0.155222 0.589725 -0.285447
0.159891 0.590364 -0.285897
0.164502 0.590638 -0.286228
0.169903 0.594772 -0.287871
0.174815 0.596293 -0.288636
0.178499 0.591895 -0.287398
0.182485 0.589051 -0.286691
0.187422 0.590578 -0.287472
0.191964 0.590250 -0.287629
0.196424 0.589533 -0.287659
0.201180 0.590054 -0.288115
0.207057 0.595131 -0.290131
0.210390 0.589660 -0.288556
0.215334 0.590743 -0.289222
0.222017 0.598491 -0.292175
0.226357 0.596959 -0.291962
0.229725 0.591805 -0.290514
0.233727 0.589118 -0.289914
0.238768 0.590216 -0.290619
0.243891 0.591506 -0.291397
0.250450 0.597667 -0.293860
0.256447 0.601641 -0.295581
0.262335 0.605055 -0.297119
0.266999 0.604276 -0.297219
0.269033 0.594975 -0.294380
0.272399 0.590160 -0.293093
0.276205 0.586816 -0.292320
0.281597 0.588389 -0.293258
0.287293 0.590769 -0.294485
0.292965 0.592942 -0.295651
0.298173 0.593628 -0.296308
0.302483 0.591649 -0.296045
0.307071 0.590456 -0.296062
0.312271 0.590943 -0.296674
0.317129 0.590414 -0.296939
0.324168 0.595734 -0.299264
0.326136 0.587327 -0.296780
0.329885 0.583779 -0.296004
0.335593 0.585335 -0.297032
0.342232 0.589158 -0.298869
0.347426 0.589177 -0.299373
0.354427 0.593606 -0.301447
0.358815 0.591474 -0.301206
0.361644 0.585585 -0.299636
0.367539 0.587077 -0.300692
0.377253 0.597411 -0.304906
0.379899 0.591083 -0.303192
0.386265 0.593345 -0.304548
0.391106 0.592065 -0.304642
0.394482 0.587515 -0.303567
0.397838 0.582991 -0.302499
0.406955 0.590987 -0.305934
0.415767 0.598083 -0.309057
0.419526 0.594318 -0.308267
0.422914 0.589838 -0.307214
0.428264 0.589468 -0.307644
0.433657 0.589164 -0.308095
0.438881 0.588508 -0.308413
0.444328 0.588291 -0.308886
0.450224 0.588942 -0.309669
0.456463 0.590237 -0.310679
0.461478 0.589163 -0.310814
0.467163 0.589383 -0.311410
0.472680 0.589298 -0.311882
0.477200 0.587397 -0.311671
0.481543 0.585239 -0.311346
0.488827 0.588469 -0.312987
0.494831 0.589383 -0.313756
0.499719 0.588355 -0.313786
0.503839 0.586061 -0.313323
0.510205 0.587756 -0.314311
0.517752 0.591505 -0.316035
0.521649 0.589066 -0.315437
0.523816 0.583848 -0.313776
0.532444 0.589554 -0.316143
0.533282 0.582411 -0.313703
0.541881 0.588153 -0.316023
0.546883 0.588072 -0.316145
0.551739 0.587854 -0.316184
0.554686 0.584711 -0.315099
0.560041 0.585518 -0.315453
0.516494 0.503325 -0.284832
-0.488662 0.578099 -0.284267
-0.488660 0.585776 -0.287229
-0.485571 0.587775 -0.288229
-0.481663 0.588352 -0.288717
-0.476871 0.587333 -0.288633
-0.472754 0.587762 -0.289016
-0.468748 0.588546 -0.289493
-0.463899 0.587772 -0.289409
-0.459269 0.587552 -0.289487
-0.454957 0.588102 -0.289802
-0.450169 0.587792 -0.289793
-0.445660 0.588172 -0.289996
-0.442202 0.590903 -0.290979
-0.438103 0.592423 -0.291522
-0.433054 0.592008 -0.291374
-0.427845 0.591323 -0.291111
-0.423045 0.591614 -0.291160
-0.418540 0.592658 -0.291445
-0.413622 0.592856 -0.291421
-0.408630 0.592947 -0.291340
-0.403557 0.592909 -0.291198
-0.398241 0.592341 -0.290858
-0.393267 0.592617 -0.290793
-0.388351 0.593072 -0.290777
-0.383320 0.593283 -0.290664
-0.378372 0.593720 -0.290620
-0.373353 0.594002 -0.290513
-0.368608 0.594999 -0.290643
-0.363703 0.595601 -0.290631
-0.358581 0.595635 -0.290421
-0.353294 0.595206 -0.290049
-0.348381 0.595765 -0.290011
-0.342736 0.594282 -0.289276
-0.337906 0.595017 -0.289297
-0.332657 0.594536 -0.288903
-0.327662 0.594739 -0.288744
-0.322518 0.594465 -0.288424
-0.317481 0.594453 -0.288196
-0.312367 0.594154 -0.287874
-0.307439 0.594371 -0.287730
-0.302551 0.594667 -0.287618
-0.297255 0.593597 -0.287047
-0.291998 0.592558 -0.286493
-0.287172 0.592860 -0.286397
-0.282262 0.592825 -0.286194
-0.276858 0.591013 -0.285396
-0.272187 0.591656 -0.285433
-0.267554 0.592391 -0.285507
-0.262744 0.592445 -0.285357
-0.257654 0.591386 -0.284840
-0.252759 0.590963 -0.284543
-0.248208 0.591793 -0.284674
-0.243548 0.592162 -0.284657
-0.238666 0.591574 -0.284324
-0.233834 0.591107 -0.284039
-0.229284 0.591748 -0.284133
-0.224949 0.593281 -0.284533
-0.220146 0.592748 -0.284245
-0.215264 0.591769 -0.283815
-0.210433 0.590912 -0.283432
-0.205401 0.589000 -0.282702
-0.200976 0.589883 -0.282916
-0.196565 0.590820 -0.283153
-0.192076 0.591345 -0.283258
-0.187508 0.591422 -0.283220
-0.182890 0.591171 -0.283078
-0.178417 0.591656 -0.283187
-0.173650 0.590431 -0.282731
-0.169094 0.590318 -0.282652
-0.164642 0.590772 -0.282768
-0.160326 0.592041 -0.283163
-0.155779 0.591856 -0.283076
-0.151262 0.591799 -0.283038
-0.146761 0.591795 -0.283022
-0.142255 0.591702 -0.282982
-0.137749 0.591560 -0.282931
-0.133339 0.592080 -0.283106
-0.128898 0.592349 -0.283201
-0.124395 0.592077 -0.283121
-0.119893 0.591745 -0.283024
-0.115393 0.591347 -0.282911
-0.110857 0.590533 -0.282662
-0.106357 0.589949 -0.282495
-0.101924 0.589956 -0.282530
-0.097450 0.589471 -0.282404
-0.093024 0.589441 -0.282435
-0.088714 0.590781 -0.282928
-0.084291 0.590777 -0.282976
-0.079725 0.588759 -0.282353
-0.075305 0.588563 -0.282343
-0.070887 0.588353 -0.282333
-0.066559 0.589606 -0.282817
-0.062179 0.590092 -0.283047
-0.057808 0.590813 -0.283359
-0.053428 0.591448 -0.283646
-0.049000 0.590950 -0.283558
-0.044599 0.591116 -0.283694
-0.040229 0.592346 -0.284192
-0.035997 0.599921 -0.286823
-0.031528 0.598779 -0.286531
-0.026988 0.591745 -0.284264
-0.022588 0.592498 -0.284615
-0.018195 0.596699 -0.286127
-0.013763 0.597424 -0.286476
-0.009359 0.591652 -0.284642
-0.004961 0.590621 -0.284405
-0.000535 0.592082 -0.285010
0.003928 0.594633 -0.285985
0.008464 0.599105 -0.287611
0.012955 0.600525 -0.288212
0.017387 0.599809 -0.288098
0.021847 0.599944 -0.288273
0.026303 0.599894 -0.288388
0.030635 0.597287 -0.287643
0.034740 0.590901 -0.285625
0.038944 0.587212 -0.284519
0.043324 0.586813 -0.284527
0.048124 0.592576 -0.286621
0.052761 0.595321 -0.287699
0.057116 0.594069 -0.287429
0.061248 0.590232 -0.286286
0.065581 0.589078 -0.286053
0.069993 0.588848 -0.286137
0.074554 0.590138 -0.286739
0.079103 0.591147 -0.287250
0.084036 0.595598 -0.288933
0.088228 0.593035 -0.288239
0.092470 0.591063 -0.287748
0.097459 0.595334 -0.289382
0.102494 0.599589 -0.291017
0.106787 0.597871 -0.290623
0.110110 0.589154 -0.287847
0.114637 0.589490 -0.288158
0.119311 0.590767 -0.288794
0.123990 0.591950 -0.289402
0.128743 0.593492 -0.290138
0.133258 0.593427 -0.290329
0.137917 0.594185 -0.290805
0.142321 0.593374 -0.290749
0.146744 0.592677 -0.290736
0.151177 0.592027 -0.290744
0.154700 0.586494 -0.289080
0.159295 0.586806 -0.289424
0.164008 0.587655 -0.289959
0.170067 0.595096 -0.292765
0.174970 0.596532 -0.293514
0.178836 0.592960 -0.292544
0.182448 0.588331 -0.291212
0.187126 0.588680 -0.291601
0.191923 0.589485 -0.292153
0.196499 0.589260 -0.292354
0.201694 0.591603 -0.293450
0.207114 0.594733 -0.294826
0.211136 0.592026 -0.294186
0.214958 0.588589 -0.293298
0.222415 0.599348 -0.297344
0.226923 0.598410 -0.297337
0.229793 0.591343 -0.295203
0.233983 0.589329 -0.294831
0.239067 0.590542 -0.295589
0.244090 0.591446 -0.296248
0.249597 0.593931 -0.297467
0.254716 0.594958 -0.298184
0.259035 0.593219 -0.297941
0.263419 0.591696 -0.297780
0.267754 0.590014 -0.297569
0.272236 0.588790 -0.297526
0.277170 0.588963 -0.297980
0.282679 0.590829 -0.299040
0.286694 0.588071 -0.298478
0.292628 0.591035 -0.299942
0.297411 0.590481 -0.300173
0.302922 0.591975 -0.301138
0.307479 0.590665 -0.301117
0.312410 0.590372 -0.301464
0.318144 0.592228 -0.302584
0.324204 0.594845 -0.303986
0.328257 0.591982 -0.303443
0.331046 0.585827 -0.301729
0.336861 0.587602 -0.302854
0.342670 0.589252 -0.303944
0.347899 0.589334 -0.304482
0.354695 0.593229 -0.306398
0.358698 0.590142 -0.305811
0.361401 0.583957 -0.304110
0.372683 0.598221 -0.309797
0.376625 0.594876 -0.309135
0.380610 0.591662 -0.308522
0.383748 0.586550 -0.307221
0.390353 0.589308 -0.308781
0.393195 0.583605 -0.307266
0.396803 0.579680 -0.306396
0.407050 0.590140 -0.310783
0.416973 0.599598 -0.314818
0.421310 0.597029 -0.314452
0.423187 0.589380 -0.312216
0.429503 0.590996 -0.313379
0.434244 0.589357 -0.313340
0.439549 0.588865 -0.313719
0.447100 0.592811 -0.315733
0.452763 0.592966 -0.316339
0.456705 0.589792 -0.315701
0.461357 0.588048 -0.315580
0.466229 0.586768 -0.315617
0.475926 0.594527 -0.319008
0.479864 0.591520 -0.318372
0.483548 0.588146 -0.317577
0.489440 0.588863 -0.318291
0.494709 0.588495 -0.318578
0.499503 0.587348 -0.318549
0.505756 0.588827 -0.319481
0.512100 0.590495 -0.320459
0.516893 0.589545 -0.320426
0.521442 0.588273 -0.320241
0.524295 0.584261 -0.318993
0.525388 0.577487 -0.316670
0.527826 0.573139 -0.315228
0.542519 0.588951 -0.321368
0.547837 0.589420 -0.321682
0.552042 0.588197 -0.321324
0.556782 0.587946 -0.321300
0.562364 0.589128 -0.321784
-0.492179 0.584681 -0.291126
-0.488631 0.585600 -0.291805
-0.485321 0.587121 -0.292666
-0.481831 0.588449 -0.293435
-0.477410 0.588107 -0.293597
-0.472605 0.587127 -0.293510
-0.469152 0.588955 -0.294371
-0.465233 0.590004 -0.294934
-0.459640 0.587790 -0.294332
-0.455064 0.587743 -0.294456
-0.449809 0.586401 -0.294102
-0.446121 0.588437 -0.294898
-0.442639 0.591066 -0.295874
-0.438545 0.592543 -0.296423
-0.433254 0.591552 -0.296085
-0.427964 0.590635 -0.295748
-0.423411 0.591424 -0.295983
-0.418520 0.591548 -0.295964
-0.413723 0.591965 -0.296026
-0.408174 0.590723 -0.295490
-0.403448 0.591430 -0.295615
-0.398858 0.592528 -0.295859
-0.393774 0.592514 -0.295700
-0.389168 0.593697 -0.295944
-0.384052 0.593682 -0.295758
-0.378778 0.593291 -0.295430
-0.373814 0.593689 -0.295367
-0.368876 0.594171 -0.295325
-0.364137 0.595185 -0.295460
-0.358988 0.595135 -0.295220
-0.353828 0.595040 -0.294960
-0.348493 0.594444 -0.294524
-0.343331 0.594283 -0.294237
-0.338215 0.594217 -0.293981
-0.333156 0.594279 -0.293769
-0.328201 0.594606 -0.293650
-0.323238 0.594879 -0.293513
-0.317611 0.593117 -0.292677
-0.312628 0.593213 -0.292484
-0.307882 0.594001 -0.292533
-0.303023 0.594402 -0.292453
-0.297676 0.593188 -0.291821
-0.292273 0.591691 -0.291098
-0.287487 0.592137 -0.291048
-0.282720 0.592601 -0.291009
-0.277662 0.592014 -0.290615
-0.272624 0.591410 -0.290222
-0.267888 0.591807 -0.290177
-0.263052 0.591783 -0.289995
-0.258122 0.591346 -0.289678
-0.253216 0.590912 -0.289369
-0.248292 0.590326 -0.289015
-0.243696 0.590952 -0.289081
-0.239160 0.591784 -0.289224
-0.234484 0.591999 -0.289163
-0.229963 0.592821 -0.289316
-0.225098 0.592124 -0.288957
-0.220398 0.592058 -0.288820
-0.215609 0.591522 -0.288530
-0.210877 0.591164 -0.288307
-0.206189 0.590930 -0.288132
-0.201421 0.590236 -0.287808
-0.196942 0.590883 -0.287946
-0.192424 0.591305 -0.288014
-0.187818 0.591221 -0.287917
-0.183323 0.591678 -0.288008
-0.178822 0.592059 -0.288081
-0.174215 0.591805 -0.287943
-0.169586 0.591350 -0.287742
-0.165155 0.592002 -0.287924
-0.160562 0.591635 -0.287765
-0.156087 0.591944 -0.287841
-0.151510 0.591544 -0.287682
-0.146953 0.591194 -0.287546
-0.142462 0.591242 -0.287549
-0.138049 0.591813 -0.287735
-0.133537 0.591612 -0.287665
-0.129095 0.591911 -0.287768
-0.124555 0.591370 -0.287592
-0.119984 0.590467 -0.287297
-0.115534 0.590529 -0.287335
-0.111056 0.590276 -0.287270
-0.106576 0.589940 -0.287182
-0.102062 0.589169 -0.286950
-0.097616 0.589013 -0.286931
-0.093213 0.589293 -0.287065
-0.088868 0.590259 -0.287436
-0.084514 0.591197 -0.287801
-0.079965 0.589519 -0.287281
-0.075666 0.591264 -0.287930
-0.071155 0.589849 -0.287507
-0.066691 0.588988 -0.287276
-0.062307 0.589428 -0.287492
-0.057946 0.590394 -0.287890
-0.053551 0.590758 -0.288088
-0.049155 0.591146 -0.288297
-0.044736 0.590946 -0.288309
-0.040395 0.593365 -0.289218
-0.036088 0.598138 -0.290932
-0.031559 0.593628 -0.289486
-0.027098 0.590790 -0.288613
-0.022705 0.592393 -0.289257
-0.018312 0.597380 -0.291059
-0.013873 0.594798 -0.290282
-0.009459 0.592154 -0.289487
-0.005073 0.589261 -0.288610
-0.000650 0.590681 -0.289208
0.003823 0.593838 -0.290403
0.008337 0.597428 -0.291751
0.012798 0.597963 -0.292058
0.017156 0.595302 -0.291274
0.021569 0.594647 -0.291180
0.026315 0.601687 -0.293724
0.030592 0.597672 -0.292485
0.034341 0.584526 -0.288118
0.038734 0.584514 -0.288255
0.043172 0.585158 -0.288620
0.048078 0.592538 -0.291300
0.052652 0.594349 -0.292074
0.056864 0.591268 -0.291170
0.061098 0.588772 -0.290470
0.065569 0.589205 -0.290779
0.069992 0.589047 -0.290889
0.074398 0.588684 -0.290931
0.078942 0.589670 -0.291442
0.083689 0.592407 -0.292559
0.087890 0.590015 -0.291913
0.092015 0.587135 -0.291101
0.096827 0.590063 -0.292296
0.102238 0.597447 -0.295036
0.106800 0.597806 -0.295354
0.110509 0.591876 -0.293501
0.114853 0.590788 -0.293325
0.119238 0.590014 -0.293261
0.124369 0.594163 -0.294908
0.129407 0.597415 -0.296249
0.134405 0.600182 -0.297427
0.137970 0.594142 -0.295553
0.143058 0.597285 -0.296871
0.147119 0.594392 -0.296096
0.151542 0.593611 -0.296060
0.154680 0.585940 -0.293628
0.158964 0.584610 -0.293406
0.163832 0.586272 -0.294234
0.170096 0.594727 -0.297438
0.174953 0.595917 -0.298114
0.178956 0.592974 -0.297351
0.182861 0.589674 -0.296466
0.187096 0.587960 -0.296140
0.191828 0.588468 -0.296598
0.196759 0.589759 -0.297337
0.202102 0.592688 -0.298657
0.207570 0.595956 -0.300105
0.212229 0.595771 -0.300346
0.217108 0.596412 -0.300884
0.222856 0.600347 -0.302591
0.226945 0.597767 -0.302007
0.229866 0.590880 -0.299906
0.234289 0.589696 -0.299824
0.239376 0.590884 -0.300588
0.244400 0.591751 -0.301246
0.249318 0.592166 -0.301752
0.254140 0.592185 -0.302125
0.258631 0.591041 -0.302091
0.263046 0.589631 -0.301970
0.267632 0.588762 -0.302048
0.272620 0.589135 -0.302576
0.278213 0.591323 -0.303761
0.280815 0.584222 -0.301632
0.287396 0.589272 -0.303859
0.293059 0.591383 -0.305043
0.297998 0.591250 -0.305432
0.303331 0.592193 -0.306216
0.307935 0.590987 -0.306236
0.312975 0.590964 -0.306689
0.318446 0.592061 -0.307555
0.323796 0.592737 -0.308279
0.329044 0.593058 -0.308882
0.334199 0.593062 -0.309380
0.337973 0.589442 -0.308568
0.343011 0.589079 -0.308945
0.348816 0.590584 -0.310012
0.355385 0.593873 -0.311738
0.357718 0.586693 -0.309647
0.361838 0.583944 -0.309178
0.367262 0.584303 -0.309852
0.375746 0.591741 -0.313135
0.379240 0.587426 -0.312105
0.383684 0.585333 -0.311895
0.388279 0.583582 -0.311812
0.394343 0.585082 -0.312934
0.397491 0.580127 -0.311668
0.403452 0.581321 -0.312680
0.412204 0.588384 -0.315878
0.416322 0.585498 -0.315378
0.423359 0.588706 -0.317148
0.429440 0.589849 -0.318147
0.435310 0.590514 -0.318964
0.440547 0.589882 -0.319290
0.448524 0.594660 -0.321641
0.453923 0.594291 -0.322053
0.456715 0.588903 -0.320562
0.460630 0.585786 -0.319910
0.466386 0.586219 -0.320583
0.475984 0.593818 -0.323954
0.481580 0.593902 -0.324467
0.486782 0.593300 -0.324701
0.489280 0.587877 -0.323081
0.493282 0.585298 -0.322516
0.499718 0.587117 -0.323600
0.505244 0.587369 -0.324062
0.509769 0.585953 -0.323860
0.513827 0.583834 -0.323361
0.519101 0.583893 -0.323664
0.527391 0.589088 -0.325902
0.525945 0.578098 -0.321913
0.532084 0.579883 -0.322782
0.544159 0.591408 -0.327353
0.549160 0.591391 -0.327468
0.553798 0.590893 -0.327365
0.557744 0.589404 -0.326848
0.561269 0.587382 -0.326092
0.572992 0.598305 -0.330269
0.603443 0.638183 -0.345518
-0.495301 0.590544 -0.297791
-0.489168 0.586534 -0.296761
-0.486106 0.588490 -0.297801
-0.481803 0.588201 -0.298025
-0.477479 0.587992 -0.298250
-0.474639 0.590839 -0.299525
-0.469312 0.588906 -0.299086
-0.465291 0.589693 -0.299578
-0.460812 0.589687 -0.299762
-0.457001 0.591176 -0.300446
-0.451443 0.589186 -0.299871
-0.446686 0.588950 -0.299889
-0.443039 0.591177 -0.300752
-0.439021 0.592763 -0.301361
-0.433738 0.591740 -0.301019
-0.428252 0.590344 -0.300521
-0.423642 0.590954 -0.300709
-0.419146 0.591915 -0.300998
-0.413897 0.591261 -0.300693
-0.409520 0.592673 -0.301099
-0.403579 0.590529 -0.300227
-0.399252 0.592202 -0.300687
-0.395008 0.594165 -0.301234
-0.389927 0.594185 -0.301078
-0.384589 0.593606 -0.300698
-0.379287 0.593123 -0.300339
-0.373881 0.592380 -0.299878
-0.369108 0.593251 -0.299978
-0.364301 0.594063 -0.300049
-0.359513 0.594944 -0.300137
-0.353732 0.593173 -0.299287
-0.348994 0.594175 -0.299408
-0.344112 0.594790 -0.299390
-0.338910 0.594494 -0.299051
-0.333689 0.594106 -0.298679
-0.328648 0.594188 -0.298472
-0.323897 0.595091 -0.298553
-0.318945 0.595376 -0.298420
-0.313161 0.593085 -0.297387
-0.308454 0.594007 -0.297482
-0.303564 0.594331 -0.297372
-0.297864 0.592009 -0.296342
-0.292909 0.591982 -0.296118
-0.287910 0.591750 -0.295827
-0.283121 0.592160 -0.295766
-0.278197 0.592058 -0.295532
-0.273188 0.591589 -0.295176
-0.268195 0.591094 -0.294817
-0.263078 0.590063 -0.294279
-0.258548 0.591117 -0.294471
-0.254030 0.592190 -0.294676
-0.248811 0.590523 -0.293937
-0.244264 0.591381 -0.294081
-0.239702 0.592147 -0.294199
-0.235084 0.592651 -0.294233
-0.230459 0.593080 -0.294248
-0.225885 0.593686 -0.294330
-0.221264 0.594044 -0.294334
-0.215920 0.591095 -0.293199
-0.211302 0.591290 -0.293160
-0.206948 0.592682 -0.293541
-0.201937 0.590898 -0.292831
-0.197265 0.590642 -0.292655
-0.192703 0.590872 -0.292653
-0.188092 0.590801 -0.292554
-0.183641 0.591518 -0.292734
-0.179081 0.591620 -0.292706
-0.174436 0.591185 -0.292500
-0.169969 0.591701 -0.292628
-0.165729 0.593563 -0.293226
-0.161335 0.594524 -0.293519
-0.156460 0.592409 -0.292756
-0.151698 0.590849 -0.292191
-0.147126 0.590429 -0.292024
-0.142792 0.591609 -0.292414
-0.138569 0.593640 -0.293103
-0.134158 0.594334 -0.293337
-0.129288 0.591404 -0.292325
-0.124716 0.590632 -0.292063
-0.120202 0.590248 -0.291940
-0.115679 0.589703 -0.291765
-0.111283 0.590244 -0.291970
-0.106761 0.589559 -0.291757
-0.102249 0.588858 -0.291543
-0.097829 0.589036 -0.291636
-0.093461 0.589777 -0.291928
-0.089141 0.591154 -0.292444
-0.084712 0.591253 -0.292522
-0.080277 0.591229 -0.292563
-0.075842 0.591175 -0.292598
-0.071437 0.591532 -0.292778
-0.066916 0.589909 -0.292278
-0.062466 0.589307 -0.292135
-0.058018 0.588555 -0.291944
-0.053672 0.589976 -0.292507
-0.049283 0.590580 -0.292792
-0.044873 0.590719 -0.292919
-0.040456 0.590631 -0.292972
-0.036193 0.596859 -0.295213
-0.031699 0.594179 -0.294377
-0.027213 0.590190 -0.293090
-0.022823 0.592264 -0.293906
-0.018412 0.594193 -0.294674
-0.013984 0.591002 -0.293673
-0.009588 0.587433 -0.292543
-0.005160 0.590588 -0.293747
-0.000728 0.591810 -0.294285
0.003725 0.593491 -0.294985
0.008218 0.596074 -0.296003
0.012670 0.596353 -0.296224
0.017121 0.596494 -0.296401
0.021802 0.602437 -0.298597
0.026173 0.599980 -0.297878
0.030572 0.598525 -0.297510
0.034092 0.580946 -0.291534
0.038775 0.586094 -0.293468
0.043001 0.583209 -0.292609
0.047895 0.590475 -0.295289
0.052640 0.594693 -0.296913
0.056899 0.592134 -0.296178
0.061154 0.589774 -0.295514
0.065604 0.589868 -0.295710
0.069950 0.588783 -0.295498
0.074276 0.587565 -0.295242
0.078829 0.588639 -0.295790
0.083381 0.589571 -0.296293
0.087397 0.585604 -0.295085
0.091397 0.581799 -0.293936
0.096341 0.585988 -0.295591
0.102125 0.596420 -0.299441
0.107005 0.599186 -0.300609
0.110887 0.594420 -0.299138
0.114815 0.590277 -0.297887
0.119573 0.592026 -0.298710
0.123888 0.590695 -0.298454
0.128355 0.590380 -0.298560
0.132867 0.590321 -0.298760
0.137245 0.589416 -0.298666
0.141666 0.588777 -0.298671
0.146275 0.589194 -0.299052
0.150267 0.586147 -0.298214
0.156610 0.595814 -0.301875
0.161799 0.598906 -0.303220
0.167239 0.603077 -0.304954
0.171185 0.599590 -0.303981
0.174795 0.594601 -0.302478
0.178688 0.591144 -0.301522
0.182934 0.589422 -0.301185
0.187224 0.587936 -0.300938
0.192331 0.590058 -0.301979
0.196604 0.588452 -0.301700
0.202060 0.591849 -0.303209
0.206466 0.590725 -0.303113
0.212622 0.596661 -0.305545
0.217453 0.597063 -0.306009
0.222207 0.597101 -0.306348
0.225786 0.592618 -0.305075
0.229986 0.590571 -0.304679
0.234829 0.590895 -0.305140
0.239782 0.591549 -0.305727
0.244412 0.590987 -0.305884
0.249040 0.590385 -0.306033
0.253833 0.590306 -0.306379
0.258531 0.589854 -0.306597
0.263086 0.588895 -0.306639
0.267697 0.588091 -0.306744
0.273679 0.591594 -0.308417
0.277231 0.587358 -0.307293
0.280476 0.582266 -0.305862
0.286253 0.584898 -0.307245
0.293917 0.592969 -0.310620
0.298529 0.591832 -0.310653
0.303646 0.592117 -0.311212
0.308325 0.591097 -0.311302
0.313453 0.591292 -0.311845
0.318758 0.591900 -0.312548
0.324549 0.593739 -0.313712
0.330073 0.594751 -0.314582
0.334697 0.593318 -0.314561
0.338644 0.590119 -0.313894
0.343555 0.589400 -0.314148
0.349720 0.591778 -0.315556
0.355629 0.593395 -0.316692
0.358158 0.586686 -0.314744
0.361419 0.581863 -0.313497
0.367371 0.583478 -0.314649
0.374362 0.587420 -0.316677
0.378368 0.584331 -0.316087
0.381858 0.580103 -0.315071
0.388928 0.583955 -0.317084
0.396122 0.587936 -0.319154
0.403222 0.591560 -0.321097
0.406109 0.585981 -0.319576
0.410729 0.584189 -0.319479
0.416567 0.584966 -0.320350
0.423033 0.586997 -0.321695
0.430065 0.590108 -0.323450
0.435227 0.589344 -0.323730
0.442250 0.592301 -0.325420
0.449739 0.596096 -0.327426
0.455837 0.597086 -0.328354
0.456904 0.588365 -0.325558
0.460801 0.585243 -0.324883
0.467427 0.587344 -0.326195
0.474227 0.589745 -0.327607
0.479117 0.588603 -0.327641
0.483927 0.587378 -0.327621
0.496859 0.600842 -0.333246
0.504260 0.604215 -0.334961
0.505213 0.596212 -0.332255
0.505952 0.588063 -0.329460
0.508971 0.584082 -0.328245
0.512241 0.580682 -0.327224
0.515518 0.577437 -0.326230
0.522331 0.580263 -0.327561
0.531820 0.587565 -0.330601
0.540282 0.593132 -0.332936
0.543309 0.589832 -0.331791
0.549862 0.592386 -0.332889
0.553410 0.590181 -0.332103
0.557891 0.589598 -0.331912
0.560248 0.585782 -0.330430
0.575040 0.601560 -0.336538
0.600819 0.634223 -0.349178
-0.490416 0.581301 -0.299125
-0.490299 0.588634 -0.302134
-0.486412 0.588969 -0.302625
-0.481414 0.587283 -0.302366
-0.476880 0.586602 -0.302438
-0.473813 0.588931 -0.303560
-0.470296 0.590535 -0.304395
-0.465533 0.589786 -0.304358
-0.461149 0.589917 -0.304608
-0.456733 0.590108 -0.304851
-0.451176 0.588051 -0.304258
-0.447000 0.588966 -0.304704
-0.443412 0.591258 -0.305617
-0.439085 0.592127 -0.305992
-0.434214 0.591938 -0.305960
-0.429022 0.591139 -0.305681
-0.424146 0.591112 -0.305657
-0.419356 0.591366 -0.305708
-0.414417 0.591368 -0.305647
-0.409885 0.592377 -0.305926
-0.405469 0.593749 -0.306315
-0.400253 0.593325 -0.306039
-0.395282 0.593524 -0.305970
-0.390238 0.593595 -0.305840
-0.384559 0.592143 -0.305148
-0.379680 0.592670 -0.305154
-0.374588 0.592695 -0.304968
-0.369615 0.593040 -0.304887
-0.364922 0.594132 -0.305064
-0.359087 0.592234 -0.304165
-0.353845 0.591865 -0.303806
-0.349325 0.593437 -0.304137
-0.344717 0.594796 -0.304387
-0.339526 0.594534 -0.304056
-0.334259 0.594021 -0.303635
-0.329085 0.593727 -0.303291
-0.324155 0.594105 -0.303187
-0.319309 0.594702 -0.303162
-0.314248 0.594624 -0.302900
-0.308855 0.593461 -0.302255
-0.303740 0.593089 -0.301894
-0.298907 0.593551 -0.301833
-0.293996 0.593718 -0.301671
-0.288877 0.593143 -0.301252
-0.283704 0.592307 -0.300746
-0.278805 0.592321 -0.300546
-0.274086 0.592904 -0.300553
-0.268927 0.591876 -0.299997
-0.263451 0.589588 -0.299003
-0.258972 0.590850 -0.299268
-0.254586 0.592450 -0.299659
-0.250061 0.593513 -0.299866
-0.244834 0.591780 -0.299095
-0.240175 0.592199 -0.299089
-0.235642 0.593090 -0.299256
-0.230599 0.591811 -0.298665
-0.226041 0.592491 -0.298771
-0.221331 0.592473 -0.298639
-0.216594 0.592263 -0.298445
-0.211592 0.590762 -0.297805
-0.207061 0.591343 -0.297903
-0.202406 0.591294 -0.297786
-0.197645 0.590647 -0.297467
-0.193014 0.590574 -0.297355
-0.188443 0.590742 -0.297334
-0.183907 0.591053 -0.297370
-0.179375 0.591337 -0.297402
-0.174727 0.590921 -0.297195
-0.170150 0.590840 -0.297112
-0.166104 0.593881 -0.298128
-0.161624 0.594367 -0.298255
-0.156832 0.592834 -0.297681
-0.151696 0.588870 -0.296261
-0.147405 0.590350 -0.296753
-0.143050 0.591433 -0.297112
-0.138763 0.593032 -0.297657
-0.134291 0.593295 -0.297739
-0.129534 0.591279 -0.297029
-0.124989 0.590781 -0.296856
-0.120553 0.591129 -0.296983
-0.116014 0.590541 -0.296788
-0.111496 0.590040 -0.296628
-0.107030 0.589960 -0.296620
-0.102496 0.589111 -0.296348
-0.098065 0.589257 -0.296428
-0.093681 0.589901 -0.296687
-0.089352 0.591239 -0.297195
-0.084909 0.591233 -0.297235
-0.080431 0.590710 -0.297099
-0.076007 0.590858 -0.297202
-0.071617 0.591528 -0.297492
-0.067179 0.591451 -0.297525
-0.062636 0.589322 -0.296841
-0.058211 0.589196 -0.296865
-0.053831 0.590012 -0.297222
-0.049444 0.590815 -0.297579
-0.044999 0.590104 -0.297408
-0.040590 0.590356 -0.297579
-0.036370 0.598486 -0.300520
-0.031855 0.595426 -0.299535
-0.027380 0.593050 -0.298795
-0.022951 0.592941 -0.298853
-0.018534 0.595210 -0.299752
-0.014095 0.591024 -0.298384
-0.009682 0.589774 -0.298052
-0.005265 0.590162 -0.298299
-0.000839 0.590793 -0.298635
0.003596 0.591521 -0.299009
0.008031 0.591955 -0.299284
0.012445 0.591445 -0.299229
0.016902 0.592337 -0.299671
0.021396 0.593888 -0.300349
0.025690 0.590492 -0.299286
0.030167 0.591505 -0.299782
0.034758 0.594398 -0.300945
0.039229 0.594734 -0.301209
0.043959 0.599056 -0.302885
0.048437 0.599030 -0.303029
0.052614 0.594855 -0.301708
0.056756 0.590710 -0.300400
0.061041 0.588742 -0.299866
0.065479 0.588689 -0.300012
0.069891 0.588330 -0.300054
0.074317 0.588104 -0.300146
0.079042 0.590778 -0.301271
0.083571 0.591346 -0.301653
0.087341 0.585073 -0.299608
0.091470 0.582339 -0.298823
0.096465 0.586878 -0.300627
0.102347 0.598002 -0.304782
0.107513 0.602837 -0.306705
0.110647 0.592443 -0.303207
0.114982 0.591193 -0.302970
0.119388 0.590476 -0.302926
0.123763 0.589558 -0.302815
0.128070 0.588221 -0.302558
0.132480 0.587556 -0.302545
0.136854 0.586679 -0.302460
0.141469 0.587212 -0.302885
0.145867 0.586445 -0.302848
0.150400 0.586415 -0.303081
0.156728 0.595953 -0.306752
0.162638 0.602769 -0.309456
0.167894 0.605870 -0.310833
0.172191 0.604018 -0.310437
0.175315 0.596542 -0.308019
0.178439 0.589380 -0.305716
0.182783 0.588122 -0.305543
0.187625 0.589113 -0.306188
0.192492 0.590123 -0.306846
0.196713 0.588261 -0.306472
0.200850 0.586076 -0.305985
0.206565 0.590434 -0.307874
0.209839 0.584716 -0.306119
0.216407 0.592193 -0.309156
0.219453 0.585684 -0.307123
0.223732 0.584055 -0.306867
0.230129 0.590321 -0.309491
0.234939 0.590501 -0.309909
0.239900 0.591157 -0.310508
0.244522 0.590547 -0.310653
0.248874 0.588967 -0.310449
0.253878 0.589600 -0.311062
0.258750 0.589712 -0.311493
0.263380 0.588971 -0.311619
0.267838 0.587642 -0.311535
0.274514 0.593312 -0.314034
0.276734 0.584885 -0.311353
0.281023 0.583000 -0.311085
0.286873 0.585807 -0.312557
0.294042 0.592363 -0.315426
0.299447 0.593515 -0.316309
0.304229 0.592787 -0.316504
0.309218 0.592601 -0.316909
0.314493 0.593153 -0.317596
0.319335 0.592441 -0.317822
0.326117 0.596910 -0.319987
0.331452 0.597348 -0.320660
0.334301 0.591216 -0.318884
0.339180 0.590425 -0.319111
0.344081 0.589655 -0.319351
0.349663 0.590545 -0.320223
0.354384 0.589230 -0.320273
0.359345 0.588476 -0.320539
0.361250 0.580367 -0.318034
0.369510 0.587436 -0.321266
0.374280 0.586128 -0.321338
0.378477 0.583484 -0.320906
0.382778 0.581098 -0.320573
0.389079 0.583200 -0.321950
0.398115 0.591242 -0.325598
0.404949 0.594234 -0.327329
0.410617 0.594601 -0.328059
0.412508 0.586906 -0.325698
0.418055 0.587036 -0.326331
0.424232 0.588443 -0.327452
0.429430 0.587790 -0.327778
0.436685 0.591289 -0.329699
0.443169 0.593153 -0.330985
0.450355 0.596350 -0.332781
0.454307 0.593176 -0.332099
0.458545 0.590630 -0.331645
0.461413 0.585550 -0.330189
0.467431 0.586528 -0.331071
0.473462 0.587533 -0.331946
0.477932 0.585678 -0.331687
0.483350 0.585625 -0.332109
0.492943 0.593127 -0.335466
0.501003 0.597792 -0.337693
0.501061 0.588328 -0.334355
0.504768 0.585479 -0.333579
0.513077 0.590698 -0.335944
0.515344 0.585567 -0.334210
0.514988 0.576177 -0.330766
0.522961 0.581006 -0.332887
0.534430 0.591633 -0.337261
0.542823 0.597098 -0.339571
0.547050 0.595769 -0.339170
0.547420 0.588331 -0.336323
0.553588 0.590407 -0.337195
0.558449 0.590474 -0.337240
