ply
format ascii 1.0
comment ---
element vertex 1738
property float x
property float y
property float z
element face 0
property list uchar uint vertex_indices
end_header
0.260664 0.615624 0.264422
0.264471 0.616424 0.264826
0.268146 0.616906 0.265151
0.271008 0.615619 0.265040
0.272234 0.610875 0.264082
0.275326 0.610182 0.264103
0.279424 0.611609 0.264633
0.282923 0.611784 0.264849
0.289786 0.618813 0.266734
0.294954 0.622298 0.267744
0.297477 0.620476 0.267443
0.300169 0.619059 0.267229
0.299242 0.610677 0.265291
0.302457 0.610480 0.265347
0.305313 0.609652 0.265234
0.307964 0.608503 0.265026
0.311077 0.608292 0.265032
0.313931 0.607665 0.264920
0.317093 0.607671 0.264946
0.320248 0.607728 0.264968
0.323131 0.607362 0.264867
0.325800 0.606690 0.264673
0.328340 0.605873 0.264426
0.330153 0.603872 0.263869
0.332460 0.602831 0.263531
0.337532 0.606625 0.264363
-0.338107 0.609225 0.266992
-0.335192 0.608977 0.267009
-0.332214 0.608690 0.266998
-0.332647 0.614736 0.268549
-0.327216 0.610108 0.267419
-0.325283 0.612013 0.267900
-0.321569 0.610666 0.267551
-0.318639 0.610863 0.267569
-0.315438 0.610614 0.267457
-0.312422 0.610787 0.267433
-0.309745 0.611698 0.267575
-0.307285 0.613120 0.267827
-0.304061 0.613101 0.267703
-0.300110 0.611661 0.267211
-0.296961 0.611887 0.267117
-0.293604 0.611732 0.266915
-0.290234 0.611588 0.266703
-0.287101 0.611982 0.266611
-0.284189 0.612893 0.266635
-0.281232 0.613756 0.266637
-0.277924 0.613890 0.266448
-0.274545 0.613886 0.266218
-0.270687 0.612814 0.265717
-0.268080 0.614581 0.265907
-0.264588 0.614349 0.265601
-0.260792 0.613394 0.265114
-0.257744 0.614189 0.265051
-0.254427 0.614346 0.264828
-0.251249 0.614833 0.264684
-0.247716 0.614437 0.264324
-0.244191 0.614032 0.263962
-0.240522 0.613222 0.263502
-0.237377 0.613719 0.263359
-0.234076 0.613794 0.263115
-0.230772 0.613831 0.262863
-0.227131 0.612926 0.262388
-0.224085 0.613593 0.262292
-0.220526 0.612813 0.261853
-0.217614 0.613804 0.261840
-0.214331 0.613720 0.261573
-0.210931 0.613252 0.261219
-0.207820 0.613586 0.261059
-0.204712 0.613898 0.260899
-0.201732 0.614572 0.260827
-0.198498 0.614435 0.260568
-0.195086 0.613686 0.260169
-0.191956 0.613777 0.259973
-0.189100 0.614727 0.259983
-0.185734 0.613967 0.259596
-0.182471 0.613482 0.259278
-0.179446 0.613763 0.259144
-0.176353 0.613772 0.258951
-0.173285 0.613829 0.258774
-0.170377 0.614431 0.258728
-0.167426 0.614852 0.258645
-0.164625 0.615816 0.258692
-0.161600 0.615914 0.258541
-0.158399 0.615275 0.258224
-0.155533 0.615923 0.258210
-0.152530 0.615991 0.258065
-0.149510 0.615953 0.257900
-0.146382 0.615413 0.257624
-0.143557 0.616137 0.257643
-0.140434 0.615517 0.257356
-0.137484 0.615629 0.257242
-0.134739 0.616666 0.257344
-0.131871 0.617126 0.257317
-0.128852 0.616829 0.257119
-0.125619 0.615406 0.256668
-0.122954 0.616808 0.256867
-0.119718 0.615226 0.256387
-0.116786 0.615179 0.256261
-0.113958 0.615671 0.256263
-0.111255 0.616880 0.256430
-0.108460 0.617579 0.256484
-0.105386 0.616596 0.256158
-0.102414 0.616154 0.255958
-0.099332 0.614945 0.255587
-0.096668 0.616421 0.255829
-0.093740 0.616142 0.255675
-0.090870 0.616222 0.255606
-0.088200 0.617760 0.255870
-0.085114 0.616194 0.255432
-0.082238 0.616156 0.255343
-0.079427 0.616613 0.255370
-0.076586 0.616832 0.255344
-0.073708 0.616704 0.255243
-0.070897 0.617171 0.255278
-0.067972 0.616531 0.255066
-0.065057 0.615912 0.254860
-0.062144 0.615217 0.254640
-0.059223 0.614338 0.254380
-0.056669 0.617728 0.255086
-0.053726 0.616561 0.254766
-0.050797 0.615413 0.254452
-0.047937 0.615074 0.254322
-0.045154 0.615854 0.254447
-0.042371 0.616729 0.254595
-0.039534 0.616767 0.254556
-0.036665 0.616119 0.254364
-0.033836 0.616210 0.254341
-0.031019 0.616604 0.254388
-0.028127 0.614984 0.253983
-0.025290 0.614582 0.253855
-0.022482 0.615147 0.253945
-0.019659 0.615211 0.253925
-0.016831 0.614991 0.253842
-0.014002 0.614556 0.253713
-0.011180 0.614329 0.253632
-0.008362 0.615070 0.253770
-0.005538 0.615515 0.253843
-0.002708 0.616345 0.254005
0.000130 0.617081 0.254146
0.002947 0.616103 0.253905
0.005778 0.616205 0.253908
0.008597 0.615828 0.253805
0.011451 0.616675 0.253978
0.014286 0.616731 0.253975
0.017116 0.616634 0.253940
0.019940 0.616409 0.253878
0.022750 0.615912 0.253756
0.025597 0.616182 0.253808
0.028357 0.614895 0.253513
0.031219 0.615389 0.253619
0.034157 0.616929 0.253960
0.036941 0.616110 0.253775
0.039708 0.615168 0.253564
0.042529 0.614962 0.253520
0.045365 0.614936 0.253518
0.048169 0.614535 0.253434
0.051143 0.615923 0.253753
0.053968 0.615681 0.253708
0.056735 0.614891 0.253542
0.059629 0.615299 0.253647
0.062480 0.615276 0.253658
0.065335 0.615269 0.253674
0.068235 0.615594 0.253767
0.071044 0.615170 0.253694
0.073786 0.614262 0.253514
0.076548 0.613528 0.253376
0.079565 0.614593 0.253643
0.082509 0.615071 0.253782
0.085436 0.615383 0.253885
0.088314 0.615347 0.253913
0.091011 0.614172 0.253688
0.093825 0.613735 0.253631
0.097100 0.615966 0.254176
0.099761 0.614588 0.253913
0.102577 0.614106 0.253853
0.105638 0.614932 0.254092
0.108447 0.614376 0.254021
0.111228 0.613673 0.253921
0.114167 0.613759 0.254001
0.117046 0.613523 0.254012
0.120082 0.614006 0.254188
0.123287 0.615214 0.254531
0.126135 0.614726 0.254495
0.128766 0.613275 0.254244
0.131653 0.612958 0.254253
0.134416 0.612095 0.254142
0.137251 0.611534 0.254102
0.140366 0.612096 0.254321
0.143429 0.612394 0.254483
0.146430 0.612405 0.254584
0.149221 0.611576 0.254499
0.152299 0.611820 0.254660
0.155597 0.612829 0.255000
0.158652 0.612884 0.255127
0.161465 0.612043 0.255054
0.164563 0.612187 0.255210
0.167640 0.612217 0.255344
0.170659 0.612011 0.255428
0.173703 0.611856 0.255528
0.177134 0.612924 0.255912
0.180250 0.612910 0.256053
0.183258 0.612517 0.256112
0.186560 0.613008 0.256378
0.189766 0.613149 0.256568
0.192665 0.612326 0.256540
0.195568 0.611499 0.256516
0.198558 0.610913 0.256551
0.201657 0.610613 0.256656
0.204683 0.610079 0.256710
0.208733 0.612356 0.257420
0.211406 0.610770 0.257239
0.214359 0.609944 0.257237
0.217705 0.610144 0.257477
0.221073 0.610360 0.257724
0.224539 0.610783 0.258023
0.228065 0.611313 0.258350
0.231666 0.611981 0.258712
0.234528 0.610775 0.258638
0.237833 0.610649 0.258818
0.241143 0.610511 0.258996
0.245565 0.612981 0.259789
0.251063 0.617871 0.261155
0.253085 0.614604 0.260598
0.256195 0.613874 0.260638
0.259541 0.613679 0.260802
0.265013 0.618187 0.262080
0.269113 0.619569 0.262615
0.273742 0.622056 0.263409
0.274693 0.616629 0.262316
0.276743 0.613654 0.261797
0.279558 0.612352 0.261671
0.284618 0.615715 0.262650
0.289309 0.618263 0.263429
0.293538 0.619846 0.263967
0.294899 0.615718 0.263126
0.303161 0.625278 0.265558
0.301936 0.616218 0.263506
0.302218 0.610293 0.262192
0.307256 0.613589 0.263081
0.308056 0.608882 0.262029
0.310836 0.608016 0.261885
0.313830 0.607618 0.261838
0.316605 0.606885 0.261694
0.320153 0.607629 0.261888
0.323760 0.608528 0.262103
0.326120 0.607264 0.261778
0.328652 0.606394 0.261531
0.332148 0.607292 0.261692
0.337074 0.610721 0.262443
0.350715 0.629112 0.266776
-0.337500 0.607872 0.263695
-0.335914 0.610041 0.264295
-0.332971 0.609858 0.264301
-0.329034 0.607926 0.263863
-0.326943 0.609458 0.264252
-0.323968 0.609441 0.264245
-0.321640 0.610720 0.264536
-0.319212 0.611908 0.264786
-0.315976 0.611636 0.264662
-0.312835 0.611611 0.264580
-0.309692 0.611646 0.264496
-0.306155 0.610964 0.264221
-0.304582 0.614265 0.264900
-0.300474 0.612551 0.264342
-0.297092 0.612336 0.264135
-0.293756 0.612260 0.263948
-0.290371 0.612117 0.263732
-0.286946 0.611922 0.263492
-0.283835 0.612427 0.263410
-0.281106 0.613802 0.263528
-0.277631 0.613587 0.263253
-0.274164 0.613399 0.262976
-0.270929 0.613744 0.262822
-0.266879 0.612234 0.262216
-0.263878 0.613120 0.262179
-0.260944 0.614185 0.262181
-0.257669 0.614457 0.261990
-0.254463 0.614894 0.261835
-0.251323 0.615487 0.261716
-0.248092 0.615852 0.261540
-0.244030 0.614115 0.260867
-0.240711 0.614198 0.260626
-0.236972 0.613168 0.260123
-0.233945 0.613953 0.260049
-0.230803 0.614420 0.259902
-0.227277 0.613828 0.259509
-0.223438 0.612323 0.258905
-0.220531 0.613336 0.258893
-0.217408 0.613728 0.258740
-0.214239 0.613962 0.258552
-0.210760 0.613255 0.258150
-0.207667 0.613632 0.258003
-0.204648 0.614204 0.257906
-0.201513 0.614398 0.257724
-0.198221 0.614064 0.257425
-0.195160 0.614406 0.257287
-0.192038 0.614522 0.257101
-0.188586 0.613517 0.256661
-0.185383 0.613263 0.256399
-0.182251 0.613200 0.256185
-0.179374 0.613971 0.256167
-0.176328 0.614138 0.256015
-0.173414 0.614735 0.255965
-0.170308 0.614616 0.255756
-0.167476 0.615468 0.255773
-0.164620 0.616222 0.255772
-0.161282 0.615098 0.255347
-0.158194 0.614877 0.255133
-0.155338 0.615541 0.255123
-0.152560 0.616512 0.255187
-0.149516 0.616367 0.255002
-0.146624 0.616827 0.254957
-0.143478 0.616161 0.254663
-0.140522 0.616273 0.254548
-0.137451 0.615832 0.254312
-0.134717 0.616909 0.254421
-0.131943 0.617808 0.254494
-0.128911 0.617450 0.254288
-0.125838 0.616833 0.254027
-0.122807 0.616365 0.253803
-0.119727 0.615580 0.253512
-0.116875 0.615958 0.253485
-0.114156 0.617064 0.253624
-0.111284 0.617328 0.253577
-0.108325 0.617053 0.253413
-0.105368 0.616745 0.253244
-0.102429 0.616499 0.253093
-0.099575 0.616762 0.253058
-0.096720 0.616998 0.253019
-0.093783 0.616660 0.252856
-0.090840 0.616224 0.252673
-0.087768 0.614775 0.252269
-0.084890 0.614678 0.252167
-0.082249 0.616423 0.252476
-0.079379 0.616387 0.252393
-0.076465 0.615946 0.252222
-0.073707 0.616843 0.252350
-0.070850 0.616857 0.252285
-0.068009 0.617008 0.252252
-0.065100 0.616448 0.252064
-0.062229 0.616215 0.251950
-0.059404 0.616454 0.251943
-0.056579 0.616707 0.251941
-0.053716 0.616468 0.251832
-0.050815 0.615663 0.251601
-0.047947 0.615198 0.251446
-0.045146 0.615684 0.251503
-0.042402 0.617179 0.251785
-0.039549 0.616915 0.251680
-0.036683 0.616317 0.251503
-0.033840 0.616090 0.251410
-0.030991 0.615630 0.251268
-0.028145 0.615119 0.251116
-0.025305 0.614622 0.250969
-0.022499 0.615183 0.251056
-0.019683 0.615504 0.251092
-0.016862 0.615713 0.251105
-0.014037 0.615761 0.251084
-0.011203 0.614512 0.250780
-0.008385 0.614876 0.250832
-0.005563 0.615565 0.250957
-0.002744 0.614843 0.250773
0.000078 0.614977 0.250779
0.002920 0.616234 0.251034
0.005755 0.616615 0.251097
0.008601 0.617253 0.251218
0.011432 0.617159 0.251180
0.014247 0.616615 0.251045
0.017054 0.616001 0.250896
0.019894 0.616219 0.250932
0.022774 0.617214 0.251140
0.025554 0.616145 0.250896
0.028389 0.616182 0.250896
0.031195 0.615720 0.250789
0.034046 0.615965 0.250839
0.036853 0.615558 0.250747
0.039689 0.615554 0.250745
0.042524 0.615521 0.250739
0.045338 0.615235 0.250679
0.048181 0.615259 0.250689
0.050995 0.614972 0.250632
0.053814 0.614736 0.250589
0.056705 0.615178 0.250696
0.059560 0.615236 0.250720
0.062389 0.615040 0.250691
0.065243 0.615048 0.250709
0.068130 0.615293 0.250781
0.070969 0.615134 0.250766
0.073701 0.614160 0.250575
0.076786 0.615771 0.250953
0.079499 0.614659 0.250736
0.082361 0.614606 0.250753
0.085278 0.614884 0.250845
0.088241 0.615411 0.250995
0.091115 0.615335 0.251015
0.093790 0.614052 0.250771
0.096540 0.613249 0.250636
0.099435 0.613278 0.250686
0.102319 0.613220 0.250720
0.105474 0.614581 0.251069
0.108504 0.615202 0.251258
0.111331 0.614728 0.251208
0.114184 0.614374 0.251188
0.117062 0.614134 0.251197
0.120017 0.614232 0.251282
0.123137 0.615061 0.251533
0.126074 0.614994 0.251588
0.128845 0.614168 0.251480
0.131607 0.613303 0.251365
0.134394 0.612550 0.251279
0.137209 0.611912 0.251222
0.140142 0.611742 0.251271
0.143238 0.612195 0.251463
0.146137 0.611825 0.251475
0.149304 0.612461 0.251715
0.152284 0.612337 0.251790
0.155443 0.612838 0.252007
0.158485 0.612859 0.252122
0.161448 0.612566 0.252171
0.164294 0.611836 0.252127
0.167545 0.612480 0.252393
0.170570 0.612305 0.252481
0.173786 0.612727 0.252706
0.176915 0.612815 0.252861
0.180068 0.612934 0.253027
0.183029 0.612408 0.253053
0.186056 0.612063 0.253123
0.189085 0.611694 0.253193
0.192009 0.610983 0.253189
0.195372 0.611544 0.253476
0.198471 0.611286 0.253583
0.201519 0.610845 0.253653
0.204720 0.610812 0.253819
0.208313 0.611823 0.254225
0.211497 0.611648 0.254367
0.214354 0.610562 0.254306
0.217585 0.610457 0.254470
0.221179 0.611267 0.254847
0.224320 0.610851 0.254948
0.227706 0.611030 0.255187
0.231041 0.611044 0.255392
0.234149 0.610464 0.255462
0.237290 0.609946 0.255549
0.240790 0.610276 0.255831
0.243503 0.608704 0.255678
0.245994 0.606630 0.255408
0.250065 0.608230 0.255984
0.253612 0.608576 0.256272
0.256583 0.607601 0.256253
0.259958 0.607533 0.256441
0.263065 0.606871 0.256489
0.266977 0.607958 0.256939
0.272088 0.611575 0.257975
0.275108 0.610694 0.257960
0.277013 0.607514 0.257401
0.280822 0.608341 0.257770
0.284162 0.608210 0.257907
0.287755 0.608609 0.258159
0.291164 0.608658 0.258320
0.295688 0.610926 0.258991
0.298567 0.609977 0.258894
0.300817 0.607877 0.258514
0.304232 0.608083 0.258663
0.307700 0.608429 0.258831
0.311216 0.608910 0.259015
0.314016 0.608114 0.258883
0.316807 0.607374 0.258747
0.321533 0.610214 0.259440
0.324161 0.609301 0.259230
0.326317 0.607635 0.258825
0.328119 0.605445 0.258279
0.330245 0.603928 0.257874
0.334753 0.606631 0.258446
0.341306 0.612867 0.259833
-0.339691 0.611538 0.261606
-0.336044 0.610052 0.261312
-0.332386 0.608602 0.261007
-0.329355 0.608355 0.260972
-0.326526 0.608556 0.261027
-0.324413 0.610177 0.261403
-0.321864 0.611079 0.261588
-0.319187 0.611830 0.261720
-0.316714 0.613058 0.261948
-0.312800 0.611577 0.261512
-0.308450 0.609273 0.260862
-0.308090 0.614905 0.262090
-0.303830 0.612887 0.261478
-0.300474 0.612713 0.261290
-0.297111 0.612567 0.261096
-0.293929 0.612839 0.260987
-0.290692 0.613039 0.260850
-0.286829 0.611948 0.260395
-0.284359 0.613853 0.260639
-0.280439 0.612674 0.260144
-0.276844 0.612197 0.259807
-0.273750 0.612841 0.259727
-0.270601 0.613386 0.259618
-0.267278 0.613549 0.259412
-0.263961 0.613732 0.259207
-0.260870 0.614442 0.259121
-0.257676 0.614919 0.258978
-0.254590 0.615656 0.258892
-0.251304 0.615906 0.258692
-0.246958 0.613508 0.257877
-0.243649 0.613634 0.257648
-0.240666 0.614569 0.257606
-0.236892 0.613451 0.257092
-0.233790 0.614038 0.256973
-0.230859 0.615066 0.256956
-0.226582 0.612443 0.256104
-0.223521 0.613048 0.255996
-0.220470 0.613662 0.255892
-0.217381 0.614147 0.255762
-0.213662 0.612792 0.255216
-0.210667 0.613476 0.255139
-0.207588 0.613886 0.255003
-0.204475 0.614167 0.254841
-0.201324 0.614298 0.254649
-0.198218 0.614528 0.254484
-0.194984 0.614320 0.254225
-0.191882 0.614484 0.254054
-0.188379 0.613295 0.253583
-0.185204 0.613119 0.253344
-0.182298 0.613805 0.253303
-0.179132 0.613577 0.253062
-0.176369 0.614716 0.253131
-0.173268 0.614641 0.252933
-0.170177 0.614558 0.252737
-0.167482 0.615905 0.252864
-0.163919 0.613966 0.252264
-0.160997 0.614397 0.252196
-0.157981 0.614426 0.252042
-0.155274 0.615666 0.252161
-0.152482 0.616567 0.252208
-0.149206 0.615433 0.251809
-0.146259 0.615627 0.251708
-0.143597 0.617038 0.251878
-0.140560 0.616794 0.251688
-0.137287 0.615415 0.251251
-0.134385 0.615681 0.251180
-0.131538 0.616191 0.251167
-0.128703 0.616741 0.251166
-0.125773 0.616812 0.251062
-0.122671 0.615961 0.250760
-0.119673 0.615581 0.250565
-0.117004 0.616937 0.250752
-0.114175 0.617442 0.250757
-0.111096 0.616510 0.250450
-0.108220 0.616687 0.250389
-0.105319 0.616692 0.250293
-0.102413 0.616635 0.250186
-0.099716 0.617896 0.250370
-0.096732 0.617296 0.250150
-0.093848 0.617312 0.250068
-0.090898 0.616828 0.249879
-0.087834 0.615448 0.249498
-0.084889 0.614843 0.249288
-0.082075 0.615205 0.249291
-0.079313 0.615998 0.249390
-0.076566 0.616953 0.249525
-0.073680 0.616729 0.249408
-0.070810 0.616603 0.249314
-0.067990 0.616925 0.249319
-0.065184 0.617398 0.249358
-0.062296 0.617017 0.249215
-0.059391 0.616362 0.249015
-0.056466 0.615380 0.248746
-0.053707 0.616366 0.248904
-0.050847 0.616078 0.248789
-0.048007 0.616035 0.248729
-0.045234 0.616983 0.248884
-0.042425 0.617459 0.248940
-0.039570 0.617166 0.248831
-0.036692 0.616327 0.248606
-0.033815 0.615321 0.248347
-0.030992 0.615363 0.248316
-0.028175 0.615590 0.248325
-0.025348 0.615512 0.248271
-0.022528 0.615664 0.248268
-0.019701 0.615529 0.248205
-0.016876 0.615389 0.248142
-0.014073 0.616952 0.248447
-0.011234 0.615674 0.248143
-0.008408 0.614812 0.247930
-0.005589 0.615117 0.247969
-0.002761 0.616268 0.248191
0.000064 0.616234 0.248160
0.002892 0.616345 0.248162
0.005731 0.616933 0.248268
0.008557 0.616779 0.248216
0.011373 0.616309 0.248098
0.014180 0.615687 0.247948
0.017021 0.616093 0.248021
0.019863 0.616389 0.248071
0.022699 0.616480 0.248079
0.025680 0.619253 0.248664
0.028314 0.615618 0.247876
0.031123 0.615276 0.247797
0.033938 0.615037 0.247740
0.036811 0.615627 0.247863
0.039721 0.616599 0.248070
0.042571 0.616705 0.248093
0.045342 0.615875 0.247916
0.048131 0.615301 0.247797
0.050963 0.615207 0.247781
0.053743 0.614590 0.247656
0.056579 0.614542 0.247654
0.059401 0.614341 0.247622
0.062319 0.614977 0.247771
0.065197 0.615204 0.247834
0.068112 0.615685 0.247954
0.070850 0.614736 0.247768
0.073777 0.615250 0.247899
0.076596 0.614924 0.247852
0.079235 0.613340 0.247537
0.082084 0.613253 0.247545
0.085087 0.614148 0.247766
0.088045 0.614684 0.247913
0.090963 0.614915 0.247997
0.093802 0.614636 0.247973
0.096665 0.614481 0.247979
0.099529 0.614317 0.247985
0.102392 0.614132 0.247989
0.105168 0.613461 0.247891
0.108325 0.614784 0.248226
0.111334 0.615257 0.248380
0.114056 0.614260 0.248220
0.117008 0.614391 0.248306
0.119948 0.614431 0.248376
0.122701 0.613571 0.248254
0.125620 0.613471 0.248300
0.128716 0.614125 0.248512
0.131624 0.613908 0.248538
0.134462 0.613371 0.248499
0.137234 0.612551 0.248402
0.140083 0.612044 0.248376
0.143074 0.612086 0.248472
0.146041 0.611998 0.248544
0.148922 0.611552 0.248541
0.152012 0.611871 0.248709
0.155030 0.611873 0.248811
0.158562 0.613703 0.249315
0.161231 0.612365 0.249134
0.164362 0.612644 0.249309
0.167523 0.612982 0.249500
0.170510 0.612684 0.249557
0.173363 0.611914 0.249516
0.176446 0.611876 0.249638
0.179815 0.612717 0.249956
0.182861 0.612476 0.250042
0.185556 0.611113 0.249886
0.189358 0.613126 0.250476
0.192168 0.612061 0.250394
0.195402 0.612243 0.250589
0.198275 0.611327 0.250548
0.201271 0.610750 0.250584
0.204701 0.611373 0.250890
0.208161 0.612020 0.251206
0.211155 0.611334 0.251231
0.214444 0.611422 0.251430
0.217870 0.611834 0.251706
0.220751 0.610767 0.251656
0.224339 0.611518 0.252014
0.227556 0.611267 0.252152
0.230931 0.611384 0.252374
0.233933 0.610542 0.252385
0.236850 0.609482 0.252349
0.240505 0.610193 0.252711
0.243217 0.608621 0.252561
0.246465 0.608317 0.252697
0.250068 0.608816 0.253015
0.253495 0.608881 0.253234
0.257008 0.609117 0.253491
0.260103 0.608404 0.253532
0.263348 0.608025 0.253646
0.267019 0.608567 0.253966
0.271643 0.611129 0.254742
0.274498 0.609893 0.254650
0.277301 0.608580 0.254533
0.280401 0.607918 0.254559
0.284276 0.608865 0.254944
0.287768 0.609035 0.255144
0.291317 0.609336 0.255364
0.295582 0.611066 0.255903
0.298211 0.609606 0.255697
0.300126 0.606836 0.255178
0.303967 0.607837 0.255513
0.308255 0.609706 0.256035
0.312094 0.610746 0.256351
0.314375 0.608942 0.255997
0.318303 0.610242 0.256342
0.321226 0.609759 0.256260
0.324783 0.610485 0.256440
0.326295 0.607631 0.255777
0.328152 0.605505 0.255265
0.331654 0.606357 0.255423
0.334560 0.606236 0.255338
0.337560 0.606353 0.255291
-0.337749 0.607831 0.257750
-0.336002 0.609771 0.258255
-0.332351 0.608362 0.257958
-0.329414 0.608318 0.257964
-0.326957 0.609239 0.258177
-0.324358 0.609990 0.258333
-0.321750 0.610814 0.258488
-0.319331 0.612085 0.258730
-0.316106 0.611901 0.258614
-0.313000 0.612013 0.258551
-0.310761 0.613893 0.258884
-0.306896 0.612645 0.258471
-0.303127 0.611616 0.258095
-0.300364 0.612660 0.258187
-0.297056 0.612654 0.258022
-0.293968 0.613147 0.257959
-0.291038 0.614021 0.257973
-0.287771 0.614230 0.257822
-0.283645 0.612621 0.257241
-0.280690 0.613546 0.257237
-0.277048 0.612993 0.256884
-0.273714 0.613127 0.256683
-0.270501 0.613544 0.256540
-0.267289 0.613975 0.256397
-0.263860 0.613912 0.256135
-0.260546 0.614109 0.255930
-0.257678 0.615364 0.255963
-0.253621 0.613764 0.255344
-0.251118 0.615909 0.255577
-0.247021 0.614132 0.254917
-0.243827 0.614553 0.254758
-0.240464 0.614528 0.254498
-0.236901 0.613953 0.254116
-0.233772 0.614475 0.253982
-0.230553 0.614734 0.253792
-0.227093 0.614312 0.253451
-0.223891 0.614551 0.253262
-0.220356 0.613828 0.252860
-0.217226 0.614191 0.252706
-0.213681 0.613328 0.252281
-0.210553 0.613619 0.252117
-0.207257 0.613375 0.251839
-0.204040 0.613323 0.251607
-0.201148 0.614223 0.251590
-0.197928 0.614085 0.251347
-0.194866 0.614402 0.251209
-0.191324 0.613134 0.250727
-0.188108 0.612851 0.250466
-0.185214 0.613589 0.250434
-0.182319 0.614312 0.250402
-0.179220 0.614309 0.250216
-0.176107 0.614213 0.250014
-0.173026 0.614186 0.249831
-0.170028 0.614419 0.249709
-0.167025 0.614600 0.249580
-0.164130 0.615160 0.249537
-0.160848 0.614203 0.249170
-0.157751 0.613893 0.248946
-0.155247 0.615928 0.249235
-0.152435 0.616736 0.249262
-0.149245 0.615951 0.248948
-0.146201 0.615723 0.248758
-0.143208 0.615669 0.248609
-0.140103 0.615072 0.248348
-0.137206 0.615368 0.248282
-0.134320 0.615692 0.248226
-0.131449 0.616070 0.248185
-0.128540 0.616241 0.248103
-0.125580 0.616127 0.247963
-0.122694 0.616361 0.247900
-0.119937 0.617251 0.247981
-0.116689 0.615488 0.247498
-0.113925 0.616303 0.247569
-0.111246 0.617618 0.247750
-0.108240 0.617042 0.247529
-0.105163 0.615972 0.247207
-0.102412 0.616850 0.247302
-0.099535 0.616939 0.247232
-0.096771 0.617757 0.247320
-0.093840 0.617446 0.247170
-0.090861 0.616750 0.246940
-0.087913 0.616201 0.246745
-0.085135 0.616884 0.246813
-0.082307 0.617199 0.246806
-0.079413 0.616964 0.246684
-0.076577 0.617181 0.246661
-0.073705 0.617068 0.246569
-0.070778 0.616399 0.246362
-0.067987 0.616981 0.246422
-0.065211 0.617752 0.246524
-0.062262 0.616701 0.246242
-0.059480 0.617415 0.246336
-0.056558 0.616501 0.246087
-0.053667 0.615848 0.245896
-0.050914 0.616966 0.246080
-0.048087 0.617138 0.246066
-0.045242 0.617029 0.245995
-0.042397 0.616885 0.245918
-0.039584 0.617275 0.245955
-0.036742 0.617133 0.245882
-0.033800 0.614740 0.245337
-0.030989 0.614981 0.245347
-0.028192 0.615666 0.245453
-0.025372 0.615794 0.245443
-0.022514 0.614486 0.245133
-0.019696 0.614447 0.245091
-0.016887 0.614906 0.245155
-0.014059 0.614126 0.244961
-0.011248 0.614563 0.245023
-0.008432 0.614676 0.245019
-0.005615 0.614776 0.245014
-0.002788 0.616271 0.245303
0.000036 0.616147 0.245253
0.002856 0.615904 0.245180
0.005687 0.616281 0.245238
0.008514 0.616318 0.245227
0.011316 0.615508 0.245039
0.014153 0.615905 0.245106
0.016946 0.615083 0.244919
0.019796 0.615715 0.245038
0.022625 0.615774 0.245038
0.025413 0.615030 0.244872
0.028211 0.614558 0.244764
0.031025 0.614390 0.244721
0.033815 0.613880 0.244609
0.036659 0.614167 0.244664
0.039782 0.618007 0.245467
0.042513 0.616605 0.245172
0.045283 0.615772 0.244998
0.048063 0.615129 0.244865
0.050831 0.614401 0.244716
0.053717 0.614885 0.244823
0.056354 0.612951 0.244425
0.059329 0.614222 0.244701
0.062140 0.613948 0.244654
0.065199 0.615741 0.245043
0.068030 0.615539 0.245016
0.070904 0.615670 0.245060
0.073696 0.615155 0.244971
0.076478 0.614579 0.244871
0.079186 0.613507 0.244669
0.082026 0.613367 0.244664
0.085095 0.614700 0.244971
0.088002 0.614909 0.245045
0.090822 0.614546 0.245000
0.093652 0.614237 0.244969
0.096808 0.615810 0.245336
0.099609 0.615268 0.245262
0.102289 0.614064 0.245050
0.105161 0.613926 0.245065
0.108169 0.614471 0.245227
0.110882 0.613462 0.245064
0.113975 0.614360 0.245305
0.116956 0.614644 0.245420
0.119580 0.613196 0.245173
0.122389 0.612642 0.245116
0.125162 0.611913 0.245027
0.128436 0.613406 0.245409
0.131479 0.613800 0.245562
0.134338 0.613369 0.245544
0.137104 0.612534 0.245445
0.139937 0.611976 0.245407
0.142912 0.611969 0.245488
0.145921 0.612062 0.245595
0.148721 0.611318 0.245528
0.151785 0.611557 0.245673
0.154789 0.611529 0.245765
0.158138 0.612720 0.246119
0.160901 0.611744 0.246017
0.164250 0.612812 0.246354
0.167440 0.613259 0.246563
0.170139 0.612000 0.246412
0.173207 0.611966 0.246527
0.176359 0.612165 0.246695
0.179154 0.611178 0.246614
0.182120 0.610721 0.246650
0.185727 0.612226 0.247110
0.188848 0.612160 0.247238
0.192376 0.613279 0.247626
0.195212 0.612276 0.247561
0.198181 0.611650 0.247581
0.201209 0.611172 0.247637
0.204360 0.611014 0.247766
0.207739 0.611453 0.248028
0.210915 0.611284 0.248163
0.214072 0.611027 0.248282
0.217830 0.612336 0.248746
0.221440 0.613180 0.249112
0.224281 0.611977 0.249036
0.226891 0.610182 0.248834
0.230903 0.611920 0.249405
0.233698 0.610561 0.249303
0.236735 0.609798 0.249332
0.240064 0.609727 0.249515
0.243888 0.610801 0.249951
0.246758 0.609586 0.249885
0.249713 0.608571 0.249863
0.253041 0.608412 0.250029
0.257072 0.609818 0.250541
0.260124 0.608994 0.250558
0.263462 0.608806 0.250714
0.266594 0.608164 0.250767
0.269542 0.607139 0.250731
0.273869 0.609050 0.251343
0.277120 0.608670 0.251441
0.280419 0.608403 0.251558
0.284199 0.609133 0.251891
0.287702 0.609305 0.252092
0.291168 0.609417 0.252270
0.295072 0.610416 0.252638
0.297940 0.609404 0.252543
0.300918 0.608661 0.252498
0.304394 0.608921 0.252665
0.307929 0.609331 0.252853
0.311269 0.609415 0.252953
0.314733 0.609781 0.253103
0.318659 0.611040 0.253438
0.321820 0.610949 0.253454
0.323991 0.609146 0.253066
0.326014 0.607181 0.252626
0.328908 0.606853 0.252537
0.332126 0.607167 0.252577
0.335741 0.608235 0.252769
0.338133 0.607260 0.252483
-0.337267 0.606751 0.254526
-0.335566 0.608794 0.255036
-0.333079 0.609524 0.255228
-0.329722 0.608752 0.255059
-0.327040 0.609293 0.255173
-0.324500 0.610187 0.255350
-0.321918 0.611093 0.255512
-0.319270 0.611963 0.255648
-0.316367 0.612429 0.255676
-0.313238 0.612534 0.255604
-0.310262 0.613003 0.255599
-0.307855 0.614669 0.255852
-0.303407 0.612330 0.255177
-0.300085 0.612272 0.255009
-0.297080 0.612910 0.254986
-0.294278 0.614025 0.255059
-0.290765 0.613708 0.254795
-0.287596 0.614141 0.254692
-0.282943 0.611416 0.253865
-0.280996 0.614542 0.254352
-0.277278 0.613849 0.253970
-0.273870 0.613842 0.253736
-0.270450 0.613812 0.253491
-0.267109 0.613960 0.253283
-0.263488 0.613457 0.252924
-0.260521 0.614474 0.252903
-0.257258 0.614796 0.252725
-0.253987 0.615092 0.252539
-0.250035 0.613705 0.251978
-0.246506 0.613308 0.251638
-0.243262 0.613592 0.251450
-0.240077 0.614005 0.251291
-0.236740 0.614007 0.251043
-0.233554 0.614371 0.250877
-0.229717 0.612971 0.250325
-0.227061 0.614698 0.250463
-0.223684 0.614454 0.250171
-0.220323 0.614205 0.249882
-0.216902 0.613738 0.249548
-0.213676 0.613780 0.249330
-0.210328 0.613423 0.249029
-0.207010 0.613098 0.248739
-0.203990 0.613626 0.248638
-0.200932 0.614009 0.248509
-0.197934 0.614549 0.248419
-0.194466 0.613570 0.248005
-0.191157 0.613029 0.247690
-0.188114 0.613300 0.247554
-0.185257 0.614157 0.247549
-0.182299 0.614662 0.247471
-0.179177 0.614568 0.247270
-0.175941 0.614029 0.246978
-0.172934 0.614251 0.246853
-0.169656 0.613448 0.246514
-0.167070 0.615152 0.246712
-0.164234 0.615934 0.246718
-0.161268 0.616198 0.246618
-0.158376 0.616726 0.246577
-0.155101 0.615692 0.246210
-0.151873 0.614768 0.245870
-0.149062 0.615521 0.245889
-0.146127 0.615734 0.245797
-0.143008 0.615115 0.245533
-0.140126 0.615490 0.245483
-0.137219 0.615735 0.245408
-0.134298 0.615887 0.245318
-0.131315 0.615716 0.245163
-0.128413 0.615898 0.245085
-0.125507 0.616036 0.245001
-0.122674 0.616525 0.244994
-0.119628 0.615872 0.244751
-0.116721 0.615912 0.244656
-0.114019 0.617071 0.244798
-0.111233 0.617775 0.244847
-0.107981 0.615738 0.244327
-0.105073 0.615641 0.244215
-0.102250 0.616041 0.244209
-0.099570 0.617364 0.244398
-0.096689 0.617397 0.244320
-0.093738 0.616919 0.244139
-0.090811 0.616557 0.243985
-0.087942 0.616568 0.243910
-0.085154 0.617179 0.243962
-0.082343 0.617617 0.243981
-0.079387 0.616871 0.243756
-0.076526 0.616849 0.243684
-0.073704 0.617157 0.243681
-0.070663 0.615407 0.243256
-0.067874 0.615946 0.243305
-0.065114 0.616803 0.243423
-0.062453 0.618801 0.243777
-0.059525 0.617953 0.243546
-0.056641 0.617507 0.243399
-0.053728 0.616614 0.243163
-0.050885 0.616533 0.243095
-0.048087 0.617072 0.243157
-0.045222 0.616627 0.243018
-0.042422 0.617174 0.243085
-0.039603 0.617447 0.243097
-0.036737 0.616814 0.242925
-0.033789 0.614244 0.242355
-0.030960 0.613953 0.242256
-0.028137 0.613737 0.242174
-0.025347 0.614490 0.242292
-0.022518 0.614014 0.242159
-0.019674 0.612616 0.241839
-0.016896 0.614280 0.242149
-0.014074 0.613671 0.241993
-0.011263 0.613669 0.241964
-0.008453 0.613734 0.241949
-0.005642 0.613354 0.241845
-0.002836 0.612853 0.241717
-0.000021 0.613512 0.241829
0.002783 0.613091 0.241721
0.005602 0.613591 0.241802
0.008423 0.613992 0.241865
0.011287 0.615644 0.242186
0.014030 0.613362 0.241701
0.016842 0.613337 0.241681
0.019674 0.613784 0.241759
0.022560 0.615214 0.242039
0.025283 0.613336 0.241643
0.028138 0.613995 0.241769
0.030951 0.613887 0.241739
0.033746 0.613500 0.241653
0.036560 0.613422 0.241632
0.039353 0.613046 0.241551
0.042192 0.613260 0.241593
0.045001 0.613088 0.241557
0.047789 0.612679 0.241474
0.050716 0.613742 0.241695
0.053445 0.612718 0.241489
0.056119 0.611251 0.241195
0.059073 0.612417 0.241442
0.062108 0.614182 0.241813
0.064996 0.614555 0.241901
0.067935 0.615281 0.242062
0.070732 0.614837 0.241987
0.073556 0.614608 0.241957
0.076415 0.614616 0.241977
0.079303 0.614810 0.242038
0.082229 0.615223 0.242146
0.085128 0.615402 0.242208
0.087947 0.615049 0.242163
0.090417 0.612542 0.241678
0.093202 0.612036 0.241606
0.096021 0.611729 0.241577
0.098665 0.610425 0.241346
0.101923 0.612543 0.241820
0.104758 0.612256 0.241802
0.107801 0.613037 0.242007
0.110873 0.613906 0.242232
0.113378 0.611886 0.241866
0.116416 0.612520 0.242048
0.119253 0.612140 0.242025
0.121933 0.611025 0.241853
0.124647 0.610081 0.241719
0.127567 0.610059 0.241778
0.131162 0.612934 0.242438
0.133917 0.612090 0.242333
0.136814 0.611839 0.242355
0.139577 0.611024 0.242263
0.142471 0.610726 0.242281
0.145565 0.611190 0.242460
0.148934 0.612658 0.242850
0.151556 0.611221 0.242643
0.153730 0.608151 0.242100
0.157657 0.611510 0.242894
0.160906 0.612300 0.243160
0.164146 0.612991 0.243409
0.166794 0.611587 0.243226
0.169458 0.610250 0.243060
0.172748 0.610995 0.243332
0.176130 0.611978 0.243658
0.179189 0.611852 0.243757
0.182288 0.611816 0.243879
0.185350 0.611626 0.243972
0.188763 0.612473 0.244287
0.191917 0.612478 0.244430
0.195172 0.612738 0.244631
0.198144 0.612125 0.244652
0.201307 0.612039 0.244788
0.204290 0.611405 0.244813
0.207303 0.610831 0.244854
0.210547 0.610867 0.245027
0.214092 0.611675 0.245368
0.217441 0.611897 0.245589
0.221479 0.613880 0.246188
0.222741 0.608596 0.245246
0.226727 0.610359 0.245804
0.230068 0.610417 0.246003
0.233479 0.610612 0.246235
0.236376 0.609509 0.246191
0.239588 0.609165 0.246311
0.243208 0.609767 0.246636
0.246765 0.610176 0.246920
0.249623 0.608929 0.246850
0.252644 0.608063 0.246861
0.256213 0.608433 0.247139
0.259466 0.608070 0.247257
0.263193 0.608743 0.247598
0.266650 0.608800 0.247803
0.269737 0.608055 0.247832
0.273080 0.607866 0.247976
0.277273 0.609456 0.248504
0.280443 0.608902 0.248560
0.283618 0.608377 0.248615
0.287232 0.608764 0.248862
0.291042 0.609551 0.249189
0.294619 0.609882 0.249407
0.298040 0.609931 0.249553
0.300505 0.608169 0.249290
0.304539 0.609475 0.249689
0.307576 0.608913 0.249665
0.310850 0.608853 0.249738
0.314523 0.609581 0.249970
0.317743 0.609523 0.250014
0.321297 0.610128 0.250189
0.323666 0.608658 0.249891
0.326148 0.607482 0.249641
0.328979 0.607010 0.249530
0.332628 0.608043 0.249733
0.335681 0.608100 0.249705
0.340990 0.612096 0.250526
-0.335757 0.603851 0.250901
-0.335143 0.607855 0.251832
-0.332941 0.609127 0.252133
-0.330191 0.609495 0.252215
-0.327429 0.609927 0.252294
-0.324762 0.610622 0.252414
-0.322128 0.611466 0.252551
-0.319071 0.611592 0.252510
-0.316196 0.612140 0.252547
-0.313254 0.612633 0.252555
-0.309845 0.612282 0.252360
-0.306373 0.611854 0.252133
-0.303359 0.612390 0.252106
-0.300389 0.613077 0.252100
-0.297330 0.613639 0.252054
-0.293957 0.613597 0.251861
-0.290707 0.613850 0.251724
-0.287377 0.613964 0.251545
-0.284968 0.616087 0.251803
-0.279831 0.612328 0.250753
-0.277364 0.614386 0.250981
-0.274178 0.614896 0.250861
-0.270199 0.613624 0.250344
-0.266723 0.613469 0.250070
-0.263766 0.614512 0.250054
-0.260677 0.615259 0.249971
-0.257145 0.614956 0.249657
-0.253581 0.614544 0.249318
-0.250266 0.614715 0.249106
-0.246539 0.613837 0.248667
-0.243211 0.613915 0.248437
-0.239939 0.614109 0.248233
-0.236580 0.614048 0.247975
-0.233167 0.613812 0.247682
-0.229979 0.614132 0.247511
-0.226587 0.613873 0.247219
-0.223303 0.613864 0.246984
-0.220191 0.614294 0.246845
-0.216613 0.613372 0.246423
-0.213429 0.613521 0.246232
-0.210210 0.613526 0.246014
-0.207019 0.613573 0.245809
-0.203944 0.613927 0.245674
-0.200993 0.614634 0.245616
-0.197596 0.613923 0.245264
-0.194650 0.614580 0.245204
-0.191220 0.613653 0.244816
-0.188173 0.613908 0.244680
-0.185292 0.614683 0.244657
-0.182299 0.615063 0.244556
-0.179164 0.614920 0.244349
-0.175941 0.614418 0.244072
-0.172560 0.613287 0.243668
-0.169790 0.614312 0.243717
-0.166641 0.613920 0.243476
-0.164160 0.616014 0.243755
-0.161272 0.616567 0.243717
-0.158183 0.616311 0.243515
-0.154944 0.615399 0.243182
-0.151958 0.615448 0.243052
-0.148968 0.615448 0.242915
-0.146018 0.615583 0.242810
-0.143182 0.616188 0.242805
-0.140274 0.616455 0.242733
-0.137356 0.616656 0.242652
-0.134138 0.615420 0.242279
-0.131195 0.615416 0.242162
-0.128342 0.615816 0.242131
-0.125499 0.616255 0.242111
-0.122488 0.615811 0.241914
-0.119592 0.615925 0.241834
-0.116666 0.615849 0.241717
-0.113832 0.616248 0.241701
-0.110916 0.616173 0.241591
-0.107908 0.615510 0.241364
-0.104971 0.615215 0.241214
-0.102201 0.615921 0.241271
-0.099485 0.616993 0.241404
-0.096477 0.616155 0.241152
-0.093736 0.617074 0.241259
-0.090848 0.616972 0.241161
-0.087887 0.616309 0.240951
-0.085085 0.616780 0.240974
-0.082238 0.616900 0.240928
-0.079355 0.616712 0.240821
-0.076501 0.616733 0.240759
-0.073558 0.615933 0.240533
-0.070744 0.616234 0.240532
-0.067892 0.616177 0.240460
-0.065101 0.616714 0.240510
-0.062365 0.617877 0.240688
-0.059499 0.617664 0.240590
-0.056597 0.616962 0.240395
-0.053743 0.616776 0.240306
-0.050875 0.616349 0.240171
-0.048032 0.616201 0.240093
-0.045316 0.617979 0.240404
-0.042461 0.617695 0.240302
-0.039607 0.617343 0.240188
-0.036755 0.616969 0.240071
-0.033809 0.614401 0.239514
-0.030973 0.613925 0.239380
-0.028149 0.613650 0.239288
-0.025311 0.612799 0.239081
-0.022543 0.614269 0.239342
-0.019713 0.613523 0.239159
-0.016924 0.614710 0.239365
-0.014114 0.615082 0.239410
-0.011295 0.614741 0.239312
-0.008477 0.613706 0.239077
-0.005668 0.613202 0.238950
-0.002858 0.613474 0.238980
-0.000056 0.612838 0.238829
0.002756 0.613232 0.238885
0.005606 0.615270 0.239272
0.008423 0.615208 0.239240
0.011181 0.613188 0.238817
0.013981 0.612904 0.238744
0.016797 0.613089 0.238765
0.019601 0.612950 0.238723
0.022442 0.613563 0.238832
0.025336 0.615053 0.239119
0.028128 0.614527 0.239004
0.030942 0.614400 0.238969
0.033743 0.614092 0.238900
0.036594 0.614502 0.238976
0.039531 0.615950 0.239261
0.042129 0.613063 0.238681
0.045103 0.614824 0.239032
0.047862 0.614027 0.238872
0.050753 0.614672 0.239003
0.053726 0.616041 0.239280
0.056285 0.613340 0.238744
0.059003 0.612299 0.238543
0.062067 0.614332 0.238957
0.065051 0.615512 0.239204
0.067815 0.614817 0.239076
0.070639 0.614612 0.239049
0.073506 0.614719 0.239085
0.076366 0.614745 0.239108
0.079304 0.615297 0.239238
0.082122 0.614974 0.239194
0.084963 0.614800 0.239183
0.087938 0.615465 0.239341
0.090729 0.614934 0.239262
0.093088 0.611825 0.238669
0.095880 0.611379 0.238612
0.099141 0.613586 0.239088
0.101771 0.612174 0.238842
0.105056 0.614319 0.239311
0.107968 0.614384 0.239365
0.110459 0.612275 0.238986
0.112780 0.609393 0.238454
0.116116 0.611543 0.238935
0.119039 0.611609 0.239000
0.121453 0.609285 0.238587
0.124387 0.609388 0.238665
0.127394 0.609778 0.238804
0.130734 0.611569 0.239228
0.133457 0.610629 0.239105
0.136284 0.610131 0.239074
0.138945 0.608949 0.238909
0.142143 0.609917 0.239180
0.145599 0.611828 0.239645
0.147755 0.608642 0.239084
0.151212 0.610439 0.239534
0.154173 0.610302 0.239596
0.156468 0.607716 0.239165
0.159354 0.607296 0.239177
0.162385 0.607361 0.239290
0.165897 0.609039 0.239735
0.168988 0.609199 0.239875
0.172599 0.611039 0.240362
0.175637 0.610913 0.240453
0.178584 0.610457 0.240480
0.181985 0.611410 0.240799
0.185096 0.611395 0.240924
0.188650 0.612689 0.241321
0.191894 0.612972 0.241516
0.194896 0.612486 0.241558
0.198189 0.612825 0.241772
0.201326 0.612664 0.241888
0.204154 0.611595 0.241822
0.207181 0.611068 0.241871
0.210550 0.611454 0.242111
0.213554 0.610804 0.242142
0.216617 0.610287 0.242203
0.219818 0.610108 0.242338
0.222872 0.609517 0.242391
0.225578 0.608013 0.242257
0.229960 0.610729 0.243003
0.232848 0.609630 0.242959
0.236041 0.609269 0.243070
0.239047 0.608435 0.243085
0.242444 0.608521 0.243294
0.245890 0.608688 0.243522
0.249403 0.608979 0.243776
0.252759 0.608876 0.243949
0.255888 0.608243 0.244010
0.259026 0.607625 0.244073
0.262084 0.606829 0.244097
0.266782 0.609598 0.244872
0.269542 0.608135 0.244751
0.272936 0.608042 0.244915
0.276381 0.608057 0.245099
0.280257 0.608964 0.245467
0.283225 0.608004 0.245432
0.287178 0.609064 0.245821
0.290584 0.609025 0.245968
0.293915 0.608859 0.246079
0.297591 0.609396 0.246331
0.299833 0.607185 0.245984
0.304456 0.609602 0.246617
0.307344 0.608733 0.246533
0.310013 0.607518 0.246362
0.313819 0.608478 0.246645
0.317159 0.608622 0.246738
0.320852 0.609458 0.246964
0.323802 0.609007 0.246899
0.326422 0.608044 0.246707
0.329881 0.608641 0.246835
0.332656 0.608105 0.246702
0.335935 0.608521 0.246757
0.337807 0.606592 0.246292
-0.339379 0.610125 0.249308
-0.334920 0.607291 0.248714
-0.332873 0.608870 0.249069
-0.330469 0.609901 0.249286
-0.327793 0.610528 0.249398
-0.325247 0.611484 0.249566
-0.321443 0.610161 0.249217
-0.318869 0.611225 0.249374
-0.316222 0.612238 0.249504
-0.312837 0.611900 0.249324
-0.309929 0.612555 0.249345
-0.306532 0.612307 0.249154
-0.303223 0.612283 0.249000
-0.300992 0.614495 0.249318
-0.297314 0.613823 0.248997
-0.293678 0.613263 0.248690
-0.290980 0.614692 0.248804
-0.287468 0.614446 0.248547
-0.283893 0.614081 0.248255
-0.280681 0.614513 0.248128
-0.276818 0.613527 0.247690
-0.273502 0.613748 0.247507
-0.269988 0.613522 0.247223
-0.266774 0.613976 0.247081
-0.263571 0.614461 0.246943
-0.259800 0.613604 0.246517
-0.256599 0.614072 0.246372
-0.254021 0.616041 0.246544
-0.250900 0.616707 0.246439
-0.246830 0.615002 0.245833
-0.243321 0.614637 0.245512
-0.239908 0.614475 0.245236
-0.236627 0.614620 0.245026
-0.233246 0.614470 0.244756
-0.229855 0.614250 0.244475
-0.226549 0.614217 0.244236
-0.223383 0.614530 0.244073
-0.219899 0.613921 0.243720
-0.216852 0.614496 0.243618
-0.213405 0.613890 0.243275
-0.210132 0.613730 0.243028
-0.206909 0.613676 0.242807
-0.203865 0.614114 0.242691
-0.200810 0.614491 0.242567
-0.197893 0.615271 0.242530
-0.194417 0.614251 0.242127
-0.191258 0.614181 0.241923
-0.188176 0.614316 0.241766
-0.185192 0.614742 0.241673
-0.182347 0.615613 0.241674
-0.179259 0.615630 0.241505
-0.176049 0.615175 0.241244
-0.172764 0.614389 0.240920
-0.169601 0.613978 0.240677
-0.166932 0.615357 0.240801
-0.163986 0.615697 0.240718
-0.161112 0.616288 0.240689
-0.157887 0.615471 0.240379
-0.154884 0.615478 0.240240
-0.151953 0.615746 0.240157
-0.148994 0.615867 0.240048
-0.146160 0.616495 0.240045
-0.143336 0.617158 0.240052
-0.140430 0.617441 0.239986
-0.137300 0.616677 0.239712
-0.134376 0.616807 0.239622
-0.131206 0.615726 0.239293
-0.128348 0.616100 0.239258
-0.125402 0.616007 0.239132
-0.122432 0.615757 0.238979
-0.119366 0.614955 0.238718
-0.116523 0.615289 0.238687
-0.113721 0.615837 0.238701
-0.110930 0.616456 0.238731
-0.108028 0.616419 0.238634
-0.105135 0.616404 0.238544
-0.102213 0.616177 0.238414
-0.099411 0.616684 0.238432
-0.096595 0.617098 0.238435
-0.093630 0.616487 0.238236
-0.090859 0.617194 0.238300
-0.087901 0.616535 0.238097
-0.085061 0.616710 0.238061
-0.082226 0.616918 0.238033
-0.079351 0.616773 0.237938
-0.076515 0.616934 0.237905
-0.073633 0.616670 0.237790
-0.070797 0.616794 0.237753
-0.067967 0.616953 0.237725
-0.065107 0.616804 0.237639
-0.062286 0.617034 0.237629
-0.059427 0.616838 0.237536
-0.056584 0.616787 0.237474
-0.053741 0.616705 0.237408
-0.050908 0.616723 0.237362
-0.048090 0.616942 0.237358
-0.045353 0.618441 0.237607
-0.042480 0.617852 0.237447
-0.039513 0.615439 0.236931
-0.036748 0.616587 0.237115
-0.033832 0.614614 0.236688
-0.031168 0.618350 0.237383
-0.028344 0.618609 0.237397
-0.025435 0.616224 0.236894
-0.022545 0.613659 0.236357
-0.019736 0.613671 0.236327
-0.016958 0.615475 0.236649
-0.014199 0.620153 0.237534
-0.011358 0.619843 0.237444
-0.008515 0.618189 0.237093
-0.005686 0.617484 0.236929
-0.002856 0.618027 0.237010
-0.000019 0.618762 0.237130
0.002789 0.617161 0.236794
0.005701 0.621401 0.237601
0.008521 0.620374 0.237381
0.011355 0.620137 0.237315
0.014412 0.626374 0.238516
0.016830 0.614825 0.236244
0.019749 0.617125 0.236678
0.022776 0.621202 0.237461
0.025688 0.622381 0.237679
0.028325 0.618603 0.236930
0.030925 0.614785 0.236175
0.033713 0.614273 0.236067
0.036729 0.616976 0.236588
0.039615 0.617631 0.236710
0.042503 0.618220 0.236821
0.045350 0.618247 0.236824
0.048248 0.618802 0.236931
0.051239 0.620267 0.237218
0.054129 0.620572 0.237279
0.056893 0.619622 0.237098
0.059737 0.619469 0.237073
0.062488 0.618494 0.236890
0.064972 0.615336 0.236281
0.067762 0.614872 0.236201
0.070598 0.614766 0.236192
0.073423 0.614573 0.236168
0.076319 0.614876 0.236243
0.079203 0.615060 0.236296
0.082014 0.614713 0.236248
0.084913 0.614942 0.236314
0.088219 0.617709 0.236878
0.091437 0.619750 0.237303
0.094224 0.619073 0.237199
0.096751 0.616902 0.236804
0.099998 0.618889 0.237225
0.102868 0.618669 0.237216
0.105271 0.615934 0.236718
0.108639 0.618354 0.237231
0.112826 0.624795 0.238535
0.114951 0.620648 0.237767
0.117635 0.619381 0.237565
0.120123 0.617215 0.237190
0.122804 0.616012 0.237006
0.125728 0.615934 0.237046
0.128591 0.615557 0.237030
0.131704 0.616249 0.237227
0.135236 0.618665 0.237766
0.137676 0.616402 0.237388
0.139366 0.611143 0.236422
0.142106 0.610256 0.236320
0.145666 0.612579 0.236854
0.149044 0.614084 0.237230
0.151754 0.612979 0.237095
0.154438 0.611780 0.236944
0.156925 0.609879 0.236658
0.159921 0.609822 0.236740
0.164255 0.614414 0.237746
0.166200 0.610596 0.237090
0.170112 0.613515 0.237773
0.173176 0.613481 0.237875
0.175936 0.612419 0.237776
0.179518 0.613989 0.238204
0.182832 0.614624 0.238451
0.186008 0.614768 0.238604
0.188251 0.612015 0.238183
0.191628 0.612721 0.238456
0.194814 0.612798 0.238608
0.198015 0.612873 0.238763
0.201152 0.612723 0.238877
0.204026 0.611793 0.238839
0.207126 0.611478 0.238928
0.210450 0.611746 0.239138
0.213602 0.611502 0.239248
0.215926 0.609016 0.238910
0.218936 0.608364 0.238945
0.222150 0.608216 0.239085
0.225510 0.608408 0.239297
0.228458 0.607522 0.239293
0.232041 0.608194 0.239609
0.235228 0.607846 0.239719
0.238596 0.607910 0.239917
0.241351 0.606477 0.239810
0.244964 0.607070 0.240119
0.247938 0.606134 0.240116
0.251240 0.605948 0.240267
0.255225 0.607281 0.240730
0.258608 0.607221 0.240908
0.261531 0.606129 0.240871
0.265114 0.606481 0.241131
0.268179 0.605705 0.241156
0.272364 0.607310 0.241670
0.275761 0.607226 0.241831
0.279047 0.606912 0.241939
0.282072 0.606076 0.241934
0.285149 0.605376 0.241950
0.290123 0.608493 0.242754
0.293107 0.607631 0.242722
0.295972 0.606579 0.242640
0.299595 0.607044 0.242865
0.304508 0.609993 0.243600
0.307344 0.608996 0.243497
0.310217 0.608135 0.243410
0.313789 0.608631 0.243594
0.317490 0.609405 0.243823
0.321034 0.609937 0.243986
0.323823 0.609162 0.243860
0.326916 0.609008 0.243849
0.329632 0.608259 0.243697
0.332888 0.608535 0.243744
0.335644 0.608013 0.243607
0.341845 0.613480 0.244711
-0.336471 0.604760 0.245159
-0.335325 0.607871 0.245843
-0.332777 0.608576 0.245995
-0.330308 0.609515 0.246181
-0.327757 0.610399 0.246338
-0.324540 0.610131 0.246232
-0.320970 0.609267 0.245982
-0.319166 0.611820 0.246447
-0.316204 0.612261 0.246444
-0.313050 0.612402 0.246362
-0.310028 0.612866 0.246334
-0.306988 0.613359 0.246299
-0.303831 0.613677 0.246213
-0.300109 0.612898 0.245883
-0.297913 0.615281 0.246211
-0.293359 0.612845 0.245508
-0.290536 0.614027 0.245561
-0.286290 0.612226 0.244976
-0.283640 0.613846 0.245105
-0.279699 0.612698 0.244645
-0.276482 0.613129 0.244510
-0.273488 0.614076 0.244479
-0.269967 0.613847 0.244197
-0.266622 0.614013 0.243995
-0.263161 0.613901 0.243733
-0.259105 0.612369 0.243174
-0.256430 0.614080 0.243287
-0.253689 0.615657 0.243372
-0.250341 0.615761 0.243151
-0.246563 0.614767 0.242705
-0.243202 0.614768 0.242465
-0.239691 0.614355 0.242142
-0.236651 0.615119 0.242063
-0.233071 0.614444 0.241692
-0.229711 0.614303 0.241432
-0.226645 0.614915 0.241330
-0.223098 0.614179 0.240956
-0.219730 0.613880 0.240675
-0.216581 0.614153 0.240513
-0.213300 0.614012 0.240272
-0.210081 0.614002 0.240061
-0.206598 0.613163 0.239686
-0.203689 0.613994 0.239653
-0.200816 0.614918 0.239642
-0.197587 0.614715 0.239408
-0.194330 0.614372 0.239151
-0.191341 0.614838 0.239060
-0.188018 0.614179 0.238748
-0.184919 0.614205 0.238577
-0.182074 0.615055 0.238574
-0.179268 0.616026 0.238599
-0.176224 0.616152 0.238460
-0.173214 0.616360 0.238341
-0.170122 0.616236 0.238161
-0.166803 0.615215 0.237807
-0.163960 0.615926 0.237799
-0.161084 0.616501 0.237768
-0.157819 0.615517 0.237433
-0.154824 0.615544 0.237302
-0.151897 0.615815 0.237222
-0.149083 0.616535 0.237233
-0.146181 0.616871 0.237173
-0.143287 0.617220 0.237118
-0.140185 0.616613 0.236880
-0.137097 0.616006 0.236645
-0.134256 0.616497 0.236627
-0.131426 0.617031 0.236621
-0.128317 0.616185 0.236350
-0.125155 0.614993 0.236013
-0.122226 0.614916 0.235897
-0.119442 0.615572 0.235927
-0.116553 0.615656 0.235848
-0.113609 0.615410 0.235708
-0.110962 0.616827 0.235893
-0.108272 0.618042 0.236041
-0.104981 0.615634 0.235489
-0.102219 0.616372 0.235549
-0.099503 0.617427 0.235673
-0.096604 0.617303 0.235571
-0.093728 0.617295 0.235494
-0.090711 0.616257 0.235220
-0.087904 0.616670 0.235228
-0.085064 0.616843 0.235192
-0.082262 0.617294 0.235212
-0.079408 0.617329 0.235154
-0.076509 0.616950 0.235017
-0.073688 0.617226 0.235009
-0.070869 0.617512 0.235005
-0.068012 0.617423 0.234930
-0.065134 0.617094 0.234810
-0.062281 0.616978 0.234734
-0.059423 0.616778 0.234643
-0.056591 0.616833 0.234602
-0.053789 0.617258 0.234634
-0.050969 0.617470 0.234627
-0.048051 0.616280 0.234353
-0.045196 0.615854 0.234227
-0.042447 0.617127 0.234427
-0.039571 0.616288 0.234225
-0.036752 0.616419 0.234209
-0.033870 0.615146 0.233926
-0.031288 0.620918 0.234993
-0.028465 0.621505 0.235068
-0.025490 0.617395 0.234247
-0.022606 0.615244 0.233802
-0.019792 0.615322 0.233785
-0.017034 0.618687 0.234396
-0.014270 0.623987 0.235379
-0.011394 0.621429 0.234861
-0.008536 0.617062 0.234000
-0.005709 0.619580 0.234454
-0.002853 0.622806 0.235044
-0.000010 0.622123 0.234890
0.002839 0.622255 0.234892
0.005634 0.619630 0.234370
0.008525 0.621805 0.234764
0.011300 0.619352 0.234277
0.014105 0.618443 0.234086
0.016899 0.617455 0.233881
0.019781 0.618667 0.234097
0.022736 0.621130 0.234552
0.025587 0.621199 0.234552
0.028343 0.619583 0.234233
0.030807 0.613547 0.233073
0.033659 0.614087 0.233167
0.036754 0.617912 0.233888
0.039716 0.619523 0.234188
0.042145 0.614380 0.233204
0.044702 0.611266 0.232608
0.048187 0.618667 0.234015
0.051194 0.620318 0.234328
0.054234 0.622128 0.234674
0.057127 0.622353 0.234719
0.059851 0.620998 0.234465
0.062475 0.618862 0.234064
0.065420 0.619567 0.234205
0.067639 0.614351 0.233221
0.070457 0.614137 0.233191
0.073330 0.614336 0.233241
0.076249 0.614832 0.233349
0.079124 0.614967 0.233390
0.082003 0.615090 0.233431
0.084936 0.615540 0.233537
0.088042 0.617040 0.233844
