ply
format ascii 1.0
comment ---
element vertex 1771
property float x
property float y
property float z
element face 0
property list uchar uint vertex_indices
end_header
0.134506 0.607594 0.110087
0.136499 0.609205 0.110209
0.138525 0.610838 0.110336
0.142701 0.603323 0.110062
0.145047 0.603657 0.110139
0.147517 0.603519 0.110198
0.149766 0.604464 0.110308
0.152588 0.602793 0.110303
0.155023 0.602965 0.110383
0.157255 0.604192 0.110512
0.159837 0.603731 0.110567
0.162872 0.600905 0.110515
0.164847 0.603620 0.110716
0.167578 0.602332 0.110736
0.169793 0.603885 0.110885
0.172293 0.603870 0.110964
0.175121 0.601876 0.110950
0.177132 0.604777 0.111163
0.179232 0.607275 0.111358
0.181573 0.608321 0.111485
0.183719 0.610726 0.111676
0.183747 0.628130 0.112571
0.189127 0.607817 0.111692
0.191980 0.605011 0.111635
0.194425 0.605131 0.111714
0.196853 0.605347 0.111797
0.199170 0.606468 0.111921
0.201978 0.603292 0.111840
0.204478 0.602606 0.111875
0.206953 0.602044 0.111915
0.211055 0.584891 0.111153
0.211860 0.600986 0.111994
0.213837 0.605613 0.112282
0.216238 0.605672 0.112347
0.218526 0.607082 0.112476
0.220885 0.607642 0.112563
0.223306 0.607323 0.112606
0.225623 0.608456 0.112719
0.228012 0.608511 0.112777
0.230412 0.608296 0.112821
0.232763 0.608904 0.112904
0.235136 0.609076 0.112964
0.237516 0.609046 0.113013
0.239944 0.607620 0.112992
0.242377 0.605504 0.112934
0.244724 0.605657 0.112988
0.247046 0.606826 0.113092
0.249411 0.606107 0.113100
0.251814 0.602152 0.112945
0.254154 0.600768 0.112916
0.256432 0.608561 0.113349
0.258786 0.605241 0.113222
0.261118 0.604386 0.113217
0.263451 0.604591 0.113265
0.265777 0.604240 0.113283
0.268084 0.603013 0.113257
0.270424 0.603812 0.113332
0.272767 0.604411 0.113396
0.275101 0.604553 0.113436
0.277446 0.604969 0.113489
0.279891 0.607692 0.113659
0.282220 0.607319 0.113670
0.284369 0.603437 0.113501
0.286820 0.605653 0.113643
0.289266 0.607430 0.113762
0.291386 0.603849 0.113605
0.293794 0.604913 0.113686
0.296295 0.607074 0.113823
0.298662 0.607247 0.113857
0.300822 0.604867 0.113759
0.303234 0.605597 0.113820
0.305840 0.608319 0.113984
0.308901 0.615465 0.114375
0.312382 0.626052 0.114945
0.312954 0.608283 0.114048
0.315121 0.606370 0.113970
0.317449 0.605981 0.113970
0.319874 0.606397 0.114011
0.322298 0.606743 0.114049
0.324636 0.606378 0.114049
0.327067 0.606701 0.114084
0.329185 0.604717 0.113999
0.329870 0.592872 0.113400
0.334191 0.606237 0.114112
0.337166 0.609963 0.114323
0.339755 0.610993 0.114394
0.342559 0.613260 0.114528
0.344628 0.610979 0.114425
0.346006 0.604789 0.114117
0.348837 0.607111 0.114253
0.351694 0.609427 0.114389
0.354524 0.611449 0.114509
0.356600 0.609409 0.114417
0.359038 0.609282 0.114424
0.361312 0.608326 0.114388
0.363629 0.607595 0.114363
0.365832 0.606332 0.114309
0.368308 0.606362 0.114324
0.370968 0.607205 0.114381
0.373297 0.606517 0.114357
0.376011 0.607501 0.114420
0.379337 0.611020 0.114617
0.381859 0.611027 0.114629
0.384021 0.609543 0.114563
0.386099 0.607756 0.114480
0.389103 0.609642 0.114590
0.391330 0.608450 0.114538
0.394195 0.609683 0.114613
0.396486 0.608720 0.114573
0.399517 0.610460 0.114675
0.401222 0.607383 0.114522
0.404550 0.610081 0.114674
0.406641 0.608403 0.114595
0.408139 0.604751 0.114411
0.410901 0.605408 0.114455
0.414707 0.609437 0.114676
0.417433 0.609836 0.114706
0.419217 0.607218 0.114576
0.421948 0.607611 0.114604
0.424948 0.608796 0.114675
0.428351 0.611138 0.114806
0.433205 0.617700 0.115161
0.439600 0.628549 0.115742
0.435466 0.608697 0.114697
0.437688 0.607461 0.114638
0.440269 0.607248 0.114633
0.443017 0.607478 0.114650
0.445506 0.606977 0.114629
0.447944 0.606332 0.114599
0.449732 0.603964 0.114478
0.450930 0.600104 0.114277
0.453944 0.600996 0.114328
0.457848 0.604098 0.114496
0.462870 0.609894 0.114806
0.466807 0.612834 0.114965
0.469193 0.611900 0.114917
0.471788 0.611467 0.114895
0.473885 0.609843 0.114810
0.475433 0.606949 0.114656
0.478024 0.606520 0.114633
0.483462 0.612582 0.114954
0.485683 0.611214 0.114880
0.487672 0.609338 0.114778
0.486021 0.599476 0.114252
0.491390 0.605089 0.114546
0.496301 0.609562 0.114779
0.499002 0.609213 0.114756
0.499796 0.604850 0.114519
0.502441 0.604398 0.114488
0.508040 0.609985 0.114777
0.509816 0.607676 0.114646
0.512103 0.606418 0.114571
0.516282 0.608907 0.114693
0.519512 0.609456 0.114711
0.520855 0.606317 0.114533
0.521833 0.602524 0.114319
0.526747 0.606231 0.114502
0.530535 0.607722 0.114565
0.532881 0.606484 0.114484
0.534932 0.604708 0.114373
0.537549 0.603964 0.114316
0.541908 0.606325 0.114421
0.544371 0.605249 0.114344
0.548395 0.606899 0.114408
0.557679 0.617602 0.114948
0.561722 0.619057 0.114999
0.555255 0.602617 0.114110
0.560560 0.606253 0.114273
0.563177 0.605316 0.114196
0.565783 0.604346 0.114115
0.568051 0.602814 0.114003
0.568995 0.599144 0.113778
0.571889 0.598624 0.113717
0.577462 0.602307 0.113872
0.580445 0.601835 0.113810
0.582815 0.600387 0.113695
0.585938 0.600086 0.113639
0.588721 0.599237 0.113552
0.593359 0.601148 0.113606
0.597670 0.602498 0.113629
0.602464 0.604490 0.113683
0.604853 0.602907 0.113551
0.611769 0.607830 0.113751
0.617645 0.611135 0.113865
0.613803 0.600616 0.113272
0.619372 0.603414 0.113356
0.620233 0.599603 0.113103
0.623339 0.598900 0.113006
0.624577 0.595636 0.112778
0.626591 0.593436 0.112603
0.636123 0.601231 0.112928
0.637032 0.597481 0.112672
0.641475 0.598369 0.112646
0.642918 0.595327 0.112423
0.644795 0.592858 0.112227
0.644815 0.588048 0.111915
0.653921 0.594674 0.112168
0.659356 0.596579 0.112185
0.667972 0.602317 0.112388
0.679485 0.611431 0.112754
0.672527 0.598081 0.112021
0.675074 0.596293 0.111854
0.683562 0.601529 0.112028
0.684385 0.597666 0.111760
0.684408 0.592923 0.111452
0.683146 0.586771 0.111079
0.690484 0.590494 0.111181
0.698079 0.594419 0.111292
0.702826 0.595079 0.111250
0.704289 0.592086 0.111036
0.704509 0.587782 0.110764
0.701257 0.579788 0.110323
0.700035 0.574124 0.109997
0.712955 0.583636 0.110386
0.720649 0.587472 0.110513
0.721337 0.583922 0.110300
0.724967 0.583505 0.110238
0.714022 0.568122 0.109487
0.672891 0.522225 0.107328
0.128149 0.588886 0.106844
0.129617 0.591463 0.106968
0.131070 0.594310 0.107108
0.131590 0.601047 0.107406
0.132405 0.606966 0.107679
0.135751 0.602890 0.107563
0.138054 0.603098 0.107621
0.140366 0.603375 0.107685
0.143273 0.601176 0.107655
0.145872 0.600327 0.107682
0.147377 0.604457 0.107912
0.150298 0.602297 0.107893
0.152830 0.601932 0.107948
0.155368 0.601572 0.108006
0.157842 0.601545 0.108079
0.160705 0.599575 0.108074
0.162912 0.600948 0.108207
0.165019 0.602945 0.108367
0.167207 0.604610 0.108514
0.169182 0.607582 0.108716
0.171790 0.607030 0.108774
0.174985 0.602921 0.108683
0.177816 0.600791 0.108673
0.179668 0.604735 0.108917
0.181638 0.608133 0.109139
0.183589 0.611853 0.109375
0.184279 0.624647 0.109996
0.189147 0.607916 0.109364
0.191846 0.606273 0.109369
0.194497 0.604825 0.109382
0.196915 0.605107 0.109467
0.199430 0.604534 0.109515
0.201977 0.603576 0.109544
0.204487 0.602809 0.109580
0.206954 0.602327 0.109626
0.210851 0.587261 0.109035
0.212076 0.599012 0.109612
0.214020 0.603900 0.109890
0.216174 0.606786 0.110080
0.218387 0.609204 0.110248
0.220744 0.609918 0.110339
0.223252 0.608524 0.110336
0.225356 0.612992 0.110592
0.227523 0.617055 0.110830
0.230278 0.611228 0.110624
0.232750 0.609739 0.110611
0.235130 0.609843 0.110667
0.237547 0.609013 0.110680
0.239997 0.606968 0.110636
0.242394 0.605875 0.110634
0.244746 0.605894 0.110681
0.247059 0.607462 0.110797
0.249489 0.603473 0.110659
0.251840 0.602313 0.110648
0.254122 0.606955 0.110901
0.256483 0.603845 0.110799
0.258814 0.604301 0.110858
0.261149 0.605229 0.110939
0.263474 0.604267 0.110931
0.265778 0.602404 0.110881
0.268108 0.602959 0.110940
0.270436 0.603237 0.110986
0.272790 0.604355 0.111071
0.275103 0.603859 0.111079
0.277503 0.605870 0.111203
0.279976 0.609187 0.111386
0.282359 0.609866 0.111447
0.284581 0.607193 0.111351
0.286905 0.606809 0.111360
0.289179 0.605613 0.111330
0.291510 0.605462 0.111349
0.293754 0.604046 0.111307
0.296152 0.604878 0.111370
0.298628 0.606569 0.111473
0.300828 0.604728 0.111409
0.303084 0.603688 0.111382
0.305627 0.605832 0.111504
0.309434 0.620801 0.112228
0.312307 0.625171 0.112454
0.312827 0.606950 0.111616
0.315298 0.607849 0.111678
0.317459 0.605961 0.111607
0.319730 0.605105 0.111584
0.322262 0.606375 0.111661
0.324701 0.606804 0.111698
0.327013 0.606233 0.111687
0.329348 0.605836 0.111684
0.329966 0.593493 0.111115
0.333848 0.603892 0.111622
0.337385 0.611364 0.111991
0.340154 0.613497 0.112106
0.342517 0.612987 0.112096
0.344457 0.609952 0.111965
0.346601 0.608241 0.111897
0.348662 0.606128 0.111809
0.351909 0.610619 0.112034
0.354268 0.610096 0.112021
0.356521 0.609020 0.111982
0.358824 0.608224 0.111955
0.361516 0.609375 0.112021
0.363861 0.608759 0.112002
0.365719 0.605840 0.111873
0.368302 0.606384 0.111909
0.370687 0.605983 0.111900
0.372652 0.603715 0.111801
0.375324 0.604583 0.111852
0.378722 0.608477 0.112047
0.381168 0.608224 0.112043
0.382785 0.604577 0.111877
0.387461 0.613277 0.112301
0.389658 0.611899 0.112244
0.391972 0.611003 0.112208
0.393575 0.607432 0.112045
0.396221 0.607831 0.112071
0.398129 0.605515 0.111967
0.401778 0.609468 0.112163
0.404296 0.609296 0.112162
0.405861 0.605822 0.112001
0.408180 0.604998 0.111968
0.411329 0.606946 0.112067
0.414622 0.609276 0.112184
0.416812 0.607955 0.112126
0.419256 0.607459 0.112107
0.422062 0.608087 0.112142
0.424766 0.608360 0.112159
0.427366 0.608290 0.112160
0.434273 0.621003 0.112774
0.439613 0.628723 0.113148
0.435432 0.608730 0.112191
0.437500 0.607061 0.112113
0.440392 0.607726 0.112148
0.442940 0.607403 0.112134
0.445409 0.606853 0.112109
0.447753 0.605961 0.112067
0.449627 0.603830 0.111965
0.450759 0.599801 0.111772
0.453902 0.601033 0.111831
0.458144 0.604997 0.112021
0.461948 0.607736 0.112152
0.467338 0.614297 0.112465
0.469123 0.611881 0.112347
0.471098 0.609961 0.112252
0.473991 0.610248 0.112262
0.476563 0.609751 0.112235
0.479732 0.610627 0.112272
0.482595 0.610760 0.112273
0.485318 0.610548 0.112257
0.484479 0.602382 0.111859
0.485920 0.599411 0.111709
0.488538 0.599047 0.111684
0.492689 0.601963 0.111815
0.496390 0.603829 0.111895
0.499597 0.604592 0.111921
0.501667 0.602955 0.111832
0.507491 0.609022 0.112110
0.511256 0.610754 0.112180
0.513429 0.609235 0.112093
0.515441 0.607405 0.111991
0.517915 0.606495 0.111932
0.518213 0.601368 0.111670
0.522994 0.604905 0.111821
0.526179 0.605319 0.111822
0.529430 0.605818 0.111825
0.532946 0.606768 0.111849
0.535903 0.606647 0.111821
0.537660 0.604327 0.111687
0.540276 0.603565 0.111625
0.544437 0.605527 0.111692
0.548812 0.607791 0.111771
0.553950 0.611302 0.111908
0.561742 0.619258 0.112252
0.557085 0.605883 0.111589
0.559841 0.605207 0.111524
0.562808 0.604863 0.111472
0.565181 0.603515 0.111372
0.567724 0.602439 0.111283
0.568690 0.598810 0.111074
0.571529 0.598207 0.111005
0.576913 0.601598 0.111120
0.581385 0.603459 0.111161
0.585579 0.604816 0.111177
0.588957 0.604859 0.111130
0.592176 0.604625 0.111068
0.594707 0.603324 0.110956
0.598591 0.604018 0.110933
0.603359 0.605960 0.110965
0.605044 0.603337 0.110787
0.604871 0.598050 0.110485
0.610452 0.601032 0.110559
0.614306 0.601477 0.110514
0.613996 0.596052 0.110202
0.618820 0.597797 0.110213
0.621689 0.596788 0.110098
0.625406 0.596908 0.110031
0.628904 0.596688 0.109948
0.629040 0.591962 0.109661
0.635465 0.595567 0.109745
0.638887 0.595145 0.109647
0.640735 0.592658 0.109456
0.639519 0.586263 0.109093
0.653394 0.599053 0.109570
0.653907 0.594808 0.109299
0.659872 0.597373 0.109323
0.666809 0.601045 0.109394
0.681138 0.613604 0.109844
0.672637 0.598373 0.109099
0.676205 0.597805 0.108984
0.680124 0.597633 0.108886
0.684568 0.598049 0.108813
0.681116 0.589278 0.108354
0.681729 0.585318 0.108100
0.688569 0.588495 0.108147
0.703748 0.600992 0.108582
0.707740 0.600755 0.108487
0.707976 0.596360 0.108224
0.709800 0.593781 0.108039
0.710765 0.590315 0.107822
0.713005 0.588286 0.107669
0.711378 0.582178 0.107355
0.715739 0.582517 0.107308
0.721129 0.583944 0.107311
0.719991 0.578588 0.107045
0.720957 0.575513 0.106879
0.738800 0.589748 0.107414
0.122267 0.611322 0.105377
0.127641 0.599398 0.104987
0.130104 0.598455 0.104981
0.131479 0.601883 0.105132
0.133112 0.604517 0.105261
0.136046 0.602049 0.105219
0.138510 0.601548 0.105249
0.140938 0.601280 0.105292
0.143718 0.599563 0.105288
0.146753 0.596731 0.105249
0.148839 0.598138 0.105362
0.150784 0.600330 0.105506
0.152993 0.601431 0.105615
0.155276 0.602274 0.105717
0.157957 0.601222 0.105754
0.161011 0.598260 0.105723
0.163213 0.599608 0.105849
0.165032 0.603100 0.106054
0.167154 0.605128 0.106207
0.169547 0.605734 0.106310
0.172354 0.603967 0.106326
0.175211 0.601777 0.106325
0.178000 0.599864 0.106334
0.180470 0.599840 0.106413
0.182056 0.605598 0.106708
0.183341 0.613754 0.107094
0.184332 0.624492 0.107580
0.189130 0.608259 0.107044
0.191779 0.606997 0.107072
0.194436 0.605530 0.107092
0.196970 0.604892 0.107141
0.201915 0.604373 0.107265
0.204364 0.604204 0.107329
0.207190 0.600320 0.107246
0.210775 0.588302 0.106843
0.212327 0.596634 0.107233
0.214130 0.602979 0.107546
0.216159 0.607291 0.107779
0.218487 0.608292 0.107880
0.220350 0.615545 0.108228
0.222798 0.615368 0.108281
0.225845 0.605955 0.107962
0.228238 0.605746 0.108009
0.230484 0.608029 0.108155
0.232853 0.608260 0.108217
0.235305 0.606694 0.108205
0.238002 0.598821 0.107936
0.240072 0.605682 0.108262
0.242387 0.606894 0.108358
0.244710 0.608139 0.108455
0.247103 0.606731 0.108442
0.249495 0.604575 0.108396
0.251847 0.603609 0.108398
0.254181 0.603472 0.108433
0.256509 0.603749 0.108483
0.258839 0.603220 0.108499
0.261173 0.605019 0.108610
0.263548 0.609771 0.108842
0.265797 0.602044 0.108557
0.268096 0.600966 0.108545
0.270442 0.602467 0.108640
0.272806 0.604073 0.108738
0.275160 0.604938 0.108804
0.277500 0.605184 0.108843
0.279976 0.608664 0.109017
0.282348 0.609147 0.109065
0.284659 0.608311 0.109057
0.286911 0.606538 0.109008
0.289231 0.606158 0.109017
0.291549 0.605778 0.109025
0.293834 0.604930 0.109012
0.296217 0.605516 0.109059
0.298696 0.607217 0.109152
0.300941 0.605888 0.109117
0.303164 0.604414 0.109075
0.305685 0.606301 0.109174
0.309436 0.620673 0.109801
0.312038 0.622376 0.109892
0.313296 0.611252 0.109438
0.315083 0.605799 0.109223
0.317468 0.605937 0.109245
0.319829 0.605840 0.109257
0.322189 0.605713 0.109266
0.324594 0.605913 0.109289
0.326998 0.606065 0.109310
0.329288 0.605355 0.109293
0.330143 0.594686 0.108851
0.333832 0.603749 0.109250
0.337011 0.608896 0.109482
0.339628 0.610153 0.109547
0.341935 0.609399 0.109526
0.345030 0.613371 0.109707
0.347637 0.614258 0.109755
0.349471 0.610703 0.109613
0.352039 0.611347 0.109651
0.354604 0.611916 0.109684
0.356917 0.611110 0.109659
0.359336 0.610864 0.109657
0.360917 0.606435 0.109475
0.363308 0.606119 0.109469
0.365702 0.605806 0.109463
0.368194 0.605937 0.109476
0.370671 0.605965 0.109484
0.372622 0.603641 0.109391
0.375090 0.603632 0.109397
0.377859 0.604876 0.109457
0.379894 0.602992 0.109382
0.382517 0.603560 0.109411
0.386459 0.609351 0.109666
0.390182 0.614036 0.109872
0.392082 0.611511 0.109769
0.393729 0.608103 0.109626
0.395171 0.604037 0.109455
0.398448 0.606768 0.109577
0.402213 0.611118 0.109768
0.404038 0.608492 0.109658
0.406175 0.607009 0.109597
0.408534 0.606306 0.109570
0.411613 0.607999 0.109645
0.414891 0.610267 0.109745
0.417345 0.609785 0.109726
0.419467 0.608246 0.109661
0.421986 0.607970 0.109651
0.424144 0.606574 0.109592
0.426789 0.606672 0.109596
0.431528 0.612972 0.109868
0.439096 0.627343 0.110488
0.435458 0.608937 0.109694
0.437702 0.607768 0.109642
0.440381 0.607832 0.109644
0.442998 0.607699 0.109637
0.445476 0.607173 0.109612
0.447661 0.605853 0.109552
0.449486 0.603595 0.109452
0.450021 0.598016 0.109208
0.453449 0.600009 0.109290
0.458785 0.606767 0.109577
0.464718 0.614815 0.109918
0.468104 0.616339 0.109978
0.469505 0.612962 0.109827
0.472043 0.612385 0.109795
0.474149 0.610775 0.109718
0.477629 0.612404 0.109780
0.478951 0.608974 0.109624
0.482472 0.610634 0.109686
0.482544 0.604444 0.109410
0.484273 0.602076 0.109298
0.486622 0.601109 0.109245
0.488703 0.599559 0.109166
0.491794 0.600195 0.109180
0.495971 0.603095 0.109291
0.498331 0.602091 0.109233
0.502606 0.605058 0.109344
0.506452 0.607051 0.109412
0.509861 0.608089 0.109439
0.513903 0.610345 0.109516
0.515456 0.607595 0.109379
0.516795 0.604461 0.109225
0.520553 0.606054 0.109271
0.520784 0.600835 0.109026
0.523955 0.601269 0.109020
0.527553 0.602464 0.109045
0.530906 0.603151 0.109048
0.534710 0.604622 0.109082
0.538502 0.606008 0.109111
0.541089 0.605178 0.109045
0.541808 0.601026 0.108838
0.544080 0.599656 0.108747
0.550530 0.605528 0.108958
0.556654 0.605308 0.108874
0.559273 0.604408 0.108797
0.562134 0.603897 0.108734
0.564685 0.602852 0.108647
0.566864 0.601191 0.108533
0.567668 0.597314 0.108326
0.570529 0.596763 0.108255
0.575282 0.599173 0.108305
0.581338 0.603536 0.108432
0.586456 0.606322 0.108492
0.592323 0.610162 0.108592
0.595060 0.609143 0.108492
0.596425 0.606048 0.108305
0.598798 0.604473 0.108178
0.599395 0.600279 0.107944
0.603217 0.600824 0.107900
0.605164 0.598616 0.107743
0.607761 0.597338 0.107622
0.613462 0.600429 0.107672
0.616679 0.599945 0.107578
0.614223 0.591576 0.107170
0.615917 0.589019 0.106992
0.624449 0.595751 0.107176
0.629879 0.598139 0.107186
0.632445 0.596630 0.107042
0.634056 0.593852 0.106848
0.638413 0.594668 0.106791
0.638192 0.589515 0.106503
0.643468 0.591452 0.106486
0.649953 0.594841 0.106521
0.657133 0.598997 0.106582
0.660000 0.597678 0.106435
0.670894 0.606216 0.106656
0.680230 0.612654 0.106794
0.672737 0.598645 0.106173
0.676408 0.598203 0.106056
0.680533 0.598274 0.105958
0.682853 0.596204 0.105782
0.680722 0.588984 0.105421
0.691650 0.596880 0.105608
0.701560 0.603449 0.105745
0.711102 0.609464 0.105862
0.705074 0.597968 0.105359
0.709174 0.597879 0.105265
0.710308 0.594538 0.105060
0.711816 0.591662 0.104876
0.713383 0.588905 0.104701
0.709551 0.580448 0.104335
0.711567 0.578334 0.104194
0.718680 0.581615 0.104245
0.720531 0.579393 0.104113
0.726790 0.581774 0.104144
0.737956 0.589156 0.104351
0.126116 0.597371 0.102619
0.127858 0.599000 0.102686
0.130310 0.598065 0.102682
0.131417 0.602520 0.102846
0.133800 0.602135 0.102870
0.135979 0.602679 0.102928
0.138535 0.601787 0.102948
0.141192 0.600526 0.102960
0.143748 0.599744 0.102992
0.146589 0.597749 0.102990
0.148916 0.598069 0.103063
0.150302 0.602825 0.103276
0.152891 0.602167 0.103325
0.155195 0.602909 0.103421
0.157874 0.601871 0.103463
0.160735 0.599887 0.103477
0.163222 0.599775 0.103551
0.164975 0.603616 0.103752
0.167299 0.604532 0.103861
0.170191 0.602288 0.103870
0.173004 0.600372 0.103889
0.175457 0.600492 0.103974
0.177616 0.602420 0.104118
0.179969 0.603216 0.104224
0.182033 0.605932 0.104394
0.184135 0.608546 0.104561
0.183833 0.628198 0.105293
0.189101 0.608662 0.104723
0.194460 0.605539 0.104772
0.196901 0.605656 0.104851
0.199441 0.604892 0.104898
0.201889 0.604816 0.104968
0.204333 0.604712 0.105035
0.207344 0.599060 0.104910
0.210628 0.590023 0.104665
0.212169 0.598567 0.105025
0.214042 0.604234 0.105286
0.216118 0.608062 0.105483
0.218441 0.609171 0.105584
0.220197 0.617928 0.105952
0.222664 0.617641 0.106002
0.226011 0.603792 0.105570
0.228330 0.604623 0.105655
0.230708 0.604483 0.105704
0.233107 0.603806 0.105732
0.235438 0.604352 0.105802
0.238460 0.588511 0.105283
0.240360 0.598621 0.105693
0.242392 0.607485 0.106058
0.244749 0.607584 0.106107
0.247151 0.605727 0.106084
0.249492 0.606000 0.106136
0.251846 0.605375 0.106154
0.254199 0.604017 0.106144
0.256537 0.602808 0.106138
0.258862 0.602840 0.106176
0.261187 0.603109 0.106222
0.263555 0.607997 0.106436
0.265877 0.606267 0.106406
0.268128 0.601509 0.106263
0.270467 0.602570 0.106333
0.272846 0.604750 0.106444
0.275241 0.606812 0.106549
0.277612 0.607671 0.106609
0.279897 0.606247 0.106584
0.282332 0.608367 0.106689
0.284616 0.607081 0.106666
0.286896 0.605925 0.106647
0.289212 0.605535 0.106655
0.291586 0.606060 0.106697
0.293939 0.606209 0.106724
0.296343 0.606988 0.106774
0.298632 0.606197 0.106764
0.300980 0.606170 0.106782
0.303280 0.605573 0.106778
0.305814 0.607546 0.106870
0.309138 0.617453 0.107260
0.312429 0.626095 0.107603
0.313111 0.609394 0.106988
0.315121 0.606038 0.106876
0.317460 0.605778 0.106881
0.319809 0.605597 0.106887
0.322186 0.605620 0.106901
0.324675 0.606476 0.106946
0.326738 0.604074 0.106866
0.329023 0.603407 0.106852
0.329515 0.590286 0.106365
0.334157 0.605911 0.106968
0.336853 0.607846 0.107052
0.339293 0.608018 0.107067
0.341744 0.608222 0.107084
0.345122 0.613914 0.107309
0.348317 0.618208 0.107480
0.348817 0.607024 0.107062
0.350503 0.602922 0.106913
0.353123 0.604005 0.106961
0.355933 0.606002 0.107043
0.357658 0.602350 0.106910
0.358533 0.594623 0.106620
0.362434 0.601917 0.106904
0.365492 0.604854 0.107021
0.368180 0.605921 0.107066
0.370383 0.604715 0.107024
0.373302 0.606714 0.107105
0.375375 0.604930 0.107040
0.377527 0.603536 0.106990
0.379974 0.603397 0.106988
0.382969 0.605477 0.107070
0.386008 0.607629 0.107154
0.388839 0.608856 0.107203
0.391232 0.608329 0.107185
0.393272 0.606469 0.107115
0.395519 0.605419 0.107076
0.398243 0.606120 0.107104
0.401200 0.607601 0.107161
0.404826 0.611356 0.107305
0.406523 0.608313 0.107188
0.408023 0.604681 0.107049
0.410206 0.603424 0.107000
0.414745 0.609903 0.107247
0.417034 0.608900 0.107207
0.419410 0.608184 0.107178
0.421972 0.608048 0.107171
0.424476 0.607717 0.107156
0.427049 0.607581 0.107148
0.430622 0.610403 0.107252
0.435392 0.608877 0.107186
0.437637 0.607714 0.107138
0.440299 0.607735 0.107134
0.442815 0.607329 0.107113
0.445554 0.607520 0.107114
0.448251 0.607574 0.107110
0.449537 0.603869 0.106962
0.450949 0.600575 0.106829
0.454094 0.601810 0.106869
0.461233 0.613124 0.107292
0.465697 0.617413 0.107446
0.468938 0.618549 0.107479
0.472321 0.619975 0.107523
0.469779 0.607086 0.107022
0.472246 0.606406 0.106985
0.474409 0.605005 0.106920
0.476382 0.603178 0.106838
0.478526 0.601763 0.106771
0.479876 0.598571 0.106636
0.485906 0.605869 0.106897
0.490969 0.610836 0.107069
0.495325 0.614119 0.107176
0.494897 0.607017 0.106890
0.495690 0.602651 0.106706
0.499581 0.604870 0.106771
0.502168 0.604304 0.106729
0.505163 0.604565 0.106717
0.509394 0.607299 0.106797
0.512303 0.607296 0.106773
0.515746 0.608325 0.106787
0.518049 0.607073 0.106714
0.518442 0.602124 0.106502
0.519605 0.598732 0.106347
0.522394 0.598468 0.106308
0.527979 0.603414 0.106462
0.531057 0.603585 0.106436
0.535046 0.605390 0.106469
0.539866 0.608633 0.106554
0.541118 0.605384 0.106397
0.541067 0.599865 0.106156
0.544348 0.600277 0.106132
0.558665 0.619793 0.106806
0.565041 0.625236 0.106961
0.556305 0.604866 0.106171
0.558722 0.603633 0.106080
0.561900 0.603658 0.106033
0.564934 0.603412 0.105974
0.566230 0.600306 0.105811
0.567843 0.597742 0.105665
0.569929 0.595951 0.105546
0.574775 0.598517 0.105581
0.580374 0.602174 0.105652
0.589965 0.611896 0.105936
0.593567 0.612212 0.105883
0.589912 0.601484 0.105437
0.592675 0.600564 0.105337
0.596498 0.601198 0.105289
0.596394 0.596006 0.105036
0.603966 0.602053 0.105172
0.604407 0.597662 0.104943
0.607605 0.597252 0.104851
0.613435 0.600528 0.104882
0.616963 0.600478 0.104797
0.616683 0.595115 0.104529
0.617358 0.591128 0.104307
0.625280 0.597012 0.104415
0.629193 0.597352 0.104335
0.631125 0.595008 0.104162
0.635882 0.596390 0.104112
0.637439 0.593530 0.103920
0.641325 0.593694 0.103825
0.643791 0.591998 0.103669
0.648301 0.592885 0.103594
0.651742 0.592374 0.103473
0.661970 0.600263 0.103617
0.670388 0.605737 0.103680
0.678305 0.610457 0.103717
0.672002 0.597906 0.103214
0.676041 0.597913 0.103103
0.680157 0.597982 0.102995
0.682880 0.596390 0.102836
0.681939 0.590552 0.102550
0.696142 0.602206 0.102791
0.706332 0.609052 0.102887
0.715524 0.614629 0.102943
0.704987 0.598052 0.102350
0.709001 0.597877 0.102245
0.711326 0.595849 0.102089
0.709884 0.589765 0.101822
0.711108 0.586666 0.101646
0.711034 0.582245 0.101439
0.714686 0.581856 0.101352
0.708611 0.571292 0.100986
0.702647 0.561047 0.100638
0.674408 0.524476 0.099522
0.124743 0.602955 0.100486
0.128756 0.596005 0.100325
0.130981 0.595872 0.100344
0.132757 0.597625 0.100416
0.134091 0.601336 0.100544
0.136563 0.600648 0.100566
0.138621 0.601760 0.100639
0.142442 0.595527 0.100528
0.143691 0.600288 0.100705
0.145313 0.603684 0.100852
0.147193 0.606136 0.100979
0.149356 0.607463 0.101080
0.152032 0.606476 0.101124
0.154289 0.607531 0.101225
0.157572 0.603588 0.101195
0.160518 0.601194 0.101208
0.162559 0.603434 0.101346
0.164333 0.607248 0.101530
0.167616 0.602970 0.101494
0.170497 0.600730 0.101514
0.172975 0.600712 0.101595
0.175399 0.601005 0.101685
0.177361 0.604163 0.101855
0.179364 0.607234 0.102023
0.181996 0.606340 0.102080
0.183683 0.611776 0.102315
0.183755 0.628915 0.102887
0.189050 0.609197 0.102402
0.192049 0.605317 0.102369
0.199403 0.605395 0.102598
0.201936 0.604587 0.102647
0.204629 0.602176 0.102647
0.207348 0.599222 0.102628
0.210514 0.591389 0.102461
0.211663 0.604174 0.102910
0.213999 0.604950 0.102999
0.216202 0.607315 0.103134
0.218308 0.611105 0.103312
0.220261 0.617358 0.103564
0.222601 0.618843 0.103669
0.225987 0.604478 0.103286
0.228369 0.604338 0.103337
0.230752 0.604077 0.103382
0.233106 0.604242 0.103440
0.235573 0.601928 0.103418
0.238388 0.590723 0.103116
0.240316 0.600365 0.103465
0.242486 0.605276 0.103665
0.244844 0.604973 0.103700
0.247178 0.605470 0.103759
0.249500 0.606744 0.103842
0.251843 0.607109 0.103894
0.254217 0.604393 0.103846
0.256556 0.603323 0.103850
0.258884 0.602080 0.103846
0.261213 0.604233 0.103950
0.263548 0.604914 0.104005
0.265904 0.606696 0.104095
0.268220 0.605448 0.104087
0.270548 0.605264 0.104111
0.272928 0.607027 0.104197
0.275308 0.608281 0.104266
0.277625 0.607501 0.104267
0.279905 0.605987 0.104244
0.282221 0.605538 0.104254
0.284586 0.606125 0.104296
0.286867 0.605084 0.104285
0.289156 0.604301 0.104281
0.291537 0.605052 0.104326
0.293989 0.606696 0.104400
0.296320 0.606465 0.104412
0.298674 0.606542 0.104432
0.301034 0.606638 0.104453
0.303417 0.606976 0.104481
0.305774 0.606961 0.104496
0.309454 0.620575 0.104961
0.312420 0.625886 0.105151
0.312980 0.608049 0.104574
0.315233 0.606955 0.104551
0.317491 0.605968 0.104530
0.319774 0.605232 0.104517
0.322376 0.607072 0.104589
0.324752 0.607012 0.104598
0.326945 0.605571 0.104559
0.329082 0.603792 0.104509
0.329526 0.590331 0.104069
0.333716 0.602916 0.104496
0.336864 0.607899 0.104670
0.339291 0.607993 0.104680
0.342313 0.611712 0.104810
0.345807 0.618006 0.105026
0.348910 0.621658 0.105154
0.348767 0.606755 0.104661
0.350941 0.605347 0.104619
0.353053 0.603657 0.104567
0.355428 0.603394 0.104561
0.357770 0.602954 0.104550
0.358097 0.592492 0.104203
0.362034 0.600017 0.104457
0.365144 0.603252 0.104568
0.367907 0.604710 0.104618
0.370551 0.605533 0.104647
0.372646 0.603865 0.104593
0.375213 0.604293 0.104608
0.378026 0.605725 0.104656
0.380829 0.607029 0.104700
0.383477 0.607628 0.104719
0.386026 0.607779 0.104724
0.388145 0.606219 0.104671
0.390620 0.606061 0.104664
0.393458 0.607258 0.104703
0.395717 0.606243 0.104667
0.398442 0.606937 0.104688
0.401671 0.609382 0.104767
0.403812 0.607901 0.104715
0.405757 0.605777 0.104640
0.407895 0.604353 0.104589
0.410358 0.604038 0.104575
0.413005 0.604315 0.104580
0.416764 0.608145 0.104703
0.419687 0.609176 0.104732
0.421966 0.608148 0.104693
0.424228 0.607075 0.104651
0.428006 0.610597 0.104762
0.433934 0.620382 0.105082
0.439250 0.628059 0.105330
0.435358 0.608907 0.104685
0.437586 0.607702 0.104637
0.439816 0.606514 0.104589
0.442648 0.607001 0.104596
0.445800 0.608327 0.104631
0.448162 0.607470 0.104593
0.448990 0.602559 0.104419
0.450138 0.598598 0.104277
0.454782 0.603720 0.104435
0.459929 0.609957 0.104630
0.464484 0.614523 0.104768
0.468760 0.618256 0.104878
0.472589 0.620778 0.104947
0.469983 0.607724 0.104501
0.471742 0.605355 0.104407
0.474763 0.605982 0.104411
0.476963 0.604671 0.104351
0.477800 0.600251 0.104188
0.479732 0.598392 0.104109
0.487563 0.609714 0.104461
0.491799 0.612816 0.104542
0.493572 0.610457 0.104443
0.496396 0.610392 0.104419
0.497992 0.607693 0.104307
0.499257 0.604340 0.104174
0.501800 0.603692 0.104128
0.505485 0.605377 0.104156
0.507788 0.604195 0.104090
0.511218 0.605275 0.104097
0.514667 0.606339 0.104101
0.517788 0.606713 0.104082
0.518610 0.602600 0.103918
0.520171 0.599966 0.103800
0.524841 0.603250 0.103870
0.528528 0.604594 0.103877
0.532264 0.605970 0.103883
0.534374 0.604310 0.103791
0.537463 0.604430 0.103754
0.540522 0.604464 0.103713
0.541265 0.600363 0.103539
0.547576 0.606084 0.103674
0.557810 0.618462 0.104015
0.563769 0.623206 0.104113
0.556305 0.605012 0.103493
0.559418 0.604948 0.103438
0.562554 0.604890 0.103382
0.565324 0.604198 0.103304
0.566824 0.601416 0.103160
0.568312 0.598637 0.103014
0.570272 0.596636 0.102891
0.576299 0.601063 0.102962
0.582662 0.605890 0.103042
0.591730 0.614768 0.103239
0.593549 0.612324 0.103093
0.591270 0.603680 0.102761
0.594008 0.602700 0.102656
0.597298 0.602521 0.102572
0.595952 0.595488 0.102285
0.600458 0.597078 0.102250
0.602314 0.594776 0.102099
0.605748 0.594732 0.102011
0.611734 0.598255 0.102023
0.616910 0.600533 0.101996
0.618950 0.598383 0.101840
0.621779 0.597314 0.101713
0.625051 0.596828 0.101601
0.627671 0.595433 0.101461
0.630487 0.594285 0.101326
0.633759 0.593720 0.101205
0.640924 0.598203 0.101219
0.642324 0.595111 0.101026
0.645085 0.593781 0.100879
0.644483 0.588177 0.100618
0.646871 0.586394 0.100458
0.656126 0.593137 0.100518
0.667415 0.602216 0.100633
0.680374 0.613116 0.100790
0.671674 0.597648 0.100276
0.675243 0.597101 0.100142
0.680606 0.598658 0.100060
0.683891 0.597723 0.099916
0.682861 0.591774 0.099652
0.692972 0.598721 0.099701
0.703552 0.606055 0.099758
0.717484 0.617015 0.099899
0.705346 0.598630 0.099354
0.709662 0.598792 0.099248
0.711835 0.596597 0.099092
0.708785 0.588767 0.098813
0.710496 0.586211 0.098661
0.715791 0.587535 0.098601
0.713197 0.580502 0.098362
0.696673 0.558996 0.097814
0.691419 0.549601 0.097543
0.758138 0.610332 0.098743
0.127092 0.594597 0.098015
0.129176 0.594825 0.098032
0.130962 0.596347 0.098083
0.132638 0.598481 0.098152
0.135018 0.597980 0.098173
0.137037 0.599054 0.098232
0.139183 0.599748 0.098290
0.140966 0.602114 0.098388
0.143364 0.602001 0.098439
0.144880 0.605880 0.098580
0.146774 0.608297 0.098694
0.149675 0.606230 0.098716
0.154803 0.593577 0.098509
0.154261 0.607884 0.098894
0.157031 0.606476 0.098938
0.159961 0.604223 0.098966
0.162092 0.606057 0.099086
0.164234 0.607948 0.099209
0.168224 0.599780 0.099105
0.169983 0.603797 0.099279
0.172494 0.603663 0.099358
0.175290 0.601803 0.099398
0.177268 0.604879 0.099552
0.179153 0.608712 0.099725
0.181210 0.611646 0.099878
0.183498 0.613173 0.099997
0.184066 0.626869 0.100408
0.189143 0.608656 0.100051
0.191709 0.608025 0.100115
0.194534 0.605265 0.100125
0.196955 0.605535 0.100209
0.199458 0.605075 0.100272
0.201992 0.604243 0.100325
0.204417 0.604287 0.100398
0.207092 0.601859 0.100407
0.211163 0.584971 0.100047
0.211952 0.601286 0.100528
0.213795 0.607441 0.100751
0.216168 0.607928 0.100827
0.218475 0.609240 0.100924
0.220365 0.616208 0.101166
0.222831 0.615835 0.101217
0.225979 0.604873 0.100987
0.228348 0.604988 0.101046
0.230685 0.605608 0.101116
0.233164 0.603467 0.101112
0.235574 0.602316 0.101131
0.238297 0.593327 0.100940
0.240350 0.599964 0.101164
0.242592 0.602609 0.101281
0.244875 0.604576 0.101378
0.247205 0.605137 0.101436
0.249534 0.605966 0.101500
0.251878 0.606038 0.101541
0.254236 0.604428 0.101536
0.256576 0.603090 0.101536
0.258902 0.605174 0.101629
0.261233 0.604453 0.101643
0.263565 0.604696 0.101683
0.265896 0.604725 0.101715
0.268239 0.605451 0.101766
0.270562 0.605063 0.101784
0.272927 0.606304 0.101846
0.275302 0.607535 0.101907
0.277620 0.606869 0.101914
0.279873 0.604773 0.101880
0.282161 0.603855 0.101878
0.284434 0.602791 0.101870
0.286922 0.605773 0.101975
0.289175 0.604358 0.101956
0.291548 0.604979 0.101992
0.294021 0.606938 0.102066
0.296393 0.607257 0.102092
0.298692 0.606588 0.102090
0.301112 0.607421 0.102129
0.303389 0.606511 0.102118
0.305960 0.608845 0.102198
0.309301 0.618875 0.102497
0.312089 0.622517 0.102613
0.313048 0.608593 0.102228
0.315245 0.606981 0.102193
0.317529 0.606215 0.102182
0.319832 0.605643 0.102175
0.322093 0.604756 0.102158
0.324653 0.606200 0.102207
0.326898 0.605180 0.102186
0.329163 0.604338 0.102169
0.329642 0.591108 0.101796
0.333951 0.604475 0.102184
0.336481 0.605384 0.102215
0.339269 0.607846 0.102290
0.342125 0.610556 0.102372
0.345593 0.616734 0.102553
0.348547 0.619558 0.102637
0.348592 0.605781 0.102245
0.350891 0.605093 0.102227
0.353295 0.604975 0.102225
0.355586 0.604252 0.102206
0.357816 0.603221 0.102177
0.358102 0.592557 0.101871
0.361535 0.597639 0.102017
0.364543 0.600450 0.102097
0.367612 0.603391 0.102181
0.370366 0.604754 0.102218
0.373032 0.605640 0.102242
0.375599 0.606033 0.102251
0.378414 0.607441 0.102289
0.380908 0.607430 0.102286
0.383776 0.608922 0.102326
0.385759 0.606793 0.102261
0.388216 0.606581 0.102251
0.391123 0.608084 0.102290
0.393799 0.608634 0.102301
0.395697 0.606263 0.102229
0.398670 0.607861 0.102269
0.401813 0.609988 0.102324
0.403565 0.607136 0.102237
0.405328 0.604399 0.102152
0.407603 0.603469 0.102119
0.410804 0.605634 0.102174
0.413901 0.607363 0.102215
0.417179 0.609594 0.102271
0.419364 0.608269 0.102225
0.421444 0.606637 0.102170
0.423696 0.605563 0.102130
0.427578 0.609425 0.102230
0.433606 0.619535 0.102508
0.439040 0.627573 0.102725
0.435584 0.609688 0.102206
0.437546 0.607717 0.102139
0.439850 0.606741 0.102099
0.442656 0.607156 0.102099
0.445664 0.608088 0.102112
0.448066 0.607348 0.102077
0.450222 0.605956 0.102024
0.450825 0.600527 0.101856
0.454765 0.603812 0.101933
0.459067 0.607908 0.102033
0.463380 0.611901 0.102128
0.467881 0.616228 0.102232
0.470932 0.616884 0.102232
0.469975 0.607849 0.101960
0.472480 0.607252 0.101924
0.475173 0.607088 0.101899
0.477530 0.606128 0.101851
0.477810 0.600419 0.101670
0.479765 0.598612 0.101597
0.487291 0.609257 0.101869
0.490423 0.609933 0.101862
0.493070 0.609514 0.101825
0.496747 0.611295 0.101847
0.498972 0.609925 0.101781
0.499943 0.605929 0.101642
0.502665 0.605637 0.101604
0.505003 0.604537 0.101543
0.507906 0.604584 0.101512
0.511146 0.605279 0.101498
0.514279 0.605721 0.101475
0.516879 0.605080 0.101421
0.520036 0.605509 0.101395
0.521951 0.603522 0.101303
0.526580 0.606690 0.101348
0.531119 0.609593 0.101383
0.530760 0.603330 0.101173
0.532385 0.600811 0.101061
0.535910 0.601761 0.101040
0.539010 0.601900 0.100996
0.544978 0.607091 0.101083
0.547257 0.605670 0.100993
0.554942 0.613631 0.101148
0.563733 0.623292 0.101342
0.556890 0.606147 0.100840
0.559362 0.604993 0.100750
0.562608 0.605119 0.100692
0.564974 0.603759 0.100594
0.567453 0.602577 0.100499
0.568532 0.599129 0.100345
0.572212 0.599867 0.100294
0.576822 0.602023 0.100277
0.583240 0.606928 0.100325
0.591147 0.614001 0.100422
0.593102 0.611773 0.100287
0.590528 0.602685 0.099983
0.594752 0.603946 0.099930
0.597321 0.602683 0.099813
0.595316 0.594678 0.099534
0.600136 0.596734 0.099493
0.601609 0.593883 0.099333
0.605339 0.594271 0.099248
0.610231 0.596253 0.099196
0.614001 0.596585 0.099104
0.619297 0.598984 0.099055
0.623286 0.599502 0.098961
0.624968 0.596835 0.098793
0.628901 0.597206 0.098691
0.630095 0.593883 0.098505
0.632731 0.592483 0.098360
0.635242 0.590908 0.098210
0.640959 0.593467 0.098146
0.643608 0.592011 0.097995
0.644517 0.588338 0.097796
0.648718 0.588830 0.097683
0.662358 0.601002 0.097803
0.671722 0.607642 0.097805
0.680982 0.613990 0.097797
0.672093 0.598285 0.097360
0.675981 0.598118 0.097226
0.681826 0.600240 0.097135
0.684160 0.598180 0.096965
0.682587 0.591601 0.096716
0.688343 0.593552 0.096624
0.699311 0.601384 0.096637
0.705240 0.598683 0.096343
0.709512 0.598806 0.096227
0.712476 0.597489 0.096090
0.710853 0.591209 0.095876
0.711815 0.587832 0.095718
0.716593 0.588603 0.095633
0.710354 0.577710 0.095369
0.699221 0.561889 0.095037
0.706622 0.565645 0.095023
0.718197 0.573669 0.095081
0.726678 0.578423 0.095095
0.129473 0.586100 0.095621
0.129024 0.595829 0.095788
0.129653 0.601830 0.095901
0.131750 0.602372 0.095932
0.135169 0.597737 0.095885
0.137359 0.598078 0.095926
0.138915 0.601187 0.096018
0.140353 0.605025 0.096128
0.142752 0.604945 0.096179
0.145111 0.605125 0.096239
0.147509 0.605216 0.096302
0.151176 0.599509 0.096270
0.152682 0.603846 0.096412
0.154785 0.605544 0.096514
0.157086 0.606393 0.096603
0.159529 0.606598 0.096684
0.161870 0.607382 0.096778
0.164687 0.605674 0.096828
0.167147 0.605858 0.096914
0.169694 0.605568 0.096991
0.172029 0.606501 0.097092
0.174774 0.605021 0.097148
0.177389 0.604244 0.097217
0.179232 0.608327 0.097378
0.181333 0.610952 0.097512
0.183377 0.614105 0.097656
0.184377 0.624795 0.097947
0.189216 0.608234 0.097707
0.191858 0.607014 0.097763
0.194598 0.604880 0.097799
0.196967 0.605551 0.097890
0.199400 0.605686 0.097968
0.201931 0.604907 0.098027
0.204408 0.604506 0.098091
0.207129 0.601633 0.098103
0.211100 0.585754 0.097842
0.211706 0.604057 0.098290
0.213864 0.606823 0.098414
0.216111 0.608777 0.098520
0.218381 0.610604 0.098622
0.220239 0.618102 0.098844
0.222787 0.616676 0.098874
0.225976 0.605159 0.098683
0.228345 0.605292 0.098742
0.230706 0.605519 0.098801
0.233141 0.604238 0.098825
0.235588 0.602360 0.098834
0.238455 0.589948 0.098607
0.240474 0.597093 0.098812
0.242628 0.602011 0.098967
0.244893 0.604520 0.099067
0.247204 0.605928 0.099141
0.249558 0.605571 0.099174
0.251912 0.604829 0.099196
0.254245 0.605265 0.099244
0.256586 0.604652 0.099266
0.258920 0.603314 0.099271
0.261248 0.603897 0.099317
0.263572 0.603543 0.099341
0.265896 0.603507 0.099371
0.268212 0.603087 0.099390
0.270514 0.602237 0.099399
0.272829 0.602169 0.099424
0.275250 0.605401 0.099525
0.277609 0.606141 0.099566
0.279857 0.604001 0.099539
0.282143 0.603128 0.099541
0.284560 0.604986 0.099605
0.286879 0.604727 0.099619
0.289286 0.605967 0.099667
0.291686 0.606905 0.099707
0.294085 0.607665 0.099742
0.296434 0.607638 0.099757
0.298676 0.606216 0.099738
0.300934 0.605123 0.099726
0.303284 0.605172 0.099741
0.305875 0.607803 0.099815
0.309223 0.617962 0.100068
0.312257 0.624065 0.100224
0.312974 0.607811 0.099847
0.315252 0.606964 0.099836
0.317475 0.605683 0.099813
0.319772 0.605086 0.099806
0.322128 0.604981 0.099811
0.324650 0.606133 0.099844
0.326923 0.605327 0.099830
0.329096 0.603824 0.099799
0.329673 0.591303 0.099503
0.333453 0.601110 0.099741
0.336457 0.605221 0.099843
0.339079 0.606639 0.099879
0.341903 0.609192 0.099942
0.345511 0.616247 0.100112
0.348197 0.617542 0.100144
0.348629 0.606007 0.099867
0.350974 0.605573 0.099857
0.353299 0.605023 0.099843
0.355678 0.604763 0.099835
0.357882 0.603594 0.099805
0.358371 0.593934 0.099572
0.361196 0.596041 0.099619
0.364395 0.599796 0.099706
0.367348 0.602225 0.099761
0.371172 0.608462 0.099906
0.373396 0.607315 0.099874
0.375911 0.607454 0.099873
0.378461 0.607711 0.099874
0.380585 0.606157 0.099831
0.382840 0.605181 0.099802
0.385935 0.607577 0.099852
0.388152 0.606412 0.099818
0.391649 0.610192 0.099901
0.393905 0.609124 0.099868
0.395632 0.606111 0.099788
0.397865 0.605030 0.099754
0.401836 0.610168 0.099867
0.403297 0.606299 0.099766
0.404997 0.603362 0.099687
0.407260 0.602412 0.099655
0.409393 0.601040 0.099612
0.415222 0.611800 0.099856
0.416151 0.606396 0.099717
0.418577 0.605889 0.099694
0.421494 0.606910 0.099706
0.424037 0.606729 0.099689
0.427837 0.610330 0.099761
0.431914 0.614623 0.099848
0.439183 0.628123 0.100151
0.435578 0.609796 0.099706
0.437832 0.608656 0.099664
0.440052 0.607436 0.099620
0.442779 0.607628 0.099608
0.445430 0.607585 0.099591
0.447885 0.606997 0.099560
0.450243 0.606146 0.099522
0.449938 0.598344 0.099322
0.453513 0.600726 0.099359
0.458567 0.606778 0.099479
0.462593 0.610068 0.099535
0.467530 0.615503 0.099639
0.474078 0.624703 0.099828
0.469948 0.607925 0.099419
0.472597 0.607672 0.099389
0.474918 0.606632 0.099341
0.477448 0.606082 0.099303
0.478544 0.602240 0.099189
0.479121 0.597299 0.099049
0.485911 0.606321 0.099226
0.489602 0.608268 0.099241
0.492330 0.608048 0.099206
0.495050 0.607792 0.099168
0.498946 0.610018 0.099186
0.501481 0.609306 0.099136
0.503701 0.607932 0.099070
0.504725 0.604112 0.098949
0.507780 0.604472 0.098920
0.511529 0.606191 0.098920
0.515216 0.607722 0.098913
0.516867 0.605202 0.098817
0.519830 0.605254 0.098775
0.522484 0.604686 0.098718
0.525554 0.604890 0.098677
0.529121 0.605994 0.098654
0.529931 0.601937 0.098518
0.531785 0.599852 0.098423
0.535311 0.600815 0.098392
0.544024 0.611031 0.098554
0.545060 0.607377 0.098421
0.549277 0.609354 0.098404
0.555280 0.614357 0.098448
0.561233 0.619139 0.098484
0.556593 0.605780 0.098144
0.559183 0.604827 0.098059
0.561551 0.603495 0.097964
0.564366 0.602891 0.097882
0.567689 0.603094 0.097814
0.569391 0.600644 0.097691
0.569563 0.595765 0.097519
0.576986 0.602411 0.097571
0.581676 0.604610 0.097532
0.586943 0.607621 0.097506
0.590717 0.608246 0.097431
0.588702 0.600039 0.097186
0.594568 0.603792 0.097165
0.596927 0.602219 0.097042
0.596280 0.596215 0.096835
0.599732 0.596263 0.096738
0.604349 0.597951 0.096667
0.608126 0.598366 0.096571
0.608174 0.593461 0.096378
0.613460 0.595943 0.096313
0.617662 0.596833 0.096216
0.621883 0.597691 0.096116
0.626137 0.598536 0.096013
0.626261 0.593768 0.095815
0.625791 0.588263 0.095605
0.628020 0.586384 0.095453
0.632265 0.587133 0.095340
0.636839 0.588253 0.095230
0.643118 0.591495 0.095150
0.644229 0.588086 0.094967
0.651561 0.592511 0.094899
0.662973 0.601885 0.094897
0.673450 0.609889 0.094869
0.679743 0.612605 0.094764
0.672911 0.599397 0.094442
0.675205 0.597318 0.094274
0.681381 0.599845 0.094166
0.685002 0.599304 0.094019
0.682940 0.592150 0.093791
0.687120 0.592290 0.093656
0.696747 0.598617 0.093596
0.709798 0.608677 0.093578
0.705464 0.599101 0.093337
0.708224 0.597554 0.093193
0.712916 0.598154 0.093077
0.707807 0.588086 0.092854
0.711616 0.587817 0.092741
0.716663 0.588887 0.092647
0.715212 0.583070 0.092492
0.708838 0.572205 0.092298
0.714384 0.573956 0.092234
0.728880 0.584942 0.092264
0.674149 0.524907 0.091647
0.126049 0.599404 0.093561
0.127330 0.602723 0.093605
0.127923 0.608957 0.093690
0.131747 0.602768 0.093638
0.134398 0.601198 0.093646
0.137092 0.599511 0.093658
0.139002 0.601144 0.093717
0.140688 0.603902 0.093795
0.142513 0.606265 0.093874
0.144973 0.605997 0.093926
0.148399 0.601421 0.093930
0.150356 0.603528 0.094020
0.152388 0.605444 0.094112
0.154853 0.605404 0.094183
0.157446 0.604778 0.094250
0.159122 0.608837 0.094380
0.161769 0.608057 0.094449
0.164829 0.605049 0.094491
0.167202 0.605682 0.094581
0.169353 0.607620 0.094691
0.172418 0.604342 0.094730
0.174870 0.604552 0.094817
0.176965 0.606964 0.094936
0.179288 0.608062 0.095036
0.181795 0.607995 0.095120
0.183398 0.614054 0.095293
0.184537 0.623752 0.095521
0.189005 0.609859 0.095397
0.192129 0.605048 0.095405
0.197000 0.605363 0.095567
0.199424 0.605570 0.095647
0.201907 0.605211 0.095716
0.204361 0.605032 0.095787
0.207138 0.601656 0.095804
0.211038 0.586481 0.095628
0.211763 0.603567 0.095973
0.214091 0.604406 0.096053
0.216226 0.607557 0.096170
0.219141 0.601196 0.096127
0.220353 0.616741 0.096450
0.222805 0.616595 0.096508
0.226115 0.603231 0.096339
0.228345 0.605499 0.096434
0.230788 0.604274 0.096467
0.233177 0.603797 0.096510
0.235577 0.602884 0.096545
0.238423 0.591013 0.096384
0.240473 0.597490 0.096545
0.242649 0.601826 0.096666
0.244857 0.606336 0.096790
0.247190 0.607143 0.096847
0.249564 0.606050 0.096868
0.251884 0.607848 0.096939
0.254267 0.604553 0.096917
0.256602 0.604510 0.096952
0.258935 0.603763 0.096972
0.261247 0.600229 0.096940
0.263563 0.600901 0.096983
0.265911 0.603513 0.097061
0.268250 0.604322 0.097105
0.270520 0.601859 0.097086
0.272783 0.599960 0.097076
0.275117 0.600801 0.097116
0.277613 0.605833 0.097233
0.279907 0.604860 0.097237
0.282236 0.604851 0.097258
0.284573 0.604974 0.097280
0.286965 0.606046 0.097319
0.289330 0.606479 0.097344
0.291724 0.607285 0.097376
0.294039 0.606816 0.097382
0.296329 0.606048 0.097382
0.298601 0.605114 0.097377
0.300852 0.604002 0.097368
0.303268 0.604868 0.097396
0.306121 0.610363 0.097512
0.309103 0.616626 0.097641
0.312627 0.627613 0.097861
0.312971 0.607702 0.097487
0.315243 0.606812 0.097477
0.317521 0.606019 0.097468
0.319766 0.604982 0.097453
0.322073 0.604494 0.097449
0.324762 0.606961 0.097500
0.327054 0.606267 0.097490
0.329245 0.604873 0.097466
0.329676 0.591306 0.097206
0.333316 0.600176 0.097378
0.336528 0.605675 0.097485
0.339194 0.607370 0.097517
0.342122 0.610542 0.097578
0.345497 0.616179 0.097685
0.348248 0.617853 0.097716
0.348899 0.607554 0.097515
0.351093 0.606253 0.097487
0.353444 0.605831 0.097476
0.355647 0.604633 0.097449
0.357987 0.604169 0.097435
0.358441 0.594325 0.097242
0.361580 0.597953 0.097306
0.364376 0.599760 0.097335
0.368344 0.606894 0.097466
0.371328 0.609232 0.097504
0.373378 0.607299 0.097460
0.376008 0.607941 0.097464
0.378353 0.607320 0.097444
0.380346 0.605235 0.097396
0.382531 0.603995 0.097364
0.385282 0.605042 0.097374
0.388921 0.609510 0.097450
0.390990 0.607743 0.097406
0.393853 0.609019 0.097420
0.395612 0.606131 0.097354
0.398277 0.606622 0.097352
0.401036 0.607408 0.097355
0.403093 0.605680 0.097310
0.405143 0.603966 0.097265
0.407497 0.603318 0.097240
0.411117 0.606889 0.097294
0.415137 0.611633 0.097369
0.415063 0.603000 0.097192
0.418275 0.605044 0.097216
0.422141 0.609046 0.097275
0.424395 0.607945 0.097239
0.426933 0.607717 0.097218
0.432391 0.616167 0.097359
0.439544 0.629310 0.097585
0.435499 0.609694 0.097203
0.437689 0.608378 0.097160
0.439899 0.607135 0.097117
0.442405 0.606722 0.097090
0.445331 0.607446 0.097083
0.447919 0.607220 0.097058
0.450174 0.606095 0.097016
0.449311 0.596840 0.096824
0.453110 0.599820 0.096856
0.458334 0.606321 0.096951
0.462435 0.609810 0.096989
0.466660 0.613493 0.097031
0.474565 0.626036 0.097230
0.470523 0.609451 0.096904
0.472091 0.606610 0.096825
0.474653 0.606151 0.096788
0.476905 0.604965 0.096738
0.476800 0.598389 0.096590
0.478866 0.596863 0.096532
0.483905 0.601986 0.096590
0.489287 0.607718 0.096658
0.491215 0.605764 0.096588
0.492508 0.602465 0.096495
0.495159 0.602108 0.096452
0.500990 0.608418 0.096523
0.503217 0.607071 0.096460
0.504158 0.603091 0.096351
0.506960 0.602952 0.096307
0.511249 0.605772 0.096311
0.515456 0.608341 0.096309
0.517687 0.606950 0.096239
0.519085 0.603950 0.096141
0.521361 0.602674 0.096071
0.525017 0.604012 0.096042
0.527340 0.602796 0.095969
0.530474 0.603081 0.095919
0.533093 0.602386 0.095852
0.539762 0.609022 0.095901
0.542137 0.607783 0.095821
0.545713 0.608672 0.095772
0.549253 0.609447 0.095720
0.554802 0.613663 0.095719
0.565379 0.626400 0.095846
0.556334 0.605470 0.095454
0.558849 0.604396 0.095365
0.561797 0.604032 0.095285
0.564877 0.603860 0.095206
0.567463 0.602851 0.095112
0.569433 0.600835 0.095002
0.568438 0.594091 0.094822
0.575158 0.599644 0.094816
0.580593 0.603038 0.094775
0.586047 0.606355 0.094730
0.594000 0.613399 0.094731
0.590720 0.603218 0.094496
0.594349 0.603580 0.094401
0.595388 0.600046 0.094253
0.596808 0.597105 0.094111
0.600116 0.596933 0.094002
0.603445 0.596757 0.093891
0.605555 0.594804 0.093755
0.609256 0.595097 0.093644
0.612891 0.595253 0.093528
0.618160 0.597629 0.093435
0.621487 0.597253 0.093308
0.622804 0.594114 0.093147
0.623089 0.589606 0.092971
0.623591 0.585436 0.092798
0.624918 0.582396 0.092636
0.632330 0.587320 0.092552
0.639842 0.592239 0.092463
0.638864 0.586154 0.092266
0.647353 0.592151 0.092180
0.649536 0.590077 0.092018
0.658337 0.596234 0.091926
0.672448 0.608771 0.091880
0.684495 0.618515 0.091804
0.673059 0.599694 0.091506
0.676181 0.598606 0.091347
0.680657 0.599115 0.091200
0.685171 0.599632 0.091054
0.682773 0.592089 0.090857
0.686699 0.591946 0.090710
0.697324 0.599423 0.090610
0.712787 0.612209 0.090537
0.705203 0.598971 0.090325
0.707978 0.597453 0.090182
0.711691 0.596989 0.090049
0.710392 0.591084 0.089898
0.711248 0.587616 0.089765
