ply
format ascii 1.0
comment ---
element vertex 1771
property float x
property float y
property float z
element face 0
property list uchar uint vertex_indices
end_header
0.525054 0.611414 0.157408
0.527719 0.611199 0.157436
0.530693 0.612029 0.157595
0.533654 0.612760 0.157743
0.534156 0.605262 0.156852
0.538062 0.609116 0.157394
0.540031 0.606583 0.157129
0.542505 0.605702 0.157073
0.545600 0.606754 0.157261
0.549348 0.609744 0.157696
0.553305 0.613244 0.158195
0.556566 0.614538 0.158416
0.558413 0.611628 0.158104
0.558891 0.604834 0.157297
0.561500 0.604258 0.157280
0.564187 0.603888 0.157289
0.566848 0.603428 0.157287
0.569379 0.602597 0.157238
0.571716 0.601241 0.157122
0.573410 0.598198 0.156790
0.577466 0.601358 0.157250
0.581523 0.604403 0.157697
0.585570 0.607309 0.158127
0.587197 0.604063 0.157770
0.590834 0.605829 0.158054
0.593715 0.605676 0.158093
0.597559 0.607812 0.158427
0.602206 0.611761 0.158994
0.605284 0.611912 0.159073
0.606579 0.607916 0.158619
0.607513 0.603169 0.158067
0.609715 0.601364 0.157894
0.612728 0.601376 0.157955
0.615195 0.600159 0.157858
0.618225 0.600164 0.157919
0.624471 0.607019 0.158867
0.629224 0.610524 0.159383
0.629969 0.605546 0.158800
0.631817 0.602935 0.158522
0.633435 0.599886 0.158188
0.637699 0.602209 0.158552
0.642489 0.605497 0.159043
0.646658 0.607459 0.159361
0.647625 0.603118 0.158859
0.649544 0.600676 0.158604
0.652278 0.599811 0.158554
0.654492 0.597958 0.158375
0.656887 0.596456 0.158242
0.660999 0.598115 0.158524
0.664769 0.599086 0.158715
0.670002 0.602636 0.159246
0.677799 0.610637 0.160362
0.677854 0.604824 0.159665
0.679142 0.601252 0.159261
0.682496 0.601281 0.159331
0.685631 0.600908 0.159349
0.688356 0.599825 0.159272
0.690845 0.598342 0.159144
0.693807 0.597641 0.159118
0.699248 0.600969 0.159626
0.704306 0.603581 0.160041
0.708328 0.604454 0.160225
0.712657 0.605766 0.160469
0.714285 0.602794 0.160144
0.714356 0.597441 0.159502
0.725529 0.609189 0.161136
0.723890 0.601227 0.160146
0.726012 0.599042 0.159925
0.727813 0.596396 0.159643
0.733416 0.599369 0.160111
0.735930 0.597751 0.159966
0.739005 0.596943 0.159930
0.744496 0.599573 0.160355
0.747755 0.598963 0.160346
0.750442 0.597532 0.160227
0.754140 0.597499 0.160296
0.756872 0.596108 0.160182
0.759596 0.594702 0.160067
0.763467 0.594835 0.160159
0.770356 0.598962 0.160791
0.778682 0.604877 0.161667
0.781816 0.603848 0.161605
0.780273 0.596738 0.160719
0.782394 0.594437 0.160483
0.789229 0.598141 0.161063
0.794782 0.600126 0.161411
0.796889 0.597736 0.161165
0.800050 0.596658 0.161097
0.803564 0.595997 0.161086
0.807520 0.595848 0.161145
0.812768 0.597218 0.161413
0.818186 0.598727 0.161700
0.821817 0.598062 0.161691
0.824998 0.596844 0.161606
0.827518 0.594845 0.161414
0.831334 0.594328 0.161426
0.836057 0.594812 0.161576
0.839709 0.594040 0.161554
0.848074 0.598499 0.162254
0.850974 0.596793 0.162104
0.854252 0.595489 0.162011
0.857349 0.593969 0.161887
0.859417 0.591326 0.161608
0.860395 0.587528 0.161169
0.864640 0.587200 0.161211
0.872330 0.590433 0.161749
0.874927 0.588284 0.161539
0.879296 0.587947 0.161582
0.882314 0.586194 0.161429
0.894108 0.593261 0.162508
0.898348 0.592611 0.162511
0.902692 0.592024 0.162523
0.912791 0.597031 0.163320
0.916519 0.595710 0.163232
0.922078 0.596120 0.163387
0.926495 0.595380 0.163381
0.931283 0.594947 0.163420
0.933438 0.592006 0.163105
0.943374 0.596262 0.163808
0.948403 0.595882 0.163857
0.952964 0.595025 0.163840
0.958531 0.595028 0.163945
0.965041 0.595809 0.164163
0.970260 0.595376 0.164209
0.975119 0.594574 0.164203
0.980538 0.594210 0.164261
0.989484 0.596812 0.164744
0.993088 0.594765 0.164563
0.998871 0.594526 0.164643
1.003936 0.593630 0.164629
1.012597 0.595652 0.165037
1.021093 0.597436 0.165412
1.026039 0.596253 0.165362
1.029455 0.593807 0.165129
1.038123 0.595508 0.165498
1.047094 0.597354 0.165889
1.051089 0.595238 0.165708
1.059695 0.596654 0.166041
1.065551 0.595892 0.166058
1.072495 0.595913 0.166191
1.082570 0.598221 0.166660
1.084113 0.594129 0.166194
1.091575 0.594408 0.166368
1.101431 0.596377 0.166793
1.106056 0.594519 0.166655
1.111460 0.593219 0.166601
1.119930 0.594077 0.166865
1.127622 0.594355 0.167046
1.136703 0.595572 0.167366
1.144729 0.596035 0.167576
1.150018 0.594631 0.167509
1.154568 0.592758 0.167372
1.154291 0.587719 0.166760
0.340704 0.599753 0.149762
0.342844 0.601737 0.150030
0.345437 0.595951 0.149412
0.347562 0.599741 0.149889
0.349749 0.603643 0.150381
0.352148 0.603637 0.150427
0.354654 0.601274 0.150204
0.357111 0.600772 0.150195
0.359607 0.599385 0.150085
0.362001 0.603570 0.150616
0.364493 0.605090 0.150842
0.367043 0.604042 0.150774
0.369601 0.602354 0.150632
0.372153 0.603066 0.150766
0.374714 0.601698 0.150662
0.377315 0.605290 0.151130
0.379900 0.604616 0.151106
0.382384 0.598551 0.150459
0.385017 0.601161 0.150815
0.387764 0.606803 0.151523
0.390278 0.603665 0.151214
0.392906 0.604294 0.151341
0.395625 0.606918 0.151701
0.398329 0.608668 0.151959
0.400798 0.605648 0.151663
0.403335 0.604331 0.151564
0.405917 0.603966 0.151575
0.408531 0.604179 0.151654
0.411097 0.603700 0.151652
0.413741 0.604335 0.151780
0.416337 0.604335 0.151834
0.418963 0.604718 0.151932
0.421867 0.608123 0.152385
0.424446 0.607830 0.152404
0.427349 0.610787 0.152804
0.429973 0.610873 0.152868
0.433632 0.620316 0.154031
0.434458 0.604446 0.152217
0.436907 0.603355 0.152141
0.439700 0.605111 0.152399
0.442121 0.603886 0.152307
0.444807 0.604718 0.152456
0.447094 0.602633 0.152261
0.449547 0.601849 0.152220
0.451414 0.597175 0.151717
0.454618 0.601489 0.152278
0.457368 0.602674 0.152469
0.460590 0.606668 0.152994
0.463584 0.609077 0.153330
0.466239 0.609385 0.153418
0.468507 0.607493 0.153243
0.471287 0.608491 0.153413
0.473921 0.608644 0.153481
0.476633 0.609183 0.153596
0.479716 0.611564 0.153930
0.482500 0.612334 0.154072
0.485168 0.612490 0.154141
0.487364 0.610392 0.153941
0.488925 0.605440 0.153398
0.491190 0.603863 0.153259
0.494865 0.608561 0.153871
0.498167 0.611433 0.154266
0.501026 0.612281 0.154417
0.503393 0.611035 0.154318
0.505470 0.608634 0.154079
0.508270 0.609183 0.154195
0.511000 0.609418 0.154273
0.513779 0.609806 0.154369
0.516788 0.611019 0.154566
0.519295 0.610307 0.154530
0.522175 0.610946 0.154657
0.524782 0.610566 0.154661
0.527997 0.612299 0.154921
0.531073 0.613466 0.155112
0.533161 0.611225 0.154891
0.535333 0.609310 0.154710
0.538429 0.610452 0.154898
0.541016 0.609891 0.154881
0.543145 0.607873 0.154686
0.545868 0.607736 0.154720
0.548467 0.607195 0.154704
0.551908 0.609185 0.154997
0.556672 0.615014 0.155759
0.558441 0.611873 0.155427
0.558783 0.604684 0.154601
0.561427 0.604215 0.154594
0.564173 0.604015 0.154621
0.566771 0.603385 0.154595
0.569622 0.603429 0.154651
0.572005 0.602190 0.154550
0.573314 0.598119 0.154102
0.577917 0.602710 0.154717
0.582081 0.606017 0.155175
0.585346 0.606928 0.155339
0.588691 0.607983 0.155521
0.591140 0.606771 0.155425
0.593878 0.606266 0.155415
0.597867 0.608746 0.155774
0.601236 0.609663 0.155941
0.604918 0.611258 0.156191
0.607420 0.610059 0.156097
0.609855 0.608706 0.155984
0.612513 0.607862 0.155933
0.614906 0.606420 0.155809
0.617817 0.606120 0.155826
0.621744 0.607999 0.156114
0.626065 0.610647 0.156498
0.627335 0.606750 0.156069
0.628759 0.603238 0.155687
0.631610 0.602727 0.155678
0.635230 0.603765 0.155863
0.637677 0.602389 0.155747
0.641763 0.604279 0.156039
0.645224 0.604865 0.156169
0.649534 0.607061 0.156500
0.653181 0.607902 0.156662
0.656500 0.608071 0.156741
0.659214 0.607072 0.156673
0.660830 0.604021 0.156348
0.663110 0.602232 0.156181
0.665853 0.601295 0.156121
0.673109 0.608464 0.157081
0.677102 0.609645 0.157288
0.677212 0.603941 0.156629
0.678985 0.601224 0.156345
0.682954 0.602318 0.156542
0.685598 0.601103 0.156448
0.688350 0.600065 0.156376
0.690877 0.598647 0.156256
0.693310 0.597075 0.156117
0.700083 0.602589 0.156876
0.703354 0.602305 0.156901
0.707341 0.603140 0.157068
0.712561 0.605879 0.157478
0.714063 0.602712 0.157137
0.714052 0.597235 0.156501
0.721490 0.603266 0.157332
0.727368 0.606777 0.157842
0.727848 0.602073 0.157305
0.729644 0.599391 0.157025
0.733033 0.599080 0.157048
0.736449 0.598783 0.157073
0.739818 0.598393 0.157087
0.744133 0.599333 0.157271
0.747766 0.599258 0.157326
0.751372 0.599117 0.157372
0.753995 0.597580 0.157239
0.756721 0.596184 0.157124
0.762543 0.598998 0.157552
0.765328 0.597631 0.157442
0.766351 0.593904 0.157026
0.769450 0.592962 0.156970
0.772426 0.591844 0.156892
0.777888 0.593939 0.157229
0.784818 0.597846 0.157803
0.790135 0.599592 0.158098
0.795227 0.600987 0.158347
0.797164 0.598380 0.158077
0.801010 0.598149 0.158116
0.804223 0.597108 0.158049
0.807903 0.596618 0.158055
0.812231 0.596879 0.158159
0.817588 0.598324 0.158418
0.823927 0.600864 0.158821
0.828285 0.601000 0.158911
0.827655 0.595316 0.158237
0.830617 0.593820 0.158112
0.835034 0.593965 0.158203
0.838896 0.593442 0.158207
0.851821 0.603004 0.159539
0.849664 0.595667 0.158646
0.850679 0.591898 0.158223
0.857259 0.594196 0.158600
0.861757 0.594168 0.158671
0.858543 0.585878 0.157649
0.861593 0.584309 0.157515
0.866130 0.584278 0.157586
0.872213 0.585803 0.157864
0.877442 0.586375 0.158016
0.888502 0.592820 0.158951
0.898020 0.597542 0.159659
0.900773 0.595372 0.159449
0.905164 0.594810 0.159454
0.913828 0.598394 0.160014
0.917482 0.596994 0.159908
0.921871 0.596272 0.159894
0.926443 0.595683 0.159898
0.928901 0.593054 0.159628
0.932039 0.591052 0.159442
0.941732 0.595101 0.160072
0.947009 0.594965 0.160139
0.953982 0.596312 0.160407
0.960530 0.597192 0.160614
0.964316 0.595532 0.160478
0.968823 0.594478 0.160424
0.974300 0.594231 0.160480
0.980374 0.594441 0.160599
0.988049 0.595959 0.160897
0.992321 0.594493 0.160791
0.996086 0.592565 0.160622
1.002700 0.592985 0.160773
1.006758 0.591224 0.160628
1.019890 0.596846 0.161494
1.022521 0.593803 0.161175
1.029567 0.594292 0.161341
1.036653 0.594743 0.161504
1.043945 0.595285 0.161680
1.052243 0.596542 0.161956
1.061095 0.598142 0.162281
1.065729 0.596441 0.162152
1.072012 0.595965 0.162193
1.077810 0.595086 0.162179
1.084588 0.594903 0.162262
1.092254 0.595331 0.162432
1.097865 0.594221 0.162389
1.104931 0.594143 0.162491
1.110314 0.592838 0.162422
1.118754 0.593688 0.162656
1.127674 0.594835 0.162933
1.134370 0.594409 0.162990
1.142143 0.594718 0.163152
1.147697 0.593513 0.163101
1.154053 0.592870 0.163131
1.163348 0.594202 0.163439
0.339967 0.613231 0.148842
0.342920 0.601587 0.147604
0.345210 0.601646 0.147650
0.347734 0.597425 0.147228
0.349703 0.606179 0.148232
0.352482 0.596428 0.147204
0.354564 0.605714 0.148271
0.357099 0.603094 0.148029
0.359593 0.602169 0.147975
0.362039 0.604307 0.148259
0.364532 0.605876 0.148482
0.367075 0.605646 0.148506
0.369626 0.606276 0.148627
0.372194 0.610125 0.149105
0.374789 0.609315 0.149068
0.377383 0.608124 0.148988
0.380052 0.612708 0.149550
0.382546 0.605145 0.148764
0.385040 0.600535 0.148304
0.387738 0.604603 0.148810
0.390324 0.604010 0.148797
0.392946 0.604494 0.148904
0.395643 0.606576 0.149190
0.398105 0.603328 0.148881
0.400904 0.607096 0.149355
0.403468 0.606165 0.149304
0.406087 0.606286 0.149370
0.408590 0.604674 0.149242
0.411126 0.603773 0.149194
0.413765 0.604367 0.149313
0.416646 0.607865 0.149758
0.419349 0.608946 0.149931
0.421837 0.607585 0.149830
0.424737 0.610667 0.150229
0.427317 0.610319 0.150241
0.430228 0.613140 0.150611
0.433427 0.618341 0.151249
0.434629 0.605825 0.149885
0.436979 0.603863 0.149713
0.439606 0.604287 0.149811
0.442229 0.604649 0.149901
0.444655 0.603535 0.149824
0.447161 0.603077 0.149821
0.449575 0.602014 0.149748
0.451357 0.596777 0.149201
0.455245 0.605553 0.150247
0.458030 0.606842 0.150441
0.460670 0.607166 0.150526
0.463375 0.607849 0.150652
0.465909 0.607497 0.150659
0.468601 0.608047 0.150769
0.471133 0.607680 0.150774
0.473695 0.607477 0.150798
0.476232 0.607143 0.150806
0.480110 0.613616 0.151595
0.482390 0.611849 0.151439
0.484435 0.609011 0.151160
0.487130 0.609357 0.151246
0.489086 0.606256 0.150935
0.491142 0.603721 0.150690
0.494267 0.606004 0.150998
0.497841 0.610109 0.151516
0.500291 0.609259 0.151464
0.502852 0.608884 0.151466
0.505600 0.609262 0.151555
0.507915 0.607872 0.151440
0.510706 0.608376 0.151544
0.513263 0.607937 0.151538
0.516139 0.608689 0.151671
0.519313 0.610492 0.151925
0.521022 0.606886 0.151552
0.523824 0.607275 0.151642
0.527965 0.612315 0.152272
0.530579 0.611899 0.152270
0.532597 0.609454 0.152031
0.535469 0.609902 0.152128
0.537942 0.609001 0.152069
0.540566 0.608590 0.152066
0.542860 0.607116 0.151939
0.545551 0.606900 0.151959
0.548314 0.606879 0.152002
0.551807 0.609035 0.152299
0.554936 0.610014 0.152459
0.559971 0.616511 0.153265
0.558584 0.604273 0.151879
0.561181 0.603682 0.151855
0.564135 0.604077 0.151946
0.567052 0.604330 0.152021
0.569625 0.603609 0.151982
0.572114 0.602657 0.151916
0.572548 0.596273 0.151211
0.578560 0.604565 0.152232
0.582357 0.606908 0.152554
0.585623 0.607815 0.152708
0.588211 0.606972 0.152655
0.590069 0.604323 0.152389
0.595074 0.609367 0.153031
0.598299 0.609978 0.153151
0.601204 0.609785 0.153175
0.604330 0.610084 0.153258
0.607254 0.609879 0.153282
0.609233 0.607494 0.153047
0.611677 0.606187 0.152939
0.615481 0.607906 0.153191
0.618388 0.607583 0.153201
0.622215 0.609233 0.153446
0.625607 0.609881 0.153571
0.626391 0.604970 0.153035
0.628509 0.602932 0.152841
0.632127 0.604012 0.153019
0.635222 0.603972 0.153063
0.637950 0.603162 0.153015
0.641118 0.603219 0.153071
0.645014 0.604680 0.153295
0.648942 0.606139 0.153520
0.653730 0.609192 0.153936
0.657929 0.611026 0.154206
0.659877 0.608554 0.153960
0.661287 0.605108 0.153597
0.662984 0.602238 0.153303
0.668748 0.606800 0.153903
0.673032 0.608570 0.154167
0.676506 0.608831 0.154251
0.676671 0.603235 0.153628
0.679222 0.601884 0.153516
0.681741 0.600477 0.153398
0.685598 0.601353 0.153556
0.688450 0.600486 0.153503
0.690717 0.598632 0.153331
0.693696 0.597964 0.153302
0.699163 0.601345 0.153765
0.701897 0.600208 0.153680
0.703035 0.596515 0.153284
0.709877 0.601897 0.153992
0.712733 0.600894 0.153923
0.714142 0.597639 0.153581
0.716525 0.595915 0.153424
0.727818 0.607731 0.154919
0.732630 0.609535 0.155195
0.734423 0.606776 0.154913
0.737254 0.605572 0.154822
0.738707 0.602352 0.154483
0.738829 0.597239 0.153912
0.741251 0.595488 0.153753
0.748471 0.600536 0.154428
0.752145 0.600480 0.154477
0.755496 0.599946 0.154467
0.760608 0.601812 0.154753
0.764188 0.601525 0.154775
0.763781 0.595830 0.154130
0.761120 0.587201 0.153122
0.767084 0.590117 0.153538
0.771735 0.591226 0.153731
0.770067 0.584076 0.152904
0.783643 0.596629 0.154514
0.793437 0.604094 0.155497
0.794968 0.600959 0.155167
0.797112 0.598615 0.154935
0.800963 0.598390 0.154966
0.804674 0.597963 0.154972
0.808299 0.597402 0.154961
0.810766 0.595420 0.154774
0.819256 0.600620 0.155481
0.823137 0.600240 0.155494
0.824857 0.597301 0.155187
0.828591 0.596710 0.155174
0.838517 0.603203 0.156047
0.838833 0.598600 0.155532
0.840818 0.595923 0.155258
0.845154 0.595879 0.155313
0.853019 0.599697 0.155854
0.849008 0.590384 0.154746
0.854313 0.591317 0.154925
0.859915 0.592508 0.155136
0.858339 0.585980 0.154376
0.860307 0.583270 0.154096
0.868268 0.586836 0.154608
0.869714 0.583536 0.154253
0.880803 0.590154 0.155153
0.888746 0.593400 0.155628
0.896540 0.596385 0.156071
0.901763 0.596698 0.156175
0.904048 0.594045 0.155904
0.913315 0.598233 0.156502
0.916069 0.595964 0.156279
0.922218 0.596951 0.156471
0.926510 0.596093 0.156429
0.932391 0.596696 0.156573
0.936344 0.595427 0.156479
0.940461 0.594276 0.156400
0.948002 0.596230 0.156718
0.955093 0.597679 0.156973
0.957609 0.594921 0.156689
0.963292 0.594979 0.156767
0.970207 0.596063 0.156977
0.975478 0.595626 0.156992
0.982812 0.596921 0.157231
0.987653 0.595989 0.157183
0.992592 0.595095 0.157141
0.996257 0.593082 0.156954
1.000599 0.591609 0.156838
1.007239 0.591998 0.156963
1.012897 0.591514 0.156976
1.018092 0.590602 0.156934
1.028852 0.594106 0.157466
1.038142 0.596315 0.157832
1.044031 0.595748 0.157838
1.052786 0.597362 0.158129
1.060883 0.598381 0.158343
1.066337 0.597309 0.158286
1.072695 0.596888 0.158315
1.077521 0.595280 0.158189
1.081497 0.593028 0.157979
1.090565 0.594511 0.158260
1.098587 0.595166 0.158435
1.104533 0.594281 0.158407
1.109414 0.592626 0.158280
1.122685 0.596891 0.158935
1.127861 0.595403 0.158831
1.133171 0.594020 0.158743
1.138327 0.592550 0.158644
1.143993 0.591449 0.158594
1.150094 0.590661 0.158587
1.163358 0.594666 0.159220
0.339623 0.620161 0.147114
0.342925 0.602673 0.145311
0.345275 0.601607 0.145235
0.347431 0.605196 0.145652
0.349792 0.605479 0.145721
0.352127 0.607287 0.145954
0.354684 0.603746 0.145623
0.357048 0.606707 0.145980
0.359581 0.604777 0.145822
0.362077 0.604872 0.145879
0.364573 0.606306 0.146078
0.367109 0.606847 0.146184
0.369641 0.611729 0.146752
0.372235 0.610784 0.146702
0.374831 0.609630 0.146631
0.377436 0.609703 0.146690
0.380032 0.608559 0.146620
0.382614 0.606940 0.146499
0.385172 0.604748 0.146317
0.387779 0.604921 0.146388
0.390373 0.604581 0.146404
0.392993 0.604948 0.146495
0.395699 0.607249 0.146793
0.398334 0.607576 0.146880
0.400855 0.605692 0.146730
0.403639 0.608736 0.147109
0.406170 0.607262 0.147002
0.408729 0.606431 0.146964
0.411331 0.606354 0.147007
0.414034 0.607617 0.147194
0.416877 0.610484 0.147553
0.419556 0.611150 0.147676
0.422157 0.610930 0.147702
0.424715 0.610300 0.147684
0.427399 0.611005 0.147809
0.430183 0.612608 0.148032
0.433756 0.621221 0.149014
0.434464 0.604313 0.147230
0.437072 0.604579 0.147307
0.439726 0.605195 0.147421
0.442246 0.604743 0.147418
0.444777 0.604415 0.147429
0.447634 0.606447 0.147697
0.449679 0.602721 0.147337
0.451600 0.598405 0.146911
0.455358 0.606293 0.147817
0.458885 0.612243 0.148512
0.461376 0.611502 0.148476
0.463535 0.608829 0.148229
0.466521 0.611070 0.148518
0.469747 0.614529 0.148941
0.471984 0.612384 0.148751
0.474183 0.610131 0.148547
0.477614 0.614386 0.149058
0.480559 0.615957 0.149274
0.481672 0.608361 0.148482
0.484335 0.608600 0.148551
0.487119 0.609381 0.148680
0.489664 0.609007 0.148681
0.491594 0.605850 0.148375
0.494820 0.608534 0.148713
0.497790 0.609980 0.148914
0.500553 0.610468 0.149010
0.502666 0.608214 0.148802
0.505330 0.608268 0.148849
0.508784 0.611448 0.149242
0.510879 0.609167 0.149031
0.513410 0.608618 0.149011
0.516593 0.610518 0.149262
0.518965 0.609329 0.149171
0.521278 0.607941 0.149058
0.524664 0.610401 0.149372
0.528059 0.612778 0.149677
0.530487 0.611718 0.149599
0.532917 0.610674 0.149524
0.535127 0.608905 0.149367
0.537730 0.608453 0.149357
0.540275 0.607801 0.149324
0.542792 0.607050 0.149281
0.545572 0.607116 0.149328
0.549492 0.610648 0.149763
0.552429 0.611072 0.149851
0.555467 0.611754 0.149968
0.558298 0.611781 0.150011
0.558439 0.604019 0.149181
0.561091 0.603592 0.149173
0.564104 0.604159 0.149277
0.567167 0.604819 0.149391
0.569782 0.604210 0.149363
0.572003 0.602535 0.149214
0.572684 0.596810 0.148610
0.577631 0.602325 0.149271
0.583354 0.609657 0.150137
0.585917 0.608746 0.150076
0.587102 0.604389 0.149625
0.591561 0.608193 0.150095
0.595700 0.611086 0.150463
0.599138 0.612191 0.150629
0.601875 0.611574 0.150601
0.604080 0.609700 0.150430
0.606354 0.608004 0.150279
0.608285 0.605538 0.150041
0.610649 0.604080 0.149917
0.614700 0.606379 0.150220
0.619245 0.609676 0.150636
0.622556 0.610186 0.150736
0.624393 0.607497 0.150472
0.626896 0.606253 0.150373
0.630089 0.606453 0.150438
0.633436 0.606937 0.150536
0.636856 0.607529 0.150646
0.638125 0.603738 0.150256
0.641258 0.603723 0.150296
0.644595 0.604081 0.150380
0.648781 0.606056 0.150649
0.653854 0.609664 0.151106
0.656767 0.609049 0.151079
0.658786 0.606738 0.150858
0.660664 0.604186 0.150609
0.662952 0.602418 0.150449
0.666385 0.602742 0.150530
0.673611 0.609857 0.151393
0.676519 0.609100 0.151350
0.676465 0.603118 0.150706
0.678170 0.600298 0.150425
0.682242 0.601589 0.150619
0.685306 0.601104 0.150607
0.688371 0.600604 0.150594
0.691128 0.599570 0.150520
0.692860 0.596839 0.150249
0.700097 0.603127 0.151021
0.702219 0.600986 0.150819
0.705183 0.600209 0.150774
0.708909 0.600624 0.150868
0.712212 0.600339 0.150881
0.712250 0.594966 0.150302
0.715143 0.594057 0.150242
0.722484 0.599896 0.150967
0.733220 0.610695 0.152271
0.732101 0.603591 0.151491
0.734152 0.601273 0.151267
0.736225 0.599002 0.151049
0.734575 0.591364 0.150204
0.739179 0.592797 0.150417
0.744830 0.595654 0.150798
0.749472 0.597009 0.151004
0.754774 0.599224 0.151310
0.757125 0.597303 0.151133
0.762906 0.600062 0.151504
0.759695 0.590598 0.150440
0.765410 0.593215 0.150795
0.769182 0.593178 0.150838
0.775456 0.596390 0.151263
0.782970 0.601118 0.151868
0.787846 0.602328 0.152059
0.790053 0.600079 0.151843
0.795961 0.602509 0.152178
0.797480 0.599371 0.151856
0.800191 0.597732 0.151711
0.806407 0.600388 0.152074
0.806682 0.595737 0.151572
0.810183 0.595020 0.151536
0.819272 0.600945 0.152288
0.820918 0.597925 0.151979
0.819503 0.591338 0.151245
0.828202 0.596567 0.151916
0.832954 0.597123 0.152031
0.837740 0.597668 0.152145
0.837455 0.592441 0.151572
0.845162 0.596200 0.152069
0.849087 0.595660 0.152054
0.852337 0.594348 0.151947
0.851746 0.588842 0.151338
0.851684 0.583962 0.150804
0.860713 0.588826 0.151435
0.870036 0.593867 0.152088
0.871565 0.590607 0.151747
0.876012 0.590387 0.151770
0.875589 0.585118 0.151187
0.886899 0.591845 0.152045
0.894953 0.595116 0.152488
0.899088 0.594356 0.152447
0.908839 0.599121 0.153072
0.912887 0.598150 0.153006
0.916535 0.596755 0.152888
0.921339 0.596444 0.152902
0.925493 0.595464 0.152834
0.930920 0.595649 0.152908
0.941750 0.600831 0.153586
0.940782 0.594918 0.152922
0.944581 0.593436 0.152794
0.955834 0.598704 0.153485
0.959919 0.597354 0.153373
0.965787 0.597560 0.153450
0.970221 0.596431 0.153365
0.978272 0.598430 0.153661
0.982014 0.596590 0.153490
0.987716 0.596406 0.153521
0.989010 0.592412 0.153087
0.996665 0.593791 0.153309
1.002414 0.593490 0.153326
1.004282 0.589924 0.152945
1.005273 0.585649 0.152475
1.012038 0.586072 0.152582
1.025141 0.591509 0.153304
1.037628 0.596290 0.153947
1.044141 0.596220 0.153996
1.050005 0.595587 0.153976
1.058770 0.597146 0.154227
1.065932 0.597396 0.154318
1.071748 0.596572 0.154277
1.075928 0.594490 0.154081
1.080388 0.592610 0.153911
1.090644 0.594977 0.154268
1.099583 0.596303 0.154497
1.103319 0.593825 0.154256
1.111389 0.594452 0.154401
1.120897 0.596057 0.154669
1.126910 0.595169 0.154629
1.133119 0.594419 0.154608
1.137765 0.592602 0.154455
1.140622 0.589601 0.154155
1.152611 0.592800 0.154631
1.164352 0.595782 0.155083
0.341353 0.592239 0.141820
0.343463 0.594089 0.142037
0.345555 0.597314 0.142395
0.347757 0.599493 0.142650
0.350063 0.600403 0.142778
0.352552 0.597466 0.142520
0.354931 0.597883 0.142603
0.357325 0.598783 0.142735
0.359781 0.598420 0.142741
0.362244 0.598628 0.142807
0.364723 0.599105 0.142900
0.367221 0.599795 0.143017
0.369739 0.600689 0.143154
0.372278 0.601234 0.143258
0.374835 0.602192 0.143404
0.377414 0.603519 0.143589
0.380004 0.604212 0.143709
0.382560 0.602422 0.143577
0.385176 0.603701 0.143758
0.387801 0.604711 0.143911
0.390397 0.604515 0.143942
0.392995 0.604359 0.143977
0.395644 0.605414 0.144136
0.398260 0.605573 0.144202
0.400840 0.605025 0.144197
0.403429 0.604733 0.144217
0.405999 0.604222 0.144214
0.408756 0.606579 0.144506
0.411386 0.606890 0.144588
0.414216 0.609788 0.144936
0.416831 0.609745 0.144980
0.419543 0.610863 0.145144
0.422162 0.610859 0.145192
0.424681 0.609842 0.145135
0.427266 0.609599 0.145157
0.430055 0.611320 0.145383
0.433205 0.616178 0.145933
0.434413 0.603827 0.144698
0.437023 0.604134 0.144775
0.439717 0.605091 0.144919
0.442256 0.604804 0.144934
0.444731 0.604063 0.144901
0.447448 0.605110 0.145053
0.449760 0.603292 0.144907
0.451804 0.599787 0.144584
0.456155 0.611495 0.145849
0.459101 0.613634 0.146115
0.461402 0.611701 0.145955
0.464039 0.611863 0.146014
0.467239 0.615264 0.146412
0.469823 0.615010 0.146426
0.471995 0.612504 0.146204
0.474229 0.610442 0.146029
0.477594 0.614351 0.146479
0.480814 0.617322 0.146832
0.482290 0.611496 0.146258
0.484471 0.609339 0.146071
0.487659 0.612018 0.146392
0.489796 0.609705 0.146186
0.492681 0.610852 0.146346
0.495075 0.609761 0.146269
0.497818 0.610204 0.146353
0.500208 0.609109 0.146275
0.503169 0.610409 0.146450
0.506511 0.613186 0.146781
0.508586 0.610772 0.146562
0.510513 0.607850 0.146290
0.513157 0.607768 0.146317
0.516313 0.609589 0.146547
0.518793 0.608819 0.146501
0.521138 0.607562 0.146404
0.524335 0.609359 0.146631
0.528122 0.613136 0.147068
0.530568 0.612136 0.146998
0.532282 0.608667 0.146664
0.534579 0.607226 0.146546
0.537514 0.607893 0.146652
0.540412 0.608391 0.146740
0.542834 0.607335 0.146663
0.546874 0.611328 0.147124
0.549988 0.612326 0.147266
0.552598 0.611743 0.147239
0.555452 0.611873 0.147288
0.558433 0.612343 0.147374
0.558531 0.604452 0.146563
0.561141 0.603904 0.146539
0.563930 0.603843 0.146567
0.567529 0.605992 0.146832
0.569797 0.604427 0.146699
0.571894 0.602420 0.146517
0.573191 0.598328 0.146112
0.578286 0.604215 0.146780
0.583272 0.609630 0.147397
0.586243 0.609762 0.147446
0.589139 0.609673 0.147472
0.592595 0.610937 0.147643
0.595408 0.610571 0.147639
0.598917 0.611857 0.147813
0.601728 0.611426 0.147802
0.603109 0.607629 0.147427
0.605608 0.606484 0.147338
0.608739 0.606778 0.147405
0.612738 0.608990 0.147680
0.616008 0.609496 0.147770
0.619954 0.611445 0.148017
0.622618 0.610535 0.147955
0.625121 0.609274 0.147853
0.627724 0.608223 0.147775
0.631378 0.609368 0.147936
0.634992 0.610372 0.148081
0.637679 0.609433 0.148015
0.639387 0.606508 0.147733
0.641163 0.603758 0.147469
0.644102 0.603337 0.147459
0.650733 0.610089 0.148232
0.653252 0.608737 0.148121
0.655818 0.607478 0.148021
0.658291 0.606041 0.147900
0.661570 0.606110 0.147945
0.664185 0.604924 0.147852
0.668119 0.606138 0.148022
0.673184 0.609332 0.148409
0.677422 0.610955 0.148624
0.677190 0.604639 0.147969
0.678724 0.601508 0.147662
0.681577 0.600690 0.147610
0.685239 0.601238 0.147707
0.688050 0.600312 0.147643
0.691192 0.599929 0.147638
0.694400 0.599633 0.147643
0.700417 0.603906 0.148151
0.704450 0.604852 0.148294
0.707441 0.604082 0.148247
0.711038 0.604256 0.148304
0.713023 0.601873 0.148079
0.714166 0.598199 0.147711
0.716061 0.595728 0.147476
0.723347 0.601474 0.148150
0.728823 0.604349 0.148507
0.731834 0.603464 0.148447
0.733715 0.600898 0.148201
0.734179 0.596285 0.147727
0.736023 0.593727 0.147481
0.741516 0.596414 0.147818
0.747954 0.600357 0.148295
0.751641 0.600331 0.148331
0.753386 0.597574 0.148062
0.762513 0.605001 0.148929
0.761820 0.598863 0.148283
0.769848 0.604587 0.148961
0.773733 0.604629 0.149005
0.774105 0.599983 0.148524
0.777028 0.598738 0.148424
0.783395 0.601960 0.148823
0.787876 0.602657 0.148940
0.792743 0.603801 0.149107
0.796608 0.603621 0.149126
0.796476 0.598409 0.148580
0.799438 0.597094 0.148471
0.803521 0.597143 0.148515
0.807278 0.596758 0.148510
0.809199 0.594131 0.148253
0.819468 0.601480 0.149118
0.818726 0.595634 0.148498
0.827876 0.601446 0.149191
0.829950 0.598899 0.148942
0.834324 0.599004 0.148992
0.833054 0.592637 0.148311
0.839370 0.594908 0.148606
0.841355 0.592253 0.148343
0.847859 0.594611 0.148647
0.851974 0.594260 0.148645
0.852417 0.589880 0.148186
0.856012 0.588932 0.148115
0.868075 0.596997 0.149066
0.876500 0.601020 0.149560
0.881010 0.600820 0.149574
0.883375 0.598348 0.149330
0.883904 0.593985 0.148871
0.884240 0.589457 0.148392
0.891099 0.591549 0.148666
0.905855 0.601449 0.149829
0.911983 0.602566 0.149993
0.915510 0.601056 0.149857
0.917549 0.598072 0.149552
0.921266 0.596706 0.149432
0.925454 0.595760 0.149359
0.929914 0.595033 0.149311
0.939941 0.599476 0.149854
0.944995 0.599165 0.149853
0.947385 0.596352 0.149566
0.952830 0.596315 0.149596
0.961226 0.598878 0.149924
0.966260 0.598329 0.149896
0.973920 0.600052 0.150128
0.979720 0.600050 0.150162
0.985850 0.600272 0.150221
0.987813 0.596844 0.149862
0.990373 0.593928 0.149560
0.995104 0.592833 0.149468
1.008416 0.598859 0.150195
1.009001 0.594185 0.149691
1.005975 0.586583 0.148849
1.010983 0.585579 0.148767
1.024194 0.591118 0.149440
1.034081 0.593846 0.149790
1.041278 0.594344 0.149882
1.051536 0.597160 0.150244
1.056014 0.595404 0.150077
1.064402 0.596616 0.150254
1.068177 0.594262 0.150019
1.074886 0.594103 0.150039
1.084987 0.596417 0.150347
1.089344 0.594424 0.150156
1.096472 0.594448 0.150200
1.102215 0.593439 0.150126
1.107429 0.592043 0.150008
1.118257 0.594614 0.150353
1.124971 0.594238 0.150357
1.133437 0.595068 0.150503
1.138674 0.593658 0.150390
1.140901 0.590225 0.150043
1.143462 0.587083 0.149731
1.159521 0.593011 0.150481
0.340995 0.599341 0.140147
0.343362 0.597029 0.139952
0.345667 0.596256 0.139907
0.347891 0.597824 0.140090
0.350219 0.597972 0.140138
0.352539 0.599163 0.140289
0.354963 0.598375 0.140250
0.357396 0.597917 0.140245
0.359841 0.597769 0.140272
0.362279 0.598934 0.140427
0.364756 0.599506 0.140526
0.367257 0.599902 0.140609
0.369776 0.600377 0.140700
0.372312 0.600664 0.140775
0.374862 0.601100 0.140864
0.377427 0.601697 0.140970
0.379959 0.599001 0.140756
0.382572 0.601614 0.141059
0.385161 0.601984 0.141144
0.387763 0.602553 0.141249
0.390408 0.604158 0.141455
0.392874 0.600651 0.141161
0.395502 0.601664 0.141309
0.398045 0.600702 0.141264
0.400745 0.602894 0.141527
0.403375 0.603533 0.141639
0.405895 0.602318 0.141568
0.408414 0.601308 0.141516
0.410943 0.600576 0.141492
0.413541 0.600877 0.141568
0.416233 0.602316 0.141757
0.418842 0.602658 0.141837
0.421399 0.602427 0.141860
0.424019 0.602889 0.141951
0.426541 0.602370 0.141944
0.429163 0.602850 0.142036
0.432110 0.606249 0.142417
0.434480 0.604384 0.142275
0.437053 0.604373 0.142317
0.439592 0.604090 0.142332
0.442152 0.604005 0.142365
0.444782 0.604458 0.142452
0.447395 0.604757 0.142523
0.449865 0.604048 0.142492
0.452163 0.602230 0.142351
0.454901 0.603380 0.142505
0.457364 0.602727 0.142479
0.459775 0.601792 0.142424
0.462696 0.603937 0.142677
0.465192 0.603494 0.142670
0.467659 0.602910 0.142649
0.470311 0.603352 0.142730
0.473098 0.604480 0.142880
0.475784 0.605018 0.142970
0.478359 0.604946 0.142999
0.480689 0.603653 0.142904
0.483068 0.602641 0.142838
0.486174 0.605094 0.143119
0.488465 0.603651 0.143008
0.491196 0.604244 0.143102
0.494334 0.606587 0.143372
0.496451 0.604393 0.143184
0.499261 0.605208 0.143299
0.501171 0.602224 0.143031
0.503934 0.602815 0.143123
0.506674 0.603264 0.143201
0.509522 0.604094 0.143317
0.512175 0.604122 0.143351
0.514573 0.603162 0.143286
0.517280 0.603355 0.143337
0.520566 0.605617 0.143597
0.522840 0.604163 0.143481
0.525534 0.604205 0.143516
0.528651 0.605676 0.143696
0.531225 0.605235 0.143682
0.533549 0.603945 0.143581
0.536039 0.603215 0.143537
0.538960 0.603865 0.143633
0.542440 0.606243 0.143905
0.545106 0.605976 0.143907
0.548215 0.607048 0.144047
0.551352 0.608141 0.144188
0.554304 0.608625 0.144267
0.557806 0.610673 0.144506
0.558601 0.604821 0.143937
0.561209 0.604266 0.143910
0.563977 0.604146 0.143927
0.566809 0.604178 0.143959
0.569719 0.604393 0.144010
0.571490 0.601514 0.143744
0.574065 0.600818 0.143701
0.578515 0.604996 0.144159
0.582380 0.607524 0.144447
0.586178 0.609786 0.144708
0.588340 0.607865 0.144540
0.590553 0.606091 0.144387
0.594934 0.609612 0.144778
0.596819 0.607015 0.144540
0.600088 0.607737 0.144643
0.602375 0.606113 0.144505
0.605126 0.605573 0.144478
0.608413 0.606239 0.144576
0.611956 0.607435 0.144729
0.615957 0.609594 0.144981
0.618445 0.608342 0.144881
0.621688 0.608731 0.144950
0.624761 0.608716 0.144978
0.627599 0.608175 0.144952
0.630579 0.607916 0.144954
0.633047 0.606574 0.144845
0.637216 0.608709 0.145095
0.638309 0.604556 0.144694
0.641862 0.605378 0.144809
0.646636 0.608560 0.145169
0.649986 0.608865 0.145230
0.650836 0.604314 0.144787
0.655589 0.607274 0.145125
0.658134 0.605980 0.145020
0.660576 0.604495 0.144895
0.665278 0.607176 0.145204
0.669182 0.608315 0.145353
0.670256 0.604302 0.144965
0.676067 0.608786 0.145463
0.676654 0.603939 0.144987
0.679119 0.602443 0.144861
0.681833 0.601377 0.144780
0.684553 0.600316 0.144699
0.688317 0.601012 0.144802
0.690780 0.599491 0.144673
0.694488 0.600031 0.144759
0.698392 0.600850 0.144875
0.702488 0.601935 0.145019
0.707192 0.603942 0.145260
0.712906 0.607478 0.145661
0.714883 0.605052 0.145437
0.716386 0.601908 0.145137
0.718711 0.600061 0.144974
0.724159 0.602974 0.145310
0.728311 0.603847 0.145432
0.731157 0.602724 0.145344
0.734166 0.601834 0.145281
0.740606 0.605945 0.145744
0.742156 0.602870 0.145451
0.748086 0.606098 0.145821
0.750442 0.604162 0.145647
0.753193 0.602787 0.145532
0.759865 0.606862 0.145993
0.764773 0.608396 0.146185
0.766680 0.605772 0.145938
0.771699 0.607373 0.146138
0.775273 0.606975 0.146125
0.775699 0.602380 0.145669
0.777395 0.599505 0.145394
0.780629 0.598651 0.145332
0.785665 0.600101 0.145515
0.792655 0.603980 0.145956
0.797615 0.605186 0.146113
0.795352 0.597294 0.145304
0.800026 0.598115 0.145419
0.803915 0.597921 0.145427
0.807316 0.597098 0.145367
0.810431 0.595911 0.145269
0.818684 0.600844 0.145822
0.825660 0.604136 0.146200
0.829167 0.603262 0.146135
0.832169 0.601779 0.146004
0.835465 0.600619 0.145907
0.843229 0.604535 0.146351
0.840283 0.596242 0.145492
0.841877 0.593140 0.145187
0.845411 0.592203 0.145112
0.851997 0.594592 0.145393
0.855527 0.593569 0.145308
0.861113 0.594738 0.145458
0.868933 0.598226 0.145855
0.877034 0.601901 0.146273
0.881516 0.601667 0.146272
0.887224 0.602663 0.146402
0.888187 0.598708 0.146001
0.889392 0.595024 0.145628
0.896475 0.597296 0.145894
0.906489 0.602409 0.146465
0.913449 0.604346 0.146694
0.915288 0.601165 0.146374
0.917594 0.598442 0.146101
0.923125 0.598825 0.146163
0.926991 0.597556 0.146046
0.932488 0.597797 0.146091
0.941740 0.601496 0.146507
0.945713 0.600166 0.146382
0.948305 0.597533 0.146117
0.952635 0.596473 0.146020
0.956078 0.594572 0.145831
0.962270 0.595104 0.145905
0.973936 0.600410 0.146493
0.980442 0.601029 0.146575
0.982898 0.598056 0.146270
0.994059 0.602563 0.146771
0.991867 0.595547 0.146028
1.001982 0.598983 0.146413
1.009635 0.600233 0.146562
1.010494 0.595774 0.146094
1.013271 0.592911 0.145798
1.020365 0.593542 0.145879
1.028813 0.595187 0.146070
1.034161 0.594274 0.145984
1.040496 0.594096 0.145978
1.050449 0.596685 0.146272
1.056499 0.596153 0.146228
1.060925 0.594337 0.146046
1.069710 0.595804 0.146220
1.076240 0.595502 0.146203
1.084868 0.596719 0.146351
1.088023 0.593847 0.146057
1.096767 0.595060 0.146207
1.101452 0.593291 0.146035
1.109900 0.594212 0.146156
1.117019 0.594151 0.146173
1.126591 0.595788 0.146376
1.131788 0.594348 0.146247
1.142170 0.596486 0.146508
1.146327 0.594346 0.146308
1.153602 0.594350 0.146343
1.163139 0.595870 0.146545
0.341183 0.597237 0.137568
0.343360 0.598158 0.137676
0.345582 0.599048 0.137784
0.347902 0.598732 0.137784
0.350233 0.598859 0.137827
0.352613 0.598484 0.137826
0.354983 0.599153 0.137922
0.357413 0.598843 0.137931
0.359841 0.599471 0.138027
0.362311 0.599288 0.138051
0.364790 0.599683 0.138129
0.367289 0.600030 0.138204
0.369810 0.599886 0.138234
0.372341 0.600701 0.138355
0.374891 0.601280 0.138454
0.377450 0.601327 0.138505
0.380024 0.601907 0.138606
0.382594 0.601616 0.138626
0.385176 0.601742 0.138685
0.387767 0.602025 0.138759
0.390364 0.602331 0.138836
0.392937 0.601872 0.138841
0.395512 0.601537 0.138857
0.398154 0.602694 0.139013
0.400795 0.603604 0.139145
0.403392 0.603633 0.139195
0.405972 0.603395 0.139220
0.408661 0.604835 0.139401
0.411050 0.601955 0.139177
0.413727 0.603206 0.139340
0.416323 0.603339 0.139398
0.418874 0.602972 0.139408
0.421460 0.603056 0.139460
0.423992 0.602583 0.139459
0.426593 0.602859 0.139528
0.429208 0.603267 0.139609
0.431799 0.603439 0.139667
0.434558 0.605069 0.139862
0.437040 0.604281 0.139828
0.439600 0.604181 0.139859
0.442155 0.604058 0.139887
0.444813 0.604722 0.139989
0.447300 0.604113 0.139970
0.449907 0.604381 0.140033
0.452571 0.605014 0.140131
0.455026 0.604248 0.140095
0.457450 0.603331 0.140043
0.460146 0.604128 0.140155
0.462858 0.604969 0.140270
0.465351 0.604488 0.140259
0.467809 0.603830 0.140231
0.470399 0.603916 0.140273
0.473129 0.604730 0.140384
0.475914 0.605780 0.140517
0.478263 0.604554 0.140432
0.480829 0.604441 0.140453
0.483353 0.604116 0.140453
0.485216 0.600665 0.140154
0.488616 0.604453 0.140547
0.491010 0.603508 0.140487
0.493962 0.605053 0.140665
0.496867 0.606307 0.140815
0.499274 0.605376 0.140755
0.501715 0.604603 0.140709
0.504041 0.603370 0.140619
0.506653 0.603302 0.140641
0.509280 0.603276 0.140666
0.512038 0.603723 0.140736
0.514629 0.603505 0.140743
0.517024 0.602540 0.140676
0.520316 0.604846 0.140926
0.522797 0.604151 0.140885
0.525377 0.603798 0.140877
0.528341 0.604755 0.140995
0.530922 0.604352 0.140982
0.533293 0.603240 0.140900
0.535904 0.602923 0.140895
0.538760 0.603375 0.140963
0.541324 0.602862 0.140939
0.544785 0.605133 0.141183
0.547581 0.605261 0.141221
0.549855 0.603781 0.141101
0.552507 0.603445 0.141093
0.555571 0.604293 0.141199
0.558502 0.604706 0.141263
0.561172 0.604334 0.141251
0.563828 0.603903 0.141233
0.566361 0.603119 0.141180
0.569126 0.602958 0.141188
0.571824 0.602590 0.141176
0.574708 0.602699 0.141209
0.578055 0.603980 0.141358
0.580916 0.603948 0.141378
0.583714 0.603727 0.141379
0.586694 0.603938 0.141423
0.589323 0.603246 0.141378
0.592311 0.603420 0.141418
0.594706 0.602132 0.141315
0.597189 0.601058 0.141233
0.601287 0.603766 0.141521
0.604084 0.603367 0.141505
0.606426 0.601909 0.141385
0.608881 0.600712 0.141290
0.612768 0.602705 0.141508
0.615392 0.601842 0.141446
0.618502 0.602028 0.141487
0.621139 0.601166 0.141425
0.624903 0.602681 0.141597
0.627398 0.601476 0.141501
0.630630 0.601796 0.141555
0.633601 0.601545 0.141553
0.636085 0.600287 0.141452
0.639069 0.600028 0.141450
0.642051 0.599743 0.141444
0.645346 0.600046 0.141497
0.649137 0.601270 0.141640
0.652427 0.601483 0.141684
0.655730 0.601685 0.141726
0.658914 0.601635 0.141744
0.661803 0.601011 0.141705
0.664828 0.600622 0.141690
0.668132 0.600715 0.141722
0.671780 0.601391 0.141811
0.675380 0.601938 0.141888
0.679062 0.602588 0.141975
0.681735 0.601455 0.141886
0.684719 0.600847 0.141849
0.687188 0.599355 0.141723
0.691571 0.601063 0.141915
0.694520 0.600336 0.141866
0.697294 0.599308 0.141787
0.700077 0.598287 0.141708
0.705808 0.601982 0.142097
0.708335 0.600492 0.141972
0.710315 0.598144 0.141761
0.714413 0.599104 0.141879
0.717622 0.598649 0.141856
0.720615 0.597845 0.141798
0.723818 0.597343 0.141770
0.728911 0.599642 0.142021
0.731832 0.598657 0.141944
0.734871 0.597832 0.141884
0.739508 0.599309 0.142053
0.743014 0.599103 0.142054
0.746890 0.599396 0.142105
0.749913 0.598453 0.142032
0.753613 0.598440 0.142052
0.756332 0.597043 0.141933
0.759850 0.596731 0.141923
0.763409 0.596450 0.141915
0.767272 0.596547 0.141945
0.772814 0.598837 0.142194
0.776655 0.598816 0.142212
0.779774 0.597823 0.142133
0.782667 0.596524 0.142022
0.786689 0.596655 0.142054
0.791387 0.597604 0.142168
0.794876 0.596986 0.142125
0.798428 0.596422 0.142087
0.804145 0.598494 0.142313
0.807665 0.597816 0.142262
0.810649 0.596466 0.142144
0.814316 0.595921 0.142107
0.819002 0.596554 0.142187
0.823445 0.596852 0.142233
0.827212 0.596318 0.142195
0.830563 0.595278 0.142106
0.836094 0.596701 0.142264
0.842078 0.598571 0.142467
0.845788 0.597818 0.142405
0.849091 0.596585 0.142295
0.853012 0.596010 0.142250
0.858096 0.596670 0.142329
0.862649 0.596700 0.142344
0.868729 0.598316 0.142519
0.872550 0.597465 0.142444
0.877913 0.598200 0.142528
0.881736 0.597274 0.142445
0.885702 0.596463 0.142372
0.889161 0.595101 0.142243
0.896380 0.597515 0.142495
0.903901 0.600137 0.142766
0.907747 0.599011 0.142659
0.912985 0.599222 0.142687
0.914904 0.596144 0.142381
0.920899 0.597001 0.142472
0.927472 0.598338 0.142611
0.931671 0.597348 0.142514
0.941507 0.601605 0.142946
0.942971 0.597948 0.142578
0.946320 0.596035 0.142385
0.951524 0.595789 0.142361
0.955164 0.594077 0.142187
0.958450 0.592019 0.141977
0.966339 0.594017 0.142177
0.977122 0.598455 0.142622
0.981021 0.596763 0.142447
0.985249 0.595325 0.142297
0.991731 0.595772 0.142337
0.997635 0.595659 0.142320
1.002470 0.594592 0.142206
1.008163 0.594192 0.142159
1.014878 0.594576 0.142190
1.022808 0.595876 0.142313
1.028577 0.595352 0.142252
1.034296 0.594738 0.142182
1.037842 0.592364 0.141934
1.050283 0.596920 0.142385
1.056199 0.596289 0.142312
1.062145 0.595639 0.142239
1.069407 0.595949 0.142262
1.077141 0.596556 0.142316
1.082132 0.595070 0.142160
1.091078 0.596478 0.142296
1.097425 0.595930 0.142237
1.106200 0.597109 0.142352
1.109621 0.594412 0.142080
1.114286 0.592623 0.141900
1.126457 0.596106 0.142253
1.131561 0.594607 0.142107
1.140345 0.595656 0.142221
1.146270 0.594735 0.142138
1.152592 0.594103 0.142088
1.162390 0.595812 0.142277
0.341174 0.598427 0.135298
0.343373 0.598990 0.135367
0.345631 0.599189 0.135408
0.347889 0.600141 0.135516
0.350255 0.599498 0.135488
0.352635 0.599128 0.135486
0.355029 0.599063 0.135513
0.357421 0.599991 0.135629
0.359862 0.600128 0.135678
0.362328 0.600199 0.135722
0.364815 0.600174 0.135760
0.367317 0.600275 0.135810
0.369836 0.600270 0.135852
0.372368 0.598977 0.135781
0.374919 0.602391 0.136126
0.377484 0.602729 0.136201
0.380047 0.602116 0.136193
0.382669 0.604606 0.136458
0.385188 0.601558 0.136236
0.387793 0.602406 0.136357
0.390375 0.602246 0.136390
0.392949 0.601859 0.136402
0.395525 0.601590 0.136424
0.398191 0.603252 0.136618
0.400783 0.603217 0.136661
0.403395 0.603543 0.136736
0.406120 0.605664 0.136970
0.408683 0.605078 0.136963
0.411239 0.604512 0.136957
0.413958 0.606159 0.137149
0.416362 0.603795 0.136981
0.418926 0.603561 0.137003
0.421601 0.604591 0.137137
0.424187 0.604615 0.137181
0.426762 0.604551 0.137217
0.429303 0.604190 0.137225
0.431874 0.604153 0.137261
0.434391 0.603658 0.137256
0.437033 0.604259 0.137348
0.439652 0.604639 0.137421
0.442201 0.604467 0.137442
0.444665 0.603676 0.137408
0.447380 0.604747 0.137540
0.450144 0.606093 0.137697
0.452617 0.605398 0.137669
0.455030 0.604350 0.137608
0.457513 0.603809 0.137593
0.460140 0.604173 0.137659
0.462783 0.604605 0.137730
0.465454 0.605173 0.137813
0.468071 0.605393 0.137864
0.470587 0.605040 0.137863
0.473197 0.605188 0.137906
0.475877 0.605687 0.137981
0.478479 0.605750 0.138016
0.480791 0.604357 0.137917
0.483466 0.604770 0.137983
0.486147 0.605176 0.138047
0.488681 0.604865 0.138046
0.491028 0.603704 0.137966
0.494168 0.606079 0.138209
0.496840 0.606309 0.138256
0.499562 0.606722 0.138319
0.501281 0.602926 0.137997
0.504004 0.603347 0.138059
0.506461 0.602666 0.138021
0.509132 0.602828 0.138059
0.512076 0.604003 0.138190
0.514982 0.604969 0.138302
0.517788 0.605508 0.138373
0.520319 0.604999 0.138349
0.522768 0.604190 0.138297
0.525446 0.604184 0.138318
0.528201 0.604421 0.138361
0.530774 0.604001 0.138343
0.533229 0.603180 0.138288
0.536093 0.603695 0.138356
0.538924 0.604059 0.138410
0.541622 0.603963 0.138421
0.544984 0.605915 0.138620
0.547478 0.605109 0.138565
0.549904 0.604097 0.138491
0.553620 0.606924 0.138771
0.555908 0.605451 0.138654
0.558462 0.604761 0.138609
0.561129 0.604385 0.138593
0.563626 0.603512 0.138531
0.565930 0.602106 0.138419
0.569021 0.602849 0.138506
0.572148 0.603639 0.138597
0.575370 0.604633 0.138707
0.578223 0.604605 0.138722
0.581074 0.604540 0.138733
0.583600 0.603626 0.138666
0.586173 0.602824 0.138609
0.589356 0.603520 0.138691
0.592399 0.603830 0.138737
0.595934 0.605281 0.138888
0.597287 0.601488 0.138554
0.600621 0.602405 0.138656
0.603784 0.602874 0.138716
0.606508 0.602299 0.138679
0.609065 0.601332 0.138606
0.612966 0.603353 0.138810
0.615834 0.603024 0.138796
0.618534 0.602308 0.138746
0.621488 0.602128 0.138746
0.625017 0.603138 0.138856
0.627548 0.602008 0.138768
0.630252 0.601232 0.138712
0.633322 0.601194 0.138724
0.636634 0.601619 0.138780
0.639554 0.601221 0.138759
0.642364 0.600587 0.138716
0.645810 0.601178 0.138787
0.649134 0.601493 0.138833
0.652214 0.601306 0.138832
0.655807 0.602063 0.138918
0.659486 0.602935 0.139015
0.662057 0.601715 0.138918
0.664852 0.600902 0.138857
0.668065 0.600832 0.138867
0.671807 0.601679 0.138962
0.675392 0.602201 0.139026
0.678104 0.601160 0.138944
0.681614 0.601491 0.138991
0.684471 0.600670 0.138930
0.688026 0.601018 0.138978
0.690803 0.600029 0.138900
0.694742 0.600953 0.139002
0.697922 0.600588 0.138983
0.701639 0.601071 0.139043
0.705426 0.601626 0.139110
0.708182 0.600506 0.139020
0.709984 0.597882 0.138789
0.713935 0.598621 0.138872
0.718573 0.600373 0.139051
0.721636 0.599661 0.138999
0.725142 0.599602 0.139007
0.728468 0.599245 0.138988
0.731516 0.598455 0.138927
0.734906 0.598150 0.138912
0.739181 0.599103 0.139015
0.742806 0.599075 0.139026
0.746163 0.598636 0.138997
0.749354 0.597939 0.138944
0.752784 0.597559 0.138921
0.756727 0.597862 0.138962
0.759609 0.596677 0.138862
0.764157 0.597737 0.138973
0.769053 0.599211 0.139124
0.772716 0.598987 0.139113
0.775957 0.598180 0.139048
0.779385 0.597598 0.139004
0.782921 0.597132 0.138970
0.785947 0.595991 0.138871
0.791292 0.597769 0.139048
0.794717 0.597073 0.138991
0.798705 0.597052 0.138998
0.802415 0.596655 0.138968
0.807252 0.597601 0.139065
0.811022 0.597206 0.139034
0.814328 0.596226 0.138948
0.818360 0.596086 0.138941
0.823043 0.596673 0.139002
0.827163 0.596556 0.138995
0.831049 0.596132 0.138960
0.833782 0.594360 0.138796
0.840557 0.597149 0.139062
0.844492 0.596664 0.139019
0.848973 0.596753 0.139029
0.852807 0.596085 0.138967
0.858320 0.597215 0.139074
0.862442 0.596779 0.139032
0.867253 0.597042 0.139056
0.871586 0.596748 0.139026
0.875244 0.595705 0.138925
0.881197 0.597020 0.139045
0.884722 0.595761 0.138922
0.889909 0.596172 0.138955
0.893631 0.595045 0.138843
0.900179 0.596719 0.138994
0.907896 0.599472 0.139245
0.911638 0.598211 0.139117
0.917148 0.598643 0.139148
0.919209 0.595685 0.138858
0.926580 0.597803 0.139045
0.930161 0.596236 0.138885
0.936016 0.596775 0.138921
0.940395 0.595874 0.138821
0.946663 0.596671 0.138880
0.951404 0.596002 0.138800
0.955297 0.594519 0.138642
0.963743 0.597078 0.138863
0.968162 0.595958 0.138737
0.976154 0.597935 0.138901
0.980712 0.596825 0.138774
0.984896 0.595351 0.138612
0.989520 0.594219 0.138481
0.995624 0.594295 0.138463
1.000195 0.593025 0.138317
1.010087 0.596124 0.138581
1.016385 0.596152 0.138555
1.022611 0.596059 0.138517
1.028804 0.595880 0.138471
1.034432 0.595194 0.138377
1.037652 0.592563 0.138101
1.050219 0.597226 0.138506
1.056509 0.596887 0.138443
1.062232 0.596068 0.138336
1.068843 0.595886 0.138289
1.074735 0.595120 0.138187
1.085773 0.598149 0.138440
1.092165 0.597658 0.138366
1.097108 0.596083 0.138192
1.101113 0.593827 0.137957
1.109005 0.594365 0.137983
1.112766 0.591944 0.137736
1.127913 0.597533 0.138236
1.133913 0.596650 0.138137
1.139115 0.595227 0.137991
1.144077 0.593665 0.137835
1.148999 0.592108 0.137683
1.162005 0.595993 0.138040
0.341288 0.597509 0.132845
0.343407 0.599405 0.133018
0.345652 0.599822 0.133072
0.347976 0.599354 0.133056
0.350264 0.600400 0.133168
0.352656 0.599735 0.133141
0.355053 0.599583 0.133158
0.357456 0.600043 0.133228
0.359884 0.600687 0.133316
0.362343 0.601078 0.133385
0.364830 0.601149 0.133429
0.367345 0.600155 0.133385
0.369860 0.600172 0.133427
0.372389 0.601426 0.133574
0.374931 0.600636 0.133551
0.377502 0.602724 0.133769
0.380064 0.602200 0.133769
0.382623 0.601436 0.133750
0.385202 0.601615 0.133810
0.387805 0.602434 0.133923
0.390389 0.602378 0.133964
0.393005 0.603112 0.134071
0.395542 0.601830 0.134008
0.398129 0.601852 0.134055
0.400782 0.603119 0.134207
0.403411 0.603772 0.134306
0.406034 0.604249 0.134390
0.408657 0.604685 0.134471
0.411330 0.605778 0.134606
0.413799 0.604111 0.134508
0.416413 0.604427 0.134576
0.418957 0.603942 0.134576
0.421496 0.603474 0.134577
0.424279 0.605616 0.134799
0.426840 0.605367 0.134817
0.429380 0.604969 0.134822
0.431893 0.604377 0.134809
0.434436 0.604110 0.134824
0.437109 0.604963 0.134933
0.439706 0.605150 0.134984
0.442258 0.604983 0.135005
0.444813 0.604858 0.135028
0.447476 0.605517 0.135118
0.449933 0.604716 0.135082
0.452490 0.604627 0.135107
0.454961 0.603991 0.135084
0.457497 0.603797 0.135098
0.460074 0.603867 0.135134
0.462674 0.604058 0.135179
0.465482 0.605434 0.135326
