ply
format ascii 1.0
comment ---
element vertex 1693
property float x
property float y
property float z
element face 0
property list uchar uint vertex_indices
end_header
0.832908 0.589807 -0.505057
0.837162 0.586667 -0.504174
0.842683 0.585160 -0.504078
0.850733 0.586773 -0.505504
0.856938 0.586196 -0.505836
0.863331 0.585907 -0.506293
0.869689 0.585646 -0.506745
0.887622 0.598926 -0.513890
-0.227737 0.579972 -0.428735
-0.225047 0.583712 -0.430531
-0.219995 0.582026 -0.430106
-0.215011 0.580611 -0.429783
-0.210551 0.580594 -0.430020
-0.206346 0.581345 -0.430563
-0.202071 0.582063 -0.431084
-0.198319 0.584260 -0.432203
-0.193529 0.583920 -0.432278
-0.189007 0.584377 -0.432671
-0.183980 0.583576 -0.432543
-0.179159 0.583386 -0.432659
-0.174482 0.583649 -0.432956
-0.169487 0.583076 -0.432905
-0.164760 0.583294 -0.433174
-0.160418 0.584660 -0.433912
-0.156055 0.586030 -0.434649
-0.151358 0.586457 -0.434996
-0.146467 0.586311 -0.435105
-0.141560 0.586100 -0.435185
-0.136349 0.584913 -0.434863
-0.131871 0.586009 -0.435479
-0.127138 0.586286 -0.435758
-0.122319 0.586250 -0.435909
-0.116593 0.583098 -0.434773
-0.112301 0.584731 -0.435613
-0.108388 0.587712 -0.437010
-0.102780 0.584671 -0.435922
-0.097939 0.584261 -0.435921
-0.093777 0.586306 -0.436937
-0.089323 0.587259 -0.437504
-0.084415 0.586422 -0.437331
-0.079631 0.585968 -0.437319
-0.075221 0.586948 -0.437903
-0.070729 0.587561 -0.438337
-0.065349 0.584352 -0.437188
-0.060538 0.583397 -0.436976
-0.056352 0.585107 -0.437873
-0.052303 0.587457 -0.439038
-0.047914 0.588256 -0.439563
-0.042978 0.586396 -0.438984
-0.038257 0.585430 -0.438778
-0.033661 0.584968 -0.438785
-0.029183 0.585020 -0.439008
-0.024884 0.585956 -0.439603
-0.020350 0.585588 -0.439656
-0.015573 0.583758 -0.439102
-0.011218 0.584198 -0.439497
-0.006781 0.584110 -0.439675
-0.002466 0.584701 -0.440138
0.001745 0.585929 -0.440871
0.006201 0.585559 -0.440938
0.010831 0.583913 -0.440473
0.015318 0.583097 -0.440357
0.019621 0.583510 -0.440759
0.024011 0.583229 -0.440873
0.028261 0.583984 -0.441423
0.032675 0.583397 -0.441412
0.036933 0.584042 -0.441921
0.041192 0.584682 -0.442431
0.045507 0.584808 -0.442727
0.049721 0.585901 -0.443433
0.054048 0.585886 -0.443674
0.058464 0.584840 -0.443483
0.062836 0.584154 -0.443445
0.067190 0.583555 -0.443445
0.071534 0.582981 -0.443457
0.075854 0.582637 -0.443569
0.080144 0.582648 -0.443833
0.084307 0.584732 -0.444977
0.088549 0.585760 -0.445676
0.092802 0.586749 -0.446362
0.097067 0.587692 -0.447031
0.101505 0.584611 -0.445991
0.105781 0.585209 -0.446516
0.110074 0.585465 -0.446898
0.114395 0.584743 -0.446865
0.118702 0.584457 -0.447020
0.122989 0.585277 -0.447647
0.127304 0.584413 -0.447559
0.131597 0.586128 -0.448572
0.135913 0.584564 -0.448187
0.140219 0.583868 -0.448173
0.144536 0.584861 -0.448884
0.148862 0.585588 -0.449483
0.153190 0.585859 -0.449889
0.157521 0.586033 -0.450254
0.161837 0.585491 -0.450314
0.166147 0.584834 -0.450325
0.170472 0.584611 -0.450523
0.174833 0.585166 -0.451059
0.179199 0.585614 -0.451549
0.183564 0.585886 -0.451965
0.187928 0.586020 -0.452324
0.192263 0.585613 -0.452450
0.196547 0.584450 -0.452250
0.200863 0.583810 -0.452277
0.205302 0.584732 -0.452981
0.209756 0.585642 -0.453682
0.214171 0.585964 -0.454129
0.218698 0.587374 -0.455051
0.223061 0.586940 -0.455174
0.227396 0.586225 -0.455175
0.231705 0.585288 -0.455080
0.236026 0.584477 -0.455041
0.240496 0.584930 -0.455553
0.245085 0.586229 -0.456435
0.249520 0.586209 -0.456745
0.253788 0.584907 -0.456494
0.258404 0.586120 -0.457345
0.263165 0.588186 -0.458570
0.267547 0.587571 -0.458624
0.271945 0.587052 -0.458721
0.276279 0.586127 -0.458640
0.280634 0.585344 -0.458622
0.285195 0.585756 -0.459130
0.289626 0.585372 -0.459289
0.294198 0.585737 -0.459780
0.299001 0.587268 -0.460785
0.303546 0.587343 -0.461151
0.307891 0.586365 -0.461053
0.312118 0.584824 -0.460707
0.316647 0.584760 -0.461015
0.321396 0.585688 -0.461763
0.326161 0.586603 -0.462507
0.330896 0.587303 -0.463158
0.335811 0.588715 -0.464128
0.340241 0.587971 -0.464142
0.345005 0.588603 -0.464769
0.349407 0.587701 -0.464715
0.353137 0.584139 -0.463477
0.357927 0.584802 -0.464122
0.363205 0.587260 -0.465570
0.367733 0.586783 -0.465711
0.372336 0.586564 -0.465969
0.377071 0.586786 -0.466426
0.382060 0.587859 -0.467266
0.386894 0.588317 -0.467833
0.391737 0.588752 -0.468392
0.396316 0.588256 -0.468536
0.400928 0.587845 -0.468719
0.405427 0.587051 -0.468733
0.409756 0.585709 -0.468500
0.415043 0.587343 -0.469611
0.419920 0.587634 -0.470121
0.424531 0.587078 -0.470249
0.429193 0.586652 -0.470439
0.434030 0.586707 -0.470849
0.439019 0.587154 -0.471439
0.443962 0.587416 -0.471949
0.449327 0.588797 -0.472970
0.454131 0.588565 -0.473263
0.459046 0.588596 -0.473678
0.464674 0.590465 -0.474933
0.469103 0.589117 -0.474726
0.473433 0.587514 -0.474406
0.479190 0.589511 -0.475732
0.483773 0.588489 -0.475683
0.488821 0.588589 -0.476151
0.493807 0.588489 -0.476531
0.498914 0.588633 -0.477027
0.504154 0.589038 -0.477647
0.509340 0.589260 -0.478188
0.514060 0.588361 -0.478217
0.519386 0.588802 -0.478867
0.524850 0.589487 -0.479636
0.529936 0.589273 -0.479994
0.535181 0.589356 -0.480495
0.540238 0.588981 -0.480788
0.545802 0.589634 -0.481563
0.551212 0.589893 -0.482161
0.556172 0.589161 -0.482305
0.560881 0.587881 -0.482198
0.566479 0.588362 -0.482916
0.572388 0.589386 -0.483894
0.578823 0.591358 -0.485322
0.583672 0.590151 -0.485272
0.588668 0.589192 -0.485342
0.593786 0.588425 -0.485509
0.599340 0.588425 -0.486041
0.604847 0.588273 -0.486509
0.610307 0.587974 -0.486914
0.616216 0.588427 -0.487680
0.621594 0.587855 -0.487970
0.627874 0.588814 -0.488991
0.633808 0.589080 -0.489693
0.639360 0.588616 -0.490056
0.644996 0.588234 -0.490465
0.651288 0.588891 -0.491375
0.656211 0.587189 -0.491172
0.662883 0.588324 -0.492326
0.669107 0.588634 -0.493096
0.674758 0.587948 -0.493398
0.681134 0.588351 -0.494228
0.687865 0.589232 -0.495297
0.693513 0.588342 -0.495523
0.700028 0.588728 -0.496369
0.706297 0.588663 -0.497007
0.712023 0.587715 -0.497225
0.719326 0.589058 -0.498557
0.725723 0.588978 -0.499207
0.731315 0.587666 -0.499266
0.736967 0.586405 -0.499354
0.744970 0.588447 -0.501053
0.751531 0.588367 -0.501724
0.759738 0.590518 -0.503490
0.766569 0.590686 -0.504292
0.772269 0.589267 -0.504317
0.777705 0.587483 -0.504163
0.786140 0.589694 -0.505971
0.792721 0.589389 -0.506541
0.799576 0.589424 -0.507277
0.807006 0.590186 -0.508368
0.813473 0.589694 -0.508833
0.819845 0.589091 -0.509237
0.826247 0.588545 -0.509660
0.832570 0.587928 -0.510036
0.838190 0.586483 -0.509987
0.847096 0.589094 -0.511948
0.853165 0.588278 -0.512185
0.858473 0.586618 -0.511982
0.863634 0.584871 -0.511715
0.869140 0.583622 -0.511677
0.869156 0.576089 -0.508458
-0.230341 0.584159 -0.435197
-0.225576 0.583011 -0.435000
-0.221311 0.583193 -0.435342
-0.215830 0.580575 -0.434516
-0.211549 0.580985 -0.434933
-0.207488 0.582089 -0.435628
-0.202726 0.581578 -0.435645
-0.198737 0.583149 -0.436518
-0.194700 0.584745 -0.437394
-0.189477 0.583364 -0.437027
-0.185092 0.584264 -0.437600
-0.180752 0.585390 -0.438261
-0.176170 0.585948 -0.438681
-0.170316 0.583024 -0.437647
-0.165837 0.583951 -0.438210
-0.161726 0.586002 -0.439239
-0.156966 0.586241 -0.439509
-0.152045 0.586020 -0.439585
-0.147127 0.585802 -0.439660
-0.142183 0.585494 -0.439695
-0.137423 0.585737 -0.439959
-0.132388 0.585090 -0.439851
-0.127802 0.585852 -0.440330
-0.123035 0.586011 -0.440558
-0.118238 0.586033 -0.440728
-0.112967 0.584380 -0.440198
-0.108547 0.585596 -0.440870
-0.104014 0.586408 -0.441373
-0.099359 0.586744 -0.441680
-0.094842 0.587550 -0.442184
-0.089900 0.586713 -0.442002
-0.085091 0.586289 -0.441994
-0.080380 0.586166 -0.442115
-0.075988 0.587262 -0.442750
-0.071230 0.586818 -0.442740
-0.066268 0.585421 -0.442333
-0.061375 0.584185 -0.441994
-0.057171 0.585874 -0.442888
-0.053098 0.588170 -0.444041
-0.048331 0.587270 -0.443852
-0.043387 0.585405 -0.443258
-0.038859 0.585413 -0.443456
-0.034230 0.584837 -0.443410
-0.029846 0.585420 -0.443856
-0.025419 0.585743 -0.444195
-0.020880 0.585397 -0.444253
-0.016008 0.583087 -0.443485
-0.011675 0.583695 -0.443951
-0.007477 0.585073 -0.444747
-0.003090 0.585306 -0.445062
0.001271 0.585660 -0.445431
0.005725 0.585355 -0.445522
0.010211 0.584756 -0.445492
0.014961 0.582189 -0.444628
0.019220 0.582956 -0.445182
0.023611 0.582717 -0.445310
0.027728 0.584567 -0.446331
0.032144 0.584061 -0.446351
0.036589 0.583209 -0.446227
0.040904 0.583386 -0.446543
0.044987 0.585711 -0.447777
0.049317 0.585789 -0.448056
0.053592 0.586391 -0.448561
0.058069 0.584815 -0.448139
0.062508 0.583445 -0.447805
0.066870 0.582817 -0.447791
0.071234 0.582050 -0.447718
0.075470 0.582926 -0.448352
0.079567 0.586012 -0.449936
0.083936 0.585133 -0.449822
0.088253 0.584986 -0.450024
0.092508 0.586020 -0.450736
0.096786 0.586762 -0.451324
0.101153 0.585525 -0.451064
0.105530 0.583672 -0.450539
0.109845 0.583238 -0.450626
0.114150 0.583016 -0.450806
0.118435 0.583693 -0.451376
0.122715 0.585154 -0.452287
0.127019 0.585952 -0.452915
0.131341 0.585498 -0.453002
0.135659 0.586220 -0.453600
0.139984 0.586363 -0.453949
0.144313 0.586435 -0.454270
0.148640 0.586126 -0.454426
0.152971 0.586021 -0.454673
0.157302 0.585812 -0.454876
0.161648 0.586108 -0.455300
0.165916 0.583875 -0.454624
0.170299 0.585075 -0.455444
0.174683 0.585950 -0.456126
0.179053 0.586250 -0.456557
0.183425 0.586457 -0.456950
0.187738 0.585557 -0.456861
0.192103 0.585529 -0.457154
0.196474 0.585520 -0.457456
0.200820 0.585112 -0.457585
0.205123 0.584143 -0.457469
0.209632 0.585661 -0.458445
0.214224 0.587873 -0.459729
0.218560 0.587089 -0.459698
0.222936 0.586728 -0.459854
0.227234 0.585596 -0.459671
0.231657 0.585659 -0.460015
0.236076 0.585614 -0.460313
0.240518 0.585722 -0.460680
0.244990 0.586003 -0.461125
0.249383 0.585617 -0.461276
0.253795 0.585339 -0.461476
0.258515 0.587219 -0.462633
0.262882 0.586510 -0.462644
0.267369 0.586596 -0.463009
0.272035 0.587767 -0.463858
0.276386 0.586879 -0.463793
0.280739 0.586016 -0.463739
0.284986 0.584545 -0.463416
0.289527 0.584770 -0.463849
0.294112 0.585183 -0.464367
0.298889 0.586551 -0.465313
0.303460 0.586742 -0.465736
0.307810 0.585765 -0.465638
0.312259 0.585288 -0.465764
0.316902 0.585722 -0.466300
0.321438 0.585595 -0.466585
0.326135 0.586168 -0.467186
0.331061 0.587693 -0.468217
0.335694 0.587836 -0.468630
0.340377 0.588149 -0.469120
0.344947 0.587940 -0.469377
0.349180 0.586338 -0.469007
0.353734 0.586036 -0.469225
0.358540 0.586693 -0.469877
0.363105 0.586367 -0.470088
0.367706 0.586150 -0.470349
0.372765 0.587574 -0.471355
0.377499 0.587745 -0.471797
0.382160 0.587616 -0.472104
0.386868 0.587615 -0.472471
0.391424 0.587061 -0.472589
0.396427 0.587975 -0.473377
0.400983 0.587361 -0.473472
0.405480 0.586538 -0.473474
0.410351 0.586884 -0.474010
0.415745 0.588800 -0.475267
0.419922 0.586907 -0.474786
0.424439 0.586055 -0.474783
0.429293 0.586184 -0.475231
0.434567 0.587484 -0.476219
0.439336 0.587261 -0.476512
0.444605 0.588409 -0.477438
0.449680 0.588943 -0.478086
0.454524 0.588790 -0.478421
0.459222 0.588210 -0.478562
0.465212 0.591009 -0.480265
0.469836 0.590136 -0.480279
0.474323 0.588891 -0.480123
0.478994 0.588104 -0.480182
0.484057 0.588267 -0.480684
0.489074 0.588267 -0.481114
0.494168 0.588406 -0.481613
0.499117 0.588149 -0.481932
0.504670 0.589269 -0.482897
0.509193 0.587925 -0.482718
0.514023 0.587267 -0.482863
0.519011 0.586935 -0.483165
0.525449 0.589783 -0.484957
0.530306 0.589036 -0.485075
0.535195 0.588324 -0.485213
0.540782 0.589070 -0.486041
0.546116 0.589208 -0.486588
0.551531 0.589455 -0.487193
0.556663 0.589057 -0.487500
0.561844 0.588712 -0.487838
0.567318 0.588904 -0.488434
0.572846 0.589140 -0.489058
0.578513 0.589583 -0.489787
0.584098 0.589794 -0.490412
0.589070 0.588768 -0.490458
0.594438 0.588450 -0.490845
0.599509 0.587523 -0.490949
0.605240 0.587769 -0.491618
0.610995 0.587986 -0.492281
0.616865 0.588336 -0.493015
0.622755 0.588649 -0.493739
0.629036 0.589573 -0.494763
0.634835 0.589567 -0.495352
0.640083 0.588549 -0.495461
0.646910 0.590160 -0.496842
0.652005 0.588760 -0.496782
0.657749 0.588395 -0.497228
0.663234 0.587543 -0.497447
0.669440 0.587807 -0.498211
0.675400 0.587597 -0.498756
0.682544 0.589194 -0.500185
0.688091 0.588183 -0.500356
0.694579 0.588580 -0.501220
0.700802 0.588489 -0.501854
0.706505 0.587545 -0.502078
0.712715 0.587310 -0.502656
0.719858 0.588394 -0.503886
0.725910 0.587791 -0.504297
0.732158 0.587419 -0.504827
0.738511 0.587143 -0.505410
0.746431 0.589036 -0.507067
0.753106 0.589085 -0.507820
0.759611 0.588847 -0.508435
0.766099 0.588541 -0.509019
0.772295 0.587802 -0.509389
0.779540 0.588449 -0.510448
0.786835 0.589114 -0.511518
0.794053 0.589637 -0.512516
0.801095 0.589901 -0.513382
0.808087 0.590080 -0.514202
0.814397 0.589380 -0.514575
0.819762 0.587502 -0.514348
0.827306 0.588392 -0.515503
0.834421 0.588752 -0.516380
0.841606 0.589215 -0.517299
0.847939 0.588670 -0.517694
0.854863 0.588887 -0.518459
0.860245 0.587312 -0.518297
0.865095 0.585196 -0.517840
0.869753 0.582958 -0.517297
0.875882 0.582536 -0.517656
-0.229420 0.580094 -0.438268
-0.226133 0.582375 -0.439504
-0.222363 0.583714 -0.440335
-0.218417 0.584813 -0.441057
-0.212988 0.582447 -0.440315
-0.208321 0.582048 -0.440389
-0.203998 0.582635 -0.440866
-0.199661 0.583320 -0.441376
-0.195348 0.584194 -0.441958
-0.190693 0.584295 -0.442207
-0.186083 0.584608 -0.442537
-0.181932 0.586247 -0.443420
-0.177195 0.586394 -0.443669
-0.172027 0.585404 -0.443433
-0.166976 0.584755 -0.443335
-0.162655 0.586220 -0.444125
-0.158024 0.586853 -0.444560
-0.152753 0.585618 -0.444204
-0.147822 0.585372 -0.444263
-0.143304 0.586388 -0.444852
-0.138329 0.585997 -0.444846
-0.133452 0.585886 -0.444957
-0.128358 0.585038 -0.444756
-0.123805 0.585916 -0.445285
-0.118937 0.585726 -0.445362
-0.114181 0.585870 -0.445581
-0.109445 0.586043 -0.445813
-0.104530 0.585531 -0.445756
-0.099845 0.585780 -0.446022
-0.095186 0.586072 -0.446309
-0.091173 0.588766 -0.447619
-0.086071 0.587294 -0.447160
-0.081408 0.587422 -0.447384
-0.076450 0.586301 -0.447078
-0.071745 0.586100 -0.447166
-0.066856 0.585044 -0.446892
-0.062099 0.584436 -0.446812
-0.057738 0.585480 -0.447437
-0.053495 0.587036 -0.448285
-0.048457 0.584899 -0.447560
-0.044117 0.585909 -0.448180
-0.039803 0.587022 -0.448847
-0.034675 0.584044 -0.447770
-0.030099 0.583673 -0.447808
-0.025987 0.585663 -0.448860
-0.021395 0.585084 -0.448815
-0.016672 0.583664 -0.448413
-0.012269 0.583940 -0.448740
-0.007978 0.584827 -0.449332
-0.003726 0.585942 -0.450024
0.000657 0.586234 -0.450367
0.005308 0.584731 -0.449942
0.009761 0.584398 -0.450022
0.013863 0.586438 -0.451124
0.018221 0.586705 -0.451468
0.022779 0.585430 -0.451150
0.027175 0.585263 -0.451312
0.031378 0.586599 -0.452124
0.035926 0.585063 -0.451700
0.040368 0.584269 -0.451599
0.044730 0.584107 -0.451772
0.048917 0.585593 -0.452660
0.053247 0.585704 -0.452957
0.057506 0.586568 -0.453582
0.062122 0.583372 -0.452452
0.066383 0.584077 -0.453012
0.070624 0.585108 -0.453717
0.075080 0.583248 -0.453170
0.079235 0.585587 -0.454448
0.083559 0.585543 -0.454693
0.087956 0.584180 -0.454367
0.092199 0.585529 -0.455223
0.096516 0.585543 -0.455500
0.100847 0.585231 -0.455637
0.105203 0.584147 -0.455439
0.109554 0.582892 -0.455167
0.113826 0.584163 -0.456000
0.118143 0.583999 -0.456209
0.122428 0.585734 -0.457250
0.126758 0.585130 -0.457270
0.131084 0.584751 -0.457390
0.135405 0.585678 -0.458085
0.139738 0.586518 -0.458743
0.144071 0.586177 -0.458885
0.148408 0.586072 -0.459132
0.152742 0.585777 -0.459298
0.157084 0.585770 -0.459591
0.161416 0.585286 -0.459676
0.165807 0.586599 -0.460554
0.170149 0.586216 -0.460686
0.174503 0.586090 -0.460933
0.178883 0.586440 -0.461392
0.183230 0.586020 -0.461512
0.187597 0.585935 -0.461782
0.191941 0.585444 -0.461873
0.196351 0.585895 -0.462383
0.200668 0.584968 -0.462283
0.204967 0.583864 -0.462105
0.209563 0.586344 -0.463521
0.214040 0.587157 -0.464198
0.218470 0.587318 -0.464587
0.222803 0.586435 -0.464512
0.227256 0.586729 -0.464963
0.231643 0.586336 -0.465108
0.235966 0.585377 -0.465002
0.240609 0.587096 -0.466094
0.245065 0.587136 -0.466437
0.249290 0.585362 -0.465969
0.253811 0.585844 -0.466512
0.258270 0.585803 -0.466822
0.262664 0.585283 -0.466918
0.266955 0.584066 -0.466702
0.271819 0.586534 -0.468144
0.276405 0.587088 -0.468727
0.280891 0.586964 -0.469007
0.285355 0.586680 -0.469215
0.289802 0.586273 -0.469369
0.294222 0.585698 -0.469449
0.298950 0.586749 -0.470265
0.303352 0.586024 -0.470279
0.307887 0.585957 -0.470592
0.312545 0.586459 -0.471164
0.317023 0.586037 -0.471319
0.321559 0.585870 -0.471591
0.326395 0.587027 -0.472466
0.331160 0.587781 -0.473160
0.335587 0.586999 -0.473158
0.340457 0.588087 -0.474008
0.344775 0.586799 -0.473778
0.349021 0.585243 -0.473425
0.353856 0.586050 -0.474153
0.358673 0.586714 -0.474818
0.363457 0.587187 -0.475398
0.368071 0.586971 -0.475665
0.372829 0.587248 -0.476159
0.377513 0.587217 -0.476514
0.382376 0.587774 -0.477142
0.387007 0.587474 -0.477378
0.391852 0.587872 -0.477938
0.396494 0.587541 -0.478164
0.400945 0.586563 -0.478093
0.405636 0.586347 -0.478377
0.410573 0.586875 -0.479006
0.415752 0.588093 -0.479958
0.420676 0.588458 -0.480518
0.424791 0.586351 -0.479936
0.429908 0.587220 -0.480735
0.435202 0.588532 -0.481744
0.440081 0.588578 -0.482169
0.445046 0.588825 -0.482690
0.449628 0.587963 -0.482699
0.454444 0.587723 -0.482999
0.459861 0.589054 -0.484037
0.465249 0.590224 -0.485004
0.469801 0.589149 -0.484925
0.474307 0.587943 -0.484788
0.479422 0.588259 -0.485367
0.485109 0.589941 -0.486592
0.489837 0.589184 -0.486676
0.494846 0.589079 -0.487070
0.500173 0.589684 -0.487804
0.504800 0.588583 -0.487738
0.509559 0.587766 -0.487810
0.514160 0.586564 -0.487703
0.520276 0.588751 -0.489204
0.525679 0.589247 -0.489910
0.530543 0.588495 -0.490031
0.535468 0.587842 -0.490204
0.540886 0.588206 -0.490864
0.546293 0.588479 -0.491487
0.552306 0.589954 -0.492689
0.557168 0.588968 -0.492725
0.562238 0.588372 -0.492952
0.568105 0.589327 -0.493926
0.573007 0.588291 -0.493955
0.578168 0.587727 -0.494215
0.584262 0.588916 -0.495323
0.590176 0.589668 -0.496229
0.595826 0.589844 -0.496866
0.601001 0.589068 -0.497051
0.605744 0.587449 -0.496836
0.612389 0.589258 -0.498283
0.617920 0.588959 -0.498720
0.623937 0.589460 -0.499552
0.629488 0.589064 -0.499957
0.635251 0.588975 -0.500519
0.641380 0.589447 -0.501361
0.647085 0.589116 -0.501822
0.652721 0.588609 -0.502204
0.658546 0.588353 -0.502717
0.663870 0.587213 -0.502805
0.669474 0.586476 -0.503097
0.676435 0.587856 -0.504436
0.682733 0.588082 -0.505218
0.688722 0.587748 -0.505733
0.695266 0.588209 -0.506648
0.700923 0.587234 -0.506861
0.706637 0.586295 -0.507098
0.713170 0.586531 -0.507925
0.720384 0.587701 -0.509222
0.727322 0.588375 -0.510282
0.733420 0.587757 -0.510705
0.739368 0.586878 -0.511003
0.746328 0.587389 -0.511999
0.753090 0.587558 -0.512829
0.760201 0.588153 -0.513877
0.766084 0.587008 -0.514054
0.773725 0.588225 -0.515421
0.779916 0.587435 -0.515777
0.786905 0.587690 -0.516659
0.796915 0.591878 -0.519532
0.801231 0.588562 -0.518602
0.808876 0.589583 -0.519865
0.814950 0.588579 -0.520093
0.821857 0.588647 -0.520858
0.832476 0.593354 -0.523982
0.837300 0.590831 -0.523405
0.842369 0.588681 -0.523002
0.849073 0.588589 -0.523636
0.857417 0.590511 -0.525288
0.864086 0.590456 -0.525908
0.867547 0.586681 -0.524591
0.872946 0.585302 -0.524485
0.883872 0.590422 -0.527711
-0.233081 0.586720 -0.445840
-0.226715 0.581797 -0.444040
-0.223085 0.583442 -0.445013
-0.219194 0.584650 -0.445791
-0.214212 0.583368 -0.445500
-0.209091 0.581843 -0.445096
-0.204674 0.582178 -0.445471
-0.200471 0.583187 -0.446124
-0.196106 0.583915 -0.446650
-0.191194 0.583334 -0.446609
-0.187119 0.585050 -0.447540
-0.182827 0.586311 -0.448269
-0.178233 0.586854 -0.448687
-0.173039 0.585803 -0.448418
-0.168476 0.586549 -0.448911
-0.163369 0.585794 -0.448758
-0.158674 0.586245 -0.449116
-0.153656 0.585768 -0.449075
-0.149347 0.587419 -0.449941
-0.144125 0.586327 -0.449631
-0.139396 0.586724 -0.449957
-0.134326 0.586038 -0.449817
-0.129641 0.586547 -0.450189
-0.124786 0.586480 -0.450314
-0.120073 0.586855 -0.450629
-0.115026 0.586056 -0.450440
-0.110489 0.586958 -0.450983
-0.105605 0.586613 -0.450991
-0.100788 0.586437 -0.451072
-0.096588 0.588481 -0.452111
-0.090912 0.584970 -0.450762
-0.086500 0.586125 -0.451422
-0.081761 0.585976 -0.451523
-0.077234 0.586603 -0.451960
-0.072353 0.585729 -0.451754
-0.067602 0.585295 -0.451739
-0.062805 0.584568 -0.451600
-0.058833 0.587373 -0.452989
-0.053901 0.585909 -0.452538
-0.049393 0.586254 -0.452871
-0.044730 0.585813 -0.452867
-0.040374 0.586770 -0.453471
-0.035591 0.585569 -0.453144
-0.030727 0.583818 -0.452581
-0.026586 0.585707 -0.453597
-0.021940 0.584893 -0.453446
-0.017215 0.583522 -0.453056
-0.012793 0.583739 -0.453357
-0.008550 0.584961 -0.454097
-0.004149 0.585230 -0.454428
0.000220 0.585650 -0.454826
0.004643 0.585680 -0.455059
0.009195 0.584783 -0.454890
0.013373 0.586366 -0.455805
0.017855 0.585799 -0.455785
0.022552 0.583521 -0.455023
0.026692 0.585351 -0.456054
0.031070 0.585344 -0.456287
0.035631 0.583721 -0.455816
0.039756 0.585773 -0.456954
0.044195 0.585054 -0.456884
0.048649 0.584057 -0.456694
0.052859 0.585418 -0.457539
0.057012 0.587499 -0.458703
0.061411 0.586960 -0.458721
0.065957 0.584537 -0.457914
0.070260 0.584899 -0.458332
0.074580 0.585033 -0.458652
0.078909 0.585025 -0.458912
0.083236 0.585039 -0.459184
0.087557 0.585109 -0.459483
0.091889 0.584977 -0.459695
0.096228 0.584646 -0.459822
0.100543 0.584817 -0.460171
0.104834 0.585675 -0.460827
0.109156 0.585840 -0.461179
0.113490 0.585636 -0.461369
0.117838 0.584717 -0.461245
0.122152 0.585399 -0.461832
0.126492 0.584562 -0.461748
0.130831 0.582855 -0.461279
0.135146 0.586547 -0.463207
0.139486 0.585997 -0.463255
0.143830 0.586240 -0.463658
0.148163 0.585253 -0.463515
0.152520 0.585963 -0.464128
0.156892 0.586882 -0.464837
0.161199 0.585069 -0.464329
0.165544 0.584831 -0.464525
0.169927 0.585533 -0.465143
0.174292 0.585551 -0.465457
0.178640 0.585155 -0.465587
0.183053 0.585936 -0.466245
0.187514 0.587337 -0.467184
0.191906 0.587357 -0.467505
0.196234 0.586370 -0.467376
0.200593 0.585872 -0.467467
0.204924 0.585024 -0.467402
0.209292 0.584654 -0.467553
0.213920 0.587159 -0.469000
0.218271 0.586410 -0.468984
0.222686 0.586324 -0.469267
0.227169 0.586832 -0.469819
0.231558 0.586392 -0.469945
0.235921 0.585706 -0.469962
0.240603 0.587676 -0.471181
0.244880 0.586204 -0.470843
0.249467 0.587174 -0.471613
0.253922 0.587050 -0.471889
0.258240 0.585918 -0.471708
0.262494 0.584379 -0.471342
0.266906 0.583938 -0.471476
0.272124 0.588623 -0.473946
0.276662 0.588767 -0.474351
0.280982 0.587552 -0.474138
0.285321 0.586479 -0.473989
0.289698 0.585641 -0.473949
0.294227 0.585638 -0.474291
0.298778 0.585711 -0.474670
0.303560 0.586932 -0.475576
0.308037 0.586515 -0.475734
0.312988 0.588397 -0.476947
0.317479 0.587950 -0.477095
0.322089 0.588043 -0.477491
0.326410 0.586775 -0.477263
0.331482 0.588859 -0.478579
0.336089 0.588794 -0.478908
0.340479 0.587773 -0.478798
0.344598 0.585638 -0.478174
0.349412 0.586373 -0.478877
0.353523 0.584252 -0.478261
0.359001 0.587483 -0.480123
0.363649 0.587392 -0.480451
0.368163 0.586769 -0.480533
0.372559 0.585699 -0.480409
0.377726 0.587392 -0.481571
0.383107 0.589734 -0.483039
0.387637 0.589020 -0.483088
0.392576 0.589673 -0.483776
0.396557 0.587090 -0.482956
0.400992 0.586036 -0.482851
0.405846 0.586324 -0.483375
0.411089 0.587783 -0.484450
0.416317 0.589108 -0.485467
0.420823 0.588154 -0.485418
0.425329 0.587193 -0.485368
0.430199 0.587293 -0.485819
0.435320 0.588073 -0.486593
0.440532 0.589046 -0.487462
0.444992 0.587844 -0.487310
0.449729 0.587398 -0.487516
0.454731 0.587644 -0.488052
0.460388 0.589587 -0.489395
0.465249 0.589333 -0.489704
0.469792 0.588223 -0.489610
0.474735 0.588117 -0.489996
0.480403 0.589795 -0.491232
0.485482 0.589919 -0.491735
0.490272 0.589284 -0.491882
0.494974 0.588410 -0.491919
0.500062 0.588430 -0.492386
0.505243 0.588617 -0.492937
0.510096 0.587990 -0.493104
0.515840 0.589363 -0.494233
0.520252 0.587654 -0.493891
0.525456 0.587692 -0.494391
0.531072 0.588581 -0.495305
0.536056 0.588027 -0.495532
0.541291 0.587969 -0.496002
0.546501 0.587804 -0.496427
0.552759 0.589765 -0.497883
0.557666 0.588847 -0.497957
0.564608 0.592017 -0.500014
0.568798 0.589545 -0.499349
0.573695 0.588470 -0.499364
0.578954 0.588067 -0.499712
0.585185 0.589485 -0.500951
0.590303 0.588687 -0.501120
0.596067 0.589061 -0.501867
0.601128 0.588054 -0.501948
0.606836 0.588193 -0.502595
0.612609 0.588381 -0.503274
0.618825 0.589292 -0.504316
0.624229 0.588674 -0.504617
0.629769 0.588241 -0.505016
0.635517 0.588107 -0.505569
0.641608 0.588493 -0.506388
0.647204 0.587962 -0.506762
0.653911 0.589230 -0.508034
0.659341 0.588286 -0.508220
0.665246 0.588068 -0.508775
0.671090 0.587685 -0.509255
0.678391 0.589560 -0.510868
0.683574 0.587982 -0.510770
0.689420 0.587400 -0.511176
0.695495 0.587113 -0.511737
0.701889 0.587248 -0.512516
0.707443 0.586042 -0.512632
0.714783 0.587459 -0.514071
0.722073 0.588703 -0.515432
0.728377 0.588417 -0.516031
0.733986 0.587070 -0.516100
0.742169 0.589366 -0.518016
0.747736 0.587860 -0.518013
0.753332 0.586374 -0.518022
0.760279 0.586734 -0.518972
0.768174 0.588336 -0.520557
0.774082 0.587176 -0.520736
0.780687 0.586936 -0.521385
0.791799 0.592639 -0.525076
0.797245 0.590773 -0.524891
0.803688 0.590222 -0.525375
0.810212 0.589774 -0.525905
0.817397 0.590173 -0.526864
0.826221 0.592628 -0.528878
0.828477 0.586868 -0.526634
0.838039 0.590250 -0.529107
0.843219 0.588243 -0.528774
0.852247 0.590966 -0.530881
0.861591 0.594063 -0.533170
0.866126 0.591444 -0.532464
0.869584 0.587666 -0.531127
0.872391 0.583264 -0.529438
0.875835 0.579749 -0.528183
-0.230104 0.577882 -0.446861
-0.227978 0.582821 -0.449274
-0.223649 0.582790 -0.449541
-0.219140 0.582481 -0.449677
-0.214463 0.581900 -0.449684
-0.209953 0.581858 -0.449912
-0.205896 0.583078 -0.450673
-0.201704 0.584113 -0.451346
-0.196546 0.582803 -0.450997
-0.192622 0.584781 -0.452059
-0.187782 0.584484 -0.452129
-0.183361 0.585383 -0.452710
-0.178561 0.585351 -0.452880
-0.173749 0.585342 -0.453055
-0.168464 0.584051 -0.452668
-0.163785 0.584492 -0.453026
-0.159848 0.587133 -0.454334
-0.154805 0.586613 -0.454269
-0.150036 0.586911 -0.454555
-0.145036 0.586512 -0.454536
-0.140064 0.586177 -0.454543
-0.135401 0.586793 -0.454962
-0.130425 0.586400 -0.454941
-0.125868 0.587340 -0.455499
-0.120960 0.587106 -0.455548
-0.116042 0.586787 -0.455559
-0.110898 0.585624 -0.455205
-0.106374 0.586562 -0.455765
-0.101941 0.587815 -0.456465
-0.096330 0.584712 -0.455268
-0.091871 0.585757 -0.455881
-0.087083 0.585521 -0.455937
-0.083128 0.588479 -0.457389
-0.077897 0.586376 -0.456636
-0.073407 0.587150 -0.457141
-0.068610 0.586602 -0.457071
-0.064386 0.588418 -0.458037
-0.059866 0.588946 -0.458443
-0.055045 0.588069 -0.458238
-0.050014 0.586110 -0.457562
-0.045355 0.585735 -0.457582
-0.040789 0.585719 -0.457762
-0.036361 0.586313 -0.458212
-0.031634 0.585343 -0.457980
-0.027004 0.584754 -0.457918
-0.022401 0.584210 -0.457879
-0.017757 0.583333 -0.457696
-0.013418 0.584075 -0.458227
-0.009521 0.587409 -0.459902
-0.004777 0.585727 -0.459374
-0.000039 0.583907 -0.458788
0.004110 0.585722 -0.459805
0.008226 0.587822 -0.460952
0.012803 0.586801 -0.460727
0.017502 0.584764 -0.460055
0.021939 0.584472 -0.460156
0.026369 0.584151 -0.460247
0.030773 0.583957 -0.460397
0.034985 0.585321 -0.461238
0.039280 0.586015 -0.461787
0.043748 0.585118 -0.461634
0.048272 0.583545 -0.461184
0.052416 0.585642 -0.462363
0.056664 0.586800 -0.463129
0.061080 0.586129 -0.463086
0.065521 0.585040 -0.462860
0.069948 0.583954 -0.462637
0.074295 0.583772 -0.462817
0.078626 0.583781 -0.463086
0.082918 0.584368 -0.463614
0.087281 0.583823 -0.463640
0.091587 0.584210 -0.464084
0.095875 0.585073 -0.464743
0.100221 0.584736 -0.464869
0.104532 0.585257 -0.465380
0.108836 0.586169 -0.466069
0.113173 0.586250 -0.466388
0.117526 0.585622 -0.466391
0.121889 0.584183 -0.466033
0.126219 0.584384 -0.466411
0.130546 0.585398 -0.467157
0.134892 0.583587 -0.466636
0.139238 0.587299 -0.468600
0.143582 0.585774 -0.468211
0.147959 0.587752 -0.469400
0.152343 0.588843 -0.470194
0.156639 0.585502 -0.468989
0.160962 0.584221 -0.468714
0.165318 0.584182 -0.469001
0.169771 0.586599 -0.470401
0.174042 0.584185 -0.469617
0.178395 0.583854 -0.469777
0.182831 0.585063 -0.470637
0.187234 0.585410 -0.471108
0.191681 0.586330 -0.471841
0.196088 0.586461 -0.472218
0.200495 0.586497 -0.472552
0.204937 0.586916 -0.473063
0.209385 0.587283 -0.473552
0.213741 0.586520 -0.473528
0.218128 0.586099 -0.473660
0.222568 0.586204 -0.474033
0.226990 0.586069 -0.474299
0.231439 0.586140 -0.474660
0.235855 0.585854 -0.474859
0.240204 0.584990 -0.474795
0.244870 0.586670 -0.475898
0.249307 0.586416 -0.476116
0.253830 0.586767 -0.476613
0.258253 0.586328 -0.476748
0.262521 0.584821 -0.476394
0.267036 0.584996 -0.476814
0.271882 0.587226 -0.478183
0.276525 0.588011 -0.478889
0.280914 0.587192 -0.478855
0.285131 0.585376 -0.478362
0.289623 0.585174 -0.478616
0.294240 0.585624 -0.479172
0.298664 0.584982 -0.479225
0.303715 0.587570 -0.480777
0.308252 0.587397 -0.481050
0.312928 0.587870 -0.481625
0.317541 0.587981 -0.482034
0.322048 0.587554 -0.482195
0.326776 0.588110 -0.482814
0.331162 0.587085 -0.482698
0.336005 0.588044 -0.483510
0.340398 0.587023 -0.483399
0.345178 0.587602 -0.484037
0.349767 0.587349 -0.484288
0.354285 0.586787 -0.484396
0.359058 0.587200 -0.484963
0.363683 0.586992 -0.485241
0.368183 0.586292 -0.485289
0.373451 0.588380 -0.486650
0.378474 0.589475 -0.487548
0.383095 0.589079 -0.487747
0.387839 0.589079 -0.488134
0.392509 0.588794 -0.488389
0.397239 0.588680 -0.488728
0.401510 0.587037 -0.488345
0.406207 0.586774 -0.488618
0.411687 0.588939 -0.490043
0.416479 0.588866 -0.490411
0.421207 0.588563 -0.490673
0.425932 0.588221 -0.490919
0.430466 0.587288 -0.490887
0.435334 0.587308 -0.491311
0.440428 0.587928 -0.492024
0.445850 0.589403 -0.493150
0.450194 0.587826 -0.492822
0.455346 0.588440 -0.493544
0.460551 0.589136 -0.494310
0.465520 0.589146 -0.494751
0.470665 0.589566 -0.495394
0.475572 0.589323 -0.495722
0.480539 0.589191 -0.496108
0.485384 0.588716 -0.496332
0.490478 0.588815 -0.496837
0.495415 0.588486 -0.497141
0.500426 0.588293 -0.497514
0.505680 0.588623 -0.498146
0.510973 0.588985 -0.498798
0.515978 0.588633 -0.499109
0.521982 0.590482 -0.500493
0.527789 0.591791 -0.501623
0.532119 0.589784 -0.501146
0.536989 0.588942 -0.501241
0.542329 0.589067 -0.501812
0.547704 0.589207 -0.502397
0.552817 0.588744 -0.502693
0.558392 0.589180 -0.503435
0.564150 0.589918 -0.504332
0.569575 0.589913 -0.504872
0.574149 0.588170 -0.504565
0.579654 0.588222 -0.505147
0.585423 0.588718 -0.505954
0.591002 0.588779 -0.506554
0.595796 0.587299 -0.506402
0.602101 0.588593 -0.507627
0.607563 0.588248 -0.508049
0.613090 0.587960 -0.508508
0.618529 0.587455 -0.508866
0.624965 0.588655 -0.510080
0.630538 0.588251 -0.510506
0.636380 0.588252 -0.511142
0.642097 0.587969 -0.511643
0.647967 0.587878 -0.512250
0.653939 0.587890 -0.512917
0.659961 0.587910 -0.513597
0.666764 0.589131 -0.514889
0.672128 0.587934 -0.514975
0.677747 0.587098 -0.515250
0.684616 0.588176 -0.516499
0.690397 0.587465 -0.516853
0.698307 0.589976 -0.518847
0.703462 0.588165 -0.518660
0.708735 0.586502 -0.518554
0.714606 0.585698 -0.518890
0.723001 0.588561 -0.521102
0.729349 0.588316 -0.521738
0.736495 0.589163 -0.522938
0.742801 0.588734 -0.523492
0.748752 0.587757 -0.523769
0.755138 0.587354 -0.524343
0.762641 0.588450 -0.525693
0.769542 0.588656 -0.526587
0.774535 0.586241 -0.526127
0.785635 0.591999 -0.529898
0.792163 0.591565 -0.530463
0.797806 0.589959 -0.530416
0.803600 0.588564 -0.530471
0.811840 0.590323 -0.532163
0.817213 0.588408 -0.531931
0.820653 0.584110 -0.530437
0.831394 0.588988 -0.533738
0.837105 0.587599 -0.533742
0.843069 0.586577 -0.533921
0.851380 0.588445 -0.535606
0.862042 0.593139 -0.538766
0.866858 0.590870 -0.538234
0.870338 0.587134 -0.536900
0.874132 0.583900 -0.535803
0.877352 0.580134 -0.534396
-0.235539 0.588597 -0.456303
-0.228844 0.582906 -0.454125
-0.224084 0.581832 -0.453943
-0.219399 0.581070 -0.453884
-0.215160 0.581518 -0.454341
-0.211211 0.582839 -0.455167
-0.207353 0.584552 -0.456154
-0.203122 0.585493 -0.456794
-0.198343 0.585168 -0.456870
-0.193608 0.585054 -0.457029
-0.188954 0.585245 -0.457313
-0.183741 0.584032 -0.456973
-0.178902 0.583869 -0.457085
-0.173771 0.582960 -0.456863
-0.169889 0.585579 -0.458183
-0.165358 0.586472 -0.458741
-0.159662 0.584050 -0.457839
-0.155400 0.585795 -0.458762
-0.150696 0.586286 -0.459132
-0.145564 0.585496 -0.458936
-0.140907 0.586143 -0.459369
-0.136043 0.586145 -0.459518
-0.131351 0.586680 -0.459900
-0.126735 0.587458 -0.460389
-0.121873 0.587408 -0.460513
-0.116476 0.585500 -0.459819
-0.111453 0.584770 -0.459645
-0.106842 0.585416 -0.460078
-0.102511 0.587044 -0.460946
-0.098042 0.588174 -0.461596
-0.092464 0.585127 -0.460405
-0.088195 0.586909 -0.461347
-0.083859 0.588438 -0.462181
-0.078958 0.587705 -0.462018
-0.073773 0.585708 -0.461298
-0.069281 0.586452 -0.461793
-0.064727 0.586890 -0.462156
-0.060177 0.587299 -0.462509
-0.055243 0.585928 -0.462077
-0.050444 0.585040 -0.461861
-0.045956 0.585501 -0.462247
-0.041578 0.586438 -0.462847
-0.036981 0.586268 -0.462960
-0.032233 0.585248 -0.462698
-0.027470 0.584023 -0.462347
-0.022817 0.583244 -0.462198
-0.018599 0.584760 -0.463073
-0.014326 0.585981 -0.463820
-0.009984 0.586805 -0.464394
-0.005479 0.586622 -0.464524
-0.000650 0.584334 -0.463718
0.003463 0.586459 -0.464883
0.007848 0.586845 -0.465275
0.012348 0.586398 -0.465299
0.016848 0.585851 -0.465281
0.021452 0.584434 -0.464878
0.025892 0.584112 -0.464966
0.030233 0.584507 -0.465378
0.034504 0.585463 -0.466044
0.038865 0.585661 -0.466374
0.043446 0.583811 -0.465789
0.047762 0.584278 -0.466245
0.051971 0.585829 -0.467191
0.056308 0.586139 -0.467583
0.060786 0.584840 -0.467255
0.065183 0.584314 -0.467276
0.069588 0.583586 -0.467209
0.073986 0.582807 -0.467120
0.078280 0.583403 -0.467654
0.082626 0.583250 -0.467853
0.086947 0.583472 -0.468223
0.091278 0.583533 -0.468523
0.095498 0.585892 -0.469865
0.099884 0.584930 -0.469707
0.104228 0.584838 -0.469946
0.108537 0.585753 -0.470643
0.112870 0.586210 -0.471135
0.117219 0.586159 -0.471399
0.121613 0.583548 -0.470502
0.125932 0.584987 -0.471447
0.130279 0.584878 -0.471690
0.134624 0.585773 -0.472392
0.138981 0.586603 -0.473067
0.143351 0.587772 -0.473900
0.147722 0.587934 -0.474275
0.152084 0.587304 -0.474291
0.156458 0.587340 -0.474613
0.160772 0.585085 -0.473889
0.165209 0.587136 -0.475136
0.169648 0.588624 -0.476128
0.173819 0.583444 -0.474067
0.178237 0.584380 -0.474809
0.182548 0.583056 -0.474516
0.186977 0.583904 -0.475222
0.191430 0.584915 -0.476004
0.195894 0.585865 -0.476761
0.200307 0.585918 -0.477108
0.204754 0.586345 -0.477628
0.209206 0.586698 -0.478116
0.213638 0.586730 -0.478458
0.218202 0.588101 -0.479419
0.222322 0.584814 -0.478230
0.226883 0.585995 -0.479107
0.231318 0.585872 -0.479382
0.235742 0.585604 -0.479592
0.240195 0.585553 -0.479904
0.244633 0.585335 -0.480140
0.249163 0.585782 -0.480686
0.253670 0.585985 -0.481120
0.258197 0.586257 -0.481588
0.262731 0.586513 -0.482050
0.267207 0.586326 -0.482308
0.271771 0.586666 -0.482812
0.276316 0.586816 -0.483230
0.280751 0.586261 -0.483320
0.285246 0.586039 -0.483567
0.289901 0.586687 -0.484222
0.294254 0.585611 -0.484072
0.299009 0.586683 -0.484929
0.303499 0.586288 -0.485101
0.308915 0.590521 -0.487449
0.313013 0.588047 -0.486647
0.317415 0.587108 -0.486568
0.322008 0.587066 -0.486912
0.326585 0.586911 -0.487204
0.331281 0.587252 -0.487733
0.335363 0.584880 -0.486981
0.340664 0.587731 -0.488700
0.345389 0.588038 -0.489218
0.349993 0.587801 -0.489482
0.354541 0.587311 -0.489626
0.359298 0.587619 -0.490152
0.363725 0.586617 -0.490057
0.368561 0.587143 -0.490691
0.373735 0.588839 -0.491884
0.378368 0.588498 -0.492111
0.382982 0.588064 -0.492295
0.387968 0.588885 -0.493080
0.392760 0.588983 -0.493523
0.397293 0.588182 -0.493539
0.401879 0.587542 -0.493634
0.406364 0.586562 -0.493568
0.411730 0.588341 -0.494827
0.416734 0.588903 -0.495507
0.421446 0.588522 -0.495737
0.426074 0.587863 -0.495836
0.430972 0.587972 -0.496308
0.435705 0.587565 -0.496534
0.440441 0.587135 -0.496752
0.446056 0.589131 -0.498145
0.451032 0.589266 -0.498644
0.455797 0.588783 -0.498848
0.460659 0.588531 -0.499166
0.466001 0.589498 -0.500081
0.470620 0.588526 -0.500058
0.475987 0.589440 -0.500956
0.480801 0.588894 -0.501148
0.485784 0.588737 -0.501534
0.491172 0.589524 -0.502384
0.495956 0.588786 -0.502496
0.501402 0.589591 -0.503366
0.506549 0.589628 -0.503866
0.511142 0.588334 -0.503719
0.516768 0.589372 -0.504720
0.522431 0.590415 -0.505731
0.528037 0.591251 -0.506646
0.532996 0.590598 -0.506835
0.537699 0.589358 -0.506740
0.542577 0.588466 -0.506821
0.547884 0.588443 -0.507337
0.553334 0.588658 -0.507977
0.558599 0.588434 -0.508407
0.564063 0.588556 -0.509015
0.569326 0.588216 -0.509400
0.575026 0.588685 -0.510194
0.580555 0.588749 -0.510795
0.587009 0.590525 -0.512257
0.591915 0.589256 -0.512208
0.597827 0.589841 -0.513093
0.603283 0.589502 -0.513524
0.608281 0.588267 -0.513513
0.613646 0.587657 -0.513822
0.620625 0.589878 -0.515563
0.626094 0.589311 -0.515911
0.631633 0.588811 -0.516302
0.637762 0.589272 -0.517185
0.643055 0.588224 -0.517315
0.648226 0.586925 -0.517326
0.654046 0.586665 -0.517870
0.660425 0.587259 -0.518857
0.668218 0.590067 -0.520981
0.673230 0.588266 -0.520769
0.679018 0.587667 -0.521177
0.685705 0.588423 -0.522286
0.692036 0.588537 -0.523076
0.699260 0.589949 -0.524542
0.704618 0.588422 -0.524507
0.709067 0.585496 -0.523757
0.715719 0.585839 -0.524696
0.725052 0.590048 -0.527642
0.730790 0.588876 -0.527816
0.737999 0.589782 -0.529071
0.743049 0.587537 -0.528698
0.748926 0.586449 -0.528927
0.758101 0.589920 -0.531535
0.763957 0.588699 -0.531702
0.770268 0.588080 -0.532184
0.777519 0.588701 -0.533315
0.785541 0.590303 -0.534962
0.792027 0.589818 -0.535513
0.798316 0.589063 -0.535917
0.806792 0.591135 -0.537806
0.812121 0.589132 -0.537538
0.815991 0.585321 -0.536301
0.821309 0.583411 -0.536055
0.831534 0.587643 -0.539058
0.836392 0.585219 -0.538511
0.844743 0.587127 -0.540254
0.849800 0.585065 -0.539863
0.854536 0.582707 -0.539291
0.867108 0.589721 -0.543713
0.871432 0.586998 -0.542901
0.875840 0.584491 -0.542178
0.879989 0.581806 -0.541330
-0.229776 0.573349 -0.454441
-0.229469 0.582425 -0.458744
-0.224698 0.581300 -0.458539
-0.220203 0.580966 -0.458669
-0.216380 0.582406 -0.459571
-0.212579 0.584077 -0.460563
-0.208373 0.584920 -0.461179
-0.203476 0.584166 -0.461076
-0.198992 0.584567 -0.461474
-0.194376 0.584744 -0.461763
-0.189544 0.584457 -0.461836
-0.184930 0.584830 -0.462193
-0.180275 0.585179 -0.462532
-0.175460 0.585163 -0.462702
-0.171122 0.586537 -0.463482
-0.166301 0.586625 -0.463686
-0.160858 0.584953 -0.463102
-0.156007 0.584991 -0.463274
-0.151340 0.585594 -0.463693
-0.146673 0.586221 -0.464121
-0.141828 0.586317 -0.464310
-0.137021 0.586524 -0.464547
-0.132265 0.586884 -0.464850
-0.127125 0.585982 -0.464591
-0.122588 0.587013 -0.465193
-0.118121 0.588286 -0.465904
-0.113704 0.589738 -0.466696
-0.107502 0.584912 -0.464686
-0.103541 0.587889 -0.466162
-0.098322 0.586322 -0.465610
-0.093536 0.586254 -0.465729
-0.088892 0.586661 -0.466063
-0.084277 0.587134 -0.466428
-0.079619 0.587388 -0.466699
-0.074549 0.585908 -0.466197
-0.069688 0.585160 -0.466024
-0.065105 0.585493 -0.466339
-0.060398 0.585228 -0.466388
-0.055750 0.585142 -0.466522
-0.051202 0.585438 -0.466829
-0.046798 0.586351 -0.467418
-0.042199 0.586304 -0.467578
-0.037440 0.585384 -0.467350
-0.032776 0.584824 -0.467287
-0.028250 0.584883 -0.467505
-0.023702 0.584754 -0.467642
-0.019198 0.584793 -0.467859
-0.014950 0.586215 -0.468702
-0.010463 0.586257 -0.468926
-0.005976 0.586227 -0.469122
-0.001294 0.584919 -0.468744
0.003205 0.584635 -0.468832
0.007450 0.585959 -0.469649
0.011859 0.586179 -0.469970
0.016464 0.584952 -0.469641
0.021002 0.584069 -0.469470
0.025444 0.583797 -0.469579
0.029758 0.584469 -0.470118
0.033947 0.586193 -0.471138
0.038099 0.588347 -0.472356
0.042784 0.585753 -0.471424
0.047206 0.585389 -0.471506
0.051611 0.585109 -0.471629
0.056024 0.584658 -0.471677
0.060449 0.583990 -0.471629
0.064775 0.584373 -0.472061
0.069054 0.585368 -0.472776
0.073407 0.585450 -0.473078
0.077867 0.583950 -0.472659
0.082245 0.583479 -0.472714
0.086597 0.583333 -0.472918
0.090825 0.585470 -0.474169
0.095138 0.586282 -0.474818
0.099563 0.584670 -0.474360
0.103916 0.584533 -0.474578
0.108245 0.585067 -0.475107
0.112566 0.586064 -0.475851
0.116911 0.586563 -0.476369
0.121277 0.586132 -0.476462
0.125653 0.584771 -0.476130
0.130004 0.585051 -0.476554
0.134361 0.584840 -0.476754
0.138720 0.585296 -0.477264
0.143095 0.587059 -0.478378
0.147471 0.587234 -0.478763
0.151836 0.586469 -0.478716
0.156197 0.585799 -0.478714
0.160624 0.587576 -0.479846
0.164937 0.585250 -0.479081
0.169279 0.584218 -0.478915
0.173605 0.582954 -0.478643
0.178189 0.587233 -0.480945
0.182447 0.584499 -0.479994
0.186796 0.583712 -0.479948
0.191322 0.585762 -0.481223
0.195656 0.584646 -0.481027
0.200009 0.583877 -0.480993
0.204511 0.585029 -0.481857
0.209110 0.587124 -0.483163
0.213621 0.587930 -0.483871
0.218126 0.588523 -0.484481
0.222485 0.587533 -0.484351
0.226766 0.585844 -0.483896
0.231204 0.585681 -0.484156
0.235683 0.585830 -0.484564
0.240294 0.587024 -0.485464
0.244934 0.588284 -0.486398
0.249179 0.586380 -0.485846
0.253664 0.586336 -0.486170
0.258173 0.586417 -0.486554
0.262617 0.585999 -0.486704
0.267369 0.587597 -0.487807
0.271804 0.587018 -0.487885
0.276211 0.586264 -0.487881
0.280957 0.587533 -0.488835
0.285555 0.587826 -0.489330
0.289990 0.587143 -0.489364
0.294439 0.586528 -0.489431
0.298973 0.586358 -0.489710
0.303899 0.588180 -0.490938
0.308711 0.589292 -0.491832
0.313086 0.588164 -0.491661
0.317377 0.586657 -0.491311
0.321933 0.586412 -0.491563
0.326756 0.587350 -0.492382
0.331697 0.588730 -0.493414
0.335773 0.586263 -0.492610
0.341064 0.589004 -0.494298
0.345527 0.588160 -0.494274
0.349938 0.587108 -0.494151
0.354815 0.587901 -0.494914
0.359385 0.587435 -0.495076
0.363941 0.586897 -0.495205
0.368846 0.587637 -0.495951
0.373709 0.588158 -0.496594
0.378319 0.587715 -0.496775
0.382922 0.587226 -0.496936
0.387957 0.588202 -0.497807
0.392651 0.587949 -0.498088
0.397281 0.587456 -0.498254
0.401868 0.586804 -0.498346
0.406768 0.587131 -0.498915
0.411886 0.588094 -0.499796
0.416913 0.588699 -0.500507
0.421980 0.589365 -0.501252
0.426458 0.588215 -0.501116
0.431405 0.588433 -0.501649
0.435969 0.587501 -0.501624
0.441283 0.588683 -0.502635
0.446397 0.589224 -0.503338
0.451312 0.589160 -0.503748
0.456441 0.589634 -0.504426
0.461611 0.590160 -0.505134
0.465829 0.588126 -0.504589
0.471393 0.589587 -0.505765
0.476325 0.589348 -0.506110
0.481032 0.588508 -0.506163
0.486571 0.589700 -0.507223
0.492107 0.590804 -0.508245
0.496913 0.590075 -0.508367
0.502064 0.590133 -0.508883
0.506689 0.588912 -0.508770
0.511986 0.589223 -0.509421
0.517252 0.589402 -0.510013
0.522675 0.589875 -0.510757
0.528135 0.590367 -0.511516
0.533382 0.590326 -0.512017
0.538121 0.589139 -0.511951
0.542975 0.588170 -0.512000
0.548944 0.589508 -0.513208
0.554391 0.589676 -0.513839
0.560032 0.590177 -0.514643
0.564753 0.588749 -0.514487
0.570204 0.588753 -0.515056
0.575478 0.588346 -0.515425
0.582026 0.590364 -0.517025
0.587183 0.589601 -0.517230
0.592316 0.588745 -0.517395
0.598307 0.589454 -0.518360
0.604110 0.589732 -0.519115
0.609872 0.589860 -0.519803
0.615780 0.590183 -0.520599
0.621027 0.589252 -0.520765
0.626800 0.589200 -0.521388
0.633652 0.590960 -0.522945
0.638444 0.589061 -0.522641
0.643553 0.587676 -0.522608
0.649296 0.587318 -0.523108
0.654957 0.586759 -0.523514
0.661860 0.588183 -0.524949
0.667362 0.587225 -0.525168
0.673607 0.587410 -0.525984
0.679526 0.587001 -0.526503
0.686002 0.587403 -0.527451
0.692688 0.588052 -0.528537
0.699483 0.588780 -0.529673
0.705035 0.587537 -0.529793
0.711994 0.588363 -0.530998
0.718475 0.588393 -0.531798
0.724700 0.587983 -0.532373
0.732887 0.590364 -0.534419
0.738302 0.588652 -0.534326
0.743722 0.586926 -0.534227
0.753101 0.590741 -0.537051
0.758263 0.588565 -0.536722
0.764966 0.588506 -0.537512
0.771458 0.588118 -0.538129
0.778159 0.587980 -0.538879
0.785554 0.588737 -0.540103
0.792532 0.588903 -0.541012
0.800177 0.589914 -0.542368
0.806832 0.589614 -0.543019
0.812040 0.587467 -0.542673
0.816668 0.584633 -0.541945
0.828200 0.590502 -0.545879
0.831736 0.586367 -0.544424
0.839317 0.587301 -0.545681
0.846568 0.587848 -0.546714
0.849928 0.583744 -0.545213
0.855049 0.581865 -0.544890
0.861260 0.581365 -0.545291
0.872535 0.586868 -0.548929
0.877067 0.584519 -0.548278
0.882504 0.583329 -0.548229
-0.236521 0.587052 -0.465340
-0.229867 0.581415 -0.463135
-0.225392 0.580957 -0.463228
-0.221133 0.581163 -0.463603
-0.217203 0.582319 -0.464391
-0.213423 0.584018 -0.465410
-0.208838 0.583899 -0.465603
-0.203995 0.583253 -0.465547
-0.199203 0.582841 -0.465585
-0.195120 0.584363 -0.466479
-0.190891 0.585643 -0.467257
-0.185809 0.584778 -0.467061
-0.181154 0.585125 -0.467400
-0.176710 0.586127 -0.468028
-0.171766 0.585821 -0.468060
-0.167100 0.586344 -0.468458
-0.162245 0.586375 -0.468630
-0.157215 0.585922 -0.468579
-0.152597 0.586698 -0.469077
-0.147921 0.587334 -0.469510
-0.142965 0.587126 -0.469560
-0.137943 0.586694 -0.469507
-0.133016 0.586535 -0.469575
-0.128118 0.586440 -0.469671
-0.123215 0.586294 -0.469744
-0.118953 0.588273 -0.470777
-0.114358 0.589138 -0.471309
-0.109137 0.587797 -0.470843
-0.104055 0.586848 -0.470556
-0.099291 0.586965 -0.470753
-0.094342 0.586341 -0.470617
-0.089427 0.585755 -0.470500
-0.084637 0.585573 -0.470568
-0.080173 0.586608 -0.471190
-0.075093 0.585120 -0.470671
-0.070354 0.584910 -0.470735
-0.066077 0.586587 -0.471658
-0.061215 0.585725 -0.471432
-0.056392 0.584925 -0.471237
-0.051845 0.585267 -0.471565
-0.047329 0.585705 -0.471939
-0.042697 0.585534 -0.472041
-0.037967 0.584796 -0.471887
-0.033363 0.584584 -0.471976
-0.028873 0.584883 -0.472302
-0.024535 0.585936 -0.472975
-0.020088 0.586379 -0.473374
-0.015479 0.585862 -0.473339
-0.011026 0.586154 -0.473676
-0.006358 0.585101 -0.473403
-0.001938 0.585457 -0.473776
0.002607 0.584958 -0.473763
0.007009 0.585317 -0.474145
0.010968 0.588680 -0.475905
0.016378 0.581886 -0.473020
0.020661 0.582853 -0.473690
0.024981 0.583550 -0.474240
0.029411 0.583361 -0.474387
0.033281 0.587781 -0.476653
0.037644 0.588235 -0.477104
0.042222 0.586719 -0.476652
0.046748 0.585498 -0.476338
0.051140 0.585451 -0.476567
0.055646 0.584146 -0.476220
0.059966 0.584725 -0.476743
0.064390 0.584094 -0.476711
0.068706 0.584714 -0.477259
0.072990 0.585812 -0.478030
0.077301 0.586642 -0.478681
0.081857 0.583739 -0.477611
0.086217 0.583650 -0.477842
0.090471 0.585478 -0.478963
0.094811 0.585907 -0.479440
0.099151 0.586403 -0.479951
0.103495 0.586958 -0.480493
0.107938 0.584702 -0.479732
0.112256 0.586049 -0.480645
0.116625 0.585853 -0.480846
0.120999 0.585291 -0.480877
0.125334 0.587385 -0.482147
0.129733 0.584408 -0.481058
0.134093 0.584811 -0.481546
0.138463 0.586722 -0.482739
0.142843 0.587143 -0.483240
0.147216 0.586294 -0.483150
0.151583 0.585506 -0.483090
0.155997 0.587014 -0.484106
0.160377 0.586601 -0.484225
0.164730 0.585405 -0.483979
0.169046 0.583414 -0.483361
0.173447 0.583809 -0.483863
0.177953 0.586232 -0.485321
0.182370 0.586429 -0.485735
0.186820 0.587066 -0.486359
0.191197 0.586382 -0.486363
0.195352 0.582488 -0.484854
0.199793 0.582944 -0.485397
0.204404 0.585441 -0.486906
0.208945 0.586745 -0.487854
0.213400 0.586859 -0.488242
0.217926 0.587646 -0.488950
0.222329 0.587068 -0.489014
0.226676 0.585952 -0.488825
0.231061 0.585232 -0.488823
0.235641 0.586212 -0.489631
0.240286 0.587603 -0.490636
0.244801 0.587792 -0.491072
0.249267 0.587534 -0.491297
0.253664 0.586736 -0.491265
0.258152 0.586599 -0.491551
0.262757 0.587225 -0.492202
0.267199 0.586680 -0.492295
0.271669 0.586309 -0.492473
0.276276 0.586759 -0.493045
0.281047 0.588112 -0.494052
0.285485 0.587416 -0.494079
0.289911 0.586645 -0.494071
