ply
format ascii 1.0
comment ---
element vertex 1771
property float x
property float y
property float z
element face 0
property list uchar uint vertex_indices
end_header
1.260423 0.591560 0.130923
1.267985 0.593179 0.131141
1.273405 0.592103 0.131166
1.278966 0.591198 0.131199
1.285730 0.591742 0.131327
1.293475 0.593438 0.131529
1.298844 0.592282 0.131523
1.303463 0.590269 0.131448
1.311567 0.592351 0.131651
1.320243 0.595069 0.131888
1.326724 0.595252 0.131934
1.331539 0.593572 0.131835
1.336509 0.592131 0.131739
1.342418 0.591799 0.131705
1.349149 0.592426 0.131724
1.355113 0.592254 0.131669
1.360203 0.591196 0.131534
1.365310 0.590235 0.131388
0.385793 0.580154 0.149408
0.387397 0.586374 0.149887
0.391662 0.583570 0.149502
0.394859 0.584703 0.149471
0.395190 0.596515 0.150421
0.399294 0.594897 0.150099
0.402818 0.595587 0.149977
0.405969 0.597898 0.149991
0.409938 0.597248 0.149717
0.414473 0.594460 0.149234
0.417022 0.599770 0.149485
0.419623 0.605200 0.149732
0.423168 0.606971 0.149633
0.428221 0.602405 0.148947
0.433500 0.596731 0.148156
0.438432 0.592448 0.147487
0.441852 0.595010 0.147431
0.446074 0.593951 0.147044
0.450027 0.594187 0.146769
0.453939 0.594665 0.146511
0.455415 0.607543 0.147348
0.459148 0.609346 0.147197
0.464936 0.600259 0.146090
0.467496 0.608382 0.146491
0.473350 0.598357 0.145309
0.477318 0.598666 0.145030
0.480915 0.601180 0.144941
0.485577 0.597242 0.144299
0.489640 0.596809 0.143961
0.493644 0.596681 0.143652
0.497812 0.595368 0.143245
0.501373 0.598154 0.143187
0.506194 0.591926 0.142374
0.510216 0.591168 0.142025
0.514095 0.591395 0.141763
0.517897 0.592173 0.141550
0.521585 0.593896 0.141418
0.525739 0.591569 0.140956
0.529320 0.594210 0.140906
0.533260 0.593557 0.140589
0.537210 0.592630 0.140255
0.541091 0.592250 0.139969
0.544888 0.592655 0.139751
0.548701 0.592819 0.139517
0.552393 0.594395 0.139400
0.556163 0.595037 0.139211
0.560083 0.593529 0.138856
0.563874 0.593660 0.138634
0.567709 0.592957 0.138351
0.571463 0.593457 0.138166
0.575203 0.594194 0.138004
0.578972 0.594359 0.137799
0.582791 0.593231 0.137498
0.586557 0.593109 0.137279
0.590289 0.593812 0.137127
0.594021 0.594616 0.136986
0.597773 0.594711 0.136793
0.601525 0.594667 0.136593
0.605283 0.594050 0.136352
0.609029 0.593755 0.136139
0.612761 0.594817 0.136033
0.616505 0.593539 0.135751
0.620246 0.595523 0.135719
0.623979 0.594452 0.135460
0.627705 0.593661 0.135224
0.631442 0.593931 0.135071
0.635183 0.594289 0.134927
0.638885 0.593083 0.134668
0.642655 0.594388 0.134599
0.646420 0.595200 0.134496
0.650190 0.595899 0.134385
0.653955 0.596338 0.134258
0.657681 0.595873 0.134067
0.661473 0.596667 0.133969
0.665134 0.595092 0.133701
0.668927 0.595772 0.133599
0.672738 0.596580 0.133509
0.676323 0.594143 0.133184
0.680174 0.595403 0.133130
0.684089 0.597247 0.133119
0.687806 0.596572 0.132928
0.691534 0.596047 0.132749
0.695274 0.595650 0.132581
0.699031 0.595413 0.132427
0.702797 0.595242 0.132279
0.706465 0.594159 0.132067
0.710257 0.594198 0.131936
0.714004 0.593807 0.131777
0.717699 0.592997 0.131589
0.721679 0.594407 0.131559
0.725506 0.594530 0.131440
0.729281 0.594229 0.131291
0.733106 0.594257 0.131167
0.737013 0.594794 0.131080
0.740565 0.592931 0.130826
0.744332 0.592505 0.130674
0.748245 0.592963 0.130584
0.752264 0.593991 0.130534
0.756164 0.594228 0.130431
0.760321 0.595872 0.130425
0.763758 0.593412 0.130137
0.767603 0.593237 0.130008
0.771451 0.593045 0.129878
0.775788 0.595323 0.129918
0.779647 0.595073 0.129786
0.783520 0.594862 0.129657
0.787295 0.594155 0.129495
0.791294 0.594487 0.129405
0.795347 0.595010 0.129328
0.799428 0.595603 0.129256
0.803591 0.596488 0.129205
0.807770 0.597367 0.129154
0.811453 0.596101 0.128959
0.815160 0.594952 0.128773
0.818639 0.592895 0.128528
0.822694 0.593150 0.128438
0.826497 0.592386 0.128281
0.830638 0.592898 0.128209
0.834677 0.592977 0.128110
0.838677 0.592875 0.127999
0.843015 0.593954 0.127967
0.847207 0.594445 0.127896
0.851336 0.594669 0.127809
0.855086 0.593561 0.127634
0.859148 0.593502 0.127530
0.863143 0.593188 0.127410
0.867011 0.592440 0.127263
0.870368 0.590055 0.127010
0.875222 0.592403 0.127065
0.879268 0.592151 0.126953
0.883092 0.591197 0.126796
0.887530 0.592075 0.126759
0.891555 0.591680 0.126641
0.895470 0.590940 0.126501
0.900486 0.593331 0.126564
0.904803 0.593654 0.126495
0.908498 0.592208 0.126313
0.912199 0.590784 0.126135
0.916645 0.591372 0.126086
0.920780 0.591085 0.125983
0.925188 0.591485 0.125925
0.929288 0.591042 0.125815
0.933380 0.590557 0.125703
0.937654 0.590506 0.125621
0.941544 0.589466 0.125477
0.946947 0.592123 0.125569
0.951499 0.592618 0.125526
0.955444 0.591613 0.125390
0.960106 0.592286 0.125361
0.964665 0.592665 0.125315
0.968644 0.591665 0.125185
0.972440 0.590234 0.125030
0.976133 0.588571 0.124862
0.980368 0.588106 0.124772
0.984898 0.588258 0.124723
0.989364 0.588226 0.124664
0.994530 0.589650 0.124698
0.998845 0.589203 0.124617
1.001940 0.586182 0.124380
1.007790 0.588864 0.124499
1.012469 0.589054 0.124466
1.017716 0.590341 0.124503
1.022201 0.590038 0.124445
1.025875 0.588102 0.124288
1.030914 0.588816 0.124298
1.035477 0.588553 0.124251
1.041811 0.591614 0.124412
1.046110 0.590735 0.124332
1.050025 0.589112 0.124211
1.055407 0.590172 0.124257
1.060701 0.590998 0.124293
1.065724 0.591269 0.124298
1.070160 0.590436 0.124238
1.074656 0.589675 0.124186
1.079611 0.589674 0.124185
1.084754 0.589944 0.124204
1.089777 0.589949 0.124211
1.094609 0.589574 0.124198
1.098272 0.587201 0.124066
1.103543 0.587474 0.124101
1.109846 0.589368 0.124240
1.113923 0.587567 0.124155
1.119696 0.588457 0.124240
1.125506 0.589324 0.124328
1.130132 0.588259 0.124301
1.135280 0.587963 0.124325
1.140051 0.587032 0.124314
1.146751 0.588987 0.124486
1.151591 0.588045 0.124483
1.158143 0.589602 0.124639
1.164174 0.590300 0.124746
1.169363 0.589691 0.124776
1.174728 0.589284 0.124822
1.180123 0.588865 0.124871
1.186546 0.589843 0.125011
1.192018 0.589409 0.125066
1.197335 0.588707 0.125107
1.203698 0.589392 0.125238
1.210006 0.589929 0.125362
1.217168 0.591544 0.125557
1.223227 0.591603 0.125655
1.230008 0.592558 0.125812
1.235703 0.592024 0.125875
1.241949 0.592163 0.125981
1.247950 0.591939 0.126064
1.253902 0.591616 0.126139
1.259766 0.591148 0.126203
1.266436 0.591656 0.126327
1.273034 0.592037 0.126439
1.279436 0.592147 0.126529
1.286357 0.592861 0.126653
1.292917 0.593117 0.126742
1.298128 0.591763 0.126718
1.304422 0.591704 0.126771
1.312158 0.593329 0.126922
1.318660 0.593514 0.126970
1.324284 0.592712 0.126942
1.330615 0.592749 0.126956
1.336083 0.591851 0.126896
1.342813 0.592411 0.126916
1.349531 0.592992 0.126922
1.355909 0.593243 0.126890
1.361819 0.593039 0.126812
1.364924 0.589881 0.126527
0.379573 0.600528 0.147593
0.386503 0.588569 0.146409
0.390083 0.588269 0.146253
0.391376 0.596353 0.146827
0.393941 0.600247 0.147010
0.397476 0.600854 0.146886
0.401536 0.599674 0.146589
0.405642 0.598433 0.146274
0.409704 0.597476 0.145971
0.413909 0.596054 0.145616
0.417605 0.596777 0.145438
0.420359 0.601548 0.145601
0.424265 0.601754 0.145356
0.427988 0.602857 0.145180
0.434356 0.592431 0.144005
0.438168 0.593131 0.143783
0.442174 0.593030 0.143487
0.446079 0.593447 0.143230
0.450034 0.593680 0.142954
0.454049 0.593655 0.142652
0.458089 0.593513 0.142339
0.462330 0.592321 0.141937
0.465982 0.594209 0.141790
0.469866 0.594910 0.141544
0.474229 0.592923 0.141076
0.478223 0.592934 0.140774
0.481968 0.594388 0.140591
0.485934 0.594529 0.140302
0.489966 0.594211 0.139978
0.493904 0.594424 0.139700
0.497755 0.595176 0.139467
0.501790 0.594626 0.139132
0.505892 0.593476 0.138754
0.509994 0.592164 0.138367
0.513905 0.592160 0.138087
0.517683 0.593154 0.137889
0.521838 0.590960 0.137445
0.525674 0.591292 0.137202
0.529334 0.593173 0.137083
0.533077 0.594335 0.136911
0.537031 0.593384 0.136580
0.540918 0.592959 0.136294
0.544726 0.593257 0.136067
0.548455 0.594412 0.135908
0.552349 0.593536 0.135600
0.556192 0.593133 0.135331
0.559982 0.593297 0.135109
0.563789 0.593134 0.134866
0.567546 0.593624 0.134675
0.571278 0.594532 0.134519
0.575033 0.595030 0.134335
0.578789 0.595496 0.134153
0.582576 0.595207 0.133918
0.586404 0.593652 0.133595
0.590144 0.594128 0.133423
0.593876 0.594912 0.133277
0.597614 0.595569 0.133124
0.601370 0.595422 0.132916
0.605136 0.594392 0.132648
0.608887 0.593584 0.132400
0.612630 0.592392 0.132127
0.616357 0.593997 0.132056
0.620090 0.593426 0.131833
0.623818 0.593062 0.131628
0.627530 0.591735 0.131358
0.631276 0.593161 0.131284
0.635030 0.594364 0.131196
0.638776 0.594842 0.131060
0.642491 0.594160 0.130845
0.646232 0.594341 0.130692
0.650020 0.595649 0.130620
0.653809 0.596670 0.130529
0.657538 0.596246 0.130341
0.661194 0.594524 0.130066
0.664920 0.594222 0.129890
0.668657 0.594106 0.129730
0.672376 0.593690 0.129550
0.676203 0.594778 0.129475
0.680045 0.595884 0.129402
0.683893 0.596909 0.129325
0.687537 0.595405 0.129079
0.691291 0.595231 0.128924
0.695014 0.594706 0.128748
0.698750 0.594307 0.128581
0.702379 0.592896 0.128349
0.706134 0.592696 0.128198
0.709920 0.592750 0.128066
0.713722 0.592880 0.127940
0.717541 0.593099 0.127822
0.721379 0.593414 0.127710
0.725322 0.594446 0.127647
0.729193 0.594840 0.127542
0.732932 0.594247 0.127375
0.736641 0.593447 0.127195
0.740366 0.592756 0.127023
0.744139 0.592373 0.126872
0.748009 0.592571 0.126760
0.751673 0.591480 0.126566
0.756161 0.595224 0.126683
0.759881 0.594362 0.126505
0.763876 0.595022 0.126425
0.767341 0.592755 0.126160
0.771724 0.595389 0.126207
0.775705 0.595789 0.126113
0.779586 0.595635 0.125984
0.783271 0.594490 0.125793
0.787159 0.594333 0.125666
0.790966 0.593765 0.125513
0.795100 0.594674 0.125454
0.798878 0.593923 0.125292
0.802666 0.593206 0.125132
0.807002 0.594827 0.125119
0.811252 0.595987 0.125078
0.814893 0.594562 0.124876
0.818591 0.593394 0.124691
0.822394 0.592643 0.124533
0.826216 0.591965 0.124381
0.830128 0.591615 0.124249
0.834096 0.591452 0.124130
0.837350 0.588654 0.123850
0.841083 0.587637 0.123680
0.847118 0.594737 0.124007
0.850694 0.593042 0.123796
0.854848 0.593337 0.123708
0.859040 0.593714 0.123626
0.863627 0.595345 0.123620
0.866563 0.591543 0.123286
0.870148 0.589898 0.123084
0.876140 0.595815 0.123338
0.879653 0.593864 0.123120
0.883887 0.594134 0.123035
0.890570 0.601676 0.123386
0.892589 0.595227 0.122902
0.896581 0.594661 0.122770
0.902783 0.600388 0.123013
0.905712 0.596700 0.122699
0.912552 0.603935 0.123031
0.915399 0.600010 0.122705
0.916877 0.592470 0.122168
0.920743 0.591453 0.122017
0.925021 0.591507 0.121931
0.929834 0.592910 0.121925
0.933911 0.592362 0.121805
0.939872 0.596533 0.121963
0.947894 0.605672 0.122410
0.951925 0.604759 0.122273
0.953355 0.597542 0.121772
0.969632 0.615164 0.122632
0.969883 0.605232 0.121980
0.973556 0.603373 0.121797
0.978519 0.604448 0.121786
0.981938 0.601996 0.121573
0.991729 0.613668 0.122173
0.996627 0.614317 0.122141
0.995738 0.602409 0.121393
1.003744 0.609728 0.121748
1.008205 0.609355 0.121665
1.013540 0.610769 0.121686
1.015336 0.604815 0.121290
1.019135 0.603036 0.121135
1.018321 0.591968 0.120455
1.024615 0.595250 0.120593
1.026911 0.590547 0.120280
1.034535 0.596266 0.120561
1.034129 0.586370 0.119961
1.041366 0.591178 0.120196
1.045284 0.589592 0.120072
1.050555 0.590509 0.120092
1.056396 0.592402 0.120171
1.060021 0.590176 0.120020
1.065291 0.590904 0.120039
1.069496 0.589671 0.119952
1.073889 0.588741 0.119884
1.078976 0.588988 0.119886
1.083478 0.588166 0.119832
1.088578 0.588327 0.119836
1.093840 0.588700 0.119857
1.099430 0.589557 0.119908
1.102972 0.586958 0.119768
1.108582 0.587732 0.119822
1.114557 0.589023 0.119909
1.118909 0.587629 0.119849
1.124649 0.588402 0.119915
1.130262 0.588899 0.119969
1.134330 0.586928 0.119888
1.142440 0.591140 0.120160
1.145799 0.587984 0.120020
1.151778 0.588769 0.120106
1.158625 0.590767 0.120266
1.164116 0.590661 0.120310
1.169259 0.589987 0.120326
1.174105 0.588833 0.120318
1.179823 0.588885 0.120382
1.185580 0.588926 0.120449
1.191685 0.589393 0.120543
1.197559 0.589466 0.120618
1.203702 0.589845 0.120714
1.210497 0.591042 0.120859
1.215304 0.589481 0.120847
1.223411 0.592290 0.121089
1.229469 0.592285 0.121171
1.234621 0.591044 0.121182
1.242783 0.593668 0.121417
1.247679 0.592013 0.121404
1.252646 0.590436 0.121394
1.260630 0.592636 0.121602
1.266608 0.592264 0.121658
1.273528 0.593028 0.121777
1.278992 0.591976 0.121787
1.287167 0.594197 0.121982
1.292182 0.592581 0.121947
1.297694 0.591574 0.121941
1.304854 0.592519 0.122042
1.311389 0.592722 0.122089
1.318061 0.593091 0.122137
1.323598 0.592173 0.122098
1.328995 0.591138 0.122040
1.336375 0.592376 0.122103
1.343785 0.593665 0.122156
1.348518 0.592022 0.122021
1.353816 0.591074 0.121912
1.361535 0.592825 0.121945
1.372425 0.598023 0.122162
0.384044 0.584265 0.142478
0.387202 0.585231 0.142439
0.390563 0.585700 0.142343
0.393745 0.587016 0.142303
0.396790 0.589050 0.142307
0.400866 0.587512 0.141997
0.404937 0.586104 0.141684
0.408527 0.586649 0.141523
0.411882 0.588282 0.141439
0.415345 0.589683 0.141323
0.418843 0.591123 0.141200
0.422124 0.593635 0.141154
0.426036 0.593691 0.140896
0.430579 0.591120 0.140416
0.433831 0.594205 0.140391
0.438113 0.592857 0.139998
0.442033 0.593173 0.139735
0.446055 0.593063 0.139434
0.449999 0.593361 0.139162
0.453812 0.594341 0.138941
0.458180 0.592570 0.138500
0.461866 0.594253 0.138331
0.465788 0.594755 0.138067
0.469805 0.594747 0.137763
0.473863 0.594484 0.137440
0.478150 0.592843 0.137011
0.481770 0.595044 0.136881
0.485846 0.594524 0.136542
0.490152 0.592464 0.136089
0.493978 0.593351 0.135863
0.497764 0.594498 0.135658
0.501632 0.595081 0.135414
0.505684 0.594300 0.135070
0.509761 0.593201 0.134706
0.513667 0.593261 0.134432
0.517619 0.592871 0.134129
0.521503 0.592931 0.133862
0.525467 0.592203 0.133542
0.529300 0.592521 0.133302
0.533047 0.593594 0.133120
0.536869 0.593915 0.132887
0.540783 0.593206 0.132583
0.544497 0.594532 0.132429
0.548287 0.595023 0.132219
0.552185 0.594110 0.131913
0.556105 0.592699 0.131576
0.559924 0.592410 0.131322
0.563615 0.593874 0.131195
0.567338 0.594952 0.131043
0.571168 0.594216 0.130769
0.574929 0.594537 0.130571
0.578647 0.595694 0.130435
0.582459 0.594808 0.130161
0.586296 0.592909 0.129821
0.590041 0.593087 0.129627
0.593748 0.594473 0.129518
0.597485 0.595012 0.129354
0.601246 0.594463 0.129120
0.605003 0.593589 0.128867
0.608749 0.592772 0.128621
0.612475 0.593551 0.128485
0.616208 0.593550 0.128299
0.619938 0.593221 0.128095
0.623655 0.591750 0.127817
0.627370 0.591292 0.127610
0.631084 0.591000 0.127416
0.634846 0.593099 0.127380
0.638631 0.595359 0.127356
0.642359 0.595023 0.127166
0.646062 0.594091 0.126939
0.649777 0.593618 0.126744
0.653611 0.595893 0.126728
0.657360 0.595971 0.126572
0.660981 0.593630 0.126264
0.664664 0.592680 0.126047
0.668494 0.594145 0.125986
0.672228 0.593971 0.125821
0.676035 0.594768 0.125720
0.679646 0.592897 0.125453
0.683579 0.595138 0.125446
0.687381 0.595570 0.125326
0.691009 0.594006 0.125083
0.695094 0.597327 0.125146
0.698285 0.591383 0.124634
0.702106 0.591921 0.124527
0.705782 0.591053 0.124334
0.709541 0.590939 0.124189
0.713390 0.591542 0.124089
0.717152 0.591352 0.123941
0.721042 0.592138 0.123854
0.724321 0.588232 0.123483
0.727964 0.587186 0.123288
0.733038 0.596213 0.123703
0.736545 0.593974 0.123436
0.739957 0.591210 0.123140
0.744027 0.592770 0.123104
0.748002 0.593604 0.123026
0.753158 0.601455 0.123367
0.755565 0.592761 0.122721
0.760439 0.598522 0.122937
0.763764 0.595366 0.122624
0.767819 0.596269 0.122553
0.772029 0.597903 0.122525
0.775928 0.597828 0.122396
0.780293 0.600043 0.122403
0.784328 0.600501 0.122307
0.789995 0.608691 0.122662
0.792463 0.601555 0.122124
0.795610 0.597790 0.121785
0.798938 0.594961 0.121501
0.802814 0.594607 0.121361
0.806837 0.594862 0.121258
0.810747 0.594595 0.121124
0.814750 0.594684 0.121012
0.820822 0.603053 0.121374
0.826453 0.609325 0.121614
0.830199 0.608031 0.121423
0.834536 0.608991 0.121361
0.839791 0.613297 0.121488
0.845430 0.618818 0.121683
0.846817 0.608837 0.121005
0.848453 0.600049 0.120397
0.852396 0.599532 0.120255
0.858210 0.605368 0.120470
0.862000 0.604198 0.120293
0.864615 0.599160 0.119902
0.868612 0.598732 0.119768
0.872411 0.597651 0.119600
0.881845 0.614240 0.120407
0.882073 0.601861 0.119616
0.888031 0.607240 0.119805
0.890401 0.601687 0.119394
0.895059 0.603008 0.119361
0.899563 0.603810 0.119300
0.903195 0.602062 0.119102
0.908262 0.604369 0.119124
0.912988 0.605631 0.119091
0.916143 0.602522 0.118822
0.916936 0.593094 0.118215
0.920709 0.591822 0.118049
0.924947 0.591770 0.117951
0.929342 0.592089 0.117873
0.933355 0.591390 0.117743
0.940176 0.597744 0.117990
0.947213 0.604428 0.118254
0.949124 0.598336 0.117840
0.958873 0.611326 0.118440
0.953143 0.586981 0.117064
0.962485 0.598751 0.117601
0.962131 0.587618 0.116931
0.970067 0.595780 0.117279
0.976643 0.600613 0.117452
0.986740 0.613183 0.118032
0.990483 0.611333 0.117857
0.994761 0.610658 0.117746
0.998835 0.609516 0.117612
1.003661 0.609967 0.117564
1.008241 0.609846 0.117488
1.013791 0.611706 0.117517
1.016266 0.607142 0.117215
1.015694 0.596435 0.116599
1.016740 0.589187 0.116165
1.019681 0.585834 0.115935
1.028252 0.593587 0.116281
1.035012 0.597599 0.116435
1.034371 0.587236 0.115854
1.040250 0.589459 0.115922
1.045657 0.590697 0.115942
1.049845 0.589592 0.115844
1.055082 0.590391 0.115847
1.060720 0.591852 0.115887
1.064521 0.589925 0.115757
1.068800 0.588839 0.115673
1.074279 0.589835 0.115699
1.078668 0.588858 0.115627
1.082927 0.587626 0.115545
1.090477 0.591975 0.115752
1.095595 0.592075 0.115745
1.099872 0.590709 0.115667
1.103102 0.587587 0.115504
1.109487 0.589629 0.115607
1.113914 0.588403 0.115547
1.118801 0.587878 0.115526
1.123654 0.587249 0.115504
1.129333 0.587869 0.115550
1.134656 0.587861 0.115567
1.141033 0.589409 0.115668
1.146664 0.589728 0.115709
1.152039 0.589593 0.115732
1.157678 0.589790 0.115775
1.164214 0.591242 0.115886
1.168805 0.589762 0.115850
1.173857 0.588912 0.115851
1.179491 0.588847 0.115895
1.185229 0.588867 0.115946
1.191539 0.589625 0.116039
1.198238 0.590844 0.116159
1.204479 0.591347 0.116244
1.210097 0.590934 0.116285
1.215982 0.590827 0.116343
1.222459 0.591452 0.116441
1.228730 0.591737 0.116523
1.234325 0.591079 0.116558
1.241447 0.592358 0.116693
1.247128 0.591718 0.116728
1.253061 0.591365 0.116777
1.261001 0.593498 0.116955
1.267062 0.593215 0.117004
1.273028 0.592788 0.117043
1.279138 0.592517 0.117087
1.284463 0.591280 0.117075
1.292529 0.593331 0.117230
1.297715 0.591918 0.117196
1.304327 0.592202 0.117245
1.311471 0.593102 0.117318
1.317985 0.593268 0.117342
1.322954 0.591680 0.117264
1.328947 0.591304 0.117238
1.334988 0.591018 0.117204
1.343496 0.593518 0.117305
1.348210 0.591832 0.117171
1.352450 0.589702 0.116999
1.358413 0.589534 0.116915
1.367348 0.592629 0.116987
0.384604 0.581423 0.138587
0.387197 0.584352 0.138695
0.390539 0.584920 0.138598
0.393658 0.586491 0.138566
0.397106 0.587097 0.138442
0.400986 0.586297 0.138192
0.404652 0.586441 0.138005
0.408200 0.587196 0.137853
0.411364 0.589621 0.137819
0.414630 0.591870 0.137760
0.418215 0.593038 0.137605
0.422132 0.592991 0.137346
0.426371 0.591689 0.136981
0.430070 0.592743 0.136791
0.433904 0.593330 0.136558
0.437762 0.593899 0.136318
0.441871 0.593390 0.135990
0.445892 0.593315 0.135692
0.449746 0.594068 0.135453
0.453638 0.594692 0.135201
0.457622 0.594888 0.134915
0.462121 0.592415 0.134431
0.465649 0.594981 0.134319
0.469596 0.595370 0.134045
0.473856 0.593992 0.133643
0.477735 0.594700 0.133395
0.481997 0.593124 0.132982
0.486002 0.592987 0.132676
0.489703 0.594710 0.132505
0.493751 0.594210 0.132177
0.497638 0.594696 0.131922
0.501926 0.592340 0.131470
0.505841 0.592446 0.131195
0.509655 0.593238 0.130970
0.513600 0.592982 0.130676
0.517375 0.594003 0.130474
0.521362 0.593224 0.130151
0.525305 0.592679 0.129848
0.529109 0.593265 0.129626
0.532864 0.594274 0.129436
0.536982 0.591640 0.129003
0.540721 0.592638 0.128819
0.544420 0.594077 0.128668
0.548200 0.594626 0.128461
0.552076 0.593940 0.128175
0.555961 0.592959 0.127874
0.559780 0.592656 0.127621
0.563555 0.592858 0.127405
0.567189 0.595244 0.127335
0.571094 0.593177 0.126978
0.574773 0.594940 0.126873
0.578546 0.594942 0.126657
0.582366 0.593761 0.126368
0.586169 0.592572 0.126083
0.589946 0.591723 0.125823
0.593666 0.592391 0.125663
0.597360 0.594186 0.125576
0.601114 0.593687 0.125347
0.604858 0.593363 0.125132
0.608590 0.593619 0.124957
0.612320 0.594120 0.124799
0.616052 0.595480 0.124696
0.619788 0.594865 0.124474
0.623489 0.590334 0.124014
0.627206 0.590675 0.123857
0.630937 0.591683 0.123743
0.634652 0.591492 0.123557
0.638490 0.596132 0.123666
0.642344 0.599829 0.123718
0.646256 0.604225 0.123813
0.649755 0.597168 0.123223
0.653479 0.596634 0.123026
0.657229 0.596685 0.122867
0.660918 0.595558 0.122639
0.664632 0.594982 0.122447
0.668529 0.597383 0.122431
0.672233 0.596534 0.122225
0.675678 0.592173 0.121817
0.679522 0.593496 0.121742
0.683242 0.593096 0.121569
0.687145 0.594821 0.121520
0.690845 0.594086 0.121329
0.694491 0.592819 0.121110
0.699377 0.604015 0.121608
0.702614 0.598421 0.121142
0.706137 0.595880 0.120854
0.710204 0.598259 0.120848
0.714667 0.603750 0.121018
0.719284 0.610027 0.121232
0.722406 0.604136 0.120759
0.725646 0.599504 0.120360
0.729144 0.597021 0.120084
0.733358 0.599689 0.120097
0.737718 0.603137 0.120154
0.741351 0.601543 0.119931
0.744208 0.595037 0.119437
0.748653 0.598726 0.119508
0.753130 0.602352 0.119576
0.757796 0.606839 0.119690
0.761181 0.603748 0.119389
0.764696 0.601503 0.119136
0.768466 0.600711 0.118964
0.772693 0.602319 0.118922
0.775995 0.599069 0.118618
0.778637 0.592623 0.118144
0.784857 0.603945 0.118626
0.788549 0.602630 0.118429
0.792684 0.603405 0.118344
0.796040 0.600546 0.118067
0.799015 0.596079 0.117705
0.802736 0.595021 0.117525
0.806717 0.595088 0.117406
0.810475 0.594179 0.117236
0.814878 0.595919 0.117206
0.820812 0.603713 0.117493
0.825897 0.607822 0.117586
0.827451 0.598068 0.116956
0.830917 0.595910 0.116724
0.838856 0.610466 0.117359
0.844034 0.614355 0.117439
0.847043 0.610271 0.117108
0.849106 0.602963 0.116614
0.854075 0.605950 0.116649
0.859633 0.610809 0.116779
0.862157 0.605300 0.116381
0.864274 0.598601 0.115925
0.868156 0.597809 0.115770
0.874051 0.603425 0.115940
0.878667 0.604816 0.115896
0.886461 0.615940 0.116341
0.883062 0.592662 0.115062
0.889370 0.599116 0.115274
0.895407 0.604545 0.115434
0.899830 0.605086 0.115350
0.901971 0.599055 0.114942
0.906894 0.601002 0.114931
0.912822 0.605652 0.115053
0.916181 0.603099 0.114821
0.917218 0.594319 0.114286
0.920292 0.591170 0.114029
0.924298 0.590518 0.113895
0.928670 0.590798 0.113809
0.932323 0.589196 0.113632
0.945445 0.611456 0.114610
0.952179 0.617212 0.114789
0.951707 0.605105 0.114107
0.955013 0.602420 0.113883
0.957231 0.597169 0.113537
0.956969 0.586164 0.112919
0.960817 0.584972 0.112773
0.962935 0.579793 0.112439
0.974953 0.597191 0.113179
0.980728 0.600117 0.113232
0.987770 0.605739 0.113413
0.991907 0.604825 0.113287
0.997075 0.606123 0.113267
1.001198 0.605115 0.113141
1.004355 0.602051 0.112920
1.008490 0.601055 0.112799
1.011682 0.598096 0.112588
1.012669 0.590671 0.112172
1.016689 0.589479 0.112049
1.020774 0.588403 0.111934
1.027538 0.592577 0.112065
1.032553 0.593209 0.112034
1.035706 0.590197 0.111837
1.040584 0.590487 0.111795
1.045435 0.590673 0.111751
1.049966 0.590210 0.111679
1.054198 0.589159 0.111584
1.058459 0.588132 0.111492
1.064081 0.589528 0.111515
1.068440 0.588594 0.111434
1.074540 0.590693 0.111495
1.078537 0.589029 0.111386
1.084315 0.590418 0.111420
1.089388 0.590520 0.111399
1.095237 0.591874 0.111438
1.097818 0.587685 0.111228
1.102855 0.587584 0.111207
1.108577 0.588549 0.111239
1.113711 0.588482 0.111227
1.118154 0.587252 0.111166
1.124149 0.588445 0.111218
1.128843 0.587513 0.111177
1.135297 0.589270 0.111263
1.141035 0.589829 0.111297
1.146490 0.589883 0.111312
1.152034 0.590006 0.111334
1.157272 0.589607 0.111336
1.163322 0.590350 0.111393
1.167420 0.588163 0.111320
1.173560 0.588907 0.111384
1.179690 0.589557 0.111447
1.185378 0.589503 0.111481
1.191882 0.590532 0.111568
1.196980 0.589524 0.111564
1.204030 0.591155 0.111684
1.209823 0.590984 0.111724
1.215322 0.590358 0.111745
1.222953 0.592529 0.111896
1.228505 0.591855 0.111918
1.234430 0.591627 0.111961
1.241355 0.592646 0.112062
1.246583 0.591420 0.112060
1.253371 0.592151 0.112147
1.259016 0.591389 0.112164
1.266977 0.593487 0.112312
1.272864 0.592953 0.112335
1.278177 0.591700 0.112320
1.286930 0.594605 0.112496
1.291378 0.592283 0.112422
1.298112 0.592703 0.112470
1.303782 0.591859 0.112453
1.311454 0.593363 0.112537
1.316922 0.592303 0.112492
1.322889 0.591847 0.112466
1.328586 0.591115 0.112416
1.335212 0.591467 0.112406
1.340672 0.590549 0.112323
1.347108 0.590766 0.112281
1.352694 0.590096 0.112183
1.358565 0.589800 0.112088
1.365163 0.590351 0.112017
0.382869 0.586432 0.135314
0.387127 0.583704 0.134974
0.390414 0.584501 0.134885
0.394155 0.583884 0.134676
0.397239 0.585814 0.134644
0.400365 0.587826 0.134603
0.404165 0.587530 0.134377
0.407523 0.589073 0.134276
0.410511 0.592261 0.134284
0.414448 0.591928 0.134020
0.418299 0.592058 0.133781
0.422026 0.592812 0.133579
0.426251 0.591596 0.133225
0.430067 0.592174 0.132995
0.433713 0.593600 0.132819
0.437617 0.593994 0.132562
0.441788 0.593226 0.132219
0.445825 0.593092 0.131917
0.449673 0.593884 0.131678
0.453568 0.594502 0.131423
0.457600 0.594467 0.131121
0.461760 0.593752 0.130772
0.465633 0.594523 0.130525
0.469855 0.593398 0.130147
0.473736 0.594101 0.129896
0.477917 0.593071 0.129528
0.482212 0.591251 0.129108
0.486140 0.591524 0.128833
0.489619 0.594599 0.128747
0.493532 0.594973 0.128482
0.497731 0.593374 0.128088
0.501840 0.592221 0.127728
0.505789 0.592061 0.127437
0.509718 0.591964 0.127153
0.513480 0.593078 0.126951
0.517235 0.594242 0.126755
0.521250 0.593225 0.126421
0.525062 0.593814 0.126195
0.528825 0.594801 0.125997
0.533369 0.588329 0.125331
0.537095 0.589319 0.125141
0.540680 0.591797 0.125047
0.544463 0.592232 0.124829
0.548280 0.592232 0.124586
0.552062 0.592546 0.124367
0.555821 0.593096 0.124165
0.559668 0.592377 0.123890
0.563423 0.592836 0.123689
0.567232 0.592370 0.123436
0.570948 0.593349 0.123273
0.574439 0.598626 0.123370
0.578291 0.597321 0.123075
0.581975 0.599452 0.122989
0.585598 0.603567 0.123021
0.589740 0.593492 0.122219
0.593412 0.595982 0.122162
0.596942 0.604941 0.122483
0.600831 0.600218 0.122008
0.604682 0.594896 0.121504
0.608406 0.596310 0.121393
0.612085 0.606439 0.121784
0.615882 0.602523 0.121370
0.619650 0.602042 0.121155
0.623379 0.596814 0.120675
0.627077 0.593139 0.120286
0.630810 0.593720 0.120141
0.634608 0.597047 0.120152
0.638474 0.601824 0.120245
0.642253 0.602294 0.120098
0.645995 0.601559 0.119886
0.649695 0.599876 0.119624
0.653379 0.598169 0.119363
0.657188 0.599296 0.119260
0.661064 0.601440 0.119214
0.664951 0.603399 0.119159
0.668647 0.601977 0.118921
0.673170 0.612997 0.119358
0.675657 0.594257 0.118190
0.679338 0.593328 0.117986
0.683202 0.594725 0.117908
0.686939 0.594437 0.117741
0.690673 0.594101 0.117573
0.694379 0.593459 0.117390
0.698828 0.600280 0.117603
0.702398 0.598026 0.117337
0.705998 0.596204 0.117095
0.710253 0.600240 0.117161
0.715132 0.609165 0.117481
0.718569 0.605679 0.117156
0.722621 0.607203 0.117091
0.725747 0.601591 0.116660
0.729115 0.598088 0.116340
0.733237 0.600083 0.116303
0.738121 0.607094 0.116521
0.741379 0.602892 0.116169
0.743978 0.594691 0.115616
0.747880 0.595020 0.115498
0.752622 0.600359 0.115631
0.756977 0.603083 0.115633
0.761287 0.605367 0.115612
0.764729 0.602667 0.115343
0.768561 0.602175 0.115186
0.772619 0.602865 0.115087
0.776072 0.600368 0.114832
0.779156 0.596102 0.114491
0.781886 0.590265 0.114075
0.787253 0.597273 0.114288
0.791906 0.600589 0.114321
0.795434 0.598579 0.114094
0.798528 0.594678 0.113777
0.802353 0.594105 0.113622
0.805990 0.592713 0.113429
0.810443 0.594766 0.113401
0.814717 0.595964 0.113332
0.820228 0.602061 0.113497
0.823955 0.600841 0.113313
0.826233 0.594019 0.112865
0.829732 0.592056 0.112649
0.835883 0.600027 0.112900
0.841912 0.607223 0.113113
0.844006 0.599979 0.112651
0.846402 0.594019 0.112251
0.853922 0.606017 0.112686
0.858430 0.607295 0.112623
0.861572 0.603916 0.112345
0.862238 0.592452 0.111698
0.867686 0.596836 0.111780
0.872146 0.597894 0.111709
0.877468 0.601589 0.111759
0.879844 0.596032 0.111389
0.883419 0.594260 0.111192
0.888468 0.596927 0.111197
0.895408 0.605052 0.111446
0.899347 0.604182 0.111291
0.901697 0.598757 0.110934
0.903646 0.592327 0.110535
0.910827 0.600587 0.110790
0.915844 0.602648 0.110769
0.916132 0.591847 0.110182
0.919857 0.590464 0.110013
0.923877 0.589859 0.109879
0.928238 0.590121 0.109784
0.932525 0.590150 0.109680
0.945071 0.610959 0.110479
0.949900 0.611986 0.110418
0.952137 0.606592 0.110081
0.951044 0.593234 0.109403
0.955275 0.592913 0.109290
0.958925 0.591192 0.109118
0.964831 0.594732 0.109173
0.968010 0.591873 0.108955
0.973512 0.594326 0.108966
0.976975 0.592102 0.108779
0.982761 0.595044 0.108813
0.992246 0.605974 0.109183
0.997478 0.607398 0.109154
1.000693 0.604438 0.108943
1.003094 0.599785 0.108664
1.005893 0.596031 0.108425
1.008358 0.591633 0.108162
1.012675 0.591071 0.108061
1.019596 0.595725 0.108178
1.024101 0.595416 0.108092
1.028454 0.594770 0.107994
1.031643 0.591826 0.107803
1.036315 0.591756 0.107734
1.040143 0.590034 0.107599
1.044969 0.590181 0.107544
1.050029 0.590714 0.107506
1.054158 0.589471 0.107399
1.058583 0.588744 0.107316
1.063671 0.589177 0.107282
1.069024 0.590021 0.107268
1.073740 0.589671 0.107208
1.078554 0.589449 0.107157
1.083136 0.588776 0.107090
1.088776 0.589868 0.107098
1.093104 0.588666 0.107016
1.097864 0.588154 0.106965
1.103306 0.588724 0.106961
1.108472 0.588774 0.106939
1.113167 0.588000 0.106888
1.119596 0.589961 0.106949
1.124787 0.589858 0.106931
1.129596 0.589096 0.106890
1.134858 0.588992 0.106879
1.140961 0.590122 0.106921
1.146332 0.590051 0.106918
1.151952 0.590293 0.106931
1.157704 0.590662 0.106952
1.162482 0.589522 0.106917
1.166988 0.587944 0.106867
1.171643 0.586547 0.106827
1.180146 0.590623 0.107011
1.185086 0.589504 0.106988
1.191422 0.590299 0.107046
1.198008 0.591364 0.107117
1.203690 0.591101 0.107137
1.208916 0.590160 0.107132
1.214898 0.590196 0.107169
1.222136 0.591846 0.107272
1.228602 0.592387 0.107332
1.233690 0.591059 0.107317
1.241678 0.593460 0.107454
1.246745 0.592018 0.107435
1.251976 0.590765 0.107423
1.259634 0.592543 0.107534
1.266231 0.592926 0.107586
1.272434 0.592781 0.107613
1.277669 0.591427 0.107589
1.284737 0.592290 0.107650
1.291294 0.592504 0.107681
1.297284 0.592028 0.107678
1.304152 0.592586 0.107710
1.310823 0.592904 0.107725
1.317136 0.592807 0.107715
1.322415 0.591544 0.107648
1.328711 0.591475 0.107620
1.334713 0.591103 0.107568
1.339706 0.589648 0.107460
1.346522 0.590269 0.107425
1.352762 0.590298 0.107352
1.359251 0.590648 0.107278
1.368427 0.593943 0.107309
0.384256 0.580784 0.131235
0.386363 0.585469 0.131428
0.390262 0.584185 0.131182
0.393677 0.584771 0.131055
0.396868 0.586365 0.130985
0.399932 0.588655 0.130950
0.403672 0.588644 0.130741
0.407341 0.589055 0.130550
0.410974 0.589762 0.130368
0.414262 0.591998 0.130282
0.418135 0.592071 0.130036
0.422231 0.591335 0.129726
0.426130 0.591494 0.129471
0.429967 0.592008 0.129232
0.433656 0.593266 0.129038
0.437762 0.592767 0.128720
0.441916 0.592072 0.128385
0.445905 0.592153 0.128099
0.449775 0.592834 0.127850
0.453554 0.594015 0.127631
0.457464 0.594592 0.127370
0.461404 0.595034 0.127100
0.465777 0.593182 0.126681
0.469654 0.593914 0.126430
0.473597 0.594285 0.126156
0.478158 0.591065 0.125656
0.482117 0.591188 0.125370
0.486042 0.591475 0.125096
0.489594 0.594080 0.124968
0.493461 0.594733 0.124720
0.497499 0.594203 0.124402
0.501688 0.592514 0.124016
0.505627 0.592432 0.123732
0.509349 0.593885 0.123544
0.513023 0.595741 0.123383
0.516844 0.596465 0.123155
0.520266 0.600496 0.123128
0.524201 0.600301 0.122852
0.528340 0.598122 0.122462
0.532142 0.598868 0.122249
0.536167 0.597350 0.121906
0.540212 0.595379 0.121542
0.543567 0.600714 0.121604
0.547360 0.601426 0.121401
0.551079 0.603041 0.121252
0.555862 0.590815 0.120322
0.559556 0.592051 0.120161
0.563316 0.592378 0.119951
0.567136 0.591681 0.119688
0.570891 0.591887 0.119478
0.574410 0.596453 0.119513
0.577798 0.604509 0.119740
0.581584 0.605034 0.119553
0.585572 0.600396 0.119088
0.589460 0.597290 0.118711
0.593130 0.600393 0.118674
0.596804 0.604312 0.118682
0.600695 0.599275 0.118212
0.604515 0.595602 0.117819
0.608197 0.600908 0.117907
0.611960 0.601210 0.117731
0.615715 0.605420 0.117762
0.619494 0.604491 0.117525
0.623258 0.602673 0.117245
0.626945 0.595750 0.116702
0.630755 0.600345 0.116760
0.634562 0.602755 0.116706
0.638292 0.601261 0.116453
0.642062 0.601529 0.116292
0.645848 0.602188 0.116152
0.649471 0.598494 0.115795
0.653193 0.597790 0.115591
0.657085 0.600685 0.115570
0.660998 0.603430 0.115542
0.664499 0.598588 0.115136
0.668428 0.601259 0.115107
0.672133 0.600180 0.114893
0.675602 0.595901 0.114523
0.679199 0.593790 0.114263
0.682958 0.593863 0.114112
0.686903 0.596058 0.114065
0.690591 0.595134 0.113867
0.694435 0.595898 0.113752
0.698521 0.598969 0.113749
0.701928 0.595218 0.113420
0.705573 0.593927 0.113210
0.710277 0.602010 0.113447
0.713958 0.600762 0.113241
0.718432 0.606012 0.113342
0.721794 0.602135 0.113014
0.725325 0.599753 0.112757
0.728768 0.596855 0.112479
0.732792 0.598203 0.112399
0.737258 0.602432 0.112454
0.741132 0.602441 0.112312
0.743751 0.594368 0.111801
0.746997 0.590632 0.111491
0.751294 0.593411 0.111480
0.756923 0.603814 0.111815
0.760303 0.600765 0.111539
0.764300 0.601267 0.111424
0.768064 0.600446 0.111251
0.771657 0.598721 0.111037
0.775815 0.599950 0.110957
0.780098 0.601707 0.110900
0.782935 0.596259 0.110524
0.786151 0.592835 0.110239
0.790865 0.596540 0.110270
0.794846 0.596689 0.110144
0.798300 0.594435 0.109913
0.801952 0.593107 0.109724
0.806026 0.593606 0.109615
0.810007 0.593661 0.109487
0.813474 0.591560 0.109267
0.820894 0.605447 0.109732
0.824081 0.602023 0.109455
0.826301 0.594946 0.109024
0.830580 0.595933 0.108938
0.834653 0.596076 0.108816
0.838039 0.593665 0.108587
0.841434 0.591336 0.108362
0.846071 0.593448 0.108324
0.849782 0.592238 0.108148
0.856894 0.602642 0.108453
0.866001 0.605423 0.108315
0.867582 0.597047 0.107847
0.870676 0.593741 0.107589
0.875353 0.595480 0.107536
0.880723 0.599272 0.107567
0.885503 0.601117 0.107519
0.889492 0.600501 0.107373
0.895251 0.605094 0.107435
0.899809 0.606023 0.107351
0.901546 0.598811 0.106944
0.904091 0.594057 0.106637
0.908540 0.594699 0.106545
0.914068 0.598249 0.106568
0.915556 0.590747 0.106158
0.919770 0.590683 0.106041
0.924125 0.590955 0.105939
0.928250 0.590591 0.105812
0.932923 0.591602 0.105740
0.940810 0.600653 0.105977
0.946053 0.602851 0.105950
0.947123 0.594710 0.105530
0.949408 0.589688 0.105231
0.953263 0.588514 0.105081
0.957394 0.587987 0.104957
0.962952 0.590762 0.104959
0.970373 0.597717 0.105118
0.972280 0.591925 0.104800
0.977853 0.594471 0.104795
0.983936 0.598047 0.104830
0.990706 0.602999 0.104917
0.997143 0.607071 0.104971
0.999177 0.601590 0.104675
1.003501 0.601037 0.104562
1.005298 0.595177 0.104258
1.010419 0.596271 0.104209
1.013352 0.592835 0.103998
1.018990 0.594888 0.103989
1.022686 0.592979 0.103838
1.026391 0.591087 0.103690
1.031132 0.591210 0.103617
1.036117 0.591753 0.103561
1.040036 0.590208 0.103433
1.044286 0.589274 0.103329
1.049063 0.589293 0.103262
1.054476 0.590435 0.103236
1.058524 0.589013 0.103123
1.063547 0.589331 0.103073
1.068232 0.588988 0.103003
1.073367 0.589393 0.102962
1.078251 0.589299 0.102906
1.083206 0.589277 0.102856
1.088741 0.590190 0.102841
1.093316 0.589406 0.102769
1.098794 0.590093 0.102752
1.103685 0.589737 0.102701
1.108155 0.588641 0.102628
1.113607 0.589100 0.102612
1.120104 0.591165 0.102655
1.124912 0.590447 0.102604
1.129758 0.589743 0.102558
1.135056 0.589694 0.102537
1.140440 0.589716 0.102521
1.146604 0.590861 0.102548
1.150889 0.589087 0.102477
1.157371 0.590564 0.102522
1.162589 0.590079 0.102502
1.166868 0.588167 0.102436
1.171351 0.586524 0.102382
1.178691 0.588941 0.102471
1.185151 0.589997 0.102517
1.191714 0.591110 0.102567
1.198485 0.592427 0.102626
1.203769 0.591609 0.102614
1.208489 0.589978 0.102576
1.213931 0.589289 0.102573
1.220732 0.590369 0.102633
1.227270 0.591019 0.102679
1.233632 0.591372 0.102715
1.239298 0.590762 0.102719
1.245809 0.591195 0.102759
1.254159 0.593909 0.102878
1.260366 0.593829 0.102899
1.266392 0.593486 0.102908
1.271538 0.592025 0.102877
1.277686 0.591785 0.102885
1.284093 0.591838 0.102900
1.290477 0.591840 0.102909
1.296699 0.591636 0.102905
1.303190 0.591741 0.102905
1.310591 0.592904 0.102936
1.316644 0.592493 0.102904
1.323073 0.592531 0.102879
1.329098 0.592129 0.102829
1.334553 0.591117 0.102747
1.340105 0.590265 0.102660
1.345117 0.588869 0.102542
1.352420 0.590051 0.102502
1.359244 0.590744 0.102431
1.367356 0.592872 0.102395
0.383296 0.583153 0.127739
0.385295 0.588282 0.127933
0.388985 0.587821 0.127742
0.393031 0.586253 0.127464
0.395844 0.589286 0.127476
0.399416 0.589787 0.127309
0.403195 0.589688 0.127090
0.407299 0.588493 0.126789
0.411071 0.588684 0.126568
0.414529 0.590256 0.126426
0.417689 0.593214 0.126364
0.421599 0.593301 0.126108
0.425840 0.592089 0.125763
0.429635 0.592821 0.125535
0.433651 0.592688 0.125247
0.437919 0.591468 0.124887
0.442106 0.590611 0.124546
0.446001 0.591119 0.124287
0.449861 0.591841 0.124038
0.453586 0.593274 0.123830
0.457047 0.596114 0.123705
0.460864 0.597244 0.123475
0.464962 0.596920 0.123157
0.469387 0.594765 0.122731
0.473196 0.595912 0.122503
0.476948 0.597416 0.122296
0.480342 0.601086 0.122215
0.484091 0.602751 0.122018
0.488058 0.603081 0.121746
0.492675 0.599120 0.121229
0.496524 0.600004 0.120994
0.500120 0.602640 0.120861
0.504257 0.601471 0.120514
0.509802 0.589619 0.119575
0.513376 0.592074 0.119442
0.516584 0.597580 0.119478
0.520075 0.601066 0.119403
0.523869 0.602106 0.119196
0.528190 0.598337 0.118732
0.532322 0.595924 0.118346
0.536127 0.596461 0.118123
0.540003 0.596196 0.117860
0.543807 0.596593 0.117636
0.546905 0.605132 0.117845
0.550942 0.603015 0.117493
0.555370 0.595440 0.116861
0.559334 0.593198 0.116514
0.563231 0.591536 0.116201
0.567006 0.591484 0.115974
0.570715 0.592423 0.115801
0.574445 0.593041 0.115615
0.578071 0.595796 0.115538
0.581380 0.606226 0.115849
0.585534 0.597481 0.115199
0.589310 0.597192 0.114977
0.592905 0.602709 0.115045
0.596668 0.603442 0.114877
0.600535 0.599379 0.114478
0.604291 0.599638 0.114293
0.608082 0.596904 0.113965
0.611826 0.597089 0.113782
0.615565 0.599263 0.113696
0.619326 0.603275 0.113700
0.623095 0.603126 0.113506
0.626874 0.604017 0.113363
0.630635 0.603308 0.113147
0.634362 0.601248 0.112871
0.638074 0.599369 0.112605
0.641835 0.599656 0.112443
0.645652 0.601474 0.112353
0.649411 0.601328 0.112173
0.652928 0.595681 0.111744
0.656864 0.599714 0.111760
0.660594 0.599110 0.111566
0.664321 0.598517 0.111373
0.668098 0.598772 0.111221
0.671978 0.600485 0.111135
0.675570 0.597910 0.110859
0.679042 0.594026 0.110527
0.682857 0.594779 0.110403
0.686656 0.595224 0.110266
0.690600 0.597188 0.110197
0.694601 0.599510 0.110143
0.698425 0.599790 0.110002
0.701911 0.596752 0.109717
0.706038 0.599830 0.109699
0.709516 0.596874 0.109421
0.713435 0.597853 0.109313
0.717587 0.600598 0.109281
0.720850 0.596136 0.108944
0.724775 0.596946 0.108832
0.729533 0.603742 0.108970
0.732838 0.599783 0.108659
0.736818 0.600651 0.108549
0.740473 0.599264 0.108347
0.743386 0.593163 0.107952
0.746957 0.591480 0.107741
0.752215 0.600050 0.107950
0.756139 0.600256 0.107817
0.760165 0.600995 0.107705
0.764209 0.601752 0.107595
0.768084 0.601514 0.107444
0.771065 0.596528 0.107105
0.775079 0.597068 0.106988
0.780247 0.603346 0.107098
0.784526 0.604922 0.107021
0.787456 0.599922 0.106686
0.789555 0.591222 0.106207
0.794434 0.595601 0.106242
0.797809 0.593010 0.106006
0.801776 0.593095 0.105874
0.806049 0.594446 0.105791
0.809796 0.593498 0.105620
0.813432 0.592094 0.105432
0.820825 0.605870 0.105822
0.824111 0.602825 0.105571
0.827190 0.599059 0.105295
0.829517 0.592538 0.104917
0.833198 0.591281 0.104738
0.837055 0.590679 0.104584
0.841185 0.591050 0.104466
0.847491 0.599070 0.104631
0.852315 0.601627 0.104594
0.855150 0.597266 0.104303
0.860751 0.602308 0.104356
0.865942 0.605794 0.104351
0.868449 0.600412 0.104026
0.867415 0.583860 0.103303
0.875509 0.596499 0.103628
0.883505 0.608401 0.103924
0.887776 0.608556 0.103800
0.891828 0.608012 0.103653
0.895259 0.605616 0.103441
0.898243 0.601960 0.103186
0.901530 0.599249 0.102967
0.904312 0.595154 0.102700
0.909186 0.596964 0.102640
0.916417 0.605153 0.102798
0.915641 0.591427 0.102206
0.920074 0.591938 0.102103
0.924648 0.592771 0.102012
0.928584 0.591891 0.101864
0.931892 0.589395 0.101662
0.939710 0.598308 0.101844
0.944004 0.598177 0.101723
0.946329 0.593179 0.101442
0.949475 0.590263 0.101232
0.953291 0.588988 0.101078
0.957332 0.588242 0.100942
0.963959 0.593510 0.101005
0.970744 0.598973 0.101073
0.974061 0.596373 0.100880
0.978602 0.596547 0.100779
0.984205 0.599036 0.100754
0.987945 0.597341 0.100595
0.990776 0.593676 0.100376
1.001133 0.606164 0.100672
1.002128 0.598520 0.100330
1.008636 0.602532 0.100358
1.013415 0.602837 0.100271
1.015514 0.597624 0.100014
1.018964 0.595210 0.099846
1.021479 0.590947 0.099624
1.029119 0.596836 0.099718
1.032618 0.594477 0.099559
1.035910 0.591726 0.099390
1.039620 0.589785 0.099249
1.043670 0.588482 0.099130
1.047675 0.587075 0.099010
1.052320 0.586830 0.098928
1.059126 0.590480 0.098966
1.062987 0.588692 0.098842
1.067867 0.588707 0.098774
1.073415 0.589849 0.098743
1.078137 0.589472 0.098669
1.083492 0.590141 0.098629
1.088595 0.590313 0.098577
1.093551 0.590178 0.098518
1.098554 0.590066 0.098463
1.103226 0.589353 0.098393
1.108519 0.589612 0.098354
1.114784 0.591385 0.098363
1.119463 0.590517 0.098297
1.124067 0.589485 0.098229
1.129668 0.589983 0.098209
1.135265 0.590401 0.098190
1.140944 0.590874 0.098175
1.146096 0.590472 0.098138
1.150966 0.589588 0.098090
1.155537 0.588214 0.098031
1.161984 0.589572 0.098054
1.166858 0.588540 0.098010
1.171740 0.587474 0.097969
1.178705 0.589348 0.098015
1.184308 0.589191 0.098006
1.190496 0.589790 0.098020
1.198261 0.592506 0.098099
1.203645 0.591827 0.098082
1.209347 0.591533 0.098077
1.214658 0.590654 0.098057
1.219838 0.589557 0.098033
1.227481 0.591679 0.098103
1.233683 0.591816 0.098117
1.238799 0.590487 0.098088
1.245292 0.590900 0.098110
1.252113 0.591672 0.098143
1.259777 0.593445 0.098203
1.265882 0.593198 0.098203
1.271661 0.592516 0.098189
1.278105 0.592628 0.098194
1.283942 0.591974 0.098174
1.289502 0.590978 0.098140
1.296497 0.591689 0.098151
1.303001 0.591799 0.098138
1.309832 0.592284 0.098130
1.316309 0.592355 0.098103
1.323296 0.593017 0.098084
1.328951 0.592174 0.098013
1.334535 0.591290 0.097931
1.340145 0.590481 0.097840
1.346129 0.590137 0.097752
1.352162 0.589896 0.097655
1.359882 0.591543 0.097599
1.366253 0.591766 0.097490
0.382376 0.585386 0.124211
0.384184 0.591245 0.124420
0.388228 0.589627 0.124154
0.391399 0.591251 0.124074
0.394054 0.594974 0.124108
0.397725 0.595244 0.123919
0.402344 0.592128 0.123514
0.406330 0.591463 0.123247
0.410474 0.590298 0.122940
0.413195 0.594856 0.122966
0.416538 0.597194 0.122850
0.420631 0.596635 0.122553
0.424708 0.596211 0.122258
0.427943 0.599461 0.122172
0.432495 0.597142 0.121755
0.437223 0.593982 0.121287
0.441471 0.592918 0.120938
0.445772 0.591590 0.120572
0.449920 0.590953 0.120244
0.453584 0.592673 0.120047
0.456773 0.596883 0.119987
0.460419 0.598926 0.119803
0.464514 0.598665 0.119491
0.468631 0.598249 0.119172
0.472626 0.598449 0.118887
0.476385 0.599985 0.118676
0.480440 0.599802 0.118373
0.485094 0.595877 0.117872
0.488885 0.597103 0.117650
0.492780 0.597653 0.117393
0.496567 0.598904 0.117176
0.500085 0.602028 0.117058
0.504515 0.598729 0.116609
0.508853 0.595789 0.116184
0.513476 0.590332 0.115636
0.517301 0.590788 0.115394
0.520122 0.599593 0.115574
0.524018 0.599665 0.115316
0.528453 0.594746 0.114813
0.532794 0.590171 0.114334
0.536509 0.591310 0.114142
0.540064 0.594126 0.114033
0.544100 0.591849 0.113679
0.547783 0.593310 0.113510
0.550760 0.603498 0.113761
0.555467 0.592303 0.112993
0.559307 0.591573 0.112728
0.563025 0.592446 0.112543
0.566776 0.592795 0.112335
0.570538 0.592908 0.112119
0.574369 0.591642 0.111843
0.578122 0.591605 0.111627
0.581748 0.594341 0.111539
0.585431 0.596158 0.111412
0.589177 0.596505 0.111220
0.592742 0.602810 0.111297
0.596556 0.601550 0.111037
0.600371 0.599516 0.110746
0.604189 0.595962 0.110391
0.607931 0.595865 0.110191
0.611673 0.595493 0.109982
0.615402 0.597924 0.109897
0.619147 0.597703 0.109699
0.622916 0.601601 0.109679
0.626722 0.605602 0.109665
0.630476 0.604058 0.109415
0.634165 0.599996 0.109061
0.637932 0.600523 0.108904
0.641714 0.601396 0.108763
0.645431 0.600094 0.108533
0.649041 0.596326 0.108203
0.652811 0.596978 0.108058
0.656629 0.598473 0.107949
0.660516 0.600957 0.107882
0.664238 0.600144 0.107681
0.668028 0.600490 0.107528
0.671801 0.600494 0.107363
0.675363 0.597482 0.107079
0.678982 0.595558 0.106841
0.682690 0.594911 0.106655
0.686549 0.596053 0.106541
0.690266 0.595455 0.106360
0.694232 0.597499 0.106282
0.698333 0.600673 0.106249
0.702046 0.599779 0.106059
0.705620 0.597630 0.105822
0.709195 0.595623 0.105592
0.712799 0.593975 0.105377
0.716387 0.592278 0.105162
0.720686 0.596253 0.105161
0.724878 0.599087 0.105117
0.729324 0.603530 0.105133
0.733179 0.603463 0.104981
0.736832 0.601974 0.104777
0.740715 0.602058 0.104632
0.743906 0.597645 0.104323
0.747443 0.595611 0.104103
0.751971 0.599649 0.104103
0.756075 0.600929 0.104004
0.759549 0.598489 0.103771
0.763891 0.600972 0.103715
0.768347 0.603909 0.103675
0.771876 0.601748 0.103455
0.775320 0.599223 0.103222
0.780264 0.604324 0.103258
0.784449 0.605418 0.103153
0.785774 0.592701 0.102570
0.792072 0.603835 0.102813
0.796514 0.605930 0.102742
0.797568 0.592709 0.102150
0.801670 0.593386 0.102034
0.805892 0.594513 0.101933
0.809981 0.595001 0.101810
0.813287 0.592204 0.101578
0.818985 0.599147 0.101670
0.824328 0.604373 0.101704
0.825780 0.594251 0.101232
0.829725 0.593979 0.101086
0.832692 0.590024 0.100821
0.837450 0.592750 0.100773
0.841632 0.593269 0.100654
0.847151 0.598469 0.100685
0.851892 0.600750 0.100621
0.856159 0.601293 0.100502
0.860694 0.602686 0.100410
0.865229 0.604001 0.100316
0.868225 0.600232 0.100063
0.871121 0.596237 0.099804
0.877501 0.603294 0.099889
0.883827 0.609926 0.099958
0.889532 0.614424 0.099961
0.892283 0.609886 0.099688
0.894782 0.604708 0.099399
0.897616 0.600627 0.099144
0.901575 0.599857 0.098990
0.906734 0.602465 0.098938
0.912598 0.606927 0.098940
0.916688 0.606359 0.098793
0.915366 0.591133 0.098219
0.919522 0.590911 0.098086
0.924386 0.592519 0.098008
0.928252 0.591464 0.097853
0.931656 0.589216 0.097665
0.940209 0.599995 0.097850
0.944925 0.600892 0.097752
0.947208 0.595751 0.097485
0.950316 0.592709 0.097279
0.953756 0.590505 0.097099
0.957765 0.589666 0.096958
0.962014 0.589370 0.096834
0.970517 0.598845 0.096979
0.974741 0.598312 0.096849
0.978360 0.596394 0.096683
0.980667 0.591570 0.096440
0.985625 0.592636 0.096358
0.996884 0.607290 0.096641
1.004834 0.604620 0.096352
1.007464 0.600460 0.096137
1.014320 0.605083 0.096154
1.019544 0.606223 0.096080
1.019232 0.596122 0.095717
1.024306 0.596953 0.095640
1.031564 0.602027 0.095673
1.035721 0.600894 0.095549
1.034600 0.589563 0.095166
1.039086 0.589130 0.095065
1.043222 0.587998 0.094948
1.047657 0.587401 0.094847
1.053931 0.590161 0.094833
1.059023 0.590654 0.094763
1.063224 0.589479 0.094654
1.067117 0.587730 0.094533
1.072984 0.589449 0.094501
1.078059 0.589697 0.094434
1.082936 0.589544 0.094360
1.087873 0.589443 0.094290
1.093338 0.590180 0.094243
1.098153 0.589760 0.094170
1.103928 0.590880 0.094137
1.108093 0.589280 0.094041
1.114306 0.590977 0.094027
1.119312 0.590642 0.093967
1.123666 0.589218 0.093884
1.128439 0.588420 0.093818
1.135199 0.590669 0.093829
1.140604 0.590722 0.093789
1.146214 0.591025 0.093758
