ply
format ascii 1.0
comment ---
element vertex 1677
property float x
property float y
property float z
element face 0
property list uchar uint vertex_indices
end_header
0.182038 0.608869 -0.303762
0.184572 0.606330 -0.302819
0.186756 0.602775 -0.301421
0.190396 0.603622 -0.302013
0.194295 0.605157 -0.302922
0.197501 0.604605 -0.302892
0.200826 0.604366 -0.303010
0.203958 0.603552 -0.302871
0.208106 0.605504 -0.303991
0.211558 0.605474 -0.304217
0.213377 0.601067 -0.302461
0.217294 0.602236 -0.303241
0.221838 0.604940 -0.304725
0.226796 0.608572 -0.306639
0.231418 0.611217 -0.308111
0.232893 0.605990 -0.305995
0.234905 0.602178 -0.304526
0.238406 0.602000 -0.304718
0.241544 0.600931 -0.304507
0.245060 0.600735 -0.304697
0.252687 0.609935 -0.309200
0.252028 0.600116 -0.304979
0.256091 0.601061 -0.305699
0.259063 0.599554 -0.305293
0.263584 0.601423 -0.306441
0.267716 0.602387 -0.307174
0.271912 0.603441 -0.307947
0.275302 0.602770 -0.307923
0.278204 0.601100 -0.307433
0.281711 0.600691 -0.307522
0.285246 0.600348 -0.307636
0.289019 0.600483 -0.307967
0.294966 0.604879 -0.310270
0.298361 0.604241 -0.310229
0.302762 0.605557 -0.311088
0.305229 0.603205 -0.310229
0.308309 0.602080 -0.309930
0.312300 0.602691 -0.310428
0.316433 0.603583 -0.311043
0.318951 0.601581 -0.310293
0.321787 0.600234 -0.309833
0.320576 0.591811 -0.306047
0.321291 0.586988 -0.303924
0.322686 0.583499 -0.302406
0.335250 0.599289 -0.309895
0.335582 0.594068 -0.307529
0.338069 0.592639 -0.306920
0.342675 0.594839 -0.307990
0.349269 0.600354 -0.310594
0.351911 0.599380 -0.310136
0.353076 0.596106 -0.308582
-0.371634 0.596464 -0.305933
-0.370646 0.599813 -0.307605
-0.368486 0.601354 -0.308419
-0.365702 0.601959 -0.308779
-0.362882 0.602596 -0.309133
-0.358863 0.601276 -0.308559
-0.356391 0.602676 -0.309228
-0.354981 0.606030 -0.310785
-0.349347 0.602095 -0.308938
-0.346180 0.602534 -0.309103
-0.343728 0.604330 -0.309879
-0.340677 0.605142 -0.310181
-0.337016 0.604909 -0.309980
-0.333271 0.604571 -0.309714
-0.330011 0.605183 -0.309874
-0.326499 0.605374 -0.309824
-0.322032 0.603779 -0.308933
-0.319846 0.606605 -0.310077
-0.316971 0.608175 -0.310626
-0.312912 0.607451 -0.310105
-0.309539 0.608108 -0.310213
-0.305797 0.608041 -0.309978
-0.301973 0.607810 -0.309660
-0.297595 0.606415 -0.308801
-0.293829 0.606279 -0.308517
-0.290547 0.607172 -0.308703
-0.287169 0.607867 -0.308794
-0.282623 0.605993 -0.307703
-0.279181 0.606513 -0.307710
-0.275804 0.607173 -0.307781
-0.272348 0.607646 -0.307766
-0.268743 0.607754 -0.307583
-0.264482 0.606288 -0.306682
-0.260519 0.605457 -0.306075
-0.257142 0.605994 -0.306094
-0.253982 0.607043 -0.306350
-0.250522 0.607335 -0.306262
-0.246102 0.605154 -0.305052
-0.242566 0.605147 -0.304837
-0.239146 0.605404 -0.304745
-0.235892 0.606065 -0.304840
-0.232511 0.606361 -0.304774
-0.229181 0.606762 -0.304760
-0.225656 0.606588 -0.304489
-0.221886 0.605667 -0.303885
-0.218391 0.605464 -0.303611
-0.214934 0.605321 -0.303369
-0.211599 0.605491 -0.303274
-0.208365 0.605928 -0.303304
-0.204880 0.605563 -0.302976
-0.201624 0.605859 -0.302952
-0.198471 0.606449 -0.303065
-0.194878 0.605584 -0.302526
-0.191736 0.606138 -0.302633
-0.188697 0.607020 -0.302891
-0.185080 0.605902 -0.302253
-0.181990 0.606548 -0.302415
-0.178934 0.607294 -0.302625
-0.175513 0.606703 -0.302238
-0.172361 0.607046 -0.302276
-0.168927 0.606295 -0.301827
-0.165733 0.606398 -0.301765
-0.162525 0.606414 -0.301669
-0.159370 0.606605 -0.301655
-0.155984 0.605815 -0.301206
-0.153119 0.607146 -0.301711
-0.149986 0.607347 -0.301714
-0.146782 0.607207 -0.301567
-0.143598 0.607116 -0.301446
-0.140261 0.606276 -0.300994
-0.137083 0.606115 -0.300849
-0.133926 0.606013 -0.300734
-0.130825 0.606149 -0.300729
-0.127782 0.606560 -0.300850
-0.124732 0.606928 -0.300955
-0.121752 0.607654 -0.301224
-0.118620 0.607553 -0.301126
-0.115361 0.606681 -0.300686
-0.112169 0.606127 -0.300391
-0.109291 0.607413 -0.300922
-0.106265 0.607826 -0.301065
-0.103068 0.607133 -0.300716
-0.099937 0.606800 -0.300531
-0.096941 0.607357 -0.300747
-0.093817 0.606998 -0.300556
-0.090682 0.606511 -0.300310
-0.087565 0.606096 -0.300099
-0.084591 0.606778 -0.300380
-0.081615 0.607481 -0.300673
-0.078554 0.607458 -0.300643
-0.075416 0.606704 -0.300290
-0.072483 0.607840 -0.300783
-0.069318 0.606700 -0.300261
-0.066270 0.606675 -0.300240
-0.063223 0.606625 -0.300210
-0.060207 0.606933 -0.300341
-0.057203 0.607407 -0.300548
-0.054140 0.607099 -0.300408
-0.051141 0.607689 -0.300671
-0.048073 0.607231 -0.300469
-0.045017 0.606883 -0.300317
-0.041956 0.606346 -0.300082
-0.038903 0.605860 -0.299872
-0.035922 0.606918 -0.300353
-0.032913 0.607495 -0.300621
-0.029899 0.608102 -0.300904
-0.026910 0.609787 -0.301670
-0.023930 0.612666 -0.302971
-0.020875 0.612854 -0.303073
-0.017826 0.613547 -0.303401
-0.014766 0.613835 -0.303551
-0.011703 0.613478 -0.303414
-0.008646 0.612309 -0.302916
-0.005642 0.606084 -0.300162
-0.002620 0.605961 -0.300134
0.000389 0.605135 -0.299794
0.003421 0.605648 -0.300054
0.006470 0.606574 -0.300499
0.009775 0.614818 -0.304218
0.012863 0.615247 -0.304446
0.015349 0.601765 -0.298457
0.018510 0.604933 -0.299912
0.021622 0.606575 -0.300687
0.024748 0.608146 -0.301432
0.027820 0.608597 -0.301678
0.030956 0.609895 -0.302306
0.034032 0.610195 -0.302488
0.036636 0.604445 -0.299966
0.039722 0.605108 -0.300314
0.042779 0.605338 -0.300470
0.045571 0.602717 -0.299353
0.048426 0.600968 -0.298626
0.052114 0.607352 -0.301546
0.055141 0.607086 -0.301489
0.058274 0.607743 -0.301848
0.062097 0.614083 -0.304757
0.064287 0.606793 -0.301557
0.067115 0.604965 -0.300808
0.070068 0.604180 -0.300529
0.073254 0.605090 -0.301013
0.076286 0.604850 -0.300983
0.079244 0.604103 -0.300728
0.082209 0.603428 -0.300508
0.085419 0.604297 -0.300984
0.088748 0.605797 -0.301747
0.091639 0.604624 -0.301311
0.094524 0.603456 -0.300880
0.098746 0.609702 -0.303787
0.101925 0.609978 -0.304012
0.105532 0.612438 -0.305224
0.109273 0.615426 -0.306677
0.112223 0.614310 -0.306286
0.113504 0.605167 -0.302278
0.116529 0.604651 -0.302162
0.119667 0.604650 -0.302281
0.122445 0.602999 -0.301658
0.125463 0.602442 -0.301533
0.129265 0.605237 -0.302926
0.133011 0.607639 -0.304147
0.136369 0.608312 -0.304590
0.139582 0.608341 -0.304746
0.141687 0.603983 -0.302920
0.144831 0.603765 -0.302971
0.148213 0.604413 -0.303419
0.150783 0.602002 -0.302484
0.155419 0.607122 -0.304971
0.157763 0.603875 -0.303665
0.160291 0.601353 -0.302690
0.163882 0.602515 -0.303395
0.167144 0.602493 -0.303566
0.171151 0.604884 -0.304840
0.174968 0.606537 -0.305785
0.179203 0.609417 -0.307295
0.182668 0.609751 -0.307650
0.184980 0.606493 -0.306369
0.187709 0.604560 -0.305698
0.191006 0.604334 -0.305810
0.194171 0.603688 -0.305736
0.197445 0.603332 -0.305799
0.200959 0.603621 -0.306163
0.204453 0.603802 -0.306482
0.210020 0.609603 -0.309388
0.210411 0.601247 -0.305795
0.212558 0.597759 -0.304440
0.216444 0.598873 -0.305206
0.221997 0.604196 -0.307919
0.227843 0.610061 -0.310891
0.231077 0.609194 -0.310763
0.233234 0.605663 -0.309406
0.235317 0.602019 -0.307997
0.238694 0.601527 -0.308050
0.242254 0.601443 -0.308294
0.245969 0.601687 -0.308693
0.252521 0.608383 -0.312094
0.255948 0.607808 -0.312120
0.258859 0.606072 -0.311606
0.262317 0.605555 -0.311659
0.265543 0.604527 -0.311474
0.268470 0.602864 -0.310991
0.272648 0.603866 -0.311750
0.276253 0.603635 -0.311931
0.278998 0.601630 -0.311277
0.285084 0.606452 -0.313820
0.286399 0.601587 -0.311814
0.287877 0.597168 -0.310006
0.289458 0.593065 -0.308337
0.296255 0.599148 -0.311452
0.302223 0.603524 -0.313758
0.305703 0.603124 -0.313803
0.308472 0.601432 -0.313228
0.312366 0.601888 -0.313652
0.316783 0.603323 -0.314526
0.320211 0.602986 -0.314548
0.320519 0.597136 -0.311943
0.319464 0.589055 -0.308263
0.320790 0.585356 -0.306637
0.330321 0.595982 -0.311782
0.337275 0.602046 -0.314749
0.337103 0.595977 -0.311943
0.339592 0.594560 -0.311322
0.344587 0.597413 -0.312707
0.348596 0.598664 -0.313311
0.352008 0.598992 -0.313457
0.354449 0.597818 -0.312869
-0.374065 0.599925 -0.310988
-0.370726 0.599401 -0.310871
-0.368759 0.601230 -0.311839
-0.366444 0.602591 -0.312568
-0.363101 0.602318 -0.312509
-0.359681 0.601992 -0.312404
-0.356961 0.602943 -0.312879
-0.354593 0.604600 -0.313667
-0.350566 0.603450 -0.313114
-0.347286 0.603674 -0.313188
-0.344478 0.604817 -0.313674
-0.340981 0.604799 -0.313597
-0.337570 0.604999 -0.313604
-0.333971 0.604910 -0.313459
-0.330316 0.604765 -0.313271
-0.326692 0.604721 -0.313116
-0.323431 0.605414 -0.313293
-0.320183 0.606182 -0.313491
-0.316893 0.606918 -0.313661
-0.313413 0.607317 -0.313663
-0.309373 0.606623 -0.313143
-0.306114 0.607514 -0.313356
-0.302497 0.607697 -0.313231
-0.297841 0.605723 -0.312091
-0.294634 0.606760 -0.312352
-0.290612 0.606073 -0.311805
-0.287621 0.607597 -0.312284
-0.284216 0.608239 -0.312349
-0.279525 0.606011 -0.311078
-0.276165 0.606711 -0.311167
-0.272430 0.606546 -0.310854
-0.269152 0.607413 -0.311020
-0.265943 0.608437 -0.311259
-0.261237 0.605878 -0.309840
-0.257604 0.605815 -0.309581
-0.254455 0.606905 -0.309856
-0.251080 0.607425 -0.309870
-0.247307 0.606912 -0.309410
-0.243078 0.605166 -0.308386
-0.239789 0.605787 -0.308458
-0.236226 0.605654 -0.308186
-0.232976 0.606320 -0.308285
-0.229432 0.606155 -0.308008
-0.226026 0.606326 -0.307888
-0.222020 0.604761 -0.306977
-0.218480 0.604438 -0.306641
-0.215322 0.605178 -0.306798
-0.211708 0.604541 -0.306328
-0.208456 0.604936 -0.306335
-0.205259 0.605465 -0.306409
-0.201945 0.605603 -0.306309
-0.198581 0.605543 -0.306123
-0.195149 0.605213 -0.305818
-0.192042 0.605906 -0.305986
-0.189042 0.606939 -0.306313
-0.185767 0.607024 -0.306212
-0.182423 0.606831 -0.305989
-0.179032 0.606416 -0.305670
-0.175853 0.606719 -0.305682
-0.172619 0.606787 -0.305592
-0.169378 0.606790 -0.305477
-0.166179 0.606916 -0.305422
-0.162761 0.606144 -0.304963
-0.159646 0.606517 -0.305029
-0.156579 0.607070 -0.305180
-0.153402 0.607147 -0.305120
-0.150181 0.606997 -0.304960
-0.146988 0.606930 -0.304842
-0.143782 0.606766 -0.304684
-0.140574 0.606548 -0.304505
-0.137234 0.605660 -0.304026
-0.134109 0.605733 -0.303986
-0.131033 0.606023 -0.304048
-0.128322 0.608162 -0.304952
-0.124784 0.606040 -0.303928
-0.121928 0.607447 -0.304506
-0.118848 0.607662 -0.304547
-0.115593 0.606851 -0.304127
-0.112521 0.607046 -0.304165
-0.109464 0.607311 -0.304238
-0.106490 0.608083 -0.304543
-0.103256 0.607194 -0.304100
-0.100083 0.606623 -0.303803
-0.096963 0.606349 -0.303644
-0.093963 0.606896 -0.303858
-0.090827 0.606435 -0.303619
-0.087719 0.606130 -0.303454
-0.084709 0.606565 -0.303625
-0.081694 0.606977 -0.303788
-0.078504 0.605840 -0.303253
-0.075578 0.607026 -0.303771
-0.072531 0.607117 -0.303796
-0.069534 0.607708 -0.304049
-0.066305 0.605845 -0.303196
-0.063311 0.606410 -0.303442
-0.060290 0.606702 -0.303567
-0.057283 0.607184 -0.303779
-0.054250 0.607358 -0.303854
-0.051112 0.605965 -0.303224
-0.048100 0.606347 -0.303396
-0.045087 0.606770 -0.303590
-0.042033 0.606448 -0.303449
-0.038979 0.606044 -0.303273
-0.035975 0.606701 -0.303578
-0.032963 0.607309 -0.303863
-0.029982 0.609015 -0.304645
-0.026996 0.611197 -0.305645
-0.023952 0.611696 -0.305886
-0.020916 0.612956 -0.306473
-0.017861 0.613612 -0.306789
-0.014804 0.614976 -0.307426
-0.011729 0.614331 -0.307157
-0.008668 0.611485 -0.305894
-0.005649 0.607114 -0.303944
-0.002645 0.604821 -0.302935
0.000379 0.604883 -0.302992
0.003425 0.605863 -0.303466
0.006460 0.606082 -0.303597
0.009569 0.608416 -0.304688
0.012399 0.602863 -0.302212
0.015548 0.605910 -0.303629
0.018684 0.608040 -0.304633
0.021787 0.609132 -0.305169
0.024876 0.609770 -0.305501
0.028069 0.611908 -0.306515
0.031246 0.613493 -0.307281
0.034081 0.610207 -0.305842
0.036860 0.606620 -0.304269
0.039726 0.604479 -0.303351
0.042753 0.604348 -0.303347
0.045847 0.604930 -0.303668
0.048687 0.602879 -0.302797
0.051950 0.605042 -0.303840
0.055349 0.608228 -0.305349
0.058583 0.609669 -0.306069
0.062374 0.615608 -0.308833
0.064427 0.607124 -0.305053
0.067149 0.604432 -0.303904
0.070400 0.605830 -0.304614
0.073395 0.605276 -0.304440
0.076629 0.606377 -0.305021
0.079722 0.606446 -0.305135
0.082503 0.604475 -0.304325
0.085833 0.606016 -0.305114
0.089058 0.606801 -0.305563
0.091987 0.605783 -0.305194
0.094695 0.603544 -0.304271
0.098653 0.608294 -0.306535
0.101797 0.608388 -0.306682
0.104955 0.608517 -0.306848
0.109099 0.613615 -0.309283
0.111596 0.610276 -0.307874
0.113898 0.606139 -0.306103
0.116692 0.604482 -0.305466
0.119772 0.604184 -0.305453
0.122945 0.604287 -0.305627
0.125427 0.601330 -0.304405
0.130759 0.610653 -0.308805
0.134114 0.611267 -0.309226
0.137439 0.611696 -0.309566
0.140222 0.609903 -0.308893
0.142391 0.605741 -0.307137
0.145204 0.604187 -0.306579
0.148855 0.605808 -0.307482
0.152636 0.607807 -0.308565
0.155629 0.606844 -0.308291
0.157432 0.601659 -0.306080
0.160460 0.600895 -0.305905
0.164195 0.602528 -0.306838
0.167690 0.603259 -0.307361
0.171320 0.604367 -0.308063
0.174457 0.603801 -0.307999
0.177943 0.604322 -0.308441
0.181725 0.605705 -0.309287
0.185084 0.605703 -0.309498
0.188040 0.604445 -0.309134
0.191298 0.604080 -0.309187
0.194480 0.603464 -0.309128
0.197729 0.603015 -0.309152
0.200989 0.602570 -0.309183
0.205166 0.604636 -0.310385
0.209698 0.607563 -0.311995
0.209760 0.598350 -0.307959
0.211813 0.594642 -0.306486
0.216471 0.597791 -0.308214
0.222301 0.603809 -0.311288
0.227548 0.608131 -0.313580
0.230896 0.607559 -0.313590
0.233251 0.604526 -0.312451
0.236137 0.602826 -0.311938
0.239819 0.603033 -0.312322
0.243408 0.602982 -0.312587
0.246775 0.602382 -0.312598
0.250260 0.602035 -0.312729
0.253987 0.602213 -0.313108
0.257067 0.600919 -0.312794
0.260101 0.599535 -0.312438
0.264033 0.600108 -0.313004
0.268139 0.601015 -0.313728
0.271401 0.600105 -0.313590
0.277208 0.604495 -0.315963
0.280829 0.604282 -0.316150
0.284046 0.603247 -0.315942
0.286646 0.601006 -0.315154
0.286904 0.594196 -0.312182
0.290323 0.593729 -0.312218
0.296577 0.598757 -0.314867
0.302495 0.603044 -0.317156
0.305810 0.602351 -0.317057
0.308973 0.601421 -0.316832
0.312736 0.601650 -0.317148
0.316887 0.602620 -0.317804
0.320254 0.602202 -0.317779
0.322753 0.600293 -0.317023
0.319800 0.588866 -0.311684
0.328883 0.598734 -0.316539
0.333927 0.601486 -0.317964
0.334561 0.596705 -0.315753
0.338086 0.596980 -0.315948
0.341047 0.596375 -0.315701
0.345691 0.598653 -0.316817
0.349133 0.598983 -0.316978
0.351754 0.598043 -0.316507
0.329048 0.556194 -0.296367
-0.369837 0.592528 -0.310924
-0.371004 0.599331 -0.314297
-0.369415 0.601756 -0.315570
-0.366513 0.602108 -0.315837
-0.362996 0.601511 -0.315632
-0.359158 0.600434 -0.315177
-0.357003 0.602312 -0.316109
-0.354261 0.603284 -0.316589
-0.350957 0.603363 -0.316623
-0.347837 0.603842 -0.316828
-0.344794 0.604537 -0.317116
-0.341090 0.604116 -0.316854
-0.337841 0.604580 -0.316995
-0.334835 0.605560 -0.317363
-0.330999 0.605063 -0.317013
-0.327842 0.605885 -0.317273
-0.323644 0.604779 -0.316603
-0.320526 0.605774 -0.316917
-0.316823 0.605680 -0.316701
-0.313310 0.605988 -0.316664
-0.309626 0.605981 -0.316468
-0.305941 0.605989 -0.316269
-0.303037 0.607616 -0.316828
-0.299237 0.607423 -0.316518
-0.295031 0.606371 -0.315797
-0.291883 0.607550 -0.316124
-0.287640 0.606381 -0.315340
-0.284410 0.607394 -0.315581
-0.280528 0.606966 -0.315141
-0.276397 0.605948 -0.314422
-0.272887 0.606296 -0.314345
-0.269255 0.606348 -0.314129
-0.266065 0.607413 -0.314390
-0.262730 0.608132 -0.314489
-0.259004 0.607891 -0.314138
-0.255251 0.607544 -0.313742
-0.251803 0.607908 -0.313680
-0.247859 0.606990 -0.313022
-0.243792 0.605688 -0.312189
-0.240454 0.606206 -0.312210
-0.236821 0.605917 -0.311859
-0.233285 0.605836 -0.311608
-0.229826 0.605922 -0.311440
-0.226119 0.605276 -0.310936
-0.222935 0.606044 -0.311095
-0.219329 0.605578 -0.310684
-0.216050 0.606008 -0.310694
-0.212325 0.605084 -0.310081
-0.208711 0.604419 -0.309594
-0.205774 0.605765 -0.310044
-0.202407 0.605771 -0.309877
-0.199565 0.607400 -0.310466
-0.195366 0.604649 -0.309034
-0.192505 0.606169 -0.309582
-0.189206 0.606227 -0.309460
-0.186000 0.606567 -0.309472
-0.182694 0.606524 -0.309312
-0.179252 0.605956 -0.308915
-0.175987 0.605965 -0.308788
-0.172997 0.606947 -0.309115
-0.169743 0.606934 -0.308988
-0.166378 0.606456 -0.308650
-0.163240 0.606806 -0.308699
-0.159878 0.606235 -0.308328
-0.156784 0.606702 -0.308439
-0.153514 0.606408 -0.308204
-0.150456 0.606977 -0.308370
-0.147248 0.606874 -0.308231
-0.144062 0.606832 -0.308124
-0.140847 0.606615 -0.307941
-0.137725 0.606792 -0.307942
-0.134355 0.605741 -0.307383
-0.131483 0.607077 -0.307923
-0.128002 0.605343 -0.307059
-0.125237 0.607238 -0.307862
-0.122140 0.607412 -0.307879
-0.118954 0.607071 -0.307664
-0.115800 0.606860 -0.307511
-0.112580 0.606219 -0.307165
-0.109669 0.607383 -0.307649
-0.106582 0.607491 -0.307651
-0.103492 0.607550 -0.307635
-0.100219 0.606365 -0.307051
-0.097096 0.606102 -0.306892
-0.094021 0.606139 -0.306875
-0.091053 0.606950 -0.307213
-0.087821 0.605745 -0.306632
-0.084877 0.606748 -0.307063
-0.081796 0.606645 -0.306991
-0.078624 0.605710 -0.306541
-0.075620 0.606210 -0.306750
-0.072695 0.607507 -0.307326
-0.069565 0.606816 -0.306994
-0.066410 0.605756 -0.306496
-0.063414 0.606353 -0.306758
-0.060405 0.606838 -0.306971
-0.057324 0.606449 -0.306787
-0.054210 0.605526 -0.306360
-0.051256 0.606799 -0.306940
-0.048275 0.607815 -0.307405
-0.045182 0.607063 -0.307062
-0.042114 0.606593 -0.306851
-0.039085 0.606835 -0.306967
-0.035983 0.605399 -0.306318
-0.033067 0.608525 -0.307758
-0.030112 0.611401 -0.309085
-0.027049 0.611351 -0.309075
-0.023954 0.609778 -0.308370
-0.020890 0.609127 -0.308089
-0.017867 0.611268 -0.309088
-0.014811 0.611753 -0.309330
-0.011750 0.612049 -0.309488
-0.008693 0.609953 -0.308553
-0.005666 0.606911 -0.307187
-0.002638 0.606177 -0.306879
0.000382 0.605345 -0.306527
0.003416 0.605527 -0.306642
0.006481 0.606659 -0.307194
0.009649 0.610522 -0.308998
0.012637 0.608686 -0.308194
0.015687 0.608670 -0.308226
0.018855 0.611059 -0.309361
0.021974 0.612070 -0.309867
0.025005 0.611384 -0.309598
0.028142 0.612457 -0.310137
0.031288 0.613467 -0.310649
0.034324 0.612836 -0.310410
0.036906 0.606523 -0.307568
0.039861 0.605384 -0.307100
0.042881 0.605078 -0.307016
0.045840 0.604131 -0.306640
0.048895 0.604232 -0.306748
0.052028 0.605038 -0.307181
0.056052 0.613867 -0.311301
0.059516 0.617011 -0.312814
0.062568 0.616426 -0.312616
0.064439 0.606422 -0.308092
0.067415 0.605662 -0.307818
0.070364 0.604742 -0.307473
0.073595 0.605866 -0.308070
0.076768 0.606486 -0.308438
0.079690 0.605378 -0.308014
0.082690 0.604812 -0.307841
0.086272 0.607871 -0.309341
0.089179 0.606649 -0.308873
0.091499 0.602048 -0.306850
0.095382 0.606541 -0.309021
0.098239 0.605106 -0.308462
0.100954 0.602956 -0.307577
0.104557 0.605521 -0.308870
0.108476 0.609513 -0.310826
0.111583 0.609267 -0.310830
0.114057 0.605955 -0.309420
0.116840 0.604222 -0.308742
0.119788 0.603295 -0.308441
0.123029 0.603692 -0.308755
0.125597 0.601098 -0.307688
0.130753 0.609632 -0.311780
0.134316 0.611105 -0.312606
0.137234 0.609842 -0.312169
0.140633 0.610525 -0.312638
0.144780 0.614064 -0.314438
0.146528 0.608232 -0.311891
0.149849 0.608501 -0.312181
0.152818 0.607428 -0.311852
0.155500 0.605320 -0.311045
0.157923 0.602343 -0.309837
0.160931 0.601469 -0.309612
0.164070 0.601030 -0.309594
0.167989 0.603177 -0.310787
0.171481 0.603804 -0.311277
0.173561 0.599817 -0.309616
0.176984 0.600181 -0.309992
0.181296 0.603256 -0.311642
0.184515 0.602842 -0.311666
0.187981 0.603140 -0.312028
0.191874 0.604649 -0.312964
0.195015 0.603878 -0.312836
0.197997 0.602635 -0.312490
0.201438 0.602681 -0.312755
0.206070 0.605979 -0.314556
0.208203 0.602321 -0.313088
0.210562 0.599341 -0.311941
0.213405 0.597687 -0.311422
0.217596 0.599548 -0.312567
0.222406 0.602895 -0.314422
0.226927 0.605371 -0.315872
0.231274 0.607303 -0.317070
0.233161 0.603114 -0.315371
0.236359 0.602173 -0.315213
0.239786 0.601766 -0.315312
0.243974 0.603119 -0.316250
0.247309 0.602430 -0.316220
0.250887 0.602282 -0.316449
0.254464 0.602108 -0.316666
0.257603 0.600939 -0.316409
0.261917 0.602345 -0.317383
0.265601 0.602336 -0.317679
0.268800 0.601275 -0.317470
0.272207 0.600665 -0.317474
0.277627 0.604236 -0.319482
0.280021 0.601510 -0.318462
0.282433 0.598887 -0.317484
0.284812 0.596267 -0.316498
0.288348 0.595998 -0.316636
0.291639 0.595270 -0.316544
0.298911 0.602240 -0.320161
0.303771 0.604479 -0.321485
0.306072 0.601876 -0.320456
0.309439 0.601349 -0.320417
0.313504 0.602152 -0.321008
0.316778 0.601539 -0.320898
0.319430 0.599867 -0.320257
0.323596 0.600977 -0.320948
0.326440 0.599788 -0.320505
0.329060 0.598292 -0.319894
0.333534 0.600086 -0.320862
0.336519 0.599369 -0.320589
0.337232 0.594888 -0.318465
0.342931 0.598919 -0.320460
0.346354 0.599172 -0.320595
0.349868 0.599642 -0.320815
0.352456 0.598671 -0.320313
0.348217 0.586752 -0.314468
-0.372323 0.596108 -0.316055
-0.371563 0.599738 -0.317952
-0.369362 0.601122 -0.318750
-0.366496 0.601500 -0.319042
-0.361799 0.598875 -0.317866
-0.359114 0.599711 -0.318338
-0.356419 0.600623 -0.318825
-0.354114 0.602306 -0.319663
-0.351237 0.603094 -0.320049
-0.348271 0.603814 -0.320381
-0.344615 0.603383 -0.320139
-0.340653 0.602460 -0.319640
-0.338903 0.605615 -0.321088
-0.335891 0.606570 -0.321457
-0.332182 0.606299 -0.321218
-0.328645 0.606395 -0.321139
-0.325305 0.606917 -0.321250
-0.320592 0.604837 -0.320095
-0.317451 0.605814 -0.320397
-0.313411 0.605067 -0.319857
-0.309476 0.604536 -0.319411
-0.306352 0.605654 -0.319747
-0.302920 0.606182 -0.319789
-0.299360 0.606467 -0.319708
-0.295775 0.606709 -0.319599
-0.292379 0.607360 -0.319680
-0.288145 0.606213 -0.318897
-0.284617 0.606571 -0.318829
-0.281277 0.607342 -0.318956
-0.277154 0.606357 -0.318243
-0.273347 0.606042 -0.317849
-0.269676 0.606012 -0.317590
-0.266202 0.606416 -0.317538
-0.262881 0.607165 -0.317651
-0.259237 0.607125 -0.317390
-0.255545 0.606933 -0.317060
-0.252095 0.607300 -0.316997
-0.248895 0.608272 -0.317223
-0.243977 0.604829 -0.315363
-0.240980 0.606242 -0.315805
-0.237632 0.606732 -0.315813
-0.233658 0.605511 -0.315018
-0.230211 0.605645 -0.314867
-0.226609 0.605312 -0.314501
-0.223181 0.605416 -0.314345
-0.219948 0.606035 -0.314437
-0.216491 0.605980 -0.314215
-0.213163 0.606258 -0.314156
-0.209219 0.604646 -0.313213
-0.205910 0.604881 -0.313144
-0.203170 0.606852 -0.313893
-0.199907 0.607189 -0.313881
-0.196423 0.606782 -0.313525
-0.192660 0.605395 -0.312715
-0.189343 0.605411 -0.312568
-0.186077 0.605554 -0.312484
-0.183112 0.606712 -0.312880
-0.180189 0.608016 -0.313349
-0.176669 0.607174 -0.312820
-0.173114 0.606127 -0.312200
-0.169662 0.605380 -0.311726
-0.166903 0.607232 -0.312468
-0.163642 0.607146 -0.312310
-0.160166 0.606156 -0.311736
-0.156720 0.605207 -0.311186
-0.153769 0.606251 -0.311568
-0.150531 0.606075 -0.311386
-0.147523 0.606864 -0.311658
-0.144433 0.607282 -0.311761
-0.141351 0.607721 -0.311877
-0.137848 0.606165 -0.311069
-0.134763 0.606514 -0.311152
-0.131607 0.606489 -0.311064
-0.128482 0.606595 -0.311040
-0.125362 0.606695 -0.311017
-0.122244 0.606774 -0.310989
-0.119125 0.606828 -0.310951
-0.115868 0.606061 -0.310537
-0.112842 0.606569 -0.310717
-0.109742 0.606635 -0.310695
-0.106671 0.606856 -0.310748
-0.103615 0.607156 -0.310841
-0.100505 0.607087 -0.310765
-0.097264 0.606080 -0.310258
-0.094161 0.605953 -0.310162
-0.091109 0.606176 -0.310230
-0.088142 0.607037 -0.310597
-0.084949 0.606129 -0.310147
-0.081927 0.606549 -0.310315
-0.078808 0.606123 -0.310093
-0.075849 0.607105 -0.310527
-0.072775 0.607057 -0.310485
-0.069558 0.605513 -0.309753
-0.066483 0.605301 -0.309641
-0.063477 0.605817 -0.309867
-0.060489 0.606596 -0.310218
-0.057373 0.605797 -0.309840
-0.054244 0.604693 -0.309323
-0.051319 0.606401 -0.310111
-0.048303 0.606929 -0.310354
-0.045237 0.606638 -0.310220
-0.042182 0.606484 -0.310151
-0.039098 0.605662 -0.309776
-0.036047 0.605383 -0.309653
-0.033113 0.608157 -0.310947
-0.030209 0.612704 -0.313063
-0.027103 0.611507 -0.312522
-0.023961 0.608103 -0.310960
-0.020917 0.608338 -0.311085
-0.017870 0.608592 -0.311222
-0.014829 0.609998 -0.311893
-0.011769 0.608945 -0.311428
-0.008717 0.608654 -0.311317
-0.005677 0.607307 -0.310720
-0.002652 0.605849 -0.310072
0.000378 0.605457 -0.309920
0.003408 0.605192 -0.309829
0.006467 0.606008 -0.310241
0.009682 0.611236 -0.312700
0.012725 0.610590 -0.312439
0.015701 0.608551 -0.311533
0.018822 0.609896 -0.312198
0.021935 0.610794 -0.312659
0.025004 0.610794 -0.312704
0.028011 0.609788 -0.312285
0.031105 0.610173 -0.312514
0.034182 0.610246 -0.312600
0.036850 0.605136 -0.310282
0.039921 0.605385 -0.310453
0.042945 0.605070 -0.310365
0.045937 0.604417 -0.310122
0.048920 0.603727 -0.309864
0.052242 0.606315 -0.311131
0.055165 0.604999 -0.310587
0.059101 0.612591 -0.314187
0.062323 0.613563 -0.314712
0.064328 0.604711 -0.310669
0.067459 0.605173 -0.310961
0.070419 0.604308 -0.310639
0.073758 0.606174 -0.311590
0.076561 0.604209 -0.310760
0.079532 0.603460 -0.310499
0.082560 0.603106 -0.310425
0.086127 0.606083 -0.311906
0.089562 0.608051 -0.312921
0.091483 0.601057 -0.309759
0.095344 0.605412 -0.311894
0.098160 0.603747 -0.311223
0.101105 0.602837 -0.310907
0.104354 0.603524 -0.311341
0.108755 0.609972 -0.314471
0.111723 0.608992 -0.314134
0.114158 0.605475 -0.312613
0.117154 0.604722 -0.312388
0.120216 0.604277 -0.312310
0.123077 0.602920 -0.311809
0.126325 0.603280 -0.312117
0.130169 0.606132 -0.313597
0.132460 0.602350 -0.311970
0.135254 0.600747 -0.311368
0.139389 0.604524 -0.313297
0.142273 0.603222 -0.312845
0.146272 0.606201 -0.314410
0.149430 0.605873 -0.314425
0.152390 0.604788 -0.314088
0.155457 0.604097 -0.313941
0.158912 0.604760 -0.314437
0.162497 0.605811 -0.315121
0.167617 0.611999 -0.318236
0.170370 0.610022 -0.317503
0.171911 0.604104 -0.314909
0.173357 0.598053 -0.312255
0.177179 0.599680 -0.313236
0.182529 0.605954 -0.316426
0.185412 0.604443 -0.315934
0.188656 0.604022 -0.315964
0.192025 0.603942 -0.316160
0.195212 0.603292 -0.316091
0.198311 0.602371 -0.315897
0.201837 0.602634 -0.316272
0.205604 0.603509 -0.316944
0.209691 0.605188 -0.318006
0.212642 0.603729 -0.317575
0.215497 0.602021 -0.317029
0.219307 0.602801 -0.317677
0.222639 0.602294 -0.317713
0.227716 0.606152 -0.319847
0.231203 0.605918 -0.320023
0.233350 0.602373 -0.318614
0.236409 0.601094 -0.318293
0.240677 0.602683 -0.319355
0.244401 0.602920 -0.319770
0.248071 0.602992 -0.320108
0.251543 0.602582 -0.320215
0.254979 0.602075 -0.320275
0.258675 0.602130 -0.320608
0.262124 0.601624 -0.320668
0.265893 0.601799 -0.321057
0.269732 0.602102 -0.321506
0.273519 0.602276 -0.321890
0.278048 0.603973 -0.323011
0.278979 0.598267 -0.320525
0.279772 0.592426 -0.317961
0.284051 0.593683 -0.318848
0.288668 0.595581 -0.320042
0.293224 0.597329 -0.321154
0.297766 0.599027 -0.322233
0.304318 0.604525 -0.325163
0.306875 0.602423 -0.324360
0.310268 0.601956 -0.324344
0.313865 0.601910 -0.324519
0.316770 0.600653 -0.324083
0.320122 0.600271 -0.324059
0.323327 0.599690 -0.323919
0.326571 0.599246 -0.323828
0.329134 0.597683 -0.323167
0.331619 0.596081 -0.322466
0.335987 0.597790 -0.323373
0.340605 0.599959 -0.324486
0.344956 0.601710 -0.325373
0.346058 0.598112 -0.323604
0.349340 0.598240 -0.323649
0.351882 0.597236 -0.323114
0.359099 0.603882 -0.326322
-0.374097 0.598541 -0.320670
-0.371890 0.599782 -0.321436
-0.368635 0.599391 -0.321388
-0.365812 0.599795 -0.321706
-0.363313 0.600834 -0.322313
-0.359114 0.599080 -0.321536
-0.356562 0.600200 -0.322141
-0.354416 0.602123 -0.323117
-0.351613 0.603008 -0.323564
-0.348467 0.603378 -0.323740
-0.345294 0.603779 -0.323910
-0.342455 0.604858 -0.324391
-0.339405 0.605638 -0.324707
-0.335916 0.605686 -0.324647
-0.331987 0.604973 -0.324197
-0.328300 0.604750 -0.323970
-0.325502 0.606261 -0.324571
-0.321929 0.606356 -0.324467
-0.318251 0.606287 -0.324269
-0.314419 0.605942 -0.323924
-0.310595 0.605633 -0.323585
-0.306557 0.604903 -0.323031
-0.303154 0.605472 -0.323098
-0.299545 0.605637 -0.322961
-0.296013 0.605977 -0.322901
-0.292752 0.606903 -0.323119
-0.289761 0.608433 -0.323622
-0.285274 0.606727 -0.322556
-0.281877 0.607377 -0.322626
-0.278121 0.607226 -0.322307
-0.274183 0.606634 -0.321774
-0.270215 0.605936 -0.321189
-0.266644 0.606121 -0.321030
-0.263238 0.606676 -0.321050
-0.259439 0.606272 -0.320609
-0.255552 0.605604 -0.320044
-0.252229 0.606285 -0.320129
-0.249047 0.607304 -0.320379
-0.244972 0.606031 -0.319533
-0.241311 0.605754 -0.319168
-0.238256 0.607030 -0.319549
-0.234378 0.606095 -0.318878
-0.230776 0.605840 -0.318536
-0.227014 0.605092 -0.317963
-0.223570 0.605170 -0.317790
-0.220473 0.606201 -0.318075
-0.217175 0.606635 -0.318080
-0.213530 0.606014 -0.317588
-0.209662 0.604656 -0.316751
-0.206485 0.605322 -0.316882
-0.203343 0.606075 -0.317059
-0.199999 0.606168 -0.316927
-0.196558 0.605909 -0.316633
-0.192967 0.605103 -0.316085
-0.189522 0.604714 -0.315740
-0.186336 0.605148 -0.315791
-0.183087 0.605336 -0.315729
-0.180070 0.606311 -0.316045
-0.176602 0.605655 -0.315594
-0.173130 0.604913 -0.315107
-0.169961 0.605243 -0.315132
-0.166807 0.605598 -0.315173
-0.163976 0.607196 -0.315806
-0.160204 0.605055 -0.314678
-0.156941 0.604864 -0.314476
-0.153831 0.605266 -0.314557
-0.150983 0.606770 -0.315162
-0.147412 0.605140 -0.314294
-0.144636 0.606961 -0.315056
-0.141464 0.607009 -0.314987
-0.138072 0.605992 -0.314420
-0.134859 0.605753 -0.314224
-0.131793 0.606193 -0.314351
-0.128661 0.606285 -0.314318
-0.125436 0.605867 -0.314049
-0.122440 0.606615 -0.314332
-0.119352 0.606870 -0.314386
-0.116108 0.606215 -0.314017
-0.112966 0.606093 -0.313901
-0.109907 0.606427 -0.314002
-0.106773 0.606286 -0.313884
-0.103713 0.606584 -0.313975
-0.100671 0.606986 -0.314118
-0.097499 0.606494 -0.313844
-0.094502 0.607192 -0.314131
-0.091196 0.605613 -0.313354
-0.088092 0.605437 -0.313237
-0.085108 0.606190 -0.313559
-0.082034 0.606228 -0.313547
-0.078923 0.605911 -0.313373
-0.075958 0.606877 -0.313802
-0.072929 0.607300 -0.313980
-0.069864 0.607370 -0.313994
-0.066584 0.605127 -0.312926
-0.063603 0.605971 -0.313308
-0.060608 0.606741 -0.313658
-0.057429 0.605223 -0.312937
-0.054410 0.605651 -0.313131
-0.051358 0.605640 -0.313121
-0.048318 0.605802 -0.313195
-0.045272 0.605845 -0.313215
-0.042214 0.605667 -0.313133
-0.039182 0.605952 -0.313271
-0.036046 0.603838 -0.312286
-0.033339 0.612595 -0.316399
-0.030214 0.611138 -0.315726
-0.027065 0.608248 -0.314384
-0.023971 0.606502 -0.313580
-0.020925 0.606496 -0.313594
-0.017882 0.606714 -0.313714
-0.014845 0.608040 -0.314356
-0.011794 0.608638 -0.314659
-0.008742 0.607265 -0.314040
-0.005701 0.606254 -0.313592
-0.002661 0.605953 -0.313479
0.000375 0.605546 -0.313318
0.003420 0.605701 -0.313423
0.006470 0.605941 -0.313570
0.009514 0.605933 -0.313602
0.012556 0.605844 -0.313599
0.015586 0.605471 -0.313464
0.018595 0.604732 -0.313159
0.021617 0.604339 -0.313019
0.024660 0.604361 -0.313075
0.027767 0.605342 -0.313585
0.030801 0.605118 -0.313530
0.033776 0.604096 -0.313103
0.036905 0.605122 -0.313640
0.040243 0.608481 -0.315276
0.043230 0.607512 -0.314880
0.046231 0.606771 -0.314594
0.049096 0.604722 -0.313695
0.052181 0.604939 -0.313864
0.055719 0.609237 -0.315955
0.059104 0.611795 -0.317231
0.062250 0.612122 -0.317460
0.064409 0.604527 -0.313961
0.067478 0.604472 -0.314015
0.070781 0.606121 -0.314874
0.073784 0.605493 -0.314663
0.076655 0.603978 -0.314036
0.079434 0.601930 -0.313161
0.082521 0.601966 -0.313272
0.086188 0.605555 -0.315061
0.090521 0.612889 -0.318623
0.093787 0.613541 -0.319036
0.095491 0.605314 -0.315257
0.100517 0.615739 -0.320293
0.101057 0.601638 -0.313741
0.104366 0.602634 -0.314328
0.108005 0.605216 -0.315670
0.112383 0.611261 -0.318655
0.114080 0.604121 -0.315402
0.117271 0.604280 -0.315609
0.120435 0.604281 -0.315744
0.123497 0.603788 -0.315650
0.126526 0.603146 -0.315488
0.129541 0.602434 -0.315297
0.132609 0.601942 -0.315214
0.135758 0.601764 -0.315285
0.139448 0.603711 -0.316370
0.142265 0.602139 -0.315787
0.146208 0.604891 -0.317266
0.149402 0.604693 -0.317346
0.152371 0.603639 -0.317022
0.155465 0.603039 -0.316919
0.159517 0.605798 -0.318424
0.164114 0.610295 -0.320766
0.167437 0.610263 -0.320952
0.170204 0.608339 -0.320237
0.172697 0.605548 -0.319112
0.176030 0.605511 -0.319309
0.179086 0.604563 -0.319074
0.183187 0.606841 -0.320392
0.186160 0.605564 -0.320010
0.189010 0.603918 -0.319454
0.192146 0.603128 -0.319315
0.195291 0.602345 -0.319184
0.198521 0.601788 -0.319166
0.201776 0.601278 -0.319176
0.206258 0.604121 -0.320809
0.210870 0.607185 -0.322557
0.213595 0.605071 -0.321808
0.215975 0.602074 -0.320635
0.220082 0.603598 -0.321654
0.224066 0.604721 -0.322485
0.227966 0.605562 -0.323184
0.232158 0.607058 -0.324206
0.233155 0.600683 -0.321405
0.237282 0.601980 -0.322336
0.240429 0.600881 -0.322103
0.244973 0.603042 -0.323463
0.248507 0.602786 -0.323646
0.251846 0.602066 -0.323603
0.255598 0.602263 -0.324010
0.258944 0.601534 -0.323962
0.263010 0.602373 -0.324682
0.267581 0.604257 -0.325915
0.270024 0.601563 -0.324897
0.273502 0.601094 -0.324967
0.278477 0.603725 -0.326560
0.279193 0.597595 -0.323830
0.282423 0.596687 -0.323665
0.285167 0.594840 -0.323028
0.291242 0.599596 -0.325645
0.294551 0.598881 -0.325550
0.299641 0.601622 -0.327154
0.303404 0.601806 -0.327481
0.307158 0.602000 -0.327799
0.310735 0.601897 -0.327956
0.313980 0.601227 -0.327815
0.317021 0.600246 -0.327502
0.320019 0.599260 -0.327169
0.322756 0.597884 -0.326623
0.325490 0.596588 -0.326097
0.327435 0.594007 -0.324910
0.330597 0.593636 -0.324803
0.337520 0.599751 -0.327906
0.341659 0.601118 -0.328623
0.344649 0.600608 -0.328383
0.347365 0.599730 -0.327937
0.347460 0.594635 -0.325369
0.348041 0.590497 -0.323257
0.364570 0.612264 -0.334024
-0.374933 0.599460 -0.324566
-0.370880 0.597649 -0.323848
-0.368009 0.597846 -0.324098
-0.365865 0.599339 -0.324968
-0.363101 0.599898 -0.325355
-0.359692 0.599450 -0.325224
-0.356952 0.600218 -0.325673
-0.354432 0.601463 -0.326335
-0.351625 0.602302 -0.326776
-0.348599 0.602847 -0.327050
-0.345654 0.603618 -0.327415
-0.342048 0.603284 -0.327214
-0.339255 0.604486 -0.327752
-0.336119 0.605145 -0.328001
-0.331854 0.603775 -0.327231
-0.328350 0.603860 -0.327161
-0.325044 0.604372 -0.327284
-0.322353 0.606123 -0.328003
-0.318673 0.606027 -0.327797
-0.314625 0.605238 -0.327235
-0.311047 0.605396 -0.327127
-0.307690 0.606028 -0.327240
-0.304104 0.606226 -0.327131
-0.299973 0.605314 -0.326466
-0.296268 0.605281 -0.326226
-0.292918 0.606005 -0.326349
-0.289632 0.606882 -0.326542
-0.286480 0.608072 -0.326883
-0.282180 0.606749 -0.325989
-0.278484 0.606727 -0.325729
-0.274863 0.606857 -0.325543
-0.270937 0.606271 -0.325005
-0.267165 0.606000 -0.324621
-0.263567 0.606112 -0.324424
-0.260277 0.606935 -0.324574
-0.255952 0.605229 -0.323495
-0.252575 0.605784 -0.323518
-0.248941 0.605675 -0.323221
-0.245724 0.606588 -0.323422
-0.241873 0.605851 -0.322827
-0.238424 0.606105 -0.322716
-0.235090 0.606639 -0.322744
-0.231163 0.605532 -0.321982
-0.227611 0.605386 -0.321690
-0.224038 0.605129 -0.321350
-0.220882 0.606013 -0.321564
-0.217843 0.607221 -0.321939
-0.213382 0.604233 -0.320296
-0.210610 0.606161 -0.321028
-0.206728 0.604727 -0.320146
-0.203592 0.605512 -0.320336
-0.200313 0.605832 -0.320309
-0.196719 0.605102 -0.319781
-0.193398 0.605198 -0.319656
-0.190234 0.605777 -0.319768
-0.186603 0.604747 -0.319113
-0.183524 0.605546 -0.319340
-0.179711 0.603741 -0.318325
-0.176719 0.604781 -0.318677
-0.173443 0.604776 -0.318534
-0.170013 0.604151 -0.318099
-0.167317 0.606273 -0.318982
-0.164026 0.606112 -0.318778
-0.160920 0.606647 -0.318911
-0.157077 0.604155 -0.317605
-0.154297 0.605950 -0.318349
-0.151320 0.606951 -0.318717
-0.148046 0.606659 -0.318474
-0.144728 0.606118 -0.318116
-0.141463 0.605758 -0.317849
-0.138115 0.604951 -0.317373
-0.135020 0.605289 -0.317446
-0.132044 0.606198 -0.317796
-0.128858 0.606050 -0.317646
-0.125722 0.606123 -0.317604
-0.122557 0.606014 -0.317480
-0.119501 0.606460 -0.317623
-0.116425 0.606791 -0.317716
-0.113191 0.606185 -0.317366
-0.110084 0.606270 -0.317348
-0.106958 0.606216 -0.317268
-0.103804 0.605943 -0.317086
-0.100718 0.606077 -0.317101
-0.097685 0.606551 -0.317281
-0.094583 0.606544 -0.317235
-0.091363 0.605624 -0.316759
-0.088174 0.604844 -0.316352
-0.085149 0.605288 -0.316529
-0.082094 0.605487 -0.316593
-0.079035 0.605651 -0.316643
-0.075925 0.605320 -0.316460
-0.073025 0.606963 -0.317217
-0.069936 0.606834 -0.317135
-0.066708 0.605175 -0.316331
-0.063703 0.605818 -0.316621
-0.060694 0.606469 -0.316917
-0.057624 0.606395 -0.316871
-0.054531 0.605971 -0.316662
-0.051453 0.605683 -0.316520
-0.048360 0.605090 -0.316236
-0.045310 0.605096 -0.316237
-0.042290 0.605653 -0.316502
-0.039284 0.606591 -0.316950
-0.036232 0.606653 -0.316985
-0.033257 0.608761 -0.317993
-0.030068 0.604935 -0.316188
-0.027002 0.604111 -0.315809
-0.023955 0.603772 -0.315662
-0.020960 0.606201 -0.316831
-0.017900 0.605242 -0.316394
-0.014862 0.606112 -0.316827
-0.011815 0.606784 -0.317168
-0.008758 0.608787 -0.318143
-0.005721 0.605708 -0.316708
-0.002683 0.605044 -0.316421
0.000360 0.605008 -0.316435
0.003427 0.606005 -0.316940
0.006462 0.605505 -0.316738
0.009506 0.605387 -0.316719
0.012575 0.605941 -0.317020
0.015571 0.604660 -0.316453
0.018595 0.604201 -0.316278
0.021617 0.603779 -0.316123
0.024677 0.604036 -0.316292
0.027796 0.605156 -0.316874
0.030757 0.603811 -0.316287
0.033730 0.602781 -0.315851
0.037469 0.611506 -0.320056
0.040462 0.610335 -0.319558
0.043622 0.611124 -0.319996
0.046712 0.611072 -0.320035
0.049556 0.608537 -0.318895
0.052378 0.606019 -0.317765
0.056372 0.614341 -0.321799
0.059594 0.615213 -0.322289
0.063130 0.618582 -0.323972
0.064515 0.604520 -0.317351
0.067566 0.604288 -0.317322
0.070735 0.604914 -0.317706
0.073891 0.605368 -0.318009
0.076919 0.604893 -0.317873
0.079929 0.604308 -0.317688
0.083043 0.604391 -0.317823
0.087764 0.614376 -0.322692
0.090542 0.612077 -0.321698
0.093151 0.608898 -0.320286
0.097291 0.614514 -0.323081
0.099897 0.611371 -0.321692
0.100544 0.597949 -0.315388
0.104321 0.601433 -0.317174
0.108457 0.606513 -0.319730
0.111976 0.608265 -0.320698
0.114061 0.603029 -0.318320
0.117370 0.603740 -0.318795
0.120657 0.604278 -0.319193
0.123621 0.603320 -0.318876
0.126661 0.602702 -0.318726
0.129753 0.602300 -0.318684
0.132908 0.602140 -0.318763
0.136436 0.603467 -0.319561
0.139927 0.604555 -0.320250
0.143193 0.604681 -0.320480
0.146334 0.604290 -0.320466
0.149458 0.603814 -0.320416
0.152411 0.602693 -0.320059
0.155435 0.601830 -0.319831
0.158551 0.601285 -0.319760
0.164267 0.609690 -0.324023
0.167455 0.609185 -0.323984
0.170466 0.608064 -0.323653
0.174087 0.608938 -0.324292
0.177435 0.608858 -0.324476
0.180551 0.608012 -0.324292
0.183140 0.605524 -0.323316
0.185917 0.603647 -0.322641
0.189206 0.603325 -0.322725
0.192498 0.602977 -0.322803
0.196145 0.603624 -0.323370
0.198802 0.601393 -0.322540
0.201979 0.600645 -0.322437
0.207159 0.605390 -0.325022
0.211186 0.606819 -0.325995
0.214065 0.605102 -0.325435
0.216913 0.603317 -0.324843
0.219870 0.601825 -0.324399
0.223032 0.600862 -0.324218
0.228330 0.605241 -0.326665
0.229939 0.600341 -0.324555
0.233894 0.601258 -0.325309
0.237271 0.600727 -0.325352
0.241557 0.602325 -0.326449
0.245087 0.602083 -0.326641
0.248473 0.601489 -0.326659
0.252787 0.602986 -0.327713
0.256251 0.602516 -0.327795
0.259590 0.601762 -0.327734
0.263788 0.602876 -0.328599
0.267591 0.603096 -0.329020
0.271213 0.602917 -0.329238
0.274137 0.601273 -0.328723
0.277171 0.599893 -0.328332
0.285097 0.608510 -0.332925
0.288016 0.606847 -0.332382
0.289049 0.601487 -0.329980
0.291236 0.598534 -0.328769
0.297434 0.603447 -0.331486
0.299866 0.601051 -0.330530
0.303907 0.601784 -0.331129
0.307307 0.601333 -0.331120
0.311302 0.602031 -0.331673
0.314366 0.601051 -0.331366
0.317133 0.599602 -0.330805
0.320042 0.598487 -0.330393
0.323240 0.597963 -0.330260
0.324666 0.594400 -0.328575
0.325770 0.590412 -0.326654
0.332114 0.595577 -0.329325
0.339492 0.602468 -0.332847
0.342079 0.601219 -0.332242
0.344629 0.600004 -0.331633
0.347320 0.599120 -0.331168
0.349489 0.597469 -0.330295
0.348672 0.591064 -0.327003
0.342419 0.576070 -0.319363
-0.373836 0.597251 -0.326913
-0.370537 0.596632 -0.326790
-0.368004 0.597349 -0.327313
-0.365738 0.598604 -0.328085
-0.362724 0.598705 -0.328258
-0.359660 0.598801 -0.328408
-0.357222 0.600049 -0.329113
-0.355157 0.602044 -0.330169
-0.351704 0.601731 -0.330049
-0.348959 0.602734 -0.330567
-0.344786 0.601287 -0.329837
-0.341773 0.601966 -0.330150
-0.339503 0.604074 -0.331157
-0.336434 0.604823 -0.331465
-0.332540 0.604114 -0.331024
-0.328915 0.603951 -0.330838
-0.325880 0.604955 -0.331218
-0.322715 0.605776 -0.331489
-0.318780 0.605161 -0.331028
-0.315425 0.605710 -0.331133
-0.311730 0.605626 -0.330909
-0.308270 0.606037 -0.330920
-0.304742 0.606343 -0.330867
-0.300458 0.605109 -0.330039
-0.296799 0.605163 -0.329842
-0.292995 0.604916 -0.329489
-0.289948 0.606290 -0.329934
-0.286753 0.607377 -0.330230
-0.283209 0.607715 -0.330149
-0.278868 0.606269 -0.329183
-0.275251 0.606409 -0.328999
-0.271570 0.606386 -0.328733
-0.267887 0.606337 -0.328453
-0.264456 0.606860 -0.328456
-0.260735 0.606673 -0.328108
-0.256661 0.605590 -0.327321
-0.252417 0.604021 -0.326298
-0.249497 0.605695 -0.326872
-0.245985 0.605877 -0.326715
-0.242227 0.605390 -0.326233
-0.238869 0.605897 -0.326241
-0.235367 0.605997 -0.326054
-0.231788 0.605851 -0.325751
-0.228304 0.605921 -0.325558
-0.225311 0.607324 -0.326020
-0.221102 0.605269 -0.324798
-0.217749 0.605580 -0.324737
-0.214277 0.605505 -0.324492
-0.210377 0.604104 -0.323606
-0.207473 0.605640 -0.324156
-0.203809 0.604833 -0.323571
-0.200337 0.604558 -0.323250
-0.197143 0.605122 -0.323341
-0.193860 0.605373 -0.323286
-0.190203 0.604341 -0.322613
-0.186916 0.604484 -0.322517
-0.183662 0.604703 -0.322461
-0.180797 0.606255 -0.323057
-0.177660 0.606851 -0.323195
-0.174321 0.606690 -0.322970
-0.170784 0.605736 -0.322367
-0.167551 0.605863 -0.322292
-0.164341 0.606047 -0.322249
-0.160979 0.605591 -0.321902
-0.158050 0.606839 -0.322383
-0.154803 0.606779 -0.322236
-0.151612 0.606914 -0.322188
-0.148171 0.605927 -0.321603
-0.144887 0.605557 -0.321321
-0.141817 0.606112 -0.321488
-0.138421 0.605128 -0.320919
-0.135376 0.605745 -0.321124
-0.132479 0.607086 -0.321683
-0.129057 0.605805 -0.320983
-0.125859 0.605588 -0.320798
-0.122674 0.605390 -0.320628
-0.119556 0.605517 -0.320616
-0.116503 0.605987 -0.320774
-0.113574 0.607175 -0.321281
-0.110405 0.606962 -0.321117
-0.107110 0.605914 -0.320555
-0.104052 0.606297 -0.320685
-0.100800 0.605379 -0.320192
-0.097686 0.605316 -0.320114
-0.094559 0.605127 -0.319978
-0.091491 0.605327 -0.320033
-0.088417 0.605465 -0.320060
-0.085247 0.604819 -0.319714
-0.082194 0.605073 -0.319803
-0.079056 0.604574 -0.319533
-0.076005 0.604789 -0.319609
-0.073051 0.605939 -0.320137
-0.069929 0.605474 -0.319892
-0.066885 0.605774 -0.320017
-0.063842 0.606081 -0.320147
-0.060760 0.605939 -0.320065
-0.057676 0.605721 -0.319949
-0.054623 0.605882 -0.320016
-0.051534 0.605505 -0.319829
-0.048447 0.605074 -0.319617
-0.045380 0.604883 -0.319524
-0.042365 0.605602 -0.319869
-0.039311 0.605641 -0.319890
-0.036289 0.606436 -0.320276
-0.033170 0.604815 -0.319505
-0.030052 0.602706 -0.318503
-0.026988 0.601729 -0.318045
-0.023970 0.602365 -0.318364
-0.020986 0.605328 -0.319802
-0.017952 0.606558 -0.320410
-0.014885 0.605055 -0.319709
-0.011838 0.605350 -0.319873
-0.008771 0.610957 -0.322589
-0.005736 0.605695 -0.320089
-0.002699 0.604571 -0.319578
0.000333 0.603822 -0.319249
0.003396 0.604655 -0.319682
0.006476 0.605783 -0.320259
0.009522 0.605552 -0.320186
0.012572 0.605442 -0.320172
0.015639 0.605727 -0.320351
0.018681 0.605432 -0.320254
0.021734 0.605357 -0.320263
0.024817 0.605783 -0.320517
0.027840 0.605187 -0.320281
0.030790 0.603597 -0.319569
0.033838 0.603530 -0.319592
0.037279 0.608374 -0.321981
0.040394 0.608766 -0.322230
0.043649 0.610648 -0.323200
0.047009 0.613408 -0.324594
0.049689 0.609064 -0.322571
0.052484 0.606205 -0.321265
0.055308 0.603860 -0.320208
0.059664 0.614954 -0.325630
0.061944 0.607873 -0.322296
0.064700 0.605126 -0.321053
0.067647 0.604028 -0.320608
0.070763 0.604225 -0.320790
0.073925 0.604714 -0.321115
0.076967 0.604315 -0.321016
0.079988 0.603775 -0.320851
0.083089 0.603756 -0.320941
0.086872 0.607920 -0.323056
0.089942 0.607528 -0.322973
0.092971 0.606895 -0.322777
0.095928 0.605861 -0.322390
0.099535 0.608409 -0.323739
0.102780 0.608865 -0.324081
0.105149 0.604731 -0.322203
0.107829 0.602352 -0.321177
0.111695 0.605872 -0.323015
0.113992 0.601691 -0.321122
0.117679 0.604155 -0.322457
0.120861 0.604173 -0.322608
0.123799 0.603071 -0.322221
0.126699 0.601824 -0.321766
0.129922 0.601961 -0.321988
0.133217 0.602361 -0.322343
0.136567 0.602924 -0.322782
0.140123 0.604246 -0.323596
0.143441 0.604555 -0.323921
0.146503 0.603835 -0.323750
0.149383 0.602428 -0.323247
0.152306 0.601196 -0.322834
0.155674 0.601565 -0.323208
0.160758 0.607904 -0.326507
0.164900 0.610722 -0.328092
0.167911 0.609567 -0.327739
0.170767 0.607900 -0.327139
0.173970 0.607383 -0.327108
0.177984 0.609435 -0.328342
0.180615 0.607029 -0.327394
0.183218 0.604576 -0.326426
0.185843 0.602235 -0.325517
0.189156 0.601978 -0.325638
0.193099 0.603537 -0.326659
0.196083 0.602235 -0.326275
0.199478 0.602098 -0.326470
0.202963 0.602175 -0.326777
0.207192 0.604250 -0.328078
0.211369 0.606076 -0.329262
0.215608 0.607969 -0.330486
0.217545 0.603736 -0.328678
0.219933 0.600751 -0.327490
0.223271 0.600232 -0.327528
0.227973 0.603101 -0.329257
0.232203 0.604684 -0.330351
0.233965 0.600192 -0.328421
0.237867 0.600918 -0.329094
0.241860 0.601803 -0.329849
0.245115 0.600918 -0.329722
0.248893 0.601227 -0.330193
0.252986 0.602212 -0.331004
0.256541 0.601950 -0.331189
0.260234 0.601974 -0.331518
0.263870 0.601859 -0.331775
0.267757 0.602269 -0.332294
0.271495 0.602342 -0.332639
0.274997 0.601915 -0.332728
0.278342 0.601173 -0.332652
0.282563 0.602232 -0.333479
0.287668 0.605045 -0.335186
0.288080 0.598494 -0.332146
0.290719 0.596479 -0.331388
0.294954 0.597621 -0.332218
0.302540 0.605170 -0.336290
0.304092 0.601167 -0.334484
0.308422 0.602481 -0.335364
0.312581 0.603490 -0.336074
0.315061 0.601450 -0.335215
0.318695 0.601589 -0.335447
0.319783 0.597224 -0.333365
0.323269 0.597251 -0.333499
0.325013 0.594285 -0.332088
0.327249 0.592293 -0.331152
0.331132 0.593235 -0.331690
0.340177 0.603008 -0.336712
0.341815 0.600186 -0.335287
0.344893 0.599894 -0.335129
0.346705 0.597587 -0.333921
0.349511 0.597025 -0.333582
0.348159 0.589788 -0.329816
0.346683 0.582548 -0.326029
-0.373132 0.595704 -0.329566
-0.370931 0.596842 -0.330339
-0.368564 0.597806 -0.331004
-0.365916 0.598398 -0.331460
-0.362678 0.598087 -0.331439
-0.359708 0.598307 -0.331664
-0.359225 0.602864 -0.334061
-0.354946 0.601028 -0.333203
-0.352226 0.601952 -0.333719
-0.348421 0.601057 -0.333293
-0.345353 0.601529 -0.333537
-0.342450 0.602377 -0.333950
-0.339756 0.603687 -0.334576
-0.336722 0.604466 -0.334912
-0.333093 0.604219 -0.334710
-0.329240 0.603604 -0.334302
-0.326151 0.604474 -0.334628
-0.322988 0.605270 -0.334898
-0.319490 0.605476 -0.334855
-0.315555 0.604870 -0.334385
-0.312307 0.605646 -0.334600
-0.309605 0.607569 -0.335379
-0.306169 0.608066 -0.335427
-0.301456 0.605963 -0.334155
-0.297732 0.605884 -0.333893
-0.293912 0.605606 -0.333524
-0.290505 0.606212 -0.333591
-0.286945 0.606501 -0.333493
-0.283428 0.606887 -0.333438
-0.279554 0.606478 -0.332981
-0.275731 0.606160 -0.332566
-0.272013 0.606058 -0.332258
-0.268283 0.605904 -0.331923
-0.264781 0.606261 -0.331842
-0.261300 0.606653 -0.331779
-0.257158 0.605421 -0.330907
-0.253486 0.605281 -0.330580
-0.249910 0.605344 -0.330358
-0.246252 0.605167 -0.330019
-0.242812 0.605507 -0.329939
-0.239178 0.605316 -0.329599
-0.235760 0.605651 -0.329524
-0.232128 0.605379 -0.329152
-0.228797 0.605884 -0.329169
-0.225815 0.607340 -0.329660
-0.221351 0.604591 -0.328076
-0.217814 0.604381 -0.327753
-0.214282 0.604139 -0.327420
-0.211036 0.604695 -0.327485
-0.207779 0.605195 -0.327528
-0.204410 0.605323 -0.327393
-0.200450 0.603550 -0.326326
-0.197174 0.603860 -0.326291
-0.194231 0.605227 -0.326780
-0.190817 0.605030 -0.326506
-0.187564 0.605333 -0.326482
-0.184196 0.605202 -0.326251
-0.181010 0.605664 -0.326316
