ply
format ascii 1.0
comment ---
element vertex 1732
property float x
property float y
property float z
element face 0
property list uchar uint vertex_indices
end_header
1.281856 0.595062 -0.039763
1.285775 0.592459 -0.040217
1.297090 0.594586 -0.041709
1.305319 0.594624 -0.042769
1.313978 0.594852 -0.043890
1.324778 0.596327 -0.045309
1.332173 0.595592 -0.046253
1.337613 0.593599 -0.046925
1.349798 0.595638 -0.048535
1.359096 0.595831 -0.049741
1.368135 0.595787 -0.050909
1.379597 0.597083 -0.052410
1.384766 0.594640 -0.053033
1.401493 0.598778 -0.055256
1.407831 0.596885 -0.056032
1.419636 0.598019 -0.057559
1.430061 0.598299 -0.058887
1.439218 0.597817 -0.060032
1.452210 0.599358 -0.061696
1.458355 0.597150 -0.062405
1.467387 0.596466 -0.063501
1.479393 0.597304 -0.064992
1.487840 0.596242 -0.065981
1.495467 0.594745 -0.066841
1.506767 0.595107 -0.068190
1.520367 0.596586 -0.069835
1.527649 0.594882 -0.070597
1.534553 0.593012 -0.071289
1.545930 0.593338 -0.072571
1.556222 0.593130 -0.073684
1.562655 0.591091 -0.074253
1.562325 0.585917 -0.073887
0.578264 0.611708 0.022505
0.580418 0.613515 0.022136
0.582524 0.614376 0.021854
0.584680 0.615277 0.021575
0.586928 0.616572 0.021268
0.589562 0.620664 0.020723
0.592386 0.625711 0.020100
0.594203 0.622342 0.020216
0.596560 0.622986 0.019989
0.599074 0.624478 0.019693
0.599881 0.613671 0.020491
0.602588 0.616256 0.020111
0.604745 0.614865 0.020090
0.607052 0.614352 0.019995
0.609319 0.613470 0.019939
0.611395 0.611345 0.019999
0.613544 0.609646 0.020025
0.615913 0.609182 0.019944
0.617637 0.605062 0.020197
0.620172 0.605462 0.020044
0.622415 0.604227 0.020041
0.624799 0.603710 0.019976
0.627305 0.603774 0.019858
0.629706 0.603268 0.019794
0.632118 0.602791 0.019727
0.634578 0.602524 0.019642
0.637102 0.602522 0.019532
0.639843 0.603460 0.019335
0.642304 0.603108 0.019256
0.644998 0.603744 0.019085
0.647736 0.604513 0.018900
0.650075 0.603602 0.018871
0.652523 0.603150 0.018797
0.655382 0.604307 0.018571
0.657859 0.603941 0.018485
0.660544 0.604358 0.018324
0.663178 0.604559 0.018181
0.665524 0.603692 0.018138
0.668329 0.604483 0.017934
0.671055 0.604958 0.017758
0.673815 0.605521 0.017571
0.675934 0.603887 0.017591
0.678425 0.603530 0.017487
0.681067 0.603668 0.017333
0.683713 0.603802 0.017177
0.686205 0.603431 0.017066
0.688697 0.603059 0.016953
0.691371 0.603244 0.016784
0.694086 0.603532 0.016601
0.697259 0.605153 0.016284
0.699867 0.605059 0.016132
0.702178 0.604100 0.016063
0.704531 0.603271 0.015979
0.707529 0.604250 0.015713
0.710089 0.603981 0.015567
0.712558 0.603451 0.015446
0.714883 0.602535 0.015360
0.717383 0.602087 0.015225
0.720508 0.603257 0.014924
0.723006 0.602769 0.014787
0.725774 0.602955 0.014579
0.728324 0.602570 0.014427
0.731628 0.604034 0.014081
0.734128 0.603480 0.013940
0.736632 0.602930 0.013797
0.739824 0.604002 0.013482
0.742791 0.604497 0.013224
0.745460 0.604267 0.013038
0.747795 0.603259 0.012932
0.750773 0.603698 0.012671
0.753645 0.603868 0.012435
0.756424 0.603802 0.012222
0.759040 0.603361 0.012045
0.761295 0.602131 0.011952
0.763938 0.601727 0.011767
0.767471 0.603167 0.011381
0.770528 0.603563 0.011103
0.773346 0.603435 0.010880
0.775793 0.602535 0.010740
0.778217 0.601581 0.010603
0.780967 0.601265 0.010393
0.784564 0.602583 0.010000
0.787545 0.602654 0.009742
0.790213 0.602098 0.009551
0.793377 0.602462 0.009255
0.796266 0.602277 0.009018
0.798871 0.601542 0.008840
0.802508 0.602678 0.008447
0.805275 0.602191 0.008237
0.808075 0.601744 0.008020
0.811232 0.601907 0.007729
0.814102 0.601536 0.007498
0.817635 0.602288 0.007133
0.819907 0.600839 0.007024
0.823071 0.600899 0.006735
0.824407 0.597868 0.006810
0.829275 0.600722 0.006184
0.832001 0.599975 0.005984
0.835506 0.600476 0.005631
0.838065 0.599417 0.005464
0.841296 0.599417 0.005167
0.843833 0.598296 0.005003
0.847157 0.598391 0.004689
0.850040 0.597773 0.004460
0.853797 0.598470 0.004066
0.856927 0.598177 0.003791
0.859263 0.596668 0.003666
0.861459 0.594951 0.003567
0.865802 0.596386 0.003067
0.864405 0.589427 0.003631
0.870478 0.593312 0.002814
0.873174 0.592282 0.002621
0.876721 0.592439 0.002273
0.879450 0.591421 0.002074
0.884618 0.593760 0.001435
0.888349 0.594057 0.001058
0.892176 0.594443 0.000665
0.899134 0.598992 -0.000284
0.899776 0.595028 -0.000107
0.902059 0.593266 -0.000224
0.907592 0.595742 -0.000912
0.910686 0.594987 -0.001170
0.914401 0.595009 -0.001536
0.917982 0.594826 -0.001877
0.922047 0.595221 -0.002302
0.927328 0.597085 -0.002934
0.930220 0.595939 -0.003154
0.936845 0.599333 -0.004012
0.945739 0.605369 -0.005251
0.949945 0.605646 -0.005688
0.955155 0.607073 -0.006294
0.953872 0.600813 -0.005805
0.956128 0.598751 -0.005916
0.960182 0.598763 -0.006327
0.968687 0.603820 -0.007479
0.970840 0.601563 -0.007571
0.971351 0.597470 -0.007395
0.967633 0.588721 -0.006526
0.988079 0.606673 -0.009628
0.988455 0.602387 -0.009431
0.992686 0.602303 -0.009866
0.991543 0.596433 -0.009428
0.998410 0.599122 -0.010291
1.001303 0.597549 -0.010511
1.006372 0.598229 -0.011082
1.008621 0.595951 -0.011200
1.011255 0.594067 -0.011381
1.021106 0.599480 -0.012713
1.031566 0.605363 -0.014137
1.031808 0.600945 -0.013938
1.031905 0.596423 -0.013719
1.035118 0.594980 -0.013996
1.042164 0.597225 -0.014876
1.046716 0.596996 -0.015363
1.051141 0.596607 -0.015831
1.056062 0.596647 -0.016376
1.061650 0.597260 -0.017026
1.068942 0.599389 -0.017940
1.072412 0.597938 -0.018261
1.077757 0.598164 -0.018874
1.085500 0.600490 -0.019855
1.088840 0.598809 -0.020160
1.093851 0.598581 -0.020723
1.097384 0.597017 -0.021061
1.104195 0.598264 -0.021901
1.108022 0.596881 -0.022287
1.116474 0.599393 -0.023376
1.119976 0.597646 -0.023716
1.126306 0.598231 -0.024485
1.130123 0.596677 -0.024877
1.136838 0.597462 -0.025707
1.142123 0.597019 -0.026323
1.149211 0.597969 -0.027210
1.154666 0.597547 -0.027855
1.160069 0.597031 -0.028494
1.167714 0.598209 -0.029468
1.173412 0.597801 -0.030155
1.179250 0.597444 -0.030864
1.186658 0.598216 -0.031807
1.191275 0.596817 -0.032339
1.197781 0.596780 -0.033154
1.206003 0.597935 -0.034223
1.212285 0.597588 -0.035008
1.218855 0.597385 -0.035837
1.223737 0.595912 -0.036420
1.229317 0.594887 -0.037109
1.242973 0.599451 -0.038984
1.245198 0.595946 -0.039185
1.251541 0.595253 -0.039991
1.257294 0.594099 -0.040714
1.269203 0.597019 -0.042337
1.273824 0.594965 -0.042897
1.281189 0.594676 -0.043860
1.290068 0.595298 -0.045044
1.299678 0.596299 -0.046335
1.304957 0.594441 -0.046997
1.316848 0.596705 -0.048620
1.321079 0.594069 -0.049131
1.332243 0.595681 -0.050647
1.340914 0.595659 -0.051800
1.352284 0.597187 -0.053342
1.360072 0.596465 -0.054364
1.370780 0.597403 -0.055805
1.379759 0.597236 -0.056993
1.388261 0.596722 -0.058107
1.398566 0.597177 -0.059476
1.408842 0.597534 -0.060835
1.418828 0.597654 -0.062144
1.426723 0.596551 -0.063146
1.432958 0.594502 -0.063900
1.453239 0.600034 -0.066657
1.458762 0.597501 -0.067288
1.467361 0.596600 -0.068348
1.479209 0.597372 -0.069857
1.487604 0.596300 -0.070859
1.495667 0.595046 -0.071798
1.509975 0.596950 -0.073608
1.517403 0.595343 -0.074422
1.527764 0.595201 -0.075633
1.537007 0.594500 -0.076666
1.547274 0.594299 -0.077822
1.559556 0.595063 -0.079240
1.565114 0.592616 -0.079691
1.569077 0.589471 -0.079898
0.579240 0.621316 0.019404
0.579817 0.607789 0.020391
0.582770 0.616760 0.019367
0.583884 0.608401 0.019913
0.585824 0.607387 0.019805
0.587923 0.607449 0.019606
0.590029 0.607269 0.019436
0.591353 0.600766 0.019855
0.593899 0.603603 0.019422
0.595541 0.599454 0.019641
0.597785 0.599586 0.019470
0.599856 0.598328 0.019435
0.602291 0.599377 0.019190
0.604685 0.599930 0.018996
0.607195 0.601021 0.018755
0.609573 0.601113 0.018613
0.611648 0.599299 0.018655
0.614431 0.601518 0.018318
0.616835 0.601415 0.018204
0.619420 0.602208 0.018008
0.621839 0.602005 0.017908
0.624293 0.601921 0.017799
0.626811 0.602105 0.017665
0.629254 0.601861 0.017574
0.631888 0.602487 0.017400
0.634384 0.602402 0.017294
0.636863 0.602209 0.017199
0.639478 0.602597 0.017047
0.642178 0.603311 0.016862
0.644518 0.602436 0.016832
0.647417 0.603909 0.016571
0.649851 0.603399 0.016503
0.652284 0.602885 0.016434
0.655030 0.603608 0.016242
0.657630 0.603726 0.016107
0.660128 0.603439 0.016010
0.662825 0.603888 0.015838
0.665294 0.603478 0.015749
0.667787 0.603157 0.015650
0.670670 0.604203 0.015411
0.673001 0.603298 0.015365
0.675362 0.602513 0.015305
0.678245 0.603482 0.015065
0.680687 0.602962 0.014973
0.683577 0.603889 0.014732
0.686047 0.603443 0.014627
0.688511 0.602978 0.014522
0.691368 0.603722 0.014290
0.694022 0.603813 0.014121
0.696848 0.604397 0.013899
0.699662 0.604916 0.013681
0.701755 0.603326 0.013678
0.704062 0.602374 0.013607
0.707770 0.605348 0.013123
0.709810 0.603627 0.013127
0.712105 0.602625 0.013053
0.714547 0.602030 0.012933
0.718219 0.604679 0.012468
0.720171 0.602758 0.012484
0.722972 0.603051 0.012262
0.725753 0.603264 0.012045
0.728670 0.603789 0.011791
0.731040 0.602932 0.011684
0.733553 0.602424 0.011536
0.736447 0.602822 0.011287
0.739387 0.603296 0.011027
0.742873 0.605012 0.010628
0.745205 0.603996 0.010524
0.747732 0.603428 0.010369
0.750466 0.603315 0.010161
0.753317 0.603439 0.009924
0.756518 0.604308 0.009601
0.758945 0.603447 0.009468
0.761019 0.601825 0.009419
0.764462 0.603119 0.009039
0.767343 0.603179 0.008794
0.770401 0.603576 0.008509
0.772904 0.602804 0.008354
0.775381 0.601971 0.008204
0.777836 0.601084 0.008058
0.781325 0.602233 0.007675
0.783653 0.601061 0.007557
0.786561 0.601009 0.007307
0.790325 0.602563 0.006866
0.792641 0.601322 0.006750
0.795091 0.600330 0.006603
0.798456 0.601020 0.006254
0.802052 0.602088 0.005856
0.805163 0.602229 0.005566
0.807856 0.601590 0.005367
0.810542 0.600924 0.005169
0.814041 0.601662 0.004798
0.817761 0.602739 0.004382
0.820468 0.602030 0.004181
0.821758 0.598905 0.004278
0.824255 0.597838 0.004119
0.828166 0.599109 0.003667
0.831288 0.599028 0.003380
0.833856 0.598019 0.003208
0.836103 0.596485 0.003100
0.838630 0.595397 0.002934
0.842345 0.596170 0.002529
0.845081 0.595372 0.002322
0.846971 0.593254 0.002283
0.849926 0.592775 0.002032
0.855624 0.596420 0.001241
0.859208 0.596798 0.000870
0.862468 0.596657 0.000564
0.866420 0.597502 0.000124
0.870042 0.597820 -0.000249
0.870980 0.594240 -0.000106
0.874173 0.593911 -0.000397
0.879231 0.596184 -0.001042
0.885104 0.599518 -0.001837
0.888706 0.599615 -0.002199
0.892639 0.600132 -0.002622
0.895536 0.599203 -0.002850
0.901312 0.602122 -0.003613
0.905373 0.602672 -0.004053
0.909042 0.602662 -0.004420
0.912238 0.602001 -0.004699
0.914057 0.599542 -0.004726
0.915446 0.596545 -0.004677
0.918294 0.595420 -0.004895
0.923855 0.597689 -0.005602
0.927238 0.597171 -0.005914
0.930332 0.596275 -0.006174
0.932282 0.593965 -0.006231
0.945758 0.605591 -0.008334
0.952331 0.608701 -0.009203
0.952974 0.604685 -0.009023
0.955357 0.602753 -0.009153
0.961401 0.605081 -0.009923
0.967298 0.607159 -0.010664
0.967990 0.603217 -0.010500
0.970300 0.601143 -0.010618
0.968175 0.594098 -0.009975
0.964913 0.585884 -0.009144
0.979888 0.597851 -0.011438
0.988782 0.602930 -0.012683
0.987071 0.596424 -0.012122
0.997672 0.603174 -0.013650
0.997253 0.598078 -0.013312
0.998621 0.594912 -0.013279
1.002581 0.594463 -0.013684
1.004491 0.591869 -0.013747
1.008258 0.591180 -0.014121
1.012825 0.591273 -0.014628
1.023229 0.597176 -0.016100
1.028558 0.597888 -0.016729
1.031034 0.595735 -0.016889
1.035679 0.595695 -0.017406
1.042200 0.597425 -0.018230
1.046270 0.596732 -0.018652
1.051070 0.596701 -0.019195
1.056704 0.597409 -0.019872
1.061773 0.597532 -0.020458
1.067992 0.598668 -0.021230
1.072574 0.598239 -0.021738
1.076375 0.597063 -0.022121
1.081838 0.597352 -0.022772
1.087977 0.598187 -0.023531
1.092926 0.597909 -0.024101
1.096740 0.596594 -0.024491
1.104722 0.598857 -0.025544
1.108066 0.597052 -0.025862
1.113895 0.597337 -0.026575
1.119365 0.597260 -0.027233
1.126081 0.598168 -0.028087
1.131120 0.597620 -0.028679
1.136207 0.597065 -0.029280
1.143175 0.597985 -0.030176
1.149299 0.598152 -0.030941
1.154174 0.597265 -0.031514
1.161381 0.598168 -0.032451
1.166742 0.597554 -0.033103
1.173105 0.597662 -0.033911
1.180990 0.598867 -0.034957
1.185855 0.597699 -0.035538
1.193027 0.598217 -0.036476
1.198336 0.597275 -0.037130
1.203871 0.596449 -0.037821
1.213032 0.598207 -0.039069
1.218752 0.597383 -0.039792
1.224668 0.596644 -0.040547
1.230956 0.596109 -0.041362
1.238134 0.596133 -0.042314
1.249099 0.598701 -0.043843
1.251027 0.594957 -0.044000
1.259292 0.595505 -0.045123
1.267467 0.595905 -0.046232
1.274221 0.595275 -0.047128
1.276802 0.591840 -0.047394
1.289314 0.594851 -0.049162
1.296427 0.594249 -0.050115
1.306797 0.595652 -0.051560
1.314719 0.595404 -0.052635
1.319410 0.593069 -0.053224
1.336135 0.598121 -0.055622
1.338673 0.594334 -0.055885
1.352176 0.597164 -0.057793
1.358312 0.595460 -0.058594
1.369965 0.596972 -0.060217
1.378713 0.596679 -0.061402
1.389429 0.597457 -0.062875
1.396134 0.595854 -0.063744
1.405793 0.595886 -0.065047
1.420331 0.598577 -0.067069
1.426619 0.596586 -0.067854
1.434444 0.595419 -0.068858
1.444571 0.595466 -0.070193
1.459468 0.598011 -0.072223
1.469430 0.597842 -0.073507
1.479411 0.597642 -0.074779
1.485492 0.595390 -0.075460
1.497010 0.595936 -0.076927
1.508847 0.596602 -0.078422
1.515774 0.594770 -0.079176
1.520216 0.591726 -0.079548
1.539562 0.596043 -0.082081
1.549937 0.595906 -0.083278
1.556129 0.593757 -0.083843
1.564511 0.592693 -0.084706
1.566260 0.588532 -0.084585
0.577031 0.599279 0.019186
0.579092 0.600843 0.018812
0.580880 0.599423 0.018727
0.582726 0.598281 0.018623
0.584700 0.597993 0.018445
0.586715 0.597767 0.018269
0.588743 0.597370 0.018117
0.591153 0.599694 0.017708
0.593215 0.599005 0.017597
0.595351 0.598661 0.017459
0.597709 0.599680 0.017195
0.599854 0.598992 0.017102
0.602128 0.599001 0.016948
0.604642 0.600393 0.016662
0.607132 0.601392 0.016419
0.609464 0.601238 0.016295
0.611737 0.600624 0.016220
0.614070 0.600267 0.016124
0.616577 0.600799 0.015942
0.618980 0.600648 0.015831
0.621473 0.600898 0.015682
0.623977 0.601123 0.015538
0.626496 0.601347 0.015395
0.628936 0.601116 0.015299
0.631697 0.602388 0.015052
0.634119 0.601965 0.014977
0.636591 0.601758 0.014880
0.639276 0.602476 0.014689
0.641880 0.602779 0.014539
0.644591 0.603502 0.014346
0.647127 0.603435 0.014232
0.649501 0.602689 0.014187
0.652244 0.603435 0.013987
0.654801 0.603402 0.013865
0.657499 0.603904 0.013687
0.660076 0.603909 0.013557
0.662734 0.604200 0.013396
0.665144 0.603568 0.013329
0.668150 0.605074 0.013036
0.670387 0.603813 0.013030
0.672883 0.603483 0.012924
0.675686 0.604189 0.012707
0.678154 0.603741 0.012609
0.680618 0.603286 0.012508
0.683579 0.604432 0.012235
0.685789 0.603150 0.012218
0.688326 0.602913 0.012087
0.691308 0.604037 0.011806
0.694035 0.604340 0.011611
0.696518 0.603895 0.011493
0.699155 0.603897 0.011324
0.701622 0.603396 0.011206
0.703823 0.602138 0.011169
0.707632 0.605396 0.010635
0.710047 0.604703 0.010530
0.712274 0.603498 0.010478
0.714579 0.602520 0.010400
0.717840 0.604075 0.010038
0.720430 0.603821 0.009873
0.722931 0.603325 0.009732
0.725305 0.602500 0.009626
0.728258 0.603125 0.009354
0.730866 0.602860 0.009179
0.733358 0.602299 0.009035
0.736224 0.602629 0.008787
0.739883 0.604807 0.008324
0.742311 0.604027 0.008196
0.744855 0.603512 0.008035
0.747460 0.603125 0.007857
0.750416 0.603515 0.007586
0.752947 0.602923 0.007426
0.755513 0.602400 0.007255
0.758433 0.602632 0.006994
0.761082 0.602253 0.006801
0.763628 0.601640 0.006633
0.767243 0.603254 0.006199
0.769398 0.601780 0.006128
0.771953 0.601135 0.005957
0.774757 0.600980 0.005724
0.777490 0.600659 0.005509
0.780086 0.600050 0.005326
0.783213 0.600463 0.005017
0.785531 0.599277 0.004899
0.790046 0.602287 0.004265
0.792815 0.601902 0.004043
0.795078 0.600555 0.003939
0.798190 0.600776 0.003637
0.801232 0.600835 0.003353
0.805039 0.602247 0.002896
0.807901 0.601910 0.002655
0.810944 0.601872 0.002374
0.813786 0.601452 0.002138
0.816865 0.601423 0.001850
0.820035 0.601521 0.001543
0.817419 0.591783 0.002502
0.818558 0.588515 0.002630
0.821627 0.588489 0.002338
0.830702 0.598292 0.000758
0.833235 0.597233 0.000590
0.836347 0.597098 0.000298
0.840648 0.598826 -0.000243
0.842448 0.596550 -0.000257
0.844540 0.594745 -0.000333
0.849590 0.597511 -0.001025
0.853503 0.598452 -0.001477
0.856132 0.597403 -0.001663
0.859301 0.597150 -0.001959
0.864807 0.600335 -0.002730
0.870610 0.603861 -0.003555
0.873008 0.602339 -0.003689
0.874005 0.598800 -0.003543
0.877911 0.599441 -0.003980
0.886055 0.606014 -0.005256
0.887108 0.602524 -0.005122
0.891250 0.603341 -0.005599
0.894625 0.603059 -0.005923
0.900179 0.605704 -0.006671
0.904849 0.607078 -0.007242
0.909394 0.608225 -0.007786
0.912138 0.606945 -0.007982
0.914710 0.605431 -0.008146
0.915784 0.601975 -0.008025
0.916625 0.598254 -0.007863
0.917708 0.594877 -0.007751
0.922633 0.596353 -0.008363
0.926677 0.596672 -0.008808
0.929658 0.595641 -0.009053
0.934022 0.596283 -0.009555
0.944340 0.604075 -0.011155
0.949194 0.605144 -0.011740
0.951760 0.603442 -0.011902
0.954861 0.602364 -0.012163
0.959079 0.602572 -0.012628
0.963073 0.602481 -0.013051
0.966227 0.601396 -0.013322
0.971655 0.602866 -0.014002
0.974299 0.601152 -0.014181
0.974379 0.596582 -0.013903
0.977467 0.595371 -0.014165
0.986550 0.600682 -0.015490
0.993471 0.603521 -0.016426
0.994358 0.595187 -0.016016
0.994074 0.590312 -0.015689
0.998609 0.590504 -0.016208
1.006777 0.594401 -0.017357
1.006936 0.590000 -0.017114
1.012526 0.591139 -0.017813
1.017648 0.591747 -0.018430
1.022801 0.592334 -0.019052
1.026496 0.591431 -0.019424
1.035546 0.595729 -0.020709
1.042170 0.597558 -0.021578
1.046840 0.597438 -0.022113
1.051264 0.597043 -0.022607
1.057042 0.597883 -0.023330
1.060716 0.596701 -0.023699
1.066123 0.597094 -0.024359
1.071836 0.597713 -0.025071
1.076544 0.597362 -0.025615
1.082406 0.598005 -0.026351
1.088266 0.598585 -0.027088
1.091103 0.596441 -0.027324
1.097078 0.597025 -0.028081
1.105339 0.599523 -0.029214
1.108510 0.597562 -0.029510
1.112744 0.596487 -0.029982
1.121456 0.599142 -0.031189
1.126478 0.598619 -0.031792
1.130571 0.597284 -0.032246
1.137902 0.598564 -0.033229
1.143387 0.598266 -0.033912
1.149111 0.598108 -0.034635
1.153099 0.596514 -0.035079
1.157365 0.595109 -0.035572
1.166044 0.597106 -0.036776
1.170022 0.595377 -0.037226
1.180219 0.598367 -0.038674
1.185111 0.597221 -0.039274
1.193335 0.598528 -0.040409
1.199261 0.598037 -0.041178
1.204879 0.597262 -0.041900
1.212076 0.597581 -0.042875
1.218516 0.597279 -0.043731
1.224135 0.596325 -0.044460
1.229180 0.594913 -0.045100
1.237423 0.595691 -0.046247
1.244224 0.595382 -0.047169
1.251291 0.595186 -0.048133
1.259140 0.595447 -0.049222
1.264844 0.594188 -0.049976
1.272189 0.593967 -0.050988
1.283615 0.596353 -0.052641
1.289623 0.595088 -0.053445
1.298246 0.595453 -0.054659
1.305564 0.594900 -0.055669
1.313203 0.594482 -0.056729
1.318442 0.592498 -0.057414
1.332897 0.596158 -0.059534
1.340618 0.595555 -0.060603
1.351351 0.596705 -0.062138
1.362030 0.597719 -0.063660
1.370646 0.597418 -0.064858
1.378895 0.596835 -0.065995
1.387227 0.596240 -0.067139
1.398356 0.597185 -0.068710
1.410938 0.598863 -0.070497
1.419206 0.598029 -0.071609
1.429117 0.598059 -0.072965
1.437195 0.597027 -0.074029
1.448696 0.597814 -0.075607
1.460705 0.598804 -0.077249
1.468703 0.597605 -0.078261
1.477241 0.596672 -0.079342
1.485591 0.595626 -0.080378
1.494312 0.594758 -0.081454
1.504499 0.594625 -0.082735
1.513940 0.594099 -0.083883
1.520715 0.592244 -0.084606
1.540254 0.596679 -0.087239
1.547994 0.595284 -0.088064
1.551942 0.592090 -0.088296
1.558041 0.589985 -0.088832
1.577209 0.594085 -0.091304
0.576786 0.596693 0.017256
0.578913 0.599087 0.016787
0.580910 0.599757 0.016493
0.582723 0.598398 0.016407
0.584695 0.598190 0.016214
0.586924 0.599819 0.015845
0.589011 0.599908 0.015636
0.591043 0.599298 0.015505
0.593152 0.599047 0.015345
0.595148 0.597760 0.015297
0.597800 0.600952 0.014799
0.600014 0.600750 0.014652
0.602417 0.601627 0.014401
0.604614 0.600951 0.014315
0.606912 0.600787 0.014181
0.609237 0.600654 0.014049
0.611646 0.600892 0.013883
0.614071 0.601091 0.013724
0.616390 0.600583 0.013643
0.618776 0.600371 0.013534
0.621224 0.600419 0.013400
0.624135 0.602776 0.013025
0.627096 0.605205 0.012644
0.628772 0.601142 0.012948
0.631513 0.602331 0.012700
0.633943 0.601958 0.012617
0.636377 0.601586 0.012535
0.639210 0.602975 0.012264
0.641670 0.602645 0.012177
0.644323 0.603124 0.012002
0.646761 0.602657 0.011928
0.649470 0.603304 0.011733
0.651870 0.602658 0.011675
0.654764 0.603971 0.011405
0.657459 0.604445 0.011223
0.659947 0.604100 0.011128
0.662285 0.603200 0.011092
0.665415 0.605206 0.010736
0.668039 0.605314 0.010585
0.670522 0.604910 0.010487
0.672955 0.604337 0.010406
0.675751 0.605002 0.010185
0.678226 0.604561 0.010084
0.680862 0.604649 0.009922
0.683176 0.603684 0.009874
0.685686 0.603357 0.009753
0.687679 0.601418 0.009809
0.691168 0.604117 0.009343
0.693694 0.603809 0.009211
0.696432 0.604124 0.009006
0.699059 0.604091 0.008836
0.701634 0.603894 0.008683
0.704696 0.605069 0.008370
0.707269 0.604825 0.008215
0.709829 0.604534 0.008063
0.712257 0.603875 0.007950
0.714826 0.603596 0.007791
0.717906 0.604654 0.007474
0.720333 0.603964 0.007356
0.722796 0.603365 0.007225
0.725106 0.602375 0.007137
0.727469 0.601521 0.007031
0.730822 0.603114 0.006634
0.733378 0.602702 0.006470
0.736871 0.604534 0.006036
0.739318 0.603812 0.005903
0.741773 0.603103 0.005765
0.744336 0.602641 0.005595
0.747310 0.603105 0.005311
0.750014 0.602926 0.005102
0.752484 0.602206 0.004955
0.754815 0.601171 0.004844
0.757804 0.601569 0.004556
0.760506 0.601314 0.004345
0.763321 0.601281 0.004103
0.766328 0.601623 0.003812
0.768900 0.601032 0.003634
0.771453 0.600390 0.003460
0.774157 0.600040 0.003247
0.776766 0.599484 0.003057
0.778991 0.598153 0.002962
0.781731 0.597831 0.002739
0.784632 0.597801 0.002475
0.787037 0.596795 0.002333
0.789448 0.595796 0.002189
0.793083 0.597079 0.001748
0.796130 0.597218 0.001451
0.801191 0.601008 0.000676
0.804728 0.601930 0.000268
0.808277 0.602825 -0.000140
0.811018 0.602243 -0.000357
0.813693 0.601529 -0.000559
0.817515 0.602785 -0.001025
0.822738 0.606385 -0.001810
0.826878 0.608044 -0.002340
0.823884 0.597674 -0.001253
0.827919 0.599154 -0.001762
0.831087 0.599150 -0.002075
0.834870 0.600115 -0.002522
0.839855 0.602963 -0.003233
0.841273 0.600044 -0.003154
0.841222 0.594838 -0.002757
0.843883 0.593937 -0.002957
0.848336 0.595792 -0.003545
0.854363 0.599983 -0.004467
0.857201 0.599234 -0.004699
0.860115 0.598583 -0.004947
0.867008 0.603813 -0.006037
0.873770 0.608715 -0.007091
0.875968 0.606855 -0.007180
0.877332 0.603798 -0.007096
0.883176 0.607153 -0.007946
0.887686 0.608527 -0.008513
0.889582 0.606189 -0.008540
0.891066 0.603295 -0.008485
0.893800 0.602137 -0.008687
0.899486 0.604972 -0.009488
0.904877 0.607323 -0.010223
0.909039 0.607960 -0.010708
0.910909 0.605532 -0.010732
0.914974 0.605980 -0.011195
0.917324 0.604169 -0.011317
0.918149 0.600405 -0.011139
0.916982 0.594154 -0.010574
0.922094 0.595873 -0.011243
0.925553 0.595470 -0.011587
0.929547 0.595700 -0.012035
0.935429 0.598196 -0.012845
0.943751 0.603560 -0.014119
0.947392 0.603181 -0.014490
0.949832 0.601349 -0.014631
0.950052 0.596905 -0.014352
0.949890 0.592063 -0.014006
0.958271 0.597132 -0.015273
0.961317 0.595973 -0.015533
0.970447 0.601688 -0.016930
0.976617 0.603939 -0.017768
0.978927 0.601822 -0.017886
0.981094 0.599548 -0.017980
0.986867 0.601211 -0.018740
0.995762 0.606180 -0.020070
0.994877 0.600546 -0.019605
0.990531 0.591304 -0.018515
0.991809 0.588105 -0.018457
0.999782 0.591898 -0.019613
1.006847 0.594645 -0.020602
1.015198 0.598615 -0.021818
1.017381 0.596224 -0.021923
1.019526 0.593797 -0.022024
1.022136 0.591836 -0.022210
1.024434 0.589561 -0.022343
1.037468 0.597765 -0.024379
1.042270 0.597814 -0.024953
1.046687 0.597448 -0.025458
1.052230 0.598114 -0.026162
1.056544 0.597567 -0.026651
1.060507 0.596656 -0.027078
1.066578 0.597662 -0.027874
1.072079 0.598080 -0.028570
1.076114 0.597114 -0.029012
1.081703 0.597514 -0.029724
1.088405 0.598846 -0.030627
1.092667 0.597953 -0.031111
1.096007 0.596221 -0.031438
1.103593 0.598141 -0.032493
1.108792 0.597928 -0.033140
1.111794 0.595801 -0.033415
1.120451 0.598415 -0.034652
1.125899 0.598251 -0.035344
1.130775 0.597563 -0.035940
1.135987 0.597106 -0.036596
1.143902 0.598787 -0.037706
1.147534 0.596945 -0.038099
1.152942 0.596486 -0.038791
1.157871 0.595600 -0.039406
1.165498 0.596770 -0.040472
1.172919 0.597697 -0.041504
1.179830 0.598151 -0.042453
1.185887 0.597886 -0.043261
1.188833 0.595230 -0.043556
1.201019 0.599412 -0.045381
1.205782 0.597992 -0.045980
1.209107 0.595485 -0.046345
1.218464 0.597300 -0.047705
1.223003 0.595574 -0.048275
1.228957 0.594807 -0.049079
1.235665 0.594510 -0.050008
1.246210 0.596799 -0.051566
1.251631 0.595459 -0.052288
1.261540 0.597111 -0.053743
1.267951 0.596307 -0.054629
1.274643 0.595628 -0.055562
1.283888 0.596562 -0.056909
1.290879 0.595933 -0.057892
1.299038 0.595990 -0.059063
1.305317 0.594770 -0.059931
1.312121 0.593827 -0.060883
1.328554 0.598826 -0.063388
1.332965 0.596228 -0.063951
1.341707 0.596248 -0.065210
1.354165 0.598434 -0.067064
1.361454 0.597411 -0.068082
1.369697 0.596898 -0.069250
1.377290 0.595943 -0.070309
1.388548 0.597055 -0.071949
1.399482 0.597888 -0.073529
1.411326 0.599151 -0.075246
1.417684 0.597256 -0.076077
1.430955 0.599165 -0.078001
1.437912 0.597521 -0.078908
1.450321 0.598809 -0.080669
1.458962 0.598005 -0.081817
1.465025 0.595808 -0.082543
1.477334 0.596889 -0.084242
1.483463 0.594710 -0.084947
1.495349 0.595497 -0.086543
1.505558 0.595392 -0.087854
1.513874 0.594318 -0.088848
1.522911 0.593608 -0.089934
1.532794 0.593318 -0.091130
1.543998 0.593669 -0.092509
1.551429 0.592194 -0.093277
1.557234 0.589978 -0.093771
1.566396 0.589394 -0.094762
0.576684 0.595496 0.015210
0.578888 0.598758 0.014633
0.580842 0.599152 0.014355
0.582866 0.599794 0.014059
0.584778 0.599108 0.013908
0.586773 0.598848 0.013721
0.589042 0.600526 0.013337
0.591065 0.599905 0.013201
0.593063 0.598879 0.013116
0.595391 0.600085 0.012801
0.597562 0.599884 0.012642
0.600024 0.601478 0.012297
0.602169 0.600681 0.012214
0.604550 0.601271 0.011988
0.606650 0.599911 0.011978
0.608883 0.599287 0.011893
0.611339 0.599882 0.011681
0.614032 0.601692 0.011340
0.616352 0.601207 0.011253
0.618735 0.600990 0.011140
0.621184 0.601050 0.010999
0.623466 0.600169 0.010964
0.626649 0.603802 0.010434
0.629251 0.604342 0.010245
0.631359 0.602429 0.010329
0.633769 0.601972 0.010253
0.636377 0.602404 0.010078
0.638965 0.602691 0.009920
0.641801 0.604016 0.009645
0.644240 0.603557 0.009569
0.646524 0.602434 0.009566
0.649174 0.602845 0.009391
0.651438 0.601663 0.009393
0.654552 0.603863 0.009013
0.657024 0.603477 0.008922
0.659324 0.602438 0.008904
0.662014 0.602872 0.008717
0.664932 0.604112 0.008436
0.667746 0.604918 0.008201
0.669570 0.602198 0.008367
0.672797 0.604411 0.007966
0.675267 0.603962 0.007867
0.678128 0.604826 0.007614
0.680548 0.604195 0.007530
0.683036 0.603796 0.007418
0.685701 0.603956 0.007238
0.688299 0.603888 0.007081
0.690963 0.604012 0.006898
0.693784 0.604592 0.006660
0.696129 0.603723 0.006588
0.698783 0.603770 0.006405
0.701595 0.604257 0.006167
0.704260 0.604293 0.005980
0.706882 0.604195 0.005805
0.709349 0.603653 0.005680
0.711901 0.603339 0.005525
0.715275 0.605221 0.005103
0.717518 0.604043 0.005045
0.720199 0.604018 0.004846
0.722567 0.603171 0.004743
0.724794 0.601969 0.004681
0.727925 0.603041 0.004339
0.730713 0.603215 0.004103
0.733019 0.602192 0.004011
0.735944 0.602661 0.003732
0.738974 0.603345 0.003423
0.741285 0.602303 0.003326
0.743247 0.600458 0.003326
0.746775 0.602214 0.002873
0.749225 0.601471 0.002731
0.751699 0.600773 0.002580
0.754076 0.599857 0.002454
0.756906 0.599923 0.002201
0.757262 0.594647 0.002629
0.760567 0.595732 0.002241
0.763018 0.594974 0.002087
0.766567 0.596484 0.001638
0.769953 0.597600 0.001234
0.771769 0.595485 0.001249
0.774286 0.594794 0.001075
0.778185 0.596829 0.000541
0.781908 0.598444 0.000058
0.786637 0.601942 -0.000681
0.788750 0.600331 -0.000746
0.791077 0.599132 -0.000867
0.794056 0.599152 -0.001153
0.797276 0.599588 -0.001499
0.800582 0.600144 -0.001864
0.803321 0.599633 -0.002088
0.808195 0.602925 -0.002834
0.810863 0.602212 -0.003038
0.813657 0.601705 -0.003272
0.817748 0.603428 -0.003817
0.823220 0.607450 -0.004688
0.826599 0.607808 -0.005054
0.826968 0.603078 -0.004710
0.829152 0.601430 -0.004797
0.831268 0.599674 -0.004871
0.836536 0.603051 -0.005675
0.843132 0.608464 -0.006778
0.843958 0.604545 -0.006552
0.840093 0.593279 -0.005263
0.845953 0.597387 -0.006191
0.849198 0.597340 -0.006522
0.852649 0.597581 -0.006899
0.856572 0.598500 -0.007379
0.861263 0.600518 -0.008026
0.868539 0.606300 -0.009238
0.874635 0.610202 -0.010181
0.876465 0.607792 -0.010188
0.875639 0.601574 -0.009621
0.880364 0.603358 -0.010259
0.887794 0.608892 -0.011473
0.889442 0.606205 -0.011444
0.891791 0.604508 -0.011566
0.892010 0.599890 -0.011238
0.895757 0.600119 -0.011659
0.900398 0.601511 -0.012265
0.903589 0.600913 -0.012565
0.906370 0.599752 -0.012780
0.913922 0.604811 -0.013981
0.917073 0.604047 -0.014268
0.914077 0.595390 -0.013296
0.915688 0.592709 -0.013275
0.921359 0.595147 -0.014079
0.925176 0.595197 -0.014505
0.930848 0.597498 -0.015302
0.934810 0.597634 -0.015753
0.940091 0.599328 -0.016465
0.948523 0.604730 -0.017800
0.948529 0.599994 -0.017459
0.947077 0.593596 -0.016836
0.949883 0.592242 -0.017057
0.957315 0.596216 -0.018183
0.959737 0.594352 -0.018326
0.972221 0.603884 -0.020424
0.975628 0.603015 -0.020753
0.978488 0.601517 -0.020977
0.982903 0.601722 -0.021501
0.986698 0.601208 -0.021905
0.981499 0.590940 -0.020596
0.991579 0.597191 -0.022199
0.995823 0.597093 -0.022690
0.997295 0.594043 -0.022658
1.002078 0.594459 -0.023250
1.010801 0.598895 -0.024579
1.018235 0.601889 -0.025662
1.020844 0.599898 -0.025844
1.023181 0.597629 -0.025977
1.022348 0.592207 -0.025527
1.033679 0.598830 -0.027323
1.035911 0.596403 -0.027440
1.042001 0.597710 -0.028267
1.046515 0.597437 -0.028804
1.051153 0.597243 -0.029364
1.055887 0.597097 -0.029941
1.059813 0.596155 -0.030373
1.066787 0.597998 -0.031355
1.071766 0.597935 -0.031977
1.076950 0.598010 -0.032636
1.081955 0.597875 -0.033264
1.088301 0.598885 -0.034130
1.092624 0.598044 -0.034637
1.097750 0.597868 -0.035287
1.104221 0.598807 -0.036177
1.108315 0.597640 -0.036646
1.114270 0.598020 -0.037445
1.119027 0.597331 -0.038034
1.124288 0.597019 -0.038713
1.131118 0.597953 -0.039667
1.137879 0.598755 -0.040610
1.142012 0.597356 -0.041095
1.147790 0.597245 -0.041869
1.155459 0.598576 -0.042971
1.160083 0.597426 -0.043547
1.163991 0.595679 -0.044002
1.173085 0.597904 -0.045353
1.181190 0.599266 -0.046534
1.186330 0.598293 -0.047205
1.190795 0.596767 -0.047764
1.196654 0.596237 -0.048563
1.205427 0.597790 -0.049862
1.207582 0.594431 -0.050033
1.218398 0.597305 -0.051683
1.222945 0.595580 -0.052266
1.231030 0.596314 -0.053451
1.236456 0.595104 -0.054188
1.247492 0.597723 -0.055875
1.249835 0.594263 -0.056093
1.261166 0.596889 -0.057830
1.267444 0.595995 -0.058715
1.271683 0.593689 -0.059259
1.281170 0.594801 -0.060685
1.287260 0.593603 -0.061541
1.298785 0.595849 -0.063308
1.305577 0.594956 -0.064281
1.312977 0.594386 -0.065355
1.326824 0.597768 -0.067503
1.333229 0.596412 -0.068407
1.338983 0.594611 -0.069200
1.352722 0.597590 -0.071319
1.358902 0.595918 -0.072176
1.369349 0.596727 -0.073737
1.382786 0.599194 -0.075787
1.390577 0.598275 -0.076894
1.399782 0.598116 -0.078228
1.409478 0.598173 -0.079634
1.416383 0.596605 -0.080570
1.430732 0.599130 -0.082721
1.437118 0.597189 -0.083550
1.446679 0.596956 -0.084887
1.457044 0.597112 -0.086342
1.464586 0.595726 -0.087318
1.471690 0.594103 -0.088208
1.485785 0.596103 -0.090220
1.497236 0.596677 -0.091781
1.505022 0.595354 -0.092725
1.515897 0.595591 -0.094150
1.524422 0.594641 -0.095172
1.531287 0.592885 -0.095904
1.538152 0.591159 -0.096615
1.551978 0.592819 -0.098421
1.559044 0.591226 -0.099117
1.559409 0.586509 -0.098721
0.576984 0.598230 0.012758
0.578904 0.598796 0.012445
0.580769 0.598462 0.012236
0.582883 0.600030 0.011828
0.584876 0.600130 0.011586
0.586957 0.600645 0.011305
0.588827 0.599145 0.011253
0.591076 0.600413 0.010905
0.593144 0.599974 0.010751
0.595347 0.600308 0.010519
0.597624 0.600923 0.010262
0.599614 0.599318 0.010259
0.602177 0.601426 0.009848
0.604214 0.599836 0.009856
0.606656 0.600711 0.009594
0.609088 0.601321 0.009366
0.611502 0.601655 0.009173
0.613860 0.601526 0.009038
0.616243 0.601435 0.008902
0.618667 0.601468 0.008755
0.621134 0.601641 0.008596
0.623468 0.601033 0.008528
0.625777 0.600256 0.008482
0.628709 0.602529 0.008087
0.631151 0.602276 0.007984
0.633637 0.602193 0.007862
0.636182 0.602342 0.007714
0.638712 0.602376 0.007579
0.641247 0.602402 0.007445
0.643766 0.602319 0.007324
0.646466 0.602980 0.007114
0.649041 0.603069 0.006970
0.651828 0.603993 0.006727
0.654410 0.604048 0.006585
0.656166 0.600883 0.006820
0.659273 0.602954 0.006436
0.661892 0.603116 0.006275
0.664533 0.603333 0.006106
0.666876 0.602464 0.006063
0.669540 0.602739 0.005882
0.672763 0.604931 0.005468
0.675117 0.604074 0.005417
0.677401 0.603002 0.005389
0.680291 0.603941 0.005116
0.682796 0.603597 0.004995
0.685280 0.603178 0.004880
0.688191 0.604098 0.004600
0.690821 0.604110 0.004427
0.693484 0.604206 0.004240
0.695745 0.603087 0.004200
0.698711 0.604055 0.003900
0.701127 0.603390 0.003797
0.703738 0.603284 0.003623
0.706485 0.603545 0.003400
0.709015 0.603182 0.003252
0.711339 0.602249 0.003171
0.713828 0.601770 0.003032
0.716240 0.601082 0.002915
0.719349 0.602214 0.002567
0.721545 0.600944 0.002518
0.723190 0.598288 0.002643
0.726156 0.598996 0.002339
0.728279 0.597579 0.002302
0.730333 0.596010 0.002283
0.732646 0.595085 0.002179
0.735422 0.595260 0.001930
0.737617 0.594048 0.001859
0.739833 0.592892 0.001778
0.744540 0.597438 0.000950
0.744669 0.591512 0.001487
0.747978 0.592798 0.001078
0.754563 0.601246 -0.000281
0.755431 0.597024 0.000027
0.758568 0.597757 -0.000322
0.760828 0.596585 -0.000421
0.765204 0.599856 -0.001118
0.769139 0.602108 -0.001684
0.776100 0.610487 -0.003083
0.777862 0.608109 -0.003035
0.779024 0.604558 -0.002829
0.780535 0.601754 -0.002723
0.785077 0.604916 -0.003437
0.789084 0.606946 -0.004001
0.791692 0.606224 -0.004190
0.794027 0.604974 -0.004308
0.798328 0.607402 -0.004941
0.796759 0.598887 -0.004045
0.799496 0.598410 -0.004275
0.803536 0.600273 -0.004838
0.807050 0.601125 -0.005262
0.810605 0.602002 -0.005695
0.813335 0.601386 -0.005918
0.816034 0.600699 -0.006133
0.822206 0.605954 -0.007209
0.826583 0.608021 -0.007832
0.828571 0.606005 -0.007866
0.828019 0.599782 -0.007284
0.831956 0.601036 -0.007797
0.836511 0.603240 -0.008456
0.846152 0.613556 -0.010325
0.849394 0.613433 -0.010654
0.848510 0.606773 -0.010008
0.850464 0.604650 -0.010038
0.852614 0.602838 -0.010116
0.853721 0.599438 -0.009954
0.856283 0.598279 -0.010132
0.861873 0.601650 -0.011006
0.868371 0.606269 -0.012081
0.872231 0.606889 -0.012547
0.868094 0.595832 -0.011202
0.869504 0.592951 -0.011122
0.877845 0.599977 -0.012596
0.883828 0.603506 -0.013533
0.888401 0.604961 -0.014150
0.890319 0.602679 -0.014177
0.890090 0.597465 -0.013736
0.895042 0.599354 -0.014433
0.899886 0.601028 -0.015102
0.901253 0.598006 -0.015015
0.904089 0.596947 -0.015247
0.911867 0.602330 -0.016539
0.915267 0.601913 -0.016888
0.913269 0.594553 -0.016088
0.914805 0.591785 -0.016046
0.920857 0.594711 -0.016957
0.924564 0.594629 -0.017372
0.930000 0.596647 -0.018146
0.933844 0.596648 -0.018584
0.941218 0.600884 -0.019752
0.949811 0.606469 -0.021164
0.949327 0.601134 -0.020705
0.947017 0.593713 -0.019878
0.950397 0.593026 -0.020218
0.955571 0.594388 -0.020923
0.960258 0.595132 -0.021526
0.968544 0.599904 -0.022850
0.980934 0.609157 -0.024990
0.979686 0.603032 -0.024394
0.980995 0.599800 -0.024313
0.977230 0.591051 -0.023231
0.973974 0.582975 -0.022260
0.981122 0.586160 -0.023345
0.997898 0.599468 -0.026312
1.001239 0.598362 -0.026637
1.003313 0.595914 -0.026716
1.010162 0.598403 -0.027725
1.019114 0.602955 -0.029135
1.018883 0.598076 -0.028771
1.014824 0.589399 -0.027677
1.033177 0.603139 -0.030882
1.035802 0.601080 -0.031070
1.034874 0.595544 -0.030585
1.041079 0.596969 -0.031458
1.046155 0.597242 -0.032116
1.051473 0.597695 -0.032819
1.055214 0.596608 -0.033226
1.059929 0.596405 -0.033816
1.068238 0.599478 -0.035077
1.071722 0.598032 -0.035436
1.075141 0.596504 -0.035786
1.083358 0.599266 -0.037025
1.086567 0.597470 -0.037337
1.092733 0.598265 -0.038197
1.096941 0.597283 -0.038696
1.102629 0.597548 -0.039467
1.107661 0.597194 -0.040120
1.115753 0.599390 -0.041331
1.119958 0.598222 -0.041833
1.126023 0.598569 -0.042675
1.132105 0.598868 -0.043521
1.135855 0.597197 -0.043946
1.140562 0.596275 -0.044547
1.149596 0.598782 -0.045927
1.155769 0.598908 -0.046792
1.159740 0.597238 -0.047265
1.165183 0.596685 -0.048003
1.170925 0.596311 -0.048796
1.181827 0.599822 -0.050509
1.185599 0.597805 -0.050954
1.190860 0.596876 -0.051666
1.198677 0.597795 -0.052832
1.202159 0.595443 -0.053234
1.209099 0.595583 -0.054248
1.217090 0.596407 -0.055448
1.223845 0.596262 -0.056431
1.230286 0.595826 -0.057361
1.240085 0.597673 -0.058880
1.244262 0.595520 -0.059416
1.252561 0.596157 -0.060674
1.258947 0.595409 -0.061599
1.265085 0.594434 -0.062481
1.270267 0.592768 -0.063198
1.280353 0.594281 -0.064768
1.285971 0.592780 -0.065561
1.300567 0.597009 -0.067909
1.304547 0.594314 -0.068418
1.314045 0.595073 -0.069880
1.326228 0.597411 -0.071801
1.333651 0.596688 -0.072899
1.340921 0.595812 -0.073968
1.351764 0.597034 -0.075647
1.359133 0.596082 -0.076725
1.369074 0.596596 -0.078238
1.383436 0.599611 -0.080501
1.389630 0.597773 -0.081358
1.395595 0.595777 -0.082169
1.407290 0.597000 -0.083949
1.415980 0.596455 -0.085205
1.428824 0.598164 -0.087156
1.438031 0.597791 -0.088475
1.448354 0.597981 -0.089969
1.455873 0.596620 -0.090974
1.463116 0.595101 -0.091917
1.474095 0.595536 -0.093472
1.483260 0.594989 -0.094703
1.492197 0.594309 -0.095877
1.502905 0.594520 -0.097326
1.514363 0.595085 -0.098878
1.525927 0.595678 -0.100423
1.530720 0.592921 -0.100818
1.539888 0.592344 -0.101918
1.549736 0.592107 -0.103106
1.560112 0.592130 -0.104356
1.556662 0.585631 -0.103306
0.576917 0.597292 0.010693
0.578869 0.598299 0.010320
0.580761 0.598331 0.010062
0.582994 0.601061 0.009508
0.584906 0.600527 0.009327
0.586825 0.599780 0.009179
0.589079 0.601482 0.008760
0.591149 0.601373 0.008554
0.593017 0.599485 0.008560
0.595249 0.600124 0.008283
0.597648 0.601678 0.007907
0.599629 0.600058 0.007904
0.601842 0.599879 0.007742
0.604179 0.600327 0.007513
0.606677 0.601596 0.007193
0.608875 0.600809 0.007119
0.611129 0.600259 0.007023
0.613615 0.600948 0.006785
0.616016 0.601004 0.006626
0.618493 0.601375 0.006433
0.620883 0.601165 0.006313
0.623335 0.601210 0.006164
0.625699 0.600730 0.006081
0.628396 0.601851 0.005809
0.630781 0.601359 0.005731
0.633426 0.602059 0.005510
0.635936 0.602061 0.005375
0.638353 0.601603 0.005295
0.640813 0.601319 0.005194
0.643385 0.601495 0.005038
0.646217 0.602733 0.004751
0.649038 0.603848 0.004478
0.650715 0.600271 0.004776
0.654113 0.603632 0.004225
0.656668 0.603569 0.004091
0.659199 0.603402 0.003969
0.661032 0.600618 0.004166
0.663479 0.600172 0.004075
0.666497 0.601779 0.003727
0.669014 0.601549 0.003603
0.671269 0.600404 0.003592
0.674894 0.603948 0.002992
0.677448 0.603777 0.002853
0.680146 0.604071 0.002653
0.682256 0.602439 0.002692
0.684986 0.602818 0.002475
0.687915 0.603796 0.002179
0.690516 0.603719 0.002013
0.692999 0.603273 0.001891
0.695457 0.602748 0.001777
0.696860 0.599130 0.002055
0.698051 0.594988 0.002400
0.700352 0.594120 0.002323
0.703152 0.594661 0.002062
0.705547 0.594050 0.001947
0.708217 0.594190 0.001731
0.710029 0.592002 0.001815
0.711645 0.589336 0.001960
0.717607 0.598083 0.000608
0.719064 0.594961 0.000806
0.721864 0.595318 0.000545
0.724778 0.595932 0.000246
0.728430 0.598334 -0.000295
0.730619 0.597081 -0.000353
0.733702 0.597994 -0.000704
0.737739 0.601128 -0.001357
0.741314 0.603075 -0.001856
0.744572 0.604217 -0.002251
0.746400 0.602035 -0.002200
0.748284 0.600008 -0.002171
0.751657 0.601331 -0.002601
0.754951 0.602426 -0.003005
0.758332 0.603655 -0.003431
0.761736 0.604883 -0.003862
0.765208 0.606197 -0.004309
0.767554 0.605091 -0.004424
0.770154 0.604513 -0.004615
0.773758 0.605981 -0.005096
0.777099 0.606856 -0.005498
0.779514 0.605828 -0.005635
0.782672 0.606267 -0.005982
0.785161 0.605359 -0.006141
0.790006 0.609006 -0.006954
0.791872 0.606841 -0.006940
0.794694 0.606505 -0.007190
0.796506 0.604257 -0.007166
0.796851 0.599316 -0.006750
0.799181 0.598089 -0.006875
0.803560 0.600568 -0.007545
0.806318 0.600063 -0.007782
0.809405 0.600124 -0.008105
0.813155 0.601316 -0.008599
0.815706 0.600373 -0.008779
0.821543 0.605059 -0.009806
0.827992 0.610655 -0.010979
0.828134 0.605509 -0.010538
0.828994 0.601635 -0.010286
0.832402 0.602002 -0.010680
0.840735 0.610345 -0.012300
0.846346 0.614103 -0.013229
0.848557 0.612331 -0.013312
0.854954 0.617169 -0.014422
0.859114 0.618384 -0.014977
0.859663 0.613959 -0.014654
0.855564 0.602480 -0.013217
0.856147 0.598290 -0.012920
0.861664 0.601554 -0.013805
0.868038 0.605994 -0.014886
0.868935 0.602262 -0.014667
0.867295 0.594882 -0.013857
0.871257 0.595685 -0.014365
0.876902 0.598844 -0.015262
0.882982 0.602522 -0.016251
0.886762 0.602879 -0.016705
0.885993 0.596896 -0.016117
0.888473 0.595452 -0.016276
0.893767 0.597827 -0.017073
0.900835 0.602509 -0.018265
0.902925 0.600435 -0.018331
0.903082 0.595819 -0.017968
0.907705 0.597093 -0.018602
0.912626 0.598695 -0.019299
0.913794 0.595423 -0.019166
0.916312 0.593892 -0.019332
0.921672 0.595930 -0.020120
0.926419 0.597133 -0.020769
0.930272 0.597175 -0.021222
0.933856 0.596853 -0.021616
0.942192 0.602257 -0.023028
0.950597 0.607605 -0.024444
0.951709 0.604153 -0.024302
0.947758 0.594771 -0.023092
0.949069 0.591662 -0.023004
0.956707 0.595884 -0.024247
0.959951 0.594963 -0.024564
0.964045 0.594986 -0.025058
0.983691 0.612437 -0.028777
0.983154 0.607072 -0.028300
0.979767 0.598624 -0.027243
0.975146 0.588948 -0.025944
0.972042 0.581053 -0.024967
0.981539 0.586774 -0.026565
1.001490 0.603455 -0.030275
1.003688 0.601107 -0.030373
1.005545 0.598407 -0.030405
1.009821 0.598215 -0.030926
1.018294 0.602281 -0.032285
1.022187 0.601586 -0.032726
1.023031 0.597799 -0.032561
1.034688 0.604802 -0.034542
1.039622 0.605002 -0.035186
1.034153 0.594991 -0.033784
1.040280 0.596345 -0.034667
1.046362 0.597587 -0.035540
1.051961 0.598302 -0.036317
1.057381 0.598789 -0.037059
1.060400 0.596982 -0.037334
1.068414 0.599777 -0.038576
1.071970 0.598391 -0.038957
1.078307 0.599504 -0.039873
1.083530 0.599548 -0.040575
1.087667 0.598573 -0.041070
1.092153 0.597874 -0.041632
1.097376 0.597780 -0.042336
1.102441 0.597499 -0.043011
1.110503 0.599740 -0.044252
1.114912 0.598782 -0.044803
1.119277 0.597751 -0.045348
1.125821 0.598500 -0.046303
1.130601 0.597721 -0.046928
1.135020 0.596606 -0.047487
1.142226 0.597710 -0.048567
1.147316 0.597036 -0.049254
1.153935 0.597530 -0.050226
1.160154 0.597639 -0.051125
1.166084 0.597458 -0.051971
1.170919 0.596372 -0.052617
1.177838 0.596836 -0.053649
1.186094 0.598238 -0.054926
1.190605 0.596739 -0.055517
1.197016 0.596612 -0.056458
1.204317 0.597074 -0.057563
1.212331 0.597976 -0.058799
1.216083 0.595720 -0.059260
1.224714 0.596916 -0.060609
1.231172 0.596482 -0.061565
1.238542 0.596621 -0.062686
1.244446 0.595670 -0.063544
1.250781 0.594958 -0.064481
1.255998 0.593428 -0.065218
1.264313 0.593931 -0.066512
1.274526 0.595607 -0.068147
1.283191 0.596156 -0.069503
1.288031 0.594128 -0.070173
1.299220 0.596151 -0.071978
1.306990 0.595877 -0.073170
1.313906 0.594993 -0.074208
1.326394 0.597524 -0.076235
1.333331 0.596502 -0.077271
1.341901 0.596423 -0.078594
1.350391 0.596223 -0.079898
1.360593 0.596975 -0.081499
1.369254 0.596730 -0.082822
1.380616 0.597999 -0.084614
1.388743 0.597303 -0.085827
1.396134 0.596137 -0.086902
1.410648 0.598961 -0.089218
1.416407 0.596769 -0.089985
1.427483 0.597510 -0.091673
1.437302 0.597496 -0.093126
1.447978 0.597898 -0.094714
1.454237 0.595882 -0.095515
1.466446 0.597022 -0.097335
1.476557 0.597004 -0.098772
1.483512 0.595318 -0.099642
1.492190 0.594527 -0.100790
1.500344 0.593466 -0.101828
1.510874 0.593604 -0.103252
1.524406 0.595220 -0.105168
1.533648 0.594684 -0.106322
1.537963 0.591757 -0.106610
1.551346 0.593261 -0.108422
1.558228 0.591637 -0.109100
1.580834 0.597485 -0.112417
0.577096 0.598739 0.008365
0.578833 0.597744 0.008209
0.580711 0.597775 0.007943
0.582571 0.597307 0.007741
0.584505 0.597185 0.007508
0.586931 0.600865 0.006833
0.588968 0.600880 0.006596
0.590875 0.599604 0.006521
0.593067 0.600301 0.006219
0.595145 0.599868 0.006059
0.597357 0.600186 0.005816
0.599517 0.599904 0.005652
0.601645 0.599234 0.005542
0.603963 0.599644 0.005308
0.606461 0.600991 0.004966
0.608720 0.600640 0.004835
0.610789 0.599041 0.004863
0.613210 0.599434 0.004652
0.615836 0.600839 0.004321
0.618169 0.600460 0.004213
0.620563 0.600329 0.004078
0.623005 0.600366 0.003925
0.625473 0.600456 0.003768
0.627831 0.599931 0.003690
0.630563 0.601178 0.003392
0.632848 0.600201 0.003373
0.635700 0.601831 0.003029
0.638084 0.601243 0.002964
0.640390 0.600295 0.002944
0.642818 0.599879 0.002857
0.645433 0.600243 0.002671
0.648123 0.600875 0.002450
0.650221 0.599059 0.002539
0.652609 0.598446 0.002474
0.655420 0.599482 0.002198
0.657632 0.598175 0.002219
0.659784 0.596678 0.002263
0.662866 0.598629 0.001863
0.665155 0.597643 0.001838
0.667772 0.597836 0.001659
0.669868 0.596200 0.001714
0.672652 0.596953 0.001457
0.674836 0.595658 0.001463
0.679387 0.602189 0.000447
0.681888 0.601847 0.000322
0.685084 0.603719 -0.000096
0.687633 0.603487 -0.000241
0.690166 0.603201 -0.000383
0.692562 0.602493 -0.000472
0.695054 0.602078 -0.000602
0.698550 0.604612 -0.001128
0.699867 0.600746 -0.000805
0.702610 0.601046 -0.001040
0.703176 0.595206 -0.000455
0.705827 0.595289 -0.000665
0.709580 0.598361 -0.001282
0.712987 0.600400 -0.001765
0.716095 0.601566 -0.002134
0.721456 0.608574 -0.003303
0.720997 0.600361 -0.002403
0.725814 0.605771 -0.003365
0.728855 0.606559 -0.003701
0.731896 0.607306 -0.004035
0.733971 0.605653 -0.004041
0.736976 0.606261 -0.004362
0.739610 0.605950 -0.004560
0.742005 0.605063 -0.004681
0.744757 0.605004 -0.004919
0.747167 0.604138 -0.005048
0.749307 0.602662 -0.005093
0.751901 0.602212 -0.005286
0.755668 0.604336 -0.005847
0.758795 0.604989 -0.006204
0.761621 0.604954 -0.006467
0.765272 0.606649 -0.006981
0.767799 0.605917 -0.007151
0.769924 0.604340 -0.007200
0.772301 0.603291 -0.007328
0.776371 0.605674 -0.007960
0.780945 0.608988 -0.008734
0.783287 0.607772 -0.008848
0.786049 0.607382 -0.009086
0.787796 0.605006 -0.009032
0.790511 0.604509 -0.009259
0.793158 0.603867 -0.009467
0.795145 0.601975 -0.009490
0.796853 0.599581 -0.009438
0.799195 0.598372 -0.009566
0.803291 0.600337 -0.010178
0.806324 0.600327 -0.010494
0.809082 0.599802 -0.010735
0.812403 0.600244 -0.011128
0.816075 0.601258 -0.011612
0.821273 0.604841 -0.012500
0.827191 0.609539 -0.013571
0.828319 0.606062 -0.013371
0.829684 0.603019 -0.013237
0.833172 0.603504 -0.013660
0.836370 0.603474 -0.014006
0.840332 0.604648 -0.014547
0.840890 0.600336 -0.014215
0.845238 0.602065 -0.014852
0.848218 0.601592 -0.015139
0.857471 0.610798 -0.016999
0.857858 0.606214 -0.016629
0.858260 0.601713 -0.016269
0.864363 0.605823 -0.017323
0.866980 0.604642 -0.017512
0.869954 0.603978 -0.017789
0.870386 0.599593 -0.017448
0.872569 0.597788 -0.017537
0.876709 0.598779 -0.018097
0.883792 0.603879 -0.019357
0.883320 0.598273 -0.018810
0.882956 0.592894 -0.018297
0.887860 0.594815 -0.019032
0.897235 0.602744 -0.020809
0.896634 0.597060 -0.020246
0.901972 0.599369 -0.021068
0.902361 0.595068 -0.020743
0.907745 0.597345 -0.021571
0.912582 0.598837 -0.022268
0.914450 0.596460 -0.022286
0.917184 0.595195 -0.022502
0.921098 0.595403 -0.022985
0.925096 0.595679 -0.023485
0.930519 0.597673 -0.024302
0.934127 0.597376 -0.024711
0.939936 0.599716 -0.025606
0.953002 0.610683 -0.028098
0.953730 0.606745 -0.027860
0.947377 0.594507 -0.026076
0.948767 0.591492 -0.025998
