ply
format ascii 1.0
comment ---
element vertex 1708
property float x
property float y
property float z
element face 0
property list uchar uint vertex_indices
end_header
0.791605 0.592416 -0.357676
0.795807 0.592170 -0.357952
0.800565 0.594020 -0.359085
0.804554 0.592879 -0.359000
0.808972 0.593323 -0.359565
0.813209 0.593058 -0.359843
0.817693 0.593638 -0.360470
0.822071 0.593795 -0.360926
0.826320 0.593468 -0.361187
0.830594 0.593201 -0.361475
0.835117 0.593720 -0.362089
0.839406 0.593432 -0.362374
0.842899 0.590592 -0.361608
0.848515 0.594422 -0.363600
0.852168 0.592076 -0.363043
0.857146 0.593759 -0.364156
0.861163 0.592499 -0.364054
0.865556 0.592339 -0.364411
0.870660 0.594184 -0.365605
0.874770 0.593125 -0.365596
0.878895 0.592097 -0.365603
0.883677 0.592863 -0.366361
0.888192 0.592842 -0.366796
0.892543 0.592346 -0.367036
0.896936 0.591931 -0.367314
0.901999 0.593215 -0.368309
0.906493 0.592974 -0.368669
0.910896 0.592467 -0.368922
0.915303 0.591940 -0.369171
0.920028 0.592158 -0.369739
0.925061 0.593066 -0.370603
0.930052 0.593802 -0.371402
0.934362 0.592881 -0.371505
0.938554 0.591667 -0.371487
0.942717 0.590370 -0.371440
0.947524 0.590504 -0.372005
0.954075 0.594451 -0.374202
0.957461 0.591323 -0.373391
0.962148 0.591035 -0.373796
0.967042 0.591144 -0.374377
0.972679 0.592762 -0.375612
0.976575 0.590668 -0.375263
0.981496 0.590677 -0.375822
0.987229 0.592277 -0.377074
0.992721 0.593298 -0.378087
0.997361 0.592555 -0.378345
1.001774 0.591330 -0.378402
1.008409 0.594363 -0.380312
1.012758 0.592909 -0.380285
1.019159 0.595292 -0.381936
1.023608 0.593928 -0.381963
1.028698 0.593715 -0.382501
1.033894 0.593635 -0.383105
1.038874 0.593110 -0.383523
1.044922 0.594427 -0.384759
1.050941 0.595599 -0.385942
1.056195 0.595354 -0.386512
1.061623 0.595346 -0.387196
1.066859 0.594950 -0.387717
1.072205 0.594681 -0.388304
1.077249 0.593852 -0.388651
1.082906 0.593979 -0.389433
1.088375 0.593732 -0.390056
1.095887 0.596693 -0.392124
1.101027 0.595769 -0.392466
1.106675 0.595595 -0.393152
1.112159 0.595106 -0.393704
1.117506 0.594355 -0.394147
1.123525 0.594572 -0.395034
1.127839 0.592172 -0.394744
1.135480 0.594688 -0.396689
1.140476 0.593218 -0.396832
1.146843 0.593710 -0.397872
1.152321 0.592863 -0.398308
1.158572 0.593078 -0.399233
1.164516 0.592812 -0.399941
1.170806 0.592986 -0.400854
1.177291 0.593384 -0.401872
1.182972 0.592647 -0.402366
1.190039 0.593756 -0.403713
1.196137 0.593528 -0.404438
1.201970 0.592936 -0.404990
1.206670 0.590864 -0.404844
1.216589 0.595560 -0.407849
1.221080 0.593228 -0.407563
1.227901 0.593893 -0.408667
1.233457 0.592975 -0.409014
1.239335 0.592492 -0.409548
1.245307 0.592161 -0.410137
1.250439 0.590847 -0.410241
1.255977 0.590088 -0.410584
1.264268 0.592678 -0.412494
1.270611 0.592969 -0.413290
1.276765 0.593093 -0.413980
1.281398 0.591510 -0.413830
1.287778 0.592040 -0.414658
1.293186 0.591526 -0.414958
0.275001 0.577783 -0.325860
0.276732 0.582590 -0.327985
0.276436 0.592912 -0.332167
0.278273 0.598067 -0.334402
0.278634 0.607419 -0.338202
0.283762 0.604380 -0.337334
0.290330 0.597498 -0.335003
0.293287 0.600518 -0.336383
0.295925 0.604649 -0.338170
0.301097 0.601844 -0.337330
0.305656 0.600839 -0.337155
0.307273 0.608506 -0.340244
0.316896 0.592764 -0.334477
0.320687 0.594187 -0.335185
0.325362 0.593027 -0.334906
0.330333 0.590978 -0.334282
0.334580 0.591214 -0.334514
0.338613 0.592194 -0.335022
0.342143 0.594900 -0.336179
0.346221 0.595904 -0.336685
0.350405 0.596605 -0.337073
0.354189 0.598731 -0.337998
0.357600 0.602260 -0.339453
0.359784 0.610338 -0.342636
0.365015 0.607541 -0.341686
0.370618 0.603221 -0.340157
0.375912 0.599879 -0.338997
0.380813 0.597898 -0.338355
0.384858 0.599208 -0.338964
0.388376 0.602677 -0.340397
0.393495 0.599592 -0.339337
0.397819 0.599699 -0.339494
0.402419 0.598558 -0.339177
0.406261 0.600683 -0.340108
0.411668 0.595705 -0.338333
0.415237 0.599021 -0.339724
0.419654 0.598371 -0.339605
0.424198 0.596998 -0.339213
0.428964 0.594358 -0.338340
0.433261 0.593948 -0.338322
0.437528 0.593596 -0.338330
0.441786 0.593212 -0.338329
0.445147 0.597793 -0.340232
0.450280 0.592275 -0.338273
0.454109 0.594160 -0.339152
0.458389 0.593307 -0.338987
0.462630 0.592575 -0.338871
0.466690 0.592913 -0.339170
0.470943 0.591885 -0.338949
0.474955 0.592422 -0.339332
0.478999 0.592688 -0.339615
0.483095 0.592518 -0.339734
0.487182 0.592330 -0.339850
0.491398 0.590998 -0.339530
0.495308 0.592115 -0.340156
0.499126 0.594091 -0.341118
0.503045 0.595243 -0.341766
0.507124 0.594854 -0.341824
0.511185 0.594556 -0.341921
0.515233 0.594310 -0.342041
0.519178 0.595164 -0.342590
0.523234 0.594690 -0.342629
0.527357 0.593235 -0.342291
0.531337 0.593511 -0.342627
0.535263 0.594591 -0.343278
0.539246 0.594866 -0.343621
0.543231 0.595108 -0.343954
0.547213 0.595412 -0.344316
0.551233 0.594912 -0.344367
0.555143 0.596894 -0.345387
0.559173 0.596094 -0.345328
0.563220 0.594482 -0.344955
0.567219 0.594030 -0.345036
0.571205 0.593988 -0.345280
0.575188 0.594055 -0.345570
0.579175 0.593897 -0.345775
0.583160 0.593790 -0.346002
0.587145 0.593546 -0.346178
0.591130 0.593769 -0.346540
0.595126 0.594893 -0.347258
0.599103 0.593481 -0.346983
0.603077 0.592626 -0.346929
0.607088 0.593708 -0.347639
0.611100 0.594341 -0.348176
0.615126 0.595128 -0.348776
0.619079 0.593660 -0.348489
0.623028 0.592389 -0.348281
0.627005 0.591897 -0.348383
0.631150 0.594654 -0.349773
0.635309 0.597120 -0.351051
0.639176 0.594415 -0.350283
0.643256 0.595240 -0.350916
0.647251 0.594710 -0.351014
0.651223 0.593878 -0.350993
0.655326 0.594706 -0.351635
0.659129 0.591928 -0.350842
0.663211 0.592430 -0.351358
0.667374 0.593665 -0.352168
0.671542 0.594766 -0.352929
0.675665 0.595301 -0.353466
0.679700 0.594951 -0.353650
0.683759 0.594789 -0.353912
0.687845 0.594815 -0.354251
0.691932 0.594795 -0.354573
0.695913 0.593937 -0.354560
0.699970 0.593640 -0.354774
0.703939 0.592710 -0.354735
0.708193 0.593723 -0.355481
0.712256 0.593381 -0.355682
0.716353 0.593229 -0.355963
0.720397 0.592721 -0.356100
0.724590 0.593085 -0.356592
0.728902 0.594076 -0.357342
0.733166 0.594698 -0.357944
0.737264 0.594340 -0.358150
0.741221 0.593214 -0.358045
0.745780 0.595211 -0.359214
0.749714 0.593927 -0.359048
0.753885 0.593832 -0.359369
0.758245 0.594601 -0.360045
0.762584 0.595199 -0.360654
0.766401 0.593354 -0.360264
0.770481 0.592724 -0.360373
0.774547 0.592026 -0.360457
0.778641 0.591440 -0.360588
0.782861 0.591362 -0.360930
0.787410 0.592590 -0.361811
0.791986 0.593838 -0.362705
0.796150 0.593390 -0.362902
0.800378 0.593165 -0.363194
0.804575 0.592797 -0.363428
0.808778 0.592431 -0.363666
0.813074 0.592372 -0.364034
0.817543 0.592892 -0.364644
0.821398 0.591226 -0.364349
0.825812 0.591485 -0.364857
0.830449 0.592443 -0.365659
0.834924 0.592797 -0.366214
0.839011 0.591851 -0.366229
0.843579 0.592422 -0.366880
0.848060 0.592663 -0.367398
0.852639 0.593162 -0.368027
0.856756 0.592212 -0.368052
0.861046 0.591764 -0.368290
0.865594 0.592045 -0.368839
0.870410 0.593046 -0.369695
0.874831 0.592862 -0.370056
0.879377 0.592988 -0.370553
0.883881 0.592956 -0.370986
0.888318 0.592701 -0.371330
0.892909 0.592823 -0.371837
0.897277 0.592315 -0.372082
0.901522 0.591462 -0.372184
0.906715 0.592999 -0.373308
0.910893 0.591907 -0.373317
0.915287 0.591336 -0.373553
0.919525 0.590355 -0.373618
0.925420 0.593332 -0.375382
0.930351 0.593901 -0.376123
0.934785 0.593245 -0.376344
0.938789 0.591573 -0.376133
0.943674 0.591896 -0.376785
0.949209 0.593621 -0.378049
0.954081 0.593785 -0.378647
0.958024 0.591865 -0.378350
0.962225 0.590498 -0.378297
0.967650 0.591721 -0.379373
0.973225 0.593176 -0.380559
0.977642 0.592138 -0.380668
0.983243 0.593499 -0.381830
0.988075 0.593213 -0.382282
0.992481 0.592029 -0.382348
0.997780 0.592581 -0.383181
1.003495 0.593871 -0.384348
1.008181 0.593092 -0.384614
1.013386 0.593261 -0.385306
1.019730 0.595506 -0.386922
1.024168 0.594098 -0.386936
1.028233 0.591977 -0.386641
1.034768 0.594324 -0.388335
1.039914 0.594064 -0.388882
1.045637 0.594768 -0.389868
1.050833 0.594470 -0.390417
1.056281 0.594551 -0.391145
1.061639 0.594410 -0.391784
1.067053 0.594302 -0.392446
1.072429 0.594067 -0.393062
1.078630 0.595136 -0.394274
1.084443 0.595480 -0.395171
1.090399 0.595980 -0.396148
1.095921 0.595710 -0.396788
1.100855 0.594452 -0.396987
1.106896 0.594886 -0.397963
1.112002 0.593799 -0.398256
1.118812 0.595277 -0.399728
1.124595 0.595109 -0.400457
1.130970 0.595767 -0.401574
1.135912 0.594233 -0.401689
1.140749 0.592520 -0.401726
1.148044 0.594343 -0.403401
1.153349 0.593229 -0.403723
1.159559 0.593369 -0.404631
1.165061 0.592467 -0.405056
1.173345 0.595397 -0.407270
1.178194 0.593516 -0.407242
1.183940 0.592858 -0.407782
1.191461 0.594568 -0.409432
1.197372 0.594078 -0.410046
1.201904 0.591767 -0.409794
1.210028 0.594167 -0.411759
1.216527 0.594417 -0.412702
1.222520 0.594019 -0.413327
1.227788 0.592720 -0.413509
1.232922 0.591293 -0.413614
1.239927 0.592232 -0.414830
1.246521 0.592678 -0.415793
1.251516 0.591207 -0.415818
1.257462 0.590950 -0.416402
1.264764 0.592367 -0.417766
1.271502 0.593145 -0.418800
1.277447 0.593040 -0.419382
1.283888 0.593581 -0.420247
1.288842 0.592472 -0.420284
1.294701 0.592491 -0.420837
0.280673 0.562234 -0.324137
0.277063 0.580423 -0.331374
0.277788 0.588028 -0.334585
0.279951 0.592224 -0.336489
0.283465 0.593114 -0.337121
0.287780 0.592034 -0.336987
0.290604 0.595119 -0.338427
0.294035 0.596762 -0.339303
0.300388 0.590439 -0.337120
0.304649 0.589980 -0.337164
0.308407 0.591074 -0.337789
0.312708 0.590727 -0.337851
0.316671 0.591470 -0.338318
0.320248 0.593490 -0.339265
0.324090 0.594853 -0.339951
0.328639 0.594134 -0.339828
0.334235 0.590152 -0.338444
0.337919 0.592225 -0.339378
0.342134 0.592679 -0.339684
0.346785 0.591729 -0.339444
0.351593 0.590241 -0.338992
0.355116 0.593148 -0.340227
0.358529 0.596561 -0.341655
0.362911 0.596630 -0.341794
0.367949 0.594291 -0.341002
0.372290 0.594445 -0.341170
0.376423 0.595373 -0.341636
0.381193 0.593836 -0.341151
0.385376 0.594529 -0.341527
0.389670 0.594764 -0.341727
0.393835 0.595501 -0.342122
0.397844 0.596885 -0.342769
0.402667 0.594747 -0.342058
0.407355 0.593050 -0.341519
0.411740 0.592595 -0.341463
0.415878 0.593207 -0.341822
0.419603 0.595766 -0.342937
0.424365 0.593301 -0.342112
0.428749 0.592545 -0.341952
0.432816 0.593317 -0.342387
0.436845 0.594263 -0.342893
0.440795 0.595628 -0.343566
0.444966 0.595759 -0.343764
0.449323 0.594749 -0.343524
0.453765 0.593094 -0.343037
0.457962 0.592778 -0.343073
0.462176 0.592256 -0.343033
0.466018 0.594077 -0.343908
0.470435 0.592040 -0.343287
0.474663 0.591120 -0.343103
0.478728 0.591247 -0.343332
0.482605 0.592744 -0.344098
0.486476 0.594340 -0.344908
0.490688 0.593200 -0.344655
0.494900 0.591884 -0.344336
0.498789 0.593290 -0.345084
0.502736 0.594206 -0.345645
0.506786 0.594136 -0.345825
0.510855 0.593808 -0.345908
0.514874 0.593918 -0.346165
0.518873 0.594214 -0.346500
0.522868 0.594531 -0.346846
0.526958 0.593600 -0.346706
0.530952 0.593805 -0.347016
0.534914 0.594488 -0.347517
0.538920 0.594498 -0.347757
0.542879 0.595284 -0.348306
0.546856 0.595831 -0.348764
0.550860 0.595883 -0.349032
0.554845 0.596338 -0.349461
0.558880 0.595531 -0.349395
0.562943 0.593562 -0.348873
0.566931 0.593617 -0.349153
0.570915 0.593861 -0.349511
0.574894 0.594521 -0.350037
0.578885 0.594763 -0.350401
0.582884 0.594230 -0.350460
0.586878 0.594076 -0.350672
0.590873 0.594529 -0.351128
0.594872 0.594767 -0.351502
0.598840 0.592208 -0.350764
0.602824 0.591891 -0.350922
0.606856 0.593779 -0.351961
0.610876 0.594487 -0.352533
0.614881 0.594412 -0.352795
0.618918 0.595143 -0.353382
0.622839 0.592869 -0.352768
0.626883 0.593625 -0.353370
0.630960 0.594817 -0.354150
0.635003 0.595133 -0.354581
0.639056 0.595501 -0.355035
0.643058 0.594982 -0.355135
0.647076 0.594707 -0.355336
0.651111 0.594621 -0.355614
0.655143 0.594461 -0.355865
0.658972 0.591921 -0.355156
0.663018 0.591972 -0.355495
0.667229 0.593667 -0.356502
0.671334 0.594111 -0.357005
0.675393 0.594022 -0.357294
0.679532 0.594606 -0.357859
0.683631 0.594753 -0.358249
0.687769 0.595161 -0.358747
0.691685 0.593741 -0.358503
0.695618 0.592511 -0.358337
0.699464 0.590696 -0.357933
0.704307 0.595969 -0.360425
0.708224 0.594550 -0.360188
0.712124 0.593071 -0.359926
0.716276 0.593242 -0.360342
0.720384 0.593093 -0.360628
0.724475 0.592803 -0.360859
0.728840 0.594081 -0.361735
0.732991 0.594037 -0.362071
0.737092 0.593682 -0.362281
0.741477 0.594811 -0.363104
0.745638 0.594686 -0.363413
0.749114 0.591086 -0.362287
0.754022 0.594640 -0.364121
0.758189 0.594440 -0.364405
0.762419 0.594506 -0.364801
0.766556 0.594107 -0.365007
0.770507 0.592863 -0.364863
0.774566 0.592102 -0.364922
0.778855 0.592319 -0.365389
0.783712 0.594844 -0.366822
0.788042 0.595082 -0.367304
0.791491 0.591766 -0.366304
0.796135 0.593207 -0.367294
0.800286 0.592669 -0.367459
0.804493 0.592325 -0.367707
0.808789 0.592285 -0.368086
0.813377 0.593259 -0.368893
0.817096 0.591090 -0.368382
0.821592 0.591657 -0.369024
0.826011 0.591900 -0.369533
0.830407 0.592024 -0.369995
0.834677 0.591689 -0.370266
0.838778 0.590786 -0.370300
0.843022 0.590328 -0.370525
0.848241 0.592879 -0.372030
0.852806 0.593307 -0.372639
0.856831 0.592055 -0.372538
0.861102 0.591533 -0.372749
0.865501 0.591363 -0.373115
0.870115 0.591772 -0.373731
0.875008 0.592916 -0.374666
0.879462 0.592764 -0.375052
0.883736 0.592086 -0.375217
0.888743 0.593357 -0.376221
0.892766 0.591941 -0.376077
0.897021 0.591127 -0.376195
0.902388 0.593160 -0.377544
0.906838 0.592763 -0.377852
0.911170 0.592039 -0.378023
0.915814 0.592058 -0.378520
0.920639 0.592475 -0.379195
0.925633 0.593238 -0.380026
0.930362 0.593306 -0.380562
0.934887 0.592849 -0.380876
0.939649 0.592905 -0.381418
0.944137 0.592285 -0.381672
0.949054 0.592597 -0.382338
0.953982 0.592875 -0.382997
0.958269 0.591695 -0.383024
0.962394 0.590145 -0.382893
0.967893 0.591506 -0.384048
0.972997 0.591950 -0.384808
0.978129 0.592388 -0.385573
0.983374 0.592991 -0.386420
0.987970 0.592214 -0.386664
0.992393 0.591053 -0.386745
0.998679 0.593538 -0.388453
1.003370 0.592798 -0.388737
1.008693 0.593233 -0.389552
1.013811 0.593211 -0.390172
1.019981 0.595103 -0.391659
1.024852 0.594480 -0.392029
1.029262 0.592965 -0.392007
1.034661 0.593217 -0.392787
1.040201 0.593650 -0.393659
1.045674 0.593894 -0.394455
1.051010 0.593826 -0.395121
1.056451 0.593878 -0.395851
1.061704 0.593543 -0.396415
1.067594 0.594225 -0.397451
1.073247 0.594430 -0.398281
1.078389 0.593722 -0.398704
1.085330 0.595898 -0.400456
1.090441 0.595007 -0.400815
1.095606 0.594156 -0.401201
1.101427 0.594294 -0.402050
1.106968 0.593927 -0.402676
1.112622 0.593679 -0.403365
1.119819 0.595725 -0.405126
1.125358 0.595163 -0.405688
1.131355 0.595237 -0.406552
1.136236 0.593602 -0.406627
1.143732 0.595764 -0.408481
1.149552 0.595404 -0.409163
1.154676 0.594006 -0.409361
1.159746 0.592513 -0.409516
1.168251 0.595808 -0.411931
1.174041 0.595237 -0.412526
1.179069 0.593597 -0.412613
1.186196 0.594802 -0.414048
1.192716 0.595142 -0.415070
1.198165 0.594031 -0.415397
1.203428 0.592681 -0.415602
1.210039 0.593101 -0.416645
1.216244 0.592986 -0.417422
1.222119 0.592457 -0.417988
1.227177 0.590916 -0.418051
1.233547 0.591061 -0.418911
1.241403 0.593065 -0.420655
1.247235 0.592580 -0.421175
1.253558 0.592738 -0.421986
1.260756 0.593991 -0.423307
1.266090 0.593048 -0.423534
1.273136 0.594202 -0.424758
1.278149 0.593017 -0.424810
1.283432 0.592234 -0.425029
1.290582 0.593687 -0.426314
1.290904 0.587395 -0.423760
0.270836 0.585748 -0.337287
0.274910 0.584593 -0.337188
0.278428 0.585005 -0.337677
0.281604 0.586478 -0.338560
0.285301 0.586772 -0.338973
0.287812 0.590394 -0.340657
0.290971 0.592507 -0.341744
0.295761 0.590346 -0.341162
0.300761 0.587675 -0.340365
0.304310 0.589153 -0.341164
0.307775 0.591040 -0.342107
0.312031 0.590795 -0.342211
0.316414 0.590276 -0.342196
0.319886 0.592565 -0.343262
0.323596 0.594289 -0.344098
0.327743 0.594791 -0.344450
0.332156 0.594543 -0.344501
0.337631 0.590938 -0.343235
0.341349 0.592982 -0.344164
0.345448 0.593872 -0.344637
0.350207 0.592591 -0.344258
0.354291 0.593605 -0.344770
0.358405 0.594565 -0.345258
0.362564 0.595401 -0.345695
0.367256 0.594321 -0.345381
0.371618 0.594410 -0.345523
0.375758 0.595329 -0.345988
0.380422 0.594226 -0.345662
0.384753 0.594367 -0.345823
0.389129 0.594291 -0.345901
0.393560 0.593945 -0.345873
0.397827 0.594226 -0.346093
0.402237 0.593855 -0.346059
0.406742 0.592991 -0.345835
0.410729 0.594377 -0.346495
0.415252 0.593281 -0.346185
0.419463 0.593557 -0.346416
0.423420 0.595020 -0.347116
0.427990 0.593423 -0.346619
0.432500 0.591979 -0.346185
0.436327 0.594005 -0.347117
0.440382 0.594839 -0.347586
0.444679 0.594287 -0.347514
0.448997 0.593513 -0.347358
0.453479 0.591646 -0.346776
0.457454 0.592700 -0.347348
0.461344 0.594292 -0.348136
0.465522 0.594032 -0.348199
0.469900 0.592327 -0.347696
0.474212 0.590891 -0.347302
0.478214 0.591532 -0.347732
0.482194 0.592320 -0.348225
0.486127 0.593475 -0.348867
0.490105 0.594287 -0.349379
0.494234 0.593813 -0.349385
0.498245 0.594280 -0.349769
0.502282 0.594475 -0.350048
0.506246 0.595345 -0.350600
0.510408 0.594200 -0.350356
0.514409 0.594622 -0.350737
0.518417 0.594936 -0.351080
0.522482 0.594544 -0.351146
0.526537 0.594174 -0.351224
0.530545 0.594335 -0.351517
0.534547 0.594566 -0.351842
0.538561 0.594580 -0.352084
0.542558 0.594835 -0.352425
0.546565 0.594900 -0.352694
0.550515 0.596154 -0.353443
0.554589 0.594698 -0.353111
0.558606 0.594362 -0.353229
0.562623 0.593892 -0.353297
0.566665 0.592283 -0.352912
0.570636 0.593116 -0.353508
0.574617 0.593817 -0.354055
0.578594 0.595426 -0.354971
0.582602 0.595057 -0.355094
0.586610 0.593616 -0.354789
0.590609 0.593898 -0.355180
0.594613 0.594396 -0.355661
0.598641 0.596351 -0.356734
0.602602 0.593096 -0.355705
0.606615 0.593613 -0.356203
0.610671 0.595455 -0.357239
0.614722 0.596483 -0.357950
0.618722 0.595754 -0.357952
0.622682 0.594184 -0.357614
0.626800 0.596270 -0.358763
0.630716 0.593964 -0.358130
0.634734 0.593806 -0.358372
0.638788 0.594205 -0.358844
0.642857 0.594700 -0.359357
0.646964 0.595601 -0.360038
0.650993 0.595315 -0.360237
0.654767 0.591879 -0.359150
0.658770 0.591421 -0.359282
0.663058 0.594076 -0.360691
0.667138 0.594260 -0.361092
0.671071 0.592923 -0.360869
0.675169 0.593205 -0.361314
0.679349 0.594148 -0.362032
0.683541 0.595056 -0.362739
0.687601 0.594767 -0.362956
0.691612 0.594060 -0.363002
0.695684 0.593834 -0.363248
0.699942 0.594925 -0.364041
0.704027 0.594676 -0.364282
0.708091 0.594267 -0.364458
0.712294 0.594745 -0.365004
0.716239 0.593512 -0.364843
0.720299 0.593025 -0.364992
0.724544 0.593626 -0.365596
0.728791 0.594156 -0.366172
0.732865 0.593649 -0.366319
0.737070 0.593841 -0.366760
0.741406 0.594678 -0.367472
0.745852 0.596001 -0.368390
0.749868 0.595046 -0.368359
0.753825 0.593813 -0.368211
0.758071 0.593985 -0.368655
0.762303 0.594044 -0.369054
0.766463 0.593732 -0.369299
0.770694 0.593714 -0.369669
0.774658 0.592496 -0.369537
0.778769 0.591919 -0.369676
0.783654 0.594548 -0.371172
0.787772 0.593906 -0.371289
0.791879 0.593206 -0.371383
0.795962 0.592407 -0.371438
0.800116 0.591875 -0.371608
0.804420 0.591883 -0.372010
0.809392 0.594306 -0.373441
0.813452 0.593317 -0.373425
0.817309 0.591614 -0.373107
0.821339 0.590530 -0.373054
0.825995 0.591580 -0.373915
0.830810 0.593084 -0.374975
0.835199 0.593099 -0.375402
0.839202 0.591830 -0.375281
0.844224 0.593794 -0.376551
0.848369 0.592922 -0.376607
0.852998 0.593522 -0.377300
0.857336 0.593185 -0.377594
0.861662 0.592787 -0.377864
0.865599 0.591226 -0.377635
0.870978 0.593808 -0.379202
0.875046 0.592572 -0.379122
0.879317 0.591895 -0.379286
0.884452 0.593559 -0.380472
0.888313 0.591701 -0.380132
0.892477 0.590659 -0.380150
0.896978 0.590488 -0.380552
0.902274 0.592322 -0.381835
0.907201 0.593126 -0.382674
0.911371 0.591969 -0.382660
0.916197 0.592415 -0.383354
0.920757 0.592158 -0.383745
0.925349 0.591940 -0.384159
0.930223 0.592346 -0.384853
0.935231 0.593007 -0.385666
0.939542 0.591998 -0.385749
0.944426 0.592268 -0.386402
0.949259 0.592367 -0.386987
0.954211 0.592678 -0.387673
0.958810 0.592158 -0.387997
0.963750 0.592335 -0.388637
0.967759 0.590477 -0.388378
0.973135 0.591481 -0.389401
0.978237 0.591838 -0.390145
0.983432 0.592321 -0.390953
0.987603 0.590669 -0.390812
0.992936 0.591320 -0.391711
0.998905 0.593151 -0.393152
1.004107 0.593386 -0.393884
1.009797 0.594495 -0.395021
1.014486 0.593619 -0.395269
1.019390 0.593106 -0.395689
1.026051 0.595799 -0.397575
1.029939 0.593291 -0.397107
1.034682 0.592327 -0.397348
1.040717 0.593631 -0.398635
1.045962 0.593446 -0.399251
1.051604 0.593894 -0.400168
1.057177 0.594148 -0.401006
1.061978 0.593015 -0.401216
1.068019 0.593933 -0.402380
1.074588 0.595646 -0.403924
1.079693 0.594839 -0.404314
1.085823 0.595655 -0.405465
1.090649 0.594286 -0.405612
1.095396 0.592755 -0.405691
1.100942 0.592453 -0.406350
1.107172 0.593159 -0.407491
1.114557 0.595565 -0.409439
1.120264 0.595297 -0.410144
1.125806 0.594727 -0.410713
1.131358 0.594122 -0.411274
1.137153 0.593832 -0.411989
1.143268 0.593958 -0.412907
1.150476 0.595604 -0.414555
1.155790 0.594462 -0.414881
1.161384 0.593692 -0.415387
1.167861 0.594127 -0.416470
1.174245 0.594385 -0.417472
1.180246 0.594078 -0.418201
1.186619 0.594250 -0.419160
1.192923 0.594300 -0.420056
1.198917 0.593918 -0.420739
1.204624 0.593153 -0.421229
1.209470 0.591279 -0.421170
1.216214 0.591878 -0.422301
1.222334 0.591678 -0.423031
1.227470 0.590252 -0.423146
1.233956 0.590557 -0.424091
1.241730 0.592474 -0.425810
1.248665 0.593359 -0.427005
1.254765 0.593254 -0.427691
1.261944 0.594495 -0.429016
1.267544 0.593883 -0.429402
1.272822 0.592962 -0.429605
1.278068 0.592083 -0.429799
1.283251 0.591215 -0.429967
1.289701 0.591892 -0.430871
1.297262 0.593904 -0.432410
0.269557 0.587717 -0.342286
0.273450 0.587004 -0.342366
0.278157 0.584349 -0.341669
0.282172 0.583588 -0.341695
0.284383 0.587715 -0.343618
0.287363 0.590051 -0.344827
0.291136 0.590458 -0.345263
0.295259 0.590061 -0.345369
0.300384 0.587010 -0.344416
0.303687 0.589135 -0.345483
0.307132 0.591038 -0.346449
0.310825 0.592397 -0.347189
0.315046 0.592353 -0.347363
0.319407 0.591987 -0.347399
0.323168 0.593518 -0.348172
0.327335 0.593929 -0.348493
0.332439 0.591481 -0.347675
0.336398 0.592664 -0.348283
0.340516 0.593424 -0.348717
0.344512 0.594655 -0.349330
0.348599 0.595658 -0.349849
0.353454 0.594082 -0.349342
0.357883 0.593950 -0.349402
0.362032 0.594814 -0.349853
0.366999 0.592739 -0.349139
0.371011 0.594110 -0.349787
0.375099 0.595232 -0.350336
0.379451 0.595359 -0.350490
0.383888 0.595127 -0.350502
0.388267 0.595080 -0.350588
0.392728 0.594658 -0.350526
0.397097 0.594556 -0.350593
0.401507 0.594228 -0.350572
0.405965 0.593618 -0.350441
0.410043 0.594640 -0.350961
0.414282 0.594909 -0.351184
0.418631 0.594611 -0.351186
0.422770 0.595254 -0.351566
0.426909 0.595865 -0.351935
0.431796 0.592605 -0.350768
0.435793 0.593791 -0.351375
0.439721 0.595351 -0.352135
0.444341 0.593069 -0.351367
0.448640 0.592423 -0.351256
0.452603 0.593657 -0.351898
0.456752 0.593767 -0.352097
0.461020 0.593055 -0.351971
0.465233 0.592588 -0.351948
0.469346 0.592684 -0.352153
0.473548 0.592101 -0.352091
0.477814 0.590941 -0.351803
0.481770 0.591953 -0.352387
0.485869 0.591857 -0.352533
0.489809 0.592974 -0.353169
0.493822 0.593501 -0.353573
0.497977 0.592747 -0.353468
0.501969 0.593376 -0.353921
0.505965 0.593960 -0.354361
0.509875 0.595418 -0.355157
0.513999 0.594657 -0.355064
0.517982 0.595352 -0.355561
0.522083 0.594656 -0.355502
0.526150 0.594232 -0.355557
0.530187 0.594111 -0.355736
0.534191 0.594404 -0.356087
0.538223 0.594240 -0.356257
0.542236 0.594333 -0.356535
0.546214 0.595046 -0.357067
0.550296 0.593676 -0.356759
0.554202 0.596056 -0.357974
0.558318 0.593479 -0.357183
0.562336 0.593045 -0.357263
0.566344 0.592802 -0.357425
0.570366 0.591831 -0.357293
0.574336 0.593151 -0.358096
0.578323 0.594194 -0.358791
0.582312 0.596309 -0.359926
0.586337 0.593633 -0.359111
0.590342 0.593608 -0.359380
0.594351 0.594138 -0.359878
0.598361 0.594122 -0.360156
0.602384 0.594825 -0.360732
0.606391 0.594367 -0.360834
0.610418 0.594746 -0.361283
0.614452 0.595145 -0.361743
0.618468 0.594883 -0.361935
0.622512 0.595277 -0.362398
0.626482 0.593920 -0.362144
0.630524 0.594169 -0.362552
0.634537 0.593803 -0.362710
0.638539 0.593252 -0.362794
0.642603 0.593653 -0.363273
0.646747 0.595074 -0.364177
0.650715 0.593941 -0.364027
0.654765 0.593895 -0.364329
0.658890 0.594666 -0.364971
0.662999 0.595133 -0.365491
0.666940 0.593753 -0.365246
0.670955 0.593186 -0.365340
0.675010 0.593004 -0.365596
0.679195 0.593940 -0.366320
0.683277 0.593875 -0.366629
0.687349 0.593682 -0.366887
0.691442 0.593624 -0.367204
0.695650 0.594397 -0.367871
0.699744 0.594231 -0.368146
0.703798 0.593757 -0.368295
0.707854 0.593279 -0.368444
0.712006 0.593420 -0.368855
0.716205 0.593810 -0.369373
0.720249 0.593177 -0.369462
0.724402 0.593186 -0.369824
0.728573 0.593262 -0.370216
0.732718 0.593145 -0.370530
0.736900 0.593196 -0.370916
0.741184 0.593745 -0.371515
0.745613 0.594972 -0.372404
0.749364 0.592684 -0.371806
0.753650 0.593094 -0.372354
0.758001 0.593755 -0.373011
0.762167 0.593484 -0.373274
0.766480 0.593856 -0.373814
0.770590 0.593271 -0.373948
0.774681 0.592586 -0.374041
0.779090 0.593250 -0.374714
0.783349 0.593220 -0.375092
0.787691 0.593490 -0.375601
0.791808 0.592815 -0.375708
0.795771 0.591532 -0.375556
0.799943 0.591058 -0.375754
0.804681 0.592686 -0.376858
0.809178 0.593327 -0.377542
0.813448 0.593089 -0.377851
0.817325 0.591433 -0.377549
0.821616 0.591234 -0.377879
0.826540 0.593159 -0.379133
0.830851 0.592928 -0.379456
0.835053 0.592309 -0.379614
0.839593 0.592761 -0.380241
0.843997 0.592730 -0.380662
0.848910 0.594243 -0.381759
0.853295 0.594049 -0.382117
0.857495 0.593267 -0.382222
0.862187 0.593926 -0.382960
0.866273 0.592760 -0.382904
0.870090 0.590821 -0.382511
0.875530 0.593473 -0.384137
0.879642 0.592319 -0.384098
0.884053 0.591977 -0.384418
0.888270 0.591079 -0.384498
0.892435 0.590026 -0.384514
0.897498 0.591309 -0.385566
0.902181 0.591529 -0.386154
0.907473 0.593247 -0.387411
0.911681 0.592160 -0.387432
0.916084 0.591539 -0.387663
0.920892 0.591873 -0.388325
0.925313 0.591226 -0.388556
0.930395 0.592108 -0.389475
0.935043 0.591910 -0.389918
0.940004 0.592389 -0.390670
0.944433 0.591597 -0.390860
0.949778 0.592827 -0.391964
0.954546 0.592700 -0.392465
0.959635 0.593225 -0.393268
0.964144 0.592438 -0.393487
0.968766 0.591856 -0.393805
0.974091 0.592712 -0.394780
0.978791 0.592196 -0.395143
0.983765 0.592200 -0.395749
0.988478 0.591621 -0.396098
0.994323 0.593253 -0.397462
0.999182 0.592850 -0.397908
1.004744 0.593765 -0.398966
1.009954 0.593922 -0.399686
1.014652 0.593044 -0.399942
1.020589 0.594450 -0.401255
1.025627 0.594096 -0.401769
1.031060 0.594410 -0.402600
1.035561 0.592972 -0.402632
1.042791 0.596377 -0.404915
1.046787 0.593931 -0.404498
1.052039 0.593668 -0.405102
1.057617 0.593908 -0.405951
1.063184 0.594059 -0.406768
1.070160 0.596515 -0.408675
1.075036 0.595352 -0.408900
1.080593 0.595270 -0.409641
1.086298 0.595365 -0.410475
1.090908 0.593630 -0.410456
1.095388 0.591661 -0.410334
1.100818 0.591167 -0.410916
1.108948 0.594821 -0.413474
1.115357 0.595683 -0.414722
1.120395 0.594376 -0.414946
1.125334 0.592889 -0.415090
1.131794 0.593638 -0.416309
1.137331 0.592956 -0.416849
1.144604 0.594761 -0.418591
1.150619 0.594663 -0.419424
1.156939 0.594952 -0.420449
1.162569 0.594216 -0.420981
1.168582 0.593987 -0.421760
1.174482 0.593568 -0.422447
1.180315 0.593033 -0.423076
1.186511 0.592972 -0.423933
1.193536 0.593994 -0.425316
1.200038 0.594287 -0.426338
1.204867 0.592370 -0.426267
1.210371 0.591360 -0.426629
1.218032 0.593140 -0.428356
1.223555 0.592174 -0.428715
1.230694 0.593275 -0.430081
1.236641 0.592889 -0.430692
1.243534 0.593707 -0.431884
1.248738 0.592477 -0.432033
1.254652 0.592172 -0.432619
1.260981 0.592419 -0.433455
1.266695 0.591982 -0.433923
1.271979 0.591107 -0.434140
1.277941 0.591104 -0.434765
1.284802 0.592212 -0.435919
1.289356 0.590726 -0.435733
1.295626 0.591298 -0.436552
0.270124 0.585070 -0.345488
0.272630 0.587803 -0.346937
0.276170 0.588111 -0.347411
0.280963 0.585335 -0.346645
0.283801 0.587787 -0.347936
0.286915 0.589721 -0.349006
0.290569 0.590399 -0.349562
0.294578 0.590274 -0.349782
0.298153 0.591489 -0.350520
0.302732 0.590049 -0.350185
0.306483 0.591057 -0.350811
0.310462 0.591555 -0.351219
0.314570 0.591798 -0.351513
0.318579 0.592447 -0.351957
0.323112 0.591621 -0.351799
0.327296 0.591925 -0.352083
0.331557 0.592074 -0.352294
0.335889 0.592065 -0.352434
0.339835 0.593358 -0.353087
0.343755 0.594828 -0.353804
0.348085 0.595010 -0.353999
0.352667 0.594361 -0.353856
0.357005 0.594555 -0.354046
0.362194 0.591740 -0.353025
0.365834 0.594432 -0.354211
0.370375 0.593892 -0.354098
0.374724 0.594038 -0.354259
0.378857 0.595001 -0.354748
0.383113 0.595496 -0.355049
0.387497 0.595466 -0.355140
0.392067 0.594631 -0.354907
0.396321 0.595042 -0.355177
0.400755 0.594655 -0.355128
0.405194 0.594176 -0.355044
0.409403 0.594656 -0.355348
0.413621 0.595060 -0.355625
0.418006 0.594635 -0.355571
0.422220 0.594955 -0.355821
0.426572 0.594542 -0.355778
0.431024 0.593530 -0.355498
0.435304 0.593295 -0.355534
0.439361 0.594189 -0.356031
0.443507 0.594568 -0.356324
0.448024 0.592778 -0.355744
0.451974 0.594150 -0.356447
0.456268 0.593447 -0.356314
0.460519 0.592892 -0.356246
0.464658 0.592962 -0.356435
0.468548 0.594633 -0.357278
0.472916 0.593031 -0.356798
0.476795 0.594762 -0.357674
0.480834 0.595360 -0.358096
0.485342 0.592282 -0.357029
0.489487 0.591828 -0.357031
0.493310 0.593989 -0.358101
0.497366 0.594212 -0.358387
0.501739 0.591459 -0.357467
0.505604 0.593297 -0.358419
0.509436 0.595589 -0.359562
0.513513 0.595440 -0.359714
0.517591 0.595200 -0.359833
0.521628 0.595358 -0.360118
0.525763 0.594223 -0.359879
0.529842 0.593631 -0.359866
0.533880 0.593507 -0.360047
0.537890 0.593747 -0.360381
0.541884 0.594257 -0.360830
0.545883 0.594702 -0.361256
0.549886 0.595103 -0.361668
0.554010 0.592760 -0.360957
0.557937 0.594919 -0.362098
0.561975 0.594316 -0.362108
0.566020 0.593263 -0.361935
0.570036 0.592933 -0.362064
0.574065 0.591721 -0.361831
0.578061 0.592115 -0.362264
0.582048 0.593934 -0.363289
0.586053 0.595806 -0.364340
0.590073 0.594141 -0.363932
0.594089 0.594281 -0.364273
0.598113 0.594810 -0.364779
0.602133 0.594748 -0.365043
0.606138 0.593877 -0.364974
0.610152 0.593620 -0.365162
0.614176 0.593691 -0.365489
0.618212 0.593980 -0.365910
0.622252 0.594255 -0.366328
0.626328 0.595175 -0.367018
0.630351 0.594814 -0.367176
0.634326 0.593585 -0.366974
0.638340 0.593153 -0.367107
0.642533 0.595420 -0.368372
0.646504 0.594195 -0.368178
0.650518 0.593641 -0.368267
0.654549 0.593310 -0.368452
0.658757 0.595010 -0.369492
0.662830 0.594995 -0.369814
0.666802 0.593880 -0.369676
0.670805 0.593134 -0.369695
0.674914 0.593402 -0.370143
0.678898 0.592479 -0.370091
0.683027 0.592828 -0.370578
0.687078 0.592458 -0.370763
0.691475 0.594799 -0.372099
0.695497 0.594073 -0.372138
0.699611 0.594024 -0.372467
0.703645 0.593371 -0.372541
0.707886 0.594125 -0.373215
0.711954 0.593645 -0.373366
0.715851 0.592069 -0.373053
0.719914 0.591574 -0.373201
0.724342 0.593245 -0.374276
0.728471 0.593039 -0.374553
0.732505 0.592271 -0.374591
0.736656 0.592142 -0.374905
0.741098 0.593528 -0.375870
0.745534 0.594770 -0.376777
0.749720 0.594640 -0.377099
0.753770 0.593817 -0.377124
0.758202 0.594822 -0.377939
0.762143 0.593446 -0.377730
0.766376 0.593423 -0.378106
0.770546 0.593087 -0.378350
0.774681 0.592575 -0.378519
0.779058 0.593075 -0.379130
0.783408 0.593401 -0.379668
0.787716 0.593502 -0.380111
0.791856 0.592894 -0.380249
0.795844 0.591679 -0.380126
0.800319 0.592337 -0.380820
0.804631 0.592318 -0.381222
0.809024 0.592559 -0.381741
0.813497 0.593040 -0.382368
0.817874 0.593126 -0.382826
0.821992 0.592277 -0.382878
0.826267 0.591948 -0.383161
0.830536 0.591578 -0.383428
0.834970 0.591720 -0.383924
0.839324 0.591560 -0.384290
0.843986 0.592340 -0.385075
0.848725 0.593293 -0.385941
0.853496 0.594273 -0.386823
0.858023 0.594448 -0.387355
0.862327 0.593918 -0.387578
0.866622 0.593337 -0.387783
0.871354 0.593982 -0.388536
0.875350 0.592494 -0.388345
0.879808 0.592292 -0.388731
0.883978 0.591269 -0.388754
0.888172 0.590296 -0.388804
0.892939 0.590830 -0.389532
0.898634 0.593723 -0.391321
0.903296 0.593832 -0.391871
0.907148 0.591844 -0.391485
0.911458 0.591009 -0.391621
0.916469 0.591878 -0.392529
0.921380 0.592433 -0.393302
0.925846 0.591862 -0.393574
0.930089 0.590733 -0.393599
0.935101 0.591376 -0.394432
0.940046 0.591800 -0.395172
0.945237 0.592720 -0.396145
0.950104 0.592840 -0.396763
0.954439 0.591735 -0.396829
0.959314 0.591783 -0.397428
0.964298 0.592010 -0.398116
0.969353 0.592330 -0.398855
0.974588 0.592963 -0.399746
0.979411 0.592676 -0.400223
0.984863 0.593623 -0.401276
0.989427 0.592703 -0.401478
0.993852 0.591471 -0.401543
0.999457 0.592530 -0.402675
1.005014 0.593412 -0.403736
1.009865 0.592860 -0.404142
1.015378 0.593515 -0.405118
1.020560 0.593475 -0.405780
1.025357 0.592663 -0.406092
1.031458 0.594189 -0.407505
1.037071 0.594737 -0.408473
1.042759 0.595342 -0.409479
1.047887 0.594881 -0.409995
1.053485 0.595185 -0.410881
1.058712 0.594778 -0.411442
1.064085 0.594565 -0.412105
1.070346 0.595783 -0.413456
1.075872 0.595686 -0.414196
1.081259 0.595298 -0.414807
1.086363 0.594392 -0.415181
1.091528 0.593539 -0.415588
1.096808 0.592822 -0.416069
1.103637 0.594492 -0.417704
1.109389 0.594387 -0.418498
1.114854 0.593780 -0.419059
1.120533 0.593450 -0.419761
1.125452 0.591926 -0.419892
1.133307 0.594741 -0.422133
1.139100 0.594406 -0.422855
1.144972 0.594139 -0.423616
1.150530 0.593376 -0.424138
1.156846 0.593658 -0.425175
1.163573 0.594470 -0.426475
1.169329 0.593870 -0.427084
1.174848 0.592920 -0.427519
1.180772 0.592510 -0.428219
1.187903 0.593710 -0.429711
1.192957 0.592090 -0.429802
1.200261 0.593460 -0.431370
1.206332 0.593179 -0.432110
1.210947 0.591016 -0.431899
1.218689 0.592906 -0.433700
1.225352 0.593398 -0.434790
1.230934 0.592538 -0.435184
1.237942 0.593492 -0.436472
1.243565 0.592752 -0.436886
1.249215 0.592093 -0.437317
1.254899 0.591531 -0.437772
1.260702 0.591172 -0.438302
1.266319 0.590653 -0.438722
1.271679 0.589901 -0.438993
1.278729 0.591202 -0.440279
1.284601 0.591188 -0.440864
1.290052 0.590766 -0.441206
1.295860 0.590837 -0.441767
0.269632 0.585099 -0.349739
0.272275 0.587438 -0.351056
0.275551 0.588372 -0.351793
0.278674 0.589889 -0.352749
0.284298 0.585038 -0.351126
0.286831 0.588434 -0.352804
0.290169 0.589906 -0.353692
0.293712 0.591003 -0.354413
0.297510 0.591566 -0.354903
0.301399 0.592029 -0.355337
0.305703 0.591453 -0.355335
0.309937 0.591185 -0.355443
0.314361 0.590466 -0.355355
0.318633 0.590282 -0.355469
0.322506 0.591391 -0.356096
0.326898 0.591030 -0.356114
0.330863 0.592070 -0.356692
0.334987 0.592703 -0.357094
0.339400 0.592483 -0.357142
0.343361 0.593791 -0.357803
0.347679 0.593987 -0.358006
0.352102 0.593864 -0.358073
0.356231 0.594778 -0.358557
0.360531 0.595133 -0.358810
0.365249 0.593994 -0.358452
0.369575 0.594250 -0.358659
0.373838 0.594744 -0.358962
0.377944 0.595840 -0.359509
0.382276 0.596074 -0.359704
0.386561 0.596477 -0.359969
0.391023 0.596136 -0.359931
0.395746 0.594649 -0.359427
0.400272 0.593891 -0.359221
0.404642 0.593732 -0.359263
0.408792 0.594497 -0.359684
0.413089 0.594573 -0.359826
0.417381 0.594615 -0.359958
0.421759 0.594186 -0.359900
0.426203 0.593341 -0.359676
0.430612 0.592567 -0.359484
0.434772 0.592985 -0.359783
0.438799 0.594079 -0.360364
0.443170 0.593260 -0.360166
0.447475 0.592696 -0.360076
0.451652 0.592786 -0.360258
0.455671 0.593765 -0.360809
0.459824 0.593896 -0.361017
0.463855 0.594754 -0.361528
0.468159 0.593774 -0.361289
0.472428 0.592901 -0.361098
0.476486 0.593399 -0.361475
0.480488 0.594287 -0.362016
0.484773 0.592984 -0.361661
0.488887 0.592878 -0.361803
0.492843 0.594031 -0.362468
0.496843 0.594823 -0.362989
0.500978 0.594384 -0.363007
0.505019 0.594740 -0.363357
0.509079 0.594877 -0.363621
0.513142 0.594932 -0.363856
0.517198 0.595004 -0.364102
0.521230 0.595303 -0.364446
0.525349 0.594475 -0.364327
0.529477 0.593358 -0.364093
0.533724 0.590295 -0.363054
0.537569 0.592989 -0.364407
0.541551 0.593769 -0.364970
0.545549 0.594323 -0.365444
0.549591 0.594058 -0.365581
0.553623 0.593889 -0.365762
0.557593 0.595239 -0.366579
0.561630 0.594957 -0.366720
0.565682 0.594042 -0.366600
0.569736 0.592611 -0.366268
0.573746 0.592729 -0.366585
0.577729 0.594886 -0.367759
0.581761 0.593861 -0.367605
0.585773 0.595724 -0.368664
0.589801 0.595206 -0.368729
0.593826 0.594857 -0.368868
0.597851 0.594633 -0.369063
0.601876 0.594510 -0.369302
0.605886 0.593603 -0.369215
0.609903 0.593256 -0.369365
0.613933 0.593364 -0.369710
0.617960 0.593295 -0.369983
0.622021 0.593996 -0.370584
0.626099 0.594848 -0.371253
0.630159 0.595119 -0.371678
0.634186 0.594683 -0.371808
0.638249 0.594856 -0.372198
0.642385 0.596044 -0.373021
0.646490 0.596575 -0.373568
0.650346 0.593702 -0.372673
0.654431 0.593954 -0.373106
0.658545 0.594464 -0.373652
0.662611 0.594340 -0.373932
0.666623 0.593602 -0.373951
0.670714 0.593682 -0.374321
0.674790 0.593558 -0.374607
0.678695 0.591856 -0.374220
0.682908 0.592908 -0.375013
0.687099 0.593637 -0.375671
0.691046 0.592333 -0.375460
0.695374 0.593978 -0.376516
0.699504 0.594012 -0.376884
0.703628 0.593949 -0.377212
0.707768 0.593957 -0.377573
0.711896 0.593838 -0.377882
0.715833 0.592475 -0.377656
0.719956 0.592296 -0.377942
0.724474 0.594443 -0.379238
0.728417 0.593094 -0.379023
0.732310 0.591499 -0.378703
0.736422 0.591149 -0.378925
0.740977 0.593128 -0.380159
0.745450 0.594535 -0.381150
0.749632 0.594369 -0.381460
0.753920 0.594687 -0.381983
0.757849 0.593237 -0.381737
0.762064 0.593146 -0.382086
0.766207 0.592695 -0.382280
0.770410 0.592493 -0.382586
0.774760 0.592900 -0.383161
0.779062 0.593048 -0.383625
0.783297 0.592870 -0.383949
0.787621 0.593023 -0.384422
0.791945 0.593128 -0.384876
0.796003 0.592160 -0.384861
0.800287 0.592049 -0.385225
0.804569 0.591903 -0.385578
0.808946 0.592066 -0.386070
0.813588 0.593141 -0.386969
0.817667 0.592150 -0.386957
0.821852 0.591524 -0.387109
0.826021 0.590827 -0.387232
0.831413 0.594196 -0.389167
0.835326 0.592561 -0.388881
0.839136 0.590613 -0.388457
0.844148 0.592492 -0.389743
0.848191 0.591255 -0.389643
0.852504 0.590845 -0.389915
0.858111 0.594296 -0.391922
0.862369 0.593608 -0.392080
0.866597 0.592815 -0.392193
0.871039 0.592617 -0.392579
0.875704 0.593010 -0.393235
0.880246 0.593011 -0.393719
0.884066 0.590997 -0.393298
0.888296 0.590104 -0.393387
0.894151 0.593493 -0.395420
0.898962 0.594017 -0.396162
0.903192 0.592988 -0.396206
0.907106 0.591146 -0.395883
0.911285 0.589971 -0.395868
0.916754 0.591957 -0.397300
0.921435 0.591929 -0.397821
0.925887 0.591307 -0.398075
0.930463 0.590950 -0.398457
0.934789 0.589970 -0.398559
0.939981 0.590955 -0.399570
0.944956 0.591371 -0.400327
0.950846 0.593770 -0.402006
0.954571 0.591284 -0.401441
0.959533 0.591503 -0.402130
0.965244 0.593269 -0.403544
0.970063 0.593047 -0.404046
0.974727 0.592451 -0.404383
0.979719 0.592494 -0.405024
0.984860 0.592785 -0.405789
0.989666 0.592336 -0.406218
0.994195 0.591291 -0.406376
0.999562 0.591859 -0.407298
1.005253 0.592984 -0.408491
1.010079 0.592364 -0.408875
1.015391 0.592621 -0.409680
1.021159 0.593660 -0.410865
1.026836 0.594445 -0.411942
1.032132 0.594455 -0.412663
1.037291 0.594154 -0.413247
1.042767 0.594362 -0.414082
1.048901 0.595659 -0.415448
1.054312 0.595603 -0.416180
1.059203 0.594589 -0.416464
1.064319 0.593915 -0.416920
1.070397 0.594809 -0.418139
1.076736 0.596049 -0.419536
1.081579 0.594739 -0.419717
1.086542 0.593588 -0.419982
1.092965 0.594741 -0.421372
1.097680 0.593093 -0.421413
1.104889 0.595330 -0.423352
1.109774 0.593848 -0.423491
1.115057 0.592950 -0.423921
1.120759 0.592645 -0.424649
1.127237 0.593451 -0.425929
1.133952 0.594534 -0.427355
1.139591 0.593960 -0.427972
1.145191 0.593288 -0.428545
1.150528 0.592202 -0.428917
1.158133 0.594317 -0.430879
1.164071 0.593998 -0.431637
1.169714 0.593238 -0.432175
1.175986 0.593324 -0.433134
1.182676 0.593947 -0.434360
1.188932 0.593947 -0.435272
1.194815 0.593431 -0.435918
1.202338 0.595073 -0.437644
1.207347 0.593393 -0.437686
1.212662 0.592139 -0.437928
1.221209 0.595053 -0.440270
1.226093 0.593278 -0.440218
1.231207 0.591844 -0.440318
1.237090 0.591419 -0.440911
1.243327 0.591469 -0.441725
1.249777 0.591817 -0.442667
1.256015 0.591947 -0.443474
1.261273 0.590951 -0.443673
1.266596 0.590108 -0.443920
1.272094 0.589548 -0.444282
1.277429 0.588873 -0.444552
1.285132 0.591022 -0.446249
1.290411 0.590431 -0.446495
1.294748 0.588856 -0.446195
0.268248 0.587376 -0.354908
0.272030 0.586814 -0.355071
0.274923 0.588676 -0.356202
0.278070 0.590084 -0.357133
0.281945 0.589780 -0.357349
0.286487 0.587857 -0.356887
0.289779 0.589397 -0.357820
0.293074 0.591117 -0.358811
0.296918 0.591514 -0.359244
0.300944 0.591550 -0.359514
0.304696 0.592499 -0.360141
0.308441 0.593617 -0.360824
0.312765 0.593196 -0.360860
0.316988 0.593168 -0.361044
0.321841 0.591339 -0.360475
0.326016 0.591620 -0.360761
0.329672 0.593605 -0.361736
0.333904 0.593905 -0.362009
0.338612 0.592741 -0.361669
0.343021 0.592568 -0.361730
0.347276 0.592948 -0.362010
0.351511 0.593442 -0.362332
0.355802 0.593781 -0.362585
0.359927 0.594739 -0.363089
0.364556 0.593925 -0.362858
0.368881 0.594194 -0.363071
0.373120 0.594787 -0.363416
0.377507 0.594824 -0.363530
0.381764 0.595348 -0.363845
0.385963 0.596102 -0.364255
0.390418 0.595806 -0.364232
0.394856 0.595535 -0.364220
0.399339 0.595012 -0.364105
0.403849 0.594304 -0.363916
0.408113 0.594609 -0.364148
0.412519 0.594226 -0.364098
0.416961 0.593597 -0.363950
0.421346 0.593148 -0.363878
0.425790 0.592326 -0.363656
0.429893 0.593128 -0.364111
0.433950 0.594146 -0.364659
0.438397 0.593065 -0.364340
0.442298 0.594862 -0.365220
0.447100 0.591583 -0.363998
0.450876 0.594037 -0.365159
0.455101 0.593867 -0.365236
0.459326 0.593611 -0.365281
0.463478 0.593740 -0.365492
0.467560 0.594273 -0.365874
0.471875 0.593160 -0.365577
0.475749 0.595056 -0.366536
0.480140 0.593186 -0.365932
0.484319 0.592730 -0.365921
0.488360 0.593273 -0.366331
0.492439 0.593481 -0.366607
0.496607 0.592859 -0.366540
0.500644 0.593311 -0.366926
0.504661 0.593924 -0.367384
0.508733 0.593992 -0.367619
0.512739 0.594691 -0.368122
0.516834 0.594410 -0.368219
0.521145 0.591466 -0.367205
0.524887 0.595276 -0.369026
0.528955 0.595134 -0.369194
0.533168 0.592815 -0.368452
0.537220 0.592594 -0.368595
0.541030 0.596374 -0.370424
0.545229 0.593617 -0.369508
0.549248 0.593882 -0.369866
0.553251 0.594559 -0.370403
0.557297 0.594220 -0.370516
0.561326 0.594269 -0.370795
0.565393 0.592976 -0.370511
0.569420 0.592739 -0.370676
0.573425 0.593545 -0.371287
0.577421 0.595519 -0.372395
0.581453 0.595695 -0.372747
0.585501 0.592756 -0.371780
0.589523 0.594736 -0.372903
0.593555 0.594742 -0.373192
0.597587 0.594644 -0.373440
0.601602 0.593384 -0.373197
0.605663 0.594909 -0.374142
0.609669 0.593617 -0.373890
0.613687 0.593050 -0.373949
0.617735 0.593415 -0.374410
0.621762 0.593110 -0.374587
0.625828 0.593666 -0.375134
0.629868 0.593516 -0.375383
0.633932 0.593794 -0.375818
0.638042 0.594706 -0.376528
0.642166 0.595623 -0.377244
0.646273 0.596129 -0.377786
0.650300 0.595454 -0.377823
0.654227 0.593565 -0.377340
0.658287 0.593396 -0.377599
0.662366 0.593401 -0.377935
0.666503 0.593962 -0.378514
0.670610 0.594112 -0.378919
0.674583 0.592940 -0.378754
0.678687 0.593008 -0.379127
0.682780 0.592919 -0.379436
0.686813 0.592303 -0.379517
0.690967 0.592642 -0.380016
0.695434 0.595283 -0.381518
0.699468 0.594520 -0.381543
0.703541 0.594042 -0.381695
0.707651 0.593798 -0.381950
0.711749 0.593452 -0.382163
0.715812 0.592862 -0.382271
0.719819 0.591919 -0.382227
0.724377 0.594283 -0.383633
0.728285 0.592699 -0.383313
0.732182 0.591102 -0.382988
0.737020 0.594695 -0.384944
0.741167 0.594381 -0.385188
0.745124 0.593056 -0.384989
0.749469 0.593717 -0.385666
0.753574 0.593125 -0.385794
0.757574 0.592021 -0.385697
0.761864 0.592280 -0.386206
0.766097 0.592233 -0.386581
0.770356 0.592261 -0.386993
0.774747 0.592827 -0.387646
0.778982 0.592660 -0.387977
0.783064 0.591828 -0.388014
0.787431 0.592150 -0.388569
0.791784 0.592366 -0.389078
0.796094 0.592367 -0.389496
0.799990 0.590750 -0.389193
0.804529 0.591562 -0.389979
0.809491 0.593850 -0.391430
0.813174 0.591419 -0.390770
0.817304 0.590615 -0.390842
0.821691 0.590690 -0.391312
0.826707 0.592862 -0.392729
0.831205 0.593186 -0.393319
0.835257 0.592000 -0.393233
0.839540 0.591560 -0.393486
0.844127 0.592054 -0.394165
0.848436 0.591629 -0.394432
0.852619 0.590794 -0.394518
0.858157 0.594013 -0.396447
0.862222 0.592734 -0.396339
0.866338 0.591606 -0.396304
0.870863 0.591641 -0.396802
0.875613 0.592265 -0.397574
0.880028 0.591900 -0.397899
0.884576 0.591864 -0.398379
0.888952 0.591326 -0.398635
0.893582 0.591434 -0.399192
0.898994 0.593530 -0.400668
0.903267 0.592595 -0.400757
0.907378 0.591232 -0.400655
0.911615 0.590179 -0.400699
0.916868 0.591605 -0.401894
0.921340 0.591051 -0.402181
0.926028 0.590983 -0.402698
0.930747 0.590939 -0.403233
0.935786 0.591593 -0.404100
0.940742 0.591990 -0.404855
0.944891 0.590499 -0.404737
0.949808 0.590713 -0.405421
0.955478 0.592525 -0.406861
0.961145 0.594233 -0.408261
0.965602 0.593249 -0.408410
0.970520 0.593212 -0.409010
0.974872 0.591939 -0.409036
0.979526 0.591264 -0.409351
0.985181 0.592592 -0.410620
0.989837 0.591819 -0.410906
0.996069 0.594137 -0.412665
1.001072 0.593931 -0.413238
1.005515 0.592584 -0.413278
1.010475 0.592202 -0.413785
1.016800 0.594347 -0.415507
1.022093 0.594452 -0.416268
1.027263 0.594266 -0.416900
1.032256 0.593699 -0.417359
1.037614 0.593741 -0.418120
1.043622 0.594874 -0.419418
1.049185 0.595133 -0.420306
1.054173 0.594324 -0.420688
1.058982 0.593158 -0.420907
1.064614 0.593353 -0.421796
1.071800 0.596087 -0.423932
1.076968 0.595344 -0.424388
1.082070 0.594444 -0.424776
1.088615 0.595838 -0.426296
1.093047 0.593750 -0.426121
1.100009 0.595652 -0.427915
1.105835 0.595670 -0.428792
1.110680 0.594102 -0.428896
1.115692 0.592766 -0.429121
1.121569 0.592708 -0.429985
1.127786 0.593103 -0.431082
1.133637 0.592890 -0.431884
1.140492 0.594100 -0.433403
1.145994 0.593270 -0.433908
1.151732 0.592748 -0.434570
1.158647 0.593862 -0.436057
1.164494 0.593411 -0.436759
1.170545 0.593216 -0.437590
1.176422 0.592752 -0.438284
1.183127 0.593395 -0.439536
1.190028 0.594266 -0.440900
1.195723 0.593496 -0.441424
1.202439 0.594075 -0.442627
1.208196 0.593384 -0.443171
1.213196 0.591732 -0.443207
1.219816 0.592190 -0.444312
1.227750 0.594316 -0.446260
1.233672 0.593900 -0.446881
1.237363 0.590748 -0.446065
1.243060 0.590157 -0.446547
1.249987 0.591116 -0.447809
1.260610 0.596566 -0.451382
1.262537 0.591567 -0.449491
1.267487 0.590299 -0.449508
1.273564 0.590443 -0.450230
1.278391 0.589196 -0.450192
1.285120 0.590240 -0.451319
1.290790 0.590130 -0.451806
1.297818 0.591646 -0.453113
0.265112 0.594042 -0.361911
0.271703 0.586418 -0.359178
0.274708 0.587941 -0.360192
0.277596 0.589961 -0.361394
0.281891 0.588512 -0.361147
0.285564 0.588830 -0.361611
0.289062 0.589781 -0.362319
0.292298 0.591620 -0.363378
0.296449 0.591133 -0.363457
0.300521 0.590996 -0.363663
0.304011 0.592633 -0.364590
0.307878 0.593364 -0.365125
0.311710 0.594337 -0.365746
0.316022 0.594032 -0.365821
0.320555 0.593153 -0.365644
0.324804 0.593211 -0.365843
0.329069 0.593301 -0.366044
0.333598 0.592637 -0.365920
0.337715 0.593338 -0.366356
0.342171 0.593011 -0.366354
0.346545 0.592991 -0.366472
0.350967 0.592845 -0.366530
0.354949 0.594238 -0.367226
0.359558 0.593499 -0.367026
0.363804 0.594044 -0.367359
0.367899 0.595166 -0.367930
0.371875 0.596770 -0.368700
0.377207 0.593264 -0.367331
0.381398 0.594029 -0.367748
0.385561 0.594913 -0.368215
0.389332 0.597401 -0.369354
0.394127 0.595712 -0.368745
0.398502 0.595687 -0.368834
0.402864 0.595671 -0.368929
0.407436 0.594672 -0.368613
0.411769 0.594660 -0.368714
0.416496 0.592750 -0.368022
0.421033 0.591599 -0.367651
0.425180 0.592247 -0.368038
0.429372 0.592637 -0.368321
0.433454 0.593556 -0.368830
0.437545 0.594414 -0.369318
0.441915 0.593720 -0.369158
