ply
format ascii 1.0
comment ---
element vertex 1682
property float x
property float y
property float z
element face 0
property list uchar uint vertex_indices
end_header
0.316955 0.606965 -0.115607
0.319513 0.607549 -0.115697
0.323366 0.610886 -0.116409
-0.230247 0.602955 -0.125887
-0.226789 0.601587 -0.125552
-0.225112 0.602930 -0.125890
-0.222567 0.603033 -0.125898
-0.220161 0.603405 -0.125959
-0.217859 0.603999 -0.126062
-0.215420 0.604438 -0.126110
-0.212656 0.604426 -0.126029
-0.210238 0.605007 -0.126084
-0.208007 0.605941 -0.126215
-0.205695 0.606805 -0.126314
-0.203366 0.607696 -0.126406
-0.200738 0.608145 -0.126375
-0.197672 0.607907 -0.126159
-0.195028 0.608401 -0.126116
-0.192629 0.609343 -0.126176
-0.187862 0.606262 -0.125216
-0.185042 0.606507 -0.125084
-0.183310 0.608678 -0.125426
-0.181012 0.609898 -0.125523
-0.177622 0.609195 -0.125133
-0.173725 0.607557 -0.124507
-0.171562 0.609057 -0.124656
-0.168850 0.609567 -0.124556
-0.165737 0.609326 -0.124268
-0.162235 0.608330 -0.123791
-0.159545 0.608854 -0.123688
-0.157016 0.609685 -0.123660
-0.153752 0.609071 -0.123276
-0.151180 0.609796 -0.123222
-0.148113 0.609517 -0.122922
-0.145420 0.609969 -0.122801
-0.142263 0.609446 -0.122446
-0.139319 0.609325 -0.122189
-0.136367 0.609154 -0.121924
-0.133169 0.608423 -0.121526
-0.130491 0.608766 -0.121391
-0.127771 0.608995 -0.121230
-0.125226 0.609588 -0.121161
-0.122671 0.610138 -0.121084
-0.119785 0.609911 -0.120824
-0.117336 0.610656 -0.120801
-0.114287 0.609978 -0.120440
-0.110979 0.608633 -0.119924
-0.108173 0.608424 -0.119684
-0.105684 0.608951 -0.119623
-0.103213 0.609502 -0.119571
-0.100741 0.610032 -0.119517
-0.098240 0.610469 -0.119445
-0.094917 0.608757 -0.118868
-0.092731 0.609944 -0.118981
-0.090022 0.609742 -0.118769
-0.087562 0.610175 -0.118711
-0.085138 0.610682 -0.118673
-0.082669 0.611051 -0.118606
-0.079631 0.609789 -0.118160
-0.076979 0.609565 -0.117961
-0.074471 0.609720 -0.117855
-0.071892 0.609641 -0.117697
-0.069421 0.609851 -0.117610
-0.066928 0.609973 -0.117506
-0.064419 0.610019 -0.117387
-0.062097 0.610625 -0.117402
-0.059566 0.610553 -0.117261
-0.057157 0.610848 -0.117209
-0.054570 0.610535 -0.117019
-0.051916 0.609959 -0.116771
-0.049359 0.609667 -0.116592
-0.046902 0.609686 -0.116487
-0.044133 0.608573 -0.116124
-0.041798 0.608962 -0.116111
-0.039290 0.608700 -0.115949
-0.036856 0.608683 -0.115847
-0.034406 0.608579 -0.115727
-0.032173 0.609297 -0.115799
-0.029763 0.609307 -0.115710
-0.027354 0.609302 -0.115619
-0.024898 0.609078 -0.115481
-0.022699 0.609911 -0.115587
-0.020290 0.609846 -0.115489
-0.017854 0.609635 -0.115360
-0.015419 0.609397 -0.115227
-0.012992 0.609164 -0.115097
-0.010829 0.610150 -0.115247
-0.008575 0.610719 -0.115303
-0.005927 0.609336 -0.114917
-0.003695 0.609978 -0.114993
-0.001313 0.609853 -0.114897
0.001141 0.609310 -0.114707
0.003399 0.609796 -0.114753
0.005637 0.610402 -0.114827
0.007896 0.610902 -0.114879
0.010233 0.610942 -0.114828
0.012718 0.610051 -0.114567
0.014996 0.610398 -0.114588
0.017194 0.611272 -0.114730
0.019500 0.611458 -0.114718
0.021979 0.610423 -0.114430
0.024451 0.609346 -0.114135
0.026706 0.609798 -0.114187
0.028915 0.610613 -0.114321
0.031231 0.610615 -0.114274
0.033549 0.610579 -0.114219
0.035888 0.610335 -0.114118
0.038163 0.610636 -0.114141
0.040555 0.609825 -0.113915
0.042775 0.610635 -0.114056
0.045099 0.610406 -0.113963
0.047383 0.610586 -0.113964
0.049685 0.610552 -0.113917
0.052033 0.609921 -0.113738
0.054361 0.609442 -0.113593
0.056660 0.609291 -0.113524
0.058903 0.609945 -0.113637
0.061170 0.610271 -0.113677
0.063479 0.609901 -0.113562
0.065803 0.609158 -0.113364
0.068043 0.609980 -0.113519
0.070324 0.610009 -0.113497
0.072584 0.610584 -0.113598
0.074886 0.610013 -0.113443
0.077165 0.610025 -0.113421
0.079454 0.609631 -0.113308
0.081722 0.610041 -0.113377
0.083978 0.611429 -0.113667
0.086266 0.610962 -0.113541
0.088548 0.610770 -0.113478
0.090827 0.610064 -0.113302
0.093100 0.609591 -0.113178
0.095365 0.608693 -0.112961
0.097627 0.608219 -0.112840
0.099903 0.608754 -0.112947
0.102219 0.610834 -0.113401
0.104485 0.610382 -0.113289
0.106771 0.610672 -0.113345
0.109025 0.610031 -0.113193
0.111324 0.610585 -0.113311
0.113628 0.611140 -0.113430
0.115877 0.610490 -0.113281
0.118256 0.612274 -0.113679
0.120485 0.611294 -0.113459
0.122574 0.608282 -0.112786
0.124873 0.608678 -0.112877
0.127177 0.609064 -0.112968
0.129498 0.609590 -0.113092
0.131678 0.608375 -0.112828
0.134017 0.609052 -0.112989
0.136290 0.608947 -0.112977
0.138550 0.608693 -0.112933
0.140889 0.609208 -0.113064
0.143231 0.609685 -0.113188
0.145425 0.608787 -0.113006
0.147545 0.607304 -0.112695
0.149960 0.608326 -0.112948
0.152294 0.608613 -0.113037
0.154689 0.609323 -0.113224
0.156999 0.609324 -0.113255
0.159257 0.608943 -0.113201
0.161558 0.608849 -0.113215
0.163924 0.609165 -0.113323
0.166418 0.610258 -0.113608
0.168706 0.609971 -0.113586
0.171021 0.609840 -0.113601
0.173403 0.610078 -0.113701
0.175663 0.609580 -0.113639
0.178168 0.610438 -0.113885
0.180646 0.611076 -0.114084
0.182559 0.608674 -0.113601
0.185024 0.609192 -0.113778
0.187545 0.609938 -0.114010
0.189874 0.609674 -0.114018
0.192212 0.609432 -0.114032
0.194708 0.609907 -0.114212
0.197130 0.609992 -0.114307
0.199446 0.609563 -0.114289
0.201782 0.609212 -0.114291
0.204444 0.610224 -0.114605
0.206937 0.610459 -0.114747
0.209323 0.610211 -0.114782
0.211409 0.608739 -0.114541
0.214242 0.610220 -0.114975
0.216950 0.611129 -0.115282
0.219500 0.611371 -0.115441
0.221935 0.611142 -0.115495
0.224223 0.610359 -0.115426
0.226538 0.609664 -0.115380
0.228900 0.609124 -0.115371
0.234362 0.610499 -0.115923
0.236561 0.609340 -0.115779
0.239272 0.609859 -0.116023
0.241374 0.608380 -0.115809
0.244299 0.609513 -0.116198
0.246909 0.609611 -0.116351
0.249589 0.609892 -0.116546
0.252323 0.610303 -0.116773
0.254644 0.609465 -0.116712
0.257507 0.610206 -0.117016
0.259911 0.609597 -0.117007
0.262336 0.609054 -0.117013
0.264896 0.608894 -0.117105
0.267521 0.608906 -0.117236
0.270113 0.608828 -0.117344
0.272532 0.608293 -0.117342
0.275664 0.609642 -0.117777
0.278600 0.610456 -0.118083
0.281253 0.610543 -0.118214
0.283721 0.610180 -0.118234
0.285982 0.609336 -0.118134
0.288290 0.608655 -0.118065
0.291207 0.609488 -0.118345
0.294300 0.610754 -0.118718
0.296554 0.610056 -0.118620
0.298808 0.609421 -0.118527
0.301491 0.609828 -0.118669
0.303895 0.609647 -0.118662
0.306134 0.609156 -0.118570
0.308220 0.608392 -0.118402
0.310858 0.608916 -0.118526
0.312812 0.608010 -0.118300
0.314497 0.606612 -0.117946
0.317377 0.607844 -0.118199
0.319366 0.607251 -0.118009
0.321929 0.607933 -0.118106
-0.228553 0.600521 -0.127792
-0.226214 0.600779 -0.127877
-0.224043 0.601349 -0.128029
-0.222339 0.602692 -0.128365
-0.220402 0.603755 -0.128613
-0.218493 0.604933 -0.128875
-0.215055 0.603805 -0.128525
-0.212384 0.603910 -0.128479
-0.210175 0.604796 -0.128620
-0.208069 0.605906 -0.128806
-0.205665 0.606600 -0.128869
-0.202884 0.606730 -0.128773
-0.200531 0.607603 -0.128857
-0.198149 0.608478 -0.128928
-0.194525 0.607312 -0.128463
-0.191814 0.607699 -0.128387
-0.188719 0.607453 -0.128139
-0.185432 0.606889 -0.127801
-0.182921 0.607683 -0.127803
-0.180696 0.609011 -0.127933
-0.177640 0.608887 -0.127687
-0.174839 0.609222 -0.127551
-0.171065 0.607782 -0.126961
-0.168076 0.607758 -0.126727
-0.165473 0.608448 -0.126670
-0.163318 0.609994 -0.126827
-0.160083 0.609489 -0.126464
-0.157082 0.609409 -0.126207
-0.154109 0.609364 -0.125959
-0.151021 0.609068 -0.125648
-0.148063 0.609003 -0.125396
-0.145429 0.609570 -0.125303
-0.142384 0.609277 -0.124997
-0.139418 0.609113 -0.124725
-0.136639 0.609311 -0.124545
-0.133723 0.609191 -0.124289
-0.131215 0.609921 -0.124246
-0.128305 0.609754 -0.123983
-0.125046 0.608773 -0.123524
-0.122420 0.609161 -0.123406
-0.119989 0.609970 -0.123393
-0.116891 0.609220 -0.123002
-0.114337 0.609694 -0.122915
-0.111900 0.610425 -0.122894
-0.108898 0.609778 -0.122540
-0.105855 0.608978 -0.122153
-0.103368 0.609500 -0.122092
-0.100730 0.609621 -0.121937
-0.098174 0.609922 -0.121829
-0.094829 0.608156 -0.121226
-0.093075 0.610478 -0.121614
-0.090653 0.611058 -0.121584
-0.087813 0.610493 -0.121282
-0.085293 0.610753 -0.121183
-0.082672 0.610709 -0.121014
-0.079848 0.610058 -0.120704
-0.077240 0.609975 -0.120533
-0.074424 0.609250 -0.120213
-0.071731 0.608836 -0.119971
-0.069321 0.609226 -0.119924
-0.067092 0.610153 -0.120008
-0.064637 0.610378 -0.119928
-0.062359 0.611141 -0.119978
-0.059964 0.611525 -0.119942
-0.056852 0.609557 -0.119351
-0.054304 0.609359 -0.119183
-0.051897 0.609605 -0.119123
-0.049769 0.610790 -0.119288
-0.046477 0.607924 -0.118499
-0.044062 0.608046 -0.118418
-0.041714 0.608388 -0.118393
-0.039483 0.609146 -0.118467
-0.037081 0.609269 -0.118394
-0.034618 0.609137 -0.118264
-0.032153 0.608966 -0.118127
-0.029834 0.609345 -0.118122
-0.027410 0.609288 -0.118016
-0.024946 0.609039 -0.117868
-0.022381 0.608326 -0.117614
-0.020103 0.608806 -0.117641
-0.017759 0.608989 -0.117600
-0.015394 0.609064 -0.117537
-0.013083 0.609368 -0.117528
-0.010750 0.609561 -0.117496
-0.008505 0.610169 -0.117562
-0.005919 0.609092 -0.117237
-0.003808 0.610352 -0.117459
-0.001334 0.609761 -0.117251
0.000970 0.610035 -0.117246
0.003393 0.609644 -0.117089
0.005692 0.609906 -0.117084
0.007994 0.610153 -0.117078
0.010317 0.610265 -0.117042
0.012726 0.609829 -0.116880
0.015110 0.609509 -0.116747
0.017283 0.610531 -0.116926
0.019652 0.610273 -0.116810
0.021998 0.610137 -0.116724
0.024403 0.609540 -0.116533
0.026660 0.609995 -0.116586
0.028910 0.610518 -0.116656
0.031212 0.610634 -0.116633
0.033576 0.610223 -0.116490
0.035870 0.610373 -0.116478
0.038263 0.609609 -0.116256
0.040558 0.609689 -0.116230
0.042857 0.609714 -0.116193
0.045137 0.609924 -0.116199
0.047464 0.609611 -0.116086
0.049717 0.610099 -0.116159
0.051972 0.610607 -0.116237
0.056625 0.609748 -0.115966
0.058863 0.610513 -0.116107
0.061195 0.609867 -0.115924
0.063525 0.609117 -0.115719
0.065791 0.609427 -0.115759
0.068066 0.609581 -0.115764
0.070328 0.610027 -0.115837
0.072616 0.609893 -0.115778
0.074889 0.610150 -0.115810
0.077190 0.609454 -0.115625
0.079467 0.609475 -0.115605
0.081725 0.610449 -0.115805
0.083999 0.610847 -0.115874
0.086287 0.610278 -0.115722
0.088562 0.610958 -0.115858
0.090843 0.610097 -0.115643
0.093116 0.609179 -0.115415
0.095390 0.609335 -0.115435
0.097651 0.608465 -0.115221
0.099915 0.608211 -0.115150
0.102206 0.609245 -0.115375
0.104496 0.609869 -0.115507
0.106782 0.610218 -0.115578
0.109060 0.610222 -0.115572
0.113654 0.611031 -0.115746
0.115933 0.610949 -0.115724
0.118238 0.611333 -0.115810
0.120354 0.608528 -0.115169
0.122781 0.610881 -0.115709
0.125069 0.610908 -0.115719
0.129516 0.609277 -0.115358
0.131799 0.609277 -0.115366
0.134021 0.608573 -0.115216
0.136366 0.609236 -0.115380
0.138631 0.608992 -0.115339
0.140938 0.609160 -0.115394
0.143283 0.609649 -0.115524
0.145595 0.609777 -0.115574
0.147755 0.608584 -0.115323
0.150058 0.608620 -0.115356
0.152319 0.608303 -0.115310
0.154730 0.609121 -0.115527
0.157057 0.609242 -0.115586
0.159345 0.609058 -0.115578
0.161662 0.609049 -0.115612
0.164016 0.609261 -0.115700
0.166271 0.608805 -0.115636
0.168644 0.609072 -0.115742
0.171005 0.609227 -0.115823
0.173378 0.609418 -0.115917
0.175624 0.608842 -0.115836
0.178355 0.610954 -0.116377
0.180746 0.611086 -0.116465
0.182788 0.609353 -0.116126
0.184974 0.608407 -0.115971
0.187660 0.609978 -0.116399
0.189984 0.609677 -0.116399
0.192290 0.609268 -0.116377
0.194775 0.609683 -0.116548
0.197179 0.609674 -0.116624
0.199548 0.609477 -0.116659
0.202083 0.609976 -0.116859
0.204779 0.611104 -0.117209
0.207231 0.611135 -0.117307
0.209136 0.608895 -0.116881
0.212183 0.611282 -0.117533
0.214797 0.611838 -0.117762
0.217106 0.611169 -0.117710
0.219541 0.610965 -0.117770
0.221963 0.610687 -0.117814
0.224352 0.610264 -0.117828
0.226657 0.609526 -0.117771
0.229164 0.609486 -0.117879
0.231723 0.609595 -0.118025
0.234221 0.609464 -0.118117
0.236680 0.609177 -0.118175
0.239331 0.609495 -0.118377
0.241759 0.609061 -0.118404
0.244347 0.609116 -0.118547
0.246858 0.608908 -0.118630
0.249693 0.609669 -0.118943
0.252364 0.609891 -0.119130
0.254339 0.608039 -0.118826
0.257043 0.608342 -0.119032
0.260017 0.609392 -0.119414
0.263319 0.611319 -0.120004
0.265192 0.609226 -0.119639
0.267527 0.608449 -0.119583
0.269994 0.608048 -0.119614
0.274150 0.612133 -0.120711
0.276543 0.611507 -0.120681
0.278290 0.609246 -0.120256
0.281090 0.609735 -0.120482
0.283427 0.609069 -0.120426
0.285624 0.608100 -0.120291
0.288161 0.608012 -0.120358
0.290655 0.607855 -0.120401
0.293746 0.609158 -0.120786
0.296213 0.609002 -0.120812
0.298681 0.608897 -0.120839
0.300947 0.608381 -0.120757
0.303711 0.609057 -0.120950
0.305980 0.608665 -0.120875
0.308206 0.608244 -0.120781
0.310385 0.607791 -0.120666
0.312636 0.607568 -0.120595
0.313920 0.605339 -0.120028
0.316394 0.605754 -0.120084
0.319626 0.607819 -0.120523
0.321814 0.607743 -0.120435
-0.229920 0.602627 -0.130869
-0.226035 0.600573 -0.130350
-0.224095 0.601466 -0.130596
-0.222565 0.603050 -0.131010
-0.220398 0.603742 -0.131171
-0.217401 0.603218 -0.130995
-0.214583 0.603016 -0.130889
-0.212329 0.603745 -0.131014
-0.210111 0.604592 -0.131155
-0.208056 0.605759 -0.131366
-0.205966 0.606934 -0.131564
-0.202514 0.605954 -0.131180
-0.200665 0.607628 -0.131482
-0.196400 0.605355 -0.130734
-0.195201 0.608211 -0.131322
-0.191610 0.607095 -0.130855
-0.189038 0.607724 -0.130837
-0.185559 0.606815 -0.130406
-0.182693 0.606974 -0.130247
-0.179839 0.607168 -0.130089
-0.177428 0.608167 -0.130134
-0.175396 0.609877 -0.130357
-0.172865 0.610713 -0.130346
-0.167798 0.606869 -0.129120
-0.165185 0.607525 -0.129057
-0.163351 0.609662 -0.129372
-0.159734 0.608418 -0.128813
-0.157006 0.608855 -0.128686
-0.154127 0.608987 -0.128480
-0.150879 0.608369 -0.128081
-0.147891 0.608236 -0.127808
-0.145412 0.609112 -0.127792
-0.143116 0.610360 -0.127872
-0.140203 0.610326 -0.127627
-0.136629 0.608865 -0.127022
-0.133775 0.608876 -0.126794
-0.131455 0.610015 -0.126853
-0.127902 0.608445 -0.126231
-0.125074 0.608413 -0.126001
-0.122402 0.608700 -0.125854
-0.119486 0.608402 -0.125564
-0.117145 0.609393 -0.125600
-0.115071 0.611002 -0.125793
-0.111578 0.609251 -0.125151
-0.109007 0.609636 -0.125045
-0.106500 0.610152 -0.124976
-0.103754 0.610059 -0.124760
-0.100840 0.609504 -0.124432
-0.097948 0.608959 -0.124112
-0.095872 0.610469 -0.124303
-0.093216 0.610470 -0.124126
-0.090738 0.610909 -0.124059
-0.087917 0.610403 -0.123765
-0.085201 0.610136 -0.123533
-0.082824 0.610770 -0.123525
-0.080325 0.611048 -0.123434
-0.077151 0.609370 -0.122869
-0.074236 0.608359 -0.122471
-0.071922 0.609060 -0.122494
-0.069347 0.608971 -0.122328
-0.066940 0.609362 -0.122282
-0.065065 0.611379 -0.122635
-0.062402 0.610956 -0.122397
-0.059841 0.610816 -0.122232
-0.056848 0.609232 -0.121720
-0.054509 0.609737 -0.121717
-0.052229 0.610426 -0.121762
-0.049659 0.610118 -0.121569
-0.047183 0.610100 -0.121448
-0.044110 0.607932 -0.120813
-0.041756 0.608260 -0.120782
-0.039421 0.608642 -0.120767
-0.037057 0.608907 -0.120725
-0.034616 0.608863 -0.120612
-0.032231 0.609008 -0.120547
-0.030036 0.609892 -0.120662
-0.028285 0.612589 -0.121212
-0.024720 0.607856 -0.119987
-0.022425 0.608272 -0.119996
-0.020435 0.610005 -0.120322
-0.017869 0.609243 -0.120054
-0.015407 0.608894 -0.119887
-0.012990 0.608712 -0.119762
-0.010787 0.609515 -0.119874
-0.008399 0.609435 -0.119777
-0.006175 0.610146 -0.119870
-0.003773 0.609966 -0.119753
-0.001640 0.611152 -0.119962
0.001187 0.608674 -0.119303
0.002919 0.612047 -0.120034
0.005462 0.611016 -0.119722
0.007540 0.612600 -0.120032
0.010302 0.610172 -0.119393
0.012617 0.610321 -0.119366
0.014976 0.610186 -0.119273
0.017473 0.609118 -0.118961
0.019660 0.610054 -0.119124
0.022005 0.609926 -0.119038
0.024357 0.609719 -0.118934
0.026588 0.610389 -0.119038
0.028824 0.611039 -0.119140
0.031234 0.610322 -0.118920
0.033525 0.610520 -0.118917
0.035870 0.610249 -0.118805
0.038192 0.610139 -0.118732
0.040573 0.609437 -0.118521
0.042868 0.609505 -0.118493
0.045196 0.609204 -0.118379
0.047489 0.609246 -0.118347
0.049668 0.610597 -0.118624
0.051985 0.610385 -0.118534
0.054292 0.610255 -0.118466
0.056586 0.610254 -0.118428
0.058881 0.610229 -0.118387
0.061183 0.610059 -0.118312
0.063555 0.608614 -0.117940
0.065655 0.612050 -0.118713
0.068005 0.610926 -0.118418
0.070300 0.610803 -0.118360
0.072613 0.610138 -0.118175
0.074910 0.609755 -0.118058
0.077181 0.610100 -0.118113
0.079476 0.609545 -0.117958
0.081752 0.609655 -0.117960
0.084030 0.609626 -0.117931
0.086298 0.610540 -0.118123
0.088579 0.610552 -0.118106
0.090860 0.610223 -0.118011
0.093134 0.609040 -0.117717
0.095404 0.608668 -0.117614
0.097684 0.609305 -0.117749
0.099941 0.608422 -0.117529
0.102201 0.607988 -0.117416
0.104520 0.609818 -0.117834
0.106809 0.610199 -0.117914
0.109084 0.610076 -0.117878
0.111323 0.609121 -0.117649
0.113613 0.609454 -0.117723
0.115916 0.609949 -0.117836
0.118191 0.609852 -0.117812
0.120441 0.609350 -0.117695
0.122786 0.610348 -0.117931
0.125094 0.610670 -0.118011
0.127336 0.610048 -0.117871
0.129555 0.609203 -0.117682
0.131773 0.608412 -0.117506
0.134264 0.610750 -0.118064
0.136504 0.610153 -0.117938
0.138708 0.609236 -0.117739
0.141015 0.609369 -0.117788
0.143356 0.609792 -0.117907
0.145555 0.608890 -0.117717
0.147796 0.608398 -0.117626
0.150362 0.610573 -0.118161
0.152484 0.609072 -0.117839
0.154774 0.608932 -0.117836
0.157058 0.608727 -0.117822
0.159381 0.608785 -0.117871
0.161797 0.609443 -0.118063
0.163922 0.608119 -0.117793
0.166201 0.607830 -0.117768
0.168550 0.607960 -0.117844
0.171073 0.609109 -0.118163
0.173640 0.610417 -0.118521
0.175962 0.610232 -0.118531
0.177845 0.607593 -0.117968
0.180737 0.610499 -0.118711
0.183045 0.610159 -0.118694
0.185145 0.608743 -0.118426
0.187619 0.609228 -0.118609
0.190074 0.609566 -0.118760
0.192450 0.609483 -0.118815
0.195018 0.610257 -0.119076
0.197271 0.609538 -0.118987
0.199710 0.609637 -0.119094
0.202237 0.610083 -0.119287
0.204736 0.610357 -0.119443
0.207171 0.610316 -0.119527
0.209733 0.610765 -0.119730
0.212445 0.611756 -0.120065
0.214841 0.611436 -0.120093
0.217316 0.611401 -0.120191
0.219614 0.610664 -0.120126
0.222080 0.610543 -0.120209
0.224524 0.610310 -0.120269
0.227203 0.610893 -0.120527
0.229441 0.609878 -0.120405
0.231781 0.609219 -0.120371
0.234219 0.608886 -0.120417
0.236735 0.608790 -0.120521
0.239235 0.608617 -0.120610
0.241735 0.608420 -0.120694
0.244140 0.607907 -0.120703
0.246816 0.608224 -0.120914
0.249732 0.609237 -0.121293
0.252041 0.608385 -0.121224
0.253745 0.605762 -0.120725
0.257083 0.607935 -0.121386
0.260133 0.609208 -0.121829
0.263048 0.610053 -0.122168
0.265449 0.609443 -0.122152
0.269452 0.613216 -0.123199
0.271851 0.612570 -0.123170
0.275550 0.615387 -0.123980
0.278387 0.615885 -0.124222
0.281090 0.616037 -0.124374
0.284568 0.618168 -0.125004
0.289933 0.624981 -0.126774
0.292344 0.624349 -0.126717
0.293285 0.620178 -0.125784
0.297716 0.624547 -0.126935
0.300962 0.626029 -0.127369
0.303566 0.626010 -0.127426
0.307196 0.628420 -0.128067
0.309744 0.628345 -0.128088
0.310386 0.624010 -0.127050
0.310207 0.617994 -0.125587
0.310119 0.612372 -0.124207
0.311457 0.610062 -0.123628
0.313291 0.608939 -0.123328
0.314523 0.606613 -0.122720
0.316490 0.605964 -0.122510
0.318791 0.606099 -0.122480
0.321474 0.607096 -0.122647
-0.229213 0.601674 -0.133138
-0.227751 0.603204 -0.133583
-0.225454 0.603558 -0.133695
-0.222905 0.603591 -0.133704
-0.219980 0.603106 -0.133558
-0.216865 0.602371 -0.133328
-0.214086 0.602199 -0.133235
-0.212180 0.603442 -0.133508
-0.210138 0.604540 -0.133727
-0.208193 0.605859 -0.133990
-0.204887 0.605052 -0.133666
-0.202465 0.605709 -0.133721
-0.199899 0.606181 -0.133713
-0.197844 0.607543 -0.133931
-0.195081 0.607777 -0.133834
-0.191457 0.606584 -0.133343
-0.189067 0.607502 -0.133407
-0.186279 0.607772 -0.133288
-0.183162 0.607488 -0.133011
-0.180150 0.607394 -0.132778
-0.177636 0.608200 -0.132777
-0.175288 0.609327 -0.132854
-0.171803 0.608403 -0.132381
-0.168533 0.607851 -0.132004
-0.165545 0.607811 -0.131758
-0.162888 0.608388 -0.131671
-0.160084 0.608685 -0.131508
-0.156856 0.608152 -0.131126
-0.153909 0.608140 -0.130880
-0.151212 0.608607 -0.130758
-0.148777 0.609590 -0.130770
-0.146333 0.610556 -0.130778
-0.143035 0.609760 -0.130329
-0.140882 0.611306 -0.130489
-0.136641 0.608456 -0.129512
-0.134239 0.609434 -0.129528
-0.131909 0.610563 -0.129586
-0.128318 0.608925 -0.128933
-0.125392 0.608690 -0.128645
-0.122625 0.608771 -0.128442
-0.119853 0.608813 -0.128231
-0.117257 0.609228 -0.128120
-0.114865 0.610097 -0.128128
-0.111476 0.608590 -0.127534
-0.109116 0.609482 -0.127554
-0.106306 0.609268 -0.127298
-0.103492 0.609004 -0.127032
-0.101142 0.609859 -0.127054
-0.098768 0.610645 -0.127062
-0.095827 0.609959 -0.126702
-0.093494 0.610807 -0.126732
-0.090653 0.610297 -0.126425
-0.087775 0.609641 -0.126085
-0.085315 0.610074 -0.126022
-0.082775 0.610264 -0.125903
-0.079961 0.609657 -0.125587
-0.077354 0.609590 -0.125411
-0.074800 0.609644 -0.125268
-0.072510 0.610448 -0.125316
-0.069748 0.609831 -0.125014
-0.066917 0.608952 -0.124650
-0.064885 0.610490 -0.124890
-0.062262 0.610188 -0.124677
-0.059481 0.609340 -0.124331
-0.057318 0.610445 -0.124473
-0.054934 0.610826 -0.124438
-0.052738 0.611829 -0.124559
-0.049952 0.610817 -0.124187
-0.046797 0.608455 -0.123486
-0.044349 0.608487 -0.123377
-0.041894 0.608472 -0.123260
-0.039376 0.608196 -0.123082
-0.036976 0.608324 -0.123005
-0.037999 0.621526 -0.126134
-0.035148 0.620115 -0.125683
-0.032870 0.620897 -0.125772
-0.029285 0.616387 -0.124569
-0.026909 0.616668 -0.124541
-0.024348 0.616157 -0.124321
-0.022374 0.618135 -0.124711
-0.019389 0.615711 -0.124031
-0.017074 0.616183 -0.124058
-0.014421 0.615091 -0.123706
-0.012657 0.618123 -0.124360
-0.009630 0.615166 -0.123560
-0.007089 0.614457 -0.123309
-0.004417 0.613021 -0.122883
-0.002068 0.613171 -0.122844
0.000217 0.613649 -0.122887
0.002936 0.611750 -0.122355
0.005071 0.613021 -0.122593
0.007317 0.613697 -0.122689
0.010114 0.611101 -0.121995
0.012585 0.610333 -0.121745
0.015058 0.609485 -0.121478
0.017405 0.609389 -0.121393
0.019648 0.609967 -0.121473
0.021900 0.610493 -0.121542
0.024305 0.609934 -0.121351
0.026476 0.611066 -0.121568
0.028797 0.611097 -0.121522
0.031136 0.610965 -0.121438
0.033511 0.610505 -0.121276
0.035893 0.609915 -0.121085
0.038200 0.609941 -0.121043
0.040452 0.610467 -0.121123
0.042864 0.609439 -0.120830
0.045192 0.609149 -0.120716
0.047434 0.609763 -0.120821
0.049674 0.610450 -0.120944
0.051985 0.610311 -0.120870
0.054312 0.609939 -0.120742
0.056611 0.609870 -0.120687
0.058920 0.609618 -0.120590
0.061236 0.609207 -0.120457
0.063554 0.608657 -0.120291
0.065628 0.612616 -0.121206
0.068005 0.611008 -0.120789
0.070317 0.610531 -0.120644
0.072680 0.608566 -0.120145
0.074922 0.609632 -0.120372
0.077207 0.609507 -0.120316
0.079491 0.609333 -0.120249
0.081780 0.608835 -0.120106
0.084055 0.608829 -0.120082
0.086324 0.609506 -0.120222
0.088595 0.610588 -0.120461
0.090878 0.610830 -0.120500
0.093152 0.608701 -0.119975
0.095423 0.608537 -0.119919
0.097694 0.608429 -0.119879
0.099969 0.608631 -0.119915
0.102259 0.609377 -0.120081
0.104574 0.610796 -0.120410
0.106823 0.609736 -0.120148
0.109100 0.609712 -0.120136
0.111394 0.610069 -0.120216
0.113629 0.609077 -0.119975
0.115897 0.608898 -0.119930
0.118171 0.608846 -0.119918
0.120472 0.609225 -0.120010
0.122795 0.609863 -0.120165
0.125076 0.609810 -0.120157
0.127308 0.609080 -0.119990
0.129533 0.608336 -0.119821
0.131824 0.608440 -0.119856
0.134257 0.610098 -0.120265
0.136539 0.609965 -0.120248
0.138645 0.608043 -0.119805
0.140894 0.607649 -0.119730
0.143206 0.607857 -0.119801
0.145526 0.608091 -0.119879
0.148147 0.610831 -0.120559
0.150179 0.608538 -0.120039
0.152714 0.610338 -0.120499
0.154835 0.608847 -0.120175
0.157093 0.608437 -0.120112
0.159383 0.608259 -0.120106
0.161756 0.608624 -0.120234
0.164169 0.609204 -0.120415
0.166092 0.606589 -0.119833
0.168460 0.606862 -0.119946
0.171150 0.609027 -0.120516
0.173457 0.608796 -0.120513
0.176007 0.609932 -0.120842
0.178282 0.609455 -0.120787
0.180570 0.609042 -0.120750
0.182807 0.608352 -0.120649
0.185478 0.609885 -0.121085
0.187852 0.609827 -0.121142
0.190117 0.609215 -0.121069
0.192631 0.609776 -0.121282
0.194998 0.609597 -0.121319
0.197550 0.610231 -0.121556
0.199909 0.609948 -0.121574
0.202250 0.609562 -0.121571
0.204876 0.610371 -0.121860
0.208042 0.613359 -0.122680
0.210191 0.612045 -0.122462
0.212457 0.611217 -0.122365
0.214837 0.610836 -0.122379
0.217473 0.611414 -0.122629
0.219726 0.610496 -0.122518
0.222521 0.611579 -0.122897
0.225758 0.614185 -0.123651
0.227845 0.612582 -0.123382
0.231177 0.615341 -0.124180
0.233943 0.616034 -0.124477
0.236419 0.615698 -0.124525
0.239600 0.617669 -0.125140
0.243872 0.623087 -0.126603
0.247547 0.626387 -0.127551
0.250400 0.626976 -0.127836
0.253327 0.627746 -0.128168
0.255779 0.627028 -0.128134
0.258911 0.628346 -0.128601
0.261239 0.627242 -0.128472
0.277394 0.619809 -0.127577
0.284342 0.630969 -0.130476
0.284713 0.624932 -0.129089
0.286879 0.623629 -0.128874
0.288995 0.622259 -0.128634
0.290782 0.620140 -0.128199
0.292804 0.618680 -0.127919
0.294286 0.615997 -0.127324
0.295160 0.611974 -0.126383
0.295102 0.605909 -0.124919
0.299745 0.610933 -0.126221
0.306847 0.621519 -0.128907
0.309093 0.620923 -0.128778
0.309893 0.617163 -0.127844
0.309282 0.610424 -0.126150
0.310252 0.607356 -0.125364
0.312111 0.606345 -0.125080
0.315595 0.608905 -0.125677
0.316662 0.606348 -0.124979
0.318487 0.605508 -0.124698
0.320405 0.604946 -0.124474
-0.228660 0.600962 -0.135459
-0.226872 0.601976 -0.135777
-0.225044 0.603002 -0.136082
-0.222820 0.603501 -0.136227
-0.219772 0.602802 -0.136026
-0.215985 0.601004 -0.135506
-0.214773 0.603231 -0.136079
-0.211546 0.602387 -0.135791
-0.210140 0.604458 -0.136288
-0.208352 0.606005 -0.136626
-0.205275 0.605546 -0.136398
-0.202605 0.605781 -0.136346
-0.199242 0.604920 -0.135979
-0.196174 0.604568 -0.135739
-0.194327 0.606287 -0.136054
-0.191145 0.605809 -0.135755
-0.188487 0.606242 -0.135694
-0.185751 0.606571 -0.135595
-0.182926 0.606771 -0.135450
-0.180213 0.607185 -0.135355
-0.177220 0.607117 -0.135122
-0.175127 0.608683 -0.135324
-0.172521 0.609348 -0.135275
-0.168476 0.607368 -0.134507
-0.165889 0.608066 -0.134459
-0.163270 0.608710 -0.134391
-0.159908 0.607939 -0.133941
-0.156860 0.607744 -0.133643
-0.154299 0.608483 -0.133595
-0.151297 0.608347 -0.133311
-0.147893 0.607383 -0.132807
-0.145242 0.607901 -0.132698
-0.143583 0.610448 -0.133128
-0.140828 0.610751 -0.132962
-0.137407 0.609630 -0.132423
-0.135119 0.610871 -0.132508
-0.131996 0.610307 -0.132121
-0.128868 0.609688 -0.131722
-0.125959 0.609507 -0.131441
-0.122772 0.608664 -0.130991
-0.120064 0.608857 -0.130816
-0.117340 0.608985 -0.130626
-0.114761 0.609421 -0.130521
-0.112098 0.609638 -0.130362
-0.109653 0.610348 -0.130334
-0.106205 0.608601 -0.129674
-0.103309 0.608135 -0.129350
-0.100917 0.608884 -0.129344
-0.098227 0.608862 -0.129143
-0.095988 0.609968 -0.129236
-0.093131 0.609458 -0.128917
-0.090643 0.609875 -0.128840
-0.088045 0.609978 -0.128687
-0.085294 0.609630 -0.128421
-0.082742 0.609794 -0.128291
-0.080071 0.609593 -0.128072
-0.077473 0.609561 -0.127900
-0.074962 0.609751 -0.127787
-0.072657 0.610521 -0.127826
-0.070345 0.611265 -0.127862
-0.067321 0.609834 -0.127349
-0.064823 0.609953 -0.127233
-0.062163 0.609536 -0.126984
-0.059672 0.609617 -0.126866
-0.057491 0.610678 -0.126998
-0.055125 0.611134 -0.126980
-0.052760 0.611583 -0.126963
-0.050334 0.611809 -0.126893
-0.046757 0.608006 -0.125814
-0.044373 0.608270 -0.125760
-0.041977 0.608473 -0.125694
-0.039404 0.608004 -0.125463
-0.036910 0.607791 -0.125298
-0.037062 0.617656 -0.127656
-0.035719 0.622056 -0.128647
-0.033662 0.623769 -0.128968
-0.032607 0.629590 -0.130316
-0.029578 0.627452 -0.129680
-0.026746 0.626033 -0.129227
-0.025304 0.630529 -0.130248
-0.015233 0.630051 -0.129762
-0.013283 0.632601 -0.130307
-0.010001 0.628649 -0.129244
-0.008028 0.631128 -0.129776
-0.005661 0.631661 -0.129827
-0.003181 0.631589 -0.129731
-0.000653 0.631234 -0.129567
0.003867 0.633490 -0.129976
0.006409 0.633001 -0.129784
0.008768 0.633589 -0.129860
0.011167 0.633932 -0.129877
0.014188 0.630217 -0.128896
0.016464 0.631262 -0.129089
0.018685 0.632733 -0.129389
0.021170 0.632385 -0.129242
0.023728 0.631442 -0.128951
0.026272 0.630522 -0.128668
0.028624 0.631046 -0.128740
0.030901 0.632219 -0.128974
0.033821 0.627862 -0.127852
0.036228 0.627778 -0.127780
0.038531 0.628644 -0.127942
0.040848 0.629441 -0.128089
0.043332 0.628534 -0.127819
0.045881 0.626803 -0.127350
0.048379 0.625443 -0.126973
0.050786 0.625021 -0.126827
0.053044 0.626483 -0.127143
0.055158 0.630118 -0.127992
0.057585 0.629561 -0.127817
0.060079 0.627823 -0.127355
0.062600 0.625304 -0.126703
0.065619 0.612833 -0.123623
0.068048 0.610205 -0.122949
0.070365 0.609543 -0.122757
0.072729 0.607468 -0.122221
0.074971 0.608415 -0.122424
0.077226 0.609201 -0.122588
0.079509 0.609071 -0.122531
0.081803 0.608292 -0.122317
0.084080 0.608083 -0.122243
0.086237 0.619741 -0.125063
0.088562 0.620217 -0.125158
0.090891 0.620375 -0.125178
0.093219 0.619861 -0.125035
0.095545 0.619803 -0.125005
0.097882 0.620528 -0.125167
0.100210 0.620406 -0.125124
0.102525 0.619774 -0.124958
0.104849 0.619673 -0.124924
0.107164 0.619300 -0.124825
0.109382 0.616413 -0.124115
0.111657 0.615525 -0.123894
0.113904 0.614206 -0.123570
0.116318 0.616371 -0.124095
0.118600 0.615781 -0.123952
0.120917 0.615864 -0.123974
0.123258 0.616260 -0.124075
0.125568 0.616152 -0.124054
0.127914 0.616524 -0.124153
0.130220 0.616324 -0.124114
0.132236 0.612711 -0.123246
0.134864 0.616294 -0.124132
0.136966 0.613915 -0.123568
0.139384 0.614934 -0.123835
0.141717 0.615019 -0.123876
0.143851 0.613233 -0.123463
0.146046 0.612116 -0.123215
0.148419 0.612575 -0.123354
0.150644 0.611761 -0.123185
0.152800 0.610452 -0.122897
0.155207 0.611095 -0.123088
0.158126 0.615405 -0.124177
0.159617 0.609345 -0.122737
0.163037 0.616783 -0.124595
0.164913 0.613549 -0.123850
0.167230 0.613297 -0.123836
0.169979 0.615708 -0.124475
0.172696 0.617758 -0.125030
0.175135 0.618033 -0.125154
0.177795 0.619521 -0.125578
0.180030 0.618545 -0.125401
0.182661 0.619720 -0.125755
0.185140 0.620006 -0.125894
0.187520 0.619741 -0.125901
0.188076 0.610366 -0.123674
0.190416 0.610088 -0.123683
0.192644 0.609253 -0.123557
0.195097 0.609470 -0.123694
0.197563 0.609702 -0.123837
0.200120 0.610291 -0.124072
0.202475 0.609949 -0.124081
0.205000 0.610302 -0.124264
0.208690 0.615448 -0.125635
0.223859 0.635242 -0.130977
0.226371 0.634827 -0.130996
0.228429 0.632718 -0.130596
0.229345 0.626532 -0.129185
0.233050 0.630426 -0.130283
0.234915 0.627742 -0.129746
0.236931 0.625637 -0.129355
0.239255 0.624611 -0.129234
0.242685 0.627241 -0.130029
0.245360 0.627303 -0.130185
0.247899 0.626907 -0.130227
0.251065 0.628460 -0.130760
0.253058 0.626323 -0.130368
0.255290 0.624962 -0.130170
0.256222 0.619750 -0.129002
0.257988 0.617135 -0.128485
0.261205 0.618778 -0.129040
0.261573 0.612258 -0.127534
0.265028 0.614579 -0.128256
0.269304 0.619089 -0.129532
0.271183 0.616952 -0.129123
0.272793 0.614159 -0.128543
0.275084 0.613251 -0.128435
0.277692 0.613207 -0.128542
0.279391 0.610846 -0.128053
0.280176 0.606257 -0.126989
0.282804 0.606418 -0.127126
0.285562 0.606922 -0.127343
0.289744 0.610914 -0.128442
0.291668 0.609415 -0.128130
0.293012 0.606617 -0.127476
0.293964 0.603012 -0.126605
0.297442 0.605395 -0.127252
0.303591 0.613888 -0.129450
0.306453 0.614803 -0.129699
0.308026 0.612870 -0.129207
0.309245 0.610259 -0.128528
0.310128 0.607031 -0.127679
0.312315 0.606761 -0.127572
0.315698 0.609130 -0.128126
0.316747 0.606563 -0.127406
0.318891 0.606418 -0.127291
0.322233 0.608841 -0.127817
-0.231932 0.605924 -0.139359
-0.225681 0.600295 -0.137825
-0.224224 0.601843 -0.138290
-0.222796 0.603514 -0.138774
-0.217941 0.600028 -0.137793
-0.216342 0.601556 -0.138205
-0.213730 0.601587 -0.138179
-0.213492 0.605392 -0.139197
-0.210297 0.604635 -0.138919
-0.207201 0.604068 -0.138679
-0.206035 0.606648 -0.139305
-0.202150 0.604893 -0.138702
-0.198702 0.603861 -0.138287
-0.196368 0.604695 -0.138381
-0.193124 0.604053 -0.138050
-0.191557 0.606267 -0.138503
-0.189214 0.607226 -0.138593
-0.185404 0.605692 -0.137979
-0.182938 0.606491 -0.138004
-0.180220 0.606879 -0.137906
-0.177388 0.607083 -0.137748
-0.174732 0.607618 -0.137674
-0.171651 0.607393 -0.137384
-0.168603 0.607226 -0.137105
-0.166073 0.608019 -0.137084
-0.163726 0.609171 -0.137158
-0.161337 0.610262 -0.137210
-0.158624 0.610739 -0.137092
-0.154478 0.608408 -0.136206
-0.151778 0.608869 -0.136081
-0.149497 0.610162 -0.136181
-0.145347 0.607674 -0.135255
-0.143786 0.610419 -0.135748
-0.140085 0.608756 -0.135049
-0.137918 0.610258 -0.135206
-0.135068 0.610310 -0.134974
-0.131998 0.609861 -0.134610
-0.129251 0.610075 -0.134426
-0.126034 0.609224 -0.133960
-0.123811 0.610550 -0.134080
-0.120275 0.608893 -0.133406
-0.118330 0.610825 -0.133692
-0.115077 0.609719 -0.133173
-0.112402 0.609920 -0.133006
-0.109694 0.610012 -0.132813
-0.107393 0.611063 -0.132878
-0.104583 0.610854 -0.132613
-0.100868 0.608338 -0.131745
-0.098602 0.609396 -0.131822
-0.095567 0.608470 -0.131383
-0.093139 0.609068 -0.131347
-0.090642 0.609468 -0.131263
-0.088016 0.609500 -0.131087
-0.085298 0.609246 -0.130840
-0.082724 0.609354 -0.130691
-0.080267 0.609758 -0.130623
-0.077766 0.610018 -0.130522
-0.075210 0.610095 -0.130377
-0.072770 0.610484 -0.130316
-0.070304 0.610777 -0.130234
-0.067316 0.609459 -0.129739
-0.064991 0.610118 -0.129759
-0.062719 0.610934 -0.129822
-0.059916 0.610053 -0.129451
-0.057660 0.610889 -0.129527
-0.055097 0.610709 -0.129343
-0.052138 0.609163 -0.128813
-0.049345 0.608103 -0.128411
-0.047692 0.610945 -0.129012
-0.045131 0.610644 -0.128811
-0.041596 0.606792 -0.127705
-0.039189 0.606913 -0.127618
-0.036613 0.606382 -0.127368
-0.036236 0.614200 -0.129251
-0.034062 0.615307 -0.129423
-0.031242 0.613862 -0.128947
-0.028661 0.613299 -0.128698
-0.028499 0.622703 -0.130986
-0.023436 0.611769 -0.128107
-0.022348 0.617496 -0.129463
-0.018566 0.611566 -0.127864
-0.016494 0.613058 -0.128149
-0.014127 0.613235 -0.128104
-0.012288 0.615893 -0.128688
-0.009556 0.614333 -0.128207
-0.007412 0.615588 -0.128440
-0.005726 0.619203 -0.129271
-0.003381 0.619556 -0.129279
-0.000639 0.617781 -0.128752
0.001895 0.617030 -0.128486
0.004247 0.617242 -0.128465
0.006397 0.618614 -0.128738
0.008328 0.621353 -0.129356
0.010663 0.621748 -0.129385
0.013924 0.616284 -0.127944
0.015843 0.619219 -0.128616
0.017779 0.622206 -0.129301
0.020621 0.619057 -0.128448
0.023462 0.615678 -0.127540
0.025206 0.620229 -0.128622
0.027415 0.621493 -0.128881
0.029662 0.622529 -0.129084
0.031565 0.626507 -0.130024
0.034250 0.623982 -0.129338
0.036550 0.624707 -0.129468
0.038631 0.627568 -0.130132
0.040964 0.628157 -0.130230
0.043418 0.627532 -0.130025
0.046214 0.623036 -0.128856
0.048640 0.622317 -0.128631
0.050627 0.626912 -0.129735
0.052900 0.628305 -0.130040
0.055295 0.628171 -0.129965
0.057742 0.627199 -0.129683
0.060179 0.626225 -0.129402
0.062464 0.627708 -0.129735
0.065738 0.610624 -0.125444
0.068099 0.609224 -0.125063
0.070374 0.609462 -0.125090
0.072619 0.610513 -0.125322
0.074991 0.608066 -0.124685
0.077219 0.609773 -0.125082
0.079511 0.609453 -0.124976
0.081833 0.607431 -0.124449
0.084094 0.608167 -0.124609
0.086336 0.611403 -0.125392
0.088522 0.631294 -0.130315
0.090904 0.634307 -0.131044
0.093256 0.623595 -0.128365
0.095598 0.623174 -0.128244
0.098013 0.628280 -0.129498
0.100438 0.631349 -0.130247
0.102793 0.630154 -0.129938
0.105114 0.628107 -0.129420
0.107412 0.625935 -0.128873
0.123985 0.626638 -0.129042
0.126879 0.634083 -0.130897
0.129285 0.634095 -0.130909
0.153626 0.635420 -0.131452
0.155900 0.634123 -0.131165
0.157844 0.630401 -0.130276
0.170140 0.631268 -0.130719
0.176304 0.624259 -0.129141
0.178523 0.623049 -0.128901
0.180454 0.620286 -0.128276
0.184238 0.627591 -0.130171
0.186254 0.625234 -0.129654
0.187472 0.618891 -0.128141
0.188185 0.610313 -0.126070
0.190445 0.609630 -0.125978
0.192861 0.609685 -0.126075
0.195252 0.609587 -0.126136
0.197833 0.610318 -0.126409
0.199874 0.608599 -0.126069
0.202731 0.610448 -0.126630
0.205049 0.609904 -0.126592
0.207403 0.609493 -0.126591
0.210816 0.613372 -0.127675
0.214059 0.616377 -0.128544
0.216380 0.615636 -0.128471
0.219812 0.619135 -0.129472
0.222578 0.619967 -0.129803
0.224620 0.618075 -0.129448
0.227620 0.619675 -0.129980
0.229811 0.618320 -0.129765
0.231628 0.615686 -0.129227
0.233610 0.613676 -0.128849
0.236503 0.614765 -0.129262
0.239070 0.614711 -0.129385
0.240893 0.612225 -0.128889
0.241088 0.604620 -0.127085
0.247357 0.616247 -0.130200
0.248254 0.610942 -0.128983
0.251347 0.612438 -0.129508
0.253645 0.611502 -0.129410
0.256461 0.612097 -0.129704
0.258350 0.609990 -0.129302
0.261186 0.610629 -0.129604
0.263628 0.610141 -0.129614
0.266549 0.610984 -0.129965
0.269106 0.610820 -0.130052
0.271681 0.610711 -0.130150
0.273670 0.609070 -0.129846
0.275834 0.607946 -0.129669
0.278517 0.608200 -0.129844
0.280331 0.606270 -0.129444
0.282341 0.604907 -0.129183
0.284689 0.604442 -0.129147
0.287660 0.605539 -0.129508
0.290850 0.607173 -0.129999
0.292571 0.605324 -0.129573
0.293988 0.602852 -0.128974
0.296909 0.603971 -0.129299
0.300462 0.606564 -0.129996
0.303282 0.607496 -0.130247
0.306989 0.610449 -0.131012
0.309839 0.611503 -0.131269
0.310883 0.608645 -0.130493
0.313022 0.608285 -0.130355
0.315064 0.607789 -0.130167
0.317735 0.608709 -0.130334
0.319865 0.608542 -0.130205
0.321048 0.606476 -0.129568
-0.225177 0.596051 -0.139065
-0.225402 0.599988 -0.140244
-0.224163 0.601837 -0.140811
-0.222463 0.603072 -0.141186
-0.220430 0.603871 -0.141420
-0.216334 0.601556 -0.140747
-0.215083 0.603679 -0.141328
-0.212768 0.604220 -0.141439
-0.211988 0.607248 -0.142246
-0.208716 0.606400 -0.141927
-0.204021 0.603288 -0.140948
-0.201452 0.603620 -0.140937
-0.199356 0.604775 -0.141146
-0.197257 0.605984 -0.141355
-0.194725 0.606525 -0.141361
-0.191610 0.606124 -0.141085
-0.189727 0.607849 -0.141402
-0.186293 0.606953 -0.140963
-0.183360 0.606933 -0.140762
-0.180527 0.607108 -0.140607
-0.177071 0.606186 -0.140134
-0.174451 0.606763 -0.140075
-0.171726 0.607168 -0.139962
-0.169276 0.608091 -0.139987
-0.166150 0.607772 -0.139658
-0.163859 0.609019 -0.139763
-0.161435 0.610034 -0.139799
-0.158337 0.609760 -0.139472
-0.155785 0.610535 -0.139434
-0.151928 0.608730 -0.138679
-0.149380 0.609486 -0.138634
-0.146705 0.609981 -0.138517
-0.143928 0.610258 -0.138338
-0.140453 0.609068 -0.137757
-0.137658 0.609253 -0.137556
-0.134678 0.609020 -0.137242
-0.132040 0.609493 -0.137123
-0.129179 0.609459 -0.136868
-0.126641 0.610110 -0.136803
-0.123476 0.609342 -0.136354
-0.120921 0.609905 -0.136271
-0.118165 0.609991 -0.136061
-0.115791 0.610935 -0.136087
-0.112327 0.609294 -0.135416
-0.109430 0.608934 -0.135097
-0.107232 0.610229 -0.135228
-0.104150 0.609348 -0.134776
-0.101557 0.609630 -0.134642
-0.098756 0.609357 -0.134363
-0.096458 0.610339 -0.134424
-0.093309 0.609093 -0.133892
-0.091224 0.610594 -0.134099
-0.088353 0.609995 -0.133749
-0.085292 0.608824 -0.133252
-0.082773 0.609087 -0.133140
-0.080393 0.609717 -0.133130
-0.077982 0.610244 -0.133096
-0.075491 0.610524 -0.133000
-0.072607 0.609625 -0.132596
-0.070232 0.610184 -0.132582
-0.067619 0.610012 -0.132377
-0.065159 0.610271 -0.132291
-0.062674 0.610433 -0.132182
-0.060192 0.610578 -0.132073
-0.057579 0.610276 -0.131849
-0.054741 0.609188 -0.131423
-0.052675 0.610628 -0.131663
-0.049737 0.609110 -0.131131
-0.047251 0.609084 -0.130994
-0.044361 0.607593 -0.130477
-0.041893 0.607548 -0.130341
-0.039520 0.607820 -0.130291
-0.036357 0.605115 -0.129469
-0.035313 0.610371 -0.130721
-0.032939 0.610633 -0.130676
-0.030424 0.610318 -0.130484
-0.028373 0.611843 -0.130772
-0.025203 0.608780 -0.129873
-0.022377 0.607018 -0.129315
-0.020578 0.609580 -0.129879
-0.018139 0.609412 -0.129738
-0.015965 0.610409 -0.129901
-0.013893 0.611899 -0.130193
-0.011577 0.612279 -0.130200
-0.009101 0.611882 -0.130009
-0.006494 0.610798 -0.129644
-0.004415 0.612314 -0.129950
-0.002568 0.615091 -0.130583
-0.000264 0.615550 -0.130620
0.002307 0.614544 -0.130283
0.004798 0.613918 -0.130046
0.007429 0.612418 -0.129587
0.009703 0.612943 -0.129649
0.011980 0.613456 -0.129710
0.013942 0.615970 -0.130285
0.016442 0.615109 -0.129997
0.019396 0.611114 -0.128909
0.021529 0.612548 -0.129213
0.023477 0.615389 -0.129878
0.025578 0.617277 -0.130300
0.027972 0.617016 -0.130174
0.030365 0.616714 -0.130039
0.032721 0.616681 -0.129975
0.035394 0.613850 -0.129198
0.037914 0.612156 -0.128713
0.039773 0.616568 -0.129787
0.042617 0.611556 -0.128460
0.044770 0.613262 -0.128847
0.047035 0.613882 -0.128959
0.049039 0.617596 -0.129859
0.051190 0.619903 -0.130402
0.053835 0.616017 -0.129371
0.056235 0.615006 -0.129073
0.058814 0.611149 -0.128053
0.060685 0.618075 -0.129775
0.063031 0.617849 -0.129681
0.065832 0.608910 -0.127375
0.068123 0.608821 -0.127319
0.070359 0.609952 -0.127574
0.072635 0.610298 -0.127632
0.074926 0.610269 -0.127595
0.077225 0.609930 -0.127481
0.079503 0.610293 -0.127547
0.081832 0.608185 -0.126988
0.084117 0.607601 -0.126817
0.086367 0.610027 -0.127410
0.088638 0.612691 -0.128065
0.090935 0.612784 -0.128069
0.093231 0.612488 -0.127977
0.095553 0.615484 -0.128720
0.097872 0.616122 -0.128868
0.100110 0.612118 -0.127841
0.102409 0.612312 -0.127879
0.104756 0.614159 -0.128338
0.107074 0.614583 -0.128438
0.109384 0.614671 -0.128454
0.111551 0.611340 -0.127607
0.113755 0.609436 -0.127123
0.115940 0.607509 -0.126635
0.118377 0.610365 -0.127359
0.120720 0.611218 -0.127579
0.123143 0.613133 -0.128069
0.125584 0.615037 -0.128559
0.127911 0.615165 -0.128601
0.129992 0.612193 -0.127860
0.132331 0.612560 -0.127967
0.134949 0.615983 -0.128850
0.137225 0.615420 -0.128725
0.139468 0.614554 -0.128526
0.141568 0.612361 -0.127993
0.143955 0.612987 -0.128177
0.146372 0.613790 -0.128408
0.148828 0.614831 -0.128702
0.151657 0.618799 -0.129741
0.153763 0.616795 -0.129268
0.155835 0.614650 -0.128762
0.157734 0.611372 -0.127970
0.159333 0.606175 -0.126693
0.162186 0.609813 -0.127662
0.164491 0.609588 -0.127654
0.167135 0.611504 -0.128192
0.169263 0.610092 -0.127887
0.171854 0.611506 -0.128304
0.174303 0.611978 -0.128484
0.176419 0.610511 -0.128174
0.178379 0.608233 -0.127659
0.182077 0.615366 -0.129548
0.183805 0.611809 -0.128713
0.185948 0.610507 -0.128457
0.188104 0.609301 -0.128227
0.190545 0.609504 -0.128362
0.192889 0.609204 -0.128370
0.195543 0.610317 -0.128744
0.197999 0.610451 -0.128870
0.200424 0.610409 -0.128955
0.202752 0.609917 -0.128928
0.205117 0.609566 -0.128940
0.207594 0.609661 -0.129070
0.210292 0.610614 -0.129423
0.212988 0.611485 -0.129760
0.216031 0.613643 -0.130432
0.218780 0.614555 -0.130786
0.221211 0.614212 -0.130820
0.222897 0.611111 -0.130144
0.225087 0.609915 -0.129961
0.228614 0.613453 -0.131008
0.231016 0.612932 -0.131006
0.233202 0.611663 -0.130812
0.235164 0.609659 -0.130428
0.237630 0.609356 -0.130487
0.239275 0.606386 -0.129853
0.241862 0.606485 -0.130019
0.244782 0.607598 -0.130451
0.247925 0.609342 -0.131049
0.249783 0.607129 -0.130612
0.252468 0.607428 -0.130832
0.254475 0.605723 -0.130526
0.257343 0.606542 -0.130880
0.259712 0.605913 -0.130852
0.262880 0.607533 -0.131413
0.265719 0.608198 -0.131720
0.268277 0.608087 -0.131819
0.270088 0.605987 -0.131389
0.272424 0.605343 -0.131337
0.274127 0.603087 -0.130852
0.278490 0.607731 -0.132186
0.281250 0.608219 -0.132414
0.282179 0.604156 -0.131427
0.284012 0.602453 -0.131056
0.287680 0.605293 -0.131881
0.290564 0.606220 -0.132189
0.293217 0.606618 -0.132345
0.294628 0.604145 -0.131727
0.297146 0.604344 -0.131807
0.299052 0.603190 -0.131515
0.301916 0.604287 -0.131809
0.306436 0.609123 -0.133083
0.309521 0.610742 -0.133488
0.311256 0.609434 -0.133102
0.312856 0.607928 -0.132650
0.314835 0.607333 -0.132426
0.316698 0.606570 -0.132144
0.319546 0.607962 -0.132419
0.320943 0.606376 -0.131891
-0.225878 0.597232 -0.141879
-0.225044 0.599574 -0.142623
-0.223586 0.601066 -0.143103
-0.221507 0.601697 -0.143317
-0.218919 0.601612 -0.143305
-0.216887 0.602436 -0.143542
-0.214523 0.602809 -0.143632
-0.212849 0.604322 -0.144036
-0.210902 0.605479 -0.144321
-0.207665 0.604645 -0.144009
-0.206234 0.606754 -0.144538
-0.201588 0.603715 -0.143554
-0.199585 0.604999 -0.143812
-0.197514 0.606233 -0.144040
-0.194844 0.606524 -0.143981
-0.192370 0.607185 -0.144015
-0.189409 0.607057 -0.143808
-0.186800 0.607559 -0.143772
-0.184610 0.608825 -0.143944
-0.181925 0.609264 -0.143868
-0.177444 0.606524 -0.142867
-0.174258 0.606070 -0.142517
-0.171913 0.607148 -0.142599
-0.169278 0.607719 -0.142529
-0.166146 0.607376 -0.142191
-0.163849 0.608598 -0.142296
-0.160876 0.608554 -0.142034
-0.158499 0.609650 -0.142094
-0.156200 0.610912 -0.142197
-0.151997 0.608426 -0.141236
-0.149283 0.608844 -0.141097
-0.146540 0.609194 -0.140938
-0.143233 0.608375 -0.140450
-0.140560 0.608829 -0.140320
-0.137774 0.609032 -0.140122
-0.135698 0.610727 -0.140342
-0.131728 0.608353 -0.139425
-0.129254 0.609157 -0.139400
-0.126654 0.609673 -0.139296
-0.123835 0.609681 -0.139054
-0.120783 0.609129 -0.138659
-0.118279 0.609791 -0.138604
-0.115457 0.609696 -0.138343
-0.112122 0.608350 -0.137740
-0.109745 0.609234 -0.137757
-0.107087 0.609426 -0.137586
-0.104367 0.609435 -0.137370
-0.101561 0.609195 -0.137088
-0.099025 0.609599 -0.136988
-0.096407 0.609770 -0.136827
-0.093844 0.610057 -0.136702
-0.091405 0.610647 -0.136664
-0.088944 0.611161 -0.136608
-0.085334 0.608524 -0.135701
-0.082912 0.609061 -0.135661
-0.080524 0.609678 -0.135645
-0.078133 0.610272 -0.135627
-0.075176 0.609216 -0.135167
-0.072312 0.608365 -0.134767
-0.070280 0.609944 -0.135026
-0.067956 0.610655 -0.135054
-0.065235 0.610130 -0.134754
-0.062652 0.609994 -0.134562
-0.060066 0.609813 -0.134361
-0.057676 0.610232 -0.134325
-0.055173 0.610261 -0.134188
-0.052713 0.610409 -0.134086
-0.049852 0.609162 -0.133615
-0.047351 0.609094 -0.133462
-0.044485 0.607704 -0.132961
-0.042015 0.607662 -0.132822
-0.039782 0.608460 -0.132909
-0.036399 0.604961 -0.131859
-0.034861 0.608337 -0.132636
-0.032853 0.609993 -0.132959
-0.030638 0.610866 -0.133077
-0.027993 0.610008 -0.132739
-0.024358 0.604999 -0.131307
-0.023140 0.609952 -0.132510
-0.021195 0.611962 -0.132938
-0.018764 0.611893 -0.132819
-0.016023 0.610397 -0.132327
-0.014011 0.612173 -0.132699
-0.011731 0.612742 -0.132755
-0.009064 0.611447 -0.132323
-0.006218 0.609179 -0.131639
-0.004001 0.609964 -0.131759
-0.002266 0.613275 -0.132544
-0.000284 0.615417 -0.133022
0.002423 0.613679 -0.132486
0.005118 0.611886 -0.131938
0.007890 0.609530 -0.131246
0.010610 0.607322 -0.130594
0.012448 0.610370 -0.131319
0.014302 0.613484 -0.132062
0.016298 0.615850 -0.132611
0.019593 0.609595 -0.130911
0.021996 0.609105 -0.130718
0.024051 0.611071 -0.131168
0.026536 0.609947 -0.130813
0.028392 0.613586 -0.131701
0.030599 0.614662 -0.131923
0.033235 0.612223 -0.131231
0.035789 0.610260 -0.130665
0.038105 0.610277 -0.130616
0.040390 0.610560 -0.130638
0.042751 0.610096 -0.130467
0.044994 0.610802 -0.130601
0.047175 0.612245 -0.130928
0.049424 0.613027 -0.131085
0.051711 0.613408 -0.131140
0.054177 0.611487 -0.130598
0.056478 0.611571 -0.130579
0.058731 0.612366 -0.130745
0.061198 0.609818 -0.130046
0.063170 0.615466 -0.131472
0.065780 0.609967 -0.130012
0.068074 0.609934 -0.129970
0.070399 0.609178 -0.129742
0.072657 0.609931 -0.129905
0.074950 0.609864 -0.129859
0.077241 0.609781 -0.129809
0.079547 0.608991 -0.129578
0.081834 0.608811 -0.129507
0.084115 0.608831 -0.129488
0.086386 0.609905 -0.129744
0.088663 0.611507 -0.130138
0.090957 0.610362 -0.129823
0.093233 0.607911 -0.129173
0.095532 0.610398 -0.129800
0.097820 0.610451 -0.129800
0.100099 0.609979 -0.129665
0.102410 0.611061 -0.129934
0.104716 0.611608 -0.130067
0.107027 0.612139 -0.130197
0.109246 0.610033 -0.129648
0.111617 0.612020 -0.130157
0.114007 0.613977 -0.130661
0.116159 0.610967 -0.129885
0.118380 0.609658 -0.129549
0.120743 0.610857 -0.129863
0.123019 0.610542 -0.129788
0.125354 0.611078 -0.129935
0.127701 0.611699 -0.130105
0.130105 0.612916 -0.130432
0.132412 0.612850 -0.130430
0.134493 0.610243 -0.129774
0.136943 0.611780 -0.130190
0.139301 0.612226 -0.130327
