ply
format ascii 1.0
comment ---
element vertex 1704
property float x
property float y
property float z
element face 0
property list uchar uint vertex_indices
end_header
0.925834 0.586178 -0.276754
0.928255 0.582039 -0.275837
-0.042826 0.590419 -0.188339
-0.041393 0.599103 -0.190890
-0.037470 0.595114 -0.190185
-0.034849 0.598319 -0.191343
-0.032258 0.602086 -0.192654
-0.029945 0.607889 -0.194502
-0.026969 0.610284 -0.195475
-0.022574 0.604332 -0.194281
-0.019245 0.604918 -0.194791
-0.015080 0.600273 -0.193937
-0.011648 0.600404 -0.194333
-0.008060 0.599593 -0.194484
-0.004558 0.599457 -0.194814
-0.001945 0.606055 -0.196921
0.001176 0.609303 -0.198151
0.004872 0.608260 -0.198251
0.008646 0.606519 -0.198166
0.012242 0.606237 -0.198467
0.015962 0.604815 -0.198464
0.019201 0.607883 -0.199657
0.022733 0.608311 -0.200149
0.026735 0.603765 -0.199309
0.029801 0.609183 -0.201136
0.033174 0.611556 -0.202150
0.036835 0.610546 -0.202255
0.040586 0.608099 -0.201971
0.044063 0.609194 -0.202640
0.047701 0.607843 -0.202647
0.051024 0.611490 -0.204008
0.055065 0.602464 -0.201926
0.058628 0.601173 -0.201941
0.061963 0.604593 -0.203239
0.065426 0.605425 -0.203833
0.068980 0.603713 -0.203728
0.072530 0.601352 -0.203443
0.075933 0.603707 -0.204451
0.079430 0.602228 -0.204404
0.082888 0.602020 -0.204706
0.086340 0.601638 -0.204958
0.089740 0.609129 -0.207390
0.093213 0.608347 -0.207532
0.096651 0.602335 -0.206219
0.100083 0.602372 -0.206583
0.103458 0.598659 -0.205901
0.106873 0.599160 -0.206392
0.110297 0.599941 -0.206961
0.113785 0.602805 -0.208114
0.117374 0.607961 -0.209914
0.120652 0.603666 -0.209057
0.124065 0.603538 -0.209371
0.127670 0.607481 -0.210835
0.131164 0.608596 -0.211501
0.134312 0.603498 -0.210407
0.138486 0.615694 -0.214218
0.141673 0.611393 -0.213348
0.145240 0.612960 -0.214146
0.148299 0.607669 -0.212988
0.151817 0.608629 -0.213611
0.155423 0.610476 -0.214490
0.158813 0.609734 -0.214627
0.162486 0.611990 -0.215625
0.165899 0.611415 -0.215810
0.169127 0.609108 -0.215496
0.172538 0.608626 -0.215706
0.176234 0.610631 -0.216635
0.179994 0.612971 -0.217664
0.182794 0.607394 -0.216397
0.186195 0.606842 -0.216586
0.189012 0.601945 -0.215508
0.192445 0.601765 -0.215803
0.195910 0.601783 -0.216156
0.199393 0.601878 -0.216531
0.202850 0.601756 -0.216843
0.206343 0.601832 -0.217214
0.211294 0.610747 -0.220186
0.214582 0.609258 -0.220101
0.217946 0.608242 -0.220154
0.221455 0.608055 -0.220453
0.225009 0.608073 -0.220812
0.229126 0.611035 -0.222046
0.232394 0.609420 -0.221923
0.235422 0.606633 -0.221450
0.238731 0.605317 -0.221413
0.242255 0.605048 -0.221689
0.245918 0.605403 -0.222152
0.249506 0.605355 -0.222495
0.253189 0.605688 -0.222954
0.256349 0.603682 -0.222710
0.259858 0.603208 -0.222927
0.263570 0.603564 -0.223394
0.267009 0.602746 -0.223507
0.270324 0.601418 -0.223467
0.273922 0.601214 -0.223767
0.277499 0.600895 -0.224032
0.280919 0.599958 -0.224110
0.284382 0.599170 -0.224234
0.287992 0.598908 -0.224518
0.292097 0.600378 -0.225333
0.296034 0.601162 -0.225940
0.299516 0.600318 -0.226050
0.303037 0.599596 -0.226197
0.306973 0.600233 -0.226763
0.310556 0.599657 -0.226957
0.314394 0.599881 -0.227398
0.318628 0.601302 -0.228211
0.322456 0.601381 -0.228611
0.326166 0.601060 -0.228887
0.329844 0.600614 -0.229126
0.333397 0.599775 -0.229243
0.336876 0.598711 -0.229290
0.340592 0.598316 -0.229546
0.344514 0.598477 -0.229977
0.348450 0.598636 -0.230409
0.352434 0.598881 -0.230870
0.356567 0.599485 -0.231444
0.360550 0.599635 -0.231878
0.364822 0.600500 -0.232539
0.368702 0.600293 -0.232863
0.372143 0.598944 -0.232826
0.376374 0.599571 -0.233417
0.380645 0.600243 -0.234024
0.384495 0.599836 -0.234289
0.388232 0.599134 -0.234461
0.391668 0.597704 -0.234400
0.395501 0.597204 -0.234638
0.399790 0.597729 -0.235205
0.403740 0.597436 -0.235511
0.409536 0.601253 -0.237142
0.413452 0.600776 -0.237393
0.417045 0.599571 -0.237410
0.421284 0.599754 -0.237876
0.425749 0.600379 -0.238488
0.430042 0.600591 -0.238967
0.434476 0.601054 -0.239531
0.438321 0.600262 -0.239686
0.441214 0.597524 -0.239207
0.446175 0.598957 -0.240091
0.450104 0.598278 -0.240287
0.453780 0.597086 -0.240314
0.457777 0.596506 -0.240543
0.461819 0.595989 -0.240793
0.467053 0.597697 -0.241780
0.470188 0.595414 -0.241450
0.479662 0.604835 -0.244999
0.482081 0.601144 -0.244206
0.485924 0.600066 -0.244280
0.488726 0.597120 -0.243732
0.494985 0.600292 -0.245225
0.497537 0.596898 -0.244527
0.502790 0.598194 -0.245399
0.509334 0.601623 -0.246991
0.511890 0.598214 -0.246288
0.517659 0.600198 -0.247402
0.518399 0.593804 -0.245690
0.526313 0.599215 -0.247966
0.530287 0.598108 -0.248042
0.533935 0.596462 -0.247936
0.539410 0.597696 -0.248810
0.545850 0.600372 -0.250179
0.548494 0.597075 -0.249514
0.551562 0.594452 -0.249078
0.555691 0.593449 -0.249196
0.560585 0.593568 -0.249701
0.564802 0.592636 -0.249847
0.572526 0.596830 -0.251762
0.588853 0.613407 -0.257964
0.592127 0.610807 -0.257551
0.594914 0.607516 -0.256899
0.597913 0.604542 -0.256355
0.599584 0.599723 -0.255167
0.599321 0.592275 -0.253058
0.596861 0.581920 -0.249925
0.596564 0.574649 -0.247862
0.610035 0.585946 -0.252310
0.613776 0.584040 -0.252133
0.614641 0.578337 -0.250618
0.622693 0.582052 -0.252425
0.629587 0.584146 -0.253667
0.636837 0.586598 -0.255043
0.642704 0.587196 -0.255768
0.649895 0.589384 -0.257063
0.656946 0.591294 -0.258266
0.662964 0.591841 -0.258989
0.667139 0.590075 -0.258888
0.671748 0.588806 -0.258966
0.677874 0.589304 -0.259684
0.682401 0.587843 -0.259700
0.696930 0.598035 -0.263931
0.701132 0.596012 -0.263757
0.702655 0.590892 -0.262461
0.707425 0.589489 -0.262514
0.712167 0.588013 -0.262543
0.722868 0.593128 -0.264984
0.729727 0.593841 -0.265826
0.730822 0.588182 -0.264335
0.722602 0.572502 -0.259151
0.726639 0.570168 -0.258870
0.741668 0.579453 -0.262887
0.748054 0.579423 -0.263474
0.752384 0.577189 -0.263247
0.757003 0.575226 -0.263123
0.771164 0.582948 -0.266617
0.782617 0.587721 -0.269027
0.792687 0.590952 -0.270874
0.798423 0.589769 -0.271073
0.802308 0.586730 -0.270576
0.809605 0.586997 -0.271328
0.821062 0.591188 -0.273573
0.827883 0.590833 -0.274106
0.832187 0.588061 -0.273723
0.831887 0.581001 -0.271703
0.830822 0.573325 -0.269439
0.834636 0.570212 -0.268915
0.844837 0.572902 -0.270622
0.863420 0.569923 -0.271515
0.865348 0.565212 -0.270369
0.893594 0.583288 -0.278098
0.908380 0.589519 -0.281237
0.918108 0.591356 -0.282668
0.924253 0.590164 -0.282912
0.885560 0.545878 -0.266846
-0.045190 0.599919 -0.194179
-0.042195 0.600675 -0.194700
-0.038696 0.599032 -0.194597
-0.035053 0.596757 -0.194332
-0.032309 0.599641 -0.195430
-0.030502 0.608302 -0.198063
-0.026511 0.604717 -0.197467
-0.023670 0.608129 -0.198727
-0.019400 0.602954 -0.197713
-0.015478 0.599875 -0.197254
-0.012074 0.600212 -0.197707
-0.008449 0.599174 -0.197794
-0.004901 0.598733 -0.198043
-0.002520 0.607031 -0.200638
0.000964 0.607542 -0.201150
0.004724 0.605957 -0.201098
0.008619 0.603165 -0.200720
0.012178 0.603097 -0.201076
0.015730 0.603111 -0.201455
0.019144 0.604463 -0.202197
0.022847 0.603043 -0.202187
0.026343 0.603635 -0.202723
0.029701 0.605819 -0.203694
0.033237 0.606103 -0.204147
0.036816 0.605832 -0.204447
0.040092 0.609509 -0.205831
0.043620 0.610023 -0.206347
0.047381 0.606928 -0.205869
0.050977 0.605973 -0.205977
0.054489 0.606267 -0.206428
0.058191 0.602668 -0.205800
0.061634 0.603889 -0.206506
0.065034 0.606309 -0.207546
0.068722 0.601061 -0.206449
0.072141 0.602754 -0.207285
0.075618 0.602591 -0.207602
0.079074 0.603097 -0.208106
0.082533 0.603340 -0.208535
0.085986 0.603836 -0.209035
0.089415 0.608428 -0.210689
0.092887 0.609214 -0.211272
0.096348 0.606128 -0.210760
0.099775 0.603180 -0.210283
0.103276 0.608043 -0.212020
0.106846 0.614252 -0.214144
0.110310 0.613480 -0.214284
0.113719 0.611080 -0.213959
0.117078 0.607945 -0.213420
0.120297 0.601952 -0.212060
0.123786 0.603695 -0.212912
0.127454 0.608904 -0.214761
0.131039 0.611576 -0.215886
0.134729 0.615641 -0.217414
0.138078 0.613539 -0.217164
0.141763 0.616792 -0.218462
0.145056 0.614095 -0.218038
0.148232 0.610199 -0.217263
0.151756 0.611035 -0.217860
0.155257 0.611480 -0.218344
0.158793 0.612243 -0.218922
0.162310 0.612709 -0.219413
0.165835 0.613167 -0.219903
0.168888 0.609075 -0.219058
0.171986 0.605709 -0.218423
0.175967 0.610283 -0.220122
0.179760 0.612881 -0.221242
0.183227 0.612621 -0.221522
0.186160 0.608216 -0.220576
0.188890 0.602578 -0.219260
0.192242 0.601771 -0.219372
0.195672 0.601510 -0.219647
0.199091 0.601157 -0.219895
0.202590 0.601307 -0.220292
0.205942 0.600473 -0.220396
0.209603 0.601545 -0.221071
0.213388 0.603236 -0.221932
0.217165 0.604748 -0.222742
0.220549 0.603932 -0.222854
0.223958 0.603250 -0.223006
0.227484 0.603180 -0.223343
0.230893 0.602470 -0.223487
0.233661 0.598521 -0.222650
0.237591 0.600435 -0.223588
0.241346 0.601373 -0.224233
0.244391 0.598898 -0.223840
0.248621 0.601914 -0.225120
0.252306 0.602316 -0.225605
0.255863 0.602095 -0.225901
0.259228 0.601023 -0.225937
0.262739 0.600563 -0.226161
0.266490 0.601062 -0.226680
0.269993 0.600502 -0.226874
0.273636 0.600478 -0.227235
0.277338 0.600637 -0.227652
0.281032 0.600715 -0.228046
0.284673 0.600555 -0.228367
0.288505 0.601053 -0.228893
0.292295 0.601343 -0.229356
0.295806 0.600605 -0.229500
0.299392 0.600107 -0.229720
0.303241 0.600479 -0.230212
0.307531 0.602256 -0.231145
0.310925 0.601014 -0.231135
0.314790 0.601285 -0.231599
0.318207 0.600093 -0.231605
0.322124 0.600450 -0.232099
0.326062 0.600822 -0.232600
0.329910 0.600875 -0.233001
0.333469 0.600033 -0.233120
0.337069 0.599299 -0.233273
0.340950 0.599353 -0.233677
0.344526 0.598508 -0.233797
0.348531 0.598841 -0.234292
0.352556 0.599180 -0.234791
0.356781 0.600011 -0.235450
0.360633 0.599790 -0.235773
0.364374 0.599251 -0.235995
0.368516 0.599723 -0.236544
0.372127 0.598798 -0.236643
0.375810 0.598042 -0.236798
0.380609 0.600021 -0.237838
0.384484 0.599665 -0.238125
0.388209 0.598924 -0.238288
0.392300 0.599029 -0.238727
0.395236 0.596406 -0.238278
0.399051 0.595837 -0.238498
0.403026 0.595611 -0.238832
0.407333 0.596102 -0.239401
0.412568 0.598594 -0.240629
0.417594 0.600533 -0.241680
0.420944 0.598773 -0.241516
0.425589 0.599780 -0.242265
0.429355 0.598876 -0.242385
0.433615 0.598987 -0.242841
0.437916 0.599141 -0.243314
0.441714 0.598240 -0.243438
0.446032 0.598362 -0.243903
0.452363 0.602428 -0.245685
0.455267 0.599666 -0.245192
0.458648 0.597853 -0.245016
0.463142 0.598169 -0.245552
0.468734 0.600514 -0.246773
0.476756 0.607297 -0.249493
0.479875 0.604852 -0.249111
0.482238 0.601047 -0.248268
0.485637 0.599160 -0.248071
0.487412 0.594382 -0.246893
0.487150 0.586088 -0.244517
0.496989 0.595529 -0.248169
0.502253 0.596846 -0.249065
0.506005 0.595519 -0.249061
0.510709 0.595786 -0.249603
0.514017 0.593681 -0.249334
0.520060 0.596091 -0.250616
0.525417 0.597290 -0.251486
0.532453 0.601132 -0.253272
0.535711 0.598820 -0.252939
0.541254 0.600125 -0.253857
0.545839 0.599862 -0.254235
0.549075 0.597476 -0.253878
0.551960 0.594557 -0.253334
0.556395 0.594003 -0.253615
0.560674 0.593184 -0.253804
0.565295 0.592842 -0.254162
0.577850 0.604114 -0.258599
0.582922 0.604233 -0.259132
0.581784 0.595368 -0.256503
0.583797 0.591121 -0.255494
0.586492 0.587873 -0.254836
0.590653 0.586687 -0.254908
0.597037 0.588547 -0.256063
0.592104 0.574842 -0.251684
0.604914 0.585383 -0.255935
0.605717 0.579569 -0.254361
0.613074 0.582516 -0.255919
0.614701 0.577821 -0.254743
0.617360 0.574508 -0.254060
0.631991 0.586630 -0.258937
0.638991 0.588724 -0.260216
0.643428 0.587481 -0.260295
0.651703 0.591006 -0.262104
0.662078 0.597003 -0.264822
0.667272 0.596469 -0.265175
0.667324 0.589641 -0.263235
0.672233 0.588724 -0.263450
0.678464 0.589335 -0.264229
0.685481 0.590797 -0.265327
0.702240 0.603538 -0.270583
0.706438 0.601446 -0.270393
0.704159 0.591912 -0.267453
0.708572 0.590082 -0.267357
0.712962 0.588194 -0.267243
0.719322 0.588462 -0.267934
0.725604 0.588571 -0.268571
0.724837 0.580927 -0.266314
0.720808 0.569842 -0.262760
0.721452 0.563897 -0.261124
0.733649 0.570222 -0.264105
0.752906 0.583752 -0.269823
0.755484 0.579645 -0.268897
0.757198 0.574662 -0.267638
0.766517 0.577441 -0.269327
0.782443 0.586752 -0.273518
0.793439 0.590896 -0.275758
0.799076 0.589601 -0.275929
0.804207 0.587771 -0.275898
0.810256 0.586801 -0.276200
0.820066 0.589394 -0.277883
0.827305 0.589438 -0.278589
0.835134 0.589979 -0.279495
0.841277 0.588888 -0.279772
0.848360 0.588636 -0.280380
0.852052 0.585250 -0.279766
0.857229 0.583233 -0.279687
0.868122 0.586337 -0.281621
0.869044 0.580513 -0.280046
0.861439 0.567291 -0.275537
0.872990 0.570964 -0.277699
0.897679 0.585878 -0.284337
0.909561 0.589580 -0.286542
0.917676 0.590032 -0.287456
0.922414 0.587656 -0.287238
0.859000 0.523092 -0.262704
-0.045428 0.598547 -0.197219
-0.042349 0.598859 -0.197628
-0.038672 0.596255 -0.197263
-0.035625 0.597193 -0.197850
-0.032621 0.598651 -0.198582
-0.031465 0.611012 -0.202255
-0.028015 0.610736 -0.202537
-0.023566 0.604573 -0.201233
-0.019869 0.602928 -0.201148
-0.015256 0.595435 -0.199480
-0.012396 0.599285 -0.200887
-0.008668 0.597542 -0.200779
-0.005273 0.598173 -0.201318
-0.002951 0.606882 -0.204066
0.000195 0.610019 -0.205300
0.004395 0.605070 -0.204320
0.008285 0.602331 -0.203943
0.011582 0.604546 -0.204927
0.015193 0.604139 -0.205191
0.018758 0.604130 -0.205565
0.022366 0.603703 -0.205823
0.025615 0.606971 -0.207105
0.029100 0.607963 -0.207758
0.032918 0.605120 -0.207343
0.036512 0.604667 -0.207592
0.039912 0.606649 -0.208520
0.043407 0.607489 -0.209129
0.046963 0.607438 -0.209489
0.050405 0.609148 -0.210342
0.053943 0.609321 -0.210764
0.057636 0.606339 -0.210295
0.061172 0.606000 -0.210569
0.064669 0.606379 -0.211045
0.068364 0.601110 -0.209918
0.071872 0.600051 -0.209982
0.075294 0.601666 -0.210805
0.078754 0.601954 -0.211250
0.082200 0.602899 -0.211882
0.085659 0.603048 -0.212287
0.089082 0.608233 -0.214135
0.092554 0.611001 -0.215294
0.096038 0.610462 -0.215503
0.099503 0.608913 -0.215419
0.102999 0.611094 -0.216410
0.106595 0.617878 -0.218735
0.110200 0.622343 -0.220394
0.113719 0.622179 -0.220713
0.116805 0.608817 -0.217194
0.120211 0.607538 -0.217180
0.123459 0.602824 -0.216163
0.127198 0.609602 -0.218500
0.130935 0.615078 -0.220462
0.134332 0.613619 -0.220395
0.137834 0.614090 -0.220893
0.141113 0.611117 -0.220378
0.144549 0.610752 -0.220630
0.148287 0.614396 -0.222064
0.152051 0.617906 -0.223463
0.154925 0.610590 -0.221657
0.158184 0.608286 -0.221331
0.161885 0.610835 -0.222447
0.165011 0.607365 -0.221772
0.168413 0.606805 -0.221962
0.171805 0.606175 -0.222131
0.175002 0.603859 -0.221795
0.178444 0.603748 -0.222118
0.181661 0.601800 -0.221889
0.184985 0.600787 -0.221940
0.188606 0.602026 -0.222670
0.192127 0.602418 -0.223145
0.195353 0.600689 -0.222980
0.198932 0.601414 -0.223556
0.202348 0.600980 -0.223783
0.205800 0.600763 -0.224075
0.209048 0.599271 -0.223980
0.212805 0.600838 -0.224816
0.216511 0.601987 -0.225527
0.220115 0.602450 -0.226031
0.223579 0.602085 -0.226281
0.227084 0.601917 -0.226592
0.230510 0.601301 -0.226767
0.233818 0.600076 -0.226753
0.237499 0.600702 -0.227311
0.240837 0.599613 -0.227340
0.244671 0.600854 -0.228090
0.248247 0.600809 -0.228443
0.251886 0.601009 -0.228873
0.255435 0.600765 -0.229166
0.258980 0.600467 -0.229443
0.262651 0.600668 -0.229877
0.266244 0.600500 -0.230196
0.269980 0.600869 -0.230685
0.273747 0.601301 -0.231194
0.277390 0.601196 -0.231536
0.281020 0.601008 -0.231853
0.284756 0.601173 -0.232283
0.288521 0.601398 -0.232732
0.292130 0.601018 -0.232991
0.295641 0.600267 -0.233134
0.299333 0.600125 -0.233471
0.303283 0.600817 -0.234073
0.307067 0.600896 -0.234482
0.310901 0.601093 -0.234930
0.314360 0.600042 -0.234981
0.317991 0.599531 -0.235205
0.321678 0.599168 -0.235476
0.325709 0.599827 -0.236077
0.329539 0.599823 -0.236467
0.333321 0.599642 -0.236801
0.337081 0.599361 -0.237103
0.340771 0.598851 -0.237333
0.344663 0.598890 -0.237741
0.348333 0.598274 -0.237938
0.352677 0.599474 -0.238726
0.356676 0.599678 -0.239192
0.360311 0.598875 -0.239331
0.363898 0.597933 -0.239426
0.367244 0.596362 -0.239315
0.371543 0.597211 -0.239997
0.375639 0.597496 -0.240496
0.380642 0.599971 -0.241718
0.383855 0.597993 -0.241476
0.387849 0.597903 -0.241856
0.393106 0.600766 -0.243216
0.398042 0.602765 -0.244293
0.402380 0.603301 -0.244889
0.406230 0.602681 -0.245102
0.411477 0.605169 -0.246352
0.416781 0.607684 -0.247616
0.420347 0.606304 -0.247581
0.425826 0.609045 -0.248927
0.430966 0.610961 -0.250001
0.429684 0.599297 -0.246513
0.433673 0.598825 -0.246783
0.437865 0.598745 -0.247186
0.441816 0.598146 -0.247415
0.445405 0.596797 -0.247391
0.452345 0.602070 -0.249614
0.457235 0.603179 -0.250430
0.460105 0.600326 -0.249900
0.464814 0.601009 -0.250574
0.469295 0.601211 -0.251087
0.476047 0.605605 -0.253037
0.479308 0.603428 -0.252741
0.480842 0.598121 -0.251368
0.484938 0.597508 -0.251607
0.492685 0.603369 -0.254080
0.498930 0.606417 -0.255591
0.500084 0.600500 -0.254003
0.501211 0.594627 -0.252425
0.505098 0.593542 -0.252506
0.508755 0.592056 -0.252448
0.512147 0.590120 -0.252234
0.516930 0.590478 -0.252821
0.524440 0.595232 -0.254950
0.532989 0.601521 -0.257627
0.539970 0.605132 -0.259373
0.542215 0.601151 -0.258452
0.545222 0.598401 -0.257963
0.548835 0.596601 -0.257809
0.551934 0.594008 -0.257374
0.557028 0.594445 -0.258014
0.561558 0.593985 -0.258338
0.565732 0.592961 -0.258463
0.579008 0.605266 -0.263350
0.585712 0.607731 -0.264736
0.578846 0.590590 -0.259100
0.582647 0.588927 -0.259003
0.587723 0.589045 -0.259548
0.591483 0.587277 -0.259416
0.598787 0.590387 -0.261047
0.607232 0.594943 -0.263211
0.599530 0.577512 -0.257406
0.611651 0.586927 -0.261340
0.623098 0.595209 -0.264880
0.632385 0.600438 -0.267321
0.627760 0.587422 -0.263099
0.630908 0.584613 -0.262603
0.636521 0.584943 -0.263261
0.642470 0.585635 -0.264056
0.656283 0.596081 -0.268456
0.667239 0.602727 -0.271472
0.669408 0.598419 -0.270444
0.668181 0.590012 -0.267891
0.673047 0.589027 -0.268093
0.679306 0.589655 -0.268899
0.686189 0.590941 -0.269957
0.699098 0.599165 -0.273623
0.705608 0.599772 -0.274447
0.705422 0.592644 -0.272367
0.708313 0.589071 -0.271621
0.716336 0.591253 -0.273051
0.714157 0.581998 -0.270155
0.718330 0.579837 -0.269945
0.726111 0.581575 -0.271221
0.728083 0.576950 -0.270079
0.732031 0.574454 -0.269748
0.742231 0.578544 -0.271945
0.753854 0.583974 -0.274671
0.759324 0.582850 -0.274888
0.761762 0.578569 -0.273889
0.770476 0.580677 -0.275364
0.787859 0.591394 -0.280192
0.794249 0.590885 -0.280677
0.800467 0.590148 -0.281080
0.805397 0.588101 -0.280975
0.813428 0.589030 -0.282040
0.818461 0.587007 -0.281952
0.830673 0.591772 -0.284542
0.837160 0.591013 -0.284964
0.844103 0.590639 -0.285544
0.852084 0.591181 -0.286491
0.858869 0.590576 -0.286988
0.864480 0.588883 -0.287054
0.871466 0.588419 -0.287612
0.867467 0.578209 -0.284258
0.863881 0.568533 -0.281100
0.873101 0.570147 -0.282483
0.899234 0.586273 -0.289748
0.909859 0.588877 -0.291558
0.916033 0.587678 -0.291826
0.912637 0.578501 -0.288834
-0.046242 0.600080 -0.201043
-0.042479 0.596907 -0.200510
-0.039193 0.596360 -0.200696
-0.036058 0.596845 -0.201167
-0.033675 0.601770 -0.202857
-0.031543 0.608611 -0.205082
-0.028253 0.609235 -0.205611
-0.023733 0.602656 -0.204163
-0.019584 0.598172 -0.203289
-0.015336 0.592941 -0.202208
-0.011963 0.593319 -0.202674
-0.008920 0.596111 -0.203811
-0.005721 0.598115 -0.204735
-0.003211 0.605436 -0.207140
-0.000209 0.609633 -0.208684
0.003689 0.607128 -0.208363
0.007572 0.604593 -0.208032
0.010843 0.607154 -0.209126
0.014440 0.607030 -0.209469
0.018171 0.605647 -0.209458
0.021762 0.605506 -0.209796
0.025050 0.608492 -0.211016
0.028324 0.611941 -0.212370
0.032092 0.609981 -0.212194
0.035936 0.606787 -0.211666
0.039505 0.606731 -0.212025
0.042772 0.610862 -0.213578
0.046215 0.612842 -0.214519
0.049701 0.614347 -0.215326
0.053403 0.612130 -0.215068
0.057200 0.607487 -0.214110
0.060803 0.605914 -0.214030
0.064183 0.609229 -0.215355
0.067977 0.601807 -0.213584
0.071451 0.602114 -0.214039
0.074941 0.601648 -0.214270
0.078385 0.602886 -0.214993
0.081864 0.602328 -0.215196
0.085315 0.603260 -0.215831
0.088741 0.608539 -0.217734
0.092211 0.614654 -0.219887
0.095713 0.612804 -0.219713
0.099185 0.609925 -0.219236
0.102664 0.610098 -0.219651
0.106269 0.617643 -0.222235
0.109833 0.620174 -0.223349
0.113349 0.620143 -0.223708
0.116831 0.619154 -0.223784
0.120160 0.614301 -0.222714
0.123423 0.609035 -0.221515
0.126932 0.610166 -0.222214
0.130507 0.612390 -0.223238
0.134067 0.613968 -0.224072
0.136965 0.604436 -0.221588
0.140309 0.603091 -0.221544
0.143628 0.601549 -0.221441
0.147006 0.600965 -0.221623
0.150416 0.600839 -0.221942
0.153909 0.601683 -0.222554
0.157335 0.601656 -0.222904
0.160640 0.600341 -0.222864
0.163947 0.599130 -0.222856
0.167522 0.600570 -0.223650
0.171147 0.602307 -0.224536
0.174555 0.601961 -0.224791
0.178054 0.602370 -0.225275
0.181404 0.601506 -0.225372
0.184856 0.601465 -0.225720
0.188359 0.601762 -0.226172
0.191850 0.601920 -0.226582
0.195300 0.601738 -0.226888
0.198673 0.601001 -0.227024
0.202312 0.602010 -0.227698
0.205821 0.602092 -0.228088
0.209349 0.602246 -0.228500
0.212781 0.601773 -0.228719
0.216382 0.602256 -0.229235
0.219913 0.602285 -0.229611
0.223457 0.602331 -0.229993
0.226980 0.602224 -0.230329
0.230446 0.601782 -0.230560
0.233903 0.601275 -0.230771
0.237543 0.601648 -0.231259
0.240969 0.600934 -0.231406
0.244476 0.600587 -0.231669
0.248088 0.600695 -0.232077
0.251657 0.600563 -0.232409
0.255272 0.600594 -0.232794
0.258851 0.600426 -0.233117
0.262643 0.601115 -0.233712
0.266173 0.600657 -0.233945
0.269950 0.601167 -0.234487
0.273677 0.601417 -0.234947
0.277365 0.601466 -0.235344
0.280929 0.601004 -0.235579
0.284398 0.600163 -0.235694
0.288090 0.600123 -0.236065
0.291764 0.599977 -0.236404
0.295516 0.600071 -0.236821
0.299237 0.600013 -0.237190
0.302869 0.599619 -0.237452
0.306923 0.600593 -0.238158
0.310615 0.600317 -0.238460
0.314299 0.599984 -0.238745
0.317873 0.599276 -0.238909
0.321944 0.600091 -0.239570
0.325508 0.599295 -0.239706
0.328935 0.598079 -0.239706
0.332712 0.597891 -0.240043
0.336658 0.598163 -0.240531
0.340648 0.598514 -0.241048
0.344424 0.598213 -0.241351
0.348343 0.598280 -0.241777
0.352542 0.599073 -0.242445
0.357105 0.600781 -0.243417
0.361108 0.600921 -0.243873
0.366629 0.604976 -0.245632
0.371922 0.608289 -0.247150
0.378674 0.615171 -0.249863
0.379986 0.608234 -0.247970
0.382940 0.605497 -0.247475
0.384803 0.600148 -0.246103
0.387148 0.596067 -0.245152
0.392974 0.600283 -0.246989
0.398638 0.603971 -0.248655
0.402586 0.603580 -0.248949
0.407073 0.604387 -0.249650
0.411624 0.605278 -0.250382
0.415947 0.605607 -0.250926
0.420063 0.605442 -0.251303
0.426714 0.610704 -0.253532
0.429715 0.608034 -0.253061
0.430256 0.600226 -0.250832
0.434293 0.599829 -0.251134
0.438260 0.599264 -0.251379
0.441845 0.597901 -0.251351
0.445246 0.596168 -0.251196
0.453417 0.603864 -0.254294
0.458351 0.605022 -0.255143
0.461537 0.602746 -0.254806
0.464255 0.599593 -0.254164
0.470617 0.603341 -0.255919
0.472552 0.598724 -0.254768
0.477325 0.599397 -0.255458
0.483098 0.601840 -0.256770
0.485192 0.597568 -0.255736
0.493930 0.605175 -0.258866
0.500026 0.607928 -0.260301
0.503382 0.605813 -0.260029
0.502802 0.596936 -0.257370
0.505912 0.594492 -0.256976
0.508850 0.591773 -0.256483
0.510917 0.587623 -0.255482
0.512128 0.582115 -0.253994
0.523313 0.592928 -0.258314
0.531080 0.597964 -0.260591
0.539268 0.603522 -0.263063
0.542947 0.601810 -0.262941
0.544505 0.596779 -0.261629
0.547670 0.594293 -0.261227
0.551801 0.593291 -0.261360
0.556976 0.593845 -0.262056
0.562069 0.594221 -0.262691
0.566377 0.593381 -0.262889
0.581911 0.608971 -0.269056
0.585180 0.606397 -0.268638
0.578883 0.590088 -0.263212
0.582594 0.588290 -0.263068
0.588787 0.589973 -0.264198
0.593031 0.588859 -0.264309
0.603257 0.595968 -0.267444
0.606269 0.593033 -0.266894
0.617211 0.600823 -0.270303
0.622770 0.601203 -0.270986
0.630203 0.604005 -0.272571
0.631780 0.599015 -0.271271
0.632472 0.592917 -0.269555
0.632427 0.585936 -0.267504
0.634543 0.581789 -0.266506
0.643772 0.586631 -0.268873
0.653748 0.592255 -0.271547
0.663531 0.597469 -0.274080
0.670885 0.599548 -0.275444
0.669793 0.591289 -0.272910
0.672807 0.588056 -0.272272
0.679154 0.588784 -0.273136
0.687849 0.592194 -0.275028
0.695451 0.594200 -0.276396
0.701033 0.593771 -0.276842
0.703802 0.590069 -0.276040
0.710480 0.590794 -0.276937
0.714949 0.588962 -0.276858
0.718805 0.586418 -0.276506
0.726905 0.588513 -0.277950
0.733553 0.588919 -0.278750
0.739000 0.587952 -0.279024
0.748726 0.591496 -0.281059
0.752131 0.588226 -0.280448
0.755160 0.584556 -0.279680
0.759535 0.582280 -0.279460
0.767450 0.583605 -0.280658
0.779420 0.588950 -0.283451
0.790227 0.592950 -0.285730
0.796469 0.592262 -0.286166
0.801066 0.589899 -0.285942
0.809951 0.591699 -0.287378
0.816079 0.590736 -0.287722
0.827269 0.594570 -0.289991
0.832774 0.592887 -0.290059
0.838338 0.591236 -0.290143
0.845138 0.590710 -0.290683
0.853980 0.592024 -0.291972
0.860089 0.590780 -0.292231
0.867116 0.590346 -0.292822
0.871680 0.587689 -0.292508
0.872571 0.581805 -0.290871
0.869825 0.572825 -0.287954
0.873464 0.569538 -0.287362
0.902424 0.588061 -0.295760
0.910528 0.588480 -0.296713
0.914986 0.585821 -0.296389
0.914079 0.578737 -0.294217
0.910989 0.569991 -0.291335
0.941547 0.589042 -0.300054
-0.046979 0.601195 -0.204775
-0.043455 0.599313 -0.204589
-0.039728 0.596519 -0.204153
-0.036574 0.596924 -0.204608
-0.033581 0.598468 -0.205384
-0.031285 0.604286 -0.207357
-0.027916 0.604354 -0.207734
-0.024232 0.602724 -0.207639
-0.020440 0.600499 -0.207378
-0.017688 0.604959 -0.208995
-0.016043 0.617161 -0.212798
-0.010809 0.605825 -0.209980
-0.007628 0.608315 -0.211056
-0.004535 0.611738 -0.212401
-0.000742 0.610186 -0.212340
0.003069 0.608432 -0.212221
0.006660 0.608406 -0.212592
0.009998 0.610586 -0.213593
0.013249 0.613761 -0.214880
0.017732 0.605681 -0.212950
0.021316 0.605658 -0.213322
0.024464 0.610141 -0.214987
0.027751 0.613566 -0.216352
0.031329 0.613973 -0.216851
0.035174 0.611095 -0.216401
0.038803 0.610603 -0.216637
0.042189 0.613359 -0.217814
0.045666 0.615070 -0.218689
0.049194 0.616127 -0.219376
0.052872 0.614589 -0.219307
0.056711 0.609513 -0.218202
0.060399 0.606455 -0.217682
0.063816 0.608998 -0.218798
0.067509 0.604546 -0.217864
0.071064 0.602853 -0.217735
0.074533 0.603493 -0.218292
0.078019 0.603367 -0.218622
0.081502 0.603043 -0.218893
0.084966 0.603522 -0.219401
0.088385 0.610182 -0.221742
0.091874 0.612351 -0.222754
0.095369 0.610145 -0.222467
0.098830 0.606763 -0.221827
0.102291 0.606355 -0.222070
0.105722 0.604677 -0.221933
0.109149 0.603661 -0.221993
0.112570 0.602896 -0.222126
0.115966 0.601667 -0.222119
0.119365 0.600884 -0.222245
0.122815 0.601568 -0.222812
0.126274 0.602304 -0.223396
0.129647 0.601240 -0.223435
0.133060 0.601095 -0.223752
0.136493 0.601283 -0.224170
0.139921 0.601365 -0.224556
0.143312 0.600911 -0.224779
0.146672 0.600076 -0.224886
0.150139 0.600651 -0.225422
0.153618 0.601295 -0.225981
0.157066 0.601491 -0.226403
0.160477 0.601245 -0.226689
0.163913 0.601246 -0.227052
0.167454 0.602229 -0.227718
0.170830 0.601574 -0.227880
0.174325 0.601980 -0.228369
0.177851 0.602576 -0.228919
0.181364 0.602991 -0.229413
0.184835 0.602997 -0.229781
0.188156 0.601847 -0.229789
0.191571 0.601418 -0.230022
0.195013 0.601160 -0.230308
0.198499 0.601181 -0.230682
0.202020 0.601384 -0.231114
0.205674 0.602373 -0.231794
0.209038 0.601480 -0.231884
0.212530 0.601361 -0.232217
0.216100 0.601653 -0.232680
0.219773 0.602472 -0.233311
0.223264 0.602201 -0.233599
0.226632 0.601246 -0.233670
0.230241 0.601543 -0.234139
0.233845 0.601760 -0.234584
0.237143 0.600413 -0.234532
0.240578 0.599747 -0.234696
0.244109 0.599522 -0.235002
0.247798 0.599987 -0.235529
0.251547 0.600654 -0.236123
0.255050 0.600171 -0.236349
0.258954 0.601383 -0.237121
0.262249 0.599949 -0.237043
0.265925 0.600094 -0.237473
0.269643 0.600358 -0.237944
0.273482 0.601046 -0.238554
0.277294 0.601562 -0.239109
0.280857 0.601071 -0.239339
0.284181 0.599672 -0.239274
0.287473 0.598167 -0.239173
0.291425 0.599035 -0.239848
0.295235 0.599332 -0.240338
0.298977 0.599343 -0.240736
0.303533 0.602061 -0.242025
0.306996 0.601014 -0.242079
0.310737 0.600872 -0.242431
0.314290 0.600093 -0.242574
0.318205 0.600441 -0.243091
0.322206 0.601001 -0.243679
0.325663 0.599850 -0.243701
0.328917 0.598088 -0.243520
0.332775 0.598125 -0.243938
0.342685 0.615678 -0.250203
0.343952 0.607962 -0.248042
0.349249 0.611777 -0.249735
0.352240 0.609052 -0.249240
0.355337 0.606660 -0.248855
0.359604 0.607443 -0.249538
0.363917 0.608287 -0.250243
0.368834 0.610644 -0.251462
0.373441 0.612100 -0.252381
0.377372 0.611764 -0.252696
0.381054 0.610779 -0.252791
0.383113 0.605786 -0.251523
0.385250 0.601087 -0.250350
0.389431 0.601374 -0.250877
0.394455 0.603607 -0.252070
0.398303 0.603005 -0.252297
0.402510 0.603208 -0.252800
0.405992 0.601724 -0.252726
0.409967 0.601346 -0.253032
0.414330 0.601802 -0.253628
0.419638 0.604271 -0.254921
0.424097 0.604811 -0.255552
0.426990 0.601973 -0.255013
0.430300 0.600044 -0.254787
0.434182 0.599314 -0.254980
0.438390 0.599233 -0.255399
0.442106 0.598124 -0.255460
0.446515 0.598391 -0.256004
0.454739 0.606148 -0.259178
0.459997 0.607896 -0.260252
0.462366 0.603997 -0.259342
0.463688 0.598158 -0.257744
0.466947 0.596065 -0.257465
0.471112 0.595671 -0.257786
0.476152 0.596858 -0.258670
0.484124 0.603314 -0.261430
0.488373 0.602890 -0.261752
0.490669 0.598966 -0.260827
0.497472 0.603015 -0.262747
0.501825 0.602676 -0.263105
0.503874 0.598346 -0.262033
0.508328 0.598159 -0.262447
0.513544 0.599220 -0.263312
0.512828 0.590350 -0.260598
0.515676 0.587496 -0.260049
0.522451 0.591054 -0.261821
0.529722 0.595295 -0.263848
0.531908 0.591303 -0.262891
0.539263 0.595501 -0.264914
0.544317 0.595981 -0.265589
0.547269 0.593163 -0.265062
0.550900 0.591396 -0.264919
0.558075 0.594980 -0.266741
0.562304 0.594038 -0.266906
0.567395 0.594346 -0.267534
0.579902 0.605466 -0.272159
0.585395 0.606142 -0.272939
0.580107 0.591283 -0.267962
0.584091 0.589850 -0.267955
0.589101 0.589838 -0.268480
0.591990 0.586827 -0.267889
0.597991 0.588115 -0.268904
0.607317 0.593861 -0.271595
0.612108 0.593317 -0.271938
0.618901 0.595408 -0.273275
0.621847 0.592312 -0.272665
0.623955 0.588123 -0.271641
0.626739 0.584841 -0.270958
0.631131 0.583633 -0.271062
0.636599 0.583762 -0.271676
0.640726 0.582142 -0.271629
0.640436 0.574988 -0.269471
0.662855 0.595956 -0.278069
0.668825 0.596341 -0.278812
0.670212 0.591109 -0.277402
0.673850 0.588614 -0.277044
0.682457 0.592004 -0.278959
0.688839 0.592647 -0.279822
0.694496 0.592369 -0.280336
0.700611 0.592557 -0.281036
0.704847 0.590531 -0.280880
0.709974 0.589483 -0.281108
0.715398 0.588719 -0.281452
0.720760 0.587832 -0.281754
0.730709 0.591925 -0.284019
0.738245 0.593245 -0.285206
0.741888 0.590283 -0.284709
0.749448 0.591477 -0.285861
0.755209 0.590679 -0.286230
0.757340 0.586036 -0.285074
0.761667 0.583683 -0.284830
0.770244 0.585654 -0.286320
0.782431 0.591176 -0.289246
0.790834 0.592722 -0.290591
0.797759 0.592699 -0.291314
0.807779 0.595653 -0.293248
0.815202 0.595952 -0.294119
0.822205 0.595775 -0.294804
0.824851 0.591379 -0.293775
0.835297 0.594384 -0.295769
0.838442 0.590438 -0.294926
0.849649 0.593990 -0.297163
0.855911 0.592884 -0.297493
0.861946 0.591548 -0.297731
0.869043 0.591153 -0.298360
0.876074 0.590672 -0.298957
0.881886 0.589096 -0.299100
0.882734 0.583186 -0.297430
0.883807 0.577565 -0.295871
0.901528 0.586325 -0.300342
0.910587 0.587555 -0.301660
0.916747 0.586325 -0.301942
0.914438 0.578060 -0.299239
0.918831 0.575504 -0.298939
0.940168 0.586904 -0.304575
-0.046703 0.597200 -0.207090
-0.043844 0.598667 -0.207840
-0.040693 0.598914 -0.208252
-0.037366 0.598464 -0.208471
-0.034055 0.598310 -0.208777
-0.031257 0.601273 -0.209972
-0.028415 0.604350 -0.211204
-0.025142 0.605215 -0.211813
-0.022347 0.609264 -0.213335
-0.020186 0.617759 -0.216133
-0.016114 0.614401 -0.215548
-0.010319 0.599239 -0.211577
-0.006309 0.595693 -0.210929
-0.005068 0.612169 -0.216042
-0.001744 0.614219 -0.217013
0.002285 0.610961 -0.216454
0.005689 0.612607 -0.217311
0.008934 0.615787 -0.218615
0.013405 0.608345 -0.216837
0.017309 0.605514 -0.216393
0.020764 0.606792 -0.217144
0.024178 0.608610 -0.218054
0.027411 0.612566 -0.219591
0.031021 0.612593 -0.219980
0.034761 0.610997 -0.219892
0.038428 0.610069 -0.219999
0.041940 0.611088 -0.220678
0.045547 0.610739 -0.220953
0.049099 0.611138 -0.221449
0.052424 0.615461 -0.223107
0.056052 0.614647 -0.223245
0.059939 0.608029 -0.221655
0.063488 0.607737 -0.221941
0.067099 0.605484 -0.221642
0.070670 0.603600 -0.221450
0.074197 0.602418 -0.221466
0.077688 0.602087 -0.221735
0.081149 0.602891 -0.222345
0.084618 0.603274 -0.222828
0.088087 0.603493 -0.223262
0.091561 0.600764 -0.222805
0.095008 0.599947 -0.222923
0.098450 0.600127 -0.223343
0.101895 0.600683 -0.223876
0.105371 0.603073 -0.224968
0.108796 0.602122 -0.225044
0.112223 0.601669 -0.225271
0.115649 0.601441 -0.225566
0.119068 0.601100 -0.225826
0.122525 0.601837 -0.226416
0.125917 0.600997 -0.226523
0.129285 0.599856 -0.226536
0.132725 0.600235 -0.227017
0.136171 0.600637 -0.227505
0.139649 0.601472 -0.228127
0.143100 0.601794 -0.228592
0.146463 0.600876 -0.228673
0.149900 0.600984 -0.229071
0.153358 0.601304 -0.229537
0.156858 0.602032 -0.230130
0.160301 0.602049 -0.230502
0.163733 0.601935 -0.230834
0.167267 0.602768 -0.231462
0.170751 0.603034 -0.231914
0.174135 0.602369 -0.232074
0.177725 0.603456 -0.232786
0.181160 0.603166 -0.233065
0.184544 0.602458 -0.233212
0.187915 0.601665 -0.233333
0.191346 0.601316 -0.233594
0.194905 0.601852 -0.234136
0.198259 0.600925 -0.234214
0.201776 0.601084 -0.234638
0.205439 0.602109 -0.235339
0.208710 0.600626 -0.235241
0.212062 0.599667 -0.235309
0.215728 0.600538 -0.235965
0.219310 0.600847 -0.236441
0.222843 0.600823 -0.236812
0.226310 0.600407 -0.237057
0.229749 0.599825 -0.237249
0.233573 0.601173 -0.238066
0.236890 0.599907 -0.238038
0.240159 0.598433 -0.237942
0.243819 0.598820 -0.238451
0.247694 0.600134 -0.239263
0.251906 0.602853 -0.240536
0.255002 0.600514 -0.240160
0.258310 0.599144 -0.240100
0.262494 0.601464 -0.241250
0.265594 0.599190 -0.240894
0.269212 0.599055 -0.241241
0.273374 0.601022 -0.242281
0.277239 0.601722 -0.242907
0.281753 0.604806 -0.244322
0.286254 0.607681 -0.245673
0.289453 0.605665 -0.245407
0.292863 0.604436 -0.245401
0.297404 0.607176 -0.246715
0.301570 0.608485 -0.247557
0.304566 0.605752 -0.247052
0.307877 0.604119 -0.246913
0.310675 0.600829 -0.246219
0.314180 0.599879 -0.246307
0.317906 0.599617 -0.246627
0.322087 0.600733 -0.247413
0.326009 0.600985 -0.247909
0.330124 0.601768 -0.248587
0.335552 0.606358 -0.250556
0.341502 0.612274 -0.252981
0.346992 0.616654 -0.254893
0.349745 0.613166 -0.254134
0.352454 0.609623 -0.253354
0.356429 0.609602 -0.253773
0.361636 0.612848 -0.255312
0.365823 0.613264 -0.255887
0.367810 0.607895 -0.254477
0.372454 0.609468 -0.255450
0.375893 0.607908 -0.255348
0.378341 0.603882 -0.254393
0.381061 0.600602 -0.253693
0.384889 0.600064 -0.253941
0.389604 0.601628 -0.254919
0.395348 0.605543 -0.256718
0.398290 0.602790 -0.256201
0.402215 0.602331 -0.256484
0.406684 0.603083 -0.257190
0.410453 0.602213 -0.257331
0.415507 0.604169 -0.258464
0.419960 0.604728 -0.259110
0.424113 0.604588 -0.259513
0.426529 0.600727 -0.258605
0.429452 0.597989 -0.258091
0.434265 0.599200 -0.258973
0.438363 0.598882 -0.259317
0.442770 0.599160 -0.259873
0.446771 0.598585 -0.260129
0.454328 0.605005 -0.262879
0.459091 0.605788 -0.263627
0.461168 0.601339 -0.262505
0.463657 0.597743 -0.261686
0.467006 0.595812 -0.261462
0.471183 0.595429 -0.261794
0.475286 0.594883 -0.262069
0.481856 0.598795 -0.263956
0.484866 0.596184 -0.263491
0.490851 0.598879 -0.264947
0.498382 0.604192 -0.267361
0.503027 0.604334 -0.267903
0.504598 0.599154 -0.266506
0.508951 0.598774 -0.266859
0.512673 0.597302 -0.266814
0.515822 0.594870 -0.266418
0.514935 0.585815 -0.263587
0.522155 0.590099 -0.265657
0.532643 0.599510 -0.269626
0.535764 0.596951 -0.269189
0.539332 0.595110 -0.269016
0.544280 0.595414 -0.269640
0.547298 0.592691 -0.269142
0.551725 0.592134 -0.269450
0.557901 0.594184 -0.270734
0.562408 0.593653 -0.271058
0.568321 0.595167 -0.272152
0.581862 0.607770 -0.277415
0.586207 0.606745 -0.277573
0.581123 0.592171 -0.272625
0.584837 0.590334 -0.272470
0.589385 0.589656 -0.272756
0.596097 0.591952 -0.274172
0.597312 0.586584 -0.272682
0.605358 0.590583 -0.274757
0.611877 0.592389 -0.276005
0.611917 0.585454 -0.273916
0.615226 0.582924 -0.273509
0.623519 0.586919 -0.275610
0.629158 0.587339 -0.276345
0.634352 0.587123 -0.276840
0.639611 0.586937 -0.277352
0.633441 0.572317 -0.272275
0.639128 0.572700 -0.273005
0.655533 0.586236 -0.278860
0.668184 0.594864 -0.282830
0.671934 0.592494 -0.282521
0.676679 0.591300 -0.282674
0.681054 0.589626 -0.282642
0.691329 0.594849 -0.285328
0.693848 0.590886 -0.284406
0.699991 0.591106 -0.285137
0.708692 0.594171 -0.287003
0.716176 0.595733 -0.288284
0.715392 0.587956 -0.285855
0.722300 0.588773 -0.286850
0.728891 0.589157 -0.287679
0.736186 0.590227 -0.288792
0.741372 0.588937 -0.288966
0.747558 0.588667 -0.289555
0.755535 0.590216 -0.290886
0.762070 0.590159 -0.291578
0.764801 0.586103 -0.290652
0.772954 0.587600 -0.291987
0.783536 0.591453 -0.294296
0.789454 0.590488 -0.294647
0.799499 0.593566 -0.296664
0.807284 0.594296 -0.297729
0.818401 0.598184 -0.300107
0.823313 0.595955 -0.299968
0.827644 0.593152 -0.299593
0.833769 0.592037 -0.299922
0.844790 0.595466 -0.302150
0.852969 0.596143 -0.303241
0.856770 0.592744 -0.302629
0.861951 0.590618 -0.302549
0.870546 0.591563 -0.303765
0.877859 0.591313 -0.304482
0.883664 0.589709 -0.304627
0.886923 0.585889 -0.303828
0.891547 0.583305 -0.303548
0.901329 0.585180 -0.305171
0.912831 0.588476 -0.307408
0.921702 0.589502 -0.308676
0.912914 0.575804 -0.303591
0.913701 0.570279 -0.302007
0.943285 0.588443 -0.310681
-0.047461 0.598393 -0.210860
-0.044125 0.597455 -0.210932
-0.041023 0.597945 -0.211417
-0.037838 0.598252 -0.211854
-0.034656 0.598822 -0.212371
-0.031588 0.600281 -0.213148
-0.029351 0.606854 -0.215409
-0.026957 0.613059 -0.217572
-0.024436 0.619029 -0.219676
-0.020746 0.618131 -0.219792
-0.016275 0.612212 -0.218447
-0.010994 0.600555 -0.215424
-0.007101 0.597922 -0.215027
-0.005530 0.612035 -0.219531
-0.002086 0.613197 -0.220252
0.001772 0.611295 -0.220076
0.005303 0.611942 -0.220647
0.008975 0.611498 -0.220899
0.013197 0.606159 -0.219704
0.016806 0.606021 -0.220042
0.020526 0.604777 -0.220053
0.023929 0.606646 -0.220986
0.027571 0.606100 -0.221203
0.031061 0.607190 -0.221906
0.034730 0.606194 -0.221988
0.038361 0.605482 -0.222153
0.041918 0.605628 -0.222573
0.045543 0.604693 -0.222669
0.049314 0.601168 -0.221984
0.052863 0.600778 -0.222240
0.056337 0.601624 -0.222868
0.059834 0.602021 -0.223360
0.063319 0.602616 -0.223912
0.066787 0.603654 -0.224599
0.070316 0.602953 -0.224758
0.073852 0.601542 -0.224700
0.077292 0.603424 -0.225643
0.080805 0.601963 -0.225568
0.084266 0.602924 -0.226231
0.087735 0.603442 -0.226760
0.091212 0.601671 -0.226585
0.094667 0.599635 -0.226328
0.098129 0.602486 -0.227573
0.101578 0.602044 -0.227805
0.105038 0.602758 -0.228394
0.108475 0.602206 -0.228591
0.111900 0.601509 -0.228743
0.115328 0.601210 -0.229018
0.118781 0.601730 -0.229547
0.122222 0.601879 -0.229961
0.125677 0.602324 -0.230468
0.129129 0.602645 -0.230937
0.132438 0.600306 -0.230573
0.135900 0.600904 -0.231128
0.139357 0.601329 -0.231630
0.142802 0.601507 -0.232055
0.146236 0.601501 -0.232422
0.149603 0.600617 -0.232513
0.153152 0.601990 -0.233316
0.156573 0.601748 -0.233610
0.159950 0.601032 -0.233754
0.163445 0.601554 -0.234291
0.166983 0.602409 -0.234935
0.170419 0.602201 -0.235242
0.173905 0.602428 -0.235688
0.177138 0.600454 -0.235430
0.180572 0.600238 -0.235735
0.184281 0.602140 -0.236720
0.187703 0.601708 -0.236957
0.191145 0.601408 -0.237237
0.194716 0.601995 -0.237803
0.198161 0.601647 -0.238069
0.201510 0.600646 -0.238124
0.205058 0.600929 -0.238595
0.208458 0.600243 -0.238753
0.211834 0.599412 -0.238863
0.215687 0.601350 -0.239876
0.218930 0.599696 -0.239719
0.222407 0.599374 -0.239997
0.225972 0.599494 -0.240421
0.229556 0.599656 -0.240859
0.233196 0.600055 -0.241377
0.237051 0.601455 -0.242225
0.240437 0.600480 -0.242293
0.244186 0.601212 -0.242925
0.248265 0.603385 -0.244036
0.252282 0.605132 -0.245008
0.255798 0.604565 -0.245216
0.259404 0.604360 -0.245545
0.263160 0.604749 -0.246073
0.267292 0.606629 -0.247099
0.271254 0.607697 -0.247858
0.274692 0.606617 -0.247900
0.278280 0.606115 -0.248136
0.282605 0.608380 -0.249302
0.286722 0.609742 -0.250168
0.290188 0.608640 -0.250207
0.293176 0.605829 -0.249668
0.297943 0.609318 -0.251259
0.302628 0.612352 -0.252700
0.306748 0.613329 -0.253448
0.308840 0.607497 -0.251885
0.310520 0.600484 -0.249914
0.314053 0.599614 -0.250032
0.317904 0.599733 -0.250487
0.321701 0.599639 -0.250872
0.325892 0.600713 -0.251658
0.330078 0.601695 -0.252415
0.335762 0.607022 -0.254670
0.341524 0.612368 -0.256939
0.344844 0.610534 -0.256738
0.347842 0.607814 -0.256229
0.350675 0.604679 -0.255575
0.354873 0.605322 -0.256229
0.361372 0.612088 -0.259015
0.364328 0.609244 -0.258464
0.366097 0.603348 -0.256846
0.366283 0.593522 -0.253849
0.373580 0.601944 -0.257230
0.376959 0.600311 -0.257097
0.379335 0.596217 -0.256099
0.384450 0.598849 -0.257464
0.389669 0.601620 -0.258884
0.394657 0.603737 -0.260078
0.406141 0.620886 -0.266595
0.404092 0.606445 -0.261938
0.407518 0.604763 -0.261795
0.411570 0.604489 -0.262153
0.415749 0.604468 -0.262602
0.420231 0.605071 -0.263276
0.425214 0.606701 -0.264320
0.427171 0.601823 -0.263036
0.429186 0.597153 -0.261822
0.434049 0.598464 -0.262755
0.438313 0.598480 -0.263225
0.442515 0.598335 -0.263639
0.446892 0.598508 -0.264170
0.453572 0.603182 -0.266334
0.458858 0.604991 -0.267467
0.460781 0.600243 -0.266219
0.463200 0.596515 -0.265339
0.467308 0.596014 -0.265634
0.471887 0.596362 -0.266241
0.477882 0.599268 -0.267788
0.478450 0.592211 -0.265685
0.482887 0.592226 -0.266174
0.490658 0.598121 -0.268833
0.497662 0.602501 -0.270943
0.503507 0.604733 -0.272268
0.504757 0.598985 -0.270641
0.505947 0.593224 -0.269003
0.512565 0.596663 -0.270783
0.516594 0.595687 -0.270925
0.517040 0.588807 -0.268863
0.520745 0.587329 -0.268816
0.534088 0.601342 -0.274576
0.540913 0.604643 -0.276337
0.542397 0.599427 -0.274900
0.546639 0.598573 -0.275103
0.546961 0.591653 -0.273017
0.552732 0.593141 -0.274107
0.558115 0.593971 -0.274952
0.562178 0.592765 -0.275029
0.566652 0.592147 -0.275331
0.580891 0.605779 -0.281075
0.587476 0.608003 -0.282481
0.581270 0.591807 -0.276835
0.585563 0.590782 -0.276993
0.591869 0.592554 -0.278230
0.595797 0.590937 -0.278168
0.602339 0.592897 -0.279489
0.607505 0.592894 -0.280057
0.613070 0.593376 -0.280819
0.617742 0.592605 -0.281098
0.621389 0.590439 -0.280837
0.627480 0.591461 -0.281823
0.632480 0.590993 -0.282232
0.637742 0.590814 -0.282759
0.640076 0.586865 -0.281809
0.640967 0.581122 -0.280150
0.643736 0.577770 -0.279430
0.650919 0.579865 -0.280867
0.668357 0.594373 -0.287236
0.671100 0.590779 -0.286441
0.676625 0.590521 -0.286975
0.681746 0.589726 -0.287300
0.687991 0.590200 -0.288138
0.693161 0.589351 -0.288453
0.698245 0.588352 -0.288712
0.710771 0.595780 -0.292374
0.716615 0.595461 -0.292927
0.717842 0.589924 -0.291371
0.722487 0.588204 -0.291363
0.729533 0.589075 -0.292414
0.736445 0.589713 -0.293378
0.742394 0.589234 -0.293895
0.748771 0.589147 -0.294579
0.756691 0.590613 -0.295909
0.763144 0.590451 -0.296580
0.768634 0.589226 -0.296818
0.774632 0.588472 -0.297257
0.784340 0.591412 -0.299238
0.791112 0.591286 -0.299955
0.798402 0.591605 -0.300867
0.805449 0.591611 -0.301655
0.817797 0.596701 -0.304587
0.823558 0.595288 -0.304799
0.827549 0.592154 -0.304289
0.833391 0.590767 -0.304518
0.844645 0.594404 -0.306883
0.852619 0.594883 -0.307919
0.856773 0.591807 -0.307444
0.862893 0.590527 -0.307735
0.869416 0.589594 -0.308177
0.878414 0.590844 -0.309561
0.884453 0.589436 -0.309803
0.886657 0.584687 -0.308597
0.892390 0.583059 -0.308736
0.907881 0.589802 -0.312518
0.914548 0.588936 -0.312992
0.917952 0.585349 -0.312271
0.911426 0.573575 -0.307943
0.919261 0.573874 -0.308899
0.952507 0.594957 -0.319032
-0.047164 0.594301 -0.213112
-0.044392 0.596160 -0.213996
-0.041515 0.597805 -0.214824
-0.038282 0.597866 -0.215194
-0.035073 0.598293 -0.215674
-0.031809 0.598650 -0.216137
-0.029982 0.607542 -0.219113
-0.027491 0.613180 -0.221142
-0.024716 0.617598 -0.222819
-0.020037 0.610441 -0.221081
-0.016047 0.607464 -0.220576
-0.011890 0.603301 -0.219717
-0.008512 0.604386 -0.220414
-0.005127 0.605606 -0.221154
-0.001603 0.605961 -0.221638
0.002289 0.603548 -0.221296
0.005841 0.603752 -0.221735
0.009469 0.603370 -0.221999
0.013493 0.599482 -0.221209
0.016969 0.600312 -0.221836
0.020293 0.602678 -0.222926
0.023850 0.602906 -0.223372
0.027422 0.602971 -0.223769
0.030944 0.603558 -0.224325
0.034452 0.604343 -0.224941
0.038397 0.599576 -0.223869
0.041682 0.603089 -0.225313
0.045216 0.603378 -0.225778
0.048846 0.602110 -0.225766
0.052415 0.601542 -0.225967
0.055921 0.601926 -0.226459
0.059481 0.601152 -0.226594
0.062962 0.601852 -0.227183
0.066441 0.602627 -0.227795
0.069949 0.602541 -0.228141
0.073486 0.601202 -0.228100
0.076984 0.600702 -0.228316
0.080449 0.601413 -0.228908
0.083906 0.602830 -0.229720
0.087381 0.603164 -0.230195
0.090856 0.602970 -0.230506
0.094325 0.602702 -0.230794
0.097790 0.603006 -0.231260
0.101249 0.602825 -0.231575
0.104700 0.602445 -0.231827
0.108148 0.602270 -0.232143
0.111587 0.601895 -0.232395
0.115025 0.601685 -0.232700
0.118455 0.601386 -0.232976
0.121912 0.601862 -0.233498
0.125384 0.602577 -0.234096
0.128811 0.602274 -0.234372
0.132260 0.602425 -0.234792
0.135674 0.601977 -0.235021
0.139017 0.600467 -0.234912
0.142479 0.600888 -0.235418
0.145889 0.600540 -0.235679
0.149300 0.600218 -0.235949
0.152810 0.601098 -0.236605
0.156214 0.600661 -0.236839
0.159478 0.598737 -0.236593
0.163103 0.600642 -0.237583
0.166521 0.600334 -0.237859
0.170027 0.600836 -0.238398
0.173441 0.600437 -0.238646
0.176961 0.600940 -0.239187
0.180328 0.600118 -0.239299
0.183836 0.600417 -0.239775
0.187583 0.602467 -0.240825
0.190978 0.601764 -0.240977
0.194498 0.601946 -0.241419
0.198073 0.602450 -0.241968
0.201353 0.600936 -0.241855
0.204898 0.601167 -0.242316
0.208380 0.600947 -0.242629
0.212399 0.603906 -0.243994
0.216020 0.604342 -0.244527
0.220348 0.608702 -0.246364
0.224733 0.613092 -0.248216
0.228468 0.613723 -0.248823
0.231979 0.613113 -0.249019
0.234926 0.609632 -0.248257
0.237801 0.605922 -0.247415
0.241711 0.607337 -0.248287
0.245865 0.609790 -0.249510
0.249186 0.608258 -0.249398
0.252780 0.607973 -0.249705
0.255989 0.605967 -0.249432
0.259617 0.605807 -0.249782
0.263040 0.604747 -0.249829
0.267584 0.608296 -0.251438
0.271181 0.607841 -0.251693
0.274753 0.607267 -0.251908
0.277446 0.603272 -0.250958
0.281724 0.605397 -0.252093
0.286419 0.608945 -0.253719
0.291071 0.612156 -0.255235
0.295268 0.613579 -0.256142
0.298593 0.611847 -0.255969
0.303096 0.614196 -0.257200
0.307185 0.615014 -0.257907
0.308485 0.606504 -0.255395
0.310488 0.600543 -0.253757
0.314325 0.600625 -0.254206
0.317865 0.599731 -0.254319
0.321702 0.599744 -0.254747
0.325643 0.600036 -0.255274
0.329323 0.599497 -0.255513
0.336757 0.610006 -0.259614
0.339853 0.607551 -0.259191
0.342437 0.603673 -0.258267
0.345627 0.601583 -0.257968
0.348940 0.599857 -0.257796
0.353248 0.600859 -0.258585
0.356580 0.599169 -0.258427
0.362572 0.604532 -0.260764
0.364783 0.599844 -0.259546
0.368202 0.598355 -0.259460
0.373019 0.600414 -0.260636
0.377817 0.602329 -0.261765
0.380669 0.599364 -0.261156
0.383779 0.597072 -0.260785
0.387654 0.596637 -0.261079
0.393297 0.600351 -0.262863
0.399517 0.605269 -0.265086
0.404497 0.607174 -0.266232
0.408874 0.607623 -0.266857
0.411626 0.604390 -0.266154
0.413953 0.600266 -0.265126
0.422274 0.609275 -0.268859
0.425970 0.608067 -0.268892
0.426874 0.600922 -0.266764
0.430126 0.598844 -0.266477
0.434007 0.598087 -0.266672
0.437911 0.597358 -0.266878
0.442024 0.597032 -0.267233
0.446549 0.597501 -0.267882
0.453638 0.602978 -0.270377
0.459305 0.605517 -0.271798
0.464688 0.607412 -0.272987
