ply
format ascii 1.0
comment ---
element vertex 1682
property float x
property float y
property float z
element face 0
property list uchar uint vertex_indices
end_header
0.209185 0.602105 -0.403334
0.212820 0.600977 -0.403073
0.216630 0.600509 -0.403190
0.220454 0.600068 -0.403329
0.224737 0.601250 -0.404397
0.228595 0.600840 -0.404569
0.232488 0.600520 -0.404798
0.236173 0.599461 -0.404613
0.240209 0.599564 -0.405098
0.244607 0.600797 -0.406234
0.248703 0.600970 -0.406775
0.252618 0.600516 -0.406964
0.256272 0.599224 -0.406682
0.260256 0.598933 -0.406979
0.264647 0.599814 -0.407957
0.268851 0.600068 -0.408583
0.272712 0.599273 -0.408615
0.276571 0.598452 -0.408639
0.280499 0.597797 -0.408765
0.285196 0.599223 -0.410100
0.289016 0.598189 -0.410024
0.293277 0.598306 -0.410620
0.298685 0.601368 -0.412931
0.301949 0.598766 -0.411967
0.305970 0.598116 -0.412141
0.310202 0.597958 -0.412609
0.314598 0.598163 -0.413295
0.319147 0.598681 -0.414171
0.323112 0.597745 -0.414205
0.327777 0.598432 -0.415194
0.332292 0.598709 -0.415949
0.336169 0.597477 -0.415825
0.340397 0.597024 -0.416162
0.345081 0.597556 -0.417082
0.350017 0.598582 -0.418298
0.354376 0.598300 -0.418747
0.358604 0.597709 -0.419014
0.363085 0.597631 -0.419586
0.367345 0.597068 -0.419870
0.372844 0.599022 -0.421648
0.376679 0.597546 -0.421388
0.380630 0.596317 -0.421268
0.385477 0.596860 -0.422199
0.390349 0.597423 -0.423138
0.394366 0.596326 -0.423078
0.398591 0.595642 -0.423254
0.403199 0.595689 -0.423858
0.408391 0.596815 -0.425099
0.412287 0.595558 -0.424894
0.417779 0.597217 -0.426430
0.421532 0.595758 -0.426070
0.427203 0.597730 -0.427763
0.431634 0.597527 -0.428123
0.435221 0.595906 -0.427603
0.439742 0.595946 -0.428065
0.444574 0.596550 -0.428844
0.447730 0.594394 -0.427923
0.451849 0.593919 -0.427995
0.457442 0.595911 -0.429538
0.461361 0.595218 -0.429419
0.465320 0.594661 -0.429353
0.469063 0.593838 -0.429094
0.472917 0.593268 -0.428957
0.476654 0.592600 -0.428728
0.480598 0.592331 -0.428711
0.484311 0.591787 -0.428493
0.487803 0.590993 -0.428090
0.490772 0.589506 -0.427232
0.494150 0.588727 -0.426773
0.500455 0.592355 -0.428974
0.503507 0.591243 -0.428249
0.506399 0.589995 -0.427411
0.510142 0.590069 -0.427349
-0.346497 0.592982 -0.388225
-0.343601 0.593494 -0.388967
-0.341297 0.595230 -0.390364
-0.338829 0.596780 -0.391637
-0.335063 0.595968 -0.391579
-0.332808 0.598164 -0.393164
-0.327988 0.595485 -0.392021
-0.324381 0.595245 -0.392205
-0.321489 0.596523 -0.393206
-0.318443 0.597614 -0.394079
-0.316357 0.600774 -0.396079
-0.313459 0.602426 -0.397215
-0.309348 0.601681 -0.396992
-0.304319 0.599074 -0.395705
-0.301229 0.600619 -0.396706
-0.297609 0.601141 -0.397113
-0.294321 0.602478 -0.397952
-0.290597 0.602958 -0.398289
-0.286676 0.603079 -0.398405
-0.282789 0.603345 -0.398580
-0.278678 0.603163 -0.398485
-0.274601 0.603110 -0.398442
-0.270651 0.603403 -0.398575
-0.266795 0.603973 -0.398845
-0.263146 0.605099 -0.399410
-0.259292 0.605788 -0.399717
-0.255086 0.605645 -0.399546
-0.250776 0.605257 -0.399227
-0.246945 0.606101 -0.399585
-0.242367 0.605038 -0.398871
-0.238408 0.605584 -0.399045
-0.234392 0.605995 -0.399137
-0.230225 0.606005 -0.399000
-0.225665 0.604915 -0.398247
-0.221605 0.605185 -0.398247
-0.217263 0.604640 -0.397791
-0.213490 0.605721 -0.398236
-0.209370 0.605781 -0.398114
-0.204507 0.603571 -0.396732
-0.200404 0.603589 -0.396587
-0.196551 0.604358 -0.396861
-0.192782 0.605392 -0.397283
-0.189173 0.606943 -0.397994
-0.184099 0.603663 -0.396030
-0.180270 0.604419 -0.396307
-0.175950 0.603471 -0.395644
-0.172035 0.603862 -0.395727
-0.167749 0.602894 -0.395063
-0.163970 0.603694 -0.395381
-0.160356 0.605098 -0.396039
-0.156334 0.604956 -0.395847
-0.152204 0.604340 -0.395398
-0.148251 0.604350 -0.395301
-0.144608 0.605575 -0.395881
-0.140742 0.605875 -0.395956
-0.136722 0.605482 -0.395655
-0.132699 0.605006 -0.395313
-0.128835 0.605168 -0.395330
-0.124744 0.604243 -0.394754
-0.120800 0.603917 -0.394515
-0.116851 0.603494 -0.394227
-0.113155 0.604258 -0.394601
-0.109746 0.606482 -0.395787
-0.105866 0.606306 -0.395654
-0.102215 0.607307 -0.396177
-0.098308 0.606894 -0.395925
-0.094316 0.605919 -0.395371
-0.090017 0.603018 -0.393761
-0.086212 0.602896 -0.393688
-0.082526 0.603475 -0.394008
-0.079077 0.605593 -0.395182
-0.075314 0.605697 -0.395251
-0.071577 0.605940 -0.395403
-0.067766 0.605612 -0.395245
-0.063952 0.605192 -0.395043
-0.060268 0.605721 -0.395369
-0.056659 0.606877 -0.396046
-0.052825 0.606152 -0.395691
-0.048818 0.603737 -0.394409
-0.045339 0.606068 -0.395750
-0.041608 0.606075 -0.395815
-0.037901 0.606304 -0.396006
-0.034117 0.605643 -0.395712
-0.030396 0.605613 -0.395771
-0.026630 0.604978 -0.395500
-0.022897 0.604659 -0.395409
-0.019217 0.605015 -0.395695
-0.015590 0.606246 -0.396469
-0.011880 0.606226 -0.396557
-0.008153 0.605837 -0.396445
-0.004422 0.605255 -0.396231
-0.000770 0.606351 -0.396949
0.002935 0.606293 -0.397034
0.006714 0.603873 -0.395815
0.010411 0.603534 -0.395752
0.014085 0.604132 -0.396212
0.017775 0.604043 -0.396297
0.021465 0.603826 -0.396313
0.025145 0.605101 -0.397162
0.028838 0.605301 -0.397419
0.032527 0.603952 -0.396820
0.036228 0.605175 -0.397653
0.039903 0.603807 -0.397052
0.043622 0.605210 -0.397993
0.047298 0.604355 -0.397684
0.051034 0.605675 -0.398588
0.054737 0.605661 -0.398755
0.058382 0.604201 -0.398121
0.062085 0.604291 -0.398353
0.065776 0.604083 -0.398424
0.069440 0.603386 -0.398225
0.073159 0.603661 -0.398573
0.076906 0.604279 -0.399115
0.080619 0.604282 -0.399320
0.084303 0.603886 -0.399306
0.087994 0.603586 -0.399349
0.091546 0.601716 -0.398518
0.095366 0.602871 -0.399382
0.099099 0.602985 -0.399669
0.102883 0.603537 -0.400205
0.106649 0.603844 -0.400609
0.110301 0.603088 -0.400422
0.114065 0.603286 -0.400773
0.117795 0.603167 -0.400951
0.121523 0.603005 -0.401110
0.125318 0.603306 -0.401533
0.128966 0.602504 -0.401341
0.132753 0.602677 -0.401702
0.136519 0.602656 -0.401958
0.140121 0.601554 -0.401611
0.143836 0.601186 -0.401680
0.147695 0.601657 -0.402229
0.151658 0.602653 -0.403079
0.155384 0.602233 -0.403136
0.159136 0.601935 -0.403266
0.162934 0.601859 -0.403527
0.166704 0.601601 -0.403690
0.170405 0.600974 -0.403650
0.174366 0.601599 -0.404325
0.178339 0.602208 -0.404997
0.181948 0.601069 -0.404683
0.185704 0.600604 -0.404756
0.189552 0.600522 -0.405054
0.193532 0.600968 -0.405659
0.197469 0.601170 -0.406131
0.201610 0.602152 -0.407055
0.205660 0.602684 -0.407730
0.209342 0.601711 -0.407552
0.212946 0.600436 -0.407206
0.216608 0.599383 -0.406993
0.221185 0.601690 -0.408713
0.225013 0.601164 -0.408816
0.228996 0.601156 -0.409225
0.232691 0.600109 -0.409042
0.236391 0.599074 -0.408873
0.240355 0.598904 -0.409209
0.244638 0.599737 -0.410131
0.248761 0.599977 -0.410719
0.252953 0.600377 -0.411409
0.256961 0.600144 -0.411740
0.260619 0.598810 -0.411441
0.264758 0.598906 -0.411978
0.269000 0.599252 -0.412668
0.273094 0.599109 -0.413083
0.276857 0.597985 -0.412934
0.281083 0.598136 -0.413535
0.285328 0.598284 -0.414143
0.289046 0.596958 -0.413898
0.295347 0.602468 -0.417661
0.298501 0.599547 -0.416497
0.302853 0.599744 -0.417168
0.306880 0.599064 -0.417330
0.310601 0.597593 -0.417033
0.314473 0.596487 -0.416956
0.318678 0.596174 -0.417352
0.323584 0.597488 -0.418716
0.328165 0.597958 -0.419590
0.332172 0.597044 -0.419648
0.336414 0.596646 -0.420016
0.340628 0.596154 -0.420334
0.344944 0.595864 -0.420774
0.349784 0.596684 -0.421879
0.354347 0.596851 -0.422597
0.358881 0.596917 -0.423257
0.363192 0.596483 -0.423619
0.367647 0.596331 -0.424148
0.372696 0.597364 -0.425388
0.376883 0.596616 -0.425556
0.381119 0.595964 -0.425775
0.386225 0.597018 -0.427019
0.390312 0.596061 -0.427042
0.394185 0.594713 -0.426818
0.398621 0.594456 -0.427244
0.403686 0.595378 -0.428374
0.408708 0.596205 -0.429435
0.412756 0.595248 -0.429398
0.417293 0.595209 -0.429902
0.421345 0.594327 -0.429874
0.425214 0.593169 -0.429657
0.431157 0.595669 -0.431655
0.435722 0.595778 -0.432169
0.439833 0.595151 -0.432210
0.445287 0.596840 -0.433644
0.448195 0.594303 -0.432460
0.452953 0.594916 -0.433181
0.457810 0.595732 -0.433997
0.461139 0.594124 -0.433295
0.464042 0.591929 -0.432199
0.468612 0.592479 -0.432760
0.473060 0.592894 -0.433207
0.477160 0.592829 -0.433326
0.480402 0.591517 -0.432645
0.485078 0.592489 -0.433338
0.488043 0.590931 -0.432440
0.491185 0.589740 -0.431735
0.493999 0.588159 -0.430757
0.503574 0.596648 -0.435958
0.503506 0.590974 -0.432394
0.506192 0.589463 -0.431366
0.508874 0.588047 -0.430367
-0.344384 0.594482 -0.393486
-0.341667 0.595405 -0.394459
-0.337803 0.594264 -0.394256
-0.335389 0.595976 -0.395623
-0.331748 0.595444 -0.395712
-0.329052 0.596846 -0.396859
-0.325135 0.595963 -0.396701
-0.320438 0.593604 -0.395687
-0.318996 0.597845 -0.398355
-0.316030 0.599167 -0.399359
-0.312481 0.599415 -0.399733
-0.309841 0.601646 -0.401198
-0.305445 0.600328 -0.400640
-0.301113 0.599198 -0.400162
-0.297569 0.599820 -0.400646
-0.293812 0.600074 -0.400898
-0.290641 0.601699 -0.401901
-0.286971 0.602326 -0.402317
-0.283202 0.602808 -0.402630
-0.279252 0.602952 -0.402732
-0.275089 0.602664 -0.402570
-0.270923 0.602412 -0.402410
-0.267069 0.602945 -0.402674
-0.262819 0.602576 -0.402414
-0.258747 0.602667 -0.402398
-0.254942 0.603458 -0.402762
-0.252115 0.606761 -0.404529
-0.247896 0.606621 -0.404344
-0.242677 0.603890 -0.402690
-0.238520 0.603889 -0.402565
-0.234571 0.604450 -0.402748
-0.230567 0.604876 -0.402849
-0.226399 0.604859 -0.402695
-0.222960 0.606883 -0.403685
-0.218736 0.606714 -0.403438
-0.214235 0.605715 -0.402722
-0.209865 0.605050 -0.402193
-0.205436 0.604159 -0.401536
-0.201257 0.603973 -0.401276
-0.197031 0.603606 -0.400915
-0.193064 0.604014 -0.400991
-0.189204 0.604749 -0.401252
-0.185100 0.604668 -0.401058
-0.180555 0.603060 -0.400012
-0.176689 0.603677 -0.400216
-0.172745 0.604005 -0.400262
-0.169148 0.605540 -0.400988
-0.164509 0.603294 -0.399603
-0.160562 0.603485 -0.399586
-0.156924 0.604808 -0.400208
-0.153027 0.605136 -0.400278
-0.149151 0.605511 -0.400381
-0.145148 0.605339 -0.400183
-0.141142 0.605100 -0.399954
-0.137201 0.605071 -0.399849
-0.133431 0.605740 -0.400139
-0.129580 0.606025 -0.400221
-0.125649 0.605910 -0.400085
-0.121325 0.603895 -0.398896
-0.117357 0.603435 -0.398581
-0.113717 0.604523 -0.399136
-0.109966 0.605058 -0.399389
-0.106079 0.604865 -0.399241
-0.102480 0.606157 -0.399928
-0.098725 0.606615 -0.400155
-0.094697 0.605490 -0.399507
-0.090616 0.603934 -0.398624
-0.086751 0.603542 -0.398396
-0.083317 0.605790 -0.399646
-0.079576 0.606145 -0.399847
-0.075685 0.605467 -0.399477
-0.071752 0.604398 -0.398895
-0.067920 0.603936 -0.398657
-0.064146 0.603831 -0.398624
-0.060578 0.605289 -0.399468
-0.056955 0.606387 -0.400118
-0.053240 0.606748 -0.400361
-0.049462 0.606521 -0.400282
-0.045648 0.605895 -0.399985
-0.041972 0.606534 -0.400400
-0.038144 0.605613 -0.399949
-0.034395 0.605415 -0.399906
-0.030613 0.604750 -0.399608
-0.026906 0.604915 -0.399778
-0.023156 0.604485 -0.399621
-0.019499 0.605286 -0.400157
-0.015840 0.606167 -0.400741
-0.012128 0.606263 -0.400892
-0.008444 0.606848 -0.401321
-0.004659 0.605416 -0.400627
-0.000975 0.605990 -0.401060
0.002744 0.605732 -0.401031
0.006512 0.603817 -0.400080
0.010207 0.603877 -0.400237
0.013907 0.603700 -0.400267
0.017609 0.603247 -0.400146
0.021295 0.603726 -0.400552
0.024981 0.605201 -0.401520
0.028683 0.606500 -0.402395
0.032387 0.605362 -0.401908
0.036082 0.604481 -0.401568
0.039785 0.604664 -0.401829
0.043486 0.604599 -0.401956
0.047200 0.605006 -0.402351
0.050904 0.604930 -0.402480
0.054609 0.604857 -0.402614
0.058293 0.604266 -0.402461
0.062007 0.604399 -0.402720
0.065726 0.604558 -0.402998
0.069349 0.602968 -0.402294
0.073076 0.603282 -0.402667
0.076830 0.603916 -0.403225
0.080513 0.603421 -0.403150
0.084257 0.603752 -0.403546
0.087981 0.603765 -0.403766
0.091654 0.603158 -0.403641
0.095281 0.602081 -0.403253
0.098974 0.601755 -0.403295
0.102716 0.601892 -0.403603
0.106789 0.605004 -0.405600
0.110392 0.603693 -0.405097
0.114129 0.603581 -0.405277
0.117855 0.603343 -0.405392
0.121513 0.602575 -0.405209
0.125275 0.602590 -0.405475
0.129085 0.602899 -0.405914
0.132775 0.602332 -0.405860
0.136455 0.601704 -0.405774
0.140166 0.601276 -0.405808
0.143910 0.601038 -0.405955
0.148152 0.603732 -0.407780
0.151782 0.602700 -0.407484
0.155621 0.602858 -0.407873
0.159129 0.601169 -0.407212
0.163175 0.602370 -0.408209
0.166828 0.601456 -0.408001
0.170524 0.600758 -0.407922
0.174483 0.601332 -0.408578
0.178469 0.601967 -0.409275
0.182314 0.601875 -0.409561
0.185737 0.599850 -0.408742
0.189724 0.600352 -0.409382
0.193756 0.600982 -0.410102
0.197486 0.600273 -0.410057
0.201676 0.601435 -0.411099
0.205428 0.600749 -0.411080
0.209154 0.599947 -0.411001
0.213029 0.599708 -0.411254
0.217286 0.600860 -0.412319
0.221236 0.600792 -0.412685
0.225220 0.600806 -0.413106
0.229123 0.600486 -0.413341
0.232932 0.599806 -0.413374
0.236438 0.598084 -0.412807
0.240541 0.598357 -0.413407
0.244624 0.598508 -0.413946
0.248863 0.599102 -0.414750
0.253141 0.599752 -0.415597
0.257152 0.599502 -0.415926
0.261304 0.599643 -0.416491
0.265928 0.601128 -0.417854
0.269642 0.599856 -0.417607
0.273276 0.598349 -0.417228
0.277314 0.597981 -0.417526
0.281556 0.598141 -0.418143
0.285416 0.597205 -0.418122
0.290810 0.600369 -0.420531
0.294716 0.599449 -0.420535
0.299686 0.601278 -0.422176
0.303494 0.600023 -0.421995
0.307426 0.599069 -0.422000
0.311281 0.597907 -0.421885
0.314920 0.596201 -0.421453
0.319910 0.597757 -0.422971
0.323412 0.595688 -0.422330
0.327532 0.595081 -0.422568
0.333221 0.598065 -0.424963
0.337114 0.596840 -0.424840
0.341491 0.596693 -0.425367
0.345547 0.595802 -0.425450
0.350029 0.595826 -0.426086
0.354511 0.595816 -0.426703
0.359110 0.596021 -0.427451
0.364610 0.598075 -0.429319
0.368501 0.596730 -0.429128
0.372719 0.596060 -0.429341
0.376947 0.595409 -0.429562
0.381786 0.595968 -0.430515
0.386270 0.595803 -0.431020
0.390307 0.594773 -0.430989
0.395227 0.595445 -0.431988
0.399485 0.594853 -0.432204
0.404189 0.595110 -0.432926
0.408308 0.594292 -0.432975
0.412770 0.594128 -0.433410
0.417062 0.593681 -0.433653
0.421171 0.592942 -0.433696
0.425396 0.592449 -0.433870
0.431462 0.595194 -0.436022
0.435598 0.594601 -0.436090
0.440391 0.595176 -0.436855
0.443692 0.593278 -0.436063
0.449162 0.595074 -0.437531
0.454168 0.596121 -0.438509
0.458554 0.596193 -0.438852
0.460777 0.592837 -0.437034
0.463452 0.590330 -0.435711
0.468503 0.591693 -0.436762
0.472903 0.592078 -0.437174
0.476549 0.591355 -0.436863
0.481134 0.592163 -0.437473
0.483874 0.590214 -0.436333
0.488699 0.591526 -0.437192
0.492823 0.591839 -0.437397
0.495959 0.590756 -0.436699
0.497696 0.587706 -0.434744
0.504327 0.591936 -0.437294
0.506491 0.589694 -0.435782
-0.344511 0.594277 -0.397338
-0.341138 0.593924 -0.397615
-0.338169 0.594425 -0.398351
-0.335295 0.595215 -0.399226
-0.333215 0.597651 -0.401011
-0.329748 0.597521 -0.401320
-0.323958 0.592908 -0.399061
-0.322186 0.596297 -0.401314
-0.319938 0.598892 -0.403093
-0.316146 0.598500 -0.403150
-0.312349 0.598182 -0.403223
-0.309188 0.599270 -0.404070
-0.306225 0.600883 -0.405191
-0.302053 0.600058 -0.404898
-0.298016 0.599584 -0.404780
-0.294123 0.599495 -0.404857
-0.290332 0.599702 -0.405077
-0.286917 0.600826 -0.405798
-0.283443 0.601915 -0.406476
-0.279788 0.602684 -0.406950
-0.275660 0.602437 -0.406824
-0.271389 0.601902 -0.406514
-0.266900 0.600885 -0.405911
-0.262843 0.600925 -0.405893
-0.258285 0.599782 -0.405185
-0.254849 0.601421 -0.406047
-0.251213 0.602633 -0.406653
-0.247233 0.603025 -0.406779
-0.243249 0.603438 -0.406905
-0.238836 0.602744 -0.406392
-0.234954 0.603458 -0.406672
-0.230786 0.603419 -0.406515
-0.226819 0.603934 -0.406668
-0.222847 0.604445 -0.406813
-0.218794 0.604730 -0.406825
-0.214206 0.603457 -0.405949
-0.210423 0.604501 -0.406387
-0.206302 0.604542 -0.406254
-0.202381 0.605171 -0.406455
-0.198556 0.606093 -0.406821
-0.193473 0.603031 -0.404929
-0.189458 0.603267 -0.404910
-0.185615 0.604046 -0.405201
-0.181399 0.603565 -0.404780
-0.177433 0.603878 -0.404813
-0.173736 0.605102 -0.405365
-0.169572 0.604669 -0.404983
-0.165165 0.603292 -0.404071
-0.161256 0.603658 -0.404151
-0.157396 0.604180 -0.404324
-0.153428 0.604263 -0.404253
-0.149504 0.604471 -0.404259
-0.145706 0.605149 -0.404537
-0.141583 0.604464 -0.404049
-0.137634 0.604435 -0.403939
-0.133627 0.604101 -0.403662
-0.129864 0.604790 -0.403969
-0.126064 0.605291 -0.404176
-0.122195 0.605444 -0.404193
-0.117922 0.603618 -0.403100
-0.114145 0.604087 -0.403307
-0.110240 0.603882 -0.403141
-0.106629 0.605153 -0.403813
-0.102531 0.603830 -0.403029
-0.098795 0.604381 -0.403308
-0.095162 0.605501 -0.403914
-0.091232 0.604897 -0.403554
-0.087395 0.604773 -0.403471
-0.083645 0.605139 -0.403670
-0.079875 0.605349 -0.403787
-0.075948 0.604473 -0.403298
-0.072157 0.604433 -0.403285
-0.068103 0.602438 -0.402178
-0.064390 0.602804 -0.402406
-0.060824 0.604316 -0.403286
-0.057219 0.605585 -0.404035
-0.053488 0.605857 -0.404227
-0.049674 0.605353 -0.403988
-0.045970 0.605805 -0.404293
-0.042089 0.604492 -0.403607
-0.038383 0.604826 -0.403856
-0.034700 0.605425 -0.404260
-0.030934 0.605060 -0.404125
-0.027187 0.604855 -0.404085
-0.023406 0.604129 -0.403757
-0.019681 0.604050 -0.403798
-0.016000 0.604617 -0.404209
-0.012340 0.605596 -0.404858
-0.008647 0.606112 -0.405251
-0.004923 0.606074 -0.405334
-0.001164 0.605156 -0.404925
0.002576 0.604461 -0.404647
0.006313 0.603603 -0.404281
0.010031 0.603079 -0.404109
0.013714 0.603831 -0.404662
0.017432 0.602993 -0.404321
0.021128 0.603192 -0.404570
0.024818 0.604806 -0.405627
0.028526 0.605724 -0.406293
0.032238 0.605429 -0.406277
0.035932 0.603462 -0.405316
0.039625 0.602774 -0.405085
0.043341 0.603543 -0.405685
0.047078 0.604785 -0.406558
0.050776 0.604280 -0.406444
0.054435 0.602795 -0.405776
0.058149 0.602987 -0.406066
0.061899 0.603869 -0.406753
0.065649 0.604541 -0.407324
0.069351 0.604207 -0.407329
0.073002 0.603049 -0.406867
0.076702 0.602772 -0.406911
0.080486 0.603660 -0.407624
0.084170 0.603091 -0.407511
0.087971 0.603970 -0.408229
0.091650 0.603320 -0.408078
0.095206 0.601396 -0.407202
0.098897 0.601002 -0.407206
0.102836 0.602986 -0.408574
0.106687 0.603940 -0.409358
0.110421 0.603751 -0.409494
0.114063 0.602770 -0.409179
0.117715 0.601914 -0.408940
0.121528 0.602323 -0.409432
0.125311 0.602438 -0.409760
0.129048 0.602178 -0.409878
0.132637 0.600890 -0.409409
0.136289 0.600074 -0.409216
0.140038 0.599884 -0.409388
0.143988 0.600903 -0.410263
0.148033 0.602374 -0.411404
0.151853 0.602427 -0.411734
0.155353 0.600648 -0.411010
0.159298 0.601341 -0.411720
0.163253 0.602008 -0.412421
0.167005 0.601559 -0.412482
0.170701 0.600816 -0.412379
0.174844 0.602229 -0.413531
0.178786 0.602582 -0.414076
0.182155 0.600241 -0.413062
0.185759 0.599027 -0.412707
0.189773 0.599622 -0.413411
0.193891 0.600591 -0.414339
0.198110 0.601893 -0.415469
0.201552 0.599921 -0.414697
0.205273 0.599106 -0.414606
0.209307 0.599498 -0.415227
0.213309 0.599711 -0.415749
0.217017 0.598769 -0.415604
0.221229 0.599665 -0.416542
0.225191 0.599579 -0.416913
0.229083 0.599207 -0.417122
0.232904 0.598555 -0.417174
0.237703 0.601187 -0.419167
0.240754 0.597878 -0.417670
0.244971 0.598433 -0.418456
0.249036 0.598436 -0.418924
0.253092 0.598363 -0.419356
0.257485 0.599277 -0.420381
0.262141 0.600908 -0.421839
0.266092 0.600334 -0.422001
0.269648 0.598583 -0.421469
0.273437 0.597506 -0.421345
0.277851 0.598179 -0.422269
0.282004 0.598056 -0.422728
0.286617 0.599143 -0.423917
0.290812 0.599024 -0.424395
0.295291 0.599607 -0.425301
0.299667 0.599855 -0.426015
0.304163 0.600354 -0.426888
0.307891 0.598854 -0.426566
0.311564 0.597218 -0.426168
0.315786 0.596923 -0.426582
0.320299 0.597293 -0.427403
0.324445 0.596736 -0.427670
0.329197 0.597566 -0.428782
0.333597 0.597521 -0.429369
0.337751 0.596876 -0.429597
0.342254 0.596993 -0.430289
0.346594 0.596708 -0.430741
0.350815 0.596139 -0.431020
0.355110 0.595710 -0.431385
0.360238 0.597024 -0.432816
0.364423 0.596308 -0.433005
0.368746 0.595870 -0.433362
0.372829 0.594938 -0.433409
0.377720 0.595627 -0.434450
0.382034 0.595144 -0.434762
0.386161 0.594299 -0.434844
0.391530 0.595863 -0.436404
0.395513 0.594745 -0.436296
0.400210 0.594999 -0.437026
0.404268 0.594065 -0.437005
0.408415 0.593329 -0.437090
0.412703 0.592882 -0.437338
0.417499 0.593374 -0.438152
0.421866 0.593120 -0.438481
0.426885 0.594044 -0.439523
0.431633 0.594510 -0.440258
0.435359 0.593253 -0.439891
0.438783 0.591553 -0.439221
0.444439 0.593680 -0.440918
0.448864 0.593769 -0.441312
0.454260 0.595504 -0.442710
0.458420 0.595253 -0.442832
0.461090 0.592667 -0.441456
0.463990 0.590563 -0.440350
0.467806 0.590010 -0.440186
0.472952 0.591617 -0.441348
0.477132 0.591767 -0.441561
0.480336 0.590486 -0.440841
0.483795 0.589688 -0.440392
0.488598 0.591008 -0.441244
0.493760 0.592918 -0.442434
0.495728 0.590129 -0.440636
0.498832 0.589133 -0.439934
0.501846 0.588098 -0.439178
0.506876 0.590080 -0.440288
-0.341840 0.594792 -0.402085
-0.339111 0.595714 -0.403084
-0.336292 0.596577 -0.404027
-0.332810 0.596272 -0.404279
-0.328301 0.594054 -0.403411
-0.324069 0.592434 -0.402859
-0.322207 0.595587 -0.405016
-0.320395 0.599001 -0.407300
-0.316556 0.598468 -0.407294
-0.312298 0.597156 -0.406814
-0.309044 0.597990 -0.407541
-0.305759 0.598865 -0.408266
-0.302865 0.600676 -0.409505
-0.298766 0.600032 -0.409305
-0.294605 0.599319 -0.409040
-0.290676 0.599179 -0.409080
-0.286838 0.599311 -0.409253
-0.283226 0.600026 -0.409739
-0.280169 0.602090 -0.410980
-0.276285 0.602362 -0.411167
-0.271796 0.601281 -0.410554
-0.266876 0.599205 -0.409347
-0.263344 0.600454 -0.410039
-0.259757 0.601646 -0.410681
-0.255607 0.601517 -0.410547
-0.251223 0.600829 -0.410075
-0.247281 0.601270 -0.410241
-0.243407 0.601926 -0.410518
-0.239753 0.603191 -0.411136
-0.235325 0.602447 -0.410587
-0.231051 0.602100 -0.410258
-0.227017 0.602405 -0.410298
-0.222843 0.602324 -0.410110
-0.218553 0.601903 -0.409722
-0.214689 0.602688 -0.410023
-0.210962 0.603889 -0.410559
-0.206966 0.604305 -0.410643
-0.203022 0.604874 -0.410813
-0.198884 0.604833 -0.410633
-0.194668 0.604518 -0.410296
-0.190394 0.603974 -0.409829
-0.186375 0.604208 -0.409810
-0.181910 0.602927 -0.408926
-0.178018 0.603510 -0.409112
-0.174039 0.603774 -0.409120
-0.169839 0.603221 -0.408663
-0.165605 0.602482 -0.408105
-0.161728 0.602984 -0.408261
-0.157947 0.603828 -0.408616
-0.153982 0.603951 -0.408566
-0.149812 0.603226 -0.408035
-0.145858 0.603288 -0.407961
-0.142190 0.604485 -0.408540
-0.137897 0.603051 -0.407622
-0.133866 0.602626 -0.407287
-0.130153 0.603545 -0.407725
-0.126574 0.605073 -0.408517
-0.122520 0.604409 -0.408064
-0.118580 0.604206 -0.407880
-0.114711 0.604294 -0.407869
-0.111023 0.605249 -0.408358
-0.107205 0.605531 -0.408470
-0.102716 0.602193 -0.406524
-0.099042 0.603094 -0.407002
-0.095271 0.603447 -0.407173
-0.091520 0.603894 -0.407404
-0.087711 0.603969 -0.407430
-0.083797 0.603349 -0.407065
-0.080013 0.603475 -0.407132
-0.076520 0.605509 -0.408292
-0.072576 0.604520 -0.407735
-0.068928 0.605541 -0.408330
-0.064912 0.603828 -0.407372
-0.061119 0.603680 -0.407312
-0.057616 0.605834 -0.408570
-0.053665 0.604315 -0.407740
-0.049930 0.604541 -0.407911
-0.046142 0.604250 -0.407792
-0.042379 0.604127 -0.407775
-0.038656 0.604357 -0.407964
-0.035039 0.605755 -0.408825
-0.031384 0.606830 -0.409507
-0.027036 0.599343 -0.405309
-0.023792 0.605530 -0.408919
-0.019771 0.601433 -0.406664
-0.016181 0.603338 -0.407841
-0.012561 0.605038 -0.408906
-0.008805 0.604495 -0.408695
-0.005098 0.604793 -0.408970
-0.001370 0.604666 -0.409006
0.002352 0.604608 -0.409087
0.006141 0.602451 -0.407972
0.009848 0.602406 -0.408069
0.013508 0.604432 -0.409356
0.017229 0.604088 -0.409292
0.020945 0.603869 -0.409304
0.024657 0.603901 -0.409464
0.028367 0.605140 -0.410320
0.032083 0.604402 -0.410048
0.035775 0.601819 -0.408722
0.039479 0.601927 -0.408944
0.043198 0.602673 -0.409536
0.046940 0.603976 -0.410453
0.050706 0.605582 -0.411548
0.054346 0.603124 -0.410314
0.058027 0.602267 -0.410003
0.061766 0.602831 -0.410514
0.065509 0.603307 -0.410979
0.069222 0.603128 -0.411071
0.072890 0.602208 -0.410742
0.076596 0.601963 -0.410804
0.080329 0.602085 -0.411084
0.084132 0.603051 -0.411854
0.087837 0.602677 -0.411856
0.091618 0.603168 -0.412363
0.095359 0.603140 -0.412574
0.098960 0.601656 -0.411948
0.102798 0.602560 -0.412708
0.106677 0.603710 -0.413615
0.110422 0.603552 -0.413770
0.113920 0.601312 -0.412724
0.117759 0.601938 -0.413343
0.121567 0.602233 -0.413775
0.125329 0.602139 -0.413987
0.128943 0.600961 -0.413574
0.132675 0.600630 -0.413657
0.136150 0.598601 -0.412758
0.140030 0.599234 -0.413412
0.144136 0.601174 -0.414835
0.147959 0.601264 -0.415185
0.151744 0.601095 -0.415390
0.155597 0.601272 -0.415803
0.159498 0.601661 -0.416345
0.163281 0.601362 -0.416492
0.167011 0.600768 -0.416471
0.170943 0.601172 -0.417040
0.174943 0.601835 -0.417769
0.178931 0.602368 -0.418427
0.182666 0.601670 -0.418370
0.186089 0.599567 -0.417493
0.189913 0.599273 -0.417684
0.194099 0.600492 -0.418774
0.198222 0.601346 -0.419655
0.202230 0.601654 -0.420223
0.205943 0.600725 -0.420067
0.209794 0.600328 -0.420232
0.213828 0.600600 -0.420801
0.217394 0.599070 -0.420309
0.221452 0.599355 -0.420899
0.225829 0.600723 -0.422140
0.229061 0.597971 -0.420943
0.233133 0.598168 -0.421504
0.237490 0.599270 -0.422611
0.241443 0.598948 -0.422880
0.245275 0.598197 -0.422900
0.249672 0.599223 -0.423989
0.253718 0.599065 -0.424379
0.257803 0.598985 -0.424824
0.262034 0.599297 -0.425512
0.265905 0.598482 -0.425532
0.269606 0.597152 -0.425250
0.273574 0.596579 -0.425430
0.278112 0.597579 -0.426565
0.282837 0.599017 -0.427973
0.287290 0.599615 -0.428885
0.291299 0.598959 -0.429047
0.295259 0.598142 -0.429118
0.299632 0.598376 -0.429832
0.304257 0.599195 -0.430910
0.308321 0.598533 -0.431096
0.311583 0.595859 -0.430062
0.315799 0.595545 -0.430469
0.320269 0.595807 -0.431233
0.324873 0.596333 -0.432165
0.329412 0.596649 -0.432974
0.333970 0.596958 -0.433784
0.338379 0.596883 -0.434362
0.343076 0.597414 -0.435316
0.347158 0.596542 -0.435408
0.351125 0.595412 -0.435341
0.355829 0.595857 -0.436246
0.361618 0.598551 -0.438542
0.365690 0.597575 -0.438568
0.368887 0.594803 -0.437475
0.373232 0.594414 -0.437853
0.378287 0.595437 -0.439104
0.382390 0.594543 -0.439155
0.386773 0.594211 -0.439547
0.391816 0.595154 -0.440724
0.396690 0.595751 -0.441676
0.400567 0.594465 -0.441436
0.404689 0.593675 -0.441491
0.409600 0.594362 -0.442456
0.415337 0.596549 -0.444347
0.418316 0.593768 -0.443094
0.422125 0.592549 -0.442801
0.426810 0.592920 -0.443488
0.431869 0.593966 -0.444576
0.435612 0.592776 -0.444228
0.438566 0.590322 -0.443052
0.445032 0.593851 -0.445633
0.448768 0.592831 -0.445307
0.454550 0.595244 -0.447127
0.457765 0.593498 -0.446279
0.461498 0.592683 -0.445990
0.465219 0.591927 -0.445706
0.469542 0.592201 -0.446043
0.472984 0.591161 -0.445513
0.477784 0.592315 -0.446344
0.483149 0.594388 -0.447727
0.487138 0.594403 -0.447769
0.489981 0.592762 -0.446725
0.493282 0.591908 -0.446150
0.496868 0.591567 -0.445869
0.496990 0.586204 -0.442365
0.500934 0.586587 -0.442483
-0.342048 0.594764 -0.406041
-0.339913 0.596771 -0.407691
-0.336035 0.595575 -0.407472
-0.331844 0.593848 -0.406921
-0.327785 0.592442 -0.406528
-0.324584 0.592789 -0.407124
-0.323611 0.597664 -0.410317
-0.319905 0.597247 -0.410423
-0.315866 0.596243 -0.410161
-0.312481 0.596649 -0.410690
-0.309268 0.597511 -0.411459
-0.306761 0.599961 -0.413124
-0.302575 0.598999 -0.412781
-0.299036 0.599487 -0.413256
-0.295554 0.600193 -0.413832
-0.291811 0.600423 -0.414105
-0.286932 0.598216 -0.412936
-0.283575 0.599445 -0.413742
-0.280089 0.600481 -0.414415
-0.276565 0.601521 -0.415067
-0.270715 0.597217 -0.412584
-0.267802 0.599805 -0.414097
-0.263787 0.599867 -0.414120
-0.260288 0.601232 -0.414883
-0.256242 0.601327 -0.414890
-0.252051 0.601097 -0.414692
-0.247824 0.600800 -0.414441
-0.244153 0.601949 -0.415019
-0.240414 0.602977 -0.415514
-0.236685 0.604076 -0.416041
-0.231542 0.601402 -0.414362
-0.227489 0.601636 -0.414369
-0.223846 0.603023 -0.415038
-0.219225 0.601678 -0.414113
-0.215188 0.601964 -0.414132
-0.211277 0.602616 -0.414360
-0.207232 0.602873 -0.414356
-0.203109 0.602885 -0.414208
-0.199353 0.604009 -0.414703
-0.194353 0.601226 -0.412933
-0.190439 0.601798 -0.413110
-0.186830 0.603357 -0.413859
-0.182756 0.603391 -0.413727
-0.178344 0.602242 -0.412912
-0.174459 0.602838 -0.413111
-0.170326 0.602537 -0.412793
-0.166164 0.602081 -0.412391
-0.162404 0.603041 -0.412811
-0.158752 0.604405 -0.413470
-0.154349 0.602895 -0.412472
-0.150832 0.604756 -0.413427
-0.146794 0.604558 -0.413198
-0.142362 0.602683 -0.412006
-0.138349 0.602435 -0.411760
-0.134490 0.602792 -0.411869
-0.130769 0.603722 -0.412315
-0.127026 0.604555 -0.412711
-0.123337 0.605625 -0.413249
-0.119043 0.603823 -0.412137
-0.115161 0.603891 -0.412111
-0.111384 0.604434 -0.412364
-0.107560 0.604723 -0.412477
-0.103507 0.603753 -0.411871
-0.099250 0.601562 -0.410568
-0.095413 0.601558 -0.410531
-0.091793 0.602772 -0.411203
-0.088414 0.605463 -0.412732
-0.084559 0.605328 -0.412639
-0.080674 0.604939 -0.412406
-0.076965 0.605646 -0.412810
-0.073270 0.606464 -0.413285
-0.069382 0.605903 -0.412971
-0.065456 0.604963 -0.412444
-0.061433 0.603148 -0.411420
-0.057845 0.604660 -0.412318
-0.053957 0.603718 -0.411808
-0.050433 0.605881 -0.413094
-0.046552 0.604877 -0.412559
-0.042742 0.604419 -0.412345
-0.038882 0.603353 -0.411786
-0.035276 0.604899 -0.412739
-0.031559 0.605312 -0.413043
-0.027696 0.603918 -0.412311
-0.023650 0.599838 -0.410034
-0.020295 0.605007 -0.413100
-0.016452 0.603410 -0.412265
-0.012760 0.604034 -0.412718
-0.009079 0.604958 -0.413350
-0.005244 0.602875 -0.412250
-0.001589 0.604393 -0.413234
0.002082 0.605858 -0.414194
0.005872 0.604154 -0.413327
0.009628 0.603007 -0.412787
0.013348 0.602863 -0.412830
0.017055 0.603340 -0.413239
0.020769 0.603695 -0.413581
0.024486 0.604008 -0.413904
0.028209 0.602996 -0.413464
0.031923 0.602568 -0.413367
0.035636 0.602414 -0.413434
0.039370 0.603779 -0.414385
0.043097 0.604031 -0.414697
0.046837 0.604613 -0.415204
0.050542 0.603836 -0.414928
0.054302 0.604757 -0.415642
0.058036 0.604780 -0.415839
0.061646 0.602077 -0.414456
0.065361 0.601929 -0.414563
0.069102 0.602222 -0.414930
0.072804 0.601788 -0.414879
0.076526 0.601683 -0.415024
0.080273 0.601912 -0.415369
0.083968 0.601394 -0.415283
0.087730 0.601700 -0.415681
0.091500 0.602032 -0.416101
0.095237 0.601927 -0.416269
0.099045 0.602522 -0.416852
0.102891 0.603372 -0.417589
0.106737 0.604103 -0.418262
0.110517 0.604148 -0.418539
0.114280 0.604015 -0.418718
0.117959 0.603185 -0.418491
0.121588 0.602002 -0.418063
0.125323 0.601642 -0.418123
0.129114 0.601676 -0.418418
0.132634 0.599816 -0.417606
0.136654 0.601331 -0.418783
0.140540 0.601847 -0.419379
0.144306 0.601557 -0.419506
0.148007 0.600865 -0.419401
0.151829 0.600864 -0.419709
0.155878 0.602082 -0.420744
0.159526 0.601031 -0.420444
0.163283 0.600565 -0.420495
0.167190 0.600844 -0.420993
0.171078 0.600974 -0.421409
0.175060 0.601510 -0.422072
0.179017 0.601856 -0.422630
0.182893 0.601770 -0.422939
0.186624 0.600996 -0.422844
0.190295 0.599955 -0.422598
0.193986 0.599004 -0.422410
0.198277 0.600547 -0.423715
0.202294 0.600860 -0.424295
0.206123 0.600368 -0.424401
0.210087 0.600380 -0.424816
0.213902 0.599773 -0.424868
0.217945 0.599997 -0.425424
0.221859 0.599694 -0.425673
0.226109 0.600555 -0.426627
0.229825 0.599467 -0.426420
0.233838 0.599394 -0.426829
0.237601 0.598432 -0.426712
0.241585 0.598189 -0.427034
0.245762 0.598529 -0.427716
0.249858 0.598554 -0.428216
0.254082 0.598925 -0.428934
0.258242 0.599040 -0.429505
0.262037 0.598002 -0.429386
0.265784 0.596807 -0.429178
0.270004 0.596979 -0.429809
0.274096 0.596731 -0.430191
0.278160 0.596363 -0.430508
0.283268 0.598842 -0.432570
0.287523 0.598872 -0.433147
0.291595 0.598364 -0.433403
0.295795 0.598160 -0.433852
0.300044 0.598040 -0.434361
0.304253 0.597776 -0.434787
0.308554 0.597702 -0.435337
0.312526 0.596774 -0.435367
0.316297 0.595340 -0.435089
0.320677 0.595363 -0.435715
0.325371 0.596083 -0.436776
0.329990 0.596569 -0.437699
0.334584 0.596941 -0.438555
0.338962 0.596778 -0.439084
0.343632 0.597234 -0.439998
0.347418 0.595700 -0.439677
0.353062 0.598203 -0.441870
0.356007 0.594843 -0.440407
0.361111 0.596096 -0.441821
0.365811 0.596454 -0.442673
0.369698 0.595114 -0.442458
0.374924 0.596503 -0.443949
0.378620 0.594787 -0.443483
0.382555 0.593575 -0.443324
0.387088 0.593555 -0.443904
0.392573 0.595362 -0.445628
0.397891 0.596811 -0.447116
0.401137 0.594348 -0.446115
0.405601 0.594212 -0.446569
0.411314 0.596380 -0.448469
0.415624 0.595980 -0.448720
0.418846 0.593671 -0.447736
0.422287 0.591830 -0.447025
0.428290 0.594540 -0.449189
0.433575 0.595990 -0.450528
0.436384 0.593216 -0.449144
0.441129 0.593822 -0.449891
0.445036 0.593064 -0.449736
0.448805 0.592145 -0.449449
0.452878 0.591801 -0.449498
0.458393 0.593863 -0.451058
0.461165 0.591538 -0.449775
0.465665 0.592074 -0.450293
0.469881 0.592218 -0.450528
0.473629 0.591697 -0.450303
0.478094 0.592366 -0.450808
0.483456 0.594471 -0.452203
0.490211 0.598735 -0.454950
0.490623 0.593428 -0.451521
0.493206 0.591532 -0.450250
0.495690 0.589595 -0.448921
0.497759 0.587152 -0.447237
-0.337776 0.592295 -0.409082
-0.335080 0.593277 -0.410142
-0.331505 0.592674 -0.410255
-0.327083 0.590508 -0.409431
-0.328309 0.599488 -0.415094
-0.323812 0.597385 -0.414259
-0.319413 0.595531 -0.413540
-0.315985 0.595699 -0.413980
-0.313635 0.598167 -0.415742
-0.311275 0.600759 -0.417552
-0.306240 0.597910 -0.416143
-0.302568 0.597963 -0.416411
-0.298731 0.597754 -0.416498
-0.295692 0.599347 -0.417620
-0.292361 0.600421 -0.418411
-0.288950 0.601422 -0.419135
-0.284627 0.600478 -0.418690
-0.280287 0.599544 -0.418226
-0.276367 0.599617 -0.418333
-0.272421 0.599693 -0.418420
-0.267851 0.598357 -0.417653
-0.264537 0.600045 -0.418649
-0.260832 0.600876 -0.419121
-0.256788 0.600943 -0.419124
-0.252715 0.600976 -0.419092
-0.248721 0.601244 -0.419183
-0.244919 0.602041 -0.419572
-0.240934 0.602407 -0.419693
-0.236990 0.602912 -0.419886
-0.232261 0.601331 -0.418841
-0.228408 0.602105 -0.419173
-0.224358 0.602357 -0.419189
-0.220506 0.603179 -0.419534
-0.216090 0.602402 -0.418934
-0.211475 0.601006 -0.417967
-0.207373 0.601074 -0.417856
-0.203506 0.601840 -0.418152
-0.198982 0.600587 -0.417262
-0.195130 0.601373 -0.417568
-0.190951 0.601116 -0.417262
-0.187284 0.602491 -0.417913
-0.183568 0.603723 -0.418481
-0.179175 0.602676 -0.417717
-0.174922 0.602034 -0.417193
-0.171073 0.602750 -0.417466
-0.167051 0.602833 -0.417373
-0.162895 0.602392 -0.416977
-0.158645 0.601531 -0.416341
-0.155205 0.603691 -0.417475
-0.151456 0.604697 -0.417939
-0.147468 0.604741 -0.417845
-0.142902 0.602370 -0.416348
-0.139030 0.602753 -0.416465
-0.135128 0.602977 -0.416494
-0.131355 0.603732 -0.416839
-0.127615 0.604622 -0.417269
-0.123674 0.604579 -0.417161
-0.119805 0.604827 -0.417228
-0.115724 0.604002 -0.416677
-0.111694 0.603335 -0.416224
-0.107696 0.602752 -0.415826
-0.103925 0.603286 -0.416086
-0.100106 0.603540 -0.416189
-0.095969 0.601971 -0.415237
-0.092211 0.602450 -0.415484
-0.088615 0.603887 -0.416295
-0.084886 0.604550 -0.416662
-0.081126 0.605001 -0.416912
-0.077362 0.605420 -0.417149
-0.073636 0.606077 -0.417531
-0.069746 0.605570 -0.417242
-0.065613 0.603159 -0.415849
-0.061763 0.602692 -0.415595
-0.057951 0.602454 -0.415480
-0.054648 0.606451 -0.417838
-0.050705 0.605111 -0.417094
-0.046843 0.604340 -0.416686
-0.042890 0.602560 -0.415696
-0.039097 0.602182 -0.415528
-0.035427 0.603072 -0.416106
-0.031769 0.604160 -0.416804
-0.027956 0.603421 -0.416443
-0.024218 0.603540 -0.416587
-0.020385 0.602286 -0.415936
-0.016834 0.605117 -0.417674
-0.013027 0.604134 -0.417192
-0.009226 0.603015 -0.416635
-0.005488 0.602902 -0.416671
-0.001871 0.605467 -0.418276
0.001890 0.604968 -0.418096
0.005657 0.604107 -0.417711
0.009372 0.604739 -0.418202
0.013156 0.602559 -0.417055
0.016871 0.603040 -0.417468
0.020594 0.603176 -0.417684
0.024315 0.603778 -0.418178
0.028047 0.602097 -0.417341
0.031762 0.600796 -0.416729
0.035499 0.603373 -0.418395
0.039239 0.604243 -0.419066
0.042978 0.604525 -0.419397
0.046677 0.603039 -0.418696
0.050398 0.602746 -0.418700
0.054123 0.602622 -0.418807
0.057877 0.603200 -0.419332
0.061551 0.601868 -0.418738
0.065410 0.604386 -0.420413
0.069204 0.605238 -0.421114
0.072796 0.602630 -0.419784
0.076534 0.602569 -0.419957
0.080309 0.602990 -0.420419
0.084156 0.604250 -0.421380
0.087811 0.602990 -0.420861
0.091363 0.600676 -0.419724
0.095200 0.601625 -0.420517
0.099012 0.602186 -0.421086
0.103045 0.604758 -0.422850
0.106767 0.604209 -0.422775
0.110507 0.603832 -0.422806
0.114205 0.603092 -0.422628
0.117948 0.602743 -0.422685
0.121573 0.601477 -0.422204
0.125317 0.601139 -0.422279
0.129076 0.600895 -0.422414
0.132759 0.600115 -0.422236
0.136637 0.600621 -0.422828
0.140627 0.601763 -0.423804
0.144272 0.600681 -0.423462
0.148028 0.600282 -0.423533
0.151845 0.600218 -0.423809
0.155685 0.600238 -0.424141
0.159499 0.600078 -0.424372
0.163283 0.599733 -0.424498
0.167369 0.600897 -0.425533
0.171335 0.601362 -0.426157
0.175201 0.601275 -0.426458
0.179274 0.602127 -0.427327
0.183096 0.601735 -0.427458
0.186849 0.601014 -0.427398
0.190553 0.600070 -0.427211
0.194322 0.599405 -0.427196
0.198388 0.599957 -0.427921
0.202311 0.599861 -0.428264
0.206126 0.599292 -0.428328
0.209967 0.598801 -0.428447
0.214022 0.599099 -0.429049
0.218167 0.599675 -0.429828
0.222232 0.599885 -0.430394
0.226016 0.599040 -0.430327
0.230136 0.599351 -0.430970
0.234126 0.599159 -0.431315
0.238244 0.599359 -0.431906
0.242101 0.598640 -0.431946
0.246151 0.598521 -0.432360
0.250236 0.598470 -0.432823
0.254354 0.598476 -0.433329
0.258318 0.597961 -0.433524
0.262133 0.596966 -0.433433
0.266467 0.597491 -0.434282
0.270271 0.596408 -0.434151
0.274605 0.596825 -0.434950
0.279176 0.597843 -0.436127
0.283096 0.596984 -0.436157
0.287683 0.597912 -0.437297
0.292398 0.599105 -0.438609
0.296538 0.598701 -0.438942
0.300419 0.597593 -0.438845
0.304445 0.596843 -0.438976
0.308653 0.596524 -0.439380
0.312900 0.596268 -0.439828
0.317062 0.595766 -0.440129
0.321422 0.595714 -0.440715
0.326290 0.596816 -0.442027
0.330766 0.596936 -0.442729
0.334408 0.595107 -0.442214
0.339328 0.596177 -0.443517
0.343745 0.596063 -0.444081
0.348485 0.596627 -0.445071
0.353281 0.597269 -0.446111
0.357103 0.595789 -0.445812
0.361115 0.594727 -0.445772
0.365331 0.594092 -0.445997
0.369990 0.594366 -0.446792
0.374679 0.594678 -0.447605
0.378848 0.593936 -0.447742
0.382674 0.592533 -0.447446
0.386666 0.591482 -0.447363
0.392538 0.594067 -0.449587
0.396790 0.593523 -0.449802
0.401431 0.593732 -0.450482
0.405454 0.592808 -0.450419
0.411042 0.594782 -0.452196
0.415285 0.594306 -0.452381
0.418885 0.592720 -0.451832
0.423222 0.592504 -0.452138
0.429649 0.595973 -0.454794
0.433952 0.595743 -0.455043
0.437395 0.594092 -0.454347
0.440383 0.591757 -0.453180
0.444502 0.591411 -0.453267
0.450290 0.593890 -0.455150
0.454721 0.594153 -0.455570
0.457465 0.591736 -0.454223
0.460631 0.590106 -0.453353
0.465082 0.590617 -0.453836
0.469395 0.590967 -0.454183
0.473811 0.591542 -0.454643
0.477080 0.590401 -0.453957
0.481344 0.590877 -0.454287
0.487321 0.594024 -0.456315
0.491655 0.594714 -0.456718
0.492331 0.589993 -0.453582
0.495108 0.588540 -0.452533
0.496862 0.585678 -0.450541
-0.333609 0.590032 -0.412220
-0.330256 0.589787 -0.412559
-0.329498 0.594675 -0.415900
-0.326476 0.595305 -0.416710
-0.324792 0.598692 -0.419125
-0.319783 0.595584 -0.417677
-0.316333 0.595659 -0.418084
-0.313670 0.597436 -0.419473
-0.310081 0.597430 -0.419780
-0.305715 0.595894 -0.419153
-0.302163 0.596129 -0.419549
-0.299338 0.598008 -0.420896
-0.295371 0.597552 -0.420831
-0.292071 0.598621 -0.421646
-0.288703 0.599648 -0.422411
-0.285446 0.601021 -0.423358
-0.281729 0.601462 -0.423726
-0.276963 0.599577 -0.422686
-0.272567 0.598566 -0.422143
-0.268633 0.598675 -0.422246
-0.265098 0.599798 -0.422932
-0.261622 0.601146 -0.423732
-0.257185 0.600219 -0.423159
-0.253056 0.600073 -0.423034
-0.249264 0.600811 -0.423418
-0.245441 0.601522 -0.423772
-0.241260 0.601351 -0.423588
-0.236721 0.600249 -0.422837
-0.233123 0.601655 -0.423567
-0.228981 0.601631 -0.423437
-0.225352 0.603039 -0.424149
-0.220696 0.601599 -0.423162
-0.216791 0.602263 -0.423417
-0.213020 0.603332 -0.423909
-0.208427 0.601990 -0.422964
-0.203733 0.600281 -0.421799
-0.199085 0.598636 -0.420671
-0.196160 0.602298 -0.422688
-0.192867 0.604902 -0.424077
-0.188631 0.604515 -0.423692
-0.184202 0.603444 -0.422904
-0.180115 0.603452 -0.422756
-0.175675 0.602213 -0.421872
-0.171504 0.601832 -0.421499
-0.167615 0.602404 -0.421694
-0.163263 0.601268 -0.420882
-0.159510 0.602280 -0.421343
-0.156023 0.604311 -0.422412
-0.151860 0.603746 -0.421951
-0.147658 0.602959 -0.421364
-0.143511 0.602310 -0.420864
-0.139494 0.602127 -0.420645
-0.135720 0.602930 -0.421014
-0.131822 0.603178 -0.421060
-0.127950 0.603512 -0.421164
-0.123998 0.603441 -0.421035
-0.120025 0.603216 -0.420821
-0.116273 0.604005 -0.421211
-0.112576 0.605064 -0.421766
-0.107992 0.601576 -0.419649
-0.104336 0.602741 -0.420280
-0.100605 0.603520 -0.420690
-0.096592 0.602708 -0.420169
-0.092620 0.602041 -0.419740
-0.088834 0.602388 -0.419914
-0.085222 0.603783 -0.420713
-0.081391 0.603830 -0.420723
-0.077665 0.604520 -0.421119
-0.073736 0.603825 -0.420706
-0.069996 0.604378 -0.421033
-0.065985 0.602912 -0.420178
-0.062059 0.601939 -0.419620
-0.058459 0.603457 -0.420535
-0.054747 0.604123 -0.420953
-0.050893 0.603546 -0.420646
-0.047009 0.602598 -0.420127
-0.043177 0.602009 -0.419824
-0.039432 0.602200 -0.419987
-0.035815 0.603773 -0.420970
-0.032098 0.604329 -0.421359
-0.028265 0.603487 -0.420931
-0.024467 0.602942 -0.420683
-0.020727 0.603103 -0.420856
-0.016998 0.603416 -0.421125
-0.013262 0.603603 -0.421325
-0.009430 0.602049 -0.420503
-0.005714 0.602471 -0.420852
-0.002026 0.603572 -0.421608
0.001675 0.604624 -0.422340
0.005453 0.603630 -0.421869
0.009184 0.603913 -0.422158
0.012932 0.603558 -0.422075
0.016682 0.602842 -0.421783
0.020412 0.603060 -0.422048
0.024150 0.602458 -0.421834
0.027879 0.603652 -0.422687
0.031620 0.604850 -0.423548
0.035338 0.601900 -0.421958
0.039101 0.604299 -0.423541
0.042805 0.602325 -0.422538
0.046565 0.603398 -0.423345
0.050267 0.602151 -0.422782
0.053964 0.601064 -0.422319
0.057682 0.600743 -0.422313
0.061504 0.602740 -0.423691
0.065256 0.602906 -0.423985
0.068994 0.602739 -0.424087
0.072734 0.602602 -0.424212
0.076487 0.602645 -0.424448
0.080395 0.604775 -0.425933
0.084078 0.603687 -0.425507
0.087821 0.603415 -0.425571
0.091522 0.602652 -0.425348
0.095277 0.602528 -0.425510
0.099036 0.602408 -0.425680
0.102875 0.603028 -0.426298
0.106684 0.603280 -0.426701
0.110381 0.602486 -0.426483
0.114256 0.603201 -0.427175
0.117828 0.601417 -0.426375
0.121490 0.600417 -0.426049
0.125264 0.600269 -0.426239
0.129073 0.600351 -0.426572
0.132902 0.600515 -0.426961
0.136792 0.601021 -0.427561
0.140446 0.599967 -0.427229
0.144695 0.602574 -0.429105
0.148069 0.599801 -0.427750
0.152276 0.601922 -0.429348
0.155875 0.600507 -0.428821
0.159294 0.598157 -0.427735
0.163301 0.598977 -0.428568
0.167563 0.601002 -0.430137
0.171517 0.601356 -0.430703
0.175412 0.601357 -0.431063
0.179267 0.601133 -0.431293
0.183288 0.601632 -0.431969
0.187124 0.601234 -0.432107
0.190694 0.599658 -0.431537
0.194593 0.599507 -0.431838
0.198473 0.599240 -0.432076
0.202342 0.598891 -0.432270
0.206043 0.597848 -0.432050
0.209873 0.597306 -0.432141
0.214290 0.598963 -0.433583
0.218350 0.599182 -0.434155
0.222068 0.598099 -0.433938
0.226139 0.598273 -0.434498
0.230372 0.598951 -0.435377
0.234570 0.599437 -0.436145
0.238614 0.599343 -0.436566
0.242590 0.598975 -0.436827
0.246699 0.599003 -0.437339
0.250575 0.598244 -0.437374
0.254426 0.597386 -0.437355
0.258384 0.596834 -0.437533
0.262523 0.596796 -0.438036
0.266241 0.595471 -0.437749
0.271381 0.598258 -0.440022
0.275641 0.598397 -0.440661
0.279323 0.596867 -0.440269
0.283684 0.597205 -0.441047
0.287997 0.597355 -0.441716
0.291896 0.596351 -0.441671
0.296593 0.597420 -0.442929
0.300865 0.597315 -0.443461
0.304747 0.596176 -0.443349
0.308832 0.595535 -0.443555
0.313538 0.596397 -0.444711
0.317929 0.596427 -0.445351
0.323131 0.598350 -0.447189
0.327116 0.597315 -0.447166
0.331343 0.596832 -0.447492
0.334893 0.594782 -0.446829
0.339426 0.594968 -0.447582
0.343931 0.595053 -0.448272
0.348428 0.595088 -0.448931
0.352269 0.593682 -0.448670
0.357447 0.595132 -0.450228
0.361364 0.593877 -0.450056
0.365779 0.593668 -0.450546
0.370600 0.594277 -0.451555
0.374169 0.592337 -0.450921
0.379102 0.593152 -0.452046
0.382843 0.591601 -0.451639
0.386648 0.590213 -0.451323
0.391435 0.590745 -0.452231
0.396063 0.590971 -0.452927
0.401086 0.591944 -0.454090
0.406535 0.593695 -0.455740
0.410497 0.592716 -0.455603
0.414720 0.592254 -0.455779
0.418657 0.591323 -0.455627
0.423643 0.592297 -0.456689
0.429233 0.594339 -0.458422
0.433615 0.594296 -0.458772
0.436635 0.591977 -0.457610
0.439953 0.590260 -0.456810
0.444193 0.590170 -0.457040
0.450380 0.593357 -0.459381
0.454988 0.593956 -0.460000
0.457479 0.591172 -0.458376
0.460268 0.588984 -0.457108
0.465006 0.590002 -0.457904
0.469330 0.590417 -0.458273
0.473189 0.590166 -0.458173
0.476255 0.588764 -0.457286
0.480574 0.589379 -0.457687
0.484738 0.589818 -0.457940
0.488918 0.590348 -0.458221
0.492908 0.590659 -0.458325
0.493819 0.586468 -0.455455
-0.333449 0.589330 -0.415762
-0.331019 0.590814 -0.417148
-0.329190 0.593585 -0.419279
-0.327645 0.597055 -0.421806
-0.324607 0.597728 -0.422644
-0.319636 0.594642 -0.421212
-0.316000 0.594284 -0.421382
-0.312616 0.594525 -0.421883
-0.308639 0.593640 -0.421685
-0.305082 0.593700 -0.422025
-0.302666 0.596255 -0.423835
-0.299586 0.597541 -0.424860
-0.295501 0.596773 -0.424625
-0.291002 0.595171 -0.423864
-0.287935 0.596768 -0.424997
-0.285483 0.599856 -0.427003
-0.281962 0.600677 -0.427622
-0.277854 0.600247 -0.427465
-0.272891 0.597888 -0.426124
-0.269402 0.598995 -0.426846
-0.266244 0.600980 -0.428074
-0.261227 0.598580 -0.426644
-0.257156 0.598482 -0.426580
-0.253413 0.599241 -0.427013
-0.249492 0.599612 -0.427195
-0.245640 0.600203 -0.427494
-0.241381 0.599786 -0.427173
-0.237536 0.600475 -0.427502
-0.233223 0.599947 -0.427089
-0.229909 0.602140 -0.428300
-0.226274 0.603525 -0.429015
-0.221257 0.601076 -0.427419
-0.217444 0.601989 -0.427835
-0.213561 0.602724 -0.428138
-0.209221 0.602129 -0.427637
-0.204671 0.600870 -0.426734
-0.200231 0.599885 -0.425994
-0.195805 0.598890 -0.425245
-0.193304 0.603954 -0.428127
-0.189495 0.604953 -0.428570
-0.185088 0.603985 -0.427837
-0.180724 0.603096 -0.427152
-0.176549 0.602789 -0.426816
-0.172141 0.601617 -0.425967
-0.168160 0.601889 -0.425984
-0.164724 0.604115 -0.427172
-0.160382 0.603027 -0.426383
-0.156294 0.602816 -0.426122
-0.152323 0.603007 -0.426106
-0.148064 0.602017 -0.425390
-0.143921 0.601410 -0.424907
-0.139949 0.601438 -0.424809
-0.136227 0.602489 -0.425327
-0.132385 0.603020 -0.425540
-0.127979 0.601004 -0.424241
-0.124018 0.600878 -0.424074
-0.120361 0.602130 -0.424735
-0.116677 0.603273 -0.425338
-0.113103 0.604970 -0.426276
-0.109155 0.604809 -0.426114
-0.104600 0.601386 -0.424015
-0.100790 0.601755 -0.424181
-0.097103 0.602777 -0.424744
-0.093231 0.602752 -0.424688
-0.089295 0.602295 -0.424382
-0.085463 0.602398 -0.424416
-0.081648 0.602565 -0.424495
-0.077756 0.602189 -0.424257
-0.074193 0.603986 -0.425319
-0.070066 0.601870 -0.424058
-0.066231 0.601688 -0.423954
-0.062447 0.601844 -0.424058
-0.058680 0.602095 -0.424225
-0.054956 0.602686 -0.424600
-0.051107 0.602185 -0.424332
-0.047287 0.601849 -0.424167
-0.043628 0.602999 -0.424894
-0.039853 0.603049 -0.424971
-0.036122 0.603531 -0.425312
-0.032393 0.604042 -0.425676
-0.028559 0.603299 -0.425299
-0.024683 0.601853 -0.424509
-0.020889 0.601304 -0.424258
-0.017134 0.601218 -0.424289
-0.013427 0.601865 -0.424762
-0.009719 0.602578 -0.425281
-0.005969 0.602563 -0.425371
-0.002221 0.602538 -0.425461
0.001504 0.603036 -0.425868
0.005193 0.604742 -0.427001
0.008996 0.603014 -0.426091
0.012747 0.602739 -0.426053
0.016494 0.602444 -0.426007
0.020223 0.603276 -0.426641
0.023972 0.602632 -0.426398
0.027711 0.603340 -0.426968
