ply
format ascii 1.0
comment ---
element vertex 1683
property float x
property float y
property float z
element face 0
property list uchar uint vertex_indices
end_header
0.071200 0.604110 -0.281824
0.074877 0.606366 -0.282890
0.078494 0.607253 -0.283413
0.081988 0.606141 -0.283143
0.085570 0.606373 -0.283410
0.089279 0.608200 -0.284318
0.092826 0.607781 -0.284331
0.095771 0.600426 -0.281573
0.100336 0.611543 -0.286205
0.103176 0.603602 -0.283214
0.106531 0.601482 -0.282555
0.110493 0.605239 -0.284253
0.113996 0.604499 -0.284152
0.117649 0.605087 -0.284587
0.121357 0.606045 -0.285173
0.124859 0.605263 -0.285064
0.128378 0.604643 -0.285022
0.131985 0.604678 -0.285246
0.135749 0.605785 -0.285906
0.139088 0.603886 -0.285357
0.142540 0.602824 -0.285149
0.146143 0.602763 -0.285347
0.150860 0.609558 -0.288320
0.155095 0.613016 -0.289951
0.158042 0.608744 -0.288459
0.160541 0.602147 -0.286025
0.163921 0.600723 -0.285689
0.167692 0.601431 -0.286220
0.171585 0.602700 -0.286984
0.176115 0.607089 -0.289022
0.180358 0.609807 -0.290386
0.183628 0.607669 -0.289779
0.187070 0.606398 -0.289529
0.190266 0.604024 -0.288832
0.193570 0.602205 -0.288365
0.197287 0.602236 -0.288657
0.201225 0.603173 -0.289325
0.205385 0.604954 -0.290344
0.209000 0.604387 -0.290407
0.213803 0.608567 -0.292423
0.218598 0.612499 -0.294345
0.221711 0.609755 -0.293532
0.226039 0.611660 -0.294635
0.229655 0.610813 -0.294611
0.232887 0.608564 -0.294014
0.235913 0.605618 -0.293133
0.239464 0.604568 -0.293039
0.242563 0.601964 -0.292306
0.245975 0.600457 -0.292032
0.249858 0.600517 -0.292414
0.255292 0.605557 -0.294871
0.259923 0.607813 -0.296181
0.263133 0.605489 -0.295592
0.267026 0.605297 -0.295897
0.270897 0.604997 -0.296163
0.273927 0.602150 -0.295371
0.278482 0.603813 -0.296471
0.280842 0.599046 -0.294882
0.284606 0.598358 -0.295009
0.288553 0.598155 -0.295345
0.294372 0.603050 -0.297835
0.297880 0.601492 -0.297616
0.302179 0.602036 -0.298289
0.305939 0.601098 -0.298343
0.310105 0.601187 -0.298838
0.314181 0.600993 -0.299219
0.318202 0.600617 -0.299528
0.322409 0.600665 -0.300023
0.327500 0.602815 -0.301420
0.331355 0.601889 -0.301512
0.335089 0.600654 -0.301476
0.338797 0.599349 -0.301412
0.342378 0.597747 -0.301223
0.347190 0.598941 -0.302237
0.351730 0.599457 -0.302964
0.359204 0.606407 -0.306468
0.363516 0.606243 -0.306911
0.367120 0.604528 -0.306683
0.370663 0.602701 -0.306404
0.370576 0.593287 -0.302828
0.373414 0.590148 -0.301964
0.379990 0.594711 -0.304446
0.386490 0.598995 -0.306809
0.390422 0.598051 -0.306887
0.392678 0.593827 -0.305522
0.395794 0.591380 -0.304921
0.400084 0.591259 -0.305328
0.406980 0.596104 -0.307906
0.409029 0.591757 -0.306431
0.414138 0.593213 -0.307494
0.418283 0.592900 -0.307763
0.423494 0.594565 -0.308888
0.428587 0.596024 -0.309904
0.432944 0.596191 -0.310331
0.438031 0.597692 -0.311327
0.440652 0.594931 -0.310411
0.443111 0.592011 -0.309399
0.446108 0.590132 -0.308823
0.448548 0.587420 -0.307850
0.451351 0.585441 -0.307176
0.460340 0.593821 -0.311090
0.464657 0.594458 -0.311531
0.468433 0.594289 -0.311585
0.471228 0.592625 -0.310945
0.470009 0.584658 -0.307466
0.469765 0.578457 -0.304747
-0.370472 0.599108 -0.280059
-0.366590 0.598127 -0.279981
-0.361906 0.595798 -0.279342
-0.359643 0.597892 -0.280449
-0.357671 0.600651 -0.281801
-0.353857 0.600179 -0.281840
-0.350935 0.601450 -0.282555
-0.348879 0.604459 -0.283945
-0.345915 0.605908 -0.284688
-0.342104 0.605863 -0.284811
-0.338963 0.607196 -0.285464
-0.332391 0.601960 -0.283459
-0.328521 0.602013 -0.283556
-0.325321 0.603479 -0.284201
-0.322041 0.604889 -0.284804
-0.318195 0.605245 -0.284965
-0.314823 0.606648 -0.285529
-0.311105 0.607419 -0.285823
-0.307153 0.607767 -0.285930
-0.303283 0.608341 -0.286114
-0.299044 0.608173 -0.285986
-0.294652 0.607696 -0.285722
-0.290668 0.608139 -0.285816
-0.286433 0.608048 -0.285685
-0.282437 0.608512 -0.285769
-0.278376 0.608848 -0.285793
-0.273828 0.608057 -0.285359
-0.269614 0.608034 -0.285228
-0.265906 0.609216 -0.285574
-0.261930 0.609769 -0.285665
-0.257878 0.610131 -0.285677
-0.253509 0.609686 -0.285364
-0.248862 0.608497 -0.284753
-0.244161 0.607103 -0.284061
-0.240023 0.607111 -0.283929
-0.236291 0.608166 -0.284217
-0.232088 0.607943 -0.283996
-0.227824 0.607506 -0.283692
-0.223906 0.607979 -0.283754
-0.220199 0.609019 -0.284045
-0.216149 0.609062 -0.283941
-0.212160 0.609236 -0.283894
-0.207539 0.607487 -0.283085
-0.203133 0.606279 -0.282496
-0.199553 0.607524 -0.282888
-0.195755 0.608080 -0.283010
-0.191661 0.607663 -0.282751
-0.187630 0.607379 -0.282549
-0.183415 0.606431 -0.282088
-0.179602 0.606743 -0.282134
-0.175845 0.607212 -0.282247
-0.171761 0.606501 -0.281896
-0.167996 0.606850 -0.281972
-0.164094 0.606659 -0.281838
-0.160136 0.606207 -0.281607
-0.156452 0.606719 -0.281763
-0.152624 0.606648 -0.281693
-0.148646 0.605933 -0.281373
-0.144885 0.606010 -0.281371
-0.141344 0.606940 -0.281714
-0.137535 0.606742 -0.281614
-0.133823 0.606904 -0.281662
-0.129829 0.605789 -0.281208
-0.126489 0.607509 -0.281883
-0.122798 0.607652 -0.281938
-0.119252 0.608440 -0.282253
-0.115307 0.607299 -0.281808
-0.111540 0.606934 -0.281676
-0.108061 0.607967 -0.282102
-0.104410 0.608120 -0.282183
-0.100542 0.607079 -0.281796
-0.096966 0.607540 -0.282008
-0.093415 0.608124 -0.282274
-0.089563 0.606957 -0.281849
-0.085952 0.607123 -0.281956
-0.082304 0.607031 -0.281965
-0.078544 0.606184 -0.281679
-0.074948 0.606320 -0.281786
-0.071642 0.608409 -0.282673
-0.067992 0.608179 -0.282642
-0.064181 0.606719 -0.282127
-0.060682 0.607484 -0.282498
-0.057042 0.607156 -0.282439
-0.053479 0.607410 -0.282615
-0.049915 0.607638 -0.282784
-0.046253 0.606984 -0.282604
-0.042652 0.606801 -0.282616
-0.039058 0.606634 -0.282637
-0.035419 0.605965 -0.282461
-0.031828 0.605714 -0.282455
-0.028202 0.604998 -0.282266
-0.024981 0.609114 -0.284005
-0.021665 0.612495 -0.285455
-0.017391 0.603018 -0.281782
-0.013947 0.604494 -0.282477
-0.010447 0.605268 -0.282896
-0.006885 0.605080 -0.282934
-0.003348 0.605287 -0.283132
0.000087 0.607684 -0.284208
0.003616 0.608406 -0.284617
0.007291 0.605394 -0.283536
0.010683 0.610163 -0.285570
0.014262 0.609828 -0.285565
0.017849 0.608999 -0.285364
0.021472 0.605635 -0.284150
0.024998 0.607292 -0.284950
0.028566 0.605693 -0.284447
0.032105 0.608550 -0.285733
0.035669 0.609235 -0.286152
0.039189 0.602701 -0.283674
0.042730 0.603220 -0.284029
0.046248 0.602071 -0.283716
0.049800 0.602924 -0.284211
0.053375 0.604285 -0.284913
0.057142 0.611225 -0.287863
0.060772 0.612528 -0.288549
0.064283 0.610616 -0.287942
0.067657 0.606152 -0.286307
0.071083 0.603533 -0.285416
0.074824 0.606886 -0.286939
0.078369 0.606483 -0.286948
0.081861 0.605316 -0.286651
0.085512 0.606502 -0.287307
0.089207 0.608079 -0.288125
0.092499 0.604478 -0.286849
0.096599 0.610609 -0.289517
0.100174 0.610299 -0.289580
0.103984 0.612430 -0.290636
0.108091 0.617246 -0.292786
0.111912 0.618881 -0.293650
0.114093 0.605627 -0.288463
0.117512 0.604106 -0.288045
0.121028 0.603478 -0.287994
0.124486 0.602416 -0.287768
0.127931 0.601296 -0.287521
0.131943 0.604381 -0.288992
0.135549 0.604343 -0.289193
0.139247 0.604909 -0.289645
0.141885 0.598408 -0.287210
0.144330 0.591061 -0.284428
0.149268 0.599555 -0.288134
0.155075 0.612703 -0.293756
0.157809 0.607162 -0.291724
0.160785 0.603275 -0.290370
0.164178 0.601858 -0.290034
0.167785 0.601627 -0.290188
0.171790 0.603441 -0.291187
0.176529 0.608838 -0.293669
0.179965 0.607495 -0.293379
0.183450 0.606413 -0.293201
0.186573 0.603650 -0.292331
0.190176 0.603176 -0.292411
0.193715 0.602399 -0.292370
0.197888 0.604391 -0.293480
0.201728 0.604829 -0.293952
0.205255 0.603893 -0.293859
0.209068 0.604130 -0.294259
0.214254 0.609818 -0.296930
0.218628 0.612041 -0.298170
0.222342 0.611590 -0.298302
0.226680 0.613464 -0.299410
0.230093 0.611803 -0.299049
0.232462 0.606378 -0.297118
0.235363 0.603004 -0.296047
0.239372 0.603575 -0.296632
0.242807 0.602114 -0.296371
0.246385 0.601135 -0.296318
0.250362 0.601464 -0.296820
0.254937 0.603671 -0.298120
0.259732 0.606452 -0.299671
0.263636 0.606300 -0.299993
0.267559 0.606158 -0.300326
0.270898 0.604208 -0.299900
0.274628 0.603434 -0.299978
0.277856 0.601163 -0.299426
0.283519 0.605928 -0.301869
0.288168 0.607614 -0.303014
0.292078 0.607137 -0.303245
0.295409 0.605032 -0.302789
0.298357 0.601908 -0.301901
0.301683 0.599833 -0.301464
0.306238 0.600990 -0.302418
0.310769 0.602000 -0.303316
0.314051 0.599752 -0.302821
0.318411 0.600226 -0.303502
0.323300 0.601941 -0.304724
0.328185 0.603549 -0.305908
0.330144 0.598047 -0.304022
0.335940 0.601729 -0.306114
0.339941 0.601079 -0.306336
0.342972 0.598175 -0.305579
0.347980 0.599795 -0.306792
0.351903 0.598906 -0.306916
0.359041 0.605102 -0.310136
0.364336 0.607088 -0.311524
0.368132 0.605772 -0.311466
0.367776 0.595655 -0.307540
0.369750 0.590658 -0.305850
0.374814 0.592157 -0.307013
0.380837 0.595564 -0.309015
0.385622 0.596381 -0.309873
0.389843 0.596050 -0.310216
0.392206 0.592076 -0.308935
0.396967 0.592860 -0.309753
0.401833 0.593841 -0.310648
0.404200 0.590073 -0.309417
0.405223 0.583894 -0.307093
0.410720 0.586178 -0.308525
0.419959 0.595306 -0.313005
0.424791 0.596282 -0.313826
0.429509 0.597075 -0.314547
0.433040 0.595795 -0.314317
0.437119 0.595559 -0.314534
0.440427 0.594048 -0.314154
0.443777 0.592704 -0.313823
0.445858 0.589292 -0.312536
0.446924 0.584306 -0.310511
0.452322 0.586728 -0.311798
0.460085 0.593098 -0.314841
0.464368 0.593722 -0.315267
0.467895 0.593190 -0.315143
0.469578 0.589778 -0.313691
0.468249 0.581697 -0.310101
0.456047 0.556605 -0.298797
-0.370358 0.598482 -0.283644
-0.366671 0.597805 -0.283696
-0.361865 0.595219 -0.282955
-0.359312 0.596746 -0.283855
-0.356843 0.598551 -0.284849
-0.354003 0.599806 -0.285598
-0.350167 0.599339 -0.285626
-0.348461 0.602940 -0.287286
-0.345773 0.604852 -0.288237
-0.340902 0.602735 -0.287527
-0.337292 0.603092 -0.287802
-0.333825 0.603822 -0.288207
-0.330359 0.604652 -0.288631
-0.326432 0.604663 -0.288702
-0.322242 0.604219 -0.288566
-0.318390 0.604521 -0.288716
-0.314939 0.605718 -0.289212
-0.311458 0.606942 -0.289701
-0.307384 0.606998 -0.289698
-0.303289 0.607058 -0.289681
-0.299214 0.607205 -0.289685
-0.295427 0.608019 -0.289948
-0.291495 0.608561 -0.290088
-0.286868 0.607581 -0.289598
-0.282629 0.607476 -0.289454
-0.279010 0.608805 -0.289886
-0.273860 0.606606 -0.288875
-0.270188 0.607838 -0.289254
-0.266781 0.609738 -0.289898
-0.262544 0.609661 -0.289735
-0.257999 0.608809 -0.289254
-0.253491 0.608003 -0.288790
-0.249213 0.607736 -0.288544
-0.245410 0.608660 -0.288779
-0.241208 0.608537 -0.288591
-0.236906 0.608112 -0.288281
-0.232777 0.608103 -0.288141
-0.229011 0.609052 -0.288390
-0.224795 0.608735 -0.288130
-0.220648 0.608562 -0.287932
-0.216743 0.609035 -0.287997
-0.212501 0.608492 -0.287655
-0.208069 0.607320 -0.287065
-0.204042 0.607282 -0.286936
-0.199973 0.607066 -0.286739
-0.196018 0.607150 -0.286669
-0.192095 0.607285 -0.286624
-0.188344 0.607931 -0.286789
-0.183684 0.605555 -0.285743
-0.179834 0.605760 -0.285741
-0.175965 0.605856 -0.285701
-0.172163 0.606135 -0.285740
-0.168640 0.607364 -0.286166
-0.165372 0.609510 -0.286966
-0.160442 0.605561 -0.285320
-0.156639 0.605643 -0.285300
-0.153356 0.607674 -0.286070
-0.149072 0.605819 -0.285282
-0.145408 0.606316 -0.285446
-0.141602 0.606201 -0.285368
-0.137912 0.606523 -0.285471
-0.134028 0.605979 -0.285231
-0.130742 0.607973 -0.286016
-0.126835 0.607240 -0.285711
-0.123260 0.607945 -0.285988
-0.119602 0.608248 -0.286108
-0.115940 0.608502 -0.286214
-0.112034 0.607522 -0.285828
-0.108290 0.607270 -0.285739
-0.104619 0.607334 -0.285782
-0.100933 0.607281 -0.285782
-0.097457 0.608333 -0.286231
-0.093764 0.608181 -0.286200
-0.089888 0.606924 -0.285729
-0.086155 0.606400 -0.285557
-0.082533 0.606489 -0.285636
-0.078871 0.606290 -0.285602
-0.075321 0.606773 -0.285847
-0.071858 0.607847 -0.286334
-0.068337 0.608553 -0.286676
-0.064689 0.608348 -0.286655
-0.060932 0.607265 -0.286285
-0.057272 0.606824 -0.286176
-0.053650 0.606623 -0.286167
-0.050071 0.606748 -0.286294
-0.046427 0.606259 -0.286175
-0.042915 0.606931 -0.286529
-0.039357 0.607191 -0.286719
-0.035809 0.607542 -0.286950
-0.032360 0.608978 -0.287622
-0.028392 0.604597 -0.285948
-0.025059 0.607376 -0.287168
-0.021908 0.612836 -0.289474
-0.018234 0.611791 -0.289157
-0.014590 0.611000 -0.288945
-0.011095 0.612455 -0.289643
-0.007548 0.613225 -0.290068
-0.003532 0.605207 -0.286939
0.000101 0.603529 -0.286377
0.003660 0.603172 -0.286352
0.007253 0.601809 -0.285922
0.010798 0.601450 -0.285901
0.014004 0.613173 -0.290783
0.017515 0.616615 -0.292311
0.021284 0.607547 -0.288765
0.024876 0.605184 -0.287941
0.028424 0.605359 -0.288151
0.031951 0.613131 -0.291451
0.035540 0.612488 -0.291334
0.039084 0.606250 -0.288942
0.042624 0.604832 -0.288513
0.046161 0.604013 -0.288330
0.049685 0.602901 -0.288029
0.053417 0.609993 -0.291076
0.057032 0.611122 -0.291696
0.060445 0.606365 -0.289915
0.063988 0.605862 -0.289873
0.067586 0.606598 -0.290339
0.071163 0.606758 -0.290573
0.074682 0.605818 -0.290359
0.078263 0.606014 -0.290613
0.081818 0.605762 -0.290685
0.085405 0.605952 -0.290942
0.089324 0.610430 -0.292959
0.092827 0.609213 -0.292645
0.096631 0.611593 -0.293810
0.100879 0.618541 -0.296856
0.104011 0.613155 -0.294837
0.107344 0.610241 -0.293835
0.110954 0.610182 -0.294010
0.114298 0.607703 -0.293191
0.117464 0.603875 -0.291818
0.121019 0.603538 -0.291886
0.124343 0.601365 -0.291199
0.127990 0.601783 -0.291584
0.132194 0.606220 -0.293634
0.136203 0.608926 -0.294974
0.139509 0.606613 -0.294242
0.143570 0.609401 -0.295625
0.145362 0.597501 -0.290922
0.150417 0.606473 -0.294878
0.154415 0.608535 -0.295973
0.157530 0.605301 -0.294872
0.160840 0.603320 -0.294294
0.164321 0.602356 -0.294142
0.168005 0.602487 -0.294451
0.171778 0.603038 -0.294938
0.176868 0.610184 -0.298184
0.180092 0.607729 -0.297427
0.182437 0.601131 -0.294941
0.186288 0.601880 -0.295529
0.190142 0.602565 -0.296097
0.194081 0.603560 -0.296799
0.197822 0.603604 -0.297109
0.201545 0.603530 -0.297373
0.205086 0.602652 -0.297305
0.208920 0.602974 -0.297747
0.213694 0.606999 -0.299755
0.217546 0.607200 -0.300158
0.221009 0.605854 -0.299914
0.229610 0.623863 -0.307860
0.229755 0.609908 -0.302296
0.231725 0.603049 -0.299733
0.235176 0.601668 -0.299493
0.239257 0.602483 -0.300192
0.243004 0.602081 -0.300379
0.246675 0.601390 -0.300450
0.250612 0.601551 -0.300890
0.254496 0.601489 -0.301241
0.258812 0.602755 -0.302166
0.263030 0.603620 -0.302929
0.266847 0.603171 -0.303136
0.270732 0.602894 -0.303423
0.274280 0.601576 -0.303269
0.278163 0.601228 -0.303538
0.284024 0.606529 -0.306247
0.288434 0.607502 -0.307103
0.292435 0.607255 -0.307439
0.295451 0.604262 -0.306594
0.299311 0.603590 -0.306759
0.302131 0.600123 -0.305715
0.305470 0.598068 -0.305288
0.310130 0.599433 -0.306353
0.315492 0.602490 -0.308163
0.319297 0.601509 -0.308221
0.323045 0.600372 -0.308215
0.328147 0.602509 -0.309647
0.331957 0.601446 -0.309682
0.336150 0.601274 -0.310112
0.340403 0.601202 -0.310591
0.344362 0.600418 -0.310758
0.348244 0.599443 -0.310843
0.351963 0.598093 -0.310762
0.358002 0.601860 -0.312949
0.366014 0.609790 -0.316988
0.368700 0.606052 -0.315852
0.370088 0.599636 -0.313518
0.370596 0.591527 -0.310416
0.376446 0.594637 -0.312310
0.383083 0.599264 -0.314882
0.385651 0.595575 -0.313729
0.388095 0.591731 -0.312494
0.392030 0.590911 -0.312603
0.397481 0.593062 -0.314038
0.400700 0.590895 -0.313518
0.403236 0.587505 -0.312430
0.405087 0.582932 -0.310789
0.411269 0.586516 -0.312818
0.418291 0.591596 -0.315511
0.426013 0.597873 -0.318734
0.429232 0.595989 -0.318237
0.433715 0.596441 -0.318778
0.436971 0.594786 -0.318338
0.441684 0.595756 -0.319069
0.446244 0.596510 -0.319677
0.448713 0.593757 -0.318660
0.447534 0.584981 -0.314865
0.451039 0.584270 -0.314723
0.461885 0.595797 -0.320147
0.463901 0.592715 -0.318869
0.467000 0.591532 -0.318431
0.468832 0.588412 -0.317079
0.468164 0.581434 -0.313934
0.461529 0.565203 -0.306527
-0.368894 0.595511 -0.286258
-0.365970 0.596124 -0.286848
-0.363965 0.598485 -0.288134
-0.360414 0.598204 -0.288316
-0.356957 0.598187 -0.288585
-0.353843 0.598895 -0.289129
-0.352013 0.602091 -0.290675
-0.347498 0.600429 -0.290200
-0.344944 0.602526 -0.291250
-0.340748 0.601632 -0.291045
-0.336568 0.600840 -0.290860
-0.334351 0.603935 -0.292256
-0.331327 0.605593 -0.293038
-0.327776 0.606321 -0.293415
-0.324987 0.608671 -0.294442
-0.319087 0.604833 -0.292891
-0.315598 0.605922 -0.293358
-0.311865 0.606589 -0.293632
-0.307508 0.606017 -0.293377
-0.303394 0.605998 -0.293334
-0.299548 0.606598 -0.293532
-0.295766 0.607393 -0.293796
-0.292041 0.608364 -0.294121
-0.288243 0.609223 -0.294387
-0.284104 0.609353 -0.294342
-0.279388 0.608173 -0.293747
-0.275649 0.609245 -0.294074
-0.271008 0.608221 -0.293530
-0.267108 0.608938 -0.293697
-0.263273 0.609825 -0.293930
-0.258140 0.607532 -0.292850
-0.254090 0.607858 -0.292845
-0.249945 0.607935 -0.292736
-0.246097 0.608751 -0.292930
-0.241628 0.607944 -0.292456
-0.237477 0.607921 -0.292305
-0.233150 0.607393 -0.291948
-0.229378 0.608329 -0.292193
-0.225333 0.608494 -0.292125
-0.221304 0.608671 -0.292063
-0.217375 0.609096 -0.292107
-0.213015 0.608233 -0.291626
-0.208408 0.606564 -0.290820
-0.204434 0.606700 -0.290756
-0.200605 0.607235 -0.290861
-0.196052 0.605481 -0.290034
-0.192357 0.606341 -0.290280
-0.188523 0.606729 -0.290339
-0.185036 0.608220 -0.290852
-0.181009 0.607911 -0.290636
-0.176910 0.607291 -0.290298
-0.172456 0.605365 -0.289433
-0.169143 0.607350 -0.290169
-0.165567 0.608411 -0.290533
-0.160797 0.605074 -0.289109
-0.157695 0.607809 -0.290167
-0.153709 0.607221 -0.289874
-0.149827 0.606964 -0.289722
-0.145949 0.606665 -0.289559
-0.142257 0.607059 -0.289683
-0.138207 0.605932 -0.289192
-0.134889 0.607822 -0.289937
-0.131488 0.609390 -0.290554
-0.127276 0.607367 -0.289715
-0.123498 0.607182 -0.289629
-0.119808 0.607353 -0.289693
-0.116137 0.607580 -0.289784
-0.112501 0.607944 -0.289936
-0.108539 0.606642 -0.289414
-0.104718 0.605956 -0.289148
-0.101246 0.607044 -0.289609
-0.097578 0.607076 -0.289644
-0.093905 0.607044 -0.289658
-0.090187 0.606708 -0.289552
-0.086540 0.606733 -0.289598
-0.083214 0.608691 -0.290436
-0.079558 0.608645 -0.290460
-0.075786 0.607798 -0.290163
-0.072102 0.607451 -0.290073
-0.068438 0.607180 -0.290018
-0.064807 0.607097 -0.290043
-0.061257 0.607582 -0.290304
-0.057619 0.607376 -0.290286
-0.053855 0.606092 -0.289833
-0.050258 0.606085 -0.289903
-0.046873 0.607931 -0.290734
-0.043213 0.607355 -0.290580
-0.039573 0.606894 -0.290475
-0.036003 0.607065 -0.290632
-0.032585 0.608859 -0.291456
-0.029072 0.609748 -0.291913
-0.025488 0.609860 -0.292056
-0.021880 0.609639 -0.292066
-0.018553 0.613226 -0.293638
-0.014793 0.610926 -0.292802
-0.011205 0.610973 -0.292931
-0.007551 0.609848 -0.292581
-0.004043 0.611272 -0.293280
-0.000177 0.605463 -0.291015
0.003324 0.606824 -0.291693
0.007046 0.602650 -0.290102
0.010583 0.602857 -0.290311
0.014065 0.605052 -0.291340
0.017519 0.609417 -0.293265
0.021053 0.611673 -0.294327
0.024679 0.608760 -0.293265
0.028282 0.605010 -0.291860
0.031854 0.599326 -0.289660
0.035407 0.615000 -0.296261
0.038967 0.608269 -0.293633
0.042508 0.605617 -0.292689
0.046040 0.603992 -0.292169
0.049589 0.603797 -0.292242
0.053161 0.604540 -0.292705
0.056850 0.608715 -0.294589
0.060324 0.605820 -0.293555
0.063871 0.605360 -0.293528
0.067426 0.605123 -0.293597
0.070997 0.605203 -0.293799
0.074594 0.605711 -0.294182
0.078172 0.605774 -0.294382
0.081745 0.605728 -0.294541
0.085299 0.605392 -0.294582
0.089114 0.608491 -0.296053
0.092666 0.607926 -0.296004
0.096068 0.605668 -0.295254
0.100386 0.613657 -0.298772
0.103591 0.609215 -0.297118
0.106448 0.601749 -0.294205
0.110268 0.604013 -0.295349
0.114358 0.608472 -0.297413
0.117577 0.605013 -0.296176
0.121052 0.603927 -0.295932
0.124727 0.604476 -0.296375
0.128316 0.604287 -0.296512
0.132175 0.606060 -0.297475
0.136244 0.609157 -0.298997
0.140227 0.611417 -0.300174
0.143098 0.606166 -0.298202
0.146964 0.607562 -0.299024
0.150628 0.607587 -0.299274
0.154080 0.606302 -0.298976
0.157586 0.605375 -0.298832
0.160882 0.603277 -0.298198
0.164291 0.601883 -0.297864
0.167879 0.601480 -0.297952
0.171901 0.603316 -0.298990
0.176619 0.608540 -0.301466
0.179564 0.604720 -0.300123
0.182522 0.601110 -0.298870
0.185949 0.599841 -0.298612
0.190136 0.602066 -0.299841
0.194001 0.602709 -0.300405
0.197660 0.602385 -0.300563
0.201412 0.602428 -0.300882
0.205178 0.602486 -0.301213
0.209025 0.602831 -0.301672
0.213096 0.604014 -0.302495
0.216732 0.603402 -0.302557
0.219891 0.600935 -0.301830
0.223952 0.601918 -0.302586
0.226893 0.598687 -0.301540
0.230785 0.598975 -0.302009
0.234980 0.600280 -0.302921
0.239051 0.601058 -0.303614
0.242983 0.601284 -0.304077
0.246954 0.601585 -0.304578
0.250838 0.601541 -0.304938
0.254804 0.601714 -0.305398
0.258914 0.602291 -0.306040
0.262698 0.601782 -0.306219
0.266488 0.601254 -0.306395
0.270513 0.601407 -0.306875
0.274583 0.601636 -0.307394
0.278338 0.600888 -0.307495
0.282801 0.602146 -0.308477
0.288111 0.605705 -0.310474
0.291326 0.603275 -0.309861
0.294704 0.601315 -0.309457
0.299287 0.602614 -0.310489
0.302913 0.601282 -0.310372
0.305769 0.597928 -0.309370
0.311189 0.601227 -0.311303
0.315063 0.600457 -0.311450
0.319465 0.600981 -0.312174
0.323564 0.600698 -0.312547
0.327913 0.600981 -0.313176
0.331772 0.600042 -0.313266
0.336103 0.600199 -0.313848
0.340622 0.600746 -0.314607
0.344380 0.599496 -0.314568
0.348833 0.599815 -0.315231
0.352782 0.598966 -0.315373
0.356904 0.598490 -0.315682
0.363626 0.603643 -0.318522
0.369471 0.606759 -0.320451
0.369052 0.596518 -0.316355
0.371042 0.591554 -0.314627
0.376151 0.593136 -0.315849
0.383321 0.598865 -0.318949
0.386473 0.596369 -0.318315
0.390985 0.596635 -0.318925
0.393462 0.592909 -0.317708
0.397433 0.592179 -0.317841
0.397925 0.584818 -0.314932
0.402017 0.584465 -0.315205
0.406378 0.584653 -0.315710
0.411112 0.585558 -0.316526
0.416040 0.586835 -0.317497
0.423557 0.592816 -0.320611
0.429407 0.595730 -0.322298
0.433344 0.595248 -0.322403
0.437883 0.595888 -0.323001
0.442225 0.596236 -0.323439
0.446477 0.596492 -0.323810
0.447929 0.592046 -0.321983
0.443926 0.578567 -0.315950
0.444883 0.573696 -0.313866
0.459365 0.591368 -0.322184
0.463518 0.591867 -0.322532
0.465856 0.589492 -0.321520
0.469785 0.589805 -0.321726
0.473856 0.590422 -0.322044
0.468091 0.575533 -0.315153
-0.369662 0.596483 -0.290471
-0.366217 0.596145 -0.290684
-0.363557 0.597300 -0.291496
-0.360781 0.598362 -0.292249
-0.357246 0.598165 -0.292456
-0.356799 0.603716 -0.295037
-0.350952 0.599488 -0.293519
-0.347641 0.600008 -0.293958
-0.343744 0.599528 -0.293957
-0.342350 0.603892 -0.295957
-0.336865 0.600577 -0.294724
-0.334684 0.603694 -0.296159
-0.332666 0.607280 -0.297769
-0.327957 0.605691 -0.297192
-0.322460 0.602566 -0.295949
-0.320220 0.606043 -0.297451
-0.315618 0.604828 -0.296967
-0.311631 0.604922 -0.297014
-0.307660 0.605111 -0.297082
-0.303668 0.605311 -0.297138
-0.300042 0.606351 -0.297530
-0.296257 0.607109 -0.297789
-0.292688 0.608398 -0.298257
-0.288771 0.608972 -0.298413
-0.284465 0.608704 -0.298206
-0.279564 0.607081 -0.297422
-0.275670 0.607765 -0.297594
-0.271527 0.607887 -0.297524
-0.267535 0.608375 -0.297600
-0.263416 0.608563 -0.297546
-0.259547 0.609360 -0.297741
-0.254612 0.607512 -0.296830
-0.250795 0.608418 -0.297065
-0.246833 0.608954 -0.297144
-0.242574 0.608708 -0.296896
-0.238257 0.608271 -0.296570
-0.233811 0.607444 -0.296081
-0.230135 0.608653 -0.296442
-0.225907 0.608335 -0.296168
-0.222024 0.608938 -0.296281
-0.217956 0.608988 -0.296166
-0.213194 0.606982 -0.295201
-0.208885 0.606200 -0.294748
-0.204923 0.606387 -0.294701
-0.200881 0.606290 -0.294541
-0.196575 0.605321 -0.294024
-0.192364 0.604568 -0.293602
-0.189320 0.607496 -0.294709
-0.185442 0.607746 -0.294712
-0.181229 0.606836 -0.294239
-0.177612 0.607866 -0.294575
-0.173399 0.606819 -0.294057
-0.169385 0.606387 -0.293799
-0.165695 0.607051 -0.293999
-0.161930 0.607414 -0.294081
-0.157895 0.606731 -0.293735
-0.154217 0.607332 -0.293926
-0.150382 0.607294 -0.293858
-0.146583 0.607352 -0.293835
-0.142777 0.607332 -0.293785
-0.139132 0.607931 -0.293996
-0.135409 0.608180 -0.294068
-0.131578 0.607918 -0.293934
-0.127644 0.607142 -0.293593
-0.123780 0.606599 -0.293354
-0.120170 0.607163 -0.293577
-0.116442 0.607151 -0.293567
-0.112723 0.607139 -0.293561
-0.109025 0.607185 -0.293584
-0.105241 0.606743 -0.293411
-0.101708 0.607565 -0.293765
-0.097912 0.606957 -0.293532
-0.094047 0.605887 -0.293114
-0.090388 0.605901 -0.293147
-0.086895 0.606855 -0.293573
-0.083423 0.607965 -0.294067
-0.079838 0.608388 -0.294283
-0.076046 0.607448 -0.293939
-0.072366 0.607165 -0.293870
-0.068673 0.606727 -0.293742
-0.064989 0.606289 -0.293618
-0.061522 0.607413 -0.294143
-0.058009 0.608234 -0.294546
-0.054333 0.607754 -0.294416
-0.050704 0.607604 -0.294425
-0.047119 0.607787 -0.294576
-0.043522 0.607854 -0.294683
-0.039683 0.605531 -0.293802
-0.036126 0.605824 -0.294009
-0.032672 0.607232 -0.294681
-0.029430 0.611177 -0.296408
-0.025658 0.609165 -0.295670
-0.022000 0.608338 -0.295425
-0.018425 0.608500 -0.295594
-0.014781 0.607643 -0.295343
-0.011147 0.606789 -0.295096
-0.007747 0.609794 -0.296455
-0.003975 0.606320 -0.295125
-0.000442 0.607078 -0.295557
0.003130 0.607067 -0.295672
0.006721 0.606544 -0.295576
0.010341 0.604986 -0.295053
0.013929 0.603956 -0.294751
0.017415 0.606885 -0.296101
0.020916 0.610555 -0.297763
0.024508 0.610159 -0.297735
0.028100 0.609238 -0.297490
0.031677 0.610171 -0.298021
0.035263 0.610977 -0.298503
0.038820 0.606003 -0.296573
0.042371 0.604714 -0.296183
0.045908 0.603298 -0.295743
0.049448 0.602643 -0.295623
0.053015 0.603229 -0.296025
0.056654 0.605897 -0.297302
0.060263 0.606943 -0.297902
0.063828 0.606654 -0.297947
0.067492 0.608532 -0.298903
0.070901 0.605024 -0.297602
0.074478 0.605099 -0.297807
0.078152 0.606693 -0.298653
0.081673 0.605726 -0.298427
0.085185 0.604716 -0.298184
0.088755 0.604582 -0.298312
0.092164 0.602435 -0.297595
0.095624 0.601107 -0.297226
0.098713 0.595818 -0.295188
0.102751 0.600901 -0.297527
0.106298 0.600612 -0.297604
0.110045 0.602189 -0.298472
0.114210 0.607353 -0.300862
0.117585 0.605242 -0.300179
0.121149 0.604827 -0.300216
0.124791 0.605033 -0.300520
0.128358 0.604617 -0.300563
0.131820 0.603427 -0.300281
0.134849 0.599231 -0.298726
0.139067 0.603398 -0.300726
0.142469 0.601872 -0.300311
0.145885 0.600498 -0.299964
0.149748 0.601937 -0.300817
0.153548 0.602877 -0.301463
0.157370 0.603847 -0.302127
0.162411 0.611604 -0.305694
0.166099 0.611469 -0.305898
0.170159 0.613291 -0.306943
0.174853 0.618261 -0.309342
0.175748 0.603734 -0.303394
0.179477 0.603867 -0.303728
0.183076 0.603326 -0.303778
0.186243 0.600751 -0.302957
0.190156 0.601670 -0.303643
0.193783 0.601225 -0.303747
0.197773 0.602348 -0.304532
0.201668 0.602969 -0.305107
0.205488 0.603209 -0.305523
0.208870 0.601608 -0.305149
0.212738 0.601974 -0.305630
0.216697 0.602634 -0.306245
0.220107 0.601121 -0.305924
0.223219 0.598504 -0.305129
0.227602 0.600624 -0.306396
0.230933 0.598815 -0.305962
0.234889 0.599247 -0.306508
0.239061 0.600364 -0.307360
0.243259 0.601483 -0.308220
0.247361 0.602190 -0.308909
0.251144 0.601775 -0.309113
0.255126 0.601967 -0.309590
0.259235 0.602505 -0.310226
0.262830 0.601373 -0.310136
0.266686 0.601031 -0.310399
0.271263 0.602821 -0.311608
0.274785 0.601376 -0.311399
0.278586 0.600738 -0.311552
0.282262 0.599715 -0.311541
0.286780 0.601048 -0.312579
0.291483 0.602804 -0.313814
0.294508 0.599865 -0.312971
0.298629 0.599915 -0.313462
0.302369 0.598906 -0.313488
0.306887 0.599907 -0.314415
0.310933 0.599616 -0.314773
0.315340 0.600201 -0.315528
0.319556 0.600244 -0.316047
0.323542 0.599676 -0.316297
0.327587 0.599220 -0.316601
0.332391 0.600548 -0.317713
0.336508 0.600178 -0.318065
0.340373 0.599192 -0.318141
0.344216 0.598148 -0.318192
0.349013 0.599250 -0.319217
0.352823 0.598093 -0.319219
0.356017 0.595582 -0.318602
0.361759 0.598638 -0.320519
0.365218 0.596704 -0.320161
0.367438 0.592182 -0.318614
0.370837 0.590222 -0.318230
0.377181 0.594366 -0.320637
0.382536 0.596386 -0.322068
0.390770 0.604140 -0.326132
0.393658 0.601100 -0.325225
0.396674 0.598393 -0.324456
0.394549 0.585812 -0.319110
0.393781 0.576142 -0.315080
0.399091 0.578213 -0.316464
0.404280 0.580044 -0.317722
0.409422 0.581779 -0.318920
0.415355 0.584962 -0.320774
0.422483 0.590282 -0.323607
0.428446 0.593455 -0.325422
0.434259 0.596350 -0.327087
0.437865 0.595378 -0.326925
0.441999 0.595406 -0.327205
0.446680 0.596441 -0.327929
0.449096 0.593675 -0.326849
0.437449 0.567345 -0.314709
0.435274 0.557391 -0.310200
0.453639 0.581664 -0.321696
0.464586 0.593421 -0.327307
0.465928 0.589450 -0.325519
0.470126 0.590233 -0.325932
0.472512 0.588192 -0.324993
0.439419 0.530057 -0.297726
-0.369258 0.595423 -0.293837
-0.366281 0.595868 -0.294391
-0.363354 0.596505 -0.295006
-0.360528 0.597432 -0.295722
-0.360594 0.603716 -0.298676
-0.355406 0.600596 -0.297642
-0.352129 0.601047 -0.298091
-0.347652 0.599367 -0.297617
-0.345117 0.601401 -0.298691
-0.341935 0.602339 -0.299278
-0.336991 0.600008 -0.298456
-0.333961 0.601427 -0.299202
-0.331183 0.603456 -0.300183
-0.327738 0.604290 -0.300636
-0.324184 0.605002 -0.301016
-0.320412 0.605366 -0.301226
-0.315332 0.603129 -0.300313
-0.311460 0.603407 -0.300447
-0.307814 0.604226 -0.300792
-0.304334 0.605470 -0.301300
-0.300994 0.607096 -0.301954
-0.297401 0.608252 -0.302393
-0.293620 0.609064 -0.302671
-0.289050 0.608171 -0.302213
-0.284837 0.608084 -0.302085
-0.280049 0.606701 -0.301397
-0.275663 0.606227 -0.301085
-0.272004 0.607456 -0.301486
-0.267938 0.607754 -0.301486
-0.264137 0.608697 -0.301753
-0.259800 0.608346 -0.301466
-0.255349 0.607693 -0.301049
-0.251099 0.607510 -0.300828
-0.247222 0.608257 -0.300997
-0.243357 0.609031 -0.301176
-0.238994 0.608491 -0.300801
-0.234624 0.607885 -0.300397
-0.230623 0.608230 -0.300396
-0.226522 0.608273 -0.300270
-0.222474 0.608428 -0.300192
-0.218681 0.609274 -0.300408
-0.213752 0.606813 -0.299235
-0.209551 0.606370 -0.298916
-0.205637 0.606730 -0.298938
-0.201629 0.606767 -0.298828
-0.197663 0.606886 -0.298757
-0.193357 0.605892 -0.298223
-0.190184 0.608450 -0.299186
-0.186178 0.608325 -0.299027
-0.182285 0.608523 -0.299009
-0.178294 0.608343 -0.298837
-0.174081 0.607344 -0.298327
-0.170128 0.607167 -0.298168
-0.166053 0.606493 -0.297806
-0.162211 0.606595 -0.297775
-0.158574 0.607418 -0.298051
-0.154431 0.606295 -0.297517
-0.150817 0.607130 -0.297809
-0.147101 0.607550 -0.297933
-0.143370 0.607874 -0.298022
-0.139596 0.607983 -0.298026
-0.135550 0.606900 -0.297537
-0.131772 0.606878 -0.297498
-0.128015 0.606899 -0.297481
-0.124227 0.606737 -0.297393
-0.120601 0.607266 -0.297600
-0.116938 0.607604 -0.297732
-0.113336 0.608212 -0.297981
-0.109654 0.608407 -0.298063
-0.105846 0.607915 -0.297863
-0.102077 0.607563 -0.297725
-0.098406 0.607677 -0.297788
-0.094589 0.606937 -0.297497
-0.090632 0.605313 -0.296842
-0.087130 0.606239 -0.297258
-0.083758 0.607980 -0.298020
-0.079952 0.607051 -0.297668
-0.076245 0.606671 -0.297550
-0.072652 0.606991 -0.297730
-0.069147 0.607912 -0.298165
-0.065379 0.606962 -0.297821
-0.061830 0.607541 -0.298121
-0.058265 0.608009 -0.298379
-0.054634 0.607942 -0.298417
-0.050956 0.607431 -0.298272
-0.047347 0.607458 -0.298356
-0.043718 0.607262 -0.298350
-0.040034 0.606485 -0.298105
-0.036241 0.604489 -0.297350
-0.032661 0.604523 -0.297452
-0.029059 0.604281 -0.297440
-0.025822 0.608371 -0.299251
-0.022034 0.605910 -0.298314
-0.018369 0.604754 -0.297929
-0.014814 0.605017 -0.298142
-0.011480 0.608788 -0.299834
-0.007915 0.609212 -0.300123
-0.004310 0.608931 -0.300118
-0.000621 0.606851 -0.299357
0.002951 0.606950 -0.299518
0.006568 0.605856 -0.299179
0.010173 0.604814 -0.298864
0.013716 0.605549 -0.299301
0.017276 0.605855 -0.299560
0.020834 0.606400 -0.299923
0.024386 0.607757 -0.300632
0.027962 0.608070 -0.300903
0.031542 0.607812 -0.300936
0.035117 0.605105 -0.299936
0.038685 0.605501 -0.300250
0.042274 0.607334 -0.301176
0.045935 0.612420 -0.303483
0.049514 0.611260 -0.303148
0.052998 0.606832 -0.301430
0.056539 0.605619 -0.301077
0.060171 0.607212 -0.301917
0.063850 0.609541 -0.303073
0.067412 0.608772 -0.302916
0.070968 0.608009 -0.302765
0.074458 0.606173 -0.302160
0.078036 0.606047 -0.302285
0.081636 0.606226 -0.302542
0.085073 0.604068 -0.301806
0.088797 0.605921 -0.302783
0.092004 0.601137 -0.300932
0.095420 0.599311 -0.300345
0.099189 0.601515 -0.301481
0.102241 0.596005 -0.299324
0.107200 0.609853 -0.305447
0.110754 0.609126 -0.305343
0.114285 0.608227 -0.305168
0.117509 0.604734 -0.303885
0.121300 0.606162 -0.304714
0.124856 0.605586 -0.304686
0.128303 0.604198 -0.304313
0.131902 0.603982 -0.304447
0.135548 0.604080 -0.304719
0.139189 0.604104 -0.304964
0.142875 0.604384 -0.305323
0.146427 0.603759 -0.305295
0.149967 0.603063 -0.305241
0.153692 0.603481 -0.305671
0.157103 0.602010 -0.305289
0.162237 0.610308 -0.309137
0.166631 0.614041 -0.311019
0.169776 0.610875 -0.309918
0.171466 0.600291 -0.305603
0.176336 0.606287 -0.308481
0.180680 0.609346 -0.310093
0.183940 0.607009 -0.309366
0.186702 0.602413 -0.307659
0.190013 0.600507 -0.307125
0.194544 0.604093 -0.308989
0.198278 0.604000 -0.309257
0.202257 0.604910 -0.309967
0.205726 0.603613 -0.309720
0.208902 0.601132 -0.308958
0.213068 0.602665 -0.309959
0.217059 0.603405 -0.310619
0.221129 0.604374 -0.311387
0.224123 0.601218 -0.310348
0.227372 0.599082 -0.309761
0.231732 0.600987 -0.310960
0.235725 0.601478 -0.311543
0.239744 0.601991 -0.312143
0.243870 0.602803 -0.312882
0.247614 0.602258 -0.313028
0.251338 0.601619 -0.313138
0.255197 0.601388 -0.313436
0.259203 0.601579 -0.313928
0.263291 0.601972 -0.314518
0.267081 0.601390 -0.314680
0.271574 0.602891 -0.315779
0.275552 0.602770 -0.316161
0.278647 0.600028 -0.315378
0.281743 0.597326 -0.314616
0.286391 0.599038 -0.315838
0.292073 0.603514 -0.318312
0.295271 0.601016 -0.317660
0.298363 0.598258 -0.316894
0.305151 0.605320 -0.320564
0.307171 0.599691 -0.318512
0.311305 0.599608 -0.318970
0.315959 0.600795 -0.320009
0.319995 0.600362 -0.320320
0.323529 0.598662 -0.320058
0.329156 0.602035 -0.322112
0.333677 0.602628 -0.322905
0.337297 0.601047 -0.322708
0.340226 0.597868 -0.321781
0.344292 0.597342 -0.322067
0.349472 0.599309 -0.323501
0.353721 0.599121 -0.323946
0.356831 0.596411 -0.323227
0.358663 0.590976 -0.321246
0.370675 0.607430 -0.329376
0.368331 0.593147 -0.323291
0.370771 0.589180 -0.321966
0.377712 0.594564 -0.324974
0.388611 0.607850 -0.331659
0.392274 0.606292 -0.331436
0.397031 0.606947 -0.332234
0.397510 0.599223 -0.329105
0.396228 0.588294 -0.324452
0.395180 0.578089 -0.320111
0.397946 0.575352 -0.319245
0.402360 0.575789 -0.319851
0.409196 0.580725 -0.322556
0.415651 0.584900 -0.324887
0.423194 0.590996 -0.328107
0.429295 0.594437 -0.330058
0.433578 0.594647 -0.330461
0.437910 0.594998 -0.330906
0.442799 0.596375 -0.331812
0.446146 0.595147 -0.331458
0.449650 0.594281 -0.331248
0.445649 0.580871 -0.325064
0.436754 0.559621 -0.315130
0.443674 0.564979 -0.317782
0.455048 0.577619 -0.323862
0.465127 0.588015 -0.328853
0.469608 0.589303 -0.329494
0.473027 0.588955 -0.329332
0.480387 0.594943 -0.332149
-0.369395 0.595339 -0.297601
-0.366359 0.595640 -0.298111
-0.363516 0.596387 -0.298790
-0.361253 0.598285 -0.299940
-0.358392 0.599228 -0.300662
-0.355474 0.600180 -0.301365
-0.351917 0.600067 -0.301591
-0.348878 0.601013 -0.302247
-0.345335 0.601124 -0.302521
-0.341640 0.601043 -0.302690
-0.337047 0.599333 -0.302136
-0.333617 0.599926 -0.302547
-0.330598 0.601423 -0.303325
-0.327356 0.602594 -0.303939
-0.324258 0.604159 -0.304701
-0.320854 0.605215 -0.305223
-0.315417 0.602214 -0.303979
-0.312933 0.605312 -0.305338
-0.308871 0.605248 -0.305318
-0.305315 0.606309 -0.305763
-0.301850 0.607644 -0.306309
-0.297989 0.608198 -0.306503
-0.293282 0.606950 -0.305906
-0.289087 0.606840 -0.305785
-0.285640 0.608444 -0.306388
-0.281964 0.609592 -0.306784
-0.276950 0.607689 -0.305858
-0.272275 0.606543 -0.305249
-0.268676 0.607927 -0.305718
-0.264542 0.608064 -0.305646
-0.260390 0.608156 -0.305548
-0.256450 0.608768 -0.305669
-0.251520 0.606890 -0.304719
-0.247664 0.607686 -0.304912
-0.243742 0.608310 -0.305030
-0.240134 0.609755 -0.305498
-0.235817 0.609323 -0.305162
-0.231030 0.607570 -0.304263
-0.226735 0.607085 -0.303907
-0.222853 0.607700 -0.304023
-0.219111 0.608700 -0.304306
-0.214651 0.607611 -0.303700
-0.210233 0.606565 -0.303115
-0.206255 0.606760 -0.303064
-0.202204 0.606689 -0.302903
-0.198036 0.606210 -0.302573
-0.194239 0.606834 -0.302717
-0.190421 0.607363 -0.302826
-0.186874 0.608747 -0.303303
-0.182933 0.608820 -0.303227
-0.178600 0.607522 -0.302573
-0.174613 0.607319 -0.302390
-0.170657 0.607163 -0.302233
-0.166804 0.607319 -0.302214
-0.162884 0.607184 -0.302077
-0.158499 0.605267 -0.301189
-0.154811 0.605863 -0.301374
-0.151032 0.606084 -0.301404
-0.147418 0.606918 -0.301701
-0.143843 0.607895 -0.302063
-0.139930 0.607468 -0.301836
-0.135975 0.606794 -0.301509
-0.132150 0.606605 -0.301394
-0.128118 0.605446 -0.300872
-0.124485 0.605986 -0.301077
-0.121240 0.608303 -0.302040
-0.117365 0.607697 -0.301769
-0.113530 0.607211 -0.301554
-0.109764 0.606998 -0.301459
-0.105970 0.606584 -0.301285
-0.102228 0.606380 -0.301205
-0.098639 0.606948 -0.301456
-0.095050 0.607504 -0.301707
-0.091221 0.606675 -0.301376
-0.087571 0.606812 -0.301459
-0.084118 0.608113 -0.302040
-0.080372 0.607621 -0.301866
-0.076500 0.606231 -0.301314
-0.072979 0.607069 -0.301712
-0.069346 0.607145 -0.301791
-0.065751 0.607462 -0.301977
-0.062051 0.606982 -0.301828
-0.058513 0.607689 -0.302188
-0.054899 0.607801 -0.302298
-0.051240 0.607502 -0.302238
-0.047584 0.607172 -0.302169
-0.043934 0.606832 -0.302098
-0.040318 0.606751 -0.302142
-0.036698 0.606594 -0.302157
-0.032938 0.604878 -0.301512
-0.029140 0.602523 -0.300599
-0.025794 0.605249 -0.301851
-0.022145 0.604442 -0.301602
-0.018542 0.604114 -0.301561
-0.015042 0.605222 -0.302135
-0.011725 0.609347 -0.303998
-0.008093 0.608764 -0.303858
-0.004413 0.607160 -0.303286
-0.000792 0.606399 -0.303077
0.002833 0.605369 -0.302756
0.006419 0.605027 -0.302731
0.009963 0.605846 -0.303204
0.013521 0.606399 -0.303567
0.017123 0.605361 -0.303254
0.020698 0.605155 -0.303298
0.024271 0.604893 -0.303322
0.027835 0.605493 -0.303717
0.031406 0.605751 -0.303970
0.034978 0.604597 -0.303620
0.038558 0.606505 -0.304585
0.042169 0.609404 -0.305978
0.045801 0.611783 -0.307153
0.049420 0.612381 -0.307567
0.052906 0.607606 -0.305677
0.056473 0.606943 -0.305555
0.060140 0.609198 -0.306689
0.063737 0.609155 -0.306839
0.067308 0.608516 -0.306736
0.070793 0.606272 -0.305944
0.074336 0.605435 -0.305760
0.077956 0.605967 -0.306170
0.081658 0.607625 -0.307068
0.085183 0.606524 -0.306779
0.088581 0.603858 -0.305817
0.092516 0.608121 -0.307851
0.095903 0.605482 -0.306906
0.099511 0.605518 -0.307120
0.103726 0.611839 -0.310059
0.107288 0.611042 -0.309920
0.110915 0.610894 -0.310067
0.114342 0.608924 -0.309426
0.117713 0.606616 -0.308641
0.121220 0.605580 -0.308410
0.124763 0.604878 -0.308328
0.128374 0.604712 -0.308482
0.131912 0.603993 -0.308399
0.135502 0.603655 -0.308486
0.139189 0.603965 -0.308859
0.142829 0.603908 -0.309076
0.146410 0.603439 -0.309117
0.150040 0.603267 -0.309291
0.153854 0.604174 -0.309942
0.157333 0.603038 -0.309704
0.161874 0.607923 -0.312107
0.165687 0.608502 -0.312630
0.169403 0.608497 -0.312902
0.172681 0.606177 -0.312162
0.177075 0.609576 -0.313940
0.181270 0.611785 -0.315201
0.184577 0.609577 -0.314524
0.186994 0.603275 -0.312045
0.190589 0.602611 -0.312054
0.194547 0.603559 -0.312781
0.198421 0.604054 -0.313313
0.202193 0.604048 -0.313630
0.205806 0.603336 -0.313639
0.209142 0.601483 -0.313148
0.212713 0.600602 -0.313093
0.216021 0.598684 -0.312581
0.219951 0.599181 -0.313149
0.223594 0.598534 -0.313214
0.226597 0.595518 -0.312228
0.232099 0.601577 -0.315297
0.236453 0.603300 -0.316441
0.240224 0.602887 -0.316638
0.244023 0.602537 -0.316869
0.247782 0.602017 -0.317031
0.251468 0.601231 -0.317079
0.255448 0.601365 -0.317547
0.259405 0.601377 -0.317967
0.263112 0.600559 -0.318021
0.267793 0.602697 -0.319415
0.271961 0.603170 -0.320066
0.275725 0.602383 -0.320155
0.278922 0.599921 -0.319489
0.282859 0.599606 -0.319803
0.286958 0.599707 -0.320313
0.291840 0.601923 -0.321793
0.296479 0.603359 -0.322927
0.301174 0.604848 -0.324094
0.303720 0.600563 -0.322628
0.307117 0.598575 -0.322215
0.311772 0.599825 -0.323290
0.316450 0.601047 -0.324361
0.321057 0.602013 -0.325320
0.323734 0.598173 -0.324070
0.330087 0.603287 -0.326953
0.333092 0.600234 -0.326071
0.335631 0.596136 -0.324703
0.340503 0.597520 -0.325875
0.345672 0.599507 -0.327332
0.350868 0.601471 -0.328781
0.354238 0.599294 -0.328303
0.357627 0.597191 -0.327856
0.362948 0.599300 -0.329373
0.366984 0.598593 -0.329571
0.369209 0.594074 -0.327976
0.370642 0.588012 -0.325643
0.376470 0.591125 -0.327613
0.385786 0.601235 -0.332878
0.394023 0.608937 -0.337010
0.397715 0.607465 -0.336805
0.400105 0.603497 -0.335404
0.398965 0.592821 -0.330803
0.400184 0.586927 -0.328443
0.401820 0.581981 -0.326510
0.406063 0.582049 -0.326939
0.412558 0.586309 -0.329346
0.418728 0.589928 -0.331431
0.426125 0.595733 -0.334540
0.429644 0.594543 -0.334289
0.433411 0.593874 -0.334261
0.436893 0.592782 -0.334005
0.441505 0.593737 -0.334702
0.445443 0.593586 -0.334843
0.449111 0.593053 -0.334773
0.450179 0.588230 -0.332616
0.449910 0.581343 -0.329439
0.447487 0.571100 -0.324620
0.452257 0.572901 -0.325554
0.462140 0.583054 -0.330472
0.471144 0.591703 -0.334640
0.476382 0.594277 -0.335863
0.467200 0.574049 -0.326109
-0.366225 0.589486 -0.298873
-0.366027 0.594717 -0.301523
-0.363717 0.596366 -0.302610
-0.361051 0.597500 -0.303455
-0.358374 0.598727 -0.304320
-0.354974 0.598753 -0.304642
-0.351983 0.599628 -0.305310
-0.348879 0.600406 -0.305913
-0.345313 0.600425 -0.306163
-0.341482 0.600036 -0.306212
-0.337925 0.600256 -0.306502
-0.334233 0.600309 -0.306696
-0.330639 0.600641 -0.306987
-0.327403 0.601771 -0.307604
-0.324154 0.602981 -0.308233
-0.320553 0.603586 -0.308577
-0.317389 0.605168 -0.309325
-0.313445 0.605248 -0.309397
-0.309950 0.606330 -0.309886
-0.306373 0.607325 -0.310318
-0.302562 0.607898 -0.310548
-0.297924 0.606741 -0.310008
-0.292789 0.604513 -0.308984
-0.289481 0.606319 -0.309704
-0.285908 0.607607 -0.310185
-0.281666 0.607433 -0.310016
-0.277491 0.607426 -0.309909
-0.273128 0.606997 -0.309608
-0.269025 0.607179 -0.309565
-0.265039 0.607653 -0.309642
-0.260819 0.607569 -0.309469
-0.256865 0.608133 -0.309573
-0.252660 0.608074 -0.309402
-0.248443 0.607967 -0.309206
-0.244410 0.608313 -0.309205
-0.240555 0.609116 -0.309401
-0.236363 0.609018 -0.309206
-0.231863 0.608052 -0.308634
-0.226986 0.605988 -0.307589
-0.223291 0.607127 -0.307932
-0.219438 0.607815 -0.308081
-0.215233 0.607469 -0.307785
-0.211371 0.608078 -0.307906
-0.207688 0.609198 -0.308251
-0.202582 0.605994 -0.306731
-0.198538 0.605911 -0.306564
-0.194504 0.605810 -0.306394
-0.190905 0.607048 -0.306806
-0.187201 0.607938 -0.307072
-0.183312 0.608200 -0.307072
-0.179306 0.608028 -0.306891
-0.174918 0.606484 -0.306124
-0.171106 0.606851 -0.306186
-0.167205 0.606863 -0.306100
-0.163569 0.607787 -0.306413
-0.158980 0.605160 -0.305203
-0.155156 0.605276 -0.305179
-0.151554 0.606201 -0.305508
-0.147951 0.607116 -0.305839
-0.144083 0.606949 -0.305710
-0.140356 0.607303 -0.305811
-0.136586 0.607450 -0.305828
-0.132458 0.606006 -0.305167
-0.128545 0.605395 -0.304870
-0.125212 0.607328 -0.305671
-0.121729 0.608613 -0.306199
-0.117920 0.608369 -0.306075
-0.113635 0.605752 -0.304938
-0.109853 0.605461 -0.304805
-0.105982 0.604657 -0.304456
-0.102344 0.604988 -0.304600
-0.098968 0.606712 -0.305347
-0.095525 0.608114 -0.305961
-0.091512 0.606295 -0.305196
-0.087900 0.606686 -0.305386
-0.084260 0.606895 -0.305501
-0.080613 0.607027 -0.305589
-0.076874 0.606533 -0.305411
-0.073176 0.606239 -0.305325
-0.069757 0.607822 -0.306049
-0.065911 0.606406 -0.305488
-0.062306 0.606651 -0.305645
-0.058701 0.606874 -0.305798
-0.055155 0.607554 -0.306150
-0.051458 0.606986 -0.305971
-0.047863 0.607228 -0.306143
-0.044297 0.607719 -0.306427
-0.040647 0.607418 -0.306374
-0.037036 0.607444 -0.306464
-0.033538 0.608644 -0.307065
-0.030403 0.614025 -0.309470
-0.025414 0.597919 -0.302621
-0.022094 0.600892 -0.303995
-0.018746 0.603863 -0.305373
-0.015439 0.607836 -0.307188
-0.011946 0.609479 -0.308001
-0.008328 0.609247 -0.308009
-0.004538 0.605755 -0.306612
-0.000921 0.605059 -0.306426
0.002653 0.605168 -0.306590
0.006212 0.605662 -0.306924
0.009772 0.606243 -0.307298
0.013374 0.605527 -0.307116
0.016954 0.605469 -0.307220
0.020527 0.605672 -0.307440
0.024126 0.604153 -0.306919
0.027687 0.605222 -0.307520
0.031263 0.605297 -0.307695
0.034841 0.606441 -0.308336
0.038432 0.607973 -0.309149
0.042032 0.608767 -0.309645
0.045656 0.610531 -0.310566
0.049219 0.608499 -0.309841
0.052813 0.608396 -0.309957
0.056389 0.607694 -0.309815
0.060021 0.608744 -0.310438
0.063563 0.607260 -0.309962
0.067126 0.606541 -0.309821
0.070697 0.606088 -0.309799
0.074282 0.605927 -0.309907
0.077948 0.607079 -0.310592
0.081492 0.606175 -0.310382
0.085057 0.605654 -0.310343
0.088868 0.608406 -0.311737
0.092587 0.609659 -0.312481
0.096021 0.607400 -0.311690
0.099505 0.605917 -0.311242
0.103481 0.609670 -0.313092
0.107054 0.609026 -0.313019
0.110595 0.608117 -0.312832
0.114114 0.607050 -0.312579
0.117636 0.606064 -0.312365
0.121037 0.604135 -0.311739
0.124655 0.604035 -0.311921
0.128255 0.603775 -0.312036
0.131746 0.602699 -0.311795
0.135320 0.602250 -0.311834
0.139032 0.602733 -0.312288
0.142733 0.603080 -0.312687
0.146290 0.602443 -0.312655
0.150141 0.603632 -0.313435
0.154139 0.605586 -0.314559
0.157792 0.605379 -0.314731
0.161273 0.604180 -0.314468
0.164788 0.603195 -0.314303
0.168308 0.602254 -0.314161
0.171844 0.601408 -0.314067
0.176940 0.608434 -0.317482
0.181284 0.611368 -0.319083
0.184433 0.608379 -0.318050
0.187387 0.604588 -0.316663
0.190933 0.603635 -0.316545
0.194427 0.602456 -0.316332
0.198403 0.603383 -0.317065
0.202034 0.602761 -0.317112
0.205668 0.602133 -0.317161
0.210191 0.605109 -0.318834
0.212821 0.600364 -0.317044
0.215367 0.595448 -0.315179
0.219034 0.594971 -0.315316
0.222891 0.595184 -0.315769
0.228582 0.602074 -0.319246
0.232582 0.602564 -0.319842
0.236469 0.602583 -0.320232
0.240162 0.601884 -0.320304
0.244172 0.602242 -0.320861
0.248072 0.602168 -0.321230
0.251877 0.601738 -0.321443
0.255992 0.602269 -0.322101
0.260053 0.602562 -0.322658
0.262922 0.599091 -0.321503
0.268358 0.603532 -0.323971
0.272152 0.602840 -0.324099
0.276003 0.602286 -0.324298
0.280435 0.603390 -0.325264
0.283771 0.601277 -0.324760
0.285333 0.594191 -0.321969
0.289338 0.594041 -0.322374
0.297959 0.606417 -0.328573
0.303258 0.609456 -0.330476
0.304358 0.601264 -0.327185
0.307050 0.597413 -0.325904
0.312127 0.599738 -0.327493
0.316700 0.600677 -0.328446
0.320738 0.600213 -0.328751
0.326065 0.602880 -0.330522
0.329310 0.600399 -0.329893
0.331785 0.596117 -0.328421
0.336012 0.596031 -0.328913
0.341352 0.598484 -0.330601
0.347433 0.602528 -0.333043
0.350660 0.600008 -0.332396
0.354477 0.598842 -0.332384
0.360204 0.601863 -0.334350
0.364408 0.601495 -0.334713
0.368397 0.600661 -0.334849
0.370772 0.596441 -0.333370
0.371470 0.588836 -0.330268
0.375716 0.588697 -0.330706
0.383252 0.595230 -0.334320
0.391456 0.602944 -0.338497
0.396812 0.604853 -0.339894
0.400026 0.602549 -0.339259
0.404210 0.602195 -0.339543
0.401962 0.589605 -0.333928
0.405432 0.588118 -0.333624
0.410565 0.589804 -0.334827
0.417958 0.595660 -0.338024
0.424974 0.600747 -0.340833
0.426301 0.595514 -0.338635
0.430339 0.595287 -0.338831
0.434222 0.594852 -0.338900
0.437469 0.593377 -0.338439
0.441392 0.593169 -0.338564
0.445178 0.592803 -0.338585
0.449502 0.593429 -0.339059
0.453559 0.593674 -0.339320
0.459178 0.596595 -0.340852
0.461152 0.593520 -0.339443
0.458794 0.583487 -0.334623
0.459266 0.578302 -0.332130
0.470968 0.591372 -0.338480
0.472920 0.588736 -0.337170
0.484015 0.600714 -0.342932
-0.372890 0.600890 -0.307602
-0.365566 0.593591 -0.304830
-0.363151 0.595006 -0.305839
-0.360410 0.595955 -0.306624
-0.357103 0.595988 -0.306986
-0.354145 0.596756 -0.307648
-0.351454 0.598122 -0.308551
-0.348307 0.598763 -0.309113
-0.344710 0.598665 -0.309327
