ply
format ascii 1.0
comment ---
element vertex 1771
property float x
property float y
property float z
element face 0
property list uchar uint vertex_indices
end_header
0.741112 0.584653 0.206503
0.748966 0.586657 0.207222
0.760064 0.591723 0.208515
0.764450 0.590184 0.208587
0.769340 0.589102 0.208747
0.775251 0.588951 0.209082
0.784722 0.592081 0.210036
0.793614 0.594564 0.210875
0.798862 0.593598 0.211069
0.804172 0.592651 0.211268
0.813125 0.594949 0.212087
0.818525 0.593976 0.212288
0.821967 0.591232 0.212151
0.829913 0.592429 0.212772
0.842516 0.597589 0.214162
0.848610 0.596994 0.214449
0.836537 0.580868 0.211726
0.835603 0.574387 0.210863
0.844741 0.576391 0.211652
0.858514 0.582138 0.213182
0.866719 0.583145 0.213791
0.858357 0.570600 0.211730
0.859714 0.566057 0.211242
0.908300 0.593285 0.217499
0.917851 0.594876 0.218257
0.925742 0.595082 0.218743
0.932358 0.594235 0.219022
0.943616 0.596862 0.220008
0.948294 0.594411 0.219971
0.952138 0.591311 0.219803
0.958064 0.589735 0.219946
0.953378 0.580347 0.218489
0.951670 0.573222 0.217490
0.954587 0.569478 0.217183
0.956337 0.564901 0.216704
1.000758 0.584290 0.221711
1.008331 0.583479 0.222040
1.030659 0.592678 0.224485
1.041135 0.593593 0.225198
1.048583 0.592372 0.225465
1.055128 0.590486 0.225594
1.059978 0.587433 0.225477
1.084774 0.597301 0.228142
1.090529 0.594631 0.228123
1.097659 0.592792 0.228287
1.110576 0.594532 0.229236
1.118668 0.593128 0.229508
1.127930 0.592368 0.229927
1.137296 0.591581 0.230347
1.148216 0.591638 0.230961
1.162200 0.593414 0.231968
1.173422 0.593405 0.232588
1.181844 0.591643 0.232825
1.187419 0.588155 0.232677
1.207863 0.593126 0.234452
1.213945 0.589742 0.234344
1.235996 0.595240 0.236273
1.243740 0.592575 0.236348
1.253086 0.590715 0.236615
1.266689 0.591068 0.237404
1.275252 0.588584 0.237544
1.287140 0.587779 0.238086
1.300811 0.587787 0.238830
1.320797 0.590916 0.240328
1.331716 0.589206 0.240695
1.349456 0.590833 0.241871
1.361868 0.589625 0.242384
1.372807 0.587578 0.242706
1.381798 0.584490 0.242784
1.405759 0.588523 0.244614
1.422122 0.588711 0.245525
1.432175 0.585797 0.245684
1.454120 0.588316 0.247206
1.474556 0.589944 0.248529
1.487051 0.587815 0.248927
1.499496 0.585584 0.249310
1.518301 0.586078 0.250400
1.535733 0.585839 0.251320
1.551057 0.584584 0.251995
1.569648 0.584631 0.253022
1.599897 0.589440 0.255313
1.612294 0.586666 0.255639
1.629185 0.585699 0.256451
1.642948 0.583416 0.256924
1.662974 0.583600 0.258069
1.687925 0.585641 0.259732
1.726890 0.592995 0.262865
0.218529 0.579803 0.169667
0.224348 0.599531 0.172300
0.227179 0.600006 0.172531
0.230017 0.600226 0.172735
0.233441 0.603521 0.173333
0.236995 0.607134 0.173979
0.237983 0.596468 0.172820
0.240859 0.596091 0.172968
0.243744 0.595606 0.173105
0.246849 0.596082 0.173369
0.249255 0.592972 0.173177
0.254087 0.601482 0.174479
0.257657 0.603585 0.174964
0.260661 0.602908 0.175095
0.264062 0.603938 0.175448
0.266905 0.602405 0.175471
0.269681 0.600582 0.175456
0.273336 0.602452 0.175924
0.278018 0.608392 0.176928
0.280279 0.604336 0.176624
0.282501 0.600248 0.176314
0.285299 0.598506 0.176311
0.288269 0.597450 0.176399
0.291125 0.595987 0.176431
0.295835 0.601285 0.177363
0.301125 0.608429 0.178544
0.305713 0.612839 0.179366
0.308617 0.611286 0.179390
0.309779 0.603895 0.178627
0.312199 0.600918 0.178454
0.315488 0.600859 0.178674
0.318636 0.600336 0.178830
0.322041 0.600624 0.179095
0.324571 0.598181 0.178988
0.328111 0.598881 0.179309
0.333041 0.603714 0.180196
0.337444 0.606824 0.180849
0.340468 0.605815 0.180937
0.343267 0.604178 0.180936
0.345047 0.599700 0.180541
0.347571 0.597405 0.180445
0.350982 0.597587 0.180692
0.355855 0.601691 0.181486
0.359607 0.602678 0.181847
0.362756 0.602037 0.181980
0.368153 0.607207 0.182928
0.372772 0.610228 0.183578
0.375227 0.607704 0.183446
0.379535 0.609823 0.183969
0.384856 0.614341 0.184835
0.390413 0.619284 0.185764
0.393610 0.618449 0.185872
0.394596 0.612406 0.185234
0.397544 0.611050 0.185264
0.399300 0.606967 0.184902
0.403367 0.608192 0.185301
0.406341 0.606913 0.185340
0.408877 0.604673 0.185238
0.411604 0.602872 0.185199
0.416449 0.605650 0.185825
0.419338 0.604167 0.185832
0.426978 0.612682 0.187300
0.431819 0.615144 0.187888
0.433042 0.610086 0.187372
0.432204 0.600925 0.186249
0.435072 0.599384 0.186245
0.438324 0.598604 0.186353
0.441986 0.598613 0.186578
0.445537 0.598371 0.186766
0.448289 0.596570 0.186723
0.454795 0.601887 0.187742
0.462845 0.609942 0.189175
0.466714 0.610036 0.189420
0.466606 0.602803 0.188564
0.468485 0.599293 0.188264
0.471764 0.598330 0.188348
0.474636 0.596631 0.188320
0.479867 0.599066 0.188920
0.484748 0.600806 0.189417
0.490671 0.604257 0.190178
0.494565 0.604150 0.190397
0.499632 0.605978 0.190915
0.501779 0.602872 0.190675
0.502143 0.596857 0.189986
0.513664 0.609094 0.192115
0.518240 0.609844 0.192475
0.514535 0.597337 0.190776
0.518865 0.597723 0.191078
0.525677 0.601939 0.191978
0.529210 0.600958 0.192070
0.530758 0.596918 0.191683
0.536378 0.599086 0.192270
0.545133 0.605868 0.193588
0.550991 0.608171 0.194205
0.552376 0.603815 0.193769
0.553225 0.598724 0.193215
0.558123 0.599520 0.193596
0.562263 0.599180 0.193797
0.565681 0.597782 0.193831
0.569795 0.597342 0.194019
0.579438 0.604518 0.195434
0.585801 0.607017 0.196102
0.589641 0.605998 0.196204
0.588505 0.598271 0.195219
0.592570 0.597570 0.195372
0.595860 0.595816 0.195355
0.598801 0.593599 0.195262
0.604914 0.595476 0.195840
0.613957 0.601022 0.197025
0.619582 0.602086 0.197478
0.619387 0.595781 0.196716
0.634188 0.608189 0.199051
0.641709 0.611353 0.199863
0.640160 0.603354 0.198821
0.636392 0.592781 0.197342
0.642465 0.594133 0.197855
0.648698 0.595603 0.198390
0.656900 0.599311 0.199306
0.662566 0.599953 0.199709
0.664193 0.595888 0.199318
0.669274 0.595791 0.199599
0.674991 0.596367 0.199998
0.678955 0.594925 0.200053
0.682705 0.593225 0.200066
0.690015 0.595419 0.200749
0.694865 0.594847 0.200959
0.700717 0.595318 0.201351
0.705644 0.594744 0.201565
0.710371 0.593923 0.201738
0.716837 0.594888 0.202224
0.719579 0.591922 0.202026
0.718436 0.584968 0.201128
0.729243 0.590264 0.202380
0.732350 0.587643 0.202244
0.733684 0.583249 0.201793
0.741655 0.585458 0.202513
0.749805 0.587752 0.203252
0.759917 0.591860 0.204321
0.762766 0.588845 0.204121
0.772343 0.592252 0.205074
0.776460 0.590383 0.205083
0.785770 0.593358 0.205969
0.792595 0.593919 0.206423
0.798222 0.593313 0.206668
0.803240 0.592109 0.206806
0.819853 0.601331 0.208855
0.822618 0.597949 0.208603
0.824027 0.593373 0.208130
0.828022 0.591093 0.208079
0.837169 0.593272 0.208856
0.842909 0.592420 0.209074
0.839260 0.583517 0.207792
0.837800 0.576571 0.206868
0.845433 0.577303 0.207383
0.855214 0.579741 0.208224
0.862397 0.579940 0.208647
0.863851 0.575411 0.208177
0.861329 0.567701 0.207098
0.874794 0.572834 0.208469
0.909963 0.594965 0.213110
0.920077 0.596991 0.213915
0.925067 0.594933 0.213938
0.930962 0.593540 0.214091
0.945898 0.598984 0.215576
0.949027 0.595350 0.215301
0.951549 0.591260 0.214936
0.956672 0.589097 0.214949
0.954701 0.581705 0.213932
0.951794 0.573701 0.212787
0.950326 0.566809 0.211856
0.968544 0.573973 0.213725
0.996137 0.587520 0.216888
1.006864 0.588960 0.217643
1.014113 0.587888 0.217898
1.026342 0.590155 0.218834
1.038738 0.592403 0.219775
1.049385 0.593346 0.220459
1.055288 0.591031 0.220483
1.060921 0.588493 0.220463
1.079924 0.594601 0.222232
1.088265 0.593630 0.222549
1.096102 0.592259 0.222788
1.107941 0.593337 0.223544
1.122305 0.595864 0.224614
1.130337 0.594326 0.224838
1.138996 0.593096 0.225133
1.152969 0.594993 0.226098
1.163460 0.594655 0.226598
1.174193 0.594355 0.227114
1.182293 0.592404 0.227282
1.192768 0.591751 0.227737
1.205655 0.592373 0.228476
1.212413 0.589388 0.228440
1.226185 0.590271 0.229256
1.236729 0.589221 0.229657
1.248247 0.588598 0.230162
1.258795 0.587334 0.230534
1.277324 0.590236 0.231846
1.288306 0.588945 0.232234
1.305215 0.590645 0.233307
1.315643 0.588819 0.233596
1.327597 0.587675 0.234049
1.341578 0.587440 0.234722
1.360293 0.589428 0.235920
1.374876 0.589192 0.236621
1.391013 0.589575 0.237481
1.403127 0.587872 0.237867
1.426267 0.591302 0.239474
1.439353 0.589793 0.239935
1.451672 0.587826 0.240299
1.468469 0.587817 0.241143
1.485473 0.587768 0.241993
1.498181 0.585673 0.242364
1.510111 0.583161 0.242643
1.538482 0.587735 0.244671
1.553094 0.586171 0.245214
1.564448 0.583156 0.245408
1.586664 0.584654 0.246737
1.606963 0.585225 0.247855
1.621666 0.583409 0.248386
1.640005 0.583019 0.249291
1.652441 0.580220 0.249591
1.673872 0.580953 0.250810
1.718292 0.590516 0.254340
0.222699 0.605234 0.169967
0.224792 0.601351 0.169657
0.227754 0.602589 0.169972
0.229913 0.598799 0.169683
0.233460 0.602851 0.170350
0.237208 0.607574 0.171108
0.238121 0.596527 0.169946
0.240916 0.595742 0.170039
0.244111 0.596875 0.170372
0.246936 0.595939 0.170454
0.249466 0.593458 0.170349
0.255582 0.608101 0.172365
0.258365 0.606390 0.172363
0.261323 0.605450 0.172460
0.265392 0.609418 0.173170
0.269851 0.614831 0.174066
0.270664 0.604374 0.172977
0.274365 0.606360 0.173447
0.278024 0.608039 0.173881
0.280721 0.605750 0.173815
0.283201 0.602660 0.173646
0.285276 0.598094 0.173288
0.288269 0.597141 0.173389
0.291529 0.597186 0.173616
0.295574 0.600053 0.174206
0.300797 0.606984 0.175321
0.305389 0.611437 0.176120
0.308488 0.610586 0.176237
0.310128 0.604829 0.175716
0.311314 0.597751 0.175019
0.314764 0.598276 0.175308
0.318859 0.600834 0.175864
0.321664 0.599230 0.175874
0.324795 0.598677 0.176021
0.327695 0.597421 0.176075
0.333309 0.604332 0.177207
0.338298 0.609167 0.178067
0.341648 0.609076 0.178277
0.345639 0.610805 0.178728
0.349037 0.610792 0.178946
0.352488 0.610913 0.179183
0.353208 0.603536 0.178413
0.356570 0.603484 0.178622
0.358265 0.598978 0.178231
0.361904 0.599681 0.178540
0.363937 0.596189 0.178281
0.368818 0.600035 0.179016
0.370789 0.596436 0.178739
0.375619 0.600003 0.179439
0.378891 0.599642 0.179603
0.382131 0.599186 0.179753
0.385782 0.599702 0.180036
0.389206 0.599641 0.180240
0.393051 0.600535 0.180576
0.396577 0.600649 0.180804
0.400137 0.600810 0.181039
0.405745 0.605519 0.181908
0.409712 0.606457 0.182253
0.413302 0.606522 0.182477
0.415673 0.603929 0.182328
0.420870 0.607385 0.183028
0.426205 0.611016 0.183755
0.431390 0.614218 0.184425
0.433069 0.610111 0.184061
0.432293 0.601083 0.182995
0.434572 0.598360 0.182822
0.438574 0.599084 0.183139
0.442142 0.598907 0.183328
0.445009 0.597341 0.183318
0.448693 0.597342 0.183533
0.453723 0.599858 0.184110
0.463483 0.611145 0.185958
0.467662 0.611804 0.186274
0.465665 0.601094 0.184941
0.467260 0.597092 0.184578
0.470907 0.596819 0.184756
0.474875 0.597082 0.185014
0.479596 0.598625 0.185460
0.486150 0.603275 0.186364
0.491360 0.605483 0.186912
0.494493 0.604074 0.186930
0.498758 0.604561 0.187227
0.501082 0.601769 0.187040
0.503711 0.599496 0.186929
0.509603 0.602546 0.187611
0.522844 0.617332 0.190049
0.525099 0.614253 0.189823
0.524003 0.605909 0.188806
0.528163 0.605902 0.189039
0.532403 0.605979 0.189285
0.531921 0.598786 0.188433
0.532002 0.592550 0.187723
0.541891 0.601105 0.189257
0.548547 0.604648 0.190035
0.551184 0.602170 0.189897
0.553259 0.598882 0.189635
0.556862 0.597818 0.189713
0.561833 0.598684 0.190089
0.566004 0.598360 0.190283
0.569594 0.597187 0.190347
0.577521 0.601998 0.191340
0.586224 0.607732 0.192482
0.587133 0.602736 0.191957
0.588246 0.598067 0.191480
0.593385 0.598801 0.191849
0.596066 0.596238 0.191701
0.599469 0.594625 0.191703
0.609863 0.602030 0.193130
0.616180 0.604032 0.193708
0.634854 0.621610 0.196764
0.627370 0.605973 0.194548
0.630061 0.603238 0.194380
0.632633 0.600364 0.194190
0.632407 0.594086 0.193452
0.635350 0.591709 0.193339
0.642087 0.593873 0.193958
0.648554 0.595629 0.194515
0.655503 0.597871 0.195155
0.665244 0.603272 0.196312
0.670980 0.603912 0.196700
0.668240 0.594824 0.195499
0.672514 0.593786 0.195612
0.678701 0.594861 0.196074
0.686587 0.597752 0.196838
0.689285 0.594845 0.196649
0.696266 0.596603 0.197232
0.701510 0.596408 0.197495
0.706224 0.595604 0.197658
0.710708 0.594522 0.197776
0.716444 0.594724 0.198110
0.718879 0.591446 0.197862
0.721850 0.588730 0.197707
0.726603 0.587832 0.197860
0.731878 0.587427 0.198098
0.736061 0.585888 0.198145
0.748744 0.592749 0.199627
0.756667 0.594759 0.200288
0.758858 0.591107 0.199980
0.757123 0.583688 0.199023
0.763164 0.583777 0.199357
0.782499 0.596382 0.201864
0.783120 0.591169 0.201289
0.790452 0.592227 0.201805
0.797739 0.593170 0.202304
0.802999 0.592194 0.202470
0.822345 0.603892 0.204870
0.825057 0.600445 0.204610
0.825883 0.595334 0.204055
0.828889 0.592172 0.203843
0.835867 0.592465 0.204246
0.839466 0.589782 0.204121
0.838112 0.582865 0.203235
0.840907 0.579524 0.202989
0.851755 0.582927 0.203960
0.860732 0.584654 0.204634
0.864376 0.581906 0.204500
0.865532 0.577120 0.203994
0.864862 0.570890 0.203222
0.910517 0.595768 0.208544
0.919333 0.596776 0.209120
0.923453 0.594051 0.209008
0.932040 0.594743 0.209533
0.941714 0.596179 0.210201
0.948710 0.595494 0.210478
0.952692 0.592499 0.210323
0.955184 0.588383 0.209957
0.950316 0.578879 0.208569
0.950170 0.572908 0.207844
0.955999 0.571270 0.207942
0.974078 0.578303 0.209702
0.983903 0.579305 0.210318
0.994350 0.580640 0.211003
1.005924 0.582645 0.211826
1.023196 0.588423 0.213389
1.036771 0.591496 0.214438
1.047941 0.592808 0.215151
1.056095 0.592000 0.215456
1.063511 0.590630 0.215654
1.079566 0.594813 0.216956
1.086595 0.593003 0.217078
1.094786 0.591871 0.217339
1.105684 0.592370 0.217932
1.120565 0.595241 0.219009
1.131207 0.595330 0.219535
1.142116 0.595473 0.220079
1.154093 0.596148 0.220739
1.161313 0.593852 0.220800
1.175891 0.595846 0.221746
1.182719 0.593143 0.221734
1.193576 0.592713 0.222196
1.203317 0.591533 0.222510
1.211339 0.589282 0.222607
1.223827 0.589459 0.223218
1.234108 0.588283 0.223554
1.245177 0.587436 0.223966
1.253871 0.585191 0.224090
1.282699 0.593647 0.226507
1.290425 0.590605 0.226481
1.299740 0.588327 0.226626
1.316709 0.589923 0.227617
1.326109 0.587473 0.227741
1.340298 0.587359 0.228384
1.348137 0.583938 0.228311
1.378461 0.591543 0.230683
1.392806 0.591041 0.231282
1.399956 0.586947 0.231090
1.424062 0.590868 0.232705
1.437522 0.589555 0.233160
1.452508 0.588844 0.233764
1.463794 0.586319 0.233966
1.486815 0.589027 0.235380
1.497589 0.586071 0.235507
1.514037 0.585564 0.236211
1.538524 0.588444 0.237721
1.552236 0.586506 0.238123
1.564930 0.584074 0.238418
1.579608 0.582431 0.238909
1.602579 0.584160 0.240220
1.621996 0.584305 0.241169
1.632141 0.580628 0.241208
1.647927 0.579215 0.241803
1.687034 0.586934 0.244653
1.706183 0.586661 0.245565
0.220528 0.590562 0.165387
0.224442 0.598295 0.166435
0.228037 0.603425 0.167189
0.230661 0.602362 0.167229
0.233709 0.603503 0.167532
0.236687 0.603969 0.167761
0.237896 0.594642 0.166845
0.241304 0.597157 0.167324
0.244269 0.597092 0.167505
0.247173 0.596565 0.167634
0.250312 0.597065 0.167889
0.256362 0.611319 0.169786
0.258985 0.608803 0.169692
0.261498 0.605796 0.169541
0.265936 0.611409 0.170426
0.270418 0.616884 0.171299
0.274668 0.621065 0.172022
0.276449 0.614690 0.171470
0.278042 0.607761 0.170849
0.281187 0.607278 0.171008
0.281812 0.596893 0.169959
0.285352 0.598085 0.170321
0.288473 0.597624 0.170482
0.290519 0.593176 0.170151
0.296035 0.601457 0.171389
0.300427 0.605410 0.172097
0.304628 0.608529 0.172704
0.308436 0.610170 0.173129
0.309832 0.603604 0.172529
0.311734 0.598930 0.172161
0.315145 0.599311 0.172425
0.318469 0.599386 0.172650
0.321797 0.599458 0.172874
0.324638 0.598006 0.172904
0.327509 0.596681 0.172949
0.332395 0.601423 0.173765
0.336794 0.604564 0.174379
0.340607 0.605891 0.174762
0.344891 0.608510 0.175312
0.350408 0.614511 0.176298
0.351179 0.607137 0.175561
0.354314 0.606431 0.175682
0.357530 0.605944 0.175830
0.358266 0.598862 0.175120
0.361366 0.598154 0.175235
0.364301 0.597020 0.175294
0.367069 0.595472 0.175297
0.372031 0.599459 0.176025
0.375434 0.599450 0.176230
0.378665 0.598999 0.176376
0.382239 0.599363 0.176629
0.385356 0.598606 0.176734
0.388999 0.599080 0.177001
0.392312 0.598748 0.177161
0.395270 0.597586 0.177210
0.397593 0.594989 0.177066
0.403543 0.600538 0.178013
0.409195 0.605264 0.178853
0.413524 0.606959 0.179287
0.417796 0.608461 0.179697
0.421234 0.608121 0.179857
0.425388 0.609263 0.180219
0.429879 0.611047 0.180669
0.430429 0.604663 0.180006
0.431644 0.599744 0.179538
0.434847 0.598896 0.179627
0.438000 0.597935 0.179699
0.441561 0.597762 0.179880
0.444868 0.597066 0.179988
0.447780 0.595593 0.179989
0.450149 0.593090 0.179847
0.462825 0.609922 0.182393
0.467124 0.610821 0.182729
0.466490 0.602625 0.181795
0.467588 0.597709 0.181315
0.470197 0.595572 0.181223
0.474400 0.596272 0.181530
0.481039 0.601190 0.182433
0.486179 0.603366 0.182952
0.490119 0.603397 0.183169
0.494484 0.604108 0.183484
0.497357 0.602259 0.183435
0.500654 0.601113 0.183486
0.506725 0.604517 0.184189
0.511139 0.605113 0.184491
0.516748 0.607580 0.185065
0.525083 0.614304 0.186255
0.527230 0.611081 0.186013
0.531075 0.610534 0.186157
0.534936 0.609983 0.186301
0.535900 0.604965 0.185796
0.536930 0.600109 0.185312
0.542428 0.602009 0.185814
0.550377 0.607468 0.186841
0.551848 0.603253 0.186451
0.553189 0.598892 0.186037
0.556747 0.597768 0.186100
0.561491 0.598316 0.186410
0.565711 0.598070 0.186605
0.569697 0.597459 0.186746
0.574850 0.598432 0.187125
0.583067 0.603543 0.188125
0.585343 0.600446 0.187900
0.587845 0.597671 0.187721
0.591267 0.596130 0.187728
0.596872 0.597453 0.188169
0.601868 0.597910 0.188481
0.611094 0.603782 0.189617
0.623383 0.613417 0.191333
0.625932 0.610474 0.191137
0.629706 0.609079 0.191178
0.629559 0.602791 0.190467
0.630030 0.597339 0.189883
0.633444 0.595534 0.189858
0.643282 0.601480 0.191033
0.646458 0.599294 0.190953
0.647946 0.595103 0.190561
0.654070 0.596390 0.191022
0.666884 0.605386 0.192692
0.672775 0.606190 0.193086
0.669837 0.596857 0.191889
0.671187 0.592500 0.191470
0.677760 0.594027 0.191980
0.685120 0.596350 0.192620
0.690759 0.596692 0.192948
0.695981 0.596524 0.193197
0.701385 0.596510 0.193473
0.706339 0.595966 0.193666
0.710930 0.594999 0.193793
0.715386 0.593861 0.193893
0.722661 0.595622 0.194463
0.726242 0.593501 0.194407
0.730873 0.592440 0.194524
0.740160 0.596050 0.195404
0.745909 0.596003 0.195691
0.755199 0.599416 0.196548
0.762266 0.600531 0.197033
0.760403 0.592886 0.196075
0.752145 0.579167 0.194107
0.757002 0.578173 0.194240
0.776980 0.591451 0.196751
0.785062 0.593280 0.197365
0.788809 0.590997 0.197295
0.797542 0.593288 0.197994
0.802507 0.592048 0.198102
0.817807 0.600107 0.199783
0.825104 0.600801 0.200227
0.826469 0.596168 0.199768
0.830116 0.593567 0.199653
0.835772 0.592703 0.199836
0.850932 0.599985 0.201418
0.842585 0.587007 0.199522
0.849966 0.587510 0.199944
0.863134 0.592790 0.201198
0.875746 0.597450 0.202352
0.878470 0.593830 0.202070
0.874553 0.584806 0.200841
0.883870 0.586563 0.201498
0.895721 0.590248 0.202499
0.906549 0.592987 0.203341
0.913504 0.592570 0.203629
0.921631 0.593003 0.204072
0.928094 0.592079 0.204276
0.939737 0.595048 0.205179
0.947799 0.595186 0.205581
0.953351 0.593372 0.205635
0.955594 0.589068 0.205239
0.954507 0.582331 0.204401
0.957715 0.578766 0.204135
0.967127 0.579653 0.204683
0.981239 0.583793 0.205832
0.984767 0.580309 0.205587
0.992942 0.580057 0.205939
1.008675 0.584952 0.207249
1.022401 0.588292 0.208280
1.036218 0.591541 0.209304
1.047714 0.593078 0.210015
1.054633 0.591455 0.210139
1.063159 0.590829 0.210454
1.080629 0.595941 0.211861
1.086814 0.593584 0.211859
1.096338 0.593305 0.212256
1.102708 0.590940 0.212258
1.113368 0.591201 0.212768
1.129123 0.594501 0.213871
1.136825 0.592700 0.213996
1.151330 0.594945 0.214912
1.161317 0.594326 0.215278
1.174240 0.595345 0.215972
1.181249 0.592761 0.215964
1.189095 0.590601 0.216042
1.202543 0.591579 0.216749
1.217805 0.593441 0.217641
1.228826 0.592761 0.218034
1.233716 0.588568 0.217728
1.241893 0.586143 0.217780
1.256068 0.586894 0.218482
1.280006 0.592729 0.220231
1.291236 0.591563 0.220566
1.302860 0.590495 0.220928
1.319094 0.591698 0.221768
1.330459 0.590245 0.222070
1.341449 0.588495 0.222317
1.356151 0.588499 0.222940
1.373055 0.589450 0.223774
1.390710 0.590601 0.224665
1.405755 0.590326 0.225266
1.421333 0.590170 0.225906
1.433247 0.588156 0.226158
1.449601 0.588114 0.226846
1.467685 0.588729 0.227691
1.483705 0.588262 0.228315
1.500822 0.588167 0.229033
1.514120 0.586263 0.229367
1.530779 0.585750 0.230020
1.552438 0.587285 0.231144
1.569046 0.586526 0.231772
1.583206 0.584657 0.232162
1.609859 0.587908 0.233728
1.619253 0.583937 0.233665
1.637427 0.583527 0.234427
1.654992 0.582811 0.235131
1.674594 0.582851 0.236025
1.674353 0.575127 0.235112
0.221828 0.597822 0.163389
0.224647 0.598666 0.163626
0.227839 0.601401 0.164081
0.231372 0.605710 0.164721
0.233986 0.604330 0.164729
0.236244 0.600816 0.164502
0.238112 0.595157 0.164036
0.241485 0.597493 0.164477
0.244299 0.596669 0.164566
0.247382 0.597069 0.164798
0.250569 0.597812 0.165072
0.253712 0.598177 0.165308
0.256869 0.598476 0.165539
0.260029 0.598665 0.165761
0.263294 0.599225 0.166028
0.266502 0.599427 0.166257
0.269783 0.599862 0.166514
0.274341 0.605541 0.167384
0.277505 0.605233 0.167559
0.280677 0.604921 0.167736
0.281692 0.596126 0.166916
0.284889 0.596023 0.167115
0.287135 0.592312 0.166888
0.290022 0.591084 0.166953
0.296403 0.602544 0.168523
0.300510 0.605468 0.169085
0.304678 0.608473 0.169659
0.308223 0.609219 0.169963
0.309212 0.601307 0.169227
0.312427 0.601025 0.169405
0.315407 0.599970 0.169489
0.318781 0.600201 0.169727
0.322025 0.600000 0.169912
0.324189 0.596448 0.169688
0.327390 0.596154 0.169859
0.331044 0.597214 0.170195
0.335657 0.601057 0.170873
0.339431 0.602328 0.171236
0.345324 0.609608 0.172340
0.348912 0.610159 0.172616
0.351726 0.608527 0.172621
0.354339 0.606375 0.172559
0.358159 0.607524 0.172907
0.357968 0.597958 0.171914
0.361233 0.597699 0.172082
0.364322 0.596973 0.172191
0.367595 0.596716 0.172358
0.371620 0.598334 0.172760
0.374946 0.598153 0.172936
0.378349 0.598143 0.173132
0.381295 0.597007 0.173185
0.385608 0.599134 0.173653
0.388829 0.598611 0.173783
0.391963 0.597874 0.173885
0.394789 0.596424 0.173894
0.398005 0.595867 0.174017
0.402719 0.598645 0.174571
0.408257 0.603146 0.175349
0.413368 0.606577 0.175991
0.419030 0.611082 0.176774
0.421231 0.608079 0.176582
0.424263 0.606868 0.176621
0.428045 0.607211 0.176864
0.430956 0.605725 0.176866
0.432339 0.601139 0.176459
0.434969 0.599129 0.176390
0.438119 0.598161 0.176457
0.441212 0.597073 0.176508
0.444775 0.596885 0.176679
0.447923 0.595871 0.176739
0.451912 0.596441 0.177010
0.460238 0.605087 0.178363
0.464524 0.606022 0.178688
0.467617 0.604711 0.178711
0.470807 0.603570 0.178757
0.473408 0.601358 0.178658
0.477501 0.601804 0.178918
0.479540 0.598599 0.178683
0.485032 0.601417 0.179266
0.487835 0.599520 0.179209
0.490549 0.597473 0.179130
0.493597 0.595992 0.179129
0.497640 0.596159 0.179353
0.502127 0.597013 0.179673
0.504190 0.593862 0.179442
0.510628 0.597788 0.180188
0.514552 0.597583 0.180365
0.517658 0.596051 0.180359
0.521942 0.596348 0.180607
0.534871 0.609970 0.182717
0.537060 0.606834 0.182491
0.538900 0.603188 0.182193
0.546041 0.607528 0.183016
0.553168 0.611716 0.183822
0.554882 0.607821 0.183490
0.553456 0.599392 0.182514
0.556085 0.596929 0.182380
0.561105 0.597884 0.182733
0.565400 0.597754 0.182932
0.568832 0.596377 0.182954
0.574046 0.597450 0.183328
0.581741 0.601862 0.184184
0.586013 0.601497 0.184357
0.587818 0.597778 0.184045
0.590834 0.595701 0.183970
0.594732 0.594783 0.184063
0.601395 0.597449 0.184679
0.608005 0.599950 0.185274
0.615596 0.603615 0.186043
0.625938 0.610653 0.187311
0.625611 0.604112 0.186588
0.628804 0.602029 0.186520
0.630687 0.598327 0.186212
0.639336 0.602906 0.187130
0.647280 0.606500 0.187907
0.650495 0.604319 0.187828
0.652426 0.600611 0.187521
0.655651 0.598446 0.187444
0.665341 0.603797 0.188495
0.670064 0.603277 0.188669
0.671094 0.598503 0.188202
0.673375 0.595188 0.187953
0.680579 0.597402 0.188542
0.685995 0.597543 0.188820
0.689862 0.595932 0.188833
0.696367 0.597176 0.189282
0.701530 0.596901 0.189502
0.705489 0.595296 0.189518
0.709123 0.593328 0.189479
0.715195 0.593906 0.189835
0.723929 0.597190 0.190612
0.731770 0.599444 0.191234
0.735480 0.597394 0.191188
0.743830 0.600019 0.191874
0.747052 0.597412 0.191744
0.757919 0.602383 0.192805
0.760284 0.598858 0.192533
0.760435 0.593192 0.191921
0.771086 0.597703 0.192920
0.776303 0.596887 0.193078
0.783431 0.597841 0.193520
0.785118 0.593622 0.193137
0.790758 0.593100 0.193346
0.796006 0.592172 0.193491
0.801963 0.591852 0.193736
0.811863 0.595046 0.194551
0.822920 0.599159 0.195522
0.826310 0.596341 0.195369
0.828828 0.592752 0.195090
0.834438 0.591861 0.195252
0.850477 0.599920 0.196888
0.855113 0.598030 0.196893
0.856856 0.593666 0.196489
0.865421 0.595041 0.197036
0.875655 0.597714 0.197802
0.882411 0.597413 0.198078
0.888298 0.596346 0.198227
0.893780 0.594907 0.198316
0.900771 0.594635 0.198603
0.906502 0.593305 0.198713
0.913578 0.592987 0.198996
0.919351 0.591594 0.199098
0.927662 0.592111 0.199529
0.942404 0.597452 0.200789
0.947625 0.595429 0.200792
0.951578 0.592423 0.200627
0.958026 0.591248 0.200779
0.967380 0.592152 0.201293
0.975150 0.591812 0.201594
0.979989 0.589290 0.201518
0.989493 0.590063 0.202020
0.993418 0.586803 0.201816
1.000364 0.585636 0.201982
1.008567 0.585277 0.202293
1.023779 0.589642 0.203447
1.040687 0.594984 0.204785
1.047989 0.593680 0.204944
1.054726 0.591937 0.205026
1.064873 0.592380 0.205505
1.082068 0.597310 0.206800
1.088337 0.594998 0.206792
1.097127 0.594245 0.207068
1.104169 0.592302 0.207131
1.115473 0.592960 0.207674
1.124427 0.592046 0.207933
1.137647 0.593656 0.208663
1.146230 0.592315 0.208853
1.157897 0.592740 0.209375
1.170554 0.593629 0.209991
1.181187 0.593196 0.210366
1.187414 0.590100 0.210243
1.198577 0.589782 0.210649
1.214047 0.591795 0.211504
1.225660 0.591474 0.211924
1.235988 0.590321 0.212191
1.245943 0.588861 0.212404
1.259604 0.589314 0.212992
1.270217 0.587991 0.213244
1.277268 0.584675 0.213114
1.303076 0.591131 0.214901
1.311595 0.588345 0.214889
1.330749 0.590930 0.215944
1.344166 0.590412 0.216396
1.355565 0.588757 0.216631
1.364503 0.585785 0.216610
1.388630 0.590155 0.218071
1.399609 0.587941 0.218221
1.420901 0.590551 0.219358
1.432712 0.588499 0.219560
1.450878 0.589312 0.220358
1.466687 0.588889 0.220916
1.482923 0.588536 0.221501
1.496922 0.587063 0.221864
1.516657 0.588035 0.222751
1.532590 0.587205 0.223274
1.554284 0.588761 0.224316
1.568946 0.587179 0.224707
1.588482 0.587580 0.225534
1.602446 0.585567 0.225857
1.620155 0.585049 0.226514
1.646665 0.588018 0.227946
1.659669 0.585455 0.228186
1.684916 0.587714 0.229500
1.688939 0.581607 0.228976
0.218678 0.577066 0.158332
0.225126 0.600723 0.160998
0.228355 0.603651 0.161455
0.231608 0.606300 0.161889
0.233711 0.602044 0.161587
0.235651 0.596858 0.161188
0.238777 0.598109 0.161489
0.241234 0.595582 0.161386
0.244430 0.596785 0.161693
0.247488 0.597078 0.161905
0.250575 0.597351 0.162119
0.253940 0.598803 0.162466
0.256867 0.598034 0.162574
0.260091 0.598539 0.162824
0.263361 0.599138 0.163088
0.266542 0.599237 0.163298
0.269499 0.598307 0.163396
0.272884 0.599140 0.163692
0.276015 0.598840 0.163863
0.278838 0.597272 0.163893
0.282959 0.600817 0.164498
0.286333 0.601308 0.164761
0.290197 0.603597 0.165228
0.294019 0.605611 0.165666
0.297274 0.605473 0.165860
0.300598 0.605561 0.166079
0.304872 0.608940 0.166676
0.307774 0.607477 0.166718
0.309420 0.601814 0.166274
0.312404 0.600764 0.166359
0.315908 0.601425 0.166641
0.319046 0.600881 0.166783
0.322078 0.600004 0.166885
0.325171 0.599333 0.167010
0.327737 0.597065 0.166946
0.330064 0.594136 0.166802
0.337033 0.604977 0.168279
0.341620 0.608554 0.168904
0.345551 0.610131 0.169293
0.348289 0.608279 0.169274
0.351267 0.607136 0.169338
0.355396 0.609155 0.169778
0.357326 0.605168 0.169499
0.357966 0.597850 0.168817
0.360837 0.596565 0.168856
0.364623 0.597658 0.169180
0.367875 0.597341 0.169334
0.371325 0.597509 0.169546
0.374393 0.596704 0.169639
0.377621 0.596289 0.169778
0.381242 0.596808 0.170031
0.385205 0.598107 0.170379
0.388744 0.598351 0.170598
0.391511 0.596768 0.170592
0.394682 0.596128 0.170700
0.398000 0.595808 0.170848
0.402587 0.598305 0.171344
0.408288 0.603175 0.172137
0.413972 0.607857 0.172909
0.417891 0.608595 0.173191
0.421463 0.608545 0.173374
0.424620 0.607594 0.173443
0.430952 0.613232 0.174342
0.434151 0.612270 0.174411
0.432662 0.601783 0.173275
0.435348 0.599881 0.173221
0.438369 0.598654 0.173251
0.441991 0.598601 0.173430
0.445161 0.597636 0.173494
0.447954 0.595939 0.173463
0.454187 0.600763 0.174267
0.458353 0.601571 0.174558
0.461327 0.600117 0.174559
0.467834 0.605134 0.175394
0.473055 0.607672 0.175912
0.476409 0.606771 0.175986
0.477567 0.601957 0.175551
0.480706 0.600685 0.175575
0.484396 0.600358 0.175722
0.487813 0.599530 0.175804
0.490983 0.598263 0.175828
0.494112 0.596913 0.175842
0.498913 0.598335 0.176220
0.500784 0.594865 0.175953
0.506919 0.598373 0.176610
0.511323 0.598980 0.176884
0.514883 0.598186 0.176972
0.518015 0.596694 0.176968
0.521218 0.595301 0.176977
0.528971 0.600934 0.177928
0.537224 0.607177 0.178965
0.540485 0.605687 0.178966
0.543159 0.603306 0.178846
0.553687 0.612593 0.180304
0.556538 0.610364 0.180208
0.553703 0.599864 0.178986
0.557173 0.598613 0.179019
0.560588 0.597266 0.179040
0.565128 0.597494 0.179276
0.569028 0.596778 0.179384
0.576236 0.600615 0.180119
0.587040 0.609265 0.181522
0.589412 0.606252 0.181319
0.590454 0.601466 0.180870
0.592644 0.598258 0.180638
0.596206 0.596877 0.180659
0.599130 0.594646 0.180562
0.605345 0.596671 0.181061
0.609726 0.596263 0.181221
0.613759 0.595377 0.181315
0.619378 0.596455 0.181686
0.624300 0.596603 0.181928
0.629616 0.597188 0.182234
0.636210 0.599275 0.182755
0.642727 0.601186 0.183254
0.649781 0.603658 0.183836
0.653614 0.602216 0.183860
0.654496 0.597289 0.183386
0.658141 0.595623 0.183378
0.665704 0.598460 0.184020
0.670886 0.598478 0.184258
0.673530 0.595577 0.184075
0.679753 0.596695 0.184475
0.683746 0.595270 0.184507
0.687937 0.594042 0.184568
0.698062 0.599252 0.185574
0.704653 0.600504 0.186004
0.704099 0.594048 0.185301
0.707719 0.592081 0.185257
0.712184 0.590991 0.185344
0.721760 0.595185 0.186216
0.728544 0.596376 0.186647
0.737395 0.599604 0.187384
0.737953 0.594341 0.186854
0.748978 0.599605 0.187903
0.753474 0.598243 0.187959
0.758003 0.596889 0.188018
0.762944 0.595909 0.188134
0.768155 0.595155 0.188286
0.777165 0.597994 0.188986
0.781682 0.596472 0.189024
0.788484 0.597069 0.189387
0.791102 0.593711 0.189146
0.795849 0.592322 0.189206
0.800614 0.590921 0.189266
0.808952 0.592719 0.189822
0.819106 0.596054 0.190621
0.825979 0.596359 0.190952
0.829204 0.593396 0.190775
0.833428 0.591298 0.190733
0.844727 0.595284 0.191648
0.851549 0.595311 0.191944
0.854752 0.592213 0.191748
0.860232 0.591021 0.191854
0.868087 0.591763 0.192269
0.874645 0.591362 0.192504
0.881944 0.591509 0.192828
0.892207 0.593982 0.193529
0.902335 0.596236 0.194200
0.910608 0.596911 0.194620
0.914620 0.594160 0.194487
0.920971 0.593211 0.194647
0.929714 0.594054 0.195102
0.945876 0.600469 0.196471
0.951385 0.598641 0.196496
0.949157 0.590984 0.195563
0.960835 0.593705 0.196338
0.975190 0.598264 0.197424
0.982792 0.597749 0.197674
0.982070 0.591173 0.196915
0.990491 0.591163 0.197251
1.000265 0.592026 0.197736
1.010007 0.592769 0.198205
1.015654 0.590578 0.198182
1.023914 0.590136 0.198456
1.037142 0.592987 0.199294
1.046369 0.593004 0.199655
1.054800 0.592401 0.199912
1.065017 0.592892 0.200361
1.074977 0.593113 0.200767
1.088713 0.595668 0.201581
1.096444 0.594239 0.201711
1.103747 0.592467 0.201782
1.112429 0.591493 0.201996
1.124365 0.592448 0.202551
1.134451 0.592144 0.202889
1.145668 0.592423 0.203335
1.156110 0.592121 0.203684
1.166118 0.591455 0.203971
1.182937 0.594685 0.204960
1.189593 0.591828 0.204865
1.199364 0.590703 0.205084
1.210770 0.590408 0.205458
1.221446 0.589587 0.205741
1.235296 0.590420 0.206331
1.243057 0.587763 0.206290
1.260577 0.590336 0.207212
1.268265 0.587440 0.207136
1.281746 0.587552 0.207620
1.303882 0.592066 0.208930
1.311953 0.589047 0.208849
1.322948 0.587458 0.209038
1.341010 0.589346 0.209889
1.351936 0.587479 0.210041
1.362516 0.585346 0.210149
1.387144 0.589985 0.211555
1.404510 0.590868 0.212259
1.418664 0.590060 0.212649
1.438386 0.591753 0.213533
1.449907 0.589455 0.213655
1.464395 0.588441 0.214036
1.481263 0.588400 0.214617
1.495644 0.587119 0.214967
1.512087 0.586657 0.215489
1.533559 0.588283 0.216440
1.547226 0.586391 0.216703
1.566603 0.586868 0.217453
1.581452 0.585330 0.217810
1.599780 0.585179 0.218461
1.623072 0.586979 0.219526
1.642536 0.587106 0.220266
1.668405 0.589717 0.221535
1.687814 0.589653 0.222269
1.680843 0.579264 0.220855
0.226728 0.626765 0.160681
0.225755 0.603703 0.158449
0.228327 0.602669 0.158478
0.231800 0.606650 0.159031
0.236801 0.618821 0.160437
0.236097 0.598662 0.158510
0.238763 0.597415 0.158540
0.241532 0.596572 0.158617
0.244530 0.596762 0.158806
0.247505 0.596661 0.158970
0.250692 0.597451 0.159231
0.253638 0.596924 0.159358
0.257205 0.599193 0.159783
0.260006 0.597768 0.159822
0.263238 0.598227 0.160062
0.266513 0.598773 0.160315
0.269807 0.599299 0.160567
0.272764 0.598336 0.160662
0.275647 0.597052 0.160724
0.278677 0.596362 0.160849
0.283968 0.604509 0.161929
0.287261 0.604630 0.162146
0.290544 0.604669 0.162354
0.294191 0.606027 0.162707
0.297484 0.606023 0.162911
0.300541 0.605157 0.163020
0.304212 0.606444 0.163366
0.309505 0.613228 0.164317
0.308772 0.599457 0.163001
0.312668 0.601470 0.163424
0.315812 0.600952 0.163567
0.319031 0.600679 0.163736
0.322166 0.600134 0.163874
0.324833 0.598146 0.163849
0.327852 0.597278 0.163947
0.332927 0.602586 0.164741
0.337911 0.607444 0.165486
0.341491 0.608060 0.165752
0.345003 0.608447 0.165991
0.345041 0.599021 0.165112
0.348073 0.598164 0.165205
0.353150 0.602911 0.165938
0.355183 0.599296 0.165713
0.358674 0.599642 0.165941
0.361778 0.598944 0.166048
0.365234 0.599155 0.166259
0.369170 0.600564 0.166609
0.371388 0.597595 0.166449
0.374312 0.596434 0.166497
0.377223 0.595249 0.166541
0.380864 0.595835 0.166792
0.385283 0.598235 0.167255
0.388402 0.597492 0.167349
0.390994 0.595518 0.167296
0.394860 0.596490 0.167591
0.397162 0.593868 0.167459
0.403518 0.600349 0.168408
0.411100 0.609347 0.169661
0.415344 0.610818 0.170018
0.418422 0.609711 0.170067
0.421228 0.608021 0.170045
0.426581 0.611699 0.170669
0.431946 0.615281 0.171282
0.434932 0.613861 0.171292
0.432287 0.601013 0.169916
0.435348 0.599876 0.169955
0.438668 0.599247 0.170056
0.442240 0.599092 0.170214
0.445200 0.597719 0.170223
0.448466 0.596932 0.170303
0.453439 0.599362 0.170778
0.458454 0.601780 0.171253
0.462988 0.603218 0.171609
0.469705 0.608589 0.172453
0.472965 0.607539 0.172503
0.475403 0.605001 0.172367
0.480305 0.606852 0.172778
0.481157 0.601518 0.172292
0.483909 0.599558 0.172226
0.487578 0.599176 0.172358
0.491183 0.598656 0.172472
0.494616 0.597818 0.172547
0.497858 0.596641 0.172578
0.502454 0.597679 0.172890
0.506609 0.597938 0.173104
0.510988 0.598512 0.173359
0.515074 0.598567 0.173549
0.518943 0.598239 0.173691
0.523088 0.598307 0.173884
0.529862 0.602402 0.174594
0.537101 0.607083 0.175384
0.542569 0.608944 0.175813
0.547586 0.610049 0.176146
0.551999 0.610192 0.176356
0.557324 0.611631 0.176736
0.554614 0.601302 0.175584
0.557579 0.599314 0.175516
0.560627 0.597443 0.175464
0.565668 0.598381 0.175779
0.570268 0.598641 0.176007
0.580830 0.607111 0.177318
0.589607 0.612924 0.178284
0.590241 0.607520 0.177770
0.592545 0.604424 0.177560
0.596595 0.603669 0.177660
0.600264 0.602382 0.177690
0.600043 0.595994 0.177039
0.605860 0.597496 0.177442
0.609867 0.596607 0.177526
0.613881 0.595699 0.177608
0.619023 0.596182 0.177879
0.623209 0.595420 0.177983
0.627169 0.594351 0.178046
0.633923 0.596668 0.178569
0.639088 0.596974 0.178822
0.645515 0.598741 0.179276
0.649511 0.597544 0.179326
0.650633 0.592947 0.178910
0.657094 0.594607 0.179354
0.665400 0.598316 0.180083
0.671303 0.599165 0.180420
0.672601 0.594740 0.180028
0.680132 0.597338 0.180611
0.683626 0.595358 0.180559
0.687283 0.593547 0.180530
0.702278 0.604077 0.182232
0.707628 0.603950 0.182445
0.707021 0.597408 0.181755
0.708896 0.593568 0.181444
0.715378 0.594586 0.181820
0.720051 0.593655 0.181921
0.723659 0.591595 0.181863
0.731316 0.593656 0.182393
0.735538 0.592157 0.182416
0.746601 0.597488 0.183420
0.752601 0.597644 0.183686
0.759052 0.598190 0.184009
0.761238 0.594521 0.183724
0.756495 0.584179 0.182470
0.759953 0.581818 0.182370
0.778136 0.593398 0.184305
0.784088 0.593232 0.184532
0.790351 0.593304 0.184795
0.796145 0.592888 0.184988
0.801793 0.592292 0.185157
0.805187 0.589615 0.185018
0.813625 0.591449 0.185548
0.824094 0.594995 0.186337
0.828244 0.592862 0.186283
0.832982 0.591223 0.186302
0.840972 0.592363 0.186740
0.847041 0.591780 0.186920
0.851633 0.589896 0.186906
0.860421 0.591507 0.187421
0.871660 0.595064 0.188235
0.875862 0.592698 0.188152
0.880995 0.591072 0.188181
0.887599 0.590600 0.188388
0.902641 0.596828 0.189626
0.916108 0.601622 0.190651
0.912613 0.592936 0.189599
0.920756 0.593399 0.189959
0.932020 0.596189 0.190683
0.946244 0.601116 0.191746
0.948642 0.596934 0.191390
0.948482 0.590845 0.190733
0.953381 0.588549 0.190670
0.976427 0.599550 0.192706
0.978572 0.595060 0.192302
0.982764 0.592052 0.192131
0.989511 0.590847 0.192247
0.997818 0.590685 0.192531
1.013149 0.595358 0.193593
1.017329 0.592131 0.193391
1.027752 0.593164 0.193876
1.035932 0.592566 0.194100
1.045401 0.592757 0.194456
1.052866 0.591521 0.194581
1.063492 0.592299 0.195037
1.074687 0.593339 0.195540
1.085982 0.594325 0.196038
1.093612 0.592852 0.196135
1.101967 0.591767 0.196297
1.109472 0.590070 0.196360
1.127104 0.594577 0.197460
1.134010 0.592310 0.197434
1.140752 0.589881 0.197382
1.159913 0.594847 0.198577
1.169733 0.594048 0.198808
1.180684 0.593816 0.199137
1.190192 0.592632 0.199309
1.197114 0.589869 0.199214
1.208126 0.589369 0.199508
1.223052 0.590957 0.200166
1.232347 0.589254 0.200262
1.244585 0.589079 0.200627
1.258371 0.589620 0.201121
1.267148 0.587327 0.201127
1.273957 0.583907 0.200938
1.306499 0.593941 0.203119
1.312120 0.589639 0.202787
1.318934 0.585910 0.202558
1.332579 0.585593 0.202938
1.352690 0.588382 0.203881
1.355304 0.582309 0.203245
1.392486 0.593139 0.205657
1.403958 0.591154 0.205772
1.412132 0.587505 0.205592
1.435365 0.590903 0.206702
1.447050 0.588707 0.206802
1.461823 0.587852 0.207156
1.481239 0.588994 0.207889
1.495724 0.587771 0.208197
1.507590 0.585296 0.208280
1.529187 0.587018 0.209159
1.543746 0.585548 0.209452
1.561472 0.585358 0.209998
1.576167 0.583797 0.210296
1.597253 0.584837 0.211105
1.618515 0.585839 0.211922
1.637268 0.585721 0.212539
1.661129 0.587579 0.213557
1.689294 0.591030 0.214905
1.713114 0.592647 0.215916
0.223163 0.603436 0.155437
0.225675 0.602351 0.155451
0.228599 0.603483 0.155691
0.232107 0.607676 0.156239
0.235561 0.611092 0.156719
0.236370 0.599522 0.155724
0.238739 0.596688 0.155596
0.241462 0.595649 0.155651
0.244241 0.594766 0.155726
0.247585 0.596578 0.156075
0.250696 0.597023 0.156292
0.253244 0.594631 0.156228
0.256932 0.597530 0.156700
0.259774 0.596346 0.156764
0.262980 0.596737 0.156989
0.266578 0.598732 0.157381
0.269908 0.599430 0.157643
0.272840 0.598370 0.157728
0.275694 0.596980 0.157779
0.278299 0.594602 0.157729
0.283931 0.604128 0.158907
0.287670 0.605973 0.159297
0.290529 0.604399 0.159333
0.293799 0.604378 0.159530
0.297672 0.606511 0.159952
0.301004 0.606619 0.160163
0.304529 0.607374 0.160441
0.308307 0.608951 0.160807
0.310301 0.604448 0.160529
0.312660 0.601295 0.160392
0.315649 0.600279 0.160479
0.319099 0.600757 0.160723
0.321780 0.598789 0.160706
0.324581 0.597239 0.160731
0.327871 0.597215 0.160919
0.332783 0.602036 0.161629
0.336372 0.602791 0.161900
0.341323 0.607463 0.162596
0.344193 0.606028 0.162629
0.345026 0.598880 0.162037
0.348238 0.598529 0.162183
0.351268 0.597674 0.162273
0.353687 0.595182 0.162181
0.359520 0.601808 0.163092
0.363135 0.602420 0.163342
0.367374 0.604609 0.163765
0.372683 0.609442 0.164482
0.375231 0.607184 0.164412
0.379699 0.609725 0.164875
0.383998 0.611763 0.165283
0.387863 0.612675 0.165564
0.387283 0.602950 0.164648
0.391617 0.605005 0.165055
0.395716 0.606437 0.165392
0.397549 0.602613 0.165134
0.399660 0.599487 0.164952
0.405689 0.605168 0.165770
0.410661 0.608348 0.166306
0.415267 0.610625 0.166740
0.418242 0.609301 0.166761
0.421135 0.607806 0.166762
0.425595 0.609611 0.167141
0.431561 0.614469 0.167874
0.434431 0.612825 0.167857
0.431920 0.600265 0.166571
0.434887 0.598952 0.166586
0.438914 0.599738 0.166846
0.442172 0.598966 0.166923
0.445336 0.597995 0.166977
0.448351 0.596726 0.166996
0.454436 0.601268 0.167697
0.460037 0.604769 0.168278
0.466242 0.609274 0.168980
0.470867 0.610748 0.169325
0.470130 0.602435 0.168508
0.473643 0.601883 0.168611
0.477470 0.601864 0.168778
0.479217 0.598159 0.168504
0.483170 0.598324 0.168692
0.486929 0.598113 0.168835
0.491083 0.598542 0.169055
0.494976 0.598483 0.169217
0.498878 0.598401 0.169377
0.502328 0.597539 0.169442
0.506111 0.597197 0.169571
0.510518 0.597829 0.169819
0.514934 0.598423 0.170062
0.519212 0.598746 0.170274
0.524142 0.600041 0.170605
0.532264 0.606208 0.171536
0.537459 0.607726 0.171899
0.542465 0.608886 0.172219
0.547216 0.609598 0.172486
0.553643 0.612743 0.173054
0.554574 0.607698 0.172608
0.554255 0.600893 0.171941
0.557249 0.598956 0.171878
0.560713 0.597685 0.171899
0.563231 0.595062 0.171749
0.569052 0.597068 0.172181
0.587638 0.616677 0.174832
0.584492 0.606046 0.173678
0.586229 0.602213 0.173379
0.589597 0.600603 0.173361
0.599426 0.607590 0.174435
0.602122 0.604985 0.174292
0.601961 0.598655 0.173674
0.606881 0.598976 0.173903
0.610543 0.597636 0.173921
0.614540 0.596701 0.173992
0.618360 0.595518 0.174031
0.622828 0.595121 0.174172
0.628111 0.595691 0.174439
0.632599 0.595233 0.174574
0.637317 0.595019 0.174742
0.642427 0.595232 0.174967
0.647251 0.595057 0.175142
0.649123 0.591370 0.174857
0.655716 0.593204 0.175298
0.667652 0.601120 0.176542
0.670395 0.598338 0.176380
0.673002 0.595406 0.176197
0.681020 0.598551 0.176821
0.684539 0.596592 0.176768
0.686516 0.592926 0.176488
0.699969 0.601791 0.177882
0.702083 0.598197 0.177614
0.708775 0.599521 0.178005
0.713167 0.598333 0.178060
0.717794 0.597366 0.178146
0.719820 0.593660 0.177861
0.724452 0.592661 0.177943
0.730193 0.592764 0.178175
0.738860 0.595773 0.178806
0.743424 0.594566 0.178863
0.746953 0.592303 0.178776
0.753144 0.592649 0.179048
0.761462 0.595011 0.179599
0.754855 0.582866 0.178147
0.765724 0.587611 0.179030
0.776347 0.591983 0.179866
0.780510 0.590156 0.179842
0.789386 0.592695 0.180429
0.795634 0.592709 0.180665
0.801835 0.592626 0.180890
0.806457 0.591060 0.180906
0.812931 0.591128 0.181154
0.821147 0.592684 0.181614
0.827563 0.592572 0.181840
0.831490 0.590234 0.181750
0.839345 0.591273 0.182143
0.841257 0.587149 0.181797
0.848258 0.587355 0.182073
0.858711 0.590396 0.182759
0.866309 0.590944 0.183088
0.875287 0.592556 0.183574
0.880564 0.591054 0.183609
0.885828 0.589505 0.183639
0.905597 0.599538 0.185362
0.916222 0.602062 0.185994
0.912691 0.593345 0.184977
0.920409 0.593480 0.185260
0.929136 0.594322 0.185649
0.941872 0.598138 0.186481
0.946546 0.595712 0.186390
0.950069 0.592396 0.186167
0.954040 0.589402 0.185990
0.976291 0.599825 0.187825
0.981771 0.597763 0.187793
0.983571 0.593010 0.187354
0.992496 0.593355 0.187685
0.999133 0.591995 0.187759
1.010966 0.594216 0.188380
1.017961 0.592957 0.188473
1.038525 0.600949 0.189983
1.039210 0.595188 0.189390
1.045291 0.593082 0.189358
1.054199 0.592809 0.189609
1.065178 0.593815 0.190060
1.073181 0.592764 0.190194
1.082050 0.592197 0.190405
1.092750 0.592715 0.190788
1.101639 0.591976 0.190977
1.114191 0.593445 0.191515
1.127626 0.595327 0.192123
1.135172 0.593450 0.192140
1.143478 0.591966 0.192219
1.151650 0.590322 0.192275
1.171665 0.595636 0.193446
1.181096 0.594501 0.193591
1.190378 0.593187 0.193708
1.197827 0.590728 0.193643
1.207514 0.589474 0.193774
1.220191 0.589806 0.194165
1.232745 0.589937 0.194529
1.241783 0.588004 0.194558
1.256900 0.589292 0.195119
1.265584 0.586961 0.195089
1.276890 0.585944 0.195280
1.299543 0.590778 0.196446
1.312736 0.590453 0.196763
1.321763 0.587860 0.196706
1.341007 0.590371 0.197510
1.347840 0.586465 0.197241
1.359683 0.584994 0.197385
1.384646 0.589837 0.198609
1.405711 0.592543 0.199482
1.414802 0.589327 0.199352
1.425904 0.587002 0.199380
1.447412 0.589445 0.200237
1.459654 0.587434 0.200335
1.483022 0.590397 0.201306
1.495980 0.588491 0.201440
1.509968 0.586966 0.201651
1.526469 0.586462 0.202050
1.542940 0.585847 0.202441
1.558500 0.584754 0.202759
1.574526 0.583785 0.203111
1.601265 0.587204 0.204264
1.615622 0.585369 0.204488
1.625903 0.581852 0.204418
1.646189 0.582360 0.205091
1.672463 0.585163 0.206202
1.699184 0.588021 0.207344
0.219834 0.581659 0.150552
0.225810 0.602323 0.152593
0.229238 0.606490 0.153104
0.232132 0.607078 0.153288
0.234092 0.602100 0.152955
0.235468 0.593921 0.152324
0.238323 0.593867 0.152464
0.240156 0.588265 0.152084
0.243998 0.593020 0.152691
0.247084 0.593612 0.152908
0.249960 0.593007 0.153016
0.252756 0.591906 0.153080
0.256075 0.593175 0.153375
0.259561 0.595032 0.153731
0.262776 0.595508 0.153957
0.265544 0.593938 0.153988
0.269962 0.599376 0.154702
0.272801 0.597944 0.154750
0.274978 0.593815 0.154534
0.278047 0.593366 0.154679
0.284193 0.604935 0.156008
0.287524 0.605204 0.156229
0.290725 0.604945 0.156397
0.294777 0.607803 0.156875
0.298764 0.610290 0.157319
0.302016 0.610050 0.157490
0.306288 0.613356 0.158017
0.307879 0.607336 0.157607
0.309903 0.602967 0.157359
0.312704 0.601304 0.157381
0.315585 0.599941 0.157433
0.318655 0.599215 0.157547
0.322311 0.600341 0.157849
0.324329 0.596349 0.157627
0.327384 0.595626 0.157737
0.332453 0.600947 0.158468
0.336815 0.604000 0.158968
0.339347 0.601632 0.158905
0.343831 0.604900 0.159426
0.345050 0.598863 0.158979
0.348107 0.598085 0.159076
0.350842 0.596433 0.159080
0.353546 0.594727 0.159076
0.360437 0.604174 0.160245
0.363501 0.603312 0.160330
0.366394 0.602016 0.160367
0.371253 0.605739 0.160935
0.375810 0.608581 0.161411
0.380367 0.611327 0.161876
0.384154 0.612094 0.162131
0.386069 0.608296 0.161895
0.389552 0.608312 0.162067
0.393208 0.608706 0.162279
0.396585 0.608419 0.162416
0.398231 0.604142 0.162120
0.399972 0.600163 0.161854
0.404009 0.601387 0.162151
0.409090 0.604858 0.162693
0.409720 0.598508 0.162162
0.416900 0.606394 0.163189
0.420803 0.607086 0.163428
0.425862 0.610162 0.163929
0.430890 0.613069 0.164413
0.434237 0.612424 0.164505
0.432222 0.600878 0.163388
0.434703 0.598587 0.163293
0.438828 0.599575 0.163561
0.442353 0.599333 0.163693
0.445488 0.598305 0.163736
0.448924 0.597843 0.163843
0.454830 0.602037 0.164472
0.460552 0.605759 0.165050
0.466041 0.608930 0.165567
0.467737 0.605045 0.165288
0.467111 0.596996 0.164534
0.472002 0.598981 0.164917
0.474600 0.596815 0.164828
0.478366 0.596711 0.164973
0.486527 0.604202 0.165988
0.490841 0.604887 0.166226
0.495143 0.605498 0.166456
0.495492 0.599412 0.165915
0.498914 0.598526 0.165972
0.502433 0.597780 0.166045
0.506534 0.597958 0.166225
0.510770 0.598312 0.166426
0.513828 0.596738 0.166402
0.517987 0.596895 0.166581
0.523774 0.599554 0.167052
0.526689 0.597675 0.166994
0.529391 0.595465 0.166896
0.532847 0.594404 0.166933
0.542619 0.602802 0.168086
0.549565 0.606792 0.168723
0.551792 0.603719 0.168525
0.553067 0.599277 0.168164
0.556683 0.598258 0.168209
0.560145 0.596996 0.168225
0.563793 0.595981 0.168270
0.567237 0.594656 0.168279
0.578760 0.604512 0.169631
0.587522 0.610342 0.170504
0.582672 0.597522 0.169130
0.587900 0.598465 0.169415
0.597864 0.605659 0.170460
0.602760 0.605981 0.170674
0.600803 0.597298 0.169792
0.604566 0.596141 0.169826
0.611148 0.598575 0.170299
0.614810 0.597212 0.170308
0.618897 0.596365 0.170382
0.623432 0.596047 0.170521
0.628821 0.596744 0.170786
0.632803 0.595664 0.170833
0.636103 0.593736 0.170775
0.640814 0.593489 0.170926
0.650528 0.599141 0.171813
