ply
format ascii 1.0
comment ---
element vertex 1699
property float x
property float y
property float z
element face 0
property list uchar uint vertex_indices
end_header
0.416166 0.608218 -0.017971
0.419987 0.614985 -0.019299
0.424206 0.604126 -0.017421
0.428168 0.603963 -0.017493
0.432097 0.607004 -0.018152
0.436072 0.606284 -0.018127
0.440040 0.608315 -0.018608
0.444044 0.614561 -0.019863
0.448114 0.621808 -0.021306
0.452086 0.616741 -0.020499
0.456014 0.611821 -0.019721
0.459745 0.600299 -0.017734
0.463781 0.603741 -0.018493
0.467797 0.605514 -0.018949
0.471920 0.609721 -0.019857
0.476151 0.615548 -0.021068
0.479735 0.606167 -0.019483
0.483977 0.611408 -0.020594
0.487700 0.606368 -0.019813
0.491693 0.606572 -0.020003
0.495877 0.609654 -0.020729
0.499796 0.608461 -0.020668
0.503765 0.608054 -0.020757
0.507640 0.606469 -0.020630
0.511432 0.604024 -0.020348
0.515238 0.601950 -0.020138
0.519536 0.605334 -0.020947
0.523461 0.604525 -0.020980
0.527390 0.603793 -0.021032
0.531395 0.603779 -0.021222
0.535833 0.607591 -0.022132
0.539539 0.604768 -0.021807
0.543224 0.601948 -0.021486
0.547013 0.600108 -0.021352
0.551604 0.604478 -0.022389
0.555585 0.603994 -0.022520
0.559763 0.604893 -0.022917
0.565573 0.616926 -0.025421
0.569891 0.618179 -0.025899
0.572942 0.611121 -0.024811
0.576116 0.605194 -0.023938
0.579221 0.599142 -0.023044
0.583497 0.600299 -0.023523
0.587614 0.600419 -0.023811
0.593552 0.610655 -0.026036
0.597623 0.610133 -0.026217
0.602880 0.615861 -0.027600
0.605609 0.608184 -0.026421
0.610346 0.610939 -0.027249
0.613600 0.606212 -0.026644
0.617250 0.603547 -0.026439
0.620936 0.601117 -0.026284
0.626196 0.605946 -0.027539
0.630668 0.606974 -0.028067
0.634636 0.605688 -0.028151
0.637987 0.601751 -0.027723
0.641988 0.600648 -0.027852
0.645517 0.597595 -0.027604
0.649757 0.597474 -0.027934
0.655486 0.603173 -0.029412
0.660862 0.607227 -0.030577
0.663086 0.599116 -0.029349
0.668027 0.601372 -0.030170
0.672312 0.601099 -0.030495
0.676844 0.601674 -0.030992
0.682545 0.606291 -0.032297
0.688136 0.610321 -0.033493
0.692936 0.611487 -0.034122
0.695074 0.603699 -0.032957
0.697959 0.598598 -0.032326
0.701979 0.597294 -0.032455
0.706446 0.597425 -0.032872
0.713424 0.605359 -0.034867
0.716933 0.602388 -0.034654
0.722805 0.606631 -0.035902
0.728505 0.610229 -0.037017
0.729079 0.598734 -0.035047
0.729892 0.588289 -0.033274
0.737404 0.597168 -0.035447
0.741829 0.597186 -0.035796
0.745708 0.595732 -0.035831
0.750338 0.596393 -0.036289
0.754323 0.595357 -0.036383
0.760052 0.599005 -0.037431
0.765034 0.600669 -0.038053
0.769405 0.589880 -0.036310
0.773698 0.590086 -0.036570
0.780513 0.596618 -0.038128
0.785598 0.598849 -0.038769
0.789671 0.598681 -0.038888
0.794879 0.601329 -0.039571
0.799656 0.603006 -0.040027
0.805782 0.607906 -0.041132
0.811770 0.612495 -0.042148
0.813133 0.606536 -0.040931
0.809545 0.589622 -0.037395
0.810760 0.583925 -0.036182
0.820318 0.596951 -0.038860
0.821523 0.591511 -0.037650
-0.143321 0.612404 -0.031563
-0.137541 0.610244 -0.031405
-0.133371 0.610547 -0.031705
-0.129096 0.610791 -0.031968
-0.124207 0.610203 -0.032039
-0.120380 0.611320 -0.032421
-0.116405 0.612318 -0.032752
-0.111989 0.612737 -0.032942
-0.106421 0.611446 -0.032765
-0.101545 0.611309 -0.032791
-0.097402 0.612420 -0.033038
-0.093607 0.614188 -0.033389
-0.089149 0.614984 -0.033522
-0.083597 0.614070 -0.033292
-0.078372 0.613743 -0.033154
-0.072978 0.613186 -0.032947
-0.068580 0.614352 -0.033061
-0.064232 0.615673 -0.033185
-0.059652 0.616661 -0.033224
-0.053339 0.614687 -0.032659
-0.048435 0.615180 -0.032566
-0.042725 0.614271 -0.032181
-0.039296 0.617461 -0.032591
-0.037543 0.623779 -0.033602
-0.031994 0.623260 -0.033256
-0.022499 0.615393 -0.031461
-0.016325 0.613584 -0.030848
-0.012207 0.615632 -0.030984
-0.008184 0.617892 -0.031155
0.000583 0.610948 -0.029527
0.005919 0.610569 -0.029177
0.010647 0.611365 -0.029055
0.012715 0.617509 -0.029967
0.019606 0.613917 -0.028992
0.028062 0.606964 -0.027370
0.033654 0.605785 -0.026867
0.035786 0.611861 -0.027766
0.040574 0.612344 -0.027588
0.043888 0.615992 -0.028021
0.046524 0.621171 -0.028748
0.055163 0.613055 -0.026933
0.062952 0.606593 -0.025444
0.067681 0.606902 -0.025255
0.071458 0.609367 -0.025482
0.075055 0.612263 -0.025796
0.081596 0.608177 -0.024787
0.086040 0.608979 -0.024714
0.091093 0.608255 -0.024358
0.096709 0.606058 -0.023729
0.101415 0.606029 -0.023517
0.106098 0.605999 -0.023312
0.109897 0.608194 -0.023532
0.111793 0.615375 -0.024697
0.117840 0.611681 -0.023820
0.123980 0.607568 -0.022872
0.127192 0.611288 -0.023402
0.131834 0.611092 -0.023203
0.137182 0.608847 -0.022626
0.141572 0.609216 -0.022546
0.146399 0.608275 -0.022226
0.151222 0.607262 -0.021900
0.153495 0.613796 -0.022989
0.158066 0.613499 -0.022807
0.164359 0.607815 -0.021628
0.166844 0.613857 -0.022639
0.172865 0.608758 -0.021582
0.177267 0.608692 -0.021467
0.180298 0.613101 -0.022189
0.186182 0.608034 -0.021156
0.190659 0.607546 -0.020979
0.194778 0.608237 -0.021026
0.198829 0.609146 -0.021118
0.202825 0.610240 -0.021249
0.204871 0.618478 -0.022709
0.207782 0.623750 -0.023622
0.214217 0.615760 -0.022085
0.219789 0.610765 -0.021107
0.224537 0.608793 -0.020694
0.229478 0.605916 -0.020117
0.230788 0.617831 -0.022281
0.233052 0.626188 -0.023790
0.239812 0.615559 -0.021793
0.246466 0.604903 -0.019796
0.249903 0.608144 -0.020371
0.253553 0.610515 -0.020789
0.258086 0.608816 -0.020459
0.262620 0.606994 -0.020109
0.267662 0.602553 -0.019280
0.272345 0.599663 -0.018741
0.275860 0.602607 -0.019282
0.279073 0.607262 -0.020143
0.282412 0.611431 -0.020917
0.287046 0.608588 -0.020400
0.291745 0.605167 -0.019779
0.295028 0.609852 -0.020658
0.298127 0.615883 -0.021789
0.303000 0.611183 -0.020940
0.307827 0.606448 -0.020088
0.311637 0.608115 -0.020422
0.315517 0.609378 -0.020684
0.319638 0.608989 -0.020643
0.323569 0.609917 -0.020849
0.327401 0.611638 -0.021204
0.331608 0.610494 -0.021032
0.335687 0.610268 -0.021032
0.340511 0.603664 -0.019854
0.344455 0.604258 -0.020011
0.348284 0.605926 -0.020370
0.351900 0.609768 -0.021134
0.355572 0.613375 -0.021858
0.359786 0.611545 -0.021577
0.363918 0.610392 -0.021423
0.368217 0.607121 -0.020879
0.372562 0.602839 -0.020149
0.376709 0.600613 -0.019803
0.380205 0.607271 -0.021109
0.384377 0.604595 -0.020684
0.388301 0.605508 -0.020929
0.392224 0.606549 -0.021201
0.396029 0.610005 -0.021924
0.399968 0.611271 -0.022243
0.403976 0.611163 -0.022309
0.408005 0.610408 -0.022257
0.412083 0.607913 -0.021883
0.415955 0.611792 -0.022700
0.420016 0.609191 -0.022311
0.424096 0.604334 -0.021502
0.428065 0.603912 -0.021525
0.432020 0.604360 -0.021713
0.435974 0.605782 -0.022086
0.439941 0.606999 -0.022425
0.443946 0.614843 -0.024009
0.448044 0.624908 -0.026016
0.452011 0.618190 -0.024876
0.455833 0.606933 -0.022884
0.459681 0.601442 -0.021977
0.463695 0.603789 -0.022547
0.467736 0.606283 -0.023149
0.471856 0.610281 -0.024038
0.476063 0.615415 -0.025147
0.480068 0.615109 -0.025234
0.483620 0.605883 -0.023637
0.487308 0.600639 -0.022794
0.491044 0.596969 -0.022251
0.494760 0.593496 -0.021748
0.499086 0.599202 -0.022991
0.503440 0.604549 -0.024171
0.507571 0.606377 -0.024688
0.511554 0.606184 -0.024825
0.515411 0.604538 -0.024689
0.519519 0.605717 -0.025096
0.523690 0.607375 -0.025600
0.527515 0.605464 -0.025426
0.531388 0.604114 -0.025363
0.535521 0.605153 -0.025763
0.539673 0.606228 -0.026175
0.543189 0.601925 -0.025559
0.546908 0.599506 -0.025308
0.550832 0.598770 -0.025385
0.555498 0.603511 -0.026524
0.559550 0.603503 -0.026754
0.564771 0.611493 -0.028536
0.571031 0.625850 -0.031564
0.573468 0.614554 -0.029624
0.576107 0.605151 -0.028052
0.579314 0.599693 -0.027248
0.583839 0.602283 -0.028017
0.588051 0.602866 -0.028401
0.593535 0.610473 -0.030166
0.598076 0.612487 -0.030846
0.601654 0.609237 -0.030500
0.607490 0.617750 -0.032471
0.609193 0.604963 -0.030257
0.614109 0.608530 -0.031269
0.618115 0.607500 -0.031380
0.622038 0.606068 -0.031418
0.626523 0.607213 -0.031972
0.630818 0.607396 -0.032341
0.634981 0.606937 -0.032589
0.638771 0.604839 -0.032515
0.642629 0.603055 -0.032508
0.647086 0.603751 -0.033003
0.650948 0.601968 -0.033005
0.657243 0.609791 -0.034946
0.661566 0.609632 -0.035288
0.662884 0.598035 -0.033320
0.667606 0.599487 -0.033992
0.672408 0.601129 -0.034707
0.676793 0.601168 -0.035102
0.682286 0.605059 -0.036285
0.690063 0.616655 -0.039052
0.691832 0.607429 -0.037560
0.695524 0.604897 -0.037438
0.699061 0.601915 -0.037220
0.705153 0.607236 -0.038714
0.709955 0.608271 -0.039324
0.711208 0.598206 -0.037631
0.716277 0.600148 -0.038420
0.720721 0.600136 -0.038801
0.730749 0.616705 -0.042637
0.730176 0.601786 -0.039893
0.729646 0.587454 -0.037252
0.737002 0.595932 -0.039380
0.743553 0.601943 -0.040986
0.746787 0.598678 -0.040628
0.751176 0.598683 -0.040945
0.755231 0.597842 -0.041069
0.759871 0.598624 -0.041520
0.763835 0.597688 -0.041589
0.769566 0.590522 -0.040543
0.770368 0.582022 -0.038939
0.781199 0.598650 -0.042668
0.785896 0.599964 -0.043113
0.789921 0.599723 -0.043203
0.794364 0.600589 -0.043504
0.798913 0.601793 -0.043853
0.803225 0.602529 -0.044077
0.807707 0.603755 -0.044380
0.809039 0.597871 -0.043136
0.808723 0.588494 -0.041118
0.809054 0.580876 -0.039452
0.836648 0.625623 -0.048871
-0.140004 0.607921 -0.035026
-0.137732 0.610878 -0.035903
-0.132995 0.610294 -0.036039
-0.128696 0.610454 -0.036299
-0.124836 0.611376 -0.036687
-0.120638 0.611887 -0.036965
-0.116707 0.612910 -0.037319
-0.111369 0.611853 -0.037223
-0.106353 0.611372 -0.037217
-0.101572 0.611335 -0.037274
-0.097755 0.612917 -0.037634
-0.094248 0.615105 -0.038091
-0.089489 0.615373 -0.038131
-0.084140 0.614751 -0.037965
-0.079102 0.614696 -0.037889
-0.073845 0.614332 -0.037727
-0.069504 0.615564 -0.037868
-0.064845 0.616325 -0.037892
-0.060143 0.617073 -0.037893
-0.054149 0.615625 -0.037429
-0.048786 0.615287 -0.037174
-0.043900 0.615814 -0.037078
-0.039267 0.616825 -0.037066
-0.035982 0.620321 -0.037542
-0.030113 0.619155 -0.037065
-0.022642 0.614988 -0.035973
-0.016988 0.614134 -0.035542
-0.012192 0.614883 -0.035426
-0.007686 0.616189 -0.035416
-0.000239 0.611789 -0.034257
0.007514 0.606656 -0.032951
0.006895 0.618044 -0.034943
0.010075 0.622019 -0.035449
0.017542 0.617308 -0.034224
0.027422 0.607463 -0.031984
0.030350 0.611860 -0.032574
0.036220 0.610098 -0.031945
0.042547 0.607267 -0.031108
0.046232 0.610046 -0.031383
0.050142 0.612351 -0.031566
0.050421 0.622745 -0.033342
0.061204 0.609673 -0.030510
0.066902 0.607819 -0.029890
0.070698 0.610259 -0.030117
0.074814 0.611960 -0.030203
0.082465 0.605250 -0.028652
0.084617 0.611540 -0.029645
0.089215 0.611977 -0.029502
0.095409 0.608418 -0.028587
0.101388 0.605241 -0.027756
0.105558 0.606521 -0.027795
0.109742 0.607740 -0.027829
0.109600 0.620256 -0.030054
0.117732 0.611117 -0.028097
0.122555 0.610563 -0.027806
0.124883 0.616752 -0.028822
0.129082 0.617882 -0.028868
0.135562 0.612569 -0.027681
0.139008 0.615709 -0.028126
0.145739 0.609359 -0.026755
0.154023 0.598187 -0.024467
0.155061 0.608286 -0.026265
0.159177 0.609299 -0.026326
0.164500 0.606566 -0.025676
0.169001 0.606270 -0.025499
0.170533 0.615380 -0.027125
0.174970 0.615328 -0.027005
0.179964 0.613385 -0.026529
0.186474 0.606244 -0.025068
0.190787 0.606301 -0.024986
0.194776 0.607439 -0.025115
0.198639 0.609012 -0.025332
0.202624 0.610156 -0.025472
0.203852 0.621398 -0.027538
0.208434 0.620495 -0.027297
0.214599 0.613493 -0.025902
0.220252 0.608159 -0.024830
0.224539 0.607974 -0.024741
0.228064 0.610805 -0.025229
0.230670 0.617489 -0.026453
0.233232 0.624594 -0.027760
0.238434 0.620640 -0.026972
0.245460 0.608482 -0.024633
0.249571 0.608796 -0.024664
0.252706 0.613547 -0.025540
0.258320 0.606876 -0.024255
0.263750 0.600735 -0.023073
0.267474 0.602623 -0.023418
0.271955 0.600764 -0.023056
0.275168 0.605299 -0.023909
0.278432 0.609762 -0.024752
0.281909 0.613263 -0.025416
0.286190 0.612441 -0.025264
0.291542 0.605417 -0.023940
0.296312 0.601379 -0.023185
0.298247 0.614203 -0.025629
0.303352 0.608028 -0.024475
0.307776 0.605797 -0.024072
0.311519 0.607905 -0.024494
0.315379 0.609305 -0.024785
0.319227 0.610851 -0.025107
0.322562 0.616217 -0.026157
0.327440 0.610255 -0.025059
0.331343 0.611459 -0.025325
0.335498 0.610665 -0.025214
0.340313 0.604172 -0.024023
0.344105 0.606145 -0.024443
0.348075 0.606613 -0.024580
0.351756 0.609872 -0.025250
0.355233 0.615461 -0.026366
0.359850 0.609481 -0.025284
0.364029 0.607716 -0.025007
0.368220 0.605582 -0.024662
0.372362 0.603778 -0.024382
0.376144 0.606478 -0.024962
0.380400 0.602786 -0.024327
0.383946 0.609295 -0.025640
0.387895 0.610169 -0.025881
0.391740 0.613000 -0.026498
0.395859 0.611037 -0.026203
0.399777 0.612874 -0.026637
0.404039 0.607024 -0.025604
0.408028 0.606863 -0.025661
0.411849 0.611630 -0.026663
0.415872 0.610899 -0.026617
0.419929 0.608386 -0.026232
0.423979 0.604970 -0.025676
0.427963 0.603820 -0.025557
0.431921 0.604160 -0.025727
0.435880 0.604719 -0.025941
0.439843 0.606744 -0.026441
0.443830 0.609981 -0.027177
0.447903 0.619710 -0.029167
0.451796 0.609054 -0.027236
0.455676 0.603251 -0.026241
0.459595 0.601481 -0.026026
0.463619 0.604124 -0.026665
0.467721 0.608423 -0.027629
0.471728 0.608990 -0.027876
0.475981 0.615362 -0.029250
0.479975 0.614755 -0.029278
0.483343 0.601892 -0.026933
0.486984 0.596075 -0.025955
0.490911 0.595901 -0.026075
0.494974 0.597796 -0.026601
0.498975 0.598512 -0.026902
0.503185 0.601921 -0.027732
0.507609 0.607582 -0.029007
0.511583 0.607185 -0.029106
0.515250 0.603302 -0.028528
0.519497 0.605998 -0.029240
0.523400 0.604873 -0.029209
0.527792 0.608578 -0.030129
0.531835 0.608655 -0.030344
0.536131 0.610930 -0.030996
0.539781 0.607429 -0.030516
0.543256 0.602710 -0.029801
0.547114 0.601330 -0.029747
0.551227 0.601951 -0.030093
0.555359 0.602615 -0.030453
0.559486 0.603138 -0.030790
0.563946 0.605874 -0.031573
0.570539 0.622602 -0.035144
0.573555 0.615123 -0.033912
0.575910 0.603894 -0.031935
0.579401 0.600180 -0.031456
0.583991 0.603107 -0.032309
0.588568 0.605743 -0.033112
0.593024 0.607500 -0.033746
0.597374 0.608528 -0.034241
0.601588 0.608726 -0.034576
0.605066 0.605050 -0.034136
0.610189 0.609782 -0.035398
0.614219 0.608856 -0.035525
0.619370 0.613289 -0.036744
0.623303 0.611749 -0.036759
0.626798 0.608212 -0.036373
0.629888 0.602962 -0.035641
0.635157 0.607424 -0.036895
0.638932 0.605232 -0.036797
0.643146 0.604920 -0.037088
0.647351 0.604525 -0.037367
0.654275 0.615028 -0.039896
0.658344 0.613802 -0.040018
0.660583 0.605498 -0.038680
0.663221 0.598980 -0.037709
0.668649 0.603028 -0.038932
0.672716 0.601912 -0.039087
0.677457 0.603208 -0.039748
0.681884 0.603314 -0.040163
0.693604 0.613112 -0.043014
0.697219 0.610232 -0.042809
0.700813 0.607351 -0.042602
0.704358 0.604387 -0.042373
0.708725 0.604107 -0.042709
0.710864 0.596884 -0.041567
0.716269 0.599893 -0.042592
0.720655 0.599731 -0.042938
0.726275 0.603242 -0.044063
0.728014 0.595314 -0.042733
0.728640 0.584437 -0.040755
0.738319 0.599581 -0.044353
0.745277 0.606706 -0.046225
0.749296 0.605574 -0.046307
0.752783 0.603073 -0.046078
0.755002 0.597297 -0.045122
0.758922 0.596232 -0.045167
0.764655 0.599987 -0.046241
0.769920 0.602510 -0.047029
0.768157 0.587199 -0.043915
0.771883 0.586123 -0.043875
0.781556 0.599894 -0.047051
0.784315 0.596509 -0.046464
0.789663 0.599564 -0.047258
0.793925 0.600058 -0.047468
0.798204 0.600687 -0.047683
0.802155 0.600650 -0.047727
0.805345 0.598968 -0.047384
0.810553 0.602054 -0.048059
0.815138 0.603786 -0.048412
0.816295 0.597916 -0.047075
0.820063 0.598079 -0.047033
0.838288 0.630165 -0.053939
-0.144500 0.614948 -0.040811
-0.137888 0.611484 -0.040388
-0.133561 0.611472 -0.040654
-0.129610 0.612119 -0.041030
-0.126331 0.613886 -0.041613
-0.122054 0.614250 -0.041877
-0.116676 0.613014 -0.041779
-0.112302 0.613407 -0.041993
-0.107215 0.612777 -0.041966
-0.101776 0.611665 -0.041811
-0.097164 0.611933 -0.041917
-0.093280 0.613456 -0.042258
-0.089365 0.615032 -0.042584
-0.084491 0.615136 -0.042576
-0.078638 0.613689 -0.042219
-0.073871 0.614091 -0.042225
-0.069283 0.614859 -0.042284
-0.064970 0.616164 -0.042433
-0.059166 0.614972 -0.042040
-0.054350 0.615515 -0.041989
-0.049117 0.615368 -0.041777
-0.043765 0.615037 -0.041510
-0.040368 0.618230 -0.041959
-0.036558 0.620757 -0.042255
-0.030300 0.618858 -0.041621
-0.020924 0.611131 -0.039772
-0.016562 0.612641 -0.039825
-0.011849 0.613511 -0.039737
-0.006533 0.613232 -0.039406
0.000424 0.609740 -0.038409
0.006444 0.607986 -0.037766
0.007426 0.616186 -0.039161
0.010044 0.621260 -0.039909
0.020038 0.611393 -0.037602
0.021773 0.618282 -0.038717
0.027053 0.617898 -0.038348
0.034489 0.612906 -0.037044
0.043013 0.605411 -0.035238
0.047313 0.606836 -0.035247
0.050393 0.610927 -0.035797
0.054733 0.612271 -0.035794
0.058595 0.614672 -0.036007
0.066541 0.607764 -0.034351
0.070770 0.609213 -0.034383
0.075225 0.610114 -0.034309
0.080510 0.609014 -0.033840
0.081454 0.618268 -0.035449
0.086592 0.617492 -0.035054
0.092668 0.614318 -0.034188
0.101206 0.604826 -0.032072
0.105315 0.606267 -0.032142
0.109259 0.608117 -0.032299
0.110773 0.616312 -0.033722
0.117157 0.611773 -0.032622
0.120697 0.614695 -0.033009
0.123174 0.620548 -0.033981
0.127292 0.621973 -0.034081
0.133346 0.617942 -0.033111
0.138063 0.617547 -0.032866
0.140916 0.622485 -0.033678
0.147793 0.615683 -0.032184
0.156510 0.603115 -0.029564
0.160705 0.603821 -0.029564
0.165440 0.602832 -0.029236
0.168754 0.606211 -0.029772
0.170850 0.613534 -0.031085
0.174632 0.615587 -0.031371
0.179661 0.613553 -0.030860
0.186662 0.604790 -0.029040
0.190217 0.607420 -0.029455
0.193709 0.610314 -0.029926
0.198285 0.609434 -0.029665
0.202179 0.610931 -0.029873
0.203865 0.620514 -0.031665
0.208842 0.618138 -0.031126
0.215516 0.609179 -0.029309
0.220376 0.606854 -0.028792
0.224620 0.606824 -0.028727
0.228340 0.608862 -0.029069
0.231502 0.613231 -0.029869
0.233305 0.623438 -0.031810
0.241085 0.608434 -0.028847
0.245141 0.609033 -0.028926
0.248565 0.612447 -0.029557
0.252541 0.613443 -0.029721
0.257596 0.609405 -0.028910
0.264055 0.598420 -0.026752
0.267514 0.601561 -0.027346
0.269533 0.612043 -0.029370
0.275134 0.604590 -0.027910
0.278629 0.607825 -0.028532
0.283356 0.604519 -0.027886
0.285998 0.612581 -0.029454
0.290827 0.608567 -0.028677
0.295070 0.607731 -0.028521
0.299271 0.607054 -0.028400
0.303782 0.604377 -0.027892
0.307706 0.605259 -0.028080
0.311319 0.608222 -0.028676
0.315199 0.609512 -0.028949
0.319109 0.610635 -0.029193
0.322603 0.614841 -0.030040
0.326125 0.619103 -0.030901
0.330598 0.616182 -0.030368
0.335362 0.610626 -0.029323
0.340357 0.602633 -0.027807
0.343902 0.606728 -0.028648
0.347718 0.608650 -0.029068
0.351751 0.608618 -0.029110
0.355402 0.612405 -0.029900
0.359669 0.610006 -0.029486
0.363804 0.608792 -0.029306
0.367932 0.607478 -0.029109
0.372333 0.602578 -0.028215
0.376196 0.604146 -0.028585
0.379516 0.613538 -0.030488
0.383491 0.614333 -0.030714
0.387452 0.615429 -0.031002
0.391634 0.612796 -0.030564
0.395682 0.612200 -0.030526
0.399793 0.610116 -0.030200
0.403642 0.613663 -0.030980
0.408013 0.604330 -0.029238
0.411781 0.610381 -0.030514
0.415672 0.614080 -0.031334
0.419821 0.608473 -0.030329
0.423866 0.605471 -0.029838
0.427858 0.604042 -0.029659
0.431828 0.603482 -0.029653
0.435776 0.605855 -0.030228
0.439747 0.607301 -0.030623
0.443740 0.611067 -0.031480
0.447775 0.615619 -0.032496
0.451771 0.614043 -0.032307
0.455674 0.608009 -0.031240
0.459544 0.602992 -0.030376
0.463596 0.606354 -0.031171
0.467576 0.606426 -0.031320
0.471697 0.610309 -0.032227
0.475882 0.614824 -0.033265
0.479932 0.615453 -0.033537
0.483570 0.607783 -0.032164
0.487220 0.601572 -0.031083
0.491540 0.607468 -0.032413
0.495759 0.610920 -0.033262
0.499438 0.606060 -0.032459
0.503626 0.608641 -0.033144
0.507676 0.609133 -0.033417
0.511588 0.607864 -0.033342
0.515438 0.605982 -0.033148
0.519256 0.603888 -0.032916
0.523234 0.603601 -0.033050
0.527226 0.603425 -0.033211
0.532529 0.615460 -0.035834
0.536484 0.614366 -0.035823
0.539963 0.609229 -0.035001
0.543178 0.602258 -0.033811
0.547088 0.601279 -0.033835
0.551258 0.602307 -0.034270
0.555344 0.602592 -0.034560
0.559473 0.603104 -0.034902
0.564336 0.608590 -0.036261
0.569789 0.617602 -0.038346
0.573393 0.614044 -0.037881
0.576026 0.604566 -0.036210
0.579308 0.599535 -0.035448
0.584256 0.604570 -0.036752
0.588210 0.603565 -0.036825
0.592378 0.603744 -0.037147
0.596560 0.603933 -0.037478
0.600387 0.602175 -0.037414
0.604539 0.602125 -0.037707
0.610498 0.611114 -0.039877
0.614402 0.609513 -0.039865
0.619843 0.615296 -0.041391
0.623554 0.612652 -0.041174
0.626687 0.607416 -0.040422
0.631049 0.607858 -0.040857
0.632809 0.596838 -0.038900
0.637267 0.597784 -0.039449
0.642141 0.600380 -0.040351
0.645804 0.597838 -0.040179
0.654688 0.616340 -0.044449
0.658687 0.614797 -0.044503
0.661219 0.607602 -0.043363
0.661579 0.592407 -0.040523
0.668464 0.601984 -0.042943
0.673022 0.602673 -0.043480
0.677381 0.602584 -0.043854
0.681840 0.602809 -0.044298
0.691901 0.622316 -0.048882
0.696350 0.622080 -0.049238
0.697883 0.612116 -0.047498
0.700888 0.607286 -0.046857
0.703029 0.599816 -0.045639
0.706829 0.597833 -0.045601
0.710988 0.597018 -0.045811
0.716428 0.600149 -0.046877
0.720467 0.598958 -0.046995
0.727168 0.605712 -0.048844
0.728297 0.595993 -0.047079
0.731499 0.592555 -0.046676
0.736863 0.595373 -0.047636
0.744221 0.603717 -0.049803
0.749662 0.606582 -0.050754
0.753642 0.605448 -0.050807
0.755267 0.598095 -0.049465
0.758601 0.595517 -0.049160
0.764196 0.598972 -0.050175
0.772851 0.610285 -0.052919
0.770390 0.593151 -0.049314
0.775806 0.596296 -0.050198
0.780926 0.598720 -0.050900
0.784359 0.597054 -0.050666
0.788786 0.597933 -0.050975
0.794032 0.600859 -0.051716
0.797724 0.600149 -0.051620
0.801893 0.600686 -0.051776
0.809249 0.608704 -0.053579
0.816711 0.616916 -0.055398
0.820160 0.615978 -0.055146
0.819338 0.605592 -0.052756
0.821384 0.601907 -0.051838
0.822432 0.596214 -0.050448
-0.140924 0.610129 -0.044140
-0.138944 0.613450 -0.045153
-0.134798 0.613678 -0.045485
-0.130571 0.613880 -0.045785
-0.127088 0.615305 -0.046318
-0.121760 0.614026 -0.046247
-0.116675 0.613191 -0.046243
-0.112065 0.613169 -0.046384
-0.107779 0.613741 -0.046625
-0.102598 0.612995 -0.046555
-0.096917 0.611521 -0.046302
-0.092747 0.612531 -0.046553
-0.088843 0.614067 -0.046891
-0.084432 0.614872 -0.047045
-0.079016 0.614100 -0.046836
-0.072898 0.612203 -0.046361
-0.068659 0.613497 -0.046546
-0.063872 0.613936 -0.046525
-0.059076 0.614416 -0.046492
-0.053665 0.613879 -0.046220
-0.049049 0.614763 -0.046233
-0.044286 0.615436 -0.046184
-0.039490 0.616088 -0.046113
-0.035375 0.618010 -0.046297
-0.027727 0.613505 -0.045102
-0.020312 0.609339 -0.043970
-0.014646 0.608360 -0.043505
-0.012285 0.613624 -0.044353
-0.007564 0.614472 -0.044256
0.000776 0.608297 -0.042672
0.007208 0.605708 -0.041843
0.012250 0.605796 -0.041574
0.015662 0.609135 -0.041984
0.019807 0.611033 -0.042089
0.025498 0.609758 -0.041528
0.029195 0.612571 -0.041821
0.036422 0.607958 -0.040566
0.040861 0.609148 -0.040523
0.046697 0.607298 -0.039851
0.048446 0.614314 -0.041022
0.052687 0.615924 -0.041073
0.060175 0.610220 -0.039614
0.067781 0.604048 -0.038066
0.071242 0.607228 -0.038456
0.075498 0.608579 -0.038472
0.079749 0.609922 -0.038491
0.081100 0.618213 -0.039942
0.085706 0.618746 -0.039804
0.093009 0.612575 -0.038299
0.100368 0.606037 -0.036728
0.105276 0.605479 -0.036389
0.108139 0.610110 -0.037115
0.110613 0.615836 -0.038068
0.115854 0.614338 -0.037555
0.120827 0.613461 -0.037176
0.123501 0.618768 -0.038059
0.128192 0.618596 -0.037835
0.133283 0.617239 -0.037378
0.137003 0.619691 -0.037699
0.140561 0.622633 -0.038125
0.145592 0.621281 -0.037689
0.152503 0.614221 -0.036107
0.160946 0.602239 -0.033543
0.164303 0.605486 -0.034056
0.169043 0.604459 -0.033714
0.172242 0.608248 -0.034348
0.175177 0.612968 -0.035172
0.179697 0.612581 -0.034976
0.185382 0.608233 -0.033991
0.189554 0.608837 -0.034005
0.193809 0.609124 -0.033962
0.198117 0.609188 -0.033879
0.202217 0.609950 -0.033941
0.203381 0.621431 -0.036154
0.208740 0.617667 -0.035320
0.215308 0.609127 -0.033536
0.220660 0.604913 -0.032624
0.224408 0.606821 -0.032940
0.228146 0.608797 -0.033275
0.231544 0.612204 -0.033899
0.235075 0.615156 -0.034437
0.240162 0.611530 -0.033666
0.245170 0.608048 -0.032928
0.247027 0.618447 -0.034964
0.250657 0.621176 -0.035474
0.255623 0.617745 -0.034759
0.260907 0.612593 -0.033706
0.264277 0.616518 -0.034466
0.268589 0.615877 -0.034320
0.273128 0.613996 -0.033930
0.281176 0.593497 -0.029834
0.282459 0.608454 -0.032807
0.286575 0.608445 -0.032802
0.289815 0.613397 -0.033788
0.293869 0.613817 -0.033875
0.297813 0.614883 -0.034094
0.302636 0.610520 -0.033235
0.307160 0.607760 -0.032698
0.311149 0.608323 -0.032827
0.315104 0.609117 -0.033004
0.319070 0.609853 -0.033174
0.322599 0.613782 -0.033983
0.324932 0.626997 -0.036648
0.329523 0.623466 -0.035976
0.334895 0.613269 -0.033977
0.340287 0.602046 -0.031775
0.343772 0.606655 -0.032736
0.347772 0.606898 -0.032828
0.351768 0.607165 -0.032927
0.355062 0.614483 -0.034439
0.359324 0.612267 -0.034049
0.363741 0.608043 -0.033260
0.367872 0.606684 -0.033046
0.371807 0.607557 -0.033281
0.375736 0.608587 -0.033551
0.379530 0.611598 -0.034220
0.383031 0.619423 -0.035857
0.387202 0.617533 -0.035551
0.391377 0.615220 -0.035163
0.395686 0.609890 -0.034173
0.399287 0.618353 -0.035952
0.403607 0.611851 -0.034732
0.407593 0.612448 -0.034939
0.411429 0.617627 -0.036070
0.415412 0.619379 -0.036516
0.419579 0.614146 -0.035560
0.423790 0.604086 -0.033635
0.427767 0.603425 -0.033603
0.431712 0.605235 -0.034072
0.435675 0.606610 -0.034457
0.439651 0.608239 -0.034897
0.443644 0.610364 -0.035441
0.447672 0.614319 -0.036359
0.451689 0.614543 -0.036527
0.455635 0.610651 -0.035865
0.459459 0.602926 -0.034430
0.463432 0.603299 -0.034637
0.467544 0.607908 -0.035707
0.471660 0.611421 -0.036560
0.475742 0.613235 -0.037072
0.479755 0.613155 -0.037204
0.483506 0.607874 -0.036281
0.487552 0.608766 -0.036619
0.491868 0.613999 -0.037845
0.495745 0.611636 -0.037527
0.499682 0.610402 -0.037444
0.503595 0.608967 -0.037323
0.507622 0.609098 -0.037527
0.511521 0.607638 -0.037410
0.515342 0.605399 -0.037136
0.519399 0.605874 -0.037424
0.523022 0.601810 -0.036784
0.527373 0.605197 -0.037679
0.532347 0.614050 -0.039708
0.536659 0.616181 -0.040360
0.539971 0.609494 -0.039197
0.543281 0.603268 -0.038131
0.547135 0.601778 -0.038048
0.551312 0.602813 -0.038493
0.555418 0.603191 -0.038807
0.559489 0.603245 -0.039060
0.564001 0.606273 -0.039938
0.569204 0.613663 -0.041733
0.573296 0.613356 -0.041932
0.576733 0.608912 -0.041271
0.580752 0.608201 -0.041396
0.584218 0.604212 -0.040838
0.587972 0.602040 -0.040666
0.591953 0.601196 -0.040778
0.596041 0.600914 -0.041014
0.600306 0.601530 -0.041446
0.604406 0.601206 -0.041685
0.610619 0.611466 -0.044173
0.614436 0.609409 -0.044061
0.617579 0.604156 -0.043274
0.622612 0.607939 -0.044414
0.626936 0.608243 -0.044821
0.631126 0.607881 -0.045092
0.632952 0.597133 -0.043143
0.637337 0.597742 -0.043629
0.641628 0.597879 -0.044019
0.646365 0.599785 -0.044796
0.653498 0.611188 -0.047631
0.659119 0.616127 -0.049081
0.661869 0.609736 -0.048084
0.663635 0.599822 -0.046320
0.668579 0.602040 -0.047192
0.672889 0.601821 -0.047537
0.677390 0.602251 -0.048027
0.681871 0.602561 -0.048492
0.691678 0.621185 -0.052982
0.693084 0.610671 -0.051076
0.695797 0.604842 -0.050194
0.699989 0.604031 -0.050414
0.703581 0.601297 -0.050205
0.706187 0.595525 -0.049316
0.710469 0.595150 -0.049618
0.716442 0.599964 -0.051070
0.720170 0.597864 -0.050977
0.725925 0.601854 -0.052236
0.729937 0.600646 -0.052325
0.732650 0.595762 -0.051576
0.736431 0.594084 -0.051533
0.741589 0.596337 -0.052362
0.748313 0.602884 -0.054147
0.755013 0.609233 -0.055876
0.758512 0.606893 -0.055625
0.770684 0.627602 -0.060579
0.768652 0.610797 -0.057009
0.772063 0.608515 -0.056710
0.773926 0.602444 -0.055525
0.775528 0.595957 -0.054221
0.780736 0.598663 -0.054985
0.784643 0.598217 -0.055006
0.789722 0.600722 -0.055676
0.793913 0.601149 -0.055846
0.799082 0.603994 -0.056543
0.802014 0.601650 -0.056028
0.816844 0.627042 -0.061819
0.822858 0.631808 -0.062873
0.818577 0.613232 -0.058574
0.812825 0.591838 -0.053608
0.817647 0.594516 -0.054109
0.819094 0.589816 -0.052904
-0.136532 0.604131 -0.047148
-0.138045 0.612545 -0.049299
-0.134735 0.613970 -0.049907
-0.129494 0.612601 -0.049879
-0.125808 0.613662 -0.050355
-0.122082 0.614770 -0.050814
-0.115299 0.611274 -0.050237
-0.110600 0.611048 -0.050347
-0.106715 0.612182 -0.050728
-0.102321 0.612615 -0.050927
-0.097353 0.612224 -0.050917
-0.092530 0.612139 -0.050946
-0.087759 0.612215 -0.050983
-0.083865 0.613802 -0.051326
-0.079984 0.615508 -0.051668
-0.075150 0.615722 -0.051657
-0.068259 0.612532 -0.050875
-0.063512 0.612986 -0.050869
-0.058567 0.613158 -0.050779
-0.053616 0.613366 -0.050676
-0.049008 0.614222 -0.050695
-0.044015 0.614444 -0.050556
-0.038702 0.614125 -0.050282
-0.034908 0.616575 -0.050597
-0.022701 0.603673 -0.047552
-0.016286 0.601227 -0.046777
-0.015260 0.608832 -0.048175
-0.011936 0.612252 -0.048651
-0.009427 0.617305 -0.049470
-0.002273 0.613457 -0.048354
0.005424 0.608434 -0.046981
0.011846 0.605802 -0.046123
0.014998 0.609653 -0.046658
0.019447 0.610931 -0.046635
0.024384 0.611203 -0.046395
0.030279 0.609450 -0.045720
0.034993 0.610104 -0.045562
0.040405 0.609243 -0.045081
0.044693 0.610748 -0.045107
0.047260 0.616012 -0.045935
0.051115 0.618506 -0.046174
0.058408 0.613289 -0.044780
0.066832 0.605308 -0.042808
0.071421 0.605909 -0.042661
0.076103 0.606253 -0.042464
0.080322 0.607652 -0.042495
0.082234 0.614570 -0.043692
0.085708 0.617819 -0.044120
0.093265 0.611030 -0.042445
0.100426 0.604985 -0.040936
0.104959 0.605377 -0.040785
0.108602 0.608014 -0.041109
0.110505 0.615206 -0.042390
0.112941 0.621139 -0.043411
0.121781 0.609998 -0.040878
0.127967 0.605699 -0.039782
0.130786 0.610522 -0.040591
0.134546 0.612797 -0.040875
0.138248 0.615248 -0.041200
0.142983 0.614733 -0.040917
0.148302 0.612430 -0.040271
0.152115 0.614495 -0.040535
0.157035 0.613215 -0.040114
0.163230 0.607918 -0.038870
0.168333 0.605812 -0.038292
0.171882 0.608526 -0.038715
0.173287 0.618207 -0.040579
0.179247 0.613194 -0.039421
0.185298 0.607653 -0.038161
0.189908 0.606771 -0.037866
0.193998 0.607611 -0.037931
0.198177 0.608116 -0.037933
0.202254 0.608957 -0.038009
0.204072 0.618036 -0.039780
0.207998 0.619559 -0.040005
0.214324 0.612000 -0.038374
0.219919 0.606922 -0.037257
0.224032 0.607443 -0.037293
0.227730 0.609606 -0.037670
0.230781 0.614467 -0.038603
0.233906 0.619176 -0.039509
0.239267 0.614479 -0.038496
0.243571 0.614156 -0.038382
0.247268 0.616485 -0.038814
0.251175 0.617916 -0.039067
0.255034 0.619592 -0.039374
0.258670 0.622374 -0.039912
0.263890 0.617503 -0.038890
0.268764 0.614083 -0.038168
0.273625 0.610525 -0.037423
0.277911 0.609769 -0.037253
0.282419 0.607735 -0.036827
0.286147 0.609876 -0.037256
0.289979 0.611500 -0.037584
0.293185 0.616846 -0.038675
0.297358 0.616639 -0.038636
0.302838 0.608263 -0.036932
0.306931 0.608214 -0.036932
0.311067 0.607838 -0.036869
0.315036 0.608536 -0.037028
0.318997 0.609296 -0.037203
0.323047 0.609429 -0.037253
0.325224 0.623656 -0.040185
0.329469 0.622729 -0.040026
0.334863 0.612351 -0.037938
0.339872 0.604362 -0.036341
0.343857 0.604683 -0.036444
0.347774 0.605618 -0.036677
0.351767 0.605870 -0.036773
0.354549 0.618291 -0.039362
0.359277 0.611365 -0.037995
0.363899 0.604848 -0.036715
0.367916 0.604674 -0.036735
0.371776 0.606375 -0.037143
0.375709 0.607299 -0.037394
0.379691 0.607612 -0.037524
0.383687 0.607731 -0.037616
0.387001 0.618842 -0.039967
0.391363 0.613407 -0.038926
0.395095 0.618965 -0.040145
0.399264 0.616419 -0.039703
0.403532 0.610978 -0.038669
0.407465 0.612904 -0.039152
0.411258 0.619482 -0.040595
0.415197 0.623100 -0.041433
0.419391 0.617550 -0.040388
0.423719 0.602574 -0.037401
0.427682 0.602466 -0.037480
0.431615 0.605204 -0.038150
0.435577 0.607115 -0.038652
0.439559 0.607253 -0.038793
0.443554 0.610621 -0.039604
0.447559 0.611494 -0.039904
0.451556 0.611050 -0.039935
0.455508 0.608268 -0.039485
0.459346 0.601487 -0.038209
0.463348 0.603116 -0.038679
0.467366 0.604724 -0.039150
0.471649 0.613155 -0.041042
0.475754 0.615291 -0.041632
0.479625 0.611839 -0.041063
0.483429 0.607645 -0.040343
0.487064 0.601065 -0.039129
0.491188 0.603647 -0.039828
0.495251 0.604868 -0.040247
0.499128 0.603189 -0.040066
0.503313 0.605839 -0.040794
0.507316 0.605816 -0.040968
0.511225 0.604616 -0.040900
0.515278 0.605131 -0.041196
0.518940 0.601332 -0.040590
0.523423 0.606274 -0.041826
0.526646 0.598378 -0.040366
0.532601 0.616675 -0.044431
0.536531 0.615241 -0.044344
0.539811 0.608291 -0.043096
0.543262 0.603237 -0.042251
0.547251 0.602787 -0.042385
0.551343 0.603098 -0.042685
0.555376 0.602901 -0.042883
0.559519 0.603448 -0.043245
0.563894 0.605499 -0.043934
0.569162 0.613317 -0.045860
0.573142 0.612265 -0.045902
0.576642 0.608221 -0.045309
0.580212 0.604777 -0.044848
0.583863 0.601947 -0.044524
0.587772 0.600705 -0.044544
0.591931 0.600863 -0.044872
0.596222 0.601671 -0.045346
0.600404 0.601805 -0.045682
0.604525 0.601554 -0.045940
0.611157 0.613891 -0.048934
0.613017 0.602146 -0.046714
0.616869 0.600444 -0.046675
0.621023 0.600174 -0.046954
0.625502 0.601350 -0.047554
0.628963 0.597858 -0.047140
0.633619 0.599692 -0.047896
0.637990 0.600174 -0.048362
0.641907 0.598677 -0.048399
0.646185 0.598666 -0.048768
0.654280 0.613940 -0.052518
0.657936 0.611075 -0.052271
0.662146 0.610414 -0.052514
0.663530 0.599037 -0.050379
0.668487 0.601311 -0.051277
0.673106 0.602225 -0.051876
0.677249 0.601371 -0.052083
0.683136 0.606627 -0.053661
0.691154 0.619010 -0.056845
0.692148 0.607150 -0.054583
0.694439 0.599990 -0.053370
0.699089 0.600771 -0.053943
0.702066 0.596129 -0.053286
0.705710 0.593744 -0.053132
0.715314 0.609972 -0.057206
0.716428 0.599694 -0.055247
0.720840 0.599686 -0.055616
0.722881 0.592661 -0.054372
0.727043 0.592066 -0.054586
0.737801 0.610493 -0.059155
0.738983 0.601267 -0.057366
0.739699 0.591047 -0.055328
0.748493 0.603414 -0.058477
0.755828 0.611531 -0.060637
0.765792 0.626527 -0.064375
0.771109 0.628910 -0.065180
0.772877 0.622051 -0.063823
0.771599 0.607607 -0.060678
0.774374 0.603919 -0.060004
0.778064 0.602714 -0.059883
0.782825 0.604288 -0.060383
0.784858 0.599239 -0.059316
0.789733 0.601301 -0.059879
0.794923 0.604175 -0.060606
0.797189 0.600172 -0.059704
0.803159 0.605049 -0.060845
0.809642 0.611128 -0.062239
0.816931 0.619049 -0.064035
0.818644 0.614261 -0.062843
0.813998 0.595379 -0.058345
0.817056 0.594148 -0.057932
0.824093 0.601841 -0.059568
-0.141945 0.612593 -0.053293
-0.136034 0.610016 -0.053058
-0.131277 0.609214 -0.053190
-0.127980 0.610691 -0.053805
-0.124508 0.612015 -0.054359
-0.120636 0.612838 -0.054774
-0.115296 0.611501 -0.054678
-0.110272 0.610723 -0.054678
-0.106243 0.611577 -0.055016
-0.102463 0.612924 -0.055436
-0.097322 0.612209 -0.055366
-0.091702 0.610790 -0.055109
-0.087348 0.611480 -0.055298
-0.083425 0.612962 -0.055638
-0.079192 0.614030 -0.055858
-0.074988 0.615233 -0.056082
-0.069940 0.615100 -0.055981
-0.063544 0.612725 -0.055352
-0.058527 0.612726 -0.055234
-0.053875 0.613409 -0.055247
-0.049457 0.614557 -0.055344
-0.044503 0.614815 -0.055221
-0.038631 0.613464 -0.054721
-0.036565 0.619003 -0.055743
-0.020246 0.598574 -0.050954
-0.015831 0.599751 -0.050978
-0.015234 0.608112 -0.052587
-0.011698 0.611096 -0.052986
-0.007859 0.613565 -0.053260
-0.003895 0.615841 -0.053481
0.000329 0.617644 -0.053590
0.006876 0.614865 -0.052679
0.013058 0.612730 -0.051909
0.016519 0.616043 -0.052337
0.023248 0.612688 -0.051295
0.028733 0.611804 -0.050796
0.034561 0.610138 -0.050127
0.038938 0.611486 -0.050120
0.044868 0.609471 -0.049378
0.046861 0.615975 -0.050498
0.051630 0.616446 -0.050303
0.058511 0.612138 -0.049072
0.065190 0.608126 -0.047913
0.070918 0.606148 -0.047201
0.076068 0.605414 -0.046765
0.080268 0.606855 -0.046805
0.083250 0.611199 -0.047475
0.084887 0.618876 -0.048867
0.093696 0.609039 -0.046492
0.099993 0.605145 -0.045406
0.104801 0.604858 -0.045103
0.108389 0.607638 -0.045463
0.111846 0.610783 -0.045907
0.113604 0.618453 -0.047322
0.123481 0.604521 -0.044129
0.128863 0.602352 -0.043457
0.131775 0.606879 -0.044220
0.135353 0.609623 -0.044608
0.139596 0.610500 -0.044605
0.144931 0.608196 -0.043932
0.149853 0.606978 -0.043497
0.154613 0.606149 -0.043152
0.159037 0.606258 -0.043012
0.163609 0.605862 -0.042772
0.167806 0.606574 -0.042772
0.168718 0.617686 -0.044975
0.173194 0.617614 -0.044820
0.178912 0.613405 -0.043799
0.185751 0.605261 -0.041955
0.190170 0.605003 -0.041781
0.194002 0.606720 -0.042029
0.197992 0.607891 -0.042166
0.201553 0.610593 -0.042631
0.204396 0.615968 -0.043663
0.207706 0.619759 -0.044366
0.212336 0.618649 -0.044045
0.219388 0.608096 -0.041747
0.224190 0.605945 -0.041219
0.228273 0.606547 -0.041274
0.231177 0.611956 -0.042340
0.232875 0.622591 -0.044506
0.237510 0.621089 -0.044133
0.243637 0.612975 -0.042381
0.248859 0.608490 -0.041393
0.253488 0.606467 -0.040926
0.257378 0.607754 -0.041156
0.261513 0.607893 -0.041149
0.265759 0.607451 -0.041025
0.269816 0.607893 -0.041091
0.274280 0.606236 -0.040721
0.278534 0.605554 -0.040559
0.282501 0.606343 -0.040709
0.286229 0.608461 -0.041141
0.289892 0.611024 -0.041669
0.293364 0.614810 -0.042456
0.297699 0.613579 -0.042198
0.302598 0.608747 -0.041191
0.307107 0.606065 -0.040637
0.311090 0.606644 -0.040768
0.314928 0.608213 -0.041109
0.318591 0.611075 -0.041725
0.322768 0.610357 -0.041595
0.325134 0.623198 -0.044304
0.329719 0.619607 -0.043580
0.335506 0.605960 -0.040755
0.339906 0.602881 -0.040144
0.343826 0.603731 -0.040358
0.347753 0.604546 -0.040568
0.351151 0.610472 -0.041850
0.355131 0.611085 -0.042024
0.359537 0.607220 -0.041264
0.363982 0.602491 -0.040324
0.368094 0.601089 -0.040085
0.372061 0.601284 -0.040183
0.375751 0.605115 -0.041047
0.379741 0.605196 -0.041128
0.383738 0.605154 -0.041186
0.387683 0.605900 -0.041413
0.391578 0.607600 -0.041843
0.395586 0.607419 -0.041881
0.399641 0.606180 -0.041700
0.403703 0.604445 -0.041417
0.407708 0.603761 -0.041359
0.411084 0.621426 -0.045167
0.415070 0.623795 -0.045760
0.419301 0.616984 -0.044421
0.423488 0.609205 -0.042881
0.427565 0.603770 -0.041836
0.431510 0.606041 -0.042421
0.435482 0.607306 -0.042796
0.439468 0.606005 -0.042634
0.443467 0.611517 -0.043915
0.447465 0.610703 -0.043863
0.451482 0.611914 -0.044243
0.455415 0.607607 -0.043458
0.459235 0.600049 -0.041985
0.463294 0.603954 -0.042947
0.467284 0.604460 -0.043193
0.471526 0.611757 -0.044886
0.476030 0.623722 -0.047579
0.479680 0.614494 -0.045767
0.483297 0.606279 -0.044172
0.487052 0.601938 -0.043404
0.491067 0.602574 -0.043702
0.495096 0.603299 -0.044024
0.499075 0.603143 -0.044162
0.503104 0.603655 -0.044448
0.507199 0.604891 -0.044893
0.511260 0.605518 -0.045214
0.515032 0.602761 -0.044812
0.519179 0.604268 -0.045331
0.523239 0.604688 -0.045622
0.527229 0.604336 -0.045752
0.532873 0.619429 -0.049219
0.536275 0.613117 -0.048076
0.539687 0.607348 -0.047052
0.543174 0.602595 -0.046251
0.547160 0.602116 -0.046379
0.551298 0.602773 -0.046760
0.555249 0.601952 -0.046825
0.559348 0.602186 -0.047125
0.564578 0.610138 -0.049114
0.569782 0.617345 -0.050951
0.573681 0.615618 -0.050845
0.576424 0.606700 -0.049171
0.579183 0.598346 -0.047621
0.583268 0.598239 -0.047882
0.587792 0.600599 -0.048692
0.591764 0.599694 -0.048791
0.595915 0.599749 -0.049107
0.600327 0.601118 -0.049720
0.604636 0.601835 -0.050196
0.610864 0.612107 -0.052798
0.613218 0.602808 -0.051067
0.616266 0.597216 -0.050159
0.620548 0.597605 -0.050587
0.624588 0.596809 -0.050756
0.628504 0.595440 -0.050802
0.634203 0.601866 -0.052600
0.638600 0.602394 -0.053085
0.643096 0.603257 -0.053650
0.648072 0.606003 -0.054646
0.652406 0.606008 -0.055030
0.657222 0.607857 -0.055836
0.662270 0.610483 -0.056823
0.664006 0.600434 -0.054935
0.667964 0.598969 -0.054997
0.672860 0.600936 -0.055842
0.677191 0.600776 -0.056205
0.683604 0.607889 -0.058236
0.688740 0.610321 -0.059198
0.693958 0.612921 -0.060201
0.694048 0.598353 -0.057245
0.698869 0.599733 -0.057959
0.703673 0.601000 -0.058645
0.709120 0.604251 -0.059787
0.715410 0.610020 -0.061512
0.717561 0.602946 -0.060244
0.716966 0.587832 -0.057086
0.723592 0.594619 -0.059024
0.730247 0.601309 -0.060936
0.737261 0.608863 -0.063043
0.742289 0.610606 -0.063777
0.746522 0.610120 -0.063972
0.750168 0.608084 -0.063786
0.753559 0.605471 -0.063445
0.765246 0.625223 -0.068367
0.770432 0.627333 -0.069107
0.770552 0.616246 -0.066700
0.769206 0.601755 -0.063459
0.771118 0.596004 -0.062262
0.780645 0.609619 -0.065637
0.783269 0.605867 -0.064865
0.784556 0.599029 -0.063334
0.790842 0.604575 -0.064719
0.793200 0.600686 -0.063835
0.797050 0.600535 -0.063813
0.801260 0.601343 -0.063993
0.808109 0.608376 -0.065626
0.816119 0.618050 -0.067858
0.817267 0.612038 -0.066336
0.817971 0.605266 -0.064608
0.817656 0.596467 -0.062375
0.822779 0.599969 -0.063036
-0.141558 0.612544 -0.057572
-0.135188 0.609239 -0.057173
-0.130462 0.608433 -0.057316
-0.127247 0.609983 -0.057969
-0.124976 0.613078 -0.058950
-0.120024 0.612209 -0.058998
-0.116366 0.613411 -0.059492
-0.111964 0.613563 -0.059717
-0.106650 0.612377 -0.059607
-0.102090 0.612447 -0.059756
-0.097353 0.612321 -0.059832
-0.091664 0.610741 -0.059545
-0.087229 0.611248 -0.059709
-0.082959 0.612108 -0.059927
-0.078617 0.612936 -0.060111
-0.074627 0.614437 -0.060422
-0.070176 0.615254 -0.060551
-0.064048 0.613290 -0.060015
-0.058557 0.612438 -0.059712
-0.054097 0.613408 -0.059804
-0.049983 0.615047 -0.060028
-0.044900 0.615043 -0.059854
-0.040718 0.616684 -0.060039
-0.036096 0.617591 -0.060037
-0.032801 0.620969 -0.060583
-0.019266 0.605485 -0.056809
-0.019026 0.614545 -0.058624
-0.014255 0.615240 -0.058518
-0.006941 0.611081 -0.057298
-0.001970 0.611357 -0.057080
0.002261 0.613077 -0.057180
0.005304 0.617179 -0.057812
0.010182 0.617676 -0.057622
0.014482 0.619333 -0.057690
0.019137 0.620276 -0.057593
0.026158 0.616286 -0.056385
0.032606 0.613371 -0.055421
0.039352 0.609707 -0.054291
0.043280 0.611995 -0.054496
0.048514 0.611441 -0.054067
0.052603 0.613362 -0.054193
0.056595 0.615505 -0.054371
0.064914 0.607823 -0.052366
0.070454 0.606284 -0.051734
0.075235 0.606422 -0.051480
0.079598 0.607499 -0.051438
0.083710 0.609154 -0.051529
0.088536 0.609063 -0.051239
0.093784 0.607877 -0.050714
0.099460 0.605536 -0.049942
0.103939 0.606101 -0.049816
0.108462 0.606512 -0.049662
0.111220 0.611473 -0.050512
0.114102 0.616193 -0.051313
0.119154 0.615180 -0.050865
0.127419 0.605349 -0.048497
0.132530 0.603869 -0.047964
0.134812 0.610210 -0.049142
0.139231 0.610612 -0.049032
0.144747 0.607807 -0.048230
0.149644 0.606675 -0.047800
0.154267 0.606268 -0.047534
0.158933 0.605662 -0.047232
0.163358 0.605727 -0.047082
0.166963 0.608297 -0.047480
0.168453 0.617614 -0.049344
0.172872 0.617739 -0.049224
0.178895 0.612555 -0.047963
0.186128 0.603106 -0.045790
0.189581 0.606110 -0.046311
0.193877 0.606255 -0.046221
0.197926 0.607226 -0.046315
0.201843 0.608660 -0.046514
0.205479 0.611119 -0.046939
0.208895 0.614439 -0.047554
0.213305 0.614079 -0.047383
0.220205 0.604052 -0.045140
0.224281 0.604692 -0.045195
0.228262 0.605693 -0.045333
0.231788 0.608552 -0.045873
0.233445 0.619292 -0.048109
0.239736 0.610680 -0.046199
0.243671 0.611914 -0.046405
0.249622 0.604182 -0.044695
0.253703 0.604578 -0.044731
0.257630 0.605665 -0.044919
0.261488 0.607085 -0.045183
0.265890 0.605881 -0.044890
0.269630 0.607887 -0.045288
0.273967 0.606892 -0.045047
0.278364 0.605496 -0.044725
0.282429 0.605772 -0.044765
0.286264 0.607292 -0.045075
0.289886 0.610070 -0.045657
0.293918 0.610568 -0.045756
0.297873 0.611522 -0.045956
0.301940 0.611799 -0.046015
0.307291 0.603858 -0.044319
0.311063 0.605772 -0.044735
0.314521 0.609908 -0.045631
0.318571 0.610124 -0.045691
0.322566 0.610711 -0.045833
0.324813 0.624457 -0.048796
0.329695 0.618623 -0.047572
0.335346 0.606075 -0.044913
0.339846 0.602185 -0.044111
0.343756 0.603103 -0.044341
0.347524 0.605376 -0.044865
0.351393 0.606843 -0.045220
0.354871 0.612327 -0.046438
0.359261 0.608733 -0.045715
0.363742 0.603701 -0.044687
0.367896 0.601909 -0.044355
0.371838 0.602493 -0.044536
0.375638 0.604958 -0.045124
0.379604 0.605398 -0.045281
0.383625 0.605037 -0.045270
0.387527 0.606510 -0.045655
0.391530 0.606401 -0.045704
0.395532 0.606266 -0.045750
0.399577 0.605164 -0.045592
0.403575 0.604866 -0.045609
0.407459 0.607429 -0.046246
0.410810 0.626331 -0.050406
0.415091 0.619459 -0.049019
0.419301 0.612819 -0.047684
0.423437 0.606769 -0.046479
0.427440 0.605595 -0.046327
0.431415 0.606134 -0.046549
0.435397 0.606058 -0.046642
0.439379 0.605896 -0.046720
0.443365 0.607516 -0.047186
0.447400 0.613137 -0.048524
0.451429 0.614213 -0.048882
0.455452 0.614314 -0.049032
0.459167 0.600441 -0.046155
0.463215 0.603759 -0.047010
0.467193 0.603858 -0.047171
0.471319 0.607944 -0.048202
0.475745 0.618404 -0.050626
0.479606 0.614267 -0.049879
0.483266 0.606867 -0.048424
0.487024 0.602452 -0.047622
0.491028 0.602820 -0.047866
0.495072 0.603702 -0.048228
0.499094 0.604114 -0.048492
0.503181 0.605281 -0.048926
0.507186 0.605239 -0.049100
0.511188 0.605104 -0.049259
0.515196 0.605000 -0.049430
0.519165 0.604437 -0.049505
0.523195 0.604506 -0.049723
0.527207 0.604334 -0.049894
0.531835 0.609897 -0.051336
0.535933 0.610185 -0.051620
0.539441 0.605320 -0.050771
0.542798 0.599544 -0.049723
0.547031 0.601099 -0.050303
0.551303 0.602795 -0.050921
0.555299 0.602271 -0.051052
0.559226 0.601233 -0.051074
0.564686 0.610769 -0.053459
0.570512 0.622071 -0.056249
0.573682 0.615463 -0.055051
0.576286 0.605651 -0.053137
0.578764 0.595593 -0.051167
0.583486 0.599294 -0.052286
0.587683 0.599722 -0.052679
0.591742 0.599302 -0.052886
0.597736 0.609349 -0.055461
0.601037 0.604572 -0.054701
0.605769 0.607355 -0.055654
0.609156 0.603175 -0.055037
0.612393 0.598407 -0.054289
0.617141 0.601045 -0.055229
0.621455 0.601469 -0.055673
0.625171 0.599089 -0.055482
0.629836 0.600995 -0.056276
0.634238 0.601615 -0.056782
0.638725 0.602518 -0.057359
0.643239 0.603442 -0.057947
0.647315 0.602481 -0.058106
0.650919 0.599615 -0.057829
0.656228 0.603524 -0.059121
0.660841 0.604549 -0.059752
0.664135 0.600504 -0.059208
0.668059 0.598910 -0.059234
0.672437 0.598991 -0.059651
0.677888 0.602866 -0.060957
0.683462 0.607001 -0.062328
0.688692 0.609780 -0.063384
0.691554 0.604425 -0.062528
0.693762 0.597064 -0.061193
0.698742 0.599000 -0.062043
0.704025 0.601838 -0.063104
0.708844 0.603111 -0.063791
0.715620 0.610431 -0.065909
0.713712 0.590961 -0.061652
0.718699 0.592880 -0.062467
0.724750 0.597917 -0.064017
0.729775 0.599833 -0.064814
0.734061 0.599600 -0.065085
0.739720 0.603308 -0.066287
0.744850 0.605479 -0.067106
0.748062 0.602363 -0.066637
0.751127 0.598993 -0.066087
0.755534 0.599380 -0.066422
0.759966 0.599896 -0.066767
0.764512 0.600775 -0.067178
0.767668 0.598133 -0.066715
0.770839 0.595688 -0.066275
0.778746 0.605301 -0.068731
0.784125 0.608506 -0.069610
0.782746 0.595149 -0.066449
0.788273 0.598962 -0.067424
0.793090 0.601098 -0.067966
0.795761 0.598203 -0.067260
0.799575 0.598167 -0.067222
0.805825 0.603909 -0.068557
0.814660 0.615594 -0.071305
0.815750 0.609527 -0.069724
0.818143 0.606635 -0.068887
0.817341 0.596779 -0.066340
0.821361 0.597896 -0.066424
-0.136060 0.611041 -0.061864
-0.131195 0.609997 -0.061963
-0.128442 0.612207 -0.062795
-0.125791 0.614696 -0.063666
-0.121364 0.614595 -0.063905
-0.115919 0.613010 -0.063769
-0.112058 0.613951 -0.064196
-0.106691 0.612632 -0.064064
-0.102001 0.612448 -0.064169
-0.097318 0.612355 -0.064267
-0.093154 0.613177 -0.064552
-0.086689 0.610358 -0.063951
-0.083494 0.612920 -0.064588
-0.079249 0.613866 -0.064818
-0.074234 0.613614 -0.064739
-0.069790 0.614384 -0.064873
-0.064751 0.614218 -0.064762
-0.058413 0.611875 -0.064115
-0.054058 0.612974 -0.064253
-0.049896 0.614482 -0.064465
-0.045387 0.615447 -0.064527
-0.038603 0.612396 -0.063629
-0.039835 0.623812 -0.066100
-0.033284 0.621265 -0.065283
-0.028335 0.621643 -0.065136
-0.019962 0.615640 -0.063485
-0.015138 0.616220 -0.063359
-0.009119 0.614528 -0.062693
-0.002269 0.611188 -0.061636
0.001764 0.613276 -0.061832
0.006391 0.614223 -0.061755
0.009156 0.618905 -0.062535
0.011746 0.624034 -0.063411
0.018139 0.621457 -0.062504
0.024635 0.618571 -0.061525
