ply
format ascii 1.0
comment ---
element vertex 1683
property float x
property float y
property float z
element face 0
property list uchar uint vertex_indices
end_header
-0.058517 0.608002 -0.139087
-0.054930 0.606893 -0.138899
-0.051765 0.609068 -0.139405
-0.048122 0.607391 -0.139100
-0.044487 0.605616 -0.138776
-0.041081 0.605748 -0.138855
-0.037889 0.607920 -0.139368
-0.034189 0.605191 -0.138846
-0.031230 0.609938 -0.139907
-0.027767 0.609597 -0.139893
-0.024504 0.611537 -0.140363
-0.020991 0.610595 -0.140224
-0.016920 0.602225 -0.138512
-0.013520 0.602079 -0.138544
-0.010132 0.602075 -0.138607
-0.006743 0.602041 -0.138665
-0.003507 0.604646 -0.139284
-0.000417 0.610498 -0.140595
0.002955 0.611587 -0.140895
0.006423 0.610688 -0.140774
0.009793 0.612114 -0.141149
0.013247 0.611424 -0.141075
0.016868 0.604750 -0.139728
0.020393 0.599419 -0.138666
0.023696 0.602919 -0.139486
0.027066 0.604076 -0.139808
0.030421 0.607842 -0.140688
0.033830 0.608215 -0.140846
0.037244 0.607571 -0.140787
0.040645 0.605309 -0.140384
0.044064 0.607406 -0.140913
0.047522 0.610809 -0.141722
0.050897 0.607932 -0.141189
0.054294 0.607138 -0.141103
0.057856 0.612494 -0.142334
0.061204 0.609730 -0.141828
0.064539 0.607259 -0.141384
0.067882 0.605534 -0.141101
0.071300 0.605719 -0.141228
0.074756 0.606582 -0.141502
0.078175 0.606616 -0.141600
0.081556 0.605998 -0.141557
0.084993 0.606294 -0.141712
0.088729 0.610760 -0.142767
0.092224 0.611446 -0.143008
0.095630 0.610916 -0.142989
0.098865 0.608408 -0.142544
0.101979 0.604795 -0.141861
0.105329 0.604030 -0.141794
0.108770 0.604226 -0.141935
0.112280 0.605040 -0.142210
0.115900 0.606774 -0.142686
0.119332 0.606682 -0.142769
0.122761 0.606554 -0.142844
0.126220 0.606652 -0.142970
0.129933 0.608698 -0.143520
0.133434 0.608984 -0.143690
0.136587 0.606697 -0.143302
0.139981 0.606232 -0.143311
0.143251 0.604932 -0.143140
0.146358 0.602615 -0.142748
0.149751 0.602234 -0.142779
0.152372 0.597088 -0.141772
0.155875 0.597501 -0.141979
0.160782 0.606062 -0.143966
0.164557 0.607698 -0.144445
0.167435 0.604272 -0.143819
0.173096 0.615955 -0.146501
0.175317 0.608995 -0.145104
0.179143 0.610556 -0.145576
0.183581 0.615055 -0.146695
0.186549 0.612164 -0.146194
0.188041 0.602360 -0.144175
0.191500 0.602111 -0.144257
0.195634 0.604903 -0.145011
0.199207 0.605053 -0.145185
0.202614 0.604440 -0.145194
0.206032 0.603868 -0.145214
0.210985 0.609681 -0.146648
0.215622 0.613937 -0.147742
0.218369 0.610427 -0.147121
0.221719 0.609384 -0.147049
0.223286 0.601490 -0.145458
0.227123 0.602421 -0.145827
0.230783 0.602627 -0.146039
0.234330 0.602374 -0.146151
0.239910 0.609348 -0.147877
0.243151 0.607836 -0.147717
0.245978 0.604912 -0.147244
0.249554 0.604582 -0.147352
0.253181 0.604392 -0.147496
0.257426 0.606188 -0.148088
0.260219 0.603212 -0.147614
0.262561 0.598865 -0.146834
0.265967 0.597922 -0.146822
0.269610 0.597691 -0.146973
0.275419 0.603947 -0.148590
0.280284 0.607162 -0.149530
0.283658 0.605877 -0.149457
0.287396 0.605632 -0.149623
0.290990 0.604936 -0.149692
0.293488 0.601155 -0.149064
0.294062 0.592155 -0.147251
0.298158 0.592898 -0.147656
0.304124 0.598559 -0.149186
0.308714 0.600387 -0.149850
0.312360 0.599668 -0.149937
0.317427 0.602546 -0.150853
0.320657 0.600667 -0.150683
0.325090 0.601775 -0.151203
0.329541 0.602843 -0.151719
0.334394 0.604800 -0.152446
0.338311 0.604423 -0.152640
0.341539 0.602385 -0.152453
0.344168 0.598959 -0.151947
0.348337 0.599098 -0.152270
0.352693 0.599607 -0.152684
0.357547 0.601166 -0.153346
0.365054 0.608476 -0.155356
0.366838 0.603117 -0.154412
0.370076 0.600970 -0.154219
0.373112 0.598406 -0.153929
0.373893 0.591150 -0.152534
0.376630 0.588080 -0.152122
0.383389 0.593256 -0.153655
0.389457 0.596884 -0.154827
0.393990 0.597342 -0.155250
0.397692 0.596133 -0.155277
0.403722 0.599458 -0.156380
0.407033 0.597471 -0.156218
0.410246 0.595334 -0.156015
0.412796 0.591999 -0.155520
0.418188 0.594018 -0.156299
0.425840 0.600148 -0.158060
0.429341 0.598624 -0.157979
0.433675 0.598651 -0.158263
0.437765 0.598274 -0.158439
0.443266 0.600417 -0.159214
0.447486 0.600329 -0.159439
0.448097 0.594082 -0.158160
0.448400 0.587492 -0.156780
0.451686 0.586119 -0.156650
0.461654 0.595999 -0.159239
0.465313 0.595323 -0.159249
0.468792 0.594441 -0.159193
0.473151 0.595083 -0.159491
-0.350994 0.600834 -0.143625
-0.347602 0.601247 -0.143799
-0.344348 0.602027 -0.144040
-0.341024 0.602786 -0.144261
-0.337923 0.604079 -0.144586
-0.333843 0.603603 -0.144507
-0.332463 0.608457 -0.145587
-0.327376 0.606201 -0.145090
-0.323227 0.605832 -0.144995
-0.319521 0.606415 -0.145098
-0.315629 0.606694 -0.145123
-0.311436 0.606411 -0.145015
-0.307896 0.607527 -0.145204
-0.303751 0.607436 -0.145119
-0.299542 0.607235 -0.145003
-0.295907 0.608294 -0.145156
-0.291924 0.608638 -0.145146
-0.288062 0.609268 -0.145194
-0.284379 0.610321 -0.145329
-0.279514 0.608713 -0.144878
-0.275537 0.609099 -0.144861
-0.271547 0.609453 -0.144835
-0.268003 0.610852 -0.145035
-0.263216 0.609285 -0.144587
-0.258863 0.608703 -0.144353
-0.255948 0.611618 -0.144883
-0.251374 0.610432 -0.144518
-0.247755 0.611597 -0.144667
-0.242512 0.608576 -0.143907
-0.238021 0.607386 -0.143547
-0.234453 0.608560 -0.143703
-0.230757 0.609376 -0.143784
-0.227031 0.610083 -0.143844
-0.222833 0.609456 -0.143617
-0.219005 0.609798 -0.143603
-0.214994 0.609574 -0.143469
-0.210760 0.608643 -0.143186
-0.206991 0.609000 -0.143185
-0.203071 0.608861 -0.143081
-0.198958 0.608073 -0.142839
-0.195155 0.608166 -0.142792
-0.191414 0.608404 -0.142780
-0.187606 0.608377 -0.142714
-0.183443 0.607142 -0.142391
-0.179620 0.606936 -0.142293
-0.175767 0.606569 -0.142165
-0.172246 0.607272 -0.142271
-0.168540 0.607303 -0.142236
-0.164834 0.607284 -0.142193
-0.161615 0.608974 -0.142523
-0.158047 0.609392 -0.142581
-0.153916 0.607659 -0.142180
-0.150410 0.608206 -0.142273
-0.146651 0.607736 -0.142150
-0.142834 0.606967 -0.141967
-0.139093 0.606427 -0.141836
-0.135719 0.607346 -0.142022
-0.132558 0.609161 -0.142404
-0.128938 0.609021 -0.142369
-0.125008 0.607458 -0.142029
-0.121645 0.608350 -0.142222
-0.118308 0.609361 -0.142443
-0.114710 0.609142 -0.142402
-0.110627 0.606523 -0.141846
-0.107272 0.607346 -0.142035
-0.103859 0.607881 -0.142164
-0.100566 0.609032 -0.142428
-0.097174 0.609669 -0.142585
-0.093599 0.609302 -0.142527
-0.089869 0.608006 -0.142272
-0.086377 0.607987 -0.142294
-0.082809 0.607474 -0.142211
-0.079381 0.607757 -0.142303
-0.075964 0.608099 -0.142409
-0.072406 0.607509 -0.142317
-0.068936 0.607440 -0.142339
-0.065561 0.608007 -0.142500
-0.062221 0.608834 -0.142719
-0.058549 0.607205 -0.142410
-0.055410 0.609563 -0.142963
-0.051776 0.608092 -0.142692
-0.048267 0.607521 -0.142616
-0.044736 0.606681 -0.142484
-0.041383 0.607373 -0.142684
-0.038015 0.607951 -0.142862
-0.034555 0.607652 -0.142852
-0.031201 0.608403 -0.143070
-0.028044 0.611391 -0.143774
-0.024587 0.611191 -0.143790
-0.021010 0.609470 -0.143477
-0.017081 0.602922 -0.142119
-0.013667 0.602673 -0.142127
-0.010373 0.604145 -0.142510
-0.007002 0.604592 -0.142671
-0.003711 0.606484 -0.143148
-0.000609 0.612282 -0.144475
0.002844 0.611909 -0.144463
0.006299 0.611411 -0.144425
0.009617 0.614303 -0.145126
0.013110 0.612858 -0.144884
0.016629 0.610018 -0.144339
0.020165 0.605368 -0.143401
0.023599 0.603653 -0.143102
0.026965 0.605453 -0.143570
0.030388 0.603330 -0.143184
0.033776 0.604132 -0.143437
0.037173 0.601175 -0.142870
0.040574 0.605586 -0.143913
0.044008 0.609034 -0.144747
0.047428 0.609002 -0.144822
0.050814 0.607067 -0.144482
0.054259 0.608464 -0.144872
0.057652 0.607462 -0.144737
0.061062 0.607246 -0.144776
0.064480 0.607293 -0.144873
0.067826 0.605568 -0.144582
0.071252 0.605888 -0.144741
0.074692 0.606378 -0.144938
0.078112 0.606423 -0.145038
0.081485 0.605664 -0.144963
0.084896 0.605553 -0.145031
0.088464 0.607674 -0.145591
0.092402 0.614412 -0.147170
0.095663 0.611863 -0.146705
0.098941 0.609789 -0.146345
0.101922 0.604590 -0.145296
0.105293 0.604034 -0.145272
0.108772 0.604585 -0.145493
0.112239 0.604960 -0.145677
0.115779 0.605941 -0.145996
0.119529 0.608664 -0.146703
0.122848 0.607504 -0.146551
0.126643 0.610277 -0.147272
0.129927 0.608824 -0.147058
0.133110 0.606696 -0.146695
0.136800 0.608366 -0.147176
0.140543 0.610281 -0.147714
0.143557 0.607091 -0.147119
0.146607 0.604312 -0.146615
0.150059 0.604249 -0.146717
0.153510 0.604152 -0.146813
0.155746 0.596742 -0.145280
0.160130 0.602254 -0.146631
0.164356 0.606541 -0.147711
0.167618 0.605251 -0.147548
0.170531 0.602124 -0.146975
0.173958 0.601821 -0.147036
0.178204 0.605687 -0.148033
0.183670 0.615415 -0.150349
0.186681 0.612708 -0.149879
0.188099 0.602527 -0.147729
0.191862 0.603669 -0.148126
0.195495 0.604137 -0.148373
0.199115 0.604499 -0.148599
0.202573 0.604105 -0.148657
0.206101 0.603995 -0.148782
0.211672 0.612361 -0.150825
0.215050 0.611410 -0.150767
0.218953 0.612559 -0.151186
0.221684 0.609035 -0.150550
0.223528 0.602202 -0.149165
0.226898 0.601345 -0.149137
0.231030 0.603299 -0.149750
0.234668 0.603351 -0.149935
0.240811 0.612298 -0.152150
0.242959 0.606893 -0.151099
0.245681 0.603608 -0.150533
0.248951 0.602252 -0.150410
0.252560 0.602029 -0.150549
0.255398 0.599252 -0.150106
0.258654 0.597864 -0.149985
0.263156 0.600418 -0.150771
0.265729 0.596847 -0.150155
0.268780 0.594811 -0.149894
0.275193 0.602912 -0.151974
0.279767 0.605263 -0.152735
0.283682 0.605572 -0.153029
0.286243 0.601935 -0.152415
0.291301 0.605422 -0.153454
0.295650 0.606783 -0.154007
0.297180 0.600313 -0.152744
0.298489 0.593383 -0.151375
0.303527 0.596544 -0.152358
0.308872 0.600373 -0.153504
0.312586 0.599816 -0.153632
0.317918 0.603354 -0.154723
0.321357 0.601975 -0.154669
0.324866 0.600756 -0.154655
0.330741 0.605312 -0.156004
0.335988 0.608172 -0.156962
0.339582 0.606969 -0.156967
0.342251 0.603571 -0.156456
0.345258 0.600998 -0.156142
0.348553 0.599099 -0.155991
0.352741 0.599218 -0.156321
0.357804 0.601237 -0.157108
0.364197 0.606081 -0.158575
0.367964 0.605053 -0.158645
0.369864 0.600008 -0.157754
0.371347 0.594164 -0.156670
0.374263 0.591423 -0.156328
0.380195 0.594942 -0.157494
0.387164 0.600455 -0.159145
0.391145 0.599787 -0.159307
0.394476 0.597819 -0.159152
0.397874 0.596005 -0.159032
0.401385 0.594439 -0.158969
0.410348 0.603366 -0.161458
0.411241 0.596764 -0.160161
0.413756 0.593358 -0.159635
0.422074 0.600794 -0.161757
0.425500 0.599103 -0.161639
0.430175 0.599733 -0.162082
0.433447 0.597857 -0.161899
0.437980 0.598287 -0.162275
0.443203 0.599958 -0.162946
0.447230 0.599557 -0.163093
0.447934 0.593499 -0.161827
0.446610 0.584168 -0.159732
0.450653 0.584126 -0.159923
0.461320 0.595210 -0.162862
0.465292 0.595084 -0.163004
0.468477 0.593746 -0.162826
0.470563 0.590728 -0.162212
-0.351876 0.602103 -0.147593
-0.347390 0.600474 -0.147316
-0.343792 0.600576 -0.147412
-0.340227 0.600838 -0.147530
-0.336749 0.601364 -0.147692
-0.334885 0.605101 -0.148562
-0.330522 0.604137 -0.148360
-0.327764 0.606391 -0.148868
-0.323758 0.606287 -0.148833
-0.320032 0.606813 -0.148927
-0.315072 0.604902 -0.148461
-0.311633 0.606131 -0.148692
-0.307975 0.606980 -0.148826
-0.304278 0.607809 -0.148946
-0.300044 0.607547 -0.148814
-0.296121 0.607976 -0.148829
-0.292253 0.608556 -0.148871
-0.288150 0.608645 -0.148797
-0.284556 0.609882 -0.148976
-0.279653 0.608179 -0.148492
-0.276124 0.609587 -0.148702
-0.272149 0.609979 -0.148682
-0.268869 0.612010 -0.149026
-0.263777 0.609733 -0.148406
-0.260184 0.611007 -0.148579
-0.255336 0.609198 -0.148063
-0.251308 0.609349 -0.147986
-0.247896 0.611029 -0.148251
-0.244087 0.611695 -0.148290
-0.238576 0.607902 -0.147339
-0.234612 0.608045 -0.147267
-0.230980 0.609035 -0.147385
-0.227207 0.609623 -0.147416
-0.223383 0.610039 -0.147412
-0.219449 0.610105 -0.147333
-0.215329 0.609591 -0.147128
-0.211062 0.608581 -0.146817
-0.206640 0.607026 -0.146390
-0.202920 0.607469 -0.146408
-0.199086 0.607528 -0.146345
-0.195296 0.607667 -0.146303
-0.191370 0.607329 -0.146160
-0.187531 0.607205 -0.146067
-0.183710 0.607079 -0.145978
-0.179997 0.607253 -0.145959
-0.176331 0.607540 -0.145968
-0.172380 0.606804 -0.145756
-0.168621 0.606661 -0.145678
-0.164956 0.606792 -0.145664
-0.161423 0.607355 -0.145749
-0.157897 0.607914 -0.145837
-0.154461 0.608782 -0.145996
-0.150551 0.607821 -0.145756
-0.146817 0.607462 -0.145652
-0.143194 0.607479 -0.145634
-0.139202 0.605953 -0.145279
-0.135830 0.606890 -0.145470
-0.132430 0.607695 -0.145636
-0.128959 0.608191 -0.145736
-0.125276 0.607723 -0.145627
-0.121762 0.607956 -0.145676
-0.118315 0.608468 -0.145789
-0.114557 0.607491 -0.145577
-0.111123 0.607992 -0.145693
-0.107251 0.606313 -0.145332
-0.103933 0.607319 -0.145565
-0.100625 0.608394 -0.145816
-0.097223 0.608986 -0.145963
-0.093286 0.606635 -0.145464
-0.089843 0.606906 -0.145546
-0.086300 0.606575 -0.145497
-0.082859 0.606800 -0.145572
-0.079469 0.607324 -0.145717
-0.076004 0.607366 -0.145757
-0.072540 0.607387 -0.145794
-0.069044 0.607164 -0.145780
-0.065716 0.608065 -0.146016
-0.062272 0.608162 -0.146077
-0.058885 0.608665 -0.146229
-0.055393 0.608363 -0.146205
-0.052016 0.608933 -0.146376
-0.048485 0.608242 -0.146270
-0.044935 0.607289 -0.146107
-0.041529 0.607551 -0.146215
-0.038077 0.607362 -0.146225
-0.034613 0.607017 -0.146202
-0.031410 0.609346 -0.146772
-0.028120 0.610941 -0.147182
-0.024736 0.611589 -0.147383
-0.020958 0.607465 -0.146529
-0.017250 0.603721 -0.145760
-0.013849 0.603732 -0.145824
-0.010558 0.605357 -0.146248
-0.007157 0.605453 -0.146334
-0.003727 0.605036 -0.146307
-0.000652 0.611236 -0.147750
0.002726 0.612379 -0.148073
0.006177 0.612064 -0.148073
0.009517 0.614515 -0.148689
0.012855 0.617707 -0.149472
0.016453 0.613048 -0.148509
0.019967 0.609970 -0.147898
0.023415 0.608814 -0.147716
0.026838 0.608518 -0.147727
0.030281 0.606143 -0.147275
0.033713 0.601571 -0.146333
0.037096 0.604563 -0.147079
0.040508 0.607494 -0.147814
0.043943 0.609745 -0.148398
0.047367 0.609615 -0.148452
0.050807 0.610384 -0.148708
0.054143 0.606254 -0.147868
0.057559 0.606411 -0.147989
0.060968 0.606251 -0.148039
0.064396 0.606622 -0.148209
0.067752 0.605170 -0.147972
0.071225 0.606492 -0.148358
0.074654 0.606699 -0.148495
0.078008 0.605495 -0.148316
0.081420 0.605409 -0.148389
0.084843 0.605478 -0.148497
0.088533 0.609304 -0.149452
0.092207 0.612408 -0.150247
0.095918 0.615586 -0.151061
0.098879 0.609534 -0.149796
0.101879 0.604542 -0.148769
0.105225 0.603696 -0.148678
0.108787 0.605081 -0.149092
0.112189 0.604778 -0.149126
0.115614 0.604694 -0.149210
0.119345 0.607290 -0.149903
0.123135 0.610146 -0.150656
0.126510 0.609385 -0.150592
0.129386 0.604760 -0.149653
0.133071 0.606538 -0.150167
0.137272 0.611919 -0.151501
0.140743 0.611778 -0.151583
0.143889 0.609425 -0.151165
0.147006 0.606997 -0.150730
0.150638 0.607976 -0.151071
0.153826 0.606126 -0.150770
0.156820 0.603193 -0.150224
0.159874 0.600755 -0.149791
0.164463 0.607122 -0.151370
0.167880 0.606657 -0.151391
0.171017 0.604683 -0.151069
0.173893 0.601409 -0.150451
0.176781 0.598336 -0.149880
0.183545 0.614693 -0.153766
0.186033 0.609444 -0.152701
0.188486 0.604249 -0.151649
0.191898 0.603704 -0.151667
0.195532 0.604162 -0.151917
0.199256 0.604967 -0.152250
0.202716 0.604560 -0.152307
0.206108 0.603847 -0.152295
0.210430 0.607001 -0.153179
0.214693 0.609751 -0.153974
0.218116 0.609003 -0.153964
0.221313 0.607357 -0.153748
0.223561 0.602096 -0.152697
0.227274 0.602519 -0.152965
0.231423 0.604499 -0.153599
0.234937 0.604066 -0.153676
0.240376 0.610471 -0.155348
0.244402 0.611659 -0.155810
0.245789 0.603687 -0.154140
0.248434 0.600205 -0.153518
0.251584 0.598474 -0.153307
0.254792 0.596951 -0.153148
0.258548 0.597196 -0.153407
0.263379 0.600781 -0.154453
0.267410 0.601722 -0.154885
0.270263 0.598987 -0.154456
0.272802 0.595347 -0.153816
0.278488 0.601097 -0.155394
0.282385 0.601401 -0.155694
0.287679 0.605662 -0.156934
0.292446 0.608254 -0.157786
0.295993 0.607321 -0.157809
0.297764 0.601492 -0.156672
0.299943 0.596887 -0.155827
0.306653 0.604438 -0.157880
0.309306 0.601065 -0.157336
0.314127 0.603351 -0.158148
0.317929 0.602917 -0.158315
0.321571 0.602042 -0.158380
0.325332 0.601436 -0.158514
0.332305 0.608653 -0.160535
0.336449 0.608792 -0.160860
0.340800 0.609368 -0.161296
0.341480 0.601259 -0.159636
0.344785 0.599396 -0.159487
0.348816 0.599191 -0.159743
0.352243 0.597583 -0.159662
0.358806 0.602951 -0.161282
0.365803 0.609087 -0.163097
0.368500 0.605693 -0.162592
0.369240 0.598150 -0.161070
0.371386 0.593729 -0.160310
0.375563 0.593626 -0.160608
0.381272 0.596650 -0.161679
0.386474 0.598536 -0.162472
0.390181 0.597339 -0.162504
0.394311 0.596988 -0.162744
0.396958 0.593712 -0.162257
0.401333 0.593854 -0.162615
0.408687 0.599698 -0.164389
0.413623 0.600817 -0.164986
0.414049 0.593456 -0.163459
0.418414 0.593569 -0.163791
0.426503 0.600516 -0.165830
0.429945 0.598908 -0.165717
0.434527 0.599404 -0.166123
0.437851 0.597689 -0.165962
0.442317 0.598054 -0.166313
0.447441 0.599598 -0.166950
0.446639 0.590973 -0.165002
0.444066 0.579564 -0.162328
0.448444 0.580155 -0.162676
0.462301 0.596622 -0.167039
0.471010 0.604337 -0.169170
0.476162 0.606161 -0.169788
0.478492 0.603452 -0.169235
-0.350482 0.599208 -0.150618
-0.347187 0.599727 -0.150832
-0.343564 0.599745 -0.150914
-0.339972 0.599919 -0.151017
-0.336643 0.600693 -0.151243
-0.333597 0.602118 -0.151603
-0.331591 0.605680 -0.152441
-0.327249 0.604810 -0.152245
-0.323859 0.605888 -0.152483
-0.320137 0.606393 -0.152577
-0.316685 0.607521 -0.152801
-0.311517 0.605206 -0.152222
-0.308278 0.606897 -0.152554
-0.304467 0.607468 -0.152619
-0.300209 0.607135 -0.152468
-0.296325 0.607632 -0.152499
-0.292661 0.608641 -0.152640
-0.288444 0.608469 -0.152505
-0.284323 0.608517 -0.152414
-0.280947 0.610254 -0.152707
-0.275934 0.608276 -0.152144
-0.272424 0.609733 -0.152366
-0.268600 0.610472 -0.152421
-0.264650 0.610911 -0.152405
-0.260429 0.610681 -0.152236
-0.256218 0.610441 -0.152065
-0.251713 0.609426 -0.151717
-0.247663 0.609497 -0.151618
-0.244111 0.610811 -0.151804
-0.239558 0.609514 -0.151396
-0.235423 0.609239 -0.151223
-0.230988 0.608106 -0.150858
-0.227402 0.609199 -0.151002
-0.223653 0.609828 -0.151042
-0.219605 0.609583 -0.150888
-0.215682 0.609637 -0.150804
-0.211762 0.609648 -0.150714
-0.207368 0.608212 -0.150299
-0.203112 0.607090 -0.149960
-0.199690 0.608407 -0.150177
-0.195380 0.606975 -0.149775
-0.191889 0.608007 -0.149935
-0.187937 0.607551 -0.149761
-0.184044 0.607217 -0.149620
-0.180330 0.607406 -0.149600
-0.176557 0.607352 -0.149529
-0.172623 0.606692 -0.149325
-0.168675 0.605906 -0.149097
-0.164999 0.606006 -0.149072
-0.161351 0.606157 -0.149063
-0.157920 0.607059 -0.149227
-0.154728 0.608845 -0.149593
-0.151157 0.609201 -0.149641
-0.147216 0.608080 -0.149359
-0.143906 0.609372 -0.149625
-0.140074 0.608556 -0.149419
-0.135984 0.606591 -0.148958
-0.132609 0.607518 -0.149151
-0.129093 0.607829 -0.149209
-0.125550 0.607996 -0.149238
-0.121901 0.607645 -0.149153
-0.118384 0.607844 -0.149195
-0.114649 0.606981 -0.149001
-0.111190 0.607371 -0.149092
-0.107925 0.608701 -0.149397
-0.104238 0.607918 -0.149230
-0.100716 0.607909 -0.149239
-0.097180 0.607792 -0.149227
-0.093703 0.607954 -0.149280
-0.089800 0.605690 -0.148790
-0.086622 0.607462 -0.149211
-0.083230 0.608025 -0.149362
-0.079738 0.607977 -0.149378
-0.076252 0.607929 -0.149396
-0.072719 0.607540 -0.149339
-0.069328 0.608054 -0.149488
-0.065860 0.608028 -0.149518
-0.062365 0.607781 -0.149500
-0.058910 0.607785 -0.149541
-0.055532 0.608359 -0.149712
-0.052072 0.608283 -0.149738
-0.048602 0.608095 -0.149741
-0.045179 0.608274 -0.149828
-0.041666 0.607624 -0.149730
-0.038159 0.606950 -0.149629
-0.034738 0.607047 -0.149703
-0.031118 0.605049 -0.149305
-0.028338 0.612034 -0.150940
-0.024969 0.612951 -0.151205
-0.021095 0.607764 -0.150090
-0.017416 0.604450 -0.149399
-0.014094 0.605629 -0.149728
-0.010709 0.606032 -0.149882
-0.007255 0.605374 -0.149797
-0.003643 0.601855 -0.149064
-0.000504 0.606587 -0.150204
0.002712 0.610658 -0.151196
0.006168 0.610082 -0.151135
0.009551 0.611245 -0.151470
0.012849 0.615207 -0.152442
0.016295 0.615408 -0.152562
0.019888 0.609699 -0.151338
0.023338 0.608438 -0.151126
0.026772 0.607479 -0.150984
0.030196 0.606609 -0.150864
0.033601 0.607825 -0.151219
0.037020 0.605858 -0.150850
0.040409 0.600804 -0.149778
0.043875 0.610193 -0.152002
0.047346 0.613257 -0.152785
0.050746 0.610783 -0.152304
0.054160 0.609885 -0.152184
0.057454 0.604906 -0.151131
0.060897 0.605954 -0.151458
0.064222 0.603567 -0.150999
0.067737 0.606196 -0.151690
0.071202 0.607196 -0.152009
0.074605 0.606795 -0.152009
0.077974 0.605818 -0.151876
0.081424 0.606304 -0.152081
0.084796 0.605502 -0.151991
0.088508 0.609608 -0.153031
0.092046 0.610858 -0.153415
0.095627 0.612468 -0.153884
0.098951 0.610856 -0.153613
0.101819 0.604284 -0.152199
0.105258 0.604411 -0.152330
0.108732 0.604856 -0.152535
0.112157 0.604766 -0.152618
0.115528 0.604168 -0.152585
0.119292 0.607051 -0.153358
0.123161 0.610571 -0.154280
0.126172 0.606820 -0.153522
0.129513 0.605902 -0.153420
0.133363 0.608869 -0.154220
0.137595 0.614376 -0.155612
0.140824 0.612439 -0.155279
0.144009 0.610306 -0.154902
0.147240 0.608585 -0.154622
0.150692 0.608352 -0.154689
0.154146 0.608120 -0.154758
0.157959 0.610030 -0.155327
0.161176 0.608325 -0.155056
0.164582 0.607761 -0.155053
0.168576 0.610450 -0.155812
0.171733 0.608466 -0.155481
0.174753 0.605835 -0.155001
0.178320 0.606102 -0.155200
0.181881 0.606300 -0.155385
0.185667 0.607549 -0.155819
0.188514 0.604247 -0.155188
0.191901 0.603576 -0.155176
0.195649 0.604538 -0.155551
0.199254 0.604790 -0.155761
0.202734 0.604460 -0.155837
0.206434 0.605042 -0.156131
0.210599 0.607504 -0.156871
0.214034 0.606852 -0.156880
0.218259 0.609347 -0.157636
0.220825 0.605213 -0.156827
0.223766 0.602639 -0.156389
0.227571 0.603382 -0.156740
0.231103 0.603051 -0.156839
0.235029 0.604124 -0.157275
0.240005 0.608858 -0.158586
0.245419 0.614917 -0.160219
0.247679 0.609878 -0.159213
0.249217 0.602535 -0.157658
0.251364 0.597419 -0.156636
0.255194 0.597930 -0.156960
0.259720 0.600613 -0.157809
0.263659 0.601312 -0.158188
0.267133 0.600500 -0.158209
0.271114 0.601216 -0.158601
0.274289 0.599438 -0.158397
0.278896 0.601910 -0.159221
0.284376 0.606803 -0.160636
0.287936 0.605988 -0.160678
0.292315 0.607460 -0.161279
0.295301 0.604963 -0.160923
0.296991 0.598936 -0.159714
0.302071 0.602195 -0.160763
0.306865 0.604546 -0.161597
0.309037 0.599898 -0.160732
0.313937 0.602388 -0.161611
0.317838 0.602209 -0.161844
0.321555 0.601520 -0.161958
0.325202 0.600624 -0.162024
0.330494 0.603722 -0.163077
0.337846 0.611651 -0.165326
0.340959 0.609232 -0.165035
0.341636 0.601109 -0.163336
0.344804 0.598921 -0.163104
0.349482 0.600192 -0.163732
0.355523 0.604453 -0.165108
0.356564 0.597430 -0.163683
0.361040 0.598089 -0.164170
0.364940 0.597437 -0.164334
0.368489 0.596010 -0.164305
0.372708 0.595996 -0.164632
0.376873 0.595832 -0.164923
0.379692 0.592866 -0.164509
0.383176 0.591297 -0.164446
0.387712 0.591856 -0.164918
0.394355 0.596564 -0.166440
0.398607 0.596448 -0.166742
0.403403 0.597377 -0.167306
0.409402 0.600582 -0.168446
0.412525 0.598261 -0.168177
0.413519 0.592007 -0.166896
0.418340 0.592990 -0.167453
0.425903 0.598989 -0.169289
0.430749 0.599954 -0.169830
0.434072 0.598197 -0.169662
0.438832 0.599060 -0.170156
0.442845 0.598632 -0.170306
0.447129 0.598730 -0.170578
0.444189 0.586466 -0.167641
0.441452 0.574849 -0.164849
0.443020 0.570776 -0.163989
0.458612 0.590245 -0.169214
0.467687 0.598647 -0.171560
0.470209 0.596242 -0.171085
0.471557 0.592055 -0.170127
-0.349943 0.597894 -0.153986
-0.348897 0.602527 -0.155175
-0.344164 0.600470 -0.154775
-0.341929 0.603179 -0.155480
-0.338584 0.603926 -0.155708
-0.335482 0.605245 -0.156055
-0.332496 0.606906 -0.156468
-0.328784 0.607260 -0.156558
-0.324085 0.605740 -0.156192
-0.320578 0.606650 -0.156385
-0.316747 0.606988 -0.156431
-0.312277 0.606080 -0.156172
-0.308372 0.606378 -0.156185
-0.304903 0.607643 -0.156416
-0.300598 0.607199 -0.156236
-0.296615 0.607466 -0.156214
-0.292730 0.607979 -0.156243
-0.289305 0.609538 -0.156510
-0.285004 0.609187 -0.156324
-0.280671 0.608760 -0.156115
-0.276175 0.607946 -0.155811
-0.272426 0.608839 -0.155904
-0.268580 0.609514 -0.155944
-0.264579 0.609819 -0.155895
-0.260682 0.610362 -0.155901
-0.256000 0.608963 -0.155453
-0.252149 0.609566 -0.155473
-0.247900 0.609143 -0.155254
-0.243682 0.608752 -0.155044
-0.239746 0.609040 -0.154993
-0.235708 0.609023 -0.154874
-0.231757 0.609197 -0.154801
-0.227715 0.609077 -0.154663
-0.223935 0.609630 -0.154684
-0.219850 0.609295 -0.154501
-0.215806 0.609015 -0.154335
-0.211883 0.609023 -0.154238
-0.208050 0.609243 -0.154195
-0.204294 0.609645 -0.154197
-0.200146 0.608819 -0.153919
-0.195980 0.607854 -0.153613
-0.192957 0.610382 -0.154118
-0.188672 0.608924 -0.153706
-0.184393 0.607380 -0.153278
-0.180189 0.605978 -0.152887
-0.176660 0.606735 -0.152998
-0.173026 0.607106 -0.153024
-0.169009 0.606110 -0.152739
-0.165349 0.606286 -0.152728
-0.161800 0.606819 -0.152803
-0.158220 0.607208 -0.152848
-0.154619 0.607478 -0.152870
-0.150981 0.607572 -0.152855
-0.147451 0.608039 -0.152930
-0.143962 0.608641 -0.153039
-0.140368 0.608792 -0.153048
-0.136719 0.608677 -0.152999
-0.132793 0.607341 -0.152673
-0.129444 0.608389 -0.152899
-0.125764 0.607983 -0.152793
-0.122141 0.607770 -0.152735
-0.118426 0.607077 -0.152569
-0.115084 0.608072 -0.152796
-0.111568 0.608233 -0.152833
-0.107894 0.607581 -0.152686
-0.104427 0.607907 -0.152767
-0.100847 0.607622 -0.152711
-0.097357 0.607763 -0.152755
-0.093412 0.605383 -0.152222
-0.090333 0.607704 -0.152773
-0.086898 0.608068 -0.152876
-0.083616 0.609324 -0.153187
-0.080090 0.609123 -0.153166
-0.076460 0.608226 -0.152986
-0.072965 0.608114 -0.152990
-0.069509 0.608229 -0.153048
-0.066055 0.608330 -0.153105
-0.062475 0.607512 -0.152952
-0.058997 0.607355 -0.152954
-0.055620 0.607941 -0.153129
-0.052080 0.607232 -0.153008
-0.048653 0.607387 -0.153088
-0.045373 0.608802 -0.153460
-0.042011 0.609569 -0.153685
-0.038278 0.606875 -0.153113
-0.034827 0.606688 -0.153121
-0.031804 0.610918 -0.154151
-0.028456 0.612006 -0.154457
-0.025005 0.612004 -0.154513
-0.021456 0.610779 -0.154288
-0.017621 0.605672 -0.153166
-0.014208 0.605712 -0.153236
-0.010804 0.605860 -0.153332
-0.007401 0.606035 -0.153436
-0.003927 0.604995 -0.153260
-0.000437 0.603464 -0.152972
0.002810 0.606607 -0.153768
0.006236 0.606351 -0.153777
0.009664 0.605947 -0.153754
0.012919 0.610478 -0.154877
0.016317 0.611610 -0.155213
0.019825 0.608756 -0.154625
0.023295 0.606401 -0.154152
0.026716 0.605801 -0.154089
0.030102 0.607976 -0.154673
0.033551 0.602914 -0.153573
0.036952 0.597416 -0.152372
0.040359 0.606976 -0.154679
0.043789 0.608650 -0.155151
0.047270 0.612854 -0.156215
0.050728 0.613554 -0.156464
0.054059 0.608341 -0.155333
0.057425 0.606173 -0.154913
0.060718 0.602334 -0.154103
0.064123 0.602496 -0.154229
0.067511 0.602160 -0.154240
0.071088 0.605956 -0.155218
0.074515 0.606076 -0.155338
0.077979 0.606825 -0.155607
0.081328 0.605536 -0.155399
0.084786 0.606071 -0.155620
0.088243 0.606483 -0.155813
0.091791 0.608041 -0.156276
0.095442 0.610675 -0.156995
0.098902 0.610736 -0.157110
0.101832 0.604842 -0.155825
0.105195 0.604111 -0.155755
0.108669 0.604551 -0.155963
0.112063 0.604159 -0.155976
0.115555 0.604676 -0.156204
0.119751 0.611324 -0.157881
0.122949 0.608977 -0.157437
0.126363 0.608540 -0.157446
0.129623 0.606911 -0.157173
0.133394 0.609220 -0.157834
0.137341 0.612627 -0.158757
0.141038 0.614020 -0.159206
0.144108 0.611035 -0.158619
0.147160 0.608093 -0.158043
0.150770 0.608868 -0.158350
0.154689 0.611479 -0.159095
0.158564 0.613647 -0.159739
0.161644 0.611025 -0.159244
0.165366 0.612167 -0.159648
0.168485 0.609886 -0.159238
0.172118 0.610460 -0.159510
0.175080 0.607459 -0.158932
0.178064 0.604697 -0.158411
0.181272 0.603148 -0.158183
0.184957 0.603965 -0.158522
0.188466 0.603880 -0.158648
0.191956 0.603677 -0.158748
0.195595 0.604129 -0.159007
0.199136 0.604093 -0.159153
0.202668 0.603986 -0.159284
0.206601 0.605550 -0.159820
0.210750 0.607915 -0.160553
0.214554 0.608746 -0.160920
0.218270 0.609154 -0.161189
0.221531 0.607729 -0.161018
0.223689 0.602087 -0.159830
0.227214 0.601770 -0.159932
0.230901 0.602025 -0.160175
0.234671 0.602534 -0.160484
0.240160 0.609110 -0.162270
0.244289 0.610651 -0.162839
0.247878 0.610240 -0.162938
0.250203 0.605532 -0.161994
0.252403 0.600532 -0.160979
0.256404 0.601530 -0.161431
0.261176 0.604928 -0.162474
0.264095 0.602319 -0.162054
0.267937 0.602618 -0.162348
0.271206 0.601108 -0.162204
0.275327 0.602161 -0.162692
0.279941 0.604595 -0.163526
0.283673 0.604336 -0.163703
0.287410 0.604050 -0.163877
0.289629 0.599437 -0.162987
0.293546 0.599636 -0.163289
0.298750 0.603305 -0.164457
0.302639 0.603267 -0.164711
0.306096 0.602029 -0.164673
0.308872 0.598990 -0.164190
0.313712 0.601320 -0.165049
0.317740 0.601466 -0.165369
0.321179 0.600075 -0.165309
0.325522 0.600911 -0.165812
0.333825 0.611344 -0.168729
0.337950 0.611374 -0.169044
0.341186 0.609241 -0.168819
0.344336 0.606910 -0.168547
0.347970 0.605713 -0.168564
0.352629 0.606836 -0.169171
0.354085 0.600668 -0.167934
0.357289 0.598501 -0.167711
0.361753 0.599110 -0.168197
0.366236 0.599700 -0.168681
0.370215 0.599159 -0.168880
0.376269 0.602975 -0.170195
0.379035 0.599802 -0.169723
0.380722 0.594455 -0.168690
0.382794 0.589991 -0.167880
0.389276 0.594474 -0.169373
0.394634 0.596597 -0.170258
0.399193 0.597085 -0.170721
0.404921 0.599817 -0.171763
0.408707 0.598758 -0.171818
0.412376 0.597499 -0.171816
0.413944 0.592341 -0.170789
0.418783 0.593364 -0.171366
0.427222 0.600971 -0.173658
0.430357 0.598831 -0.173392
0.434659 0.598856 -0.173683
0.438592 0.598263 -0.173800
0.442664 0.597967 -0.173982
0.446079 0.596586 -0.173864
0.445857 0.589039 -0.172103
0.450779 0.590449 -0.172688
0.439942 0.565356 -0.166250
0.438985 0.557292 -0.164289
0.467146 0.597564 -0.175112
0.469574 0.595041 -0.174588
0.470928 0.590903 -0.173616
-0.353769 0.604582 -0.159261
-0.349127 0.602600 -0.158892
-0.345253 0.602116 -0.158865
-0.341796 0.602507 -0.159032
-0.339275 0.604784 -0.159637
-0.336153 0.606043 -0.159981
-0.332461 0.606312 -0.160071
-0.328369 0.605884 -0.159978
-0.324473 0.605916 -0.159981
-0.320828 0.606525 -0.160109
-0.317070 0.606986 -0.160188
-0.313143 0.607170 -0.160188
-0.308162 0.605228 -0.159665
-0.305120 0.607353 -0.160109
-0.301456 0.608251 -0.160249
-0.296935 0.607361 -0.159949
-0.293027 0.607809 -0.159963
-0.289071 0.608183 -0.159953
-0.285347 0.609095 -0.160065
-0.280700 0.607950 -0.159679
-0.276892 0.608698 -0.159742
-0.273010 0.609288 -0.159764
-0.268681 0.608829 -0.159532
-0.264434 0.608540 -0.159339
-0.260577 0.609161 -0.159362
-0.256757 0.609867 -0.159404
-0.252645 0.609837 -0.159271
-0.248521 0.609742 -0.159123
-0.244521 0.609924 -0.159042
-0.240647 0.610400 -0.159032
-0.236341 0.609709 -0.158747
-0.232296 0.609650 -0.158614
-0.228220 0.609459 -0.158453
-0.224322 0.609706 -0.158398
-0.220274 0.609488 -0.158236
-0.215889 0.608257 -0.157837
-0.211830 0.607878 -0.157644
-0.208264 0.608876 -0.157780
-0.204401 0.608971 -0.157706
-0.200660 0.609382 -0.157711
-0.196785 0.609341 -0.157613
-0.192653 0.608442 -0.157316
-0.188445 0.607215 -0.156946
-0.184432 0.606524 -0.156706
-0.180764 0.606890 -0.156720
-0.176986 0.606847 -0.156642
-0.173191 0.606689 -0.156540
-0.169528 0.606935 -0.156538
-0.166109 0.607999 -0.156733
-0.162579 0.608648 -0.156833
-0.158771 0.608254 -0.156692
-0.154884 0.607495 -0.156469
-0.151151 0.607247 -0.156369
-0.147501 0.607264 -0.156336
-0.144010 0.607856 -0.156442
-0.140536 0.608500 -0.156564
-0.136604 0.607229 -0.156239
-0.133154 0.607892 -0.156373
-0.129677 0.608419 -0.156478
-0.125988 0.607997 -0.156363
-0.122156 0.606861 -0.156083
-0.118674 0.607246 -0.156165
-0.115198 0.607632 -0.156250
-0.111729 0.608033 -0.156341
-0.108076 0.607498 -0.156216
-0.104741 0.608510 -0.156457
-0.100991 0.607379 -0.156198
-0.097467 0.607353 -0.156201
-0.094072 0.607993 -0.156363
-0.090636 0.608402 -0.156474
-0.087236 0.609004 -0.156633
-0.083774 0.609243 -0.156709
-0.080217 0.608876 -0.156645
-0.076639 0.608317 -0.156539
-0.073174 0.608430 -0.156593
-0.069715 0.608553 -0.156652
-0.066225 0.608447 -0.156659
-0.062786 0.608662 -0.156744
-0.059220 0.607914 -0.156604
-0.055687 0.607341 -0.156508
-0.052249 0.607455 -0.156575
-0.048822 0.607641 -0.156661
-0.045508 0.608798 -0.156978
-0.041867 0.607073 -0.156619
-0.038522 0.607955 -0.156875
-0.034993 0.607084 -0.156720
-0.031696 0.608506 -0.157107
-0.028469 0.610819 -0.157706
-0.025069 0.611366 -0.157891
-0.021499 0.609881 -0.157598
-0.017887 0.607651 -0.157130
-0.014302 0.605482 -0.156677
-0.010941 0.606291 -0.156930
-0.007510 0.606097 -0.156947
-0.004079 0.605848 -0.156953
-0.000711 0.606722 -0.157225
0.002710 0.606644 -0.157274
0.006190 0.605197 -0.157000
0.009469 0.608547 -0.157864
0.012799 0.611291 -0.158586
0.016263 0.610420 -0.158452
0.019765 0.607621 -0.157863
0.023231 0.605331 -0.157394
0.026618 0.606747 -0.157807
0.030014 0.608675 -0.158342
0.033428 0.610551 -0.158867
0.036864 0.608815 -0.158535
0.040286 0.607530 -0.158310
0.043746 0.612097 -0.159480
0.047208 0.613548 -0.159910
0.050655 0.613289 -0.159933
0.054067 0.611586 -0.159614
0.057455 0.609598 -0.159227
0.060840 0.608036 -0.158943
0.064086 0.603089 -0.157851
0.067498 0.603238 -0.157977
0.070997 0.605184 -0.158533
0.074453 0.605915 -0.158801
0.077917 0.606643 -0.159069
0.081336 0.606472 -0.159123
0.084702 0.605504 -0.158987
0.088133 0.605565 -0.159099
0.091688 0.607245 -0.159601
0.095298 0.609394 -0.160217
0.098906 0.611242 -0.160762
0.101729 0.604094 -0.159149
0.105154 0.604038 -0.159239
0.108565 0.603819 -0.159292
0.112070 0.604512 -0.159565
0.115562 0.604986 -0.159787
0.119545 0.609733 -0.161040
0.123149 0.610860 -0.161424
0.126177 0.607196 -0.160653
0.129482 0.605942 -0.160466
0.133113 0.607219 -0.160890
0.136761 0.608500 -0.161318
0.140500 0.610311 -0.161876
0.143949 0.610006 -0.161924
0.147423 0.609857 -0.162011
0.151572 0.613995 -0.163140
0.155050 0.613708 -0.163199
0.157533 0.607436 -0.161807
0.161652 0.611035 -0.162812
0.164717 0.608431 -0.162313
0.168241 0.608469 -0.162458
0.172020 0.609846 -0.162931
0.174928 0.606563 -0.162272
0.177900 0.603745 -0.161727
0.181171 0.602522 -0.161573
0.184784 0.602988 -0.161833
0.188408 0.603453 -0.162096
0.191955 0.603509 -0.162261
0.195579 0.603877 -0.162506
0.199018 0.603378 -0.162541
0.202599 0.603483 -0.162727
0.206320 0.604142 -0.163052
0.211029 0.608850 -0.164376
0.214776 0.609413 -0.164686
0.218306 0.609048 -0.164770
0.221849 0.608715 -0.164865
0.223441 0.600865 -0.163108
0.227176 0.601349 -0.163410
0.231339 0.603355 -0.164092
0.235830 0.606437 -0.165045
0.238389 0.602488 -0.164261
0.241255 0.599716 -0.163771
0.244632 0.598755 -0.163733
0.247878 0.597341 -0.163585
0.252562 0.600705 -0.164631
0.257426 0.604500 -0.165790
0.260736 0.603139 -0.165669
0.265006 0.604808 -0.166309
0.268593 0.604257 -0.166399
0.271584 0.601861 -0.166030
0.274598 0.599562 -0.165689
0.279143 0.601814 -0.166495
0.281657 0.598034 -0.165790
0.285462 0.598027 -0.166037
0.288820 0.596704 -0.165957
0.293780 0.599829 -0.167005
0.298935 0.603344 -0.168159
0.303434 0.604936 -0.168833
0.306597 0.602876 -0.168587
0.309484 0.600103 -0.168163
0.313248 0.599623 -0.168326
0.317148 0.599452 -0.168572
0.322337 0.602468 -0.169637
0.326282 0.602270 -0.169887
0.333000 0.608795 -0.171865
0.336750 0.607944 -0.171961
0.339895 0.605629 -0.171683
0.343341 0.604030 -0.171593
0.347787 0.604737 -0.172101
0.352013 0.604876 -0.172467
0.355783 0.603936 -0.172557
0.357439 0.598278 -0.171426
0.361876 0.598820 -0.171905
0.366433 0.599568 -0.172440
0.372983 0.604517 -0.174074
0.378155 0.606395 -0.174913
0.380762 0.602846 -0.174333
0.384564 0.601814 -0.174412
0.390885 0.605900 -0.175834
0.398973 0.613411 -0.178161
0.396134 0.599045 -0.174723
0.400522 0.599171 -0.175099
0.406171 0.601728 -0.176114
0.410339 0.601383 -0.176359
0.414310 0.600676 -0.176501
0.415453 0.594699 -0.175233
0.421473 0.597892 -0.176397
0.426975 0.600085 -0.177289
0.431374 0.600258 -0.177631
0.434369 0.597946 -0.177297
0.438112 0.597045 -0.177328
0.442095 0.596626 -0.177474
0.444693 0.593863 -0.176975
0.448485 0.593261 -0.177041
0.452455 0.593034 -0.177192
0.454362 0.589404 -0.176407
0.449074 0.573917 -0.172400
0.468027 0.598838 -0.179291
0.466924 0.584284 -0.175613
-0.352562 0.602065 -0.162347
-0.348575 0.601240 -0.162258
-0.344609 0.600540 -0.162182
-0.341517 0.601570 -0.162514
-0.339070 0.603945 -0.163160
-0.335919 0.605110 -0.163492
-0.331809 0.604527 -0.163379
-0.328090 0.604784 -0.163456
-0.324520 0.605423 -0.163611
-0.321013 0.606274 -0.163805
-0.317260 0.606717 -0.163884
-0.313677 0.607580 -0.164054
-0.309498 0.607282 -0.163925
-0.305453 0.607309 -0.163866
-0.301975 0.608581 -0.164101
-0.297823 0.608472 -0.163989
-0.293463 0.607936 -0.163762
-0.289305 0.607853 -0.163640
-0.285414 0.608380 -0.163661
-0.281544 0.608974 -0.163692
-0.277467 0.609112 -0.163607
-0.273145 0.608683 -0.163379
-0.269145 0.608991 -0.163328
-0.264765 0.608385 -0.163052
-0.260736 0.608591 -0.162973
-0.257100 0.609741 -0.163123
-0.253269 0.610411 -0.163156
-0.249256 0.610610 -0.163074
-0.245100 0.610414 -0.162896
-0.241074 0.610512 -0.162792
-0.236797 0.609911 -0.162519
-0.232408 0.608948 -0.162161
-0.228359 0.608832 -0.162012
-0.224588 0.609429 -0.162038
-0.220854 0.610102 -0.162085
-0.216505 0.608998 -0.161705
-0.212261 0.608110 -0.161381
-0.208111 0.607418 -0.161108
-0.204639 0.608668 -0.161309
-0.200842 0.608923 -0.161273
-0.196752 0.608230 -0.161011
-0.192834 0.608000 -0.160866
-0.188868 0.607556 -0.160673
-0.185000 0.607356 -0.160544
-0.181130 0.607091 -0.160402
-0.177556 0.607754 -0.160489
-0.173335 0.606184 -0.160041
-0.169922 0.607302 -0.160246
-0.166217 0.607380 -0.160204
-0.162801 0.608449 -0.160404
-0.159080 0.608393 -0.160337
-0.155246 0.607854 -0.160159
-0.151471 0.607474 -0.160022
-0.147716 0.607105 -0.159892
-0.144102 0.607232 -0.159886
-0.140544 0.607543 -0.159927
-0.136819 0.607127 -0.159797
-0.133102 0.606685 -0.159665
-0.129554 0.606904 -0.159695
-0.126255 0.608179 -0.159982
-0.122628 0.607994 -0.159922
-0.118748 0.606594 -0.159573
-0.115280 0.607024 -0.159668
-0.111863 0.607680 -0.159819
-0.108440 0.608293 -0.159964
-0.104904 0.608329 -0.159973
-0.101226 0.607591 -0.159800
-0.097623 0.607172 -0.159706
-0.094417 0.608860 -0.160120
-0.090857 0.608621 -0.160075
-0.087330 0.608521 -0.160066
-0.083874 0.608797 -0.160150
-0.080330 0.608518 -0.160103
-0.076743 0.607920 -0.159982
-0.073327 0.608361 -0.160114
-0.069926 0.608900 -0.160271
-0.066443 0.608873 -0.160295
-0.062955 0.608776 -0.160304
-0.059455 0.608549 -0.160284
-0.055841 0.607403 -0.160046
-0.052417 0.607655 -0.160146
-0.048976 0.607762 -0.160213
-0.045515 0.607671 -0.160234
-0.042122 0.608165 -0.160398
-0.038514 0.606646 -0.160080
-0.035157 0.607441 -0.160320
-0.031839 0.608683 -0.160670
-0.028555 0.610410 -0.161139
-0.025038 0.609629 -0.161005
-0.021529 0.608824 -0.160867
-0.018159 0.609690 -0.161134
-0.014611 0.608205 -0.160835
-0.011080 0.606737 -0.160542
-0.007671 0.606959 -0.160659
-0.004227 0.606590 -0.160633
-0.000829 0.607014 -0.160801
0.002557 0.607742 -0.161044
0.006042 0.606357 -0.160778
0.009379 0.608423 -0.161347
0.012607 0.614181 -0.162811
0.016036 0.614990 -0.163080
0.019609 0.610375 -0.162038
0.023084 0.608366 -0.161626
0.026490 0.609671 -0.162019
0.029876 0.613898 -0.163122
0.033320 0.615317 -0.163546
0.036784 0.611369 -0.162669
0.040222 0.610523 -0.162546
0.043632 0.607230 -0.161829
0.047160 0.615276 -0.163868
0.050558 0.611726 -0.163091
0.053971 0.610289 -0.162828
0.057484 0.612994 -0.163575
0.060903 0.611926 -0.163404
0.064285 0.610109 -0.163052
0.067534 0.605473 -0.162013
0.070946 0.605280 -0.162059
0.074413 0.606181 -0.162372
0.077849 0.606342 -0.162506
0.081252 0.605905 -0.162495
0.084647 0.605387 -0.162466
0.088107 0.605829 -0.162673
0.091646 0.607250 -0.163120
0.095276 0.609614 -0.163800
0.098601 0.608090 -0.163530
0.101693 0.604093 -0.162655
0.104972 0.602458 -0.162359
0.108639 0.604888 -0.163062
0.112126 0.605323 -0.163277
0.115938 0.608697 -0.164215
0.118934 0.604552 -0.163308
0.122295 0.603817 -0.163240
0.125926 0.605304 -0.163720
0.129167 0.603613 -0.163420
0.132883 0.605592 -0.164025
0.136922 0.609753 -0.165171
0.140129 0.607761 -0.164802
0.143751 0.608696 -0.165156
0.147717 0.611812 -0.166052
0.151271 0.612076 -0.166246
0.154626 0.611069 -0.166127
0.157503 0.607224 -0.165307
0.159261 0.597041 -0.162916
0.163162 0.599546 -0.163672
0.166824 0.600570 -0.164062
0.170066 0.599249 -0.163873
0.174858 0.606087 -0.165715
0.178123 0.604756 -0.165529
0.181343 0.603237 -0.165298
0.184912 0.603456 -0.165502
0.188269 0.602627 -0.165448
0.191930 0.603213 -0.165749
0.195429 0.603007 -0.165855
0.199132 0.603683 -0.166185
0.202641 0.603451 -0.166291
0.206058 0.602807 -0.166297
0.210859 0.607905 -0.167746
0.214645 0.608628 -0.168102
0.217932 0.607294 -0.167944
0.221389 0.606639 -0.167960
0.227639 0.616690 -0.170676
0.232345 0.620507 -0.171829
0.235246 0.617475 -0.171259
0.235998 0.606729 -0.168743
0.237796 0.600052 -0.167253
0.241861 0.601498 -0.167821
0.245028 0.599769 -0.167588
0.248089 0.597699 -0.167273
0.253836 0.604562 -0.169230
0.257815 0.605390 -0.169660
0.261185 0.604191 -0.169579
0.265500 0.605967 -0.170261
0.268886 0.604759 -0.170186
0.271777 0.602033 -0.169726
0.275079 0.600578 -0.169596
0.278303 0.598893 -0.169410
0.282594 0.600318 -0.170026
0.285978 0.599049 -0.169956
0.291835 0.604747 -0.171683
0.295129 0.603105 -0.171528
0.298820 0.602545 -0.171655
0.303301 0.604082 -0.172330
0.307424 0.604573 -0.172740
0.309851 0.600558 -0.171987
0.313459 0.599653 -0.172044
0.317192 0.599041 -0.172181
0.322743 0.602955 -0.173503
0.326759 0.602912 -0.173801
0.331455 0.604477 -0.174523
0.334356 0.601632 -0.174097
0.337293 0.598896 -0.173702
0.341758 0.599765 -0.174256
0.346273 0.600673 -0.174826
0.350876 0.601714 -0.175435
0.356121 0.604123 -0.176412
0.357334 0.597476 -0.174996
0.361072 0.596489 -0.175078
0.366192 0.598475 -0.175952
0.375232 0.608744 -0.179036
0.377770 0.605008 -0.178396
0.379849 0.600377 -0.177514
0.386165 0.604543 -0.178983
0.388199 0.599883 -0.178088
0.392270 0.599403 -0.178311
0.396475 0.599182 -0.178602
0.400217 0.598045 -0.178642
0.406553 0.601947 -0.180039
0.410759 0.601680 -0.180306
0.417862 0.606902 -0.182055
0.420576 0.603809 -0.181544
0.423637 0.601438 -0.181218
0.427515 0.600636 -0.181308
0.431351 0.599801 -0.181377
0.435015 0.598710 -0.181365
0.438243 0.596909 -0.181144
0.441479 0.595205 -0.180935
0.445369 0.594721 -0.181044
0.444047 0.585357 -0.178698
0.450567 0.589567 -0.180062
0.454559 0.589508 -0.180236
0.457608 0.587949 -0.179978
0.458541 0.582999 -0.178766
0.474267 0.596084 -0.182624
-0.350006 0.597095 -0.164792
-0.348490 0.600752 -0.165829
-0.344552 0.600069 -0.165760
-0.342214 0.602482 -0.166451
-0.339683 0.604671 -0.167068
-0.335824 0.604453 -0.167065
-0.332308 0.604985 -0.167233
-0.328409 0.604863 -0.167221
-0.324744 0.605285 -0.167329
-0.321391 0.606414 -0.167600
-0.317615 0.606784 -0.167666
-0.313552 0.606640 -0.167589
-0.310288 0.608203 -0.167928
-0.306148 0.608021 -0.167817
-0.302374 0.608654 -0.167900
-0.298184 0.608447 -0.167761
-0.294267 0.608859 -0.167769
-0.290143 0.608849 -0.167664
-0.285807 0.608386 -0.167437
-0.281763 0.608578 -0.167369
-0.277468 0.608205 -0.167154
-0.273267 0.608041 -0.166988
-0.269315 0.608449 -0.166960
-0.265587 0.609386 -0.167062
-0.261695 0.609938 -0.167066
-0.257893 0.610703 -0.167122
-0.253330 0.609574 -0.166705
-0.249678 0.610675 -0.166844
-0.245572 0.610615 -0.166694
-0.241715 0.611162 -0.166697
-0.237015 0.609468 -0.166144
-0.232847 0.609100 -0.165924
-0.228469 0.608108 -0.165551
-0.224717 0.608760 -0.165588
-0.220931 0.609289 -0.165598
-0.216973 0.609297 -0.165481
-0.213068 0.609407 -0.165394
-0.208818 0.608459 -0.165049
-0.204868 0.608321 -0.164908
-0.200561 0.607047 -0.164490
-0.197509 0.609529 -0.165003
-0.193156 0.607980 -0.164526
-0.189367 0.608116 -0.164469
-0.185712 0.608631 -0.164508
-0.181534 0.607399 -0.164123
-0.177818 0.607608 -0.164096
-0.174320 0.608517 -0.164245
-0.170916 0.609730 -0.164473
-0.166235 0.606433 -0.163597
-0.162734 0.607197 -0.163723
-0.159240 0.607965 -0.163854
-0.155485 0.607734 -0.163745
-0.151802 0.607722 -0.163692
-0.148216 0.608037 -0.163724
-0.144288 0.606960 -0.163419
-0.140610 0.606803 -0.163343
-0.137128 0.607396 -0.163454
-0.133850 0.608824 -0.163774
-0.129624 0.606196 -0.163104
-0.126144 0.606682 -0.163200
-0.122640 0.607038 -0.163268
-0.119316 0.608193 -0.163536
-0.116064 0.609694 -0.163891
-0.111862 0.606661 -0.163140
-0.108568 0.607907 -0.163439
-0.105095 0.608273 -0.163526
-0.101553 0.608259 -0.163524
-0.098116 0.608764 -0.163651
-0.094561 0.608614 -0.163621
-0.090899 0.607816 -0.163436
-0.087370 0.607708 -0.163422
-0.083906 0.607936 -0.163493
-0.080402 0.607901 -0.163502
-0.076838 0.607454 -0.163413
-0.073376 0.607600 -0.163473
-0.070052 0.608652 -0.163756
-0.066647 0.609181 -0.163914
-0.063152 0.609069 -0.163918
-0.059607 0.608549 -0.163823
-0.056029 0.607707 -0.163652
-0.052518 0.607302 -0.163590
-0.049162 0.608125 -0.163832
-0.045688 0.607965 -0.163834
-0.042206 0.607694 -0.163812
-0.038687 0.607019 -0.163692
-0.035302 0.607579 -0.163877
-0.032028 0.609325 -0.164356
-0.028913 0.612954 -0.165300
-0.025399 0.612378 -0.165212
-0.021487 0.606865 -0.163912
-0.018320 0.610265 -0.164805
-0.015043 0.612580 -0.165434
-0.011500 0.611289 -0.165177
-0.007937 0.609448 -0.164786
-0.004397 0.607700 -0.164419
-0.000850 0.605495 -0.163940
0.002605 0.604705 -0.163812
0.006036 0.604270 -0.163773
0.009394 0.605589 -0.164167
0.012613 0.611261 -0.165638
0.015899 0.616506 -0.167006
0.019377 0.616057 -0.166969
0.022876 0.614325 -0.166618
0.026365 0.612283 -0.166190
0.029799 0.613371 -0.166537
0.033243 0.614801 -0.166971
0.036705 0.612383 -0.166454
0.040104 0.598012 -0.162977
0.043491 0.598864 -0.163270
0.046865 0.598099 -0.163164
0.050256 0.598585 -0.163369
0.053713 0.601794 -0.164251
0.057248 0.606701 -0.165556
0.060795 0.610497 -0.166588
0.064193 0.609253 -0.166370
0.067625 0.609054 -0.166413
0.070927 0.606071 -0.165765
0.074319 0.605382 -0.165687
0.077747 0.605431 -0.165795
0.081182 0.605551 -0.165922
0.084603 0.605426 -0.165989
0.088229 0.608198 -0.166780
0.091706 0.608612 -0.166985
0.094923 0.605696 -0.166359
0.098779 0.610632 -0.167697
0.102648 0.615170 -0.168937
0.106083 0.614611 -0.168905
0.109922 0.618153 -0.169902
0.113651 0.620291 -0.170549
0.115628 0.606075 -0.167100
0.118674 0.602460 -0.166306
0.122021 0.601675 -0.166223
0.125569 0.602548 -0.166558
0.128742 0.600407 -0.166138
0.133537 0.610612 -0.168823
0.136906 0.609711 -0.168718
0.140351 0.609376 -0.168758
0.144131 0.611311 -0.169372
0.147505 0.610427 -0.169278
0.151041 0.610600 -0.169452
0.154197 0.608388 -0.169026
0.157255 0.605688 -0.168478
0.160028 0.601452 -0.167543
0.163788 0.603021 -0.168077
0.166899 0.600892 -0.167678
0.170268 0.600234 -0.167653
0.174681 0.605041 -0.169017
0.178571 0.606907 -0.169638
0.181669 0.604711 -0.169231
0.184181 0.599745 -0.168122
0.188181 0.602038 -0.168860
0.191481 0.600944 -0.168740
0.195524 0.603238 -0.169485
0.199247 0.603977 -0.169838
0.203136 0.605370 -0.170361
0.206477 0.604348 -0.170271
0.211592 0.610700 -0.172071
0.214888 0.609355 -0.171906
0.217621 0.605777 -0.171170
0.222446 0.610487 -0.172564
0.224993 0.606242 -0.171663
0.228046 0.604023 -0.171285
0.233749 0.611628 -0.173438
0.237245 0.610916 -0.173456
0.239164 0.604579 -0.172026
0.242406 0.603053 -0.171840
0.245807 0.602083 -0.171800
0.249408 0.601776 -0.171936
0.254680 0.606977 -0.173504
0.258542 0.607363 -0.173830
0.261944 0.606220 -0.173763
0.265773 0.606412 -0.174048
0.269942 0.607605 -0.174598
0.273873 0.607988 -0.174943
0.277427 0.607181 -0.174982
0.279729 0.602655 -0.174053
0.283222 0.601681 -0.174055
0.286952 0.601369 -0.174236
0.291094 0.602177 -0.174716
0.295252 0.602956 -0.175194
0.298849 0.602126 -0.175255
0.303340 0.603680 -0.175948
0.306896 0.602654 -0.175967
0.310066 0.600597 -0.175717
0.313760 0.599899 -0.175831
0.318668 0.602256 -0.176761
0.322438 0.601643 -0.176908
0.326161 0.600880 -0.177020
0.332280 0.605927 -0.178686
0.334791 0.602111 -0.177993
0.337005 0.597646 -0.177128
0.342127 0.600053 -0.178106
0.345926 0.599295 -0.178240
0.349772 0.598618 -0.178400
0.353602 0.597877 -0.178545
