ply
format ascii 1.0
comment ---
element vertex 1708
property float x
property float y
property float z
element face 0
property list uchar uint vertex_indices
end_header
0.295979 0.608981 -0.042691
0.297472 0.614303 -0.042080
0.299987 0.613729 -0.042276
0.302763 0.611462 -0.042699
0.304790 0.613839 -0.042484
0.307994 0.608546 -0.043311
0.310619 0.606847 -0.043645
0.313085 0.606118 -0.043842
0.315763 0.603777 -0.044255
0.318285 0.602410 -0.044531
0.320283 0.605030 -0.044265
0.322567 0.605488 -0.044289
0.325112 0.603757 -0.044606
0.327277 0.605198 -0.044491
0.329591 0.605368 -0.044545
0.331965 0.604959 -0.044674
0.334374 0.604135 -0.044855
0.336674 0.604339 -0.044896
0.338760 0.606915 -0.044616
0.341006 0.607885 -0.044549
0.343314 0.608166 -0.044572
0.345310 0.612535 -0.044046
0.347843 0.609970 -0.044444
0.350672 0.602634 -0.045475
0.352867 0.604311 -0.045300
0.355051 0.606402 -0.045068
0.357496 0.603954 -0.045438
0.359854 0.602809 -0.045632
0.362054 0.604971 -0.045383
0.364394 0.604075 -0.045539
0.366517 0.609091 -0.044906
0.368729 0.612715 -0.044457
0.371070 0.612559 -0.044506
0.373508 0.607786 -0.045166
0.375843 0.606463 -0.045366
0.378154 0.606236 -0.045417
0.380345 0.621709 -0.043385
0.382730 0.618805 -0.043786
0.385092 0.617913 -0.043919
0.387439 0.615948 -0.044191
0.389903 0.626288 -0.042830
0.392076 0.611781 -0.044758
0.394440 0.613370 -0.044551
0.396886 0.617659 -0.043984
0.399319 0.620112 -0.043657
0.401752 0.621907 -0.043415
0.403874 0.615184 -0.044299
0.406622 0.624357 -0.043074
0.408996 0.623916 -0.043120
0.411231 0.620881 -0.043507
0.413591 0.620511 -0.043538
0.416037 0.621562 -0.043377
0.418460 0.622097 -0.043283
0.420649 0.619235 -0.043636
0.422772 0.615818 -0.044060
0.424779 0.611338 -0.044623
0.426875 0.608360 -0.044984
0.429233 0.608605 -0.044914
0.431637 0.609285 -0.044783
0.433880 0.608244 -0.044878
0.435612 0.602332 -0.045619
0.437792 0.601052 -0.045741
0.440445 0.604041 -0.045290
0.442891 0.605008 -0.045105
0.445083 0.603791 -0.045209
0.447345 0.603194 -0.045227
0.449726 0.603514 -0.045119
0.452126 0.603924 -0.044996
0.454477 0.603930 -0.044923
0.457280 0.607020 -0.044432
0.459824 0.608157 -0.044200
0.462417 0.609515 -0.043935
0.464416 0.607045 -0.044181
0.466190 0.603327 -0.044593
0.468258 0.601519 -0.044745
0.470863 0.602871 -0.044466
0.472716 0.599914 -0.044767
0.475516 0.602237 -0.044349
0.477988 0.602677 -0.044182
0.480402 0.602762 -0.044060
0.482750 0.602479 -0.043984
0.485173 0.602548 -0.043856
0.489381 0.611179 -0.042552
0.491666 0.610341 -0.042539
0.493697 0.608341 -0.042683
0.496069 0.607934 -0.042604
0.498863 0.609369 -0.042268
0.501730 0.611028 -0.041896
0.504817 0.613517 -0.041405
0.507005 0.612156 -0.041444
0.508656 0.608652 -0.041778
0.511277 0.609105 -0.041559
0.513769 0.609008 -0.041414
0.516007 0.607916 -0.041405
0.518261 0.606902 -0.041383
0.521020 0.607751 -0.041096
0.522467 0.603810 -0.041483
0.525414 0.605301 -0.041101
0.528031 0.605563 -0.040891
0.528502 0.598458 -0.041726
0.530355 0.596217 -0.041871
0.534471 0.601509 -0.040941
0.536395 0.599483 -0.041054
0.545050 0.619019 -0.038073
0.542228 0.601819 -0.040365
0.543482 0.597763 -0.040774
0.546545 0.599336 -0.040373
0.548949 0.598871 -0.040267
0.552063 0.600506 -0.039859
0.553813 0.598124 -0.040038
0.556367 0.598109 -0.039876
0.559319 0.599220 -0.039553
0.562658 0.601375 -0.039082
0.565255 0.601439 -0.038921
0.567858 0.601522 -0.038764
0.570758 0.602407 -0.038496
0.573919 0.603969 -0.038135
0.576415 0.603778 -0.038041
0.580347 0.607291 -0.037407
0.581998 0.604967 -0.037648
0.583308 0.601875 -0.038015
0.585229 0.600396 -0.038153
0.588549 0.602389 -0.037787
0.591532 0.603557 -0.037556
0.593130 0.601443 -0.037827
0.596233 0.602950 -0.037571
0.598330 0.602128 -0.037677
0.600815 0.602256 -0.037656
0.602864 0.601439 -0.037789
0.605079 0.601057 -0.037873
0.609658 0.605985 -0.037180
0.611338 0.604483 -0.037462
0.610438 0.597447 -0.038582
0.609170 0.589808 -0.039804
0.612089 0.591310 -0.039682
0.615805 0.594517 -0.039322
0.619674 0.598037 -0.038932
0.621456 0.597215 -0.039200
0.622190 0.594305 -0.039790
0.622765 0.591178 -0.040424
0.621336 0.584107 -0.041647
0.113294 0.597654 -0.036357
0.115061 0.598437 -0.036090
0.116231 0.600386 -0.035657
0.118189 0.600950 -0.035452
0.120113 0.601639 -0.035243
0.123457 0.599695 -0.035457
0.125616 0.600034 -0.035334
0.125744 0.604357 -0.034610
0.127928 0.604797 -0.034504
0.132005 0.601564 -0.034982
0.133319 0.603811 -0.034629
0.138686 0.598007 -0.035538
0.141854 0.596592 -0.035783
0.145709 0.593783 -0.036259
0.145810 0.598732 -0.035550
0.146991 0.601564 -0.035185
0.149606 0.601458 -0.035289
0.151583 0.602751 -0.035191
0.151989 0.607505 -0.034575
0.154542 0.607698 -0.034674
0.157538 0.606940 -0.034933
0.159796 0.607842 -0.034948
0.162871 0.606935 -0.035251
0.165595 0.606829 -0.035442
0.170750 0.601087 -0.036499
0.176826 0.593040 -0.037910
0.177385 0.597953 -0.037363
0.179213 0.599938 -0.037268
0.180002 0.604517 -0.036791
0.181741 0.606867 -0.036658
0.185105 0.605192 -0.037133
0.188160 0.604255 -0.037501
0.191000 0.603839 -0.037794
0.192843 0.606016 -0.037705
0.196032 0.604665 -0.038141
0.198479 0.605263 -0.038290
0.201109 0.605361 -0.038514
0.203333 0.606573 -0.038576
0.206723 0.604518 -0.039115
0.208973 0.605639 -0.039190
0.211534 0.605872 -0.039393
0.214477 0.604960 -0.039761
0.216443 0.606920 -0.039713
0.218701 0.608028 -0.039786
0.220436 0.610764 -0.039626
0.224343 0.606738 -0.040429
0.228054 0.603180 -0.041159
0.230408 0.603875 -0.041280
0.232216 0.606367 -0.041146
0.235365 0.604416 -0.041635
0.237639 0.605352 -0.041714
0.240077 0.605724 -0.041869
0.242675 0.605509 -0.042103
0.244408 0.608375 -0.041904
0.246940 0.608383 -0.042100
0.250396 0.604905 -0.042774
0.253323 0.603280 -0.043185
0.255884 0.602979 -0.043410
0.256837 0.609006 -0.042763
0.258921 0.610673 -0.042712
0.260502 0.614450 -0.042370
0.263836 0.610981 -0.043014
0.266156 0.611686 -0.043084
0.268763 0.611132 -0.043321
0.271432 0.610243 -0.043599
0.273516 0.611971 -0.043520
0.275672 0.613405 -0.043477
0.277799 0.615013 -0.043408
0.280595 0.613385 -0.043770
0.282353 0.616872 -0.043443
0.283891 0.621631 -0.042944
0.286504 0.620918 -0.043173
0.289562 0.617734 -0.043727
0.292435 0.615373 -0.044166
0.294128 0.619602 -0.043727
0.295662 0.624978 -0.043135
0.298381 0.623467 -0.043451
0.302740 0.611629 -0.045124
0.305638 0.608416 -0.045654
0.307974 0.608689 -0.045721
0.310656 0.606596 -0.046095
0.313254 0.604928 -0.046410
0.315763 0.603766 -0.046654
0.318025 0.604357 -0.046667
0.320013 0.607117 -0.046393
0.322406 0.606767 -0.046523
0.324854 0.605897 -0.046717
0.327298 0.604965 -0.046917
0.329538 0.605798 -0.046884
0.331882 0.605688 -0.046970
0.334259 0.605204 -0.047102
0.336424 0.606878 -0.046953
0.338513 0.609548 -0.046672
0.340945 0.608477 -0.046872
0.343352 0.607570 -0.047048
0.345582 0.608831 -0.046942
0.347515 0.614372 -0.046282
0.350597 0.603567 -0.047724
0.352775 0.605574 -0.047514
0.355123 0.604942 -0.047641
0.357513 0.603386 -0.047884
0.359771 0.604225 -0.047817
0.362087 0.603882 -0.047899
0.364349 0.604819 -0.047815
0.366418 0.611488 -0.046994
0.368700 0.613109 -0.046817
0.371061 0.612267 -0.046954
0.373435 0.610396 -0.047220
0.375818 0.606959 -0.047683
0.378155 0.604646 -0.048000
0.380478 0.601308 -0.048445
0.382748 0.605564 -0.047918
0.385051 0.605669 -0.047918
0.387351 0.605220 -0.047987
0.389643 0.604454 -0.048093
0.391935 0.604062 -0.048150
0.394231 0.604084 -0.048151
0.396557 0.605238 -0.048005
0.398885 0.606134 -0.047890
0.401172 0.605508 -0.047966
0.403473 0.605402 -0.047973
0.405823 0.606427 -0.047834
0.408090 0.605499 -0.047941
0.410408 0.605669 -0.047905
0.412677 0.604948 -0.047981
0.414956 0.604461 -0.048024
0.417329 0.605453 -0.047875
0.419748 0.606923 -0.047663
0.422117 0.607541 -0.047556
0.425120 0.615969 -0.046446
0.427247 0.613119 -0.046778
0.429336 0.610115 -0.047127
0.431595 0.609192 -0.047206
0.433719 0.606962 -0.047450
0.435589 0.602440 -0.047986
0.437594 0.599545 -0.048311
0.440369 0.603692 -0.047728
0.442889 0.605310 -0.047466
0.445396 0.606680 -0.047232
0.447635 0.605794 -0.047286
0.449819 0.604532 -0.047386
0.452022 0.603475 -0.047456
0.454342 0.603287 -0.047411
0.457091 0.606029 -0.046983
0.460043 0.609929 -0.046400
0.462674 0.611489 -0.046117
0.464546 0.608170 -0.046464
0.466453 0.605231 -0.046759
0.468340 0.602311 -0.047049
0.469912 0.597707 -0.047557
0.473278 0.603362 -0.046721
0.475549 0.602726 -0.046703
0.477954 0.602802 -0.046589
0.480700 0.604614 -0.046243
0.482998 0.604040 -0.046206
0.485483 0.604388 -0.046044
0.489652 0.612801 -0.044813
0.490963 0.607348 -0.045409
0.492815 0.604597 -0.045646
0.495355 0.605031 -0.045458
0.498283 0.607128 -0.045044
0.501589 0.610731 -0.044424
0.504240 0.611394 -0.044192
0.507157 0.613099 -0.043817
0.509679 0.613101 -0.043665
0.511934 0.612019 -0.043656
0.514449 0.611959 -0.043507
0.516425 0.609814 -0.043636
0.518977 0.609879 -0.043464
0.521706 0.610565 -0.043204
0.524643 0.611949 -0.042847
0.526414 0.609124 -0.043060
0.528341 0.606917 -0.043189
0.530538 0.605685 -0.043184
0.533613 0.607427 -0.042768
0.536755 0.609307 -0.042331
0.539655 0.610320 -0.042012
0.542364 0.610667 -0.041783
0.544455 0.609041 -0.041828
0.544209 0.600217 -0.042878
0.546561 0.599571 -0.042792
0.549692 0.601270 -0.042379
0.550959 0.597405 -0.042749
0.555105 0.602019 -0.041929
0.556940 0.599870 -0.042064
0.560169 0.601719 -0.041638
0.563134 0.602776 -0.041328
0.565480 0.602112 -0.041267
0.567855 0.601546 -0.041197
0.570683 0.602215 -0.040958
0.573421 0.602639 -0.040761
0.576430 0.603768 -0.040471
0.579102 0.604025 -0.040313
0.581452 0.603478 -0.040281
0.582077 0.598666 -0.040872
0.584841 0.599270 -0.040696
0.588197 0.601330 -0.040321
0.589914 0.599433 -0.040528
0.592247 0.599078 -0.040526
0.595988 0.602073 -0.040052
0.599474 0.604447 -0.039682
0.601032 0.602385 -0.039967
0.603318 0.602064 -0.040015
0.605887 0.602433 -0.039977
0.609302 0.604719 -0.039678
0.613136 0.607928 -0.039261
0.613033 0.602559 -0.040097
0.613149 0.597822 -0.040856
0.612227 0.591017 -0.041927
0.617098 0.596627 -0.041225
0.621410 0.601016 -0.040717
0.625817 0.605573 -0.040201
0.625562 0.600529 -0.041075
0.625374 0.595765 -0.041920
0.624576 0.589906 -0.042931
0.113111 0.597207 -0.038638
0.114175 0.599302 -0.038189
0.116010 0.600061 -0.037953
0.117072 0.602321 -0.037508
0.120019 0.601132 -0.037594
0.122670 0.600532 -0.037608
0.124386 0.601760 -0.037365
0.125946 0.603362 -0.037081
0.128972 0.602187 -0.037230
0.131375 0.602262 -0.037208
0.137115 0.595756 -0.038190
0.139778 0.595338 -0.038274
0.142765 0.594300 -0.038466
0.143071 0.598776 -0.037847
0.145224 0.599561 -0.037797
0.145919 0.603451 -0.037297
0.144341 0.612272 -0.036077
0.151292 0.603077 -0.037562
0.154464 0.601882 -0.037864
0.155949 0.604379 -0.037630
0.157624 0.606539 -0.037459
0.160845 0.605309 -0.037802
0.161717 0.609398 -0.037370
0.165013 0.608037 -0.037753
0.169324 0.604296 -0.038494
0.173238 0.601408 -0.039115
0.176284 0.600522 -0.039449
0.177482 0.604081 -0.039140
0.179036 0.606864 -0.038953
0.181237 0.608115 -0.038996
0.185016 0.605432 -0.039611
0.189284 0.601424 -0.040419
0.189967 0.606555 -0.039915
0.191317 0.610074 -0.039648
0.196588 0.603260 -0.040859
0.198980 0.603997 -0.040991
0.200951 0.605888 -0.040962
0.203515 0.606170 -0.041161
0.205822 0.607164 -0.041260
0.208700 0.606536 -0.041586
0.211996 0.604652 -0.042085
0.214399 0.605313 -0.042227
0.216767 0.606080 -0.042353
0.218651 0.608315 -0.042274
0.220965 0.609264 -0.042372
0.223643 0.609074 -0.042624
0.227643 0.604628 -0.043456
0.229959 0.605470 -0.043559
0.232152 0.606716 -0.043605
0.234934 0.605999 -0.043914
0.237525 0.605876 -0.044138
0.239849 0.606648 -0.044238
0.242444 0.606459 -0.044465
0.244903 0.606720 -0.044626
0.246911 0.608615 -0.044566
0.250193 0.605788 -0.045133
0.252814 0.605337 -0.045377
0.254702 0.607687 -0.045246
0.256202 0.611631 -0.044902
0.257160 0.617894 -0.044251
0.259723 0.617768 -0.044441
0.263434 0.612771 -0.045265
0.266238 0.611427 -0.045604
0.268955 0.610381 -0.045899
0.271381 0.610559 -0.046031
0.273725 0.611094 -0.046112
0.276125 0.611355 -0.046225
0.279361 0.607594 -0.046855
0.282040 0.606356 -0.047153
0.284725 0.605000 -0.047462
0.287015 0.605584 -0.047517
0.289132 0.607083 -0.047452
0.291395 0.607836 -0.047479
0.294062 0.606354 -0.047789
0.296456 0.606325 -0.047909
0.298906 0.605940 -0.048071
0.301383 0.605336 -0.048258
0.303431 0.607343 -0.048110
0.305617 0.608560 -0.048059
0.308234 0.606970 -0.048361
0.310664 0.606532 -0.048513
0.313118 0.605869 -0.048691
0.316015 0.601906 -0.049281
0.318108 0.603698 -0.049143
0.320283 0.604961 -0.049068
0.322483 0.606095 -0.049008
0.324839 0.605966 -0.049103
0.327214 0.605639 -0.049220
0.329594 0.605210 -0.049348
0.331900 0.605429 -0.049391
0.334179 0.605914 -0.049398
0.336154 0.609619 -0.049002
0.338399 0.610691 -0.048932
0.340829 0.609695 -0.049116
0.343341 0.607560 -0.049439
0.345639 0.607931 -0.049448
0.348127 0.605682 -0.049780
0.350678 0.602181 -0.050264
0.352782 0.605239 -0.049932
0.355226 0.602928 -0.050263
0.357486 0.603625 -0.050219
0.359697 0.605426 -0.050036
0.362004 0.605422 -0.050074
0.364278 0.606219 -0.050011
0.366435 0.610527 -0.049512
0.368697 0.612674 -0.049278
0.371053 0.611906 -0.049401
0.373385 0.611967 -0.049420
0.375779 0.608226 -0.049904
0.378150 0.603538 -0.050503
0.380453 0.602213 -0.050684
0.382739 0.602487 -0.050667
0.385029 0.604106 -0.050481
0.387330 0.605057 -0.050376
0.389632 0.605235 -0.050363
0.391923 0.604625 -0.050445
0.394223 0.604700 -0.050440
0.396523 0.604754 -0.050435
0.398850 0.605657 -0.050323
0.401144 0.605335 -0.050360
0.403477 0.606104 -0.050260
0.405780 0.605961 -0.050269
0.408101 0.606225 -0.050226
0.410358 0.605179 -0.050342
0.412683 0.605480 -0.050289
0.414964 0.605012 -0.050329
0.417242 0.604529 -0.050368
0.419570 0.604789 -0.050312
0.422046 0.606965 -0.050018
0.425062 0.615613 -0.048923
0.427223 0.613183 -0.049190
0.429296 0.610010 -0.049547
0.431480 0.608298 -0.049721
0.433634 0.606417 -0.049913
0.435695 0.603785 -0.050196
0.437456 0.598575 -0.050795
0.440392 0.604205 -0.050049
0.442979 0.606383 -0.049727
0.445288 0.606095 -0.049708
0.447668 0.606355 -0.049617
0.449916 0.605567 -0.049654
0.451982 0.603470 -0.049851
0.454474 0.604512 -0.049653
0.457128 0.606580 -0.049325
0.460259 0.611662 -0.048616
0.462282 0.609251 -0.048838
0.464285 0.606827 -0.049060
0.466596 0.606393 -0.049030
0.468583 0.604039 -0.049237
0.469648 0.596482 -0.050096
0.473141 0.602890 -0.049195
0.475607 0.603332 -0.049042
0.478180 0.604294 -0.048818
0.480475 0.603743 -0.048782
0.483406 0.606397 -0.048336
0.485706 0.605785 -0.048300
0.488237 0.606281 -0.048120
0.490688 0.606349 -0.047990
0.492502 0.603454 -0.048235
0.495205 0.604655 -0.047954
0.497691 0.604819 -0.047801
0.499803 0.603335 -0.047856
0.502536 0.604501 -0.047567
0.505152 0.605108 -0.047346
0.507733 0.605518 -0.047147
0.510260 0.605668 -0.046978
0.512838 0.605979 -0.046784
0.516231 0.609365 -0.046186
0.518732 0.609251 -0.046040
0.521510 0.610129 -0.045761
0.525198 0.614236 -0.045056
0.528049 0.615201 -0.044758
0.529180 0.610111 -0.045255
0.534001 0.617804 -0.044063
0.535531 0.614137 -0.044371
0.537418 0.611750 -0.044509
0.539921 0.611425 -0.044372
0.543081 0.613191 -0.043956
0.545116 0.611342 -0.044022
0.546589 0.607792 -0.044317
0.547797 0.603531 -0.044712
0.549386 0.600532 -0.044940
0.553272 0.604400 -0.044241
0.555411 0.603058 -0.044249
0.556047 0.597440 -0.044842
0.560342 0.602316 -0.044010
0.563387 0.603570 -0.043674
0.565625 0.602576 -0.043651
0.567898 0.601708 -0.043615
0.570172 0.600873 -0.043582
0.573666 0.603278 -0.043108
0.576473 0.603850 -0.042894
0.582343 0.612264 -0.041601
0.580290 0.600452 -0.043120
0.581853 0.597990 -0.043354
0.584562 0.598435 -0.043195
0.588062 0.600821 -0.042776
0.590777 0.601293 -0.042635
0.591519 0.597104 -0.043157
0.597632 0.605650 -0.041913
0.596359 0.596906 -0.043098
0.599602 0.598759 -0.042816
0.603235 0.601495 -0.042424
0.605849 0.601934 -0.042368
0.609999 0.605816 -0.041845
0.614544 0.610533 -0.041221
0.615786 0.608028 -0.041622
0.617731 0.607137 -0.041813
0.622880 0.613139 -0.041058
0.623818 0.610199 -0.041566
0.625435 0.608789 -0.041875
0.623495 0.600098 -0.043208
0.626322 0.601397 -0.043169
0.629855 0.604161 -0.042943
0.629122 0.598339 -0.043917
0.623554 0.583012 -0.046205
0.110386 0.597406 -0.040978
0.112534 0.597496 -0.040823
0.113951 0.598975 -0.040482
0.114684 0.601790 -0.039963
0.116412 0.602856 -0.039711
0.118110 0.604050 -0.039457
0.121464 0.602180 -0.039663
0.124567 0.600805 -0.039814
0.126809 0.601116 -0.039736
0.128825 0.601921 -0.039603
0.133511 0.597542 -0.040240
0.135860 0.597763 -0.040224
0.141098 0.592239 -0.041058
0.141514 0.596413 -0.040499
0.142982 0.598563 -0.040249
0.144387 0.600926 -0.039984
0.145727 0.603514 -0.039702
0.145320 0.609890 -0.038887
0.150818 0.603813 -0.039886
0.154890 0.600713 -0.040466
0.156987 0.601888 -0.040442
0.159361 0.602502 -0.040510
0.162740 0.600899 -0.040907
0.164678 0.602542 -0.040849
0.166061 0.605516 -0.040612
0.167509 0.608424 -0.040395
0.170853 0.606952 -0.040808
0.173487 0.607143 -0.040992
0.175736 0.608270 -0.041051
0.178180 0.608949 -0.041178
0.180360 0.610298 -0.041217
0.182824 0.610965 -0.041356
0.187806 0.605227 -0.042389
0.189162 0.608688 -0.042145
0.190918 0.611183 -0.042039
0.196210 0.604339 -0.043220
0.199023 0.603966 -0.043509
0.200998 0.605853 -0.043490
0.203311 0.606837 -0.043594
0.205780 0.607392 -0.043757
0.208553 0.607070 -0.044037
0.211108 0.607345 -0.044236
0.214806 0.604236 -0.044886
0.216102 0.608195 -0.044586
0.218353 0.609347 -0.044662
0.221070 0.609068 -0.044925
0.224341 0.607011 -0.045421
0.227270 0.605948 -0.045781
0.229722 0.606368 -0.045941
0.232228 0.606596 -0.046123
0.234437 0.607796 -0.046175
0.237124 0.607373 -0.046436
0.239977 0.606328 -0.046773
0.242600 0.606027 -0.047009
0.244817 0.607149 -0.047058
0.247548 0.606394 -0.047345
0.249932 0.606874 -0.047469
0.252690 0.605918 -0.047773
0.254983 0.606698 -0.047850
0.258085 0.604275 -0.048332
0.260460 0.604663 -0.048452
0.262457 0.606588 -0.048373
0.264865 0.606839 -0.048503
0.267477 0.606191 -0.048743
0.269460 0.608241 -0.048639
0.272891 0.603860 -0.049339
0.275141 0.604670 -0.049383
0.277435 0.605279 -0.049448
0.279748 0.605791 -0.049523
0.282201 0.605617 -0.049680
0.284636 0.605494 -0.049826
0.286937 0.606027 -0.049887
0.289057 0.607512 -0.049828
0.291359 0.608062 -0.049881
0.293886 0.607355 -0.050086
0.296650 0.605236 -0.050460
0.298892 0.606029 -0.050474
0.301237 0.606224 -0.050557
0.303180 0.608901 -0.050334
0.305712 0.607939 -0.050553
0.308539 0.604943 -0.051016
0.310780 0.605720 -0.051016
0.313127 0.605779 -0.051100
0.315951 0.602333 -0.051606
0.318070 0.603947 -0.051496
0.320242 0.605232 -0.051424
0.322492 0.605961 -0.051415
0.324804 0.606194 -0.051465
0.327198 0.605709 -0.051597
0.329456 0.606395 -0.051587
0.331880 0.605529 -0.051760
0.333986 0.607746 -0.051560
0.336153 0.609508 -0.051413
0.338383 0.610744 -0.051327
0.340831 0.609532 -0.051531
0.343392 0.606781 -0.051917
0.345633 0.607846 -0.051843
0.347938 0.608131 -0.051861
0.350588 0.603317 -0.052484
0.352857 0.603827 -0.052469
0.354999 0.606584 -0.052185
0.357400 0.604963 -0.052419
0.359691 0.605244 -0.052425
0.361945 0.606403 -0.052324
0.364230 0.607029 -0.052285
0.366393 0.611257 -0.051815
0.368727 0.611157 -0.051858
0.371067 0.610739 -0.051935
0.373441 0.608524 -0.052223
0.375729 0.610194 -0.052049
0.378124 0.604231 -0.052776
0.380431 0.602705 -0.052975
0.382718 0.603293 -0.052921
0.385011 0.604404 -0.052804
0.387312 0.605159 -0.052726
0.389615 0.605419 -0.052705
0.391948 0.607529 -0.052462
0.394223 0.605678 -0.052686
0.396563 0.607191 -0.052509
0.398816 0.605214 -0.052743
0.401068 0.603741 -0.052914
0.403442 0.605756 -0.052671
0.405776 0.606384 -0.052590
0.408033 0.605267 -0.052712
0.410248 0.603517 -0.052907
0.412629 0.604961 -0.052722
0.414991 0.605850 -0.052599
0.417266 0.605271 -0.052648
0.419652 0.606315 -0.052502
0.422023 0.607009 -0.052395
0.424852 0.613322 -0.051619
0.426649 0.606735 -0.052370
0.428979 0.606777 -0.052332
0.431367 0.607407 -0.052221
0.433601 0.606389 -0.052303
0.435765 0.604763 -0.052455
0.437879 0.602783 -0.052647
0.440405 0.604611 -0.052382
0.442779 0.604961 -0.052291
0.445210 0.605734 -0.052145
0.447563 0.605805 -0.052081
0.449931 0.605961 -0.052003
0.452240 0.605649 -0.051978
0.454792 0.607053 -0.051744
0.457347 0.608363 -0.051518
0.459934 0.609773 -0.051276
0.462241 0.609267 -0.051261
0.464306 0.607236 -0.051427
0.466589 0.606631 -0.051417
0.469572 0.610166 -0.050905
0.471152 0.605409 -0.051390
0.473395 0.604587 -0.051397
0.475780 0.604555 -0.051305
0.478235 0.604866 -0.051168
0.480599 0.604661 -0.051089
0.483077 0.605013 -0.050940
0.484727 0.601232 -0.051291
0.488502 0.607841 -0.050369
0.490701 0.606697 -0.050391
0.493185 0.606881 -0.050246
0.495510 0.606315 -0.050190
0.497465 0.604110 -0.050332
0.499459 0.602133 -0.050444
0.502392 0.604180 -0.050055
0.504938 0.604508 -0.049874
0.507408 0.604486 -0.049734
0.509924 0.604615 -0.049571
0.512102 0.603394 -0.049573
0.514272 0.602159 -0.049574
0.516969 0.602917 -0.049323
0.519635 0.603504 -0.049089
0.522729 0.605591 -0.048663
0.525033 0.604770 -0.048601
0.527254 0.603662 -0.048573
0.529749 0.603504 -0.048423
0.532297 0.603506 -0.048250
0.535057 0.604187 -0.047988
0.537834 0.604875 -0.047724
0.540872 0.606356 -0.047356
0.544524 0.609699 -0.046745
0.547603 0.611143 -0.046378
0.548848 0.606931 -0.046743
0.550103 0.602866 -0.047092
0.552915 0.603514 -0.046831
0.555646 0.603895 -0.046605
0.556264 0.598199 -0.047179
0.560555 0.603036 -0.046374
0.562895 0.602300 -0.046303
0.565858 0.603293 -0.046009
0.567667 0.601139 -0.046135
0.570060 0.600608 -0.046053
0.572454 0.600100 -0.045974
0.577330 0.606055 -0.045040
0.582866 0.613557 -0.043903
0.582510 0.605992 -0.044789
0.581961 0.598159 -0.045724
0.584960 0.599286 -0.045468
0.588294 0.601225 -0.045112
0.590038 0.599326 -0.045284
0.591177 0.596068 -0.045652
0.593788 0.596375 -0.045552
0.596194 0.596237 -0.045524
0.598948 0.596938 -0.045397
0.601238 0.596615 -0.045421
0.605662 0.601122 -0.044807
0.612685 0.611341 -0.043436
0.614671 0.610345 -0.043595
0.616624 0.609349 -0.043770
0.618836 0.608981 -0.043875
0.621720 0.610106 -0.043795
0.624509 0.611060 -0.043753
0.624926 0.607103 -0.044388
0.624676 0.601898 -0.045203
0.625555 0.599154 -0.045701
0.629778 0.603304 -0.045292
0.631045 0.601487 -0.045694
0.628112 0.591381 -0.047212
0.107233 0.598372 -0.043220
0.110595 0.596265 -0.043367
0.111166 0.599231 -0.042821
0.112982 0.600024 -0.042593
0.114232 0.601925 -0.042225
0.116451 0.602111 -0.042112
0.118233 0.603171 -0.041893
0.120587 0.603219 -0.041832
0.123965 0.601365 -0.042054
0.127371 0.599474 -0.042299
0.131473 0.596242 -0.042748
0.131977 0.600059 -0.042221
0.132826 0.603314 -0.041790
0.133714 0.606602 -0.041370
0.140590 0.597880 -0.042654
0.139657 0.604987 -0.041729
0.139868 0.609922 -0.041126
0.143241 0.608391 -0.041443
0.147153 0.605725 -0.041933
0.148541 0.608420 -0.041687
0.149886 0.611302 -0.041429
0.154711 0.606662 -0.042228
0.158582 0.604050 -0.042755
0.161396 0.603760 -0.042970
0.164412 0.603021 -0.043256
0.164030 0.610076 -0.042479
0.165286 0.613511 -0.042211
0.168160 0.613233 -0.042460
0.171580 0.611650 -0.042894
0.174157 0.612064 -0.043060
0.176900 0.612079 -0.043285
0.180232 0.610630 -0.043712
0.183773 0.608611 -0.044217
0.186538 0.608501 -0.044468
0.188851 0.609546 -0.044566
0.191334 0.610160 -0.044724
0.195118 0.607317 -0.045340
0.198119 0.606486 -0.045689
0.201338 0.605013 -0.046121
0.203311 0.606936 -0.046107
0.205706 0.607705 -0.046243
0.208201 0.608187 -0.046416
0.211240 0.607078 -0.046793
0.213901 0.607021 -0.047032
0.215947 0.608779 -0.047034
0.218529 0.608933 -0.047241
0.222506 0.604750 -0.047999
0.225348 0.603967 -0.048318
0.227185 0.606340 -0.048231
0.229539 0.607085 -0.048350
0.232039 0.607338 -0.048527
0.234638 0.607239 -0.048746
0.237269 0.606992 -0.048978
0.240124 0.605930 -0.049309
0.242543 0.606339 -0.049452
0.244844 0.607160 -0.049540
0.246947 0.608705 -0.049535
0.249795 0.607487 -0.049868
0.252811 0.605552 -0.050284
0.255795 0.603637 -0.050693
0.258160 0.604068 -0.050809
0.260415 0.604925 -0.050870
0.262524 0.606394 -0.050853
0.264777 0.607282 -0.050903
0.267206 0.607424 -0.051041
0.269930 0.606246 -0.051334
0.272533 0.605528 -0.051567
0.275093 0.604944 -0.051780
0.277514 0.604956 -0.051917
0.279655 0.606285 -0.051893
0.282054 0.606378 -0.052014
0.284573 0.605844 -0.052206
0.286877 0.606358 -0.052269
0.289119 0.607205 -0.052290
0.291397 0.607871 -0.052330
0.294453 0.604209 -0.052877
0.296855 0.604062 -0.053005
0.299099 0.604810 -0.053025
0.301096 0.607069 -0.052864
0.302858 0.610893 -0.052517
0.305104 0.611816 -0.052508
0.308424 0.605674 -0.053323
0.310771 0.605743 -0.053407
0.312986 0.606731 -0.053381
0.315753 0.603729 -0.053818
0.318183 0.603035 -0.053982
0.320136 0.605997 -0.053718
0.322346 0.607080 -0.053671
0.324811 0.606059 -0.053865
0.326988 0.607460 -0.053775
0.329384 0.606962 -0.053903
0.331727 0.606885 -0.053980
0.334118 0.606304 -0.054112
0.336359 0.607221 -0.054069
0.338271 0.611840 -0.053597
0.340978 0.607673 -0.054134
0.343515 0.605106 -0.054484
0.345806 0.605410 -0.054502
0.347717 0.611009 -0.053910
0.350349 0.606639 -0.054459
0.352788 0.604696 -0.054727
0.355079 0.604947 -0.054741
0.357338 0.605837 -0.054680
0.359499 0.608847 -0.054375
0.362092 0.602735 -0.055109
0.364251 0.606096 -0.054759
0.366375 0.611297 -0.054199
0.368699 0.611526 -0.054202
0.371067 0.610061 -0.054397
0.373371 0.610962 -0.054320
0.375720 0.609678 -0.054489
0.378111 0.603845 -0.055173
0.380412 0.602917 -0.055297
0.382700 0.603163 -0.055285
0.384993 0.604871 -0.055105
0.387297 0.605817 -0.055009
0.389589 0.604804 -0.055134
0.391913 0.606496 -0.054949
0.394236 0.607332 -0.054859
0.396513 0.605968 -0.055016
0.398806 0.605570 -0.055062
0.401105 0.605436 -0.055075
0.403387 0.604865 -0.055136
0.405662 0.604241 -0.055200
0.407932 0.603597 -0.055265
0.410240 0.603794 -0.055231
0.412638 0.605507 -0.055023
0.414980 0.606034 -0.054947
0.417270 0.605679 -0.054968
0.419570 0.605498 -0.054968
0.422052 0.607724 -0.054691
0.424391 0.607881 -0.054646
0.426517 0.605474 -0.054892
0.428880 0.605967 -0.054804
0.431370 0.607723 -0.054570
0.433624 0.606908 -0.054625
0.435577 0.603212 -0.055007
0.438015 0.604315 -0.054839
0.440439 0.605184 -0.054695
0.442870 0.606006 -0.054552
0.445255 0.606373 -0.054459
0.447453 0.605200 -0.054539
0.449820 0.605382 -0.054461
0.452225 0.605799 -0.054353
0.454779 0.607221 -0.054126
0.457380 0.608852 -0.053872
0.459960 0.610211 -0.053645
0.462362 0.610305 -0.053561
0.464529 0.608898 -0.053646
0.467119 0.610119 -0.053425
0.469318 0.608923 -0.053479
0.470568 0.602303 -0.054161
0.473313 0.604390 -0.053829
0.475609 0.603887 -0.053794
0.478042 0.604105 -0.053672
0.480597 0.604917 -0.053477
0.482877 0.604268 -0.053449
0.485219 0.603929 -0.053381
0.488740 0.609262 -0.052643
0.490691 0.606918 -0.052803
0.493247 0.607439 -0.052623
0.495272 0.605511 -0.052728
0.497042 0.602514 -0.052956
0.499202 0.601295 -0.052972
0.501489 0.600634 -0.052918
0.504660 0.603629 -0.052425
0.507307 0.604345 -0.052199
0.509858 0.604623 -0.052021
0.512325 0.604534 -0.051884
0.514536 0.603438 -0.051865
0.516982 0.603233 -0.051736
0.519390 0.602867 -0.051623
0.522900 0.606472 -0.051025
0.524236 0.602201 -0.051381
0.527413 0.604474 -0.050938
0.529834 0.604049 -0.050821
0.532343 0.603907 -0.050667
0.534676 0.603164 -0.050585
0.536916 0.602121 -0.050539
0.539164 0.601113 -0.050488
0.543033 0.605222 -0.049802
0.547701 0.611657 -0.048822
0.549222 0.608268 -0.049064
0.550285 0.603595 -0.049469
0.552600 0.602754 -0.049396
0.555199 0.602751 -0.049220
0.556401 0.598732 -0.049553
0.559473 0.600106 -0.049207
0.563404 0.603824 -0.048566
0.566080 0.603992 -0.048378
0.568585 0.603688 -0.048255
0.570498 0.601821 -0.048336
0.572928 0.601368 -0.048242
0.574544 0.598825 -0.048424
0.581575 0.610222 -0.046819
0.582804 0.606677 -0.047144
0.583428 0.601733 -0.047661
0.585420 0.600306 -0.047733
0.588951 0.602679 -0.047323
0.588961 0.596566 -0.048025
0.590665 0.594651 -0.048195
0.594373 0.597511 -0.047755
0.596491 0.596656 -0.047812
0.598641 0.595934 -0.047864
0.601066 0.595892 -0.047841
0.603247 0.595347 -0.047897
0.611103 0.607428 -0.046320
0.611845 0.603711 -0.046820
0.613218 0.601489 -0.047139
0.615517 0.601353 -0.047201
0.618302 0.602302 -0.047137
0.620670 0.602409 -0.047198
0.624264 0.605124 -0.046936
0.624807 0.601546 -0.047506
0.625409 0.598209 -0.048058
0.627621 0.598251 -0.048187
0.630605 0.599899 -0.048123
0.631516 0.597447 -0.048602
0.628689 0.587707 -0.050027
0.107800 0.596590 -0.045698
0.108647 0.599013 -0.045235
0.110311 0.600051 -0.044973
0.111922 0.601253 -0.044703
0.114493 0.600765 -0.044677
0.116229 0.601869 -0.044451
0.118174 0.602653 -0.044285
0.120402 0.602969 -0.044198
0.123623 0.601450 -0.044377
0.127994 0.597738 -0.044870
0.131380 0.595917 -0.045123
0.130089 0.603283 -0.044142
0.131031 0.606419 -0.043753
0.136125 0.601352 -0.044493
0.135580 0.607626 -0.043710
0.135702 0.612711 -0.043105
0.134283 0.621127 -0.042065
0.138061 0.618910 -0.042480
0.140822 0.618823 -0.042620
0.141080 0.624114 -0.042049
0.141511 0.629180 -0.041524
0.151845 0.618793 -0.043260
0.155041 0.617851 -0.043571
0.155434 0.623256 -0.043049
0.161071 0.616775 -0.044112
0.163708 0.617110 -0.044278
0.167327 0.615146 -0.044754
0.170593 0.613976 -0.045129
0.173551 0.613517 -0.045416
0.176595 0.612832 -0.045735
0.180294 0.610496 -0.046272
0.185169 0.605135 -0.047201
0.187535 0.606007 -0.047323
0.188542 0.610402 -0.046996
0.190864 0.611459 -0.047100
0.194958 0.607818 -0.047805
0.197851 0.607292 -0.048110
0.200910 0.606276 -0.048477
0.203361 0.606894 -0.048635
0.206388 0.605886 -0.048997
0.208860 0.606406 -0.049164
0.211357 0.606846 -0.049340
0.214082 0.606597 -0.049600
0.216100 0.608434 -0.049598
0.219659 0.605608 -0.050171
0.222933 0.603543 -0.050644
0.224566 0.606540 -0.050492
0.226700 0.608003 -0.050526
0.229312 0.607933 -0.050745
0.232146 0.607097 -0.051053
0.235003 0.606120 -0.051373
0.237507 0.606287 -0.051551
0.239919 0.606746 -0.051690
0.242564 0.606366 -0.051926
0.244684 0.607831 -0.051938
0.246508 0.610410 -0.051814
0.248920 0.610851 -0.051942
0.252116 0.608289 -0.052420
0.254931 0.607075 -0.052734
0.258167 0.604115 -0.053249
0.260291 0.605498 -0.053249
0.262277 0.607479 -0.053176
0.264488 0.608559 -0.053205
0.267386 0.606708 -0.053572
0.269878 0.606525 -0.053740
0.272458 0.605910 -0.053955
0.274856 0.606069 -0.054076
0.277304 0.605978 -0.054222
0.279496 0.607075 -0.054229
0.281838 0.607461 -0.054313
0.284473 0.606365 -0.054564
0.286923 0.606136 -0.054712
0.289774 0.603752 -0.055102
0.292125 0.603923 -0.055197
0.294235 0.605423 -0.055138
0.296866 0.603993 -0.055408
0.299210 0.604144 -0.055496
0.301273 0.605976 -0.055391
0.303037 0.609747 -0.055066
0.304466 0.615872 -0.054474
0.307818 0.609640 -0.055269
0.310558 0.607152 -0.055638
0.312705 0.608654 -0.055558
0.315159 0.608000 -0.055716
0.317829 0.605644 -0.056060
0.320010 0.606908 -0.055999
0.322411 0.606469 -0.056124
0.324747 0.606506 -0.056193
0.326910 0.608049 -0.056093
0.329574 0.605105 -0.056488
0.331846 0.605630 -0.056496
0.334130 0.606061 -0.056512
0.336359 0.607080 -0.056460
0.338271 0.611686 -0.056011
0.340750 0.610165 -0.056235
0.343451 0.605722 -0.056778
0.345554 0.608512 -0.056523
0.347457 0.614409 -0.055924
0.350736 0.600687 -0.057478
0.352914 0.602453 -0.057329
0.355082 0.604629 -0.057132
0.357458 0.603295 -0.057318
0.359792 0.602543 -0.057438
0.361996 0.604538 -0.057255
0.364285 0.604842 -0.057256
0.366292 0.613181 -0.056376
0.368573 0.615081 -0.056198
0.370929 0.614726 -0.056264
0.373321 0.612516 -0.056530
0.375708 0.609370 -0.056896
0.378068 0.605983 -0.057286
0.380397 0.602581 -0.057675
0.382683 0.602996 -0.057646
0.384980 0.607468 -0.057173
0.387282 0.606241 -0.057319
0.389555 0.603394 -0.057638
0.391869 0.604825 -0.057490
0.394190 0.605939 -0.057374
0.396486 0.605631 -0.057411
0.398778 0.605256 -0.057453
0.401105 0.606011 -0.057369
0.403386 0.605343 -0.057438
0.405918 0.610655 -0.056854
0.407932 0.604025 -0.057568
0.410177 0.602981 -0.057671
0.412567 0.604631 -0.057478
0.414838 0.604088 -0.057522
0.417272 0.606045 -0.057292
0.419301 0.602012 -0.057711
0.421674 0.603014 -0.057579
0.424581 0.610557 -0.056732
0.426763 0.608676 -0.056909
0.429123 0.608965 -0.056847
0.431437 0.608713 -0.056842
0.433573 0.606654 -0.057031
0.435639 0.604081 -0.057275
0.437805 0.602623 -0.057394
0.440462 0.605638 -0.057020
0.442856 0.606142 -0.056918
0.445103 0.605369 -0.056954
0.447333 0.604500 -0.056997
0.449897 0.606210 -0.056754
0.452295 0.606558 -0.056658
0.454600 0.606189 -0.056637
0.457195 0.607819 -0.056393
0.459916 0.610158 -0.056066
0.462361 0.610549 -0.055952
0.464503 0.608978 -0.056051
0.466401 0.605988 -0.056305
0.468217 0.602650 -0.056596
0.470435 0.601783 -0.056609
0.473137 0.603647 -0.056314
0.475610 0.604136 -0.056169
0.478006 0.604161 -0.056073
0.480392 0.604103 -0.055982
0.483046 0.605375 -0.055738
0.485305 0.604603 -0.055719
0.488357 0.607670 -0.055266
0.491064 0.608932 -0.055010
0.492116 0.602481 -0.055623
0.494699 0.603188 -0.055424
0.497073 0.602908 -0.055333
0.499054 0.600912 -0.055434
0.501704 0.601799 -0.055203
0.504594 0.603616 -0.054862
0.507153 0.603980 -0.054683
0.509861 0.604895 -0.054437
0.512189 0.604264 -0.054364
0.515449 0.607189 -0.053878
0.517203 0.604321 -0.054058
0.519485 0.603475 -0.054001
0.522572 0.605542 -0.053602
0.524971 0.605062 -0.053497
0.527391 0.604643 -0.053382
0.530056 0.605053 -0.053167
0.532024 0.603075 -0.053230
0.534564 0.603028 -0.053064
0.536771 0.601876 -0.053028
0.539390 0.602058 -0.052832
0.541723 0.601310 -0.052745
0.547278 0.610554 -0.051463
0.549390 0.608981 -0.051471
0.550310 0.603857 -0.051907
0.552455 0.602498 -0.051893
0.554872 0.601958 -0.051781
0.557305 0.601466 -0.051665
0.559801 0.601160 -0.051528
0.562893 0.602514 -0.051192
0.566235 0.604510 -0.050779
0.568511 0.603564 -0.050729
0.571517 0.604593 -0.050442
0.573835 0.603787 -0.050385
0.575535 0.601404 -0.050529
0.582918 0.613645 -0.048870
0.584093 0.609891 -0.049197
0.583196 0.601087 -0.050163
0.586038 0.601730 -0.049964
0.587147 0.598168 -0.050300
0.593350 0.606946 -0.049104
0.594170 0.602778 -0.049537
0.595736 0.600487 -0.049747
0.597930 0.599741 -0.049777
0.600424 0.599736 -0.049726
0.603104 0.600190 -0.049631
0.606088 0.601360 -0.049460
0.607862 0.599869 -0.049637
0.610916 0.601261 -0.049467
0.613392 0.601418 -0.049466
0.615432 0.600690 -0.049592
0.617122 0.599286 -0.049817
0.619655 0.599735 -0.049826
0.628087 0.612505 -0.048305
0.625641 0.602662 -0.049634
0.626317 0.599437 -0.050147
0.628125 0.598617 -0.050373
0.628470 0.594935 -0.050970
0.628910 0.591558 -0.051541
0.629827 0.589238 -0.051993
0.626656 0.579015 -0.053431
0.108833 0.590174 -0.048916
0.107286 0.596753 -0.047920
0.108090 0.599278 -0.047464
0.110216 0.599512 -0.047322
0.111567 0.601212 -0.047002
0.113809 0.601360 -0.046901
0.115742 0.602136 -0.046734
0.117747 0.602843 -0.046591
0.120295 0.602590 -0.046591
0.122968 0.602147 -0.046632
0.126772 0.599570 -0.046969
0.130408 0.597319 -0.047279
0.132279 0.598530 -0.047151
0.132533 0.603011 -0.046610
0.131633 0.609935 -0.045765
0.133075 0.612315 -0.045532
0.137925 0.607821 -0.046212
0.140960 0.607018 -0.046424
0.143382 0.607509 -0.046480
0.146138 0.607340 -0.046636
0.149093 0.606768 -0.046856
0.152097 0.606106 -0.047098
0.154746 0.606224 -0.047251
0.157601 0.605911 -0.047469
0.160277 0.606004 -0.047644
0.162800 0.606460 -0.047781
0.165259 0.607086 -0.047905
0.168723 0.605396 -0.048330
0.171429 0.605452 -0.048538
0.174264 0.605203 -0.048790
0.177005 0.605169 -0.049019
0.179574 0.605551 -0.049200
0.180597 0.609770 -0.048905
0.184528 0.606782 -0.049512
0.188712 0.603054 -0.050210
0.187884 0.612163 -0.049322
0.190253 0.613128 -0.049444
0.195980 0.605177 -0.050658
0.198504 0.605615 -0.050840
0.200976 0.606183 -0.051007
0.203722 0.605986 -0.051265
0.206398 0.605953 -0.051502
0.209191 0.605559 -0.051780
0.211959 0.605198 -0.052051
0.214091 0.606677 -0.052100
0.215677 0.609807 -0.051951
0.219784 0.605334 -0.052702
0.222449 0.605145 -0.052940
0.224229 0.607704 -0.052852
0.226494 0.608768 -0.052938
0.229637 0.606982 -0.053353
0.232484 0.606081 -0.053661
0.235186 0.605603 -0.053914
0.237600 0.606064 -0.054055
0.240013 0.606511 -0.054195
0.242239 0.607606 -0.054256
0.243737 0.611335 -0.054013
0.245930 0.612616 -0.054047
0.249254 0.609678 -0.054558
0.251497 0.610720 -0.054612
0.254177 0.610073 -0.054854
0.257723 0.605939 -0.055483
0.260325 0.605420 -0.055700
0.262377 0.607119 -0.055665
0.264412 0.608930 -0.055614
0.267499 0.606267 -0.056059
0.269961 0.606200 -0.056210
0.272459 0.605938 -0.056379
0.274765 0.606518 -0.056452
0.277148 0.606729 -0.056561
0.279593 0.606629 -0.056702
0.282026 0.606550 -0.056836
0.284313 0.607174 -0.056890
0.286784 0.606852 -0.057045
0.289553 0.604916 -0.057371
0.291959 0.604815 -0.057494
0.294347 0.604782 -0.057607
0.296696 0.604939 -0.057695
0.299463 0.602628 -0.058048
0.301639 0.603727 -0.058028
0.302542 0.612789 -0.057148
0.305453 0.609499 -0.057597
0.307699 0.610368 -0.057595
0.310457 0.607780 -0.057961
0.312475 0.610211 -0.057786
0.315283 0.607026 -0.058210
0.317662 0.606822 -0.058312
0.320134 0.605849 -0.058492
0.322282 0.607414 -0.058400
0.324708 0.606732 -0.058545
0.327151 0.605818 -0.058711
0.329563 0.605089 -0.058855
0.331889 0.605093 -0.058919
0.334140 0.605817 -0.058904
0.336204 0.608563 -0.058674
0.338311 0.611080 -0.058465
0.340601 0.611730 -0.058452
0.343026 0.610754 -0.058608
0.345329 0.611236 -0.058608
0.347812 0.609258 -0.058865
0.350737 0.600438 -0.059838
0.352995 0.600900 -0.059832
0.355193 0.602457 -0.059710
0.357505 0.602132 -0.059783
0.359775 0.602550 -0.059776
0.362016 0.603724 -0.059688
0.364395 0.601653 -0.059937
0.366179 0.615925 -0.058476
0.368392 0.620445 -0.058033
0.370686 0.623411 -0.057751
0.373180 0.618313 -0.058308
0.375513 0.619930 -0.058162
0.377946 0.614529 -0.058747
0.380368 0.604103 -0.059852
0.382663 0.604013 -0.059878
0.384958 0.605007 -0.059788
0.387268 0.606791 -0.059614
0.389558 0.605243 -0.059786
0.391863 0.605643 -0.059752
0.394153 0.605018 -0.059822
0.396452 0.604990 -0.059829
0.398762 0.605354 -0.059792
0.401082 0.605873 -0.059738
0.403380 0.605678 -0.059755
0.405674 0.605427 -0.059776
0.407950 0.604816 -0.059832
0.410003 0.600031 -0.060321
0.412312 0.600504 -0.060260
0.414559 0.599870 -0.060312
0.416824 0.599577 -0.060326
0.419165 0.600377 -0.060224
0.421470 0.600591 -0.060180
0.424378 0.608289 -0.059353
0.426982 0.611541 -0.058987
0.429191 0.609994 -0.059120
0.431362 0.608172 -0.059279
0.433553 0.606699 -0.059399
0.435642 0.604349 -0.059608
0.437783 0.602659 -0.059746
0.440345 0.604833 -0.059477
0.442769 0.605633 -0.059348
0.444983 0.604613 -0.059408
0.447322 0.604637 -0.059355
0.449711 0.605024 -0.059261
0.451704 0.602432 -0.059478
0.454630 0.606634 -0.058976
0.456927 0.606199 -0.058960
0.459793 0.609570 -0.058538
0.462086 0.608994 -0.058531
0.463308 0.601706 -0.059231
0.465806 0.602584 -0.059064
0.468425 0.604110 -0.058824
0.469856 0.598676 -0.059322
0.472783 0.601892 -0.058895
0.475672 0.604706 -0.058507
0.478066 0.604715 -0.058415
0.480459 0.604684 -0.058323
0.482033 0.600481 -0.058676
0.485769 0.607137 -0.057859
0.489499 0.613425 -0.057075
0.490925 0.608522 -0.057493
0.492535 0.604655 -0.057798
0.495009 0.604830 -0.057663
0.497355 0.604397 -0.057590
0.499319 0.602301 -0.057694
0.501443 0.600942 -0.057716
0.504762 0.604559 -0.057190
0.507005 0.603629 -0.057157
0.509401 0.603312 -0.057054
0.512232 0.604677 -0.056761
0.514992 0.605689 -0.056504
0.517439 0.605452 -0.056381
0.519915 0.605304 -0.056245
0.522214 0.604490 -0.056180
0.524633 0.604105 -0.056064
0.527580 0.605545 -0.055741
0.529659 0.603928 -0.055758
0.532316 0.604291 -0.055550
0.534504 0.603058 -0.055520
0.536709 0.601896 -0.055480
0.538952 0.600871 -0.055424
0.542661 0.604476 -0.054838
0.547116 0.610257 -0.053999
0.549601 0.609819 -0.053870
0.550479 0.604548 -0.054297
0.552480 0.602745 -0.054327
0.555043 0.602616 -0.054165
0.556273 0.598653 -0.054449
0.559730 0.601093 -0.053991
0.563193 0.603468 -0.053540
0.565814 0.603456 -0.053371
0.568310 0.603104 -0.053244
0.570742 0.602589 -0.053141
0.573502 0.602952 -0.052940
0.576111 0.602918 -0.052790
0.584054 0.616547 -0.051021
0.583585 0.608579 -0.051826
0.585401 0.606529 -0.051936
0.584448 0.597735 -0.052864
0.586625 0.596791 -0.052863
0.590241 0.599347 -0.052451
0.593809 0.601751 -0.052066
0.596317 0.601649 -0.051994
0.598460 0.600735 -0.052032
0.601521 0.601982 -0.051822
0.603897 0.601688 -0.051811
0.606478 0.601903 -0.051751
0.607961 0.599727 -0.051995
0.610406 0.599751 -0.051987
0.613355 0.600914 -0.051856
0.615696 0.600798 -0.051894
0.617276 0.599125 -0.052136
0.620156 0.600267 -0.052052
0.630133 0.616195 -0.050200
0.627520 0.605951 -0.051522
0.627234 0.600701 -0.052254
0.628546 0.598833 -0.052593
0.629291 0.595922 -0.053071
0.627140 0.587365 -0.054236
0.625769 0.580548 -0.055203
0.629734 0.584317 -0.054920
0.108006 0.590882 -0.051044
0.106707 0.597044 -0.050140
0.106072 0.602172 -0.049378
0.109680 0.599787 -0.049576
0.111368 0.600905 -0.049347
0.113211 0.601815 -0.049161
0.115200 0.602521 -0.049016
0.117173 0.603325 -0.048875
0.119834 0.602898 -0.048905
0.121977 0.603499 -0.048822
0.124742 0.602968 -0.048897
0.130272 0.597113 -0.049662
0.132509 0.597639 -0.049636
0.129214 0.609162 -0.048237
0.128929 0.614950 -0.047579
0.133618 0.610857 -0.048183
0.138172 0.606990 -0.048771
0.140817 0.607015 -0.048883
0.143624 0.606737 -0.049046
0.146164 0.607044 -0.049148
0.150451 0.603659 -0.049723
0.152544 0.604954 -0.049725
0.154883 0.605766 -0.049798
0.157160 0.606749 -0.049859
0.159995 0.606523 -0.050079
0.162544 0.606950 -0.050227
0.165169 0.607222 -0.050401
0.167956 0.607128 -0.050626
0.170983 0.606470 -0.050925
0.174195 0.605351 -0.051284
0.176928 0.605354 -0.051511
0.179515 0.605708 -0.051698
0.180921 0.608993 -0.051537
0.183922 0.608346 -0.051850
0.186716 0.608192 -0.052106
0.187475 0.613276 -0.051741
0.190604 0.612277 -0.052099
0.196398 0.604140 -0.053293
0.198485 0.605744 -0.053340
0.201031 0.606118 -0.053530
0.203628 0.606334 -0.053738
0.206172 0.606683 -0.053928
0.208919 0.606434 -0.054185
0.212109 0.604860 -0.054591
0.214552 0.605413 -0.054750
0.215267 0.611137 -0.054319
0.219047 0.607677 -0.054930
0.222228 0.605926 -0.055341
0.223742 0.609332 -0.055168
0.226644 0.608384 -0.055481
0.230518 0.604208 -0.056151
0.232883 0.604850 -0.056277
0.235104 0.605965 -0.056348
0.237781 0.605527 -0.056587
0.240319 0.605527 -0.056774
0.243700 0.602509 -0.057288
0.242689 0.615190 -0.056079
0.246602 0.610217 -0.056799
0.248804 0.611429 -0.056840
0.250850 0.613251 -0.056811
0.253917 0.611142 -0.057205
0.258100 0.604497 -0.058081
0.260216 0.605907 -0.058085
0.262575 0.606343 -0.058190
0.265118 0.605993 -0.058375
0.266933 0.608730 -0.058228
0.269858 0.606678 -0.058587
0.272339 0.606497 -0.058743
0.274818 0.606291 -0.058898
0.277069 0.607109 -0.058941
0.279470 0.607225 -0.059056
0.281926 0.607039 -0.059198
0.284341 0.607028 -0.059319
0.286724 0.607152 -0.059422
0.290319 0.600847 -0.060192
0.292514 0.601783 -0.060203
0.295080 0.600669 -0.060424
0.297883 0.598119 -0.060791
0.300376 0.597221 -0.060982
0.302159 0.600535 -0.060736
0.303465 0.606993 -0.060164
0.305717 0.607747 -0.060178
0.308536 0.604772 -0.060572
0.309885 0.611611 -0.059957
0.312427 0.610469 -0.060157
0.315665 0.604153 -0.060884
0.317968 0.604420 -0.060934
0.320112 0.605927 -0.060856
0.322360 0.606676 -0.060852
0.324503 0.608344 -0.060753
0.327068 0.606424 -0.061015
0.329426 0.606210 -0.061102
0.331884 0.604997 -0.061288
0.334217 0.604895 -0.061359
0.336492 0.605381 -0.061368
0.338491 0.608924 -0.061066
0.340656 0.610904 -0.060920
0.342947 0.611528 -0.060910
0.345446 0.609499 -0.061163
0.348250 0.602955 -0.061868
0.350705 0.600671 -0.062142
0.353490 0.592770 -0.062976
0.355664 0.594091 -0.062883
0.357927 0.593953 -0.062935
0.360168 0.594207 -0.062945
0.362401 0.594688 -0.062931
0.364467 0.599426 -0.062489
0.366434 0.608194 -0.061643
0.368751 0.608164 -0.061675
0.371011 0.610253 -0.061493
0.373328 0.610599 -0.061483
0.375660 0.610136 -0.061551
0.378009 0.608010 -0.061783
0.380324 0.607681 -0.061834
0.382642 0.605118 -0.062106
0.384941 0.604866 -0.062145
0.387237 0.604644 -0.062179
0.389543 0.605458 -0.062108
0.391841 0.605342 -0.062128
0.394183 0.607419 -0.061927
0.396429 0.604802 -0.062191
0.398771 0.606267 -0.062048
0.401055 0.605601 -0.062113
0.403413 0.607030 -0.061969
0.405659 0.605501 -0.062117
0.407962 0.605465 -0.062113
0.410073 0.601724 -0.062477
0.412237 0.599506 -0.062686
0.414383 0.597307 -0.062892
0.416652 0.597269 -0.062881
0.419135 0.600238 -0.062567
0.421570 0.602178 -0.062354
0.424146 0.605655 -0.061985
0.426526 0.606390 -0.061887
0.428739 0.605168 -0.061981
0.431505 0.609932 -0.061476
0.433360 0.604970 -0.061939
0.435260 0.600866 -0.062314
0.437518 0.600418 -0.062322
0.440343 0.605036 -0.061820
0.442688 0.605156 -0.061765
0.445143 0.606145 -0.061620
0.447519 0.606415 -0.061545
0.449535 0.603885 -0.061748
0.451925 0.604267 -0.061655
0.454401 0.605208 -0.061504
0.456918 0.606352 -0.061328
0.459773 0.609646 -0.060933
0.461550 0.605737 -0.061261
0.463441 0.602747 -0.061495
0.465681 0.602033 -0.061495
0.468362 0.603946 -0.061226
0.470155 0.600611 -0.061487
0.471662 0.595815 -0.061894
0.473651 0.593875 -0.062008
0.475967 0.593750 -0.061934
0.478423 0.594329 -0.061785
0.481350 0.597238 -0.061393
0.484912 0.603119 -0.060691
0.489030 0.611387 -0.059737
0.492299 0.615235 -0.059232
0.493486 0.609274 -0.059736
0.497843 0.617848 -0.058733
0.499665 0.614827 -0.058927
0.499939 0.605211 -0.059804
0.501495 0.601393 -0.060078
0.504723 0.604629 -0.059612
0.507099 0.604245 -0.059521
0.509473 0.603834 -0.059429
0.512213 0.604841 -0.059184
0.514787 0.605140 -0.059010
0.517120 0.604491 -0.058932
0.519650 0.604565 -0.058775
0.522240 0.604822 -0.058595
0.524607 0.604247 -0.058500
0.526976 0.603668 -0.058403
0.529333 0.603040 -0.058309
0.532158 0.603985 -0.058042
0.534452 0.603109 -0.057970
0.536387 0.601064 -0.058022
0.538592 0.599928 -0.057975
0.541397 0.600697 -0.057719
0.547469 0.611554 -0.056355
0.548629 0.607047 -0.056671
0.549999 0.603288 -0.056908
0.552008 0.601519 -0.056926
0.554455 0.601065 -0.056799
0.557078 0.601111 -0.056618
0.560499 0.603402 -0.056187
0.563287 0.603853 -0.055962
0.565892 0.603777 -0.055798
0.568297 0.603156 -0.055698
0.570740 0.602653 -0.055589
0.573703 0.603529 -0.055328
0.576663 0.604380 -0.055074
0.585217 0.619532 -0.053194
0.582968 0.607002 -0.054477
0.583619 0.602044 -0.054906
0.585729 0.600819 -0.054916
0.587934 0.599876 -0.054904
0.591081 0.601237 -0.054635
0.593752 0.601465 -0.054507
0.595982 0.600681 -0.054506
0.598368 0.600311 -0.054470
0.601768 0.602301 -0.054171
0.603823 0.601244 -0.054238
0.605393 0.599169 -0.054438
0.608826 0.601299 -0.054162
0.612272 0.603456 -0.053896
0.615130 0.604345 -0.053793
0.616551 0.602191 -0.054059
0.618652 0.601573 -0.054160
0.621085 0.601716 -0.054188
0.625054 0.605099 -0.053856
0.626058 0.602375 -0.054247
0.627312 0.600268 -0.054581
0.630011 0.601175 -0.054581
0.629927 0.596553 -0.055233
0.629398 0.591189 -0.055983
0.627484 0.583249 -0.057040
0.628414 0.581045 -0.057449
0.640765 0.601016 -0.055342
0.105254 0.591185 -0.053376
0.104454 0.596392 -0.052612
0.103908 0.601283 -0.051898
0.105069 0.603259 -0.051551
0.109073 0.600205 -0.051827
0.110802 0.601283 -0.051619
0.112687 0.602148 -0.051452
0.114732 0.602786 -0.051328
0.116979 0.603114 -0.051258
0.118881 0.604147 -0.051119
0.122044 0.602856 -0.051278
0.124046 0.603817 -0.051180
0.128168 0.600740 -0.051588
0.131614 0.598969 -0.051853
0.128850 0.609479 -0.050642
0.129348 0.613739 -0.050207
0.134413 0.608911 -0.050888
0.137741 0.607559 -0.051161
0.141286 0.605767 -0.051500
0.143928 0.605850 -0.051625
0.146946 0.605170 -0.051854
0.149771 0.604912 -0.052044
0.152764 0.604308 -0.052285
0.154758 0.605891 -0.052276
0.156960 0.607066 -0.052324
0.159182 0.608239 -0.052382
0.162387 0.607223 -0.052707
0.165078 0.607368 -0.052901
0.168119 0.606706 -0.053195
0.171701 0.604753 -0.053643
0.174319 0.605044 -0.053834
0.176549 0.606273 -0.053920
0.179706 0.605258 -0.054268
0.181896 0.606604 -0.054346
0.183476 0.609505 -0.054250
0.185173 0.612173 -0.054183
0.187341 0.613683 -0.054250
0.190177 0.613461 -0.054514
