ply
format ascii 1.0
comment ---
element vertex 1771
property float x
property float y
property float z
element face 0
property list uchar uint vertex_indices
end_header
0.741895 0.601653 0.027012
0.744897 0.600962 0.027010
0.748301 0.601931 0.027190
0.751126 0.600470 0.027113
0.754545 0.601400 0.027296
0.758393 0.603944 0.027658
0.761447 0.603299 0.027681
0.763085 0.597298 0.027130
0.764694 0.591370 0.026589
0.768581 0.593907 0.026967
0.772255 0.595557 0.027254
0.775506 0.595624 0.027373
0.778892 0.596115 0.027544
0.784526 0.604169 0.028543
0.788404 0.606060 0.028878
0.791077 0.603897 0.028774
0.794424 0.603938 0.028916
0.796950 0.601336 0.028772
0.800219 0.601090 0.028891
0.802215 0.596904 0.028580
0.805502 0.596711 0.028713
0.807740 0.593358 0.028501
0.811224 0.593717 0.028704
0.814614 0.593755 0.028875
0.817622 0.592663 0.028925
0.820590 0.591452 0.028965
0.823672 0.590549 0.029044
0.831547 0.602658 0.030588
0.834872 0.602194 0.030727
0.837745 0.600508 0.030731
0.840760 0.599200 0.030780
0.842087 0.593562 0.030340
0.843758 0.588912 0.030012
0.846856 0.587916 0.030101
0.850645 0.588617 0.030386
0.855198 0.591124 0.030880
0.861064 0.596681 0.031729
0.863997 0.595126 0.031760
0.865697 0.590709 0.031459
0.869052 0.590197 0.031609
0.871875 0.588466 0.031615
0.874161 0.585557 0.031480
0.878417 0.587076 0.031859
0.883060 0.589397 0.032330
0.886446 0.588933 0.032471
0.889513 0.587796 0.032526
0.893038 0.587655 0.032693
0.897669 0.589830 0.033127
0.900176 0.587586 0.033028
0.902315 0.584655 0.032838
0.907304 0.587555 0.033332
0.911405 0.588645 0.033599
0.916263 0.591230 0.034035
0.922740 0.596950 0.034834
0.925313 0.595053 0.034706
0.926916 0.591385 0.034349
0.931202 0.592909 0.034601
0.934478 0.592561 0.034611
0.938346 0.593369 0.034743
0.941874 0.593596 0.034787
0.944612 0.592444 0.034647
0.951469 0.598788 0.035391
0.948650 0.587827 0.034033
0.951941 0.587927 0.033987
0.951127 0.580905 0.033067
0.951580 0.576273 0.032416
0.950992 0.569999 0.031552
0.950104 0.563386 0.030631
0.965652 0.584788 0.033040
0.250363 0.607019 0.041889
0.265343 0.583666 0.038974
0.266686 0.586562 0.039423
0.269064 0.587557 0.039609
0.270028 0.591459 0.040150
0.276075 0.585336 0.039377
0.285423 0.572505 0.037716
0.287228 0.574898 0.038005
0.281644 0.592654 0.040260
0.283289 0.595790 0.040605
0.290790 0.586736 0.039357
0.300295 0.573298 0.037529
0.302227 0.575922 0.037754
0.300407 0.586825 0.039024
0.302413 0.589621 0.039234
0.306615 0.587651 0.038816
0.311442 0.584280 0.038204
0.307203 0.601528 0.040207
0.311147 0.600371 0.039847
0.316150 0.596748 0.039163
0.317186 0.602446 0.039646
0.313535 0.619542 0.041551
0.326791 0.596092 0.038342
0.330171 0.596314 0.038106
0.333262 0.597273 0.037954
0.336766 0.597225 0.037669
0.340310 0.597074 0.037367
0.347257 0.588084 0.035969
0.349018 0.592485 0.036222
0.349890 0.599376 0.036774
0.351233 0.605176 0.037184
0.351934 0.612897 0.037822
0.362769 0.592546 0.035052
0.366196 0.592541 0.034755
0.370653 0.589546 0.034101
0.374420 0.588444 0.033677
0.375242 0.596015 0.034290
0.376974 0.601048 0.034597
0.378956 0.605444 0.034827
0.381647 0.607740 0.034808
0.390571 0.590344 0.032478
0.394021 0.589941 0.032155
0.396571 0.592426 0.032173
0.400599 0.590038 0.031627
0.404117 0.589251 0.031272
0.405977 0.594106 0.031574
0.409410 0.593573 0.031256
0.412320 0.594848 0.031151
0.415776 0.594138 0.030823
0.419069 0.593960 0.030560
0.422696 0.592470 0.030154
0.424469 0.598015 0.030549
0.427528 0.598684 0.030395
0.431966 0.593816 0.029624
0.434041 0.598359 0.029914
0.437074 0.599050 0.029777
0.437702 0.609967 0.030783
0.442711 0.602257 0.029717
0.446835 0.598098 0.029054
0.450621 0.595248 0.028543
0.453824 0.594933 0.028318
0.456876 0.595281 0.028170
0.459983 0.595334 0.027994
0.463991 0.590860 0.027327
0.466413 0.594222 0.027522
0.469514 0.594163 0.027346
0.472457 0.594906 0.027262
0.474849 0.598684 0.027511
0.477223 0.602731 0.027790
0.480982 0.598913 0.027224
0.483707 0.601024 0.027301
0.486665 0.601785 0.027235
0.489787 0.601516 0.027063
0.492730 0.602363 0.027014
0.496208 0.599622 0.026585
0.499180 0.600187 0.026513
0.502174 0.600604 0.026429
0.505696 0.597079 0.025929
0.508667 0.597514 0.025853
0.511091 0.602335 0.026244
0.513798 0.605145 0.026424
0.517579 0.598843 0.025646
0.520151 0.602902 0.025963
0.523235 0.602450 0.025808
0.526885 0.596355 0.025064
0.529614 0.599152 0.025256
0.532181 0.603961 0.025660
0.535317 0.602743 0.025436
0.538206 0.604351 0.025510
0.540912 0.608460 0.025846
0.544201 0.605121 0.025409
0.547407 0.602516 0.025051
0.550421 0.602495 0.024965
0.553276 0.605119 0.025155
0.555843 0.613375 0.025930
0.558834 0.614705 0.025989
0.562243 0.607165 0.025134
0.565657 0.597751 0.024090
0.568651 0.597445 0.023989
0.571640 0.597187 0.023894
0.574603 0.597729 0.023884
0.577590 0.597442 0.023791
0.580600 0.595725 0.023553
0.583601 0.593452 0.023261
0.586521 0.597971 0.023667
0.589454 0.609311 0.024772
0.592485 0.607413 0.024523
0.595488 0.603230 0.024043
0.598555 0.609667 0.024650
0.601635 0.612824 0.024923
0.604590 0.607797 0.024363
0.607644 0.608905 0.024431
0.610690 0.609386 0.024437
0.613721 0.609217 0.024379
0.616806 0.610540 0.024474
0.619984 0.613747 0.024763
0.623001 0.612844 0.024636
0.625834 0.608492 0.024160
0.628929 0.609531 0.024234
0.631906 0.608423 0.024092
0.635073 0.610388 0.024264
0.638067 0.609568 0.024155
0.640965 0.607554 0.023927
0.643970 0.607095 0.023859
0.646822 0.604843 0.023611
0.649611 0.602079 0.023314
0.652515 0.600817 0.023171
0.656005 0.605651 0.023647
0.659328 0.608384 0.023913
0.662316 0.607727 0.023837
0.665321 0.607243 0.023781
0.668159 0.605344 0.023585
0.671787 0.610096 0.024063
0.674381 0.606245 0.023674
0.678296 0.612770 0.024336
0.680981 0.609713 0.024032
0.683934 0.608754 0.023942
0.685776 0.600137 0.023080
0.688407 0.597326 0.022807
0.691196 0.595687 0.022656
0.694274 0.595942 0.022699
0.697283 0.595735 0.022698
0.700159 0.594718 0.022618
0.703225 0.594833 0.022655
0.707579 0.602162 0.023427
0.712265 0.610903 0.024345
0.714753 0.607418 0.024026
0.717612 0.606015 0.023922
0.721371 0.609225 0.024289
0.723800 0.605643 0.023969
0.726916 0.605533 0.024005
0.730162 0.606009 0.024104
0.733187 0.605409 0.024097
0.737145 0.609032 0.024525
0.740925 0.611673 0.024856
0.743866 0.610529 0.024805
0.746647 0.608720 0.024689
0.748918 0.604823 0.024362
0.753189 0.609210 0.024888
0.756178 0.608257 0.024871
0.759832 0.609917 0.025126
0.762751 0.608645 0.025084
0.765409 0.606400 0.024946
0.767017 0.600307 0.024413
0.771941 0.606467 0.025150
0.775223 0.606498 0.025259
0.776069 0.597934 0.024480
0.780556 0.602194 0.025036
0.784177 0.603327 0.025272
0.789488 0.610022 0.026093
0.791718 0.606348 0.025837
0.793233 0.600451 0.025353
0.798012 0.605055 0.025972
0.800283 0.601646 0.025755
0.803963 0.602627 0.026004
0.805034 0.595651 0.025418
0.807490 0.592971 0.025288
0.810962 0.593306 0.025481
0.814648 0.594209 0.025739
0.817721 0.593304 0.025809
0.820579 0.591780 0.025818
0.823891 0.591511 0.025963
0.831338 0.602453 0.027317
0.835888 0.605278 0.027807
0.838507 0.602879 0.027738
0.841031 0.600262 0.027648
0.844384 0.599810 0.027795
0.846923 0.597269 0.027718
0.846947 0.588482 0.026960
0.850776 0.589274 0.027247
0.855218 0.591500 0.027694
0.858860 0.591718 0.027923
0.864327 0.596221 0.028627
0.868784 0.598220 0.029056
0.870666 0.594207 0.028819
0.875774 0.597615 0.029406
0.877921 0.594266 0.029238
0.882169 0.595648 0.029596
0.886076 0.596236 0.029862
0.888726 0.594078 0.029816
0.890125 0.589294 0.029467
0.893636 0.589088 0.029628
0.898024 0.590718 0.029991
0.902364 0.592219 0.030333
0.905353 0.590945 0.030350
0.907862 0.588746 0.030251
0.911286 0.588444 0.030358
0.917406 0.593491 0.031067
0.921683 0.594863 0.031343
0.924562 0.593544 0.031296
0.926281 0.590078 0.030988
0.929035 0.588684 0.030902
0.934017 0.591533 0.031289
0.937452 0.591514 0.031329
0.941277 0.592264 0.031441
0.945950 0.594598 0.031718
0.948281 0.592739 0.031492
0.957886 0.603942 0.032756
0.954372 0.591840 0.031311
0.954711 0.586767 0.030658
0.953615 0.579362 0.029720
0.962273 0.588936 0.030717
0.963722 0.586122 0.030271
0.969855 0.591354 0.030728
0.283740 0.542333 0.030795
0.270381 0.573167 0.034706
0.269462 0.580408 0.035670
0.267279 0.590343 0.036953
0.268628 0.593542 0.037378
0.274206 0.588425 0.036749
0.278508 0.585868 0.036418
0.281700 0.585603 0.036354
0.283604 0.588066 0.036610
0.281731 0.598516 0.037840
0.288795 0.590460 0.036750
0.296263 0.581443 0.035526
0.299225 0.581979 0.035469
0.301065 0.585030 0.035707
0.304850 0.583932 0.035415
0.307956 0.584372 0.035297
0.306617 0.594875 0.036400
0.307911 0.599679 0.036785
0.312709 0.596564 0.036187
0.317073 0.594420 0.035696
0.317423 0.601739 0.036345
0.315001 0.615909 0.037808
0.326504 0.596695 0.035224
0.329746 0.597288 0.035028
0.333322 0.597076 0.034729
0.337252 0.595969 0.034317
0.340715 0.596026 0.034040
0.346917 0.588973 0.032916
0.347887 0.595481 0.033396
0.349911 0.599353 0.033558
0.352885 0.600747 0.033425
0.355614 0.602833 0.033371
0.362179 0.594254 0.032076
0.364795 0.596581 0.032051
0.367243 0.599429 0.032085
0.371269 0.597728 0.031596
0.375971 0.593933 0.030871
0.377273 0.600231 0.031302
0.378727 0.606232 0.031696
0.382388 0.605518 0.031329
0.387035 0.601619 0.030609
0.392122 0.596131 0.029717
0.396054 0.594196 0.029230
0.398976 0.595514 0.029112
0.400861 0.600349 0.029387
0.404923 0.597805 0.028847
0.407813 0.599238 0.028751
0.411410 0.598152 0.028383
0.414298 0.599561 0.028293
0.417959 0.598113 0.027895
0.420410 0.601135 0.027989
0.423056 0.603478 0.028012
0.426307 0.603496 0.027787
0.429223 0.604807 0.027706
0.433907 0.598908 0.026856
0.435817 0.604282 0.027219
0.437898 0.609112 0.027526
0.441589 0.607108 0.027108
0.447139 0.596711 0.025807
0.449852 0.598692 0.025825
0.453738 0.595274 0.025276
0.456808 0.595532 0.025121
0.459899 0.595659 0.024956
0.463768 0.591877 0.024386
0.466180 0.595308 0.024575
0.468249 0.600660 0.024966
0.470959 0.602814 0.025027
0.473591 0.605470 0.025142
0.476335 0.607601 0.025206
0.479468 0.607543 0.025047
0.483365 0.602884 0.024419
0.485654 0.607809 0.024780
0.488623 0.608680 0.024728
0.492043 0.606626 0.024379
0.495186 0.606269 0.024208
0.498041 0.607863 0.024239
0.501443 0.605593 0.023881
0.504673 0.604407 0.023636
0.507350 0.607371 0.023815
0.510251 0.608733 0.023835
0.513126 0.610391 0.023886
0.516026 0.611930 0.023928
0.519389 0.609382 0.023562
0.522941 0.604809 0.022996
0.525889 0.605730 0.022985
0.528540 0.609771 0.023289
0.531485 0.611007 0.023313
0.534762 0.608560 0.022973
0.537168 0.616304 0.023651
0.540245 0.616371 0.023566
0.544015 0.607006 0.022546
0.546251 0.618582 0.023608
0.549987 0.608485 0.022523
0.552711 0.613764 0.022964
0.555477 0.619125 0.023414
0.558539 0.619572 0.023380
0.561508 0.622109 0.023554
0.565430 0.602066 0.021507
0.568601 0.597463 0.020984
0.571598 0.596936 0.020865
0.574603 0.595952 0.020703
0.577532 0.597823 0.020824
0.580531 0.596808 0.020663
0.583517 0.596036 0.020528
0.586457 0.599629 0.020822
0.589373 0.616393 0.022405
0.592435 0.605591 0.021295
0.595483 0.612150 0.021882
0.598530 0.612231 0.021839
0.601642 0.616813 0.022236
0.604772 0.620098 0.022508
0.607644 0.611045 0.021582
0.610682 0.610846 0.021519
0.613742 0.611362 0.021528
0.616875 0.613708 0.021715
0.620043 0.616330 0.021932
0.623038 0.614705 0.021738
0.626027 0.613208 0.021558
0.628617 0.604811 0.020713
0.632291 0.615614 0.021728
0.635015 0.610247 0.021180
0.638127 0.611133 0.021239
0.641161 0.610844 0.021186
0.644039 0.608581 0.020945
0.647480 0.613282 0.021378
0.650413 0.611715 0.021208
0.653692 0.613998 0.021412
0.656720 0.613471 0.021346
0.659494 0.610488 0.021045
0.662608 0.610916 0.021076
0.665663 0.610752 0.021052
0.668945 0.612533 0.021217
0.671940 0.611777 0.021140
0.675253 0.613587 0.021313
0.678353 0.613600 0.021315
0.681095 0.610938 0.021061
0.684618 0.614018 0.021363
0.685445 0.598197 0.019844
0.688210 0.596348 0.019675
0.691188 0.595974 0.019652
0.694264 0.596213 0.019690
0.697180 0.595433 0.019632
0.700256 0.595620 0.019670
0.703836 0.598685 0.019989
0.708889 0.609865 0.021096
0.711895 0.609193 0.021060
0.715934 0.614049 0.021562
0.719278 0.615015 0.021690
0.721344 0.609395 0.021184
0.724709 0.610465 0.021329
0.728331 0.612705 0.021591
0.731770 0.613941 0.021759
0.735090 0.614534 0.021868
0.738643 0.616128 0.022078
0.741650 0.615200 0.022046
0.744672 0.614340 0.022024
0.747787 0.613876 0.022044
0.751529 0.616007 0.022322
0.754562 0.615124 0.022309
0.757906 0.615488 0.022422
0.760626 0.613349 0.022293
0.763142 0.610468 0.022096
0.765623 0.607525 0.021895
0.769374 0.609363 0.022168
0.773351 0.611922 0.022518
0.778330 0.617934 0.023212
0.779293 0.609584 0.022494
0.781718 0.606530 0.022302
0.785317 0.607524 0.022514
0.787999 0.605389 0.022420
0.791746 0.606775 0.022681
0.794185 0.603856 0.022518
0.797851 0.604884 0.022752
0.801015 0.604271 0.022827
0.803103 0.600327 0.022572
0.806244 0.599651 0.022649
0.807292 0.592720 0.022099
0.810673 0.592801 0.022259
0.814893 0.595261 0.022665
0.817909 0.594182 0.022717
0.820859 0.592908 0.022754
0.824420 0.593316 0.022965
0.831067 0.602068 0.024035
0.836775 0.608007 0.024825
0.839080 0.604743 0.024675
0.841675 0.602288 0.024611
0.846650 0.605974 0.025184
0.849880 0.605100 0.025290
0.851369 0.599861 0.024943
0.854148 0.597911 0.024939
0.856963 0.596064 0.024947
0.858777 0.591833 0.024706
0.865521 0.599354 0.025701
0.870968 0.603621 0.026358
0.873703 0.601498 0.026340
0.874524 0.595046 0.025861
0.881248 0.602008 0.026807
0.885006 0.602193 0.027030
0.888267 0.601271 0.027132
0.890445 0.598014 0.026980
0.892504 0.594576 0.026801
0.895517 0.593233 0.026842
0.900486 0.596009 0.027323
0.905051 0.597892 0.027702
0.907364 0.595146 0.027569
0.908798 0.590708 0.027240
0.914298 0.594494 0.027800
0.917855 0.594391 0.027924
0.921829 0.595133 0.028128
0.924218 0.592833 0.027985
0.926319 0.590071 0.027777
0.929574 0.589588 0.027805
0.933196 0.589847 0.027899
0.937740 0.591861 0.028171
0.941412 0.592289 0.028251
0.944285 0.591318 0.028159
0.955118 0.604737 0.029639
0.947688 0.585440 0.027486
0.955611 0.593661 0.028355
0.958025 0.592167 0.028131
0.966181 0.600725 0.028998
0.966050 0.594963 0.028266
0.963328 0.584952 0.027050
0.970544 0.591984 0.027690
0.296914 0.516427 0.024930
0.276221 0.561167 0.030346
0.274025 0.570812 0.031553
0.270481 0.583359 0.033091
0.269949 0.590254 0.033933
0.271658 0.592883 0.034245
0.274683 0.592988 0.034236
0.280157 0.588186 0.033620
0.282661 0.589479 0.033714
0.284599 0.592047 0.033942
0.287313 0.593116 0.033972
0.292493 0.589034 0.033370
0.296834 0.586732 0.032964
0.302302 0.581992 0.032253
0.306186 0.580681 0.031935
0.306335 0.587693 0.032586
0.305336 0.597501 0.033549
0.308672 0.597722 0.033365
0.313574 0.594376 0.032750
0.315711 0.597433 0.032874
0.316347 0.604143 0.033411
0.317120 0.610722 0.033918
0.326440 0.596762 0.032037
0.330379 0.595667 0.031642
0.333543 0.596480 0.031460
0.337311 0.595793 0.031102
0.341135 0.594941 0.030720
0.347191 0.588265 0.029675
0.345689 0.601286 0.030860
0.349246 0.601157 0.030551
0.353552 0.598977 0.030011
0.358243 0.595653 0.029345
0.361368 0.596573 0.029154
0.362520 0.603088 0.029583
0.365660 0.604050 0.029395
0.372015 0.595618 0.028176
0.375775 0.594584 0.027776
0.378540 0.596484 0.027700
0.378954 0.605609 0.028409
0.382607 0.604909 0.028052
0.387036 0.601686 0.027427
0.391127 0.599400 0.026910
0.394821 0.598296 0.026525
0.397348 0.600996 0.026550
0.400261 0.602436 0.026443
0.403436 0.602980 0.026245
0.407402 0.600724 0.025757
0.407951 0.610549 0.026542
0.411942 0.608166 0.026048
0.416576 0.603264 0.025299
0.420015 0.602643 0.025003
0.422455 0.605803 0.025103
0.425859 0.605256 0.024823
0.429807 0.602462 0.024318
0.431514 0.608666 0.024740
0.435120 0.607160 0.024377
0.437913 0.609012 0.024360
0.442830 0.601662 0.023414
0.447165 0.596537 0.022701
0.450146 0.597289 0.022589
0.453313 0.597170 0.022394
0.456861 0.595192 0.022016
0.459966 0.595235 0.021845
0.463550 0.592857 0.021438
0.464330 0.604624 0.022443
0.466199 0.611250 0.022936
0.469461 0.610703 0.022720
0.472739 0.610000 0.022492
0.475228 0.613680 0.022700
0.478031 0.615706 0.022748
0.480889 0.617480 0.022775
0.485035 0.611399 0.022035
0.488013 0.612311 0.021984
0.490942 0.613572 0.021970
0.494472 0.610817 0.021569
0.498293 0.605829 0.020955
0.500972 0.608687 0.021107
0.503893 0.609907 0.021102
0.506978 0.609914 0.020983
0.511105 0.601551 0.020061
0.512917 0.611754 0.020930
0.516669 0.605967 0.020263
0.519351 0.609305 0.020476
0.522851 0.605212 0.019980
0.526029 0.603879 0.019750
0.529394 0.600467 0.019326
0.532276 0.601910 0.019368
0.535271 0.602185 0.019301
0.538438 0.600399 0.019040
0.541338 0.601769 0.019081
0.544394 0.601180 0.018939
0.547417 0.600960 0.018835
0.550491 0.599882 0.018651
0.553565 0.598612 0.018452
0.556557 0.598606 0.018375
0.559575 0.598039 0.018247
0.562557 0.598126 0.018182
0.565536 0.598285 0.018126
0.568523 0.598225 0.018052
0.571545 0.597040 0.017875
0.574556 0.595816 0.017696
0.577504 0.596878 0.017732
0.580459 0.598050 0.017781
0.583424 0.599252 0.017834
0.586403 0.600043 0.017850
0.589402 0.598093 0.017613
0.592383 0.597513 0.017506
0.595361 0.597456 0.017449
0.598332 0.596709 0.017329
0.601298 0.596008 0.017216
0.604254 0.595130 0.017089
0.607235 0.595662 0.017093
0.610222 0.596166 0.017097
0.613199 0.596235 0.017062
0.616171 0.596104 0.017011
0.619119 0.595434 0.016911
0.622217 0.598094 0.017121
0.625170 0.597392 0.017022
0.628131 0.596953 0.016949
0.631175 0.597921 0.017008
0.634121 0.597232 0.016915
0.637070 0.596646 0.016834
0.640036 0.596341 0.016781
0.642887 0.594589 0.016597
0.645911 0.595086 0.016621
0.648949 0.595664 0.016654
0.652046 0.596793 0.016740
0.655061 0.596947 0.016739
0.658034 0.596663 0.016699
0.661060 0.596874 0.016706
0.664153 0.597637 0.016766
0.667187 0.597812 0.016774
0.670137 0.597255 0.016718
0.673135 0.597100 0.016700
0.676167 0.597185 0.016706
0.679270 0.597776 0.016761
0.682339 0.598052 0.016790
0.685336 0.597780 0.016770
0.688130 0.596146 0.016628
0.691290 0.596966 0.016713
0.694076 0.595347 0.016577
0.697299 0.596473 0.016695
0.700420 0.596903 0.016752
0.703551 0.597340 0.016813
0.706239 0.595231 0.016642
0.709219 0.594800 0.016628
0.712631 0.596679 0.016829
0.715811 0.597225 0.016911
0.718853 0.597009 0.016925
0.721789 0.596253 0.016893
0.724861 0.596157 0.016924
0.727976 0.596239 0.016975
0.731082 0.596244 0.017022
0.734087 0.595760 0.017027
0.736980 0.594767 0.016989
0.739775 0.593359 0.016915
0.743277 0.594983 0.017125
0.746594 0.595736 0.017259
0.749889 0.596338 0.017382
0.753170 0.596821 0.017498
0.756362 0.596904 0.017580
0.759886 0.598224 0.017782
0.762776 0.597063 0.017757
0.765835 0.596537 0.017794
0.768998 0.596372 0.017869
0.771597 0.594153 0.017756
0.775167 0.595390 0.017970
0.778950 0.597281 0.018251
0.782832 0.599406 0.018559
0.786515 0.600753 0.018799
0.789653 0.600228 0.018866
0.792912 0.600067 0.018972
0.796498 0.600910 0.019178
0.799760 0.600675 0.019286
0.802651 0.599264 0.019287
0.805642 0.598156 0.019320
0.808703 0.597250 0.019377
0.811604 0.595862 0.019391
0.814793 0.595305 0.019490
0.817816 0.594248 0.019544
0.821967 0.596345 0.019908
0.825965 0.597916 0.020226
0.831051 0.602360 0.020829
0.835691 0.605440 0.021305
0.839442 0.606037 0.021543
0.843657 0.607787 0.021900
0.848986 0.612313 0.022534
0.850683 0.607468 0.022248
0.852535 0.603102 0.022010
0.854450 0.598976 0.021797
0.859166 0.601738 0.022270
0.863707 0.603973 0.022693
0.869095 0.608124 0.023313
0.872480 0.607452 0.023450
0.873899 0.602236 0.023129
0.877334 0.601718 0.023280
0.884170 0.608840 0.024207
0.887255 0.607437 0.024268
0.889413 0.604015 0.024119
0.892757 0.603236 0.024237
0.894676 0.599418 0.024037
0.898941 0.600647 0.024352
0.903770 0.603024 0.024780
0.907874 0.603852 0.025042
0.910968 0.602607 0.025082
0.915198 0.603697 0.025355
0.916105 0.598152 0.024928
0.920700 0.600027 0.025263
0.923121 0.597647 0.025142
0.925333 0.594947 0.024974
0.927604 0.592454 0.024813
0.930139 0.590554 0.024700
0.934223 0.591632 0.024885
0.938212 0.592563 0.025039
0.941553 0.592341 0.025056
0.943448 0.589558 0.024785
0.955574 0.605273 0.026449
0.954662 0.597546 0.025620
0.950431 0.584174 0.024178
0.965169 0.604272 0.026248
0.971210 0.609015 0.026678
0.969907 0.601133 0.025760
0.967615 0.591775 0.024670
0.948611 0.554411 0.020630
0.283436 0.541456 0.025146
0.275277 0.562269 0.027595
0.270237 0.577472 0.029386
0.270644 0.582360 0.029973
0.269738 0.590017 0.030860
0.273490 0.588602 0.030685
0.277149 0.587430 0.030518
0.279763 0.588441 0.030584
0.280853 0.592684 0.031002
0.283484 0.593886 0.031052
0.286807 0.593732 0.030928
0.291833 0.590030 0.030381
0.298489 0.582808 0.029417
0.302134 0.582023 0.029173
0.304705 0.583632 0.029187
0.302478 0.595990 0.030402
0.305441 0.597019 0.030316
0.310299 0.593804 0.029739
0.310435 0.601422 0.030369
0.313797 0.601739 0.030165
0.315350 0.606364 0.030432
0.316354 0.612443 0.030847
0.327561 0.593957 0.028531
0.330514 0.595269 0.028406
0.333742 0.595938 0.028204
0.336823 0.596996 0.028040
0.340529 0.596480 0.027699
0.347714 0.586909 0.026373
0.346751 0.598502 0.027340
0.348110 0.604216 0.027663
0.351803 0.603750 0.027318
0.357222 0.598502 0.026464
0.359664 0.601377 0.026477
0.361693 0.605483 0.026620
0.364589 0.607187 0.026507
0.368772 0.605152 0.026003
0.372863 0.603289 0.025521
0.377121 0.600823 0.024981
0.378101 0.608282 0.025475
0.381603 0.608093 0.025177
0.386839 0.602366 0.024314
0.390424 0.601717 0.023979
0.393116 0.603926 0.023940
0.396932 0.602424 0.023527
0.400141 0.602882 0.023318
0.403590 0.602484 0.023027
0.405002 0.609175 0.023453
0.405987 0.617589 0.024050
0.409171 0.618264 0.023875
0.413446 0.614874 0.023301
0.418735 0.607479 0.022337
0.424097 0.599472 0.021323
0.424096 0.612157 0.022353
0.428094 0.609291 0.021856
0.433885 0.598943 0.020635
0.435773 0.604394 0.020963
0.438251 0.607519 0.021066
0.442718 0.602087 0.020345
0.447103 0.596736 0.019639
0.450509 0.595556 0.019341
0.453175 0.597713 0.019368
0.456721 0.595749 0.019005
0.460020 0.594857 0.018748
0.462966 0.595635 0.018655
0.465818 0.596890 0.018611
0.468539 0.598854 0.018637
0.471477 0.599723 0.018563
0.475064 0.597021 0.018157
0.478084 0.597342 0.018038
0.480971 0.598420 0.017995
0.483762 0.600093 0.018010
0.486994 0.599118 0.017781
0.490182 0.598328 0.017573
0.493014 0.599775 0.017576
0.495718 0.602148 0.017668
0.499154 0.599546 0.017302
0.502487 0.597478 0.016990
0.505569 0.597093 0.016836
0.508464 0.598100 0.016814
0.511413 0.598720 0.016758
0.514472 0.598434 0.016622
0.517805 0.595726 0.016268
0.520707 0.596651 0.016248
0.523831 0.595538 0.016046
0.526884 0.594984 0.015897
0.529650 0.597320 0.016013
0.532810 0.595586 0.015762
0.535805 0.595523 0.015665
0.538880 0.594467 0.015481
0.541705 0.596447 0.015573
0.544617 0.597467 0.015581
0.547542 0.598417 0.015584
0.550601 0.597386 0.015411
0.553567 0.597737 0.015365
0.556698 0.595113 0.015054
0.559592 0.596698 0.015122
0.562537 0.597453 0.015118
0.565492 0.598097 0.015105
0.568437 0.599162 0.015132
0.571478 0.597523 0.014920
0.574505 0.595832 0.014706
0.577458 0.596680 0.014719
0.580401 0.598434 0.014814
0.583377 0.598942 0.014800
0.586365 0.598720 0.014724
0.589352 0.597969 0.014602
0.592333 0.598063 0.014557
0.595313 0.597891 0.014490
0.598275 0.595911 0.014265
0.601247 0.595870 0.014213
0.604235 0.596734 0.014243
0.607206 0.596495 0.014177
0.610180 0.596411 0.014126
0.613170 0.596810 0.014120
0.616144 0.596669 0.014068
0.619160 0.597553 0.014107
0.622123 0.597086 0.014030
0.625077 0.596512 0.013945
0.628121 0.597621 0.014009
0.631121 0.597799 0.013993
0.634071 0.597171 0.013908
0.637040 0.596874 0.013854
0.640025 0.596816 0.013823
0.642996 0.596552 0.013775
0.645829 0.594654 0.013587
0.648961 0.596320 0.013711
0.651924 0.595974 0.013662
0.654923 0.596000 0.013647
0.657959 0.596380 0.013665
0.661007 0.596804 0.013689
0.664145 0.597977 0.013779
0.667178 0.598135 0.013784
0.670099 0.597325 0.013706
0.673050 0.596786 0.013653
0.676150 0.597417 0.013705
0.679217 0.597726 0.013731
0.682273 0.597917 0.013748
0.685135 0.596717 0.013647
0.688097 0.596243 0.013611
0.691186 0.596601 0.013650
0.694383 0.597593 0.013747
0.697350 0.597092 0.013716
0.700506 0.597712 0.013785
0.703276 0.596038 0.013657
0.706266 0.595671 0.013645
0.709322 0.595650 0.013666
0.712653 0.597079 0.013817
0.715748 0.597177 0.013854
0.718715 0.596586 0.013834
0.721742 0.596295 0.013842
0.724824 0.596249 0.013875
0.727928 0.596287 0.013919
0.730960 0.595953 0.013933
0.733959 0.595453 0.013936
0.736817 0.594317 0.013886
0.739938 0.594339 0.013940
0.743186 0.594868 0.014043
0.746435 0.595349 0.014145
0.750025 0.597167 0.014369
0.753171 0.597101 0.014430
0.756018 0.595830 0.014389
0.758918 0.594775 0.014370
0.762064 0.594654 0.014437
0.764975 0.593628 0.014428
0.767733 0.592045 0.014374
0.771228 0.593122 0.014559
0.774728 0.594137 0.014743
0.778303 0.595338 0.014949
0.781141 0.593958 0.014928
0.785463 0.597539 0.015356
0.788518 0.596803 0.015401
0.791697 0.596449 0.015485
0.795625 0.598444 0.015785
0.798684 0.597622 0.015836
0.801361 0.595607 0.015782
0.805000 0.596526 0.015999
0.808051 0.595623 0.016055
0.811234 0.595091 0.016149
0.814725 0.595424 0.016326
0.817473 0.593590 0.016309
0.820673 0.593036 0.016413
0.825020 0.595626 0.016811
0.828714 0.596321 0.017040
0.831811 0.595351 0.017118
0.835021 0.594666 0.017227
0.838626 0.594993 0.017433
0.842094 0.594915 0.017605
0.845919 0.595706 0.017863
0.848777 0.594019 0.017890
0.852467 0.594394 0.018115
0.857123 0.597073 0.018560
0.863370 0.603468 0.019362
0.866840 0.603078 0.019523
0.870918 0.604090 0.019820
0.874464 0.603820 0.019995
0.877829 0.603116 0.020128
0.880482 0.600804 0.020105
0.890234 0.614300 0.021611
0.892381 0.610758 0.021468
0.893799 0.605710 0.021174
0.896125 0.602717 0.021074
0.898563 0.600026 0.020998
0.905000 0.605752 0.021743
0.911929 0.612361 0.022572
0.912498 0.605843 0.022101
0.915882 0.605164 0.022196
0.919287 0.604559 0.022289
0.920167 0.599008 0.021880
0.923425 0.598242 0.021935
0.926088 0.596377 0.021868
0.927740 0.592656 0.021602
0.930818 0.591745 0.021602
0.934601 0.592215 0.021727
0.938502 0.592942 0.021862
0.940650 0.590496 0.021662
0.944116 0.590542 0.021697
0.954050 0.602268 0.022889
0.955997 0.599621 0.022617
0.959108 0.599143 0.022546
0.965266 0.604066 0.022999
0.969909 0.606349 0.023168
0.975135 0.609668 0.023421
0.977285 0.607767 0.023131
0.986987 0.618725 0.024109
0.256197 0.592666 0.027998
0.265417 0.580524 0.026714
0.269434 0.578342 0.026507
0.267772 0.587321 0.027512
0.268705 0.591424 0.027961
0.281572 0.571881 0.025786
0.281146 0.578814 0.026510
0.278340 0.590804 0.027770
0.279667 0.594620 0.028112
0.282646 0.595160 0.028074
0.287515 0.591816 0.027593
0.295496 0.581861 0.026373
0.295221 0.589464 0.027058
0.297816 0.591068 0.027070
0.299685 0.594359 0.027249
0.301475 0.597951 0.027445
0.300796 0.607224 0.028239
0.306358 0.602563 0.027515
0.309259 0.603953 0.027431
0.311697 0.606484 0.027458
0.313754 0.610006 0.027580
0.316774 0.611331 0.027457
0.327221 0.594699 0.025428
0.330288 0.595762 0.025269
0.333092 0.597511 0.025177
0.337002 0.596515 0.024791
0.340185 0.597345 0.024594
0.346629 0.589722 0.023518
0.346150 0.600095 0.024302
0.346760 0.607840 0.024806
0.350497 0.607315 0.024458
0.354506 0.606003 0.024031
0.358701 0.604105 0.023546
0.361602 0.605784 0.023426
0.365170 0.605563 0.023115
0.368495 0.606010 0.022873
0.371004 0.608853 0.022872
0.373686 0.611229 0.022826
0.376794 0.612336 0.022656
0.380340 0.612071 0.022354
0.384269 0.610544 0.021932
0.388319 0.608532 0.021469
0.393234 0.603574 0.020726
0.396265 0.604675 0.020576
0.401087 0.599702 0.019846
0.404551 0.599190 0.019551
0.408274 0.597704 0.019169
0.412004 0.596097 0.018780
0.415298 0.595967 0.018538
0.418449 0.596321 0.018346
0.421742 0.596105 0.018105
0.425037 0.595828 0.017863
0.428207 0.595987 0.017666
0.431290 0.596455 0.017503
0.434270 0.597316 0.017380
0.437355 0.597738 0.017221
0.440495 0.597894 0.017042
0.444206 0.595535 0.016635
0.446818 0.597910 0.016668
0.450042 0.597573 0.016457
0.453284 0.597096 0.016237
0.456531 0.596530 0.016013
0.459598 0.596770 0.015867
0.462717 0.596727 0.015699
0.465742 0.597120 0.015574
0.468646 0.598124 0.015508
0.471801 0.597801 0.015327
0.474984 0.597267 0.015130
0.478000 0.597610 0.015015
0.481007 0.597987 0.014907
0.484112 0.597767 0.014749
0.487383 0.596476 0.014500
0.490088 0.598654 0.014561
0.493068 0.599146 0.014476
0.496262 0.598189 0.014266
0.499281 0.598353 0.014158
0.502414 0.597670 0.013979
0.505439 0.597718 0.013867
0.508427 0.598019 0.013781
0.511404 0.598402 0.013703
0.514410 0.598543 0.013608
0.517586 0.597201 0.013387
0.520525 0.597845 0.013340
0.523595 0.597284 0.013192
0.526666 0.596632 0.013039
0.529809 0.595155 0.012817
0.532728 0.595924 0.012791
0.535767 0.595375 0.012654
0.538697 0.596056 0.012625
0.541785 0.594761 0.012429
0.544633 0.596550 0.012499
0.547590 0.596966 0.012453
0.550593 0.596697 0.012351
0.553584 0.596582 0.012265
0.556552 0.596821 0.012210
0.559560 0.596289 0.012092
0.562497 0.597176 0.012096
0.565462 0.597555 0.012059
0.568431 0.597915 0.012022
0.571365 0.599439 0.012085
0.574422 0.596989 0.011815
0.577421 0.596049 0.011674
0.580410 0.595165 0.011540
0.583331 0.598545 0.011765
0.586321 0.597950 0.011658
0.589305 0.597171 0.011538
0.592283 0.598634 0.011607
0.595267 0.598648 0.011557
0.598233 0.596698 0.011344
0.601208 0.596595 0.011287
0.604198 0.597357 0.011303
0.607172 0.597124 0.011239
0.610143 0.596824 0.011170
0.613120 0.596748 0.011122
0.616132 0.597651 0.011157
0.619061 0.596327 0.011008
0.622006 0.595581 0.010909
0.625073 0.597353 0.011021
0.628098 0.598047 0.011044
0.631076 0.597829 0.010994
0.634021 0.597107 0.010904
0.636984 0.596726 0.010843
0.640011 0.597234 0.010858
0.643038 0.597659 0.010868
0.646025 0.597536 0.010834
0.648892 0.596041 0.010688
0.651805 0.595165 0.010595
0.654767 0.594861 0.010552
0.657833 0.595583 0.010595
0.660965 0.596831 0.010683
0.663967 0.596785 0.010666
0.667105 0.597894 0.010746
0.670114 0.597819 0.010731
0.672982 0.596605 0.010624
0.676044 0.596944 0.010647
0.679150 0.597562 0.010695
0.682151 0.597367 0.010678
0.685047 0.596422 0.010601
0.688040 0.596173 0.010584
0.691293 0.597600 0.010707
0.694325 0.597524 0.010709
0.697300 0.597073 0.010682
0.700081 0.595465 0.010562
0.703438 0.597257 0.010725
0.706312 0.596202 0.010656
0.709535 0.597095 0.010750
0.712509 0.596579 0.010730
0.715448 0.595877 0.010698
0.718484 0.595674 0.010709
0.721627 0.595983 0.010766
0.724762 0.596211 0.010819
0.727774 0.595812 0.010823
0.730810 0.595515 0.010838
0.733790 0.594946 0.010834
0.736880 0.594855 0.010873
0.740027 0.594987 0.010934
0.743103 0.594777 0.010969
0.746321 0.595132 0.011054
0.749836 0.596659 0.011241
0.753045 0.596862 0.011322
0.756365 0.597457 0.011438
0.758774 0.594486 0.011260
0.761627 0.593269 0.011232
0.764698 0.592870 0.011276
0.768183 0.593956 0.011449
0.771263 0.593518 0.011498
0.774140 0.592343 0.011488
0.777712 0.593575 0.011685
0.781084 0.594043 0.011823
0.783347 0.590755 0.011646
0.788092 0.595687 0.012170
0.791173 0.595044 0.012226
0.794527 0.595248 0.012359
0.797892 0.595439 0.012494
0.800876 0.594411 0.012530
0.804473 0.595226 0.012728
0.807806 0.595192 0.012857
0.811107 0.595019 0.012980
0.814152 0.594070 0.013039
0.817308 0.593425 0.013128
0.820622 0.593199 0.013259
0.824191 0.593642 0.013451
0.827952 0.594554 0.013689
0.831725 0.595429 0.013929
0.834928 0.594729 0.014034
0.837670 0.592806 0.014035
0.842199 0.595493 0.014447
0.845607 0.595220 0.014601
0.849159 0.595277 0.014787
0.851581 0.592504 0.014724
0.855180 0.592637 0.014922
0.858806 0.592794 0.015125
0.862503 0.593083 0.015342
0.865324 0.591283 0.015372
0.870316 0.594512 0.015858
0.873137 0.592682 0.015886
0.876894 0.592982 0.016108
0.880961 0.593939 0.016389
0.884285 0.593223 0.016516
0.887520 0.592315 0.016622
0.891264 0.592507 0.016827
0.894606 0.591837 0.016949
0.897618 0.590486 0.017002
0.901295 0.590541 0.017181
0.905439 0.591552 0.017443
0.909956 0.593302 0.017767
0.914021 0.594123 0.017997
0.918823 0.596398 0.018355
0.921752 0.594991 0.018355
0.926064 0.596313 0.018603
0.928080 0.593256 0.018422
0.930257 0.590605 0.018266
0.935145 0.593120 0.018588
0.938167 0.592177 0.018566
0.941347 0.591592 0.018562
0.944893 0.591737 0.018612
0.950209 0.595118 0.018955
0.954577 0.596810 0.019119
0.957777 0.596477 0.019072
0.959592 0.593799 0.018782
0.961376 0.591187 0.018482
0.965275 0.592320 0.018520
0.968044 0.591585 0.018362
0.966658 0.583928 0.017529
0.262444 0.580025 0.023629
0.267345 0.576118 0.023260
0.268284 0.579900 0.023683
0.264330 0.593403 0.025113
0.265687 0.596761 0.025455
0.274022 0.586359 0.024327
0.274805 0.591032 0.024769
0.273656 0.599807 0.025624
0.275430 0.602835 0.025855
0.281913 0.596229 0.025056
0.287535 0.591357 0.024423
0.288862 0.595553 0.024724
0.287074 0.606586 0.025719
0.290161 0.607356 0.025626
0.295878 0.602425 0.024926
0.298493 0.604313 0.024921
0.301021 0.606488 0.024931
0.303342 0.609222 0.024985
0.307381 0.608102 0.024632
0.311038 0.607870 0.024361
0.313291 0.610970 0.024419
0.314382 0.616948 0.024759
0.325076 0.599816 0.022758
0.329509 0.597611 0.022264
0.332803 0.598183 0.022044
0.335964 0.599102 0.021855
0.340983 0.595281 0.021192
0.344756 0.594577 0.020838
0.341454 0.612461 0.022308
0.346308 0.609059 0.021682
0.350394 0.607615 0.021249
0.355493 0.603314 0.020541
0.359964 0.600608 0.019993
0.361533 0.606012 0.020226
0.367212 0.599722 0.019340
0.370613 0.599854 0.019073
0.374437 0.598699 0.018686
0.378471 0.596834 0.018237
0.381809 0.597003 0.017984
0.385869 0.594885 0.017521
0.389405 0.594313 0.017207
0.392548 0.594945 0.017009
0.395648 0.595693 0.016825
0.398716 0.596530 0.016654
0.401949 0.596791 0.016434
0.406209 0.593478 0.015892
0.408355 0.597417 0.016015
0.412621 0.593878 0.015465
0.415399 0.595582 0.015393
0.418474 0.596202 0.015228
0.421718 0.596159 0.015007
0.425042 0.595766 0.014761
0.428262 0.595719 0.014549
0.431343 0.596183 0.014387
0.434424 0.596617 0.014227
0.437906 0.595360 0.013923
0.440971 0.595780 0.013770
0.443722 0.597540 0.013739
0.446971 0.597120 0.013521
0.450044 0.597445 0.013372
0.453210 0.597306 0.013187
0.456290 0.597530 0.013038
0.459355 0.597796 0.012896
0.462522 0.597533 0.012713
0.465815 0.596568 0.012473
0.468803 0.597118 0.012367
0.471904 0.597049 0.012212
0.474978 0.597084 0.012069
0.477800 0.598512 0.012047
0.480915 0.598284 0.011889
0.484147 0.597302 0.011670
0.487156 0.597603 0.011563
0.490158 0.597928 0.011462
0.493183 0.598094 0.011349
0.496210 0.598223 0.011237
0.499328 0.597691 0.011073
0.502235 0.598611 0.011033
0.505322 0.598228 0.010887
0.508366 0.598107 0.010766
0.511395 0.598080 0.010655
0.514617 0.596410 0.010412
0.517360 0.598710 0.010498
0.520506 0.597555 0.010303
0.523554 0.597181 0.010174
0.526577 0.596994 0.010063
0.529267 0.600194 0.010230
0.532788 0.594701 0.009693
0.535748 0.594991 0.009628
0.538672 0.595712 0.009601
0.541587 0.596614 0.009589
0.544554 0.596895 0.009530
0.547585 0.596259 0.009399
0.550569 0.596238 0.009319
0.553477 0.597459 0.009341
0.556445 0.597783 0.009293
0.559465 0.597115 0.009167
0.562441 0.597242 0.009107
0.565388 0.598070 0.009105
0.568341 0.598936 0.009107
0.571340 0.598581 0.009014
0.574341 0.598011 0.008905
0.577369 0.596045 0.008687
0.580313 0.597575 0.008749
0.583285 0.598195 0.008740
0.586279 0.596870 0.008578
0.589254 0.597203 0.008550
0.592232 0.598790 0.008622
0.595215 0.598339 0.008535
0.598190 0.597414 0.008412
0.601167 0.597253 0.008350
0.604154 0.597651 0.008335
0.607131 0.597435 0.008272
0.610093 0.596770 0.008176
0.613064 0.596518 0.008114
0.616046 0.596620 0.008081
0.619076 0.597820 0.008136
0.621992 0.596296 0.007979
0.625049 0.597780 0.008059
0.628083 0.598600 0.008088
0.631007 0.597442 0.007965
0.633915 0.596183 0.007835
0.636963 0.597080 0.007875
0.639960 0.597153 0.007853
0.642890 0.596352 0.007764
0.645675 0.593867 0.007545
0.648906 0.596701 0.007743
0.651878 0.596427 0.007700
0.654692 0.594538 0.007533
0.658023 0.597871 0.007775
0.660858 0.596233 0.007631
0.663877 0.596361 0.007626
0.667076 0.598014 0.007742
0.670034 0.597519 0.007693
0.673034 0.597369 0.007672
0.676033 0.597195 0.007652
0.679048 0.597129 0.007642
0.682029 0.596802 0.007614
0.685016 0.596517 0.007591
0.688041 0.596470 0.007589
0.691122 0.596774 0.007616
0.694176 0.596861 0.007628
0.697018 0.595617 0.007540
0.700131 0.596034 0.007582
0.703232 0.596334 0.007618
0.706457 0.597286 0.007708
0.709336 0.596260 0.007646
0.712405 0.596275 0.007667
0.715349 0.595612 0.007638
0.718100 0.593968 0.007535
0.721243 0.594325 0.007591
0.724683 0.596073 0.007759
0.727616 0.595310 0.007733
0.730565 0.594625 0.007716
0.733886 0.595627 0.007835
0.736976 0.595528 0.007870
0.740089 0.595500 0.007914
0.743132 0.595144 0.007935
0.746218 0.594951 0.007972
0.749437 0.595273 0.008054
0.752739 0.595882 0.008161
0.755905 0.595901 0.008225
0.758755 0.594661 0.008194
0.761715 0.593854 0.008200
0.764910 0.593910 0.008278
0.768290 0.594603 0.008410
0.771201 0.593555 0.008408
0.774232 0.592926 0.008443
0.778474 0.596472 0.008815
0.781161 0.594570 0.008756
0.784292 0.594178 0.008822
0.787339 0.593486 0.008868
0.790578 0.593395 0.008967
0.794164 0.594369 0.009155
0.797291 0.593836 0.009226
0.800438 0.593339 0.009304
0.804615 0.595941 0.009638
0.807569 0.594768 0.009670
0.810711 0.594142 0.009751
0.814497 0.595358 0.009986
0.817602 0.594553 0.010060
0.820167 0.592214 0.010013
0.824215 0.594001 0.010309
0.827564 0.593792 0.010445
0.831411 0.594883 0.010692
0.834553 0.594031 0.010783
0.837583 0.592873 0.010852
0.842556 0.596704 0.011341
0.845631 0.595573 0.011419
0.848761 0.594573 0.011511
0.851944 0.593689 0.011616
0.855129 0.592796 0.011722
0.860050 0.596065 0.012184
0.861871 0.591860 0.012013
0.865447 0.591838 0.012199
0.868994 0.591720 0.012378
0.873806 0.594461 0.012804
0.877455 0.594488 0.012998
0.880269 0.592634 0.013028
0.884222 0.593305 0.013276
0.887724 0.592964 0.013434
0.891944 0.594157 0.013724
0.894621 0.592044 0.013721
0.897946 0.591329 0.013836
0.901236 0.590559 0.013941
0.905919 0.592650 0.014294
0.909780 0.593042 0.014490
0.913674 0.593502 0.014684
0.916506 0.591873 0.014683
0.920976 0.593497 0.014963
0.924996 0.594242 0.015155
0.927494 0.592098 0.015075
0.930109 0.590257 0.015009
0.935675 0.594007 0.015434
0.938959 0.593507 0.015462
0.942159 0.592912 0.015466
0.945367 0.592396 0.015461
0.948733 0.592232 0.015472
0.953833 0.595217 0.015751
0.956751 0.594365 0.015666
0.957989 0.590663 0.015305
0.961265 0.590625 0.015258
0.966133 0.593386 0.015446
0.968483 0.591894 0.015231
0.969619 0.588456 0.014824
0.260343 0.583303 0.020972
0.267868 0.574430 0.020113
0.268281 0.579249 0.020613
0.260389 0.600463 0.022745
0.261370 0.604662 0.023146
0.268156 0.597471 0.022382
0.267464 0.605256 0.023105
0.270006 0.606709 0.023173
0.268939 0.615676 0.023975
0.280580 0.598553 0.022146
0.283965 0.598437 0.022005
0.285453 0.602405 0.022254
0.286320 0.607856 0.022632
0.289539 0.608388 0.022506
0.294353 0.605487 0.022026
0.299120 0.602671 0.021542
0.300968 0.606381 0.021689
0.303772 0.608047 0.021622
0.307359 0.607982 0.021375
0.311264 0.607198 0.021049
0.314655 0.607625 0.020832
0.318125 0.607890 0.020593
0.325933 0.597658 0.019341
0.329334 0.597976 0.019099
0.332804 0.598130 0.018837
0.336332 0.598136 0.018558
0.339607 0.598781 0.018336
0.343603 0.597556 0.017937
0.346965 0.597947 0.017689
0.350255 0.598520 0.017457
0.353341 0.599639 0.017276
0.357247 0.598506 0.016887
0.360567 0.598943 0.016645
0.364127 0.598684 0.016340
0.367932 0.597671 0.015970
0.371146 0.598322 0.015754
0.374754 0.597782 0.015433
0.379252 0.594503 0.014871
0.382020 0.596376 0.014774
0.385429 0.596272 0.014504
0.388303 0.597816 0.014383
0.392825 0.594061 0.013800
0.395531 0.596080 0.013729
0.398528 0.597156 0.013578
0.402049 0.596444 0.013277
0.405559 0.595703 0.012978
0.408716 0.596129 0.012784
0.412341 0.594854 0.012449
0.415411 0.595503 0.012283
0.418446 0.596260 0.012131
0.421636 0.596420 0.011932
0.424865 0.596387 0.011721
0.428025 0.596580 0.011534
0.431290 0.596317 0.011313
0.434615 0.595752 0.011072
0.437814 0.595649 0.010874
0.440843 0.596220 0.010735
0.443858 0.596833 0.010605
0.446975 0.596975 0.010439
0.449937 0.597790 0.010332
0.453067 0.597820 0.010165
0.456182 0.597885 0.010005
0.459281 0.597987 0.009852
0.462582 0.597048 0.009618
0.465678 0.597075 0.009467
0.468773 0.597067 0.009316
0.471854 0.597097 0.009172
0.474899 0.597290 0.009044
0.477732 0.598651 0.009013
0.480714 0.599191 0.008920
0.483881 0.598618 0.008741
0.487305 0.596401 0.008436
0.490428 0.595925 0.008272
0.493240 0.597408 0.008266
0.496147 0.598317 0.008216
0.499077 0.599094 0.008160
0.502266 0.598027 0.007961
0.505294 0.598054 0.007852
0.508360 0.597759 0.007719
0.511491 0.596890 0.007546
0.514464 0.597237 0.007469
0.517569 0.596448 0.007306
0.520562 0.596565 0.007217
0.523559 0.596630 0.007126
0.526626 0.595982 0.006982
0.529673 0.595461 0.006850
0.532429 0.597993 0.006955
0.535745 0.594397 0.006593
0.538696 0.594765 0.006536
0.541518 0.596792 0.006608
0.544592 0.595637 0.006439
0.547638 0.594709 0.006290
0.550547 0.595733 0.006290
0.553425 0.597429 0.006344
0.556369 0.598174 0.006327
0.559373 0.597852 0.006231
0.562401 0.596936 0.006092
0.565331 0.598137 0.006115
0.568319 0.598070 0.006043
0.571299 0.598171 0.005987
0.574279 0.598313 0.005934
0.577279 0.597627 0.005822
0.580272 0.596962 0.005712
0.583248 0.597058 0.005662
0.586232 0.596375 0.005554
0.589205 0.596660 0.005521
0.592181 0.598013 0.005568
0.595163 0.597945 0.005512
0.598136 0.597037 0.005394
0.601115 0.597053 0.005346
0.604102 0.597522 0.005334
0.607075 0.597161 0.005262
0.610015 0.595677 0.005108
0.613004 0.596148 0.005100
0.615996 0.596541 0.005088
0.618975 0.596523 0.005047
0.621985 0.597152 0.005055
0.624966 0.597060 0.005011
0.628031 0.598500 0.005082
0.630869 0.595900 0.004857
0.633883 0.596385 0.004860
0.636871 0.596401 0.004831
0.639836 0.596075 0.004778
0.642820 0.596021 0.004746
0.645730 0.595055 0.004649
0.648759 0.595520 0.004659
0.651726 0.595257 0.004617
0.654797 0.596059 0.004655
0.657758 0.595688 0.004608
0.660772 0.595827 0.004601
0.663863 0.596623 0.004643
0.666902 0.596873 0.004647
0.669902 0.596770 0.004627
0.672986 0.597317 0.004657
0.676030 0.597495 0.004661
0.678937 0.596622 0.004591
0.681925 0.596357 0.004567
0.685050 0.597043 0.004614
0.688038 0.596738 0.004591
0.691073 0.596732 0.004592
0.694127 0.596824 0.004602
0.696987 0.595693 0.004525
0.700017 0.595611 0.004528
0.703141 0.596056 0.004570
0.706162 0.595869 0.004569
0.709357 0.596622 0.004640
0.712137 0.595082 0.004545
0.715479 0.596532 0.004671
0.718018 0.593788 0.004493
0.721402 0.595352 0.004632
0.724352 0.594704 0.004613
0.727521 0.595092 0.004672
0.730442 0.594287 0.004647
0.733755 0.595263 0.004755
0.736944 0.595618 0.004821
0.739868 0.594769 0.004801
0.742974 0.594703 0.004842
0.746001 0.594275 0.004859
0.748920 0.593390 0.004846
0.752140 0.593714 0.004926
0.755630 0.595054 0.005084
0.758770 0.594959 0.005139
0.761853 0.594615 0.005180
0.765024 0.594573 0.005246
0.768016 0.593845 0.005265
0.771152 0.593623 0.005325
0.775082 0.596164 0.005596
0.777995 0.595063 0.005598
0.780924 0.594017 0.005609
0.783990 0.593422 0.005657
0.787209 0.593313 0.005745
0.790598 0.593716 0.005876
0.794044 0.594249 0.006021
0.797049 0.593343 0.006062
0.799956 0.592121 0.006083
0.804754 0.596629 0.006543
0.807874 0.595950 0.006614
0.810617 0.594141 0.006602
0.814661 0.596107 0.006884
0.817165 0.593584 0.006825
0.820112 0.592337 0.006868
0.823801 0.593136 0.007073
0.827513 0.593932 0.007282
0.830356 0.592329 0.007309
0.834316 0.593686 0.007571
0.837662 0.593360 0.007705
0.841687 0.594752 0.007978
0.845686 0.595997 0.008244
0.848440 0.594048 0.008261
0.851537 0.592960 0.008349
0.855118 0.593043 0.008532
0.858420 0.592417 0.008662
0.862555 0.593748 0.008950
0.866135 0.593710 0.009131
0.869842 0.593934 0.009334
0.873675 0.594408 0.009560
0.877324 0.594431 0.009749
0.880611 0.593621 0.009870
0.883519 0.591978 0.009922
0.887191 0.592013 0.010110
0.891051 0.592432 0.010327
0.895965 0.595062 0.010725
0.898728 0.593121 0.010742
0.902775 0.593876 0.010977
0.907378 0.595748 0.011301
0.910726 0.595047 0.011404
0.913504 0.593237 0.011406
0.916898 0.592697 0.011506
0.920642 0.592868 0.011657
0.924358 0.593008 0.011796
0.927602 0.592272 0.011849
0.931452 0.592730 0.011991
0.935676 0.593917 0.012183
0.939329 0.594067 0.012273
0.942481 0.593345 0.012274
0.945193 0.591892 0.012198
0.948742 0.592027 0.012241
0.953106 0.593666 0.012396
0.955837 0.592465 0.012292
0.958252 0.590801 0.012131
0.961032 0.589865 0.012014
0.965198 0.591394 0.012091
0.969262 0.592796 0.012139
0.969629 0.588022 0.011643
0.256036 0.590778 0.018677
0.260364 0.588144 0.018449
0.262584 0.589622 0.018597
0.263731 0.593309 0.018939
0.266184 0.594576 0.019030
0.269478 0.594278 0.018953
0.273234 0.593129 0.018776
0.276274 0.593485 0.018726
0.278756 0.595070 0.018775
0.280925 0.597408 0.018878
0.284200 0.597548 0.018755
0.286893 0.598990 0.018740
0.290511 0.598541 0.018530
0.294728 0.596839 0.018188
0.298848 0.595361 0.017854
0.302488 0.594956 0.017610
0.303936 0.599499 0.017815
0.307731 0.598857 0.017525
0.311299 0.598746 0.017275
0.314974 0.598406 0.016995
0.318407 0.598645 0.016762
0.322978 0.596180 0.016275
0.326032 0.597333 0.016113
0.329313 0.597960 0.015898
0.333012 0.597559 0.015586
0.336423 0.597866 0.015335
0.340199 0.597235 0.014999
0.343321 0.598269 0.014809
0.346961 0.597947 0.014498
0.350505 0.597849 0.014207
0.353936 0.598028 0.013941
0.357320 0.598310 0.013685
0.360808 0.598280 0.013403
0.364370 0.598004 0.013103
0.367824 0.597996 0.012828
0.371108 0.598445 0.012595
0.374008 0.600007 0.012459
0.379160 0.594788 0.011753
0.381885 0.596795 0.011662
0.385110 0.597267 0.011445
0.389176 0.595049 0.011007
0.391758 0.597490 0.010962
0.394840 0.598329 0.010787
0.398102 0.598555 0.010565
0.402290 0.595606 0.010088
0.405752 0.595011 0.009809
0.409232 0.594283 0.009524
0.412293 0.594981 0.009360
0.415262 0.595992 0.009224
0.418214 0.597060 0.009097
0.421899 0.595356 0.008753
0.424716 0.596885 0.008671
0.427658 0.597935 0.008555
0.431086 0.597036 0.008289
0.434397 0.596539 0.008059
0.437492 0.596875 0.007899
0.440705 0.596683 0.007702
0.443891 0.596554 0.007514
0.446931 0.597027 0.007377
0.449899 0.597807 0.007268
0.452976 0.598076 0.007122
0.456164 0.597790 0.006938
0.459399 0.597226 0.006737
0.462318 0.598162 0.006654
0.465432 0.598115 0.006499
0.468680 0.597328 0.006293
0.471755 0.597391 0.006154
0.475069 0.596109 0.005917
0.478027 0.596723 0.005827
0.480736 0.598786 0.005848
0.483790 0.598875 0.005724
0.487079 0.597487 0.005493
0.490383 0.595892 0.005251
0.493329 0.596496 0.005175
0.496137 0.598034 0.005170
0.499156 0.598176 0.005065
0.502335 0.597154 0.004877
0.505848 0.593545 0.004503
0.508504 0.596232 0.004593
0.511509 0.596313 0.004495
0.514646 0.595279 0.004318
0.517652 0.595252 0.004216
0.520592 0.595793 0.004159
0.523656 0.595195 0.004021
0.526673 0.594974 0.003913
0.529657 0.595049 0.003828
0.532678 0.594696 0.003715
0.535724 0.594002 0.003579
0.538691 0.594155 0.003507
0.541585 0.595220 0.003501
0.544593 0.594869 0.003397
0.547634 0.593965 0.003254
0.550579 0.594382 0.003208
0.553443 0.596193 0.003263
0.556355 0.597417 0.003278
0.559342 0.597367 0.003203
0.562298 0.597966 0.003177
0.565302 0.597523 0.003078
0.568254 0.598350 0.003071
0.571197 0.599663 0.003099
0.574245 0.597616 0.002892
0.577237 0.597119 0.002797
0.580215 0.597203 0.002743
0.583203 0.596500 0.002636
0.586186 0.595676 0.002523
0.589162 0.594760 0.002404
0.592129 0.597426 0.002537
0.595103 0.595973 0.002384
0.598076 0.595927 0.002331
0.601061 0.596761 0.002340
0.604038 0.596694 0.002288
0.607006 0.596265 0.002212
0.609934 0.594499 0.002045
0.612884 0.593902 0.001961
0.615903 0.595304 0.002016
0.618885 0.595471 0.001988
0.621889 0.596065 0.001990
0.624719 0.593094 0.001748
0.627824 0.595576 0.001883
0.630725 0.594251 0.001757
0.633715 0.594463 0.001739
0.636750 0.595286 0.001764
0.639716 0.595047 0.001718
0.642689 0.594898 0.001679
0.645612 0.594145 0.001600
0.648532 0.593418 0.001525
0.651565 0.593969 0.001539
0.654624 0.594708 0.001568
0.657635 0.594883 0.001559
0.660424 0.592943 0.001407
0.663616 0.594764 0.001514
0.666823 0.596550 0.001621
0.669372 0.592710 0.001344
0.672628 0.594783 0.001474
