ply
format ascii 1.0
comment ---
element vertex 1700
property float x
property float y
property float z
element face 0
property list uchar uint vertex_indices
end_header
0.113314 0.613325 -0.065551
0.117047 0.611856 -0.065413
0.121693 0.604050 -0.064415
0.125307 0.602941 -0.064329
0.128785 0.602703 -0.064362
0.132205 0.602848 -0.064449
0.135693 0.602452 -0.064463
0.139162 0.602138 -0.064490
0.142594 0.602091 -0.064555
0.146142 0.600989 -0.064477
0.149604 0.600553 -0.064491
0.153011 0.600576 -0.064569
0.156332 0.601434 -0.064762
0.159762 0.601220 -0.064810
0.163416 0.598478 -0.064512
0.166286 0.604539 -0.065424
0.169673 0.604930 -0.065558
0.172947 0.606808 -0.065899
0.176338 0.607300 -0.066050
0.179581 0.610050 -0.066513
0.183164 0.607756 -0.066283
0.186412 0.610870 -0.066799
0.190072 0.606763 -0.066319
0.193723 0.602050 -0.065756
0.197177 0.600843 -0.065678
0.200541 0.601629 -0.065876
0.203943 0.601532 -0.065953
0.207347 0.601348 -0.066018
0.210744 0.601384 -0.066115
0.214143 0.601391 -0.066208
0.217422 0.609092 -0.067372
0.220841 0.610604 -0.067677
0.224280 0.611596 -0.067912
0.227733 0.609730 -0.067748
0.231178 0.610436 -0.067944
0.234627 0.610800 -0.068092
0.238067 0.609940 -0.068071
0.241463 0.606921 -0.067747
0.244800 0.602413 -0.067215
0.248263 0.604212 -0.067566
0.251634 0.602470 -0.067422
0.255021 0.601555 -0.067394
0.258420 0.601139 -0.067436
0.261831 0.601007 -0.067519
0.265241 0.600835 -0.067597
0.268623 0.600154 -0.067603
0.272027 0.599918 -0.067673
0.275589 0.602138 -0.068091
0.278925 0.600738 -0.067997
0.282201 0.598682 -0.067811
0.286223 0.606356 -0.069004
0.289784 0.607576 -0.069284
0.293325 0.608410 -0.069510
0.296706 0.607402 -0.069475
0.300358 0.609248 -0.069846
0.304119 0.611967 -0.070343
0.306907 0.605300 -0.069502
0.310513 0.606508 -0.069785
0.313472 0.602027 -0.069255
0.316837 0.601228 -0.069252
0.320265 0.600964 -0.069325
0.323728 0.600961 -0.069437
0.327201 0.601011 -0.069557
0.330671 0.601008 -0.069670
0.334024 0.600173 -0.069664
0.337333 0.599076 -0.069621
0.340392 0.596401 -0.069350
0.343644 0.595077 -0.069275
0.350266 0.614344 -0.072176
0.353387 0.611758 -0.071923
0.356469 0.609069 -0.071654
0.359236 0.604733 -0.071146
0.361577 0.598283 -0.070331
0.365291 0.599433 -0.070619
0.368917 0.600043 -0.070830
0.372357 0.599659 -0.070898
0.375603 0.598311 -0.070826
0.378850 0.597006 -0.070761
0.382420 0.597252 -0.070923
0.386518 0.599893 -0.071437
0.389800 0.598721 -0.071395
0.393814 0.600792 -0.071829
0.397529 0.601461 -0.072059
0.400685 0.599720 -0.071936
0.403752 0.597653 -0.071766
0.407249 0.597380 -0.071862
0.411650 0.600680 -0.072486
0.415070 0.600005 -0.072525
0.418692 0.600096 -0.072679
0.423381 0.604156 -0.073424
0.426838 0.603502 -0.073471
0.429410 0.599640 -0.073043
0.432139 0.596444 -0.072715
0.436120 0.597694 -0.073050
0.439947 0.598339 -0.073297
0.443988 0.599653 -0.073646
0.447089 0.597772 -0.073519
0.451003 0.598569 -0.073796
0.458670 0.611333 -0.075872
0.462702 0.612186 -0.076164
0.465823 0.610151 -0.076024
0.468585 0.607045 -0.075724
0.470543 0.601580 -0.075069
0.474916 0.603394 -0.075515
0.478887 0.603941 -0.075773
0.481580 0.600762 -0.075468
0.484460 0.598166 -0.075252
0.487756 0.596762 -0.075220
0.492222 0.598574 -0.075680
0.495290 0.596503 -0.075551
0.499512 0.597531 -0.075898
0.503772 0.598584 -0.076253
0.507883 0.599176 -0.076540
0.511248 0.597796 -0.076528
0.515174 0.597826 -0.076735
0.518904 0.597317 -0.076863
0.522813 0.597215 -0.077056
0.529408 0.603577 -0.078255
0.532427 0.601169 -0.078100
0.535087 0.597924 -0.077816
0.536870 0.592671 -0.077220
0.542619 0.596622 -0.078063
0.547523 0.598504 -0.078589
0.554004 0.603819 -0.079658
0.554782 0.596325 -0.078720
0.559864 0.598370 -0.079285
0.563406 0.596988 -0.079313
0.567547 0.596865 -0.079543
0.571201 0.595664 -0.079607
0.576411 0.597673 -0.080183
0.581315 0.598953 -0.080649
0.583853 0.595346 -0.080338
0.586068 0.591125 -0.079931
0.591838 0.593994 -0.080661
0.595888 0.593379 -0.080836
0.600706 0.594211 -0.081248
0.603122 0.590384 -0.080910
0.605849 0.587186 -0.080674
0.612028 0.590462 -0.081489
0.616703 0.590843 -0.081838
0.620039 0.588731 -0.081782
0.624264 0.588232 -0.081990
0.629889 0.590205 -0.082604
0.631421 0.584886 -0.082021
0.638709 0.589694 -0.083103
0.643011 0.589221 -0.083316
0.650634 0.594404 -0.084464
0.658887 0.600524 -0.085771
0.664529 0.602144 -0.086330
0.668526 0.601012 -0.086429
0.670678 0.596890 -0.086022
0.672321 0.592041 -0.085486
0.678493 0.594554 -0.086177
0.682455 0.593538 -0.086269
0.684634 0.589774 -0.085889
0.692940 0.595634 -0.087126
0.695207 0.592135 -0.086772
0.693963 0.583403 -0.085517
0.704149 0.592137 -0.087217
0.701943 0.582243 -0.085737
0.702183 0.576219 -0.084901
-0.119642 0.596114 -0.065696
-0.117714 0.599607 -0.066263
-0.114946 0.601509 -0.066600
-0.109963 0.598824 -0.066289
-0.107193 0.600952 -0.066639
-0.103472 0.601143 -0.066711
-0.099859 0.601660 -0.066821
-0.096615 0.603090 -0.067050
-0.092955 0.603682 -0.067155
-0.088620 0.602803 -0.067048
-0.084699 0.602915 -0.067073
-0.080895 0.603348 -0.067138
-0.076853 0.603264 -0.067125
-0.073024 0.603718 -0.067183
-0.069326 0.604527 -0.067287
-0.065436 0.604896 -0.067326
-0.061368 0.604833 -0.067302
-0.056898 0.603741 -0.067131
-0.052808 0.603595 -0.067092
-0.048528 0.602932 -0.066979
-0.044956 0.604115 -0.067122
-0.041387 0.605316 -0.067268
-0.037342 0.605219 -0.067233
-0.033648 0.606063 -0.067329
-0.029317 0.605093 -0.067172
-0.025787 0.606354 -0.067328
-0.020444 0.602323 -0.066746
-0.015720 0.599952 -0.066397
-0.012483 0.601931 -0.066657
-0.009794 0.605599 -0.067153
-0.007327 0.610024 -0.067757
-0.003723 0.610951 -0.067875
0.002621 0.603043 -0.066763
0.006230 0.603751 -0.066855
0.010321 0.602825 -0.066721
0.014919 0.600090 -0.066337
0.016060 0.609118 -0.067595
0.018409 0.614173 -0.068301
0.022401 0.613484 -0.068210
0.028112 0.606454 -0.067237
0.031679 0.607054 -0.067330
0.034782 0.609368 -0.067664
0.039266 0.606396 -0.067263
0.043721 0.603363 -0.066857
0.047472 0.602976 -0.066822
0.051125 0.602915 -0.066834
0.054989 0.601917 -0.066718
0.058521 0.602242 -0.066789
0.061949 0.602977 -0.066920
0.064711 0.606663 -0.067465
0.067577 0.609987 -0.067962
0.071926 0.606501 -0.067510
0.076488 0.601794 -0.066889
0.080090 0.601493 -0.066885
0.083523 0.601978 -0.066994
0.087155 0.601416 -0.066959
0.090649 0.601508 -0.067017
0.093401 0.605557 -0.067631
0.096670 0.606924 -0.067871
0.100110 0.607346 -0.067982
0.102875 0.611689 -0.068644
0.106800 0.609274 -0.068360
0.110684 0.606926 -0.068087
0.113882 0.608775 -0.068406
0.117001 0.611218 -0.068810
0.121555 0.604043 -0.067862
0.125179 0.602877 -0.067761
0.128631 0.602845 -0.067821
0.132052 0.603008 -0.067911
0.135636 0.601882 -0.067819
0.139161 0.601119 -0.067781
0.142551 0.601392 -0.067890
0.146020 0.600975 -0.067902
0.149580 0.599666 -0.067791
0.153007 0.599478 -0.067838
0.156430 0.599282 -0.067886
0.159688 0.600772 -0.068174
0.163113 0.600556 -0.068222
0.166288 0.603203 -0.068677
0.169476 0.605983 -0.069152
0.173014 0.604500 -0.069024
0.176331 0.605898 -0.069306
0.179648 0.607453 -0.069612
0.183106 0.606996 -0.069632
0.186528 0.607059 -0.069728
0.189988 0.606424 -0.069725
0.193591 0.602715 -0.069283
0.197050 0.601476 -0.069195
0.200420 0.602230 -0.069392
0.203890 0.600300 -0.069206
0.207278 0.600493 -0.069325
0.210668 0.600706 -0.069448
0.214003 0.603736 -0.069976
0.217356 0.607470 -0.070607
0.220755 0.610278 -0.071106
0.224205 0.609368 -0.071072
0.227643 0.610926 -0.071393
0.231077 0.605527 -0.070712
0.234514 0.607088 -0.071036
0.237939 0.606419 -0.071038
0.241331 0.604010 -0.070789
0.244743 0.603547 -0.070821
0.248174 0.603896 -0.070972
0.251593 0.603675 -0.071041
0.254963 0.602128 -0.070918
0.258317 0.600482 -0.070781
0.261737 0.600600 -0.070901
0.265186 0.601242 -0.071097
0.268596 0.601004 -0.071166
0.272208 0.604192 -0.071736
0.275449 0.601074 -0.071386
0.278942 0.602018 -0.071629
0.282307 0.601060 -0.071595
0.285714 0.600737 -0.071655
0.289113 0.600306 -0.071699
0.292354 0.598100 -0.071483
0.295711 0.597352 -0.071481
0.300352 0.609855 -0.073429
0.302500 0.596704 -0.071603
0.306840 0.605255 -0.072973
0.310044 0.602847 -0.072730
0.313220 0.600369 -0.072476
0.316679 0.600403 -0.072593
0.320077 0.599926 -0.072635
0.323732 0.601422 -0.072971
0.327270 0.601926 -0.073160
0.330085 0.597212 -0.072575
0.334295 0.602408 -0.073463
0.337760 0.602273 -0.073560
0.340703 0.598744 -0.073152
0.343967 0.597412 -0.073071
0.347969 0.600637 -0.073671
0.352884 0.609059 -0.075051
0.356263 0.608144 -0.075036
0.358944 0.603348 -0.074441
0.361891 0.600225 -0.074095
0.365235 0.599352 -0.074088
0.368789 0.599582 -0.074247
0.372254 0.599329 -0.074335
0.375627 0.598606 -0.074353
0.379020 0.597990 -0.074388
0.383230 0.601223 -0.075005
0.387199 0.603173 -0.075431
0.390956 0.604060 -0.075698
0.394560 0.604202 -0.075853
0.398530 0.605892 -0.076245
0.401621 0.603775 -0.076060
0.403930 0.598486 -0.075393
0.407579 0.598803 -0.075580
0.411605 0.600581 -0.075992
0.415023 0.599891 -0.076028
0.418483 0.599360 -0.076091
0.423214 0.603583 -0.076883
0.427581 0.606282 -0.077445
0.430078 0.602089 -0.076951
0.432267 0.596926 -0.076308
0.436080 0.597574 -0.076560
0.440718 0.600992 -0.077242
0.443541 0.598148 -0.076959
0.447136 0.597920 -0.077083
0.450473 0.596829 -0.077075
0.457263 0.606800 -0.078784
0.461443 0.608189 -0.079167
0.464644 0.606457 -0.079067
0.468619 0.607105 -0.079340
0.472731 0.608106 -0.079671
0.475638 0.605471 -0.079437
0.479048 0.604343 -0.079441
0.481464 0.600353 -0.078997
0.484494 0.598180 -0.078840
0.487724 0.596586 -0.078776
0.492137 0.598242 -0.079226
0.495861 0.597945 -0.079371
0.499122 0.596378 -0.079319
0.503847 0.598664 -0.079879
0.507642 0.598425 -0.080044
0.511306 0.597813 -0.080152
0.514835 0.596832 -0.080204
0.518880 0.597112 -0.080461
0.522446 0.596161 -0.080524
0.529105 0.602683 -0.081787
0.532890 0.602108 -0.081919
0.534398 0.596124 -0.081185
0.540354 0.600609 -0.082137
0.543648 0.598804 -0.082081
0.547903 0.599172 -0.082379
0.552232 0.599646 -0.082699
0.554070 0.594545 -0.082117
0.559493 0.597349 -0.082822
0.563402 0.596764 -0.082980
0.567178 0.595855 -0.083090
0.571119 0.595265 -0.083254
0.577614 0.599941 -0.084286
0.582433 0.601011 -0.084733
0.585793 0.599041 -0.084683
0.586478 0.591703 -0.083747
0.592228 0.594518 -0.084492
0.595965 0.593277 -0.084569
0.600162 0.592903 -0.084792
0.604620 0.592989 -0.085095
0.605947 0.587113 -0.084404
0.611792 0.589761 -0.085140
0.617192 0.591484 -0.085724
0.618752 0.586122 -0.085118
0.623503 0.586599 -0.085495
0.627856 0.586320 -0.085746
0.633488 0.588273 -0.086376
0.636960 0.586389 -0.086354
0.645573 0.593385 -0.087845
0.650964 0.594718 -0.088372
0.656880 0.596893 -0.089043
0.663392 0.600009 -0.089874
0.667885 0.599723 -0.090118
0.670515 0.596403 -0.089834
0.673859 0.594317 -0.089756
0.678255 0.593973 -0.089971
0.682890 0.594039 -0.090251
0.685370 0.590754 -0.089939
0.691291 0.592911 -0.090566
0.688405 0.581531 -0.088818
0.702331 0.596016 -0.091583
0.704307 0.592259 -0.091145
0.703682 0.584745 -0.090032
0.676832 0.538587 -0.082100
-0.120395 0.597324 -0.069463
-0.117892 0.599605 -0.069875
-0.114671 0.600527 -0.070082
-0.111442 0.601556 -0.070295
-0.106590 0.599201 -0.070009
-0.103401 0.600513 -0.070244
-0.100066 0.601617 -0.070441
-0.096467 0.602236 -0.070559
-0.093127 0.603524 -0.070767
-0.089249 0.603677 -0.070803
-0.085009 0.603045 -0.070719
-0.081411 0.603955 -0.070852
-0.077712 0.604684 -0.070954
-0.072919 0.602824 -0.070676
-0.069120 0.603367 -0.070743
-0.065488 0.604351 -0.070869
-0.061431 0.604305 -0.070843
-0.056930 0.603124 -0.070651
-0.052484 0.602049 -0.070472
-0.049891 0.605784 -0.070987
-0.045164 0.603937 -0.070694
-0.041215 0.604111 -0.070693
-0.037663 0.605350 -0.070846
-0.033000 0.603506 -0.070553
-0.029974 0.606187 -0.070914
-0.026022 0.606261 -0.070900
-0.022346 0.607097 -0.070996
-0.017418 0.604204 -0.070556
-0.013676 0.604741 -0.070612
-0.010389 0.606632 -0.070865
-0.007814 0.610748 -0.071441
-0.004539 0.612734 -0.071712
0.002220 0.603541 -0.070372
0.006096 0.603398 -0.070340
0.009939 0.603301 -0.070317
0.013681 0.603487 -0.070337
0.016617 0.606396 -0.070752
0.019481 0.609604 -0.071212
0.021575 0.615622 -0.072080
0.026571 0.611250 -0.071453
0.031099 0.608391 -0.071046
0.035786 0.604762 -0.070531
0.039604 0.604285 -0.070472
0.043420 0.603735 -0.070406
0.047170 0.603373 -0.070369
0.050912 0.602969 -0.070329
0.055752 0.597918 -0.069620
0.059204 0.598512 -0.069729
0.061908 0.602331 -0.070305
0.064239 0.607928 -0.071141
0.067716 0.608512 -0.071256
0.071950 0.605551 -0.070860
0.076303 0.601835 -0.070358
0.079821 0.601959 -0.070412
0.083349 0.601995 -0.070456
0.087059 0.601055 -0.070361
0.090554 0.601149 -0.070418
0.093361 0.604903 -0.071007
0.096617 0.606331 -0.071261
0.099677 0.608908 -0.071684
0.102646 0.612116 -0.072201
0.106868 0.607949 -0.071650
0.110991 0.604107 -0.071147
0.114524 0.603752 -0.071153
0.117932 0.604149 -0.071269
0.121618 0.602660 -0.071113
0.125092 0.602516 -0.071154
0.128520 0.602660 -0.071239
0.132394 0.599437 -0.070834
0.135221 0.604084 -0.071578
0.139073 0.600777 -0.071164
0.142480 0.600923 -0.071255
0.145807 0.601745 -0.071447
0.149574 0.598599 -0.071059
0.152738 0.600879 -0.071467
0.156258 0.599812 -0.071386
0.159385 0.602717 -0.071888
0.162598 0.604955 -0.072294
0.165857 0.606882 -0.072656
0.169476 0.604597 -0.072402
0.173054 0.602538 -0.072181
0.176471 0.602434 -0.072249
0.179974 0.601018 -0.072125
0.183204 0.603732 -0.072609
0.186469 0.606277 -0.073071
0.189892 0.606283 -0.073159
0.193391 0.604747 -0.073021
0.196867 0.603374 -0.072908
0.200346 0.601622 -0.072739
0.203739 0.601849 -0.072863
0.207208 0.599672 -0.072632
0.210601 0.599638 -0.072720
0.213937 0.602438 -0.073229
0.217329 0.603352 -0.073459
0.220732 0.604193 -0.073679
0.224134 0.606488 -0.074117
0.227569 0.603250 -0.073732
0.230979 0.601487 -0.073567
0.234381 0.600855 -0.073571
0.237774 0.599787 -0.073510
0.241203 0.601373 -0.073847
0.244671 0.603997 -0.074339
0.248155 0.606214 -0.074773
0.251592 0.606206 -0.074874
0.254942 0.603731 -0.074606
0.258193 0.599307 -0.074045
0.261659 0.600539 -0.074333
0.265154 0.602098 -0.074672
0.268624 0.602884 -0.074895
0.271992 0.601772 -0.074833
0.275484 0.602736 -0.075085
0.278843 0.601595 -0.075020
0.282233 0.601003 -0.075038
0.285647 0.600753 -0.075108
0.289104 0.601017 -0.075256
0.292451 0.599958 -0.075205
0.295516 0.595934 -0.074704
0.299574 0.602507 -0.075812
0.303463 0.606782 -0.076574
0.307046 0.607766 -0.076836
0.310240 0.605153 -0.076552
0.313092 0.599783 -0.075847
0.316481 0.599249 -0.075879
0.319933 0.599235 -0.075991
0.323830 0.602609 -0.076623
0.327124 0.601253 -0.076531
0.330221 0.598562 -0.076236
0.334594 0.604837 -0.077316
0.338015 0.604319 -0.077356
0.341069 0.601432 -0.077032
0.344409 0.600495 -0.077008
0.348254 0.602662 -0.077463
0.352512 0.607134 -0.078276
0.356123 0.607601 -0.078472
0.358903 0.603363 -0.077942
0.361867 0.600323 -0.077597
0.365580 0.601402 -0.077890
0.368638 0.599003 -0.077645
0.371792 0.597185 -0.077491
0.375369 0.597514 -0.077671
0.379435 0.600155 -0.078212
0.383569 0.602970 -0.078783
0.387843 0.606281 -0.079433
0.390861 0.603762 -0.079175
0.394127 0.602417 -0.079101
0.398170 0.604454 -0.079558
0.401844 0.604820 -0.079755
0.404486 0.600873 -0.079276
0.407730 0.599497 -0.079202
0.411446 0.600022 -0.079428
0.414970 0.599746 -0.079530
0.418739 0.600389 -0.079778
0.423892 0.606171 -0.080840
0.428407 0.609357 -0.081496
0.432651 0.611419 -0.081977
0.432793 0.598811 -0.080133
0.436297 0.598341 -0.080215
0.439950 0.598362 -0.080376
0.444232 0.600471 -0.080873
0.447071 0.597694 -0.080593
0.450880 0.598132 -0.080827
0.457674 0.608087 -0.082587
0.460423 0.604934 -0.082254
0.463161 0.601809 -0.081926
0.469532 0.609838 -0.083391
0.473477 0.610287 -0.083644
0.474748 0.602768 -0.082614
0.477428 0.599542 -0.082277
0.482480 0.603187 -0.083053
0.484503 0.598113 -0.082420
0.487726 0.596491 -0.082349
0.491016 0.595058 -0.082310
0.495610 0.597152 -0.082848
0.500155 0.599016 -0.083352
0.503313 0.597128 -0.083248
0.507443 0.597773 -0.083561
0.511054 0.597026 -0.083650
0.515395 0.598094 -0.084039
0.518539 0.596106 -0.083931
0.522492 0.596110 -0.084153
0.528537 0.601134 -0.085207
0.532273 0.600454 -0.085325
0.536250 0.600311 -0.085536
0.540927 0.601752 -0.086013
0.544201 0.599876 -0.085943
0.547510 0.598077 -0.085889
0.552331 0.599658 -0.086403
0.553655 0.593411 -0.085610
0.559537 0.597223 -0.086506
0.563512 0.596773 -0.086692
0.567288 0.595855 -0.086802
0.570670 0.594079 -0.086771
0.575327 0.594942 -0.087189
0.581626 0.599101 -0.088172
0.584487 0.596136 -0.087950
0.588874 0.596245 -0.088253
0.594460 0.598674 -0.088957
0.598237 0.597455 -0.089041
0.602325 0.596815 -0.089227
0.604778 0.593021 -0.088872
0.614149 0.602325 -0.090777
0.613513 0.592700 -0.089419
0.618569 0.593748 -0.089905
0.621882 0.591557 -0.089831
0.621933 0.583497 -0.088734
0.631785 0.593052 -0.090708
0.633291 0.587658 -0.090073
0.639686 0.590873 -0.090944
0.646999 0.595579 -0.092079
0.651384 0.595175 -0.092315
0.656089 0.595307 -0.092644
0.662088 0.597587 -0.093350
0.668624 0.600703 -0.094203
0.671028 0.597012 -0.093841
0.672956 0.592641 -0.093350
0.679419 0.595630 -0.094165
0.683457 0.594743 -0.094280
0.687725 0.594266 -0.094459
0.692855 0.595174 -0.094878
0.693264 0.588850 -0.093984
0.690503 0.577873 -0.092234
0.703040 0.590230 -0.094688
0.704910 0.586481 -0.094218
0.702703 0.576828 -0.092661
-0.121658 0.599590 -0.073402
-0.117462 0.598337 -0.073300
-0.114004 0.598723 -0.073433
-0.110865 0.599899 -0.073674
-0.107453 0.600611 -0.073836
-0.104180 0.601735 -0.074050
-0.099709 0.600329 -0.073877
-0.096150 0.601002 -0.074006
-0.092824 0.602289 -0.074219
-0.088893 0.602290 -0.074232
-0.085091 0.602642 -0.074290
-0.081925 0.604546 -0.074575
-0.076592 0.601386 -0.074096
-0.072477 0.601110 -0.074043
-0.068751 0.601799 -0.074131
-0.064962 0.602365 -0.074196
-0.061478 0.603724 -0.074377
-0.057804 0.604637 -0.074488
-0.053874 0.604914 -0.074502
-0.050146 0.605713 -0.074593
-0.046491 0.606718 -0.074713
-0.041446 0.603980 -0.074273
-0.037147 0.603176 -0.074121
-0.033352 0.603713 -0.074170
-0.028439 0.601080 -0.073747
-0.026418 0.606610 -0.074543
-0.022052 0.605448 -0.074340
-0.018180 0.605666 -0.074345
-0.014543 0.606548 -0.074451
-0.010628 0.606560 -0.074429
-0.007917 0.610257 -0.074958
-0.004984 0.613322 -0.075394
0.002292 0.602503 -0.073763
0.006076 0.602654 -0.073769
0.009768 0.603058 -0.073816
0.013291 0.603988 -0.073943
0.017197 0.603580 -0.073874
0.020664 0.604635 -0.074025
0.024178 0.605506 -0.074151
0.028214 0.604453 -0.073994
0.032390 0.602785 -0.073747
0.036485 0.601298 -0.073529
0.039979 0.602011 -0.073643
0.043351 0.603175 -0.073826
0.047003 0.603206 -0.073842
0.049025 0.609842 -0.074846
0.052279 0.611564 -0.075121
0.058387 0.601152 -0.073588
0.061198 0.604576 -0.074121
0.063758 0.609213 -0.074838
0.067489 0.608685 -0.074786
0.071691 0.605898 -0.074400
0.075459 0.604991 -0.074297
0.079490 0.602711 -0.073991
0.083107 0.602336 -0.073972
0.086732 0.601853 -0.073938
0.090279 0.601709 -0.073958
0.093043 0.605720 -0.074601
0.095739 0.610274 -0.075328
0.098567 0.614289 -0.075977
0.102438 0.612404 -0.075745
0.107313 0.604354 -0.074591
0.111286 0.601351 -0.074194
0.114636 0.602090 -0.074361
0.118109 0.602028 -0.074409
0.121440 0.602889 -0.074597
0.124107 0.608413 -0.075488
0.127475 0.609211 -0.075671
0.131272 0.606824 -0.075377
0.134642 0.607532 -0.075550
0.138781 0.602073 -0.074796
0.142120 0.602853 -0.074982
0.145364 0.604495 -0.075300
0.148700 0.605407 -0.075510
0.152044 0.606308 -0.075720
0.155680 0.604355 -0.075501
0.159459 0.600691 -0.075023
0.162639 0.603204 -0.075481
0.166090 0.602834 -0.075504
0.169475 0.603207 -0.075641
0.172811 0.604232 -0.075878
0.176271 0.603677 -0.075877
0.179754 0.602677 -0.075810
0.183245 0.601377 -0.075697
0.186410 0.605475 -0.076406
0.189852 0.605089 -0.076435
0.193336 0.603759 -0.076321
0.196854 0.601388 -0.076049
0.200258 0.601346 -0.076133
0.203612 0.602696 -0.076431
0.207032 0.602302 -0.076463
0.210469 0.601140 -0.076378
0.213851 0.602072 -0.076615
0.217268 0.601423 -0.076610
0.220646 0.603750 -0.077063
0.224052 0.605251 -0.077390
0.227482 0.602401 -0.077050
0.230889 0.600590 -0.076870
0.234291 0.600219 -0.076912
0.237687 0.599566 -0.076911
0.241071 0.598450 -0.076839
0.244590 0.604046 -0.077803
0.248109 0.607566 -0.078449
0.251524 0.606602 -0.078403
0.254931 0.605629 -0.078357
0.258255 0.602759 -0.078017
0.261635 0.601718 -0.077960
0.265039 0.601300 -0.078001
0.268488 0.601732 -0.078174
0.271922 0.601816 -0.078294
0.275342 0.601635 -0.078373
0.278738 0.601102 -0.078398
0.282114 0.600320 -0.078385
0.285565 0.600567 -0.078532
0.289012 0.600714 -0.078665
0.292409 0.600241 -0.078702
0.295843 0.600183 -0.078804
0.299304 0.600383 -0.078947
0.303010 0.602942 -0.079461
0.306871 0.606709 -0.080166
0.311124 0.613649 -0.081372
0.313056 0.599980 -0.079338
0.316443 0.599412 -0.079364
0.319980 0.600062 -0.079583
0.323620 0.601426 -0.079915
0.327167 0.601975 -0.080120
0.330415 0.600326 -0.079978
0.334513 0.604638 -0.080780
0.337932 0.604109 -0.080817
0.341229 0.602790 -0.080730
0.344611 0.602068 -0.080738
0.348505 0.604482 -0.081245
0.352188 0.605481 -0.081529
0.356163 0.608085 -0.082070
0.359314 0.605903 -0.081849
0.361705 0.599663 -0.080981
0.365136 0.599251 -0.081044
0.369357 0.602925 -0.081761
0.371625 0.596521 -0.080866
0.375249 0.597090 -0.081088
0.379466 0.600467 -0.081763
0.383485 0.602723 -0.082260
0.387489 0.604789 -0.082729
0.390293 0.601333 -0.082310
0.392622 0.595904 -0.081573
0.397008 0.599550 -0.082301
0.401373 0.602924 -0.082988
0.404762 0.602102 -0.082999
0.407763 0.599708 -0.082756
0.411192 0.599078 -0.082800
0.414939 0.599684 -0.083047
0.418535 0.599659 -0.083193
0.423685 0.605432 -0.084285
0.428931 0.611315 -0.085400
0.432331 0.610284 -0.085389
0.432890 0.599168 -0.083732
0.436270 0.598248 -0.083741
0.439843 0.597989 -0.083860
0.443911 0.599376 -0.084252
0.447264 0.598311 -0.084243
0.449531 0.593707 -0.083654
0.456501 0.604290 -0.085569
0.461418 0.608022 -0.086361
0.464415 0.605642 -0.086146
0.468737 0.607348 -0.086609
0.471864 0.605367 -0.086464
0.473050 0.597662 -0.085370
0.477820 0.600601 -0.086047
0.481848 0.601279 -0.086351
0.485039 0.599526 -0.086253
0.487635 0.596130 -0.085881
0.490905 0.594635 -0.085830
0.499637 0.607930 -0.088263
0.500917 0.600915 -0.087293
0.503665 0.597916 -0.086999
0.507069 0.596656 -0.087000
0.512175 0.599740 -0.087737
0.517732 0.603830 -0.088651
0.521897 0.604296 -0.088956
0.524779 0.601550 -0.088720
0.528527 0.600927 -0.088847
0.529895 0.594580 -0.088001
0.535471 0.598275 -0.088871
0.540128 0.599684 -0.089357
0.544009 0.599223 -0.089527
0.547956 0.598869 -0.089719
0.552365 0.599510 -0.090086
0.553577 0.593008 -0.089225
0.559607 0.597138 -0.090202
0.563716 0.596970 -0.090442
0.567928 0.596973 -0.090716
0.572318 0.597293 -0.091049
0.579313 0.602965 -0.092320
0.582882 0.601416 -0.092337
0.584120 0.595124 -0.091525
0.588320 0.594864 -0.091772
0.594344 0.598168 -0.092650
0.598757 0.598191 -0.092956
0.603192 0.598207 -0.093263
0.611195 0.604989 -0.094774
0.612635 0.599180 -0.094054
0.618858 0.602381 -0.094939
0.621506 0.598875 -0.094629
0.627952 0.602333 -0.095566
0.631631 0.600688 -0.095591
0.631808 0.592808 -0.094493
0.638959 0.597360 -0.095631
0.644696 0.599324 -0.096305
0.646552 0.594536 -0.095756
0.651709 0.595461 -0.096238
0.656967 0.596525 -0.096745
0.662728 0.598398 -0.097396
0.668296 0.599915 -0.097980
0.673317 0.600514 -0.098391
0.673323 0.593011 -0.097307
0.679673 0.595823 -0.098111
0.683427 0.594497 -0.098145
0.689631 0.597068 -0.098890
0.691902 0.593525 -0.098494
0.692995 0.588286 -0.097770
0.695853 0.585884 -0.097558
0.702465 0.589245 -0.098407
0.706378 0.588574 -0.098492
0.712919 0.591875 -0.099305
-0.121760 0.599458 -0.076994
-0.116890 0.596775 -0.076669
-0.113702 0.597689 -0.076887
-0.110595 0.598901 -0.077141
-0.107521 0.600306 -0.077415
-0.104172 0.601240 -0.077606
-0.101527 0.603833 -0.078045
-0.095903 0.599923 -0.077468
-0.092440 0.600867 -0.077634
-0.088970 0.601887 -0.077803
-0.085366 0.602677 -0.077930
-0.082133 0.604410 -0.078196
-0.078638 0.605605 -0.078373
-0.073634 0.603234 -0.077992
-0.068736 0.601083 -0.077641
-0.065129 0.602085 -0.077773
-0.061701 0.603572 -0.077977
-0.058220 0.604970 -0.078164
-0.054479 0.605734 -0.078251
-0.050442 0.605737 -0.078218
-0.046313 0.605481 -0.078144
-0.042367 0.605691 -0.078141
-0.037757 0.604066 -0.077855
-0.032066 0.599361 -0.077093
-0.028536 0.600563 -0.077243
-0.026281 0.605416 -0.077958
-0.021627 0.603407 -0.077614
-0.017223 0.602028 -0.077370
-0.014355 0.605168 -0.077823
-0.010685 0.605911 -0.077909
-0.007910 0.609404 -0.078420
-0.005129 0.612945 -0.078940
0.002366 0.601439 -0.077145
0.005724 0.602971 -0.077361
0.009408 0.603421 -0.077412
0.013235 0.603345 -0.077385
0.016593 0.604821 -0.077600
0.020406 0.604698 -0.077570
0.024320 0.604158 -0.077480
0.028063 0.604160 -0.077475
0.032056 0.603179 -0.077322
0.036302 0.601146 -0.077010
0.040074 0.600802 -0.076961
0.044128 0.599282 -0.076733
0.047966 0.598509 -0.076623
0.050611 0.602512 -0.077250
0.053295 0.606466 -0.077873
0.056846 0.606849 -0.077948
0.061082 0.604219 -0.077563
0.063734 0.608452 -0.078237
0.066910 0.610438 -0.078568
0.071500 0.605910 -0.077897
0.075178 0.605447 -0.077856
0.079260 0.602945 -0.077502
0.082899 0.602485 -0.077466
0.086459 0.602356 -0.077482
0.089927 0.602652 -0.077567
0.093026 0.604901 -0.077956
0.095463 0.610874 -0.078922
0.098122 0.615873 -0.079740
0.101215 0.618579 -0.080207
0.107382 0.602996 -0.077849
0.110602 0.604618 -0.078152
0.114605 0.601325 -0.077696
0.118140 0.600854 -0.077679
0.121597 0.600839 -0.077735
0.124207 0.606702 -0.078703
0.127633 0.607044 -0.078818
0.131012 0.607720 -0.078986
0.134991 0.603766 -0.078438
0.138420 0.603899 -0.078525
0.141845 0.604051 -0.078618
0.145023 0.606328 -0.079042
0.148340 0.607520 -0.079299
0.151853 0.606919 -0.079279
0.155514 0.604771 -0.079020
0.159189 0.602241 -0.078701
0.162846 0.599629 -0.078371
0.166032 0.602147 -0.078843
0.169398 0.602734 -0.079015
0.172601 0.605484 -0.079526
0.176072 0.604870 -0.079513
0.179442 0.605652 -0.079720
0.182999 0.603559 -0.079477
0.186400 0.603801 -0.079602
0.189731 0.605383 -0.079938
0.193252 0.603375 -0.079711
0.196693 0.602722 -0.079698
0.200127 0.602114 -0.079693
0.203493 0.603275 -0.079968
0.206905 0.603280 -0.080061
0.210348 0.602094 -0.079968
0.213754 0.602176 -0.080075
0.217127 0.604404 -0.080523
0.220510 0.607612 -0.081127
0.223954 0.606409 -0.081034
0.227396 0.601173 -0.080304
0.230805 0.601668 -0.080481
0.234203 0.599927 -0.080304
0.237600 0.599323 -0.080309
0.240964 0.596994 -0.080039
0.244466 0.602115 -0.080955
0.247949 0.604600 -0.081454
0.251471 0.607508 -0.082021
0.254802 0.604227 -0.081603
0.258176 0.602727 -0.081469
0.261533 0.601136 -0.081321
0.264920 0.600414 -0.081311
0.268395 0.601392 -0.081575
0.271847 0.601791 -0.081747
0.275268 0.601607 -0.081826
0.278631 0.600571 -0.081769
0.282063 0.600573 -0.081879
0.285505 0.600683 -0.082007
0.288926 0.600482 -0.082086
0.292353 0.600348 -0.082176
0.295714 0.599488 -0.082150
0.299211 0.600082 -0.082359
0.302563 0.599170 -0.082326
0.306230 0.601269 -0.082780
0.310706 0.610440 -0.084381
0.313029 0.600253 -0.082848
0.316575 0.600985 -0.083084
0.320100 0.601470 -0.083280
0.323648 0.602062 -0.083496
0.327035 0.601399 -0.083508
0.330447 0.600935 -0.083553
0.334119 0.602273 -0.083892
0.337373 0.600701 -0.083758
0.340809 0.600385 -0.083830
0.344310 0.600471 -0.083968
0.347845 0.600733 -0.084136
0.351355 0.600810 -0.084275
0.354941 0.601296 -0.084482
0.359009 0.604430 -0.085126
0.361980 0.601384 -0.084755
0.364949 0.598458 -0.084404
0.368290 0.597588 -0.084392
0.372206 0.599640 -0.084863
0.375542 0.598702 -0.084842
0.379243 0.599541 -0.085116
0.383885 0.604751 -0.086116
0.387046 0.602879 -0.085945
0.390023 0.600238 -0.085647
0.393257 0.598813 -0.085551
0.397061 0.599878 -0.085871
0.402053 0.605884 -0.087016
0.404360 0.600516 -0.086268
0.407252 0.597704 -0.085947
0.412272 0.603426 -0.087052
0.415535 0.602054 -0.086975
0.418269 0.598682 -0.086563
0.421720 0.598095 -0.086620
0.427538 0.606208 -0.088140
0.431288 0.606524 -0.088354
0.433474 0.601245 -0.087627
0.436320 0.598418 -0.087315
0.439725 0.597572 -0.087337
0.443375 0.597547 -0.087501
0.447117 0.597792 -0.087712
0.450713 0.597519 -0.087839
0.456604 0.604572 -0.089212
0.461282 0.607539 -0.089896
0.464067 0.604499 -0.089561
0.466425 0.600217 -0.089016
0.469281 0.597523 -0.088742
0.473843 0.599923 -0.089342
0.477628 0.599945 -0.089538
0.481936 0.601427 -0.089989
0.485391 0.600411 -0.090013
0.492713 0.610160 -0.091895
0.497068 0.611433 -0.092323
0.499214 0.606649 -0.091708
0.501008 0.601015 -0.090948
0.503866 0.598296 -0.090693
0.506944 0.596174 -0.090543
0.512547 0.600526 -0.091523
0.518157 0.604727 -0.092483
0.522542 0.605718 -0.092888
0.525916 0.604152 -0.092851
0.528693 0.601132 -0.092563
0.531796 0.598920 -0.092418
0.534751 0.596368 -0.092216
0.541002 0.601504 -0.093372
0.546091 0.603782 -0.094031
0.550220 0.603776 -0.094291
0.552662 0.599936 -0.093876
0.555931 0.597971 -0.093796
0.559476 0.596605 -0.093825
0.563596 0.596456 -0.094075
0.568061 0.596993 -0.094452
0.572606 0.597633 -0.094852
0.581031 0.606259 -0.096691
0.584663 0.604789 -0.096724
0.586496 0.599657 -0.096099
0.589169 0.596279 -0.095790
0.593494 0.596197 -0.096080
0.598168 0.596747 -0.096489
0.603597 0.598694 -0.097156
0.608534 0.599608 -0.097640
0.614612 0.602607 -0.098509
0.617214 0.599012 -0.098173
0.625001 0.605014 -0.099601
0.630142 0.606019 -0.100115
0.632233 0.601470 -0.099604
0.634319 0.596985 -0.099102
0.638102 0.595557 -0.099163
0.642261 0.594792 -0.099346
0.648233 0.597146 -0.100110
0.650860 0.593735 -0.099794
0.654211 0.591609 -0.099714
0.660453 0.594343 -0.100542
0.665474 0.595006 -0.100978
0.669600 0.594204 -0.101132
0.674092 0.594022 -0.101396
0.678154 0.593178 -0.101527
0.681981 0.592006 -0.101586
0.687096 0.592907 -0.102030
0.692366 0.594073 -0.102515
0.692901 0.587987 -0.101603
0.696734 0.587089 -0.101669
0.702149 0.588650 -0.102192
0.708099 0.591046 -0.102864
0.709469 0.586687 -0.102223
-0.122750 0.601163 -0.080879
-0.116950 0.596535 -0.080234
-0.113734 0.597363 -0.080446
-0.111090 0.599531 -0.080860
-0.107562 0.599944 -0.080984
-0.104193 0.600806 -0.081170
-0.101442 0.603139 -0.081580
-0.097454 0.602847 -0.081562
-0.092772 0.601060 -0.081296
-0.089326 0.602117 -0.081476
-0.085673 0.602782 -0.081585
-0.082059 0.603605 -0.081713
-0.077966 0.603357 -0.081663
-0.074382 0.604361 -0.081807
-0.070284 0.604167 -0.081755
-0.065904 0.603293 -0.081590
-0.062069 0.603771 -0.081637
-0.058309 0.604458 -0.081714
-0.054233 0.604349 -0.081662
-0.049858 0.603448 -0.081481
-0.045990 0.603850 -0.081506
-0.042383 0.604945 -0.081642
-0.038615 0.605613 -0.081708
-0.033238 0.601811 -0.081062
-0.029076 0.601278 -0.080938
-0.026466 0.605126 -0.081511
-0.022739 0.605814 -0.081582
-0.018458 0.604845 -0.081391
-0.014844 0.605798 -0.081508
-0.011515 0.607602 -0.081761
-0.008555 0.610556 -0.082199
-0.005181 0.612254 -0.082439
0.001604 0.603037 -0.080947
0.005421 0.603113 -0.080934
0.008815 0.604534 -0.081138
0.012724 0.604216 -0.081067
0.016729 0.603497 -0.080936
0.020704 0.602802 -0.080812
0.024284 0.603427 -0.080899
0.028061 0.603305 -0.080871
0.031896 0.602907 -0.080802
0.035916 0.601741 -0.080614
0.039873 0.600713 -0.080450
0.044175 0.598238 -0.080060
0.048333 0.596180 -0.079739
0.050802 0.600863 -0.080490
0.052661 0.608227 -0.081670
0.056895 0.605762 -0.081293
0.060594 0.605456 -0.081260
0.063454 0.608801 -0.081811
0.067167 0.608382 -0.081766
0.071380 0.605572 -0.081345
0.075135 0.604751 -0.081241
0.079094 0.602855 -0.080970
0.082579 0.603173 -0.081052
0.086247 0.602527 -0.080984
0.090059 0.601046 -0.080785
0.093354 0.602217 -0.081011
0.095806 0.608048 -0.081981
0.098175 0.614617 -0.083071
0.101701 0.614785 -0.083145
0.106784 0.605618 -0.081733
0.110888 0.601889 -0.081189
0.114013 0.604104 -0.081595
0.118319 0.598692 -0.080786
0.121824 0.598304 -0.080780
0.125001 0.600140 -0.081131
0.127798 0.604811 -0.081938
0.131054 0.606345 -0.082246
0.134690 0.605016 -0.082098
0.138233 0.604302 -0.082049
0.141161 0.608638 -0.082812
0.144957 0.605749 -0.082419
0.149040 0.599983 -0.081565
0.151971 0.604591 -0.082377
0.155370 0.604958 -0.082510
0.159158 0.601292 -0.081997
0.162769 0.599152 -0.081729
0.166033 0.600767 -0.082067
0.169301 0.602491 -0.082425
0.172565 0.604456 -0.082822
0.175822 0.606742 -0.083274
0.179252 0.606802 -0.083368
0.182906 0.603300 -0.082888
0.186291 0.603814 -0.083057
0.189680 0.604337 -0.083230
0.193111 0.604091 -0.083279
0.196568 0.603217 -0.083227
0.199991 0.602979 -0.083280
0.203386 0.603478 -0.083453
0.206810 0.603170 -0.083496
0.210281 0.600960 -0.083231
0.213657 0.602292 -0.083542
0.217014 0.605582 -0.084174
0.220406 0.608547 -0.084754
0.223849 0.608268 -0.084807
0.227298 0.604838 -0.084347
0.230714 0.600738 -0.083778
0.234111 0.599220 -0.083630
0.237512 0.599123 -0.083715
0.240911 0.598862 -0.083774
0.244330 0.599626 -0.084001
0.247923 0.606748 -0.085272
0.251400 0.607861 -0.085560
0.254763 0.605386 -0.085260
0.258041 0.601322 -0.084698
0.261399 0.599874 -0.084567
0.264863 0.600786 -0.084824
0.268304 0.601088 -0.084982
0.271768 0.601690 -0.085190
0.275152 0.600921 -0.085173
0.278626 0.601530 -0.085384
0.282180 0.603125 -0.085759
0.285577 0.602477 -0.085764
0.289008 0.602298 -0.085847
0.292501 0.602807 -0.086045
0.295701 0.600047 -0.085701
0.298955 0.598099 -0.085492
0.302353 0.597718 -0.085544
0.306273 0.602248 -0.086415
0.310525 0.609352 -0.087716
0.313083 0.601232 -0.086481
0.316468 0.600580 -0.086491
0.320006 0.601166 -0.086709
0.323479 0.601186 -0.086832
0.326888 0.600710 -0.086874
0.330186 0.599440 -0.086784
0.333695 0.599692 -0.086949
0.337093 0.599163 -0.086984
0.340086 0.596009 -0.086579
0.344012 0.598893 -0.087190
0.347355 0.598018 -0.087169
0.349920 0.592557 -0.086376
0.353773 0.594802 -0.086883
0.358813 0.603558 -0.088493
0.362430 0.604054 -0.088709
0.365812 0.603250 -0.088707
0.368852 0.600685 -0.088406
0.372751 0.602566 -0.088861
0.376388 0.603040 -0.089079
0.380060 0.603630 -0.089318
0.382914 0.600315 -0.088894
0.386608 0.600987 -0.089149
0.389791 0.599309 -0.089005
0.393570 0.600294 -0.089318
0.397469 0.601729 -0.089709
0.401140 0.602114 -0.089923
0.404985 0.603173 -0.090255
0.408356 0.602239 -0.090246
0.412013 0.602450 -0.090435
0.416335 0.605212 -0.091066
0.419779 0.604486 -0.091099
0.420749 0.594473 -0.089529
0.426404 0.602049 -0.090999
0.430866 0.605004 -0.091674
0.433420 0.601047 -0.091154
0.436395 0.598666 -0.090908
0.439675 0.597380 -0.090855
0.443360 0.597466 -0.091041
0.447442 0.598831 -0.091453
0.451061 0.598606 -0.091591
0.454498 0.597768 -0.091624
0.460351 0.604540 -0.092992
0.463177 0.601667 -0.092675
0.465123 0.596160 -0.091897
0.469667 0.598593 -0.092515
0.473986 0.600248 -0.093001
0.478546 0.602514 -0.093598
0.482061 0.601671 -0.093651
0.486862 0.604449 -0.094347
0.489863 0.602088 -0.094137
0.497340 0.612041 -0.096115
0.498675 0.605043 -0.095089
0.503145 0.606561 -0.095579
0.504626 0.600132 -0.094656
0.508152 0.599139 -0.094704
0.513274 0.602206 -0.095483
0.518540 0.605506 -0.096309
0.522892 0.606394 -0.096708
0.526068 0.604323 -0.096579
0.530112 0.604360 -0.096833
0.532579 0.600578 -0.096401
0.536874 0.601152 -0.096759
0.541364 0.602115 -0.097193
0.546548 0.604594 -0.097907
0.550816 0.604882 -0.098229
0.555012 0.604948 -0.098515
0.555494 0.596749 -0.097294
0.559253 0.595856 -0.097410
0.563091 0.595100 -0.097555
0.567885 0.596344 -0.098072
0.572471 0.597068 -0.098499
0.578953 0.601656 -0.099645
0.583701 0.602524 -0.100109
0.586917 0.600215 -0.099989
0.589709 0.597061 -0.099713
0.593513 0.595930 -0.099816
0.598832 0.597737 -0.100471
0.602450 0.596170 -0.100498
0.606489 0.595396 -0.100677
0.610712 0.594940 -0.100917
0.613921 0.592562 -0.100797
0.617724 0.591293 -0.100886
0.621693 0.590318 -0.101031
0.629490 0.596220 -0.102486
0.633978 0.596068 -0.102791
0.638119 0.595282 -0.102975
0.642766 0.595370 -0.103325
0.646899 0.594554 -0.103500
0.651241 0.594098 -0.103741
0.656299 0.594847 -0.104211
0.661756 0.596244 -0.104803
0.665709 0.595134 -0.104905
0.669401 0.593631 -0.104924
0.673401 0.592671 -0.105041
0.677967 0.592657 -0.105333
0.683623 0.594397 -0.105959
0.688779 0.595354 -0.106423
0.692025 0.593370 -0.106300
0.695069 0.591164 -0.106120
0.697928 0.588769 -0.105889
0.703853 0.591101 -0.106575
0.707626 0.590242 -0.106618
0.712059 0.590443 -0.106856
-0.117221 0.589422 -0.082575
-0.117157 0.596605 -0.083849
-0.114503 0.598592 -0.084258
-0.111635 0.600270 -0.084606
-0.107121 0.598545 -0.084382
-0.104346 0.600660 -0.084779
-0.100620 0.600818 -0.084844
-0.097978 0.603478 -0.085311
-0.093886 0.603010 -0.085254
-0.088981 0.600742 -0.084890
-0.085462 0.601681 -0.085047
-0.082168 0.603224 -0.085297
-0.078329 0.603559 -0.085340
-0.074205 0.603257 -0.085272
-0.070730 0.604555 -0.085462
-0.067179 0.605720 -0.085626
-0.062738 0.604709 -0.085427
-0.058275 0.603621 -0.085212
-0.054205 0.603510 -0.085155
-0.050460 0.604240 -0.085234
-0.046274 0.603813 -0.085121
-0.042522 0.604518 -0.085193
-0.038508 0.604510 -0.085148
-0.034246 0.603785 -0.084984
-0.029647 0.602060 -0.084656
-0.025577 0.601753 -0.084563
-0.022607 0.604591 -0.084985
-0.019425 0.606848 -0.085314
-0.016576 0.610131 -0.085812
-0.012039 0.608338 -0.085480
-0.008514 0.609563 -0.085644
-0.004326 0.608696 -0.085468
0.001143 0.603647 -0.084609
0.004806 0.604245 -0.084678
0.008911 0.603345 -0.084504
0.012710 0.603390 -0.084487
0.016712 0.602683 -0.084350
0.020792 0.601620 -0.084158
0.024576 0.601511 -0.084124
0.027754 0.603537 -0.084443
0.032480 0.599871 -0.083834
0.035837 0.601156 -0.084037
0.039627 0.600775 -0.083970
0.044098 0.597658 -0.083460
0.047468 0.598751 -0.083640
0.050071 0.602950 -0.084332
0.051958 0.610247 -0.085533
0.055948 0.608877 -0.085319
0.059852 0.607770 -0.085152
0.063881 0.606005 -0.084880
0.067423 0.606311 -0.084949
0.071116 0.605884 -0.084901
0.075076 0.604119 -0.084636
0.078658 0.604050 -0.084652
0.082158 0.604342 -0.084730
0.085886 0.603435 -0.084613
0.090145 0.599667 -0.084031
0.093217 0.602011 -0.084452
0.096097 0.605489 -0.085062
0.098468 0.611988 -0.086170
0.101750 0.613524 -0.086467
0.106515 0.606242 -0.085319
0.110228 0.604962 -0.085158
0.114452 0.600325 -0.084447
0.118187 0.598550 -0.084208
0.121825 0.597282 -0.084055
0.124863 0.600067 -0.084570
0.127327 0.607145 -0.085794
0.130347 0.610540 -0.086414
0.134254 0.607290 -0.085942
0.137683 0.607603 -0.086059
0.141176 0.607365 -0.086087
0.145170 0.602730 -0.085391
0.148710 0.601785 -0.085305
0.151944 0.603622 -0.085681
0.155142 0.605951 -0.086139
0.159088 0.600719 -0.085349
0.162814 0.597318 -0.084863
0.166173 0.597768 -0.085015
0.169524 0.598330 -0.085187
0.172752 0.600529 -0.085632
0.175880 0.604363 -0.086351
0.179057 0.607995 -0.087038
0.182685 0.605020 -0.086629
0.186154 0.604277 -0.086592
0.189554 0.604683 -0.086748
0.193011 0.603970 -0.086718
0.196498 0.602447 -0.086554
0.199905 0.602572 -0.086666
0.203294 0.603222 -0.086867
0.206783 0.600818 -0.086559
0.210196 0.600485 -0.086597
0.213571 0.601805 -0.086913
0.216932 0.604749 -0.087502
0.220331 0.606904 -0.087961
0.223767 0.606796 -0.088042
0.227204 0.606261 -0.088052
0.230634 0.604723 -0.087895
0.234076 0.606728 -0.088333
0.237535 0.608410 -0.088719
0.240893 0.602952 -0.087904
0.244361 0.605039 -0.088359
0.247846 0.606986 -0.088793
0.251323 0.607990 -0.089068
0.254718 0.606388 -0.088905
0.258193 0.607086 -0.089131
0.261489 0.603601 -0.088649
0.265232 0.609789 -0.089807
0.268413 0.604473 -0.089015
0.271764 0.602881 -0.088856
0.275202 0.602841 -0.088960
0.278591 0.602060 -0.088939
0.282277 0.605421 -0.089624
0.285725 0.605273 -0.089713
0.289258 0.606145 -0.089976
0.292692 0.605753 -0.090025
0.295779 0.601603 -0.089432
0.298937 0.598565 -0.089029
0.302438 0.599166 -0.089248
0.306429 0.604295 -0.090245
0.310302 0.607891 -0.090981
0.313205 0.602787 -0.090226
0.316394 0.600436 -0.089943
0.319760 0.599652 -0.089929
0.323229 0.599687 -0.090057
0.326622 0.599134 -0.090085
0.330175 0.599732 -0.090312
0.333824 0.600935 -0.090645
0.336633 0.596407 -0.089988
0.340415 0.598448 -0.090468
0.343650 0.596904 -0.090329
0.347092 0.596687 -0.090420
0.349711 0.591570 -0.089661
0.353935 0.595975 -0.090557
0.358060 0.599559 -0.091312
0.362420 0.604214 -0.092257
0.365987 0.604376 -0.092421
0.369243 0.602896 -0.092300
0.373151 0.604758 -0.092764
0.376897 0.605708 -0.093070
0.379331 0.600261 -0.092258
0.382190 0.597036 -0.091835
0.386569 0.600929 -0.092662
0.390207 0.601288 -0.092870
0.393465 0.599929 -0.092778
0.397327 0.601201 -0.093151
0.401012 0.601648 -0.093380
0.404623 0.601740 -0.093549
0.408638 0.603439 -0.094004
0.412790 0.605582 -0.094540
0.417223 0.608708 -0.095253
0.420954 0.609001 -0.095467
0.424085 0.607004 -0.095276
0.427348 0.605530 -0.095180
0.430453 0.603510 -0.094988
0.433317 0.600671 -0.094652
0.436208 0.597993 -0.094345
0.439715 0.597487 -0.094428
0.443531 0.598001 -0.094696
0.447559 0.599168 -0.095084
0.450778 0.597626 -0.094988
0.454870 0.598896 -0.095400
0.459364 0.601352 -0.096029
0.462435 0.599281 -0.095846
0.465509 0.597246 -0.095672
0.469804 0.598905 -0.096167
0.474134 0.600579 -0.096669
0.477628 0.599723 -0.096717
0.484924 0.609765 -0.098747
0.490388 0.614283 -0.099781
0.489519 0.600988 -0.097575
0.493524 0.601414 -0.097870
0.500549 0.609954 -0.099652
0.502819 0.605527 -0.099068
0.506012 0.603604 -0.098945
0.508731 0.600458 -0.098599
0.513710 0.603131 -0.099327
0.518730 0.605788 -0.100058
0.522107 0.604237 -0.100017
0.525434 0.602556 -0.099956
0.529702 0.603148 -0.100319
0.533588 0.602760 -0.100505
0.536049 0.598974 -0.100062
0.539985 0.598665 -0.100270
0.543832 0.598110 -0.100436
0.547815 0.597823 -0.100657
0.551523 0.596876 -0.100758
0.557633 0.601207 -0.101855
0.559142 0.595338 -0.101038
0.563092 0.594821 -0.101232
0.567853 0.595991 -0.101750
0.571980 0.595744 -0.102004
0.576716 0.596715 -0.102493
0.581378 0.597458 -0.102945
0.585284 0.596600 -0.103095
0.589052 0.595434 -0.103191
0.593175 0.594947 -0.103419
0.597391 0.594605 -0.103678
0.602038 0.595055 -0.104093
0.606086 0.594302 -0.104280
0.611497 0.596094 -0.104961
0.615593 0.595352 -0.105154
0.619202 0.593691 -0.105170
0.624660 0.595395 -0.105842
0.629194 0.595364 -0.106178
0.633513 0.594923 -0.106433
0.638615 0.595840 -0.106955
0.642813 0.595143 -0.107158
0.647077 0.594558 -0.107381
0.651780 0.594719 -0.107749
0.656451 0.594817 -0.108101
0.661763 0.595977 -0.108659
0.665693 0.594841 -0.108756
0.669370 0.593326 -0.108769
0.673718 0.592942 -0.109001
0.680724 0.596836 -0.110081
0.685005 0.596373 -0.110280
0.689050 0.595584 -0.110402
0.693231 0.595065 -0.110566
0.695623 0.591857 -0.110174
0.698294 0.589190 -0.109876
0.702867 0.589498 -0.110166
0.707196 0.589503 -0.110379
0.717923 0.599049 -0.112518
-0.120371 0.595596 -0.087185
-0.117331 0.596610 -0.087455
-0.114955 0.599156 -0.087972
-0.111295 0.599129 -0.088041
-0.107858 0.599683 -0.088198
-0.103801 0.598997 -0.088132
-0.101138 0.601451 -0.088589
-0.097162 0.601125 -0.088563
-0.092602 0.599553 -0.088316
-0.089041 0.600288 -0.088451
-0.085941 0.602170 -0.088773
-0.082582 0.603550 -0.089001
-0.076808 0.599291 -0.088264
-0.074373 0.602973 -0.088870
-0.071159 0.604888 -0.089169
-0.067728 0.606345 -0.089385
-0.063343 0.605475 -0.089202
-0.059248 0.605324 -0.089137
-0.055010 0.604804 -0.089007
-0.051132 0.605200 -0.089029
-0.046758 0.604289 -0.088828
-0.042654 0.604058 -0.088742
-0.038255 0.602994 -0.088513
-0.034107 0.602568 -0.088392
-0.029219 0.600018 -0.087912
-0.024692 0.598384 -0.087588
-0.020918 0.598839 -0.087618
-0.017917 0.601545 -0.088030
-0.016684 0.609579 -0.089342
-0.014931 0.616247 -0.090424
-0.008126 0.607482 -0.088904
-0.004569 0.608572 -0.089049
-0.001402 0.610892 -0.089403
0.002032 0.612371 -0.089619
0.005861 0.612537 -0.089615
0.011733 0.605784 -0.088448
0.015127 0.607215 -0.088664
0.018476 0.608798 -0.088907
0.022915 0.606513 -0.088503
0.026671 0.606557 -0.088493
0.029505 0.609939 -0.089049
0.031281 0.617365 -0.090288
0.035321 0.616355 -0.090111
0.041407 0.607265 -0.088575
0.046181 0.602975 -0.087851
0.049867 0.602873 -0.087835
0.052743 0.606072 -0.088379
0.055555 0.609623 -0.088984
0.059922 0.606544 -0.088476
0.063521 0.606673 -0.088511
0.067229 0.606262 -0.088458
0.070848 0.606192 -0.088465
0.075250 0.602365 -0.087842
0.078531 0.603732 -0.088097
0.081945 0.604457 -0.088246
0.085530 0.604301 -0.088250
0.089397 0.602620 -0.087999
0.093455 0.599781 -0.087555
0.096352 0.603124 -0.088156
0.099428 0.605592 -0.088613
0.101812 0.612168 -0.089766
0.105464 0.611512 -0.089701
0.109194 0.610302 -0.089544
0.113146 0.607575 -0.089133
0.116808 0.606525 -0.089007
0.121015 0.601700 -0.088245
0.123983 0.605139 -0.088883
0.126875 0.609319 -0.089649
0.130054 0.611619 -0.090099
0.133954 0.608490 -0.089632
0.137909 0.604649 -0.089045
0.141497 0.603529 -0.088921
0.144920 0.603721 -0.089021
0.148279 0.604474 -0.089218
0.151392 0.607586 -0.089819
0.155061 0.605466 -0.089532
0.158841 0.601968 -0.089011
0.162459 0.599846 -0.088726
0.166004 0.598301 -0.088540
0.169364 0.598814 -0.088706
0.172541 0.601724 -0.089283
0.175652 0.605881 -0.090075
0.178899 0.608612 -0.090625
0.182341 0.608667 -0.090720
0.185966 0.605587 -0.090280
0.189412 0.605273 -0.090315
0.192907 0.603901 -0.090169
0.196382 0.602696 -0.090052
0.199860 0.601096 -0.089869
0.203272 0.600965 -0.089939
0.206686 0.600695 -0.089986
0.210125 0.599389 -0.089856
0.213446 0.603073 -0.090585
0.216811 0.606253 -0.091230
0.220217 0.608550 -0.091724
0.223673 0.606911 -0.091541
0.227113 0.606073 -0.091497
0.230547 0.605846 -0.091559
0.234000 0.608602 -0.092138
0.237470 0.610388 -0.092551
0.240966 0.612701 -0.093056
0.244329 0.607569 -0.092273
0.247743 0.606233 -0.092147
0.251192 0.606380 -0.092280
0.254655 0.606865 -0.092472
0.257908 0.601941 -0.091724
0.261537 0.606420 -0.092613
0.265042 0.607504 -0.092912
0.268541 0.608244 -0.093152
0.271893 0.606328 -0.092930
0.275359 0.606460 -0.093066
0.278968 0.608630 -0.093559
0.282370 0.607656 -0.093503
0.285903 0.608446 -0.093757
0.289362 0.608230 -0.093836
0.292437 0.603583 -0.093138
0.295730 0.601777 -0.092938
0.299152 0.601445 -0.092998
0.302828 0.603624 -0.093500
0.306476 0.605311 -0.093917
0.310075 0.606385 -0.094228
0.313129 0.602640 -0.093689
0.316337 0.600433 -0.093422
0.319708 0.599676 -0.093411
0.322929 0.597795 -0.093202
0.326496 0.598584 -0.093466
0.330289 0.600917 -0.094006
0.333702 0.600434 -0.094047
0.337446 0.602176 -0.094485
0.340474 0.599140 -0.094074
0.344609 0.603223 -0.094931
0.347530 0.599630 -0.094423
0.351533 0.602632 -0.095091
0.353983 0.596484 -0.094128
0.357986 0.599362 -0.094776
0.362225 0.603353 -0.095627
0.366029 0.604793 -0.096023
0.369358 0.603668 -0.095961
0.373113 0.604730 -0.096293
0.376371 0.603262 -0.096172
0.379373 0.600597 -0.095837
0.382533 0.598777 -0.095654
0.386507 0.600758 -0.096157
0.390906 0.604535 -0.096988
0.393668 0.600913 -0.096484
0.397066 0.600157 -0.096499
0.401042 0.601842 -0.096958
0.404492 0.601257 -0.097007
0.408635 0.603472 -0.097567
0.412903 0.606070 -0.098199
0.416899 0.607475 -0.098618
0.420388 0.606855 -0.098670
0.423890 0.606279 -0.098732
0.427105 0.604635 -0.098601
0.430302 0.602950 -0.098464
0.432564 0.597976 -0.097727
0.436101 0.597589 -0.097830
0.440214 0.599159 -0.098296
0.443744 0.598672 -0.098387
0.447148 0.597752 -0.098400
0.450886 0.597912 -0.098615
0.456019 0.602502 -0.099651
0.458956 0.599984 -0.099377
0.462065 0.598042 -0.099212
0.465794 0.598016 -0.099405
0.469525 0.597959 -0.099595
0.473091 0.597374 -0.099689
0.477214 0.598390 -0.100086
0.480815 0.597837 -0.100193
0.485098 0.599185 -0.100659
0.488360 0.597608 -0.100582
0.492179 0.597563 -0.100795
0.496419 0.598613 -0.101217
0.499377 0.596172 -0.100987
0.505019 0.600809 -0.102094
0.507561 0.597235 -0.101657
0.510846 0.595612 -0.101591
0.514259 0.594307 -0.101588
0.518726 0.595614 -0.102085
0.523419 0.597388 -0.102675
0.527070 0.596543 -0.102773
0.531409 0.597317 -0.103183
0.535930 0.598447 -0.103666
0.539425 0.597107 -0.103682
0.543625 0.597371 -0.104009
0.547689 0.597268 -0.104271
0.551935 0.597522 -0.104606
0.556055 0.597439 -0.104881
0.561036 0.599180 -0.105513
0.564391 0.597325 -0.105454
0.568281 0.596599 -0.105618
0.572595 0.596729 -0.105953
0.577175 0.597354 -0.106389
0.581015 0.596396 -0.106520
0.584925 0.595551 -0.106676
