ply
format ascii 1.0
comment ---
element vertex 1675
property float x
property float y
property float z
element face 0
property list uchar uint vertex_indices
end_header
-0.298678 0.608334 -0.124666
-0.295892 0.610048 -0.125017
-0.292103 0.609644 -0.125046
-0.288485 0.609571 -0.125125
-0.285002 0.609760 -0.125244
-0.281456 0.609776 -0.125335
-0.277681 0.609246 -0.125342
-0.274222 0.609381 -0.125450
-0.271025 0.610081 -0.125644
-0.267713 0.610488 -0.125793
-0.264069 0.610079 -0.125815
-0.260695 0.610263 -0.125927
-0.256989 0.609598 -0.125907
-0.253477 0.609349 -0.125950
-0.250185 0.609592 -0.126068
-0.247021 0.610123 -0.126229
-0.243431 0.609527 -0.126215
-0.240491 0.610560 -0.126452
-0.237256 0.610796 -0.126565
-0.233643 0.609980 -0.126513
-0.230287 0.609793 -0.126558
-0.227034 0.609839 -0.126637
-0.223836 0.609993 -0.126733
-0.219933 0.608104 -0.126510
-0.217169 0.609400 -0.126780
-0.214322 0.610447 -0.127011
-0.211054 0.610233 -0.127045
-0.207668 0.609610 -0.127014
-0.204838 0.610635 -0.127238
-0.201255 0.609298 -0.127094
-0.198205 0.609569 -0.127199
-0.195440 0.610732 -0.127442
-0.192523 0.611391 -0.127607
-0.189506 0.611704 -0.127716
-0.186182 0.610946 -0.127657
-0.183089 0.610919 -0.127711
-0.180122 0.611301 -0.127828
-0.176664 0.609904 -0.127666
-0.173785 0.610530 -0.127820
-0.170871 0.611013 -0.127951
-0.168022 0.611730 -0.128118
-0.164879 0.611308 -0.128106
-0.161960 0.611716 -0.128223
-0.158967 0.611814 -0.128291
-0.155987 0.611937 -0.128362
-0.153044 0.612189 -0.128452
-0.150034 0.612137 -0.128494
-0.146642 0.610394 -0.128269
-0.143807 0.611020 -0.128417
-0.141153 0.612470 -0.128694
-0.137891 0.611135 -0.128531
-0.134872 0.610868 -0.128537
-0.131996 0.611259 -0.128645
-0.129082 0.611455 -0.128722
-0.126157 0.611582 -0.128788
-0.123277 0.611923 -0.128887
-0.120418 0.612376 -0.129004
-0.117460 0.612282 -0.129033
-0.114508 0.612195 -0.129064
-0.111432 0.611363 -0.128975
-0.108475 0.611175 -0.128989
-0.105470 0.610657 -0.128949
-0.102820 0.612345 -0.129259
-0.100052 0.613352 -0.129461
-0.097098 0.613137 -0.129469
-0.093961 0.611614 -0.129268
-0.091022 0.611404 -0.129276
-0.088210 0.612112 -0.129429
-0.085327 0.612302 -0.129499
-0.082336 0.611626 -0.129432
-0.079521 0.612352 -0.129587
-0.076646 0.612596 -0.129665
-0.073731 0.612481 -0.129686
-0.070791 0.612106 -0.129665
-0.067767 0.610846 -0.129503
-0.064837 0.610426 -0.129475
-0.062096 0.612037 -0.129770
-0.059216 0.612188 -0.129832
-0.056296 0.611859 -0.129817
-0.053440 0.612317 -0.129928
-0.050674 0.614069 -0.130246
-0.047683 0.612695 -0.130063
-0.044666 0.610687 -0.129779
-0.041735 0.609835 -0.129680
-0.038890 0.610441 -0.129813
-0.036023 0.610715 -0.129893
-0.033152 0.610934 -0.129965
-0.030275 0.611035 -0.130017
-0.027386 0.610785 -0.130013
-0.024519 0.611241 -0.130122
-0.021659 0.612119 -0.130299
-0.018768 0.611838 -0.130289
-0.015883 0.611763 -0.130313
-0.013003 0.612078 -0.130399
-0.010118 0.612062 -0.130431
-0.007233 0.612147 -0.130480
-0.004346 0.612614 -0.130590
-0.001459 0.612500 -0.130606
0.001422 0.612057 -0.130570
0.004304 0.611881 -0.130576
0.007180 0.611522 -0.130553
0.010055 0.611201 -0.130535
0.012945 0.611453 -0.130610
0.015861 0.612340 -0.130787
0.018707 0.611340 -0.130659
0.021645 0.612481 -0.130877
0.024456 0.610964 -0.130666
0.027328 0.610751 -0.130665
0.030208 0.610705 -0.130690
0.033097 0.610789 -0.130737
0.036006 0.611140 -0.130826
0.038930 0.611639 -0.130940
0.041831 0.611769 -0.130993
0.044632 0.610691 -0.130851
0.047478 0.610229 -0.130808
0.050388 0.610468 -0.130879
0.053368 0.611391 -0.131060
0.056277 0.611523 -0.131113
0.059120 0.611020 -0.131063
0.061929 0.610256 -0.130970
0.064891 0.610826 -0.131094
0.067847 0.611297 -0.131201
0.070727 0.611114 -0.131202
0.073606 0.610926 -0.131201
0.076592 0.611514 -0.131327
0.079442 0.611088 -0.131287
0.082281 0.610598 -0.131237
0.085242 0.610927 -0.131320
0.088056 0.610282 -0.131244
0.090868 0.609640 -0.131168
0.093779 0.609617 -0.131193
0.096575 0.608902 -0.131104
0.099595 0.609481 -0.131226
0.102514 0.609453 -0.131249
0.105340 0.608898 -0.131185
0.108244 0.608767 -0.131191
0.111280 0.609295 -0.131303
0.114482 0.610611 -0.131543
0.116778 0.607407 -0.131047
0.120083 0.609147 -0.131355
0.123143 0.609646 -0.131461
0.126047 0.609379 -0.131442
0.128981 0.609240 -0.131443
0.131911 0.609060 -0.131437
0.134667 0.608117 -0.131306
0.137214 0.606306 -0.131033
0.140280 0.606675 -0.131116
0.143563 0.607878 -0.131333
0.146217 0.606516 -0.131132
0.149231 0.606576 -0.131162
0.152124 0.606139 -0.131111
0.155569 0.607749 -0.131393
0.158002 0.605563 -0.131055
0.161106 0.605832 -0.131117
0.164222 0.606105 -0.131180
0.167073 0.605413 -0.131084
0.170914 0.608085 -0.131538
0.173755 0.607279 -0.131422
0.176670 0.606710 -0.131344
0.180000 0.607466 -0.131482
0.182964 0.606995 -0.131420
0.185900 0.606411 -0.131337
0.189051 0.606472 -0.131360
0.192246 0.606623 -0.131397
0.195787 0.607763 -0.131595
0.199228 0.608535 -0.131733
0.202394 0.608444 -0.131728
0.205058 0.606881 -0.131481
0.207886 0.605782 -0.131310
0.211308 0.606318 -0.131406
0.214417 0.605942 -0.131351
0.217691 0.605973 -0.131363
0.220201 0.603938 -0.131035
0.223972 0.605208 -0.131248
0.227486 0.605736 -0.131339
0.230493 0.604917 -0.131209
0.233228 0.603393 -0.130962
0.236303 0.602707 -0.130852
0.239980 0.603460 -0.130977
0.243360 0.603438 -0.130974
0.247465 0.605088 -0.131245
0.250171 0.603380 -0.130965
0.253426 0.602942 -0.130892
0.256886 0.602941 -0.130891
0.260266 0.602720 -0.130853
0.264131 0.603541 -0.130985
0.267579 0.603393 -0.130959
0.271007 0.603171 -0.130920
0.274650 0.603380 -0.130951
0.278184 0.603326 -0.130939
0.281992 0.603815 -0.131016
0.285534 0.603723 -0.130998
0.288767 0.602985 -0.130874
0.293677 0.605617 -0.131303
0.296647 0.604327 -0.131090
0.299843 0.603504 -0.130954
0.303462 0.603517 -0.130955
0.306748 0.602897 -0.130854
0.311043 0.604212 -0.131071
0.314773 0.604454 -0.131114
0.318412 0.604546 -0.131133
0.321764 0.604137 -0.131072
0.325352 0.604197 -0.131089
0.328011 0.602632 -0.130842
0.330573 0.600972 -0.130582
0.334515 0.601822 -0.130735
0.337499 0.601045 -0.130624
-0.358836 0.606858 -0.126243
-0.353809 0.604021 -0.125861
-0.350207 0.603691 -0.125872
-0.347302 0.604650 -0.126086
-0.344264 0.605449 -0.126279
-0.341516 0.606839 -0.126566
-0.337713 0.606380 -0.126567
-0.333779 0.605707 -0.126538
-0.330655 0.606564 -0.126749
-0.327961 0.608279 -0.127095
-0.325034 0.609608 -0.127384
-0.321023 0.608890 -0.127353
-0.317549 0.609211 -0.127487
-0.313788 0.608976 -0.127534
-0.309913 0.608503 -0.127544
-0.306575 0.609097 -0.127722
-0.303316 0.609855 -0.127926
-0.298982 0.608384 -0.127780
-0.295789 0.609249 -0.128001
-0.292697 0.610328 -0.128256
-0.288974 0.610045 -0.128296
-0.284883 0.608919 -0.128202
-0.281460 0.609207 -0.128331
-0.278171 0.609765 -0.128502
-0.274833 0.610187 -0.128650
-0.271256 0.610031 -0.128707
-0.267778 0.610059 -0.128792
-0.264312 0.610074 -0.128874
-0.260991 0.610390 -0.129003
-0.257704 0.610752 -0.129138
-0.253384 0.608538 -0.128863
-0.250313 0.609331 -0.129064
-0.247223 0.610050 -0.129253
-0.243798 0.609884 -0.129301
-0.240489 0.609968 -0.129387
-0.237372 0.610514 -0.129545
-0.233512 0.609041 -0.129380
-0.230148 0.608825 -0.129415
-0.227021 0.609210 -0.129545
-0.223798 0.609293 -0.129626
-0.220350 0.608694 -0.129596
-0.217144 0.608731 -0.129668
-0.214309 0.609810 -0.129905
-0.211287 0.610322 -0.130051
-0.208113 0.610350 -0.130118
-0.204883 0.610166 -0.130150
-0.201541 0.609584 -0.130118
-0.198453 0.609748 -0.130204
-0.195558 0.610499 -0.130384
-0.192600 0.611028 -0.130527
-0.189513 0.611107 -0.130598
-0.186267 0.610612 -0.130575
-0.183258 0.610880 -0.130674
-0.180155 0.610789 -0.130714
-0.177242 0.611342 -0.130858
-0.173842 0.610107 -0.130712
-0.170747 0.609918 -0.130734
-0.167704 0.609890 -0.130782
-0.164785 0.610305 -0.130901
-0.162060 0.611464 -0.131139
-0.159057 0.611526 -0.131200
-0.155977 0.611243 -0.131204
-0.152956 0.611167 -0.131241
-0.149711 0.610102 -0.131116
-0.146797 0.610406 -0.131214
-0.143978 0.611113 -0.131376
-0.141181 0.611925 -0.131555
-0.138084 0.611360 -0.131509
-0.135110 0.611319 -0.131549
-0.132218 0.611655 -0.131649
-0.129237 0.611538 -0.131675
-0.126183 0.611018 -0.131635
-0.123286 0.611274 -0.131721
-0.120473 0.611964 -0.131877
-0.117550 0.612066 -0.131937
-0.114482 0.611335 -0.131861
-0.111591 0.611569 -0.131941
-0.108658 0.611539 -0.131979
-0.105734 0.611552 -0.132023
-0.102940 0.612364 -0.132197
-0.100203 0.613586 -0.132438
-0.097286 0.613653 -0.132490
-0.094082 0.611695 -0.132210
-0.091143 0.611508 -0.132220
-0.088316 0.612120 -0.132360
-0.085478 0.612681 -0.132492
-0.082493 0.612086 -0.132434
-0.079542 0.611706 -0.132411
-0.076663 0.611918 -0.132485
-0.073741 0.611728 -0.132492
-0.070824 0.611566 -0.132504
-0.067897 0.611271 -0.132494
-0.064958 0.610807 -0.132456
-0.062151 0.611731 -0.132646
-0.059316 0.612422 -0.132797
-0.056461 0.612932 -0.132918
-0.053469 0.611707 -0.132754
-0.050614 0.612213 -0.132875
-0.047761 0.612823 -0.133012
-0.044861 0.612732 -0.133034
-0.041921 0.611933 -0.132939
-0.038965 0.610681 -0.132769
-0.036066 0.610366 -0.132753
-0.033180 0.610254 -0.132771
-0.030276 0.609631 -0.132704
-0.027393 0.609463 -0.132712
-0.024553 0.610684 -0.132950
-0.021682 0.611114 -0.133056
-0.018776 0.609963 -0.132902
-0.015909 0.610675 -0.133055
-0.013032 0.611051 -0.133152
-0.010152 0.611599 -0.133278
-0.007268 0.612573 -0.133474
-0.004378 0.612494 -0.133496
-0.001495 0.611842 -0.133423
0.001385 0.611290 -0.133366
0.004258 0.610697 -0.133303
0.007137 0.610601 -0.133321
0.010016 0.610508 -0.133340
0.012904 0.610738 -0.133412
0.015828 0.611846 -0.133630
0.018686 0.611110 -0.133542
0.021497 0.609520 -0.133312
0.024372 0.609454 -0.133335
0.027221 0.608928 -0.133281
0.030088 0.608769 -0.133287
0.033026 0.609711 -0.133477
0.035907 0.609702 -0.133509
0.038938 0.611666 -0.133869
0.041622 0.609058 -0.133467
0.044574 0.609885 -0.133638
0.047354 0.608690 -0.133471
0.050184 0.608138 -0.133411
0.053259 0.610105 -0.133771
0.056199 0.610569 -0.133881
0.059008 0.609777 -0.133780
0.061868 0.609495 -0.133765
0.064830 0.610072 -0.133893
0.067802 0.610679 -0.134025
0.070706 0.610693 -0.134059
0.073600 0.610618 -0.134077
0.076711 0.612106 -0.134357
0.079505 0.611248 -0.134244
0.082272 0.610250 -0.134107
0.085115 0.609796 -0.134061
0.088051 0.609947 -0.134116
0.090881 0.609413 -0.134056
0.093583 0.608119 -0.133868
0.096449 0.607846 -0.133852
0.099325 0.607620 -0.133842
0.102431 0.608667 -0.134046
0.105326 0.608494 -0.134045
0.108212 0.608264 -0.134034
0.110927 0.607145 -0.133874
0.113680 0.606246 -0.133750
0.116629 0.606329 -0.133791
0.119839 0.607634 -0.134036
0.122579 0.606661 -0.133899
0.125432 0.606218 -0.133850
0.128870 0.608387 -0.134240
0.131802 0.608222 -0.134237
0.134564 0.607314 -0.134109
0.137116 0.605533 -0.133834
0.140018 0.605237 -0.133808
0.143217 0.606115 -0.133979
0.145948 0.605089 -0.133829
0.148790 0.604498 -0.133752
0.151836 0.604675 -0.133804
0.154936 0.605013 -0.133882
0.157535 0.603478 -0.133645
0.160644 0.603798 -0.133719
0.163816 0.604294 -0.133823
0.166547 0.603212 -0.133660
0.169881 0.604186 -0.133843
0.173621 0.606448 -0.134243
0.176683 0.606368 -0.134248
0.179789 0.606398 -0.134271
0.182880 0.606342 -0.134278
0.185733 0.605501 -0.134153
0.189679 0.608018 -0.134593
0.192775 0.607839 -0.134579
0.195707 0.607135 -0.134475
0.199136 0.607870 -0.134613
0.202635 0.608748 -0.134775
0.205406 0.607478 -0.134574
0.207942 0.605545 -0.134260
0.210955 0.604948 -0.134171
0.214189 0.604924 -0.134178
0.217156 0.604140 -0.134057
0.220160 0.603432 -0.133947
0.223166 0.602707 -0.133834
0.227045 0.604201 -0.134095
0.230009 0.603287 -0.133949
0.233066 0.602587 -0.133839
0.236005 0.601570 -0.133674
0.238753 0.600072 -0.133427
0.241812 0.599317 -0.133306
0.246758 0.603007 -0.133935
0.249831 0.602180 -0.133800
0.252606 0.600642 -0.133545
0.256381 0.601382 -0.133674
0.260111 0.601960 -0.133775
0.263485 0.601696 -0.133734
0.266543 0.600709 -0.133570
0.270213 0.601037 -0.133629
0.274840 0.603365 -0.134025
0.277945 0.602398 -0.133864
0.281578 0.602526 -0.133888
0.284553 0.601278 -0.133680
0.287401 0.599781 -0.133430
0.292364 0.602546 -0.133901
0.296247 0.603092 -0.133997
0.300095 0.603553 -0.134079
0.303227 0.602614 -0.133925
0.307585 0.604048 -0.134173
0.311688 0.604975 -0.134336
0.315153 0.604703 -0.134298
0.318598 0.604421 -0.134259
0.321765 0.603665 -0.134142
0.324861 0.602830 -0.134012
0.327854 0.601866 -0.133863
0.329994 0.599457 -0.133470
0.333956 0.600346 -0.133638
0.338628 0.602506 -0.134023
-0.357219 0.603437 -0.128871
-0.354603 0.604756 -0.129139
-0.351046 0.604524 -0.129162
-0.346946 0.603390 -0.129042
-0.344517 0.605272 -0.129409
-0.341863 0.606841 -0.129729
-0.337996 0.606274 -0.129707
-0.334264 0.605985 -0.129731
-0.330693 0.606022 -0.129810
-0.327336 0.606489 -0.129960
-0.324176 0.607363 -0.130176
-0.321038 0.608311 -0.130406
-0.317260 0.608044 -0.130441
-0.313558 0.607919 -0.130499
-0.310009 0.608094 -0.130606
-0.306460 0.608267 -0.130713
-0.303124 0.608864 -0.130889
-0.299780 0.609443 -0.131063
-0.295852 0.608787 -0.131035
-0.292821 0.609997 -0.131311
-0.288727 0.608920 -0.131215
-0.284743 0.608024 -0.131147
-0.281438 0.608568 -0.131313
-0.278390 0.609664 -0.131569
-0.274793 0.609506 -0.131620
-0.271233 0.609388 -0.131677
-0.267817 0.609559 -0.131780
-0.264541 0.610020 -0.131930
-0.261214 0.610329 -0.132054
-0.257433 0.609500 -0.131991
-0.253654 0.608609 -0.131916
-0.250633 0.609533 -0.132138
-0.247373 0.609833 -0.132258
-0.244028 0.609876 -0.132334
-0.240656 0.609803 -0.132390
-0.237417 0.610032 -0.132495
-0.233848 0.609339 -0.132447
-0.230405 0.608921 -0.132443
-0.227090 0.608797 -0.132487
-0.223929 0.609054 -0.132593
-0.220710 0.609111 -0.132665
-0.217411 0.608891 -0.132691
-0.214383 0.609414 -0.132838
-0.211403 0.610056 -0.133004
-0.208213 0.610038 -0.133061
-0.205122 0.610283 -0.133160
-0.201907 0.610108 -0.133188
-0.198722 0.609977 -0.133224
-0.195682 0.610274 -0.133329
-0.192571 0.610307 -0.133390
-0.189344 0.609916 -0.133380
-0.186349 0.610259 -0.133491
-0.183391 0.610706 -0.133618
-0.180505 0.611382 -0.133784
-0.177262 0.610773 -0.133734
-0.174164 0.610635 -0.133762
-0.171205 0.610973 -0.133870
-0.167727 0.609330 -0.133646
-0.165201 0.611253 -0.134016
-0.162007 0.610602 -0.133957
-0.159312 0.611886 -0.134219
-0.155929 0.610386 -0.134017
-0.152736 0.609586 -0.133930
-0.149798 0.609808 -0.134014
-0.146873 0.610066 -0.134104
-0.144019 0.610620 -0.134242
-0.141223 0.611439 -0.134425
-0.138290 0.611630 -0.134502
-0.135308 0.611576 -0.134538
-0.132355 0.611631 -0.134591
-0.129345 0.611380 -0.134593
-0.126243 0.610624 -0.134509
-0.123298 0.610631 -0.134553
-0.120476 0.611272 -0.134704
-0.117609 0.611676 -0.134814
-0.114669 0.611670 -0.134855
-0.111756 0.611798 -0.134918
-0.108817 0.611757 -0.134953
-0.105767 0.611017 -0.134869
-0.103003 0.612021 -0.135079
-0.100311 0.613539 -0.135375
-0.097358 0.613374 -0.135387
-0.094207 0.611801 -0.135162
-0.091316 0.611978 -0.135232
-0.088451 0.612346 -0.135333
-0.085536 0.612333 -0.135370
-0.082629 0.612375 -0.135416
-0.079651 0.611799 -0.135358
-0.076730 0.611671 -0.135375
-0.073810 0.611518 -0.135387
-0.070907 0.611494 -0.135421
-0.068025 0.611665 -0.135488
-0.065138 0.611799 -0.135549
-0.062186 0.611202 -0.135485
-0.059450 0.613042 -0.135834
-0.056474 0.612143 -0.135719
-0.053609 0.612548 -0.135825
-0.050677 0.612075 -0.135782
-0.047798 0.612324 -0.135861
-0.044893 0.612159 -0.135869
-0.041932 0.610991 -0.135708
-0.039016 0.610461 -0.135654
-0.036106 0.609938 -0.135602
-0.033273 0.611064 -0.135829
-0.030322 0.609393 -0.135581
-0.027466 0.610053 -0.135729
-0.024534 0.608305 -0.135467
-0.021691 0.609549 -0.135714
-0.018789 0.608317 -0.135540
-0.015929 0.609137 -0.135715
-0.013064 0.610276 -0.135944
-0.010174 0.608675 -0.135707
-0.007298 0.606106 -0.135304
-0.004412 0.612090 -0.136358
-0.001530 0.611206 -0.136243
0.001328 0.609121 -0.135922
0.004218 0.609882 -0.136086
0.007086 0.609340 -0.136028
0.010013 0.611100 -0.136363
0.012893 0.610896 -0.136363
0.015758 0.610335 -0.136301
0.018674 0.611106 -0.136467
0.021476 0.609265 -0.136186
0.024273 0.607665 -0.135946
0.027166 0.608040 -0.136044
0.030194 0.610535 -0.136505
0.033000 0.609307 -0.136328
0.035846 0.608788 -0.136272
0.038714 0.608606 -0.136274
0.041737 0.610386 -0.136613
0.044507 0.608969 -0.136403
0.047332 0.608299 -0.136321
0.050186 0.607996 -0.136301
0.053281 0.610142 -0.136702
0.056247 0.610837 -0.136854
0.059747 0.616380 -0.137838
0.062521 0.615031 -0.137638
0.064826 0.609805 -0.136773
0.067809 0.610484 -0.136922
0.070737 0.610676 -0.136986
0.073676 0.610918 -0.137059
0.076549 0.610650 -0.137045
0.079569 0.611415 -0.137207
0.082486 0.611416 -0.137239
0.085635 0.612928 -0.137530
0.088398 0.611857 -0.137376
0.091615 0.613656 -0.137716
0.093997 0.610301 -0.137168
0.096526 0.607971 -0.136797
0.100437 0.613627 -0.137801
0.103062 0.611829 -0.137521
0.106390 0.613898 -0.137907
0.109337 0.613841 -0.137926
0.111957 0.612083 -0.137652
0.114739 0.611201 -0.137528
0.117404 0.609767 -0.137309
0.120097 0.608511 -0.137120
0.122928 0.607929 -0.137047
0.126253 0.609604 -0.137363
0.129538 0.611000 -0.137631
0.132285 0.609963 -0.137479
0.135138 0.609398 -0.137407
0.138792 0.612181 -0.137915
0.142160 0.613650 -0.138195
0.144350 0.610296 -0.137640
0.148745 0.615734 -0.138606
0.151169 0.613315 -0.138212
0.152419 0.606507 -0.137058
0.155207 0.605640 -0.136931
0.158230 0.605636 -0.136954
0.161339 0.605908 -0.137024
0.163641 0.603290 -0.136593
0.167184 0.605030 -0.136917
0.172393 0.612341 -0.138206
0.175277 0.611593 -0.138098
0.177134 0.607457 -0.137401
0.180975 0.609837 -0.137835
0.185573 0.614508 -0.138666
0.185305 0.603766 -0.136821
0.189800 0.607990 -0.137573
0.192752 0.607369 -0.137484
0.195644 0.606543 -0.137359
0.198863 0.606667 -0.137398
0.202326 0.607448 -0.137551
0.207256 0.612342 -0.138419
0.211461 0.615014 -0.138899
0.213175 0.610678 -0.138162
0.215045 0.606849 -0.137512
0.219073 0.608879 -0.137879
0.221998 0.607888 -0.137722
0.225684 0.608863 -0.137905
0.228725 0.608109 -0.137787
0.230729 0.604701 -0.137208
0.234334 0.605345 -0.137332
0.236614 0.602660 -0.136877
0.240384 0.603626 -0.137056
0.242843 0.601377 -0.136676
0.248109 0.605785 -0.137454
0.250200 0.602622 -0.136913
0.252319 0.599562 -0.136391
0.257752 0.604076 -0.137186
0.261162 0.603894 -0.137163
0.265379 0.605466 -0.137446
0.268734 0.605075 -0.137387
0.272988 0.606597 -0.137660
0.277040 0.607621 -0.137847
0.280174 0.606654 -0.137687
0.282087 0.603148 -0.137085
0.286004 0.603817 -0.137210
0.289595 0.603788 -0.137214
0.293638 0.604653 -0.137373
0.299248 0.608585 -0.138068
0.303846 0.610439 -0.138401
0.303617 0.602910 -0.137099
0.308651 0.605622 -0.137582
0.311942 0.604986 -0.137483
0.315575 0.605019 -0.137502
0.318805 0.604326 -0.137395
0.321985 0.603586 -0.137281
0.327373 0.606886 -0.137872
0.330071 0.605344 -0.137621
0.331573 0.601761 -0.137015
0.333072 0.598297 -0.136431
0.340316 0.604929 -0.137610
-0.356964 0.602353 -0.131856
-0.354592 0.604092 -0.132199
-0.351233 0.604210 -0.132275
-0.347355 0.603475 -0.132213
-0.344736 0.605029 -0.132532
-0.341982 0.606422 -0.132827
-0.338584 0.606717 -0.132942
-0.334647 0.606065 -0.132900
-0.331075 0.606111 -0.132976
-0.327650 0.606459 -0.133104
-0.324044 0.606493 -0.133180
-0.320841 0.607316 -0.133389
-0.317325 0.607555 -0.133501
-0.314035 0.608248 -0.133690
-0.310218 0.607902 -0.133705
-0.306216 0.607164 -0.133655
-0.302993 0.607989 -0.133867
-0.299783 0.608842 -0.134083
-0.296188 0.608887 -0.134165
-0.292663 0.609056 -0.134266
-0.289794 0.610610 -0.134600
-0.285046 0.608080 -0.134248
-0.281678 0.608493 -0.134390
-0.278524 0.609360 -0.134607
-0.274940 0.609235 -0.134657
-0.271328 0.609001 -0.134688
-0.268096 0.609603 -0.134859
-0.264800 0.610025 -0.135000
-0.261358 0.610067 -0.135075
-0.257437 0.608905 -0.134946
-0.254072 0.609029 -0.135034
-0.250828 0.609409 -0.135164
-0.247778 0.610246 -0.135371
-0.244422 0.610275 -0.135441
-0.241158 0.610496 -0.135542
-0.237644 0.610018 -0.135524
-0.233910 0.608894 -0.135395
-0.230790 0.609352 -0.135534
-0.227386 0.608997 -0.135534
-0.224232 0.609286 -0.135643
-0.220925 0.609101 -0.135670
-0.217743 0.609228 -0.135750
-0.214591 0.609402 -0.135837
-0.211490 0.609690 -0.135942
-0.208333 0.609775 -0.136013
-0.205246 0.610034 -0.136112
-0.202074 0.609999 -0.136161
-0.198922 0.609982 -0.136212
-0.195878 0.610271 -0.136314
-0.192589 0.609731 -0.136275
-0.189477 0.609720 -0.136325
-0.186500 0.610130 -0.136446
-0.183529 0.610536 -0.136567
-0.180506 0.610739 -0.136652
-0.177605 0.611351 -0.136806
-0.174200 0.610117 -0.136644
-0.171473 0.611311 -0.136897
-0.168526 0.611690 -0.137010
-0.164902 0.609448 -0.136673
-0.162662 0.612507 -0.137245
-0.159739 0.612926 -0.137364
-0.156218 0.610898 -0.137062
-0.153024 0.610114 -0.136972
-0.150017 0.610065 -0.137009
-0.147135 0.610526 -0.137133
-0.144348 0.611400 -0.137328
-0.141359 0.611367 -0.137367
-0.138410 0.611498 -0.137433
-0.135373 0.611190 -0.137423
-0.132384 0.611073 -0.137446
-0.129394 0.610923 -0.137462
-0.126431 0.610876 -0.137497
-0.123475 0.610845 -0.137533
-0.120611 0.611276 -0.137649
-0.117609 0.610957 -0.137635
-0.114734 0.611311 -0.137737
-0.111953 0.612208 -0.137933
-0.108887 0.611439 -0.137841
-0.106075 0.612161 -0.138006
-0.103183 0.612404 -0.138088
-0.100265 0.612478 -0.138141
-0.097390 0.612819 -0.138239
-0.094334 0.611911 -0.138121
-0.091408 0.611857 -0.138151
-0.088530 0.612137 -0.138238
-0.085590 0.611950 -0.138244
-0.082693 0.612071 -0.138304
-0.079805 0.612260 -0.138375
-0.076860 0.611961 -0.138361
-0.073904 0.611523 -0.138323
-0.071011 0.611622 -0.138378
-0.068135 0.611881 -0.138461
-0.065177 0.611306 -0.138398
-0.062352 0.612113 -0.138576
-0.059478 0.612424 -0.138667
-0.056567 0.612311 -0.138684
-0.053631 0.611856 -0.138642
-0.050751 0.612087 -0.138719
-0.047846 0.611976 -0.138736
-0.044925 0.611580 -0.138703
-0.041977 0.610646 -0.138577
-0.039053 0.609972 -0.138495
-0.036293 0.612573 -0.138985
-0.033491 0.614755 -0.139403
-0.030604 0.615262 -0.139527
-0.027680 0.614813 -0.139485
-0.024749 0.613965 -0.139372
-0.021862 0.614571 -0.139514
-0.018905 0.611918 -0.139086
-0.016021 0.612472 -0.139218
-0.013115 0.611354 -0.139058
-0.010230 0.612155 -0.139233
-0.007340 0.615115 -0.139787
-0.004433 0.615010 -0.139804
-0.001532 0.614330 -0.139720
0.001344 0.612319 -0.139402
0.004215 0.611026 -0.139210
0.007162 0.613592 -0.139695
0.010102 0.615029 -0.139982
0.012956 0.613380 -0.139728
0.015794 0.611693 -0.139466
0.018702 0.612063 -0.139565
0.021841 0.617290 -0.140518
0.024760 0.617271 -0.140549
0.027601 0.615849 -0.140334
0.030453 0.614820 -0.140187
0.033339 0.614450 -0.140156
0.036813 0.622453 -0.141599
0.039434 0.618098 -0.140866
0.042652 0.621726 -0.141539
0.045347 0.618753 -0.141049
0.048179 0.617616 -0.140883
0.051208 0.618670 -0.141102
0.054895 0.626256 -0.142473
0.057620 0.623858 -0.142084
0.059922 0.617765 -0.141042
0.062419 0.613896 -0.140393
0.064862 0.609860 -0.139713
0.067780 0.609999 -0.139770
0.070883 0.611554 -0.140077
0.073781 0.611437 -0.140088
0.076587 0.610643 -0.139980
0.079488 0.610551 -0.139995
0.082579 0.611748 -0.140239
0.085735 0.613278 -0.140541
0.088868 0.614551 -0.140798
0.091040 0.609768 -0.139983
0.094253 0.611519 -0.140324
0.097702 0.614529 -0.140888
0.100536 0.613854 -0.140799
0.103997 0.616668 -0.141329
0.106917 0.616398 -0.141311
0.109827 0.616066 -0.141283
0.112367 0.613833 -0.140917
0.115084 0.612571 -0.140723
0.117898 0.611819 -0.140619
0.120954 0.612234 -0.140722
0.123539 0.610412 -0.140427
0.126193 0.608962 -0.140198
0.129487 0.610402 -0.140483
0.132741 0.611577 -0.140720
0.136263 0.613826 -0.141148
0.139720 0.615680 -0.141505
0.142630 0.615188 -0.141446
0.145835 0.615876 -0.141595
0.149397 0.617910 -0.141985
0.152454 0.617888 -0.142008
0.154087 0.612438 -0.141064
0.156258 0.609160 -0.140507
0.159246 0.608954 -0.140496
0.162366 0.609194 -0.140564
0.166819 0.614086 -0.141461
0.169341 0.612094 -0.141131
0.172560 0.612505 -0.141228
0.176077 0.613861 -0.141495
0.178774 0.612443 -0.141266
0.181808 0.612123 -0.141232
0.184823 0.611715 -0.141183
0.185250 0.603188 -0.139683
0.189907 0.607909 -0.140548
0.192690 0.606770 -0.140367
0.195658 0.606174 -0.140282
0.198983 0.606606 -0.140381
0.202325 0.607031 -0.140477
0.208059 0.614208 -0.141781
0.211619 0.615036 -0.141949
0.213258 0.610485 -0.141155
0.215435 0.607491 -0.140640
0.218760 0.607616 -0.140681
0.222929 0.609924 -0.141112
0.226832 0.611430 -0.141400
0.229469 0.609595 -0.141090
0.231492 0.606210 -0.140502
0.233826 0.603650 -0.140061
0.238301 0.606389 -0.140568
0.240976 0.604636 -0.140270
0.246022 0.608568 -0.140990
0.248860 0.607129 -0.140749
0.251030 0.604126 -0.140226
0.252413 0.599349 -0.139386
0.255825 0.599263 -0.139385
0.263049 0.607688 -0.140909
0.267293 0.609262 -0.141206
0.270902 0.609368 -0.141240
0.274893 0.610263 -0.141415
0.278467 0.610212 -0.141420
0.278591 0.602874 -0.140118
0.282129 0.602784 -0.140116
0.286806 0.605008 -0.140530
0.290560 0.605288 -0.140594
0.294078 0.605073 -0.140570
0.298386 0.606414 -0.140826
0.302590 0.607512 -0.141038
0.302480 0.600244 -0.139750
0.307445 0.602844 -0.140233
0.312121 0.604846 -0.140609
0.315581 0.604549 -0.140573
0.318920 0.604053 -0.140503
0.322045 0.603206 -0.140370
0.330339 0.611749 -0.141925
0.332583 0.609334 -0.141513
0.332220 0.602403 -0.140290
0.332288 0.596420 -0.139239
0.322198 0.572998 -0.135052
-0.355341 0.598924 -0.134435
-0.354109 0.602609 -0.135117
-0.350943 0.603056 -0.135248
-0.348133 0.604205 -0.135501
-0.345043 0.604934 -0.135684
-0.341916 0.605663 -0.135869
-0.338567 0.606048 -0.135996
-0.334943 0.605975 -0.136047
-0.331434 0.606148 -0.136140
-0.327991 0.606471 -0.136260
-0.325096 0.607866 -0.136566
-0.320676 0.606372 -0.136375
-0.317829 0.607912 -0.136707
-0.314460 0.608462 -0.136869
-0.310762 0.608365 -0.136921
-0.307220 0.608571 -0.137024
-0.303203 0.607797 -0.136958
-0.299933 0.608533 -0.137153
-0.296020 0.607917 -0.137115
-0.292614 0.608334 -0.137254
-0.289268 0.608861 -0.137413
-0.285761 0.609019 -0.137507
-0.282159 0.608938 -0.137560
-0.278821 0.609405 -0.137707
-0.275436 0.609739 -0.137831
-0.271858 0.609601 -0.137872
-0.268573 0.610093 -0.138022
-0.264979 0.609830 -0.138040
-0.261482 0.609744 -0.138088
-0.257897 0.609399 -0.138091
-0.254332 0.609048 -0.138091
-0.251163 0.609625 -0.138253
-0.248016 0.610224 -0.138418
-0.244574 0.610043 -0.138446
-0.241147 0.609845 -0.138471
-0.238138 0.610694 -0.138678
-0.234282 0.609264 -0.138486
-0.230798 0.608748 -0.138453
-0.227616 0.609006 -0.138554
-0.224643 0.609804 -0.138749
-0.221512 0.610135 -0.138862
-0.217739 0.608586 -0.138646
-0.214824 0.609453 -0.138851
-0.211720 0.609738 -0.138955
-0.208425 0.609418 -0.138951
-0.205386 0.609826 -0.139074
-0.202020 0.609191 -0.139014
-0.198980 0.609525 -0.139124
-0.195736 0.609172 -0.139112
-0.192773 0.609687 -0.139252
-0.189805 0.610164 -0.139385
-0.186767 0.610386 -0.139473
-0.183638 0.610263 -0.139500
-0.180449 0.609888 -0.139482
-0.177478 0.610243 -0.139591
-0.174335 0.609951 -0.139587
-0.171517 0.610813 -0.139785
-0.168499 0.610924 -0.139851
-0.165615 0.611517 -0.140001
-0.162288 0.610371 -0.139844
-0.159537 0.611449 -0.140079
-0.156307 0.610586 -0.139971
-0.153444 0.611183 -0.140120
-0.150434 0.611151 -0.140158
-0.147469 0.611286 -0.140225
-0.144517 0.611458 -0.140299
-0.141475 0.611201 -0.140296
-0.138397 0.610739 -0.140256
-0.135412 0.610674 -0.140286
-0.132341 0.610161 -0.140237
-0.129582 0.611148 -0.140454
-0.126601 0.611031 -0.140474
-0.123640 0.610985 -0.140506
-0.120716 0.611115 -0.140570
-0.117821 0.611390 -0.140659
-0.114843 0.611192 -0.140664
-0.111899 0.611156 -0.140698
-0.109211 0.612625 -0.140998
-0.106069 0.611371 -0.140815
-0.103231 0.611950 -0.140957
-0.100313 0.612021 -0.141009
-0.097341 0.611715 -0.140993
-0.094358 0.611294 -0.140956
-0.091405 0.611048 -0.140951
-0.088570 0.611637 -0.141094
-0.085699 0.611983 -0.141194
-0.082829 0.612348 -0.141297
-0.079922 0.612413 -0.141347
-0.076927 0.611699 -0.141257
-0.073984 0.611390 -0.141239
-0.071078 0.611386 -0.141276
-0.068184 0.611487 -0.141331
-0.065334 0.612041 -0.141467
-0.062479 0.612584 -0.141601
-0.059524 0.612017 -0.141537
-0.056603 0.611797 -0.141534
-0.053686 0.611571 -0.141530
-0.050787 0.611566 -0.141566
-0.047921 0.612042 -0.141687
-0.044993 0.611582 -0.141641
-0.042054 0.610839 -0.141544
-0.039152 0.610649 -0.141546
-0.036283 0.611098 -0.141663
-0.033667 0.617452 -0.142839
-0.030776 0.618241 -0.143017
-0.027780 0.616167 -0.142680
-0.024842 0.615409 -0.142580
-0.021929 0.615358 -0.142607
-0.019018 0.615348 -0.142641
-0.016072 0.612995 -0.142253
-0.013170 0.612839 -0.142260
-0.010278 0.614042 -0.142512
-0.007374 0.614797 -0.142684
-0.004464 0.615313 -0.142812
-0.001554 0.615256 -0.142837
0.001357 0.615287 -0.142878
0.004289 0.616481 -0.143128
0.007205 0.616435 -0.143155
0.010085 0.615117 -0.142952
0.013001 0.615266 -0.143014
0.015829 0.613019 -0.142643
0.018853 0.615951 -0.143207
0.021868 0.618054 -0.143622
0.024817 0.618502 -0.143737
0.027562 0.615220 -0.143179
0.030597 0.617199 -0.143571
0.033683 0.619668 -0.144052
0.036850 0.622934 -0.144677
0.039801 0.622892 -0.144704
0.042578 0.620678 -0.144338
0.045451 0.619837 -0.144220
0.048381 0.619708 -0.144231
0.051463 0.621198 -0.144535
0.054377 0.620820 -0.144501
0.057253 0.620108 -0.144406
0.059874 0.617097 -0.143894
0.062243 0.612104 -0.143022
0.064846 0.609480 -0.142579
0.067789 0.609809 -0.142672
0.070913 0.611521 -0.143015
0.073815 0.611411 -0.143028
0.076643 0.610759 -0.142942
0.079531 0.610556 -0.142938
0.082452 0.610578 -0.142975
0.086439 0.617605 -0.144284
0.088532 0.612087 -0.143314
0.090658 0.607078 -0.142435
0.093553 0.606975 -0.142448
0.097652 0.613897 -0.143739
0.101052 0.616447 -0.144235
0.103914 0.615860 -0.144160
0.107186 0.617493 -0.144489
0.110153 0.617422 -0.144508
0.112887 0.616140 -0.144305
0.115238 0.612980 -0.143761
0.118104 0.612460 -0.143697
0.121149 0.612794 -0.143788
0.123854 0.611507 -0.143584
0.126168 0.608471 -0.143060
0.128993 0.607818 -0.142971
0.132775 0.611342 -0.143644
0.136154 0.612971 -0.143971
0.139636 0.614937 -0.144360
0.142360 0.613691 -0.144162
0.146073 0.616434 -0.144693
0.149739 0.618857 -0.145165
0.152479 0.617580 -0.144960
0.153927 0.611431 -0.143864
0.156687 0.610352 -0.143695
0.159583 0.609780 -0.143619
0.163314 0.612186 -0.144087
0.166634 0.613026 -0.144268
0.170394 0.615325 -0.144717
0.172662 0.612440 -0.144216
0.176060 0.613391 -0.144417
0.178806 0.612133 -0.144213
0.182229 0.613062 -0.144410
0.184527 0.610353 -0.143939
0.185933 0.604906 -0.142966
0.189846 0.607302 -0.143431
0.192939 0.607101 -0.143420
0.195905 0.606487 -0.143332
0.199213 0.606857 -0.143425
0.202500 0.607110 -0.143496
0.207764 0.612939 -0.144590
0.210778 0.612245 -0.144487
0.214103 0.612386 -0.144537
0.216488 0.609922 -0.144108
0.218923 0.607621 -0.143708
0.223688 0.611494 -0.144443
0.228142 0.614403 -0.145001
0.230673 0.612248 -0.144627
0.232882 0.609290 -0.144105
0.235477 0.607334 -0.143767
0.238145 0.605565 -0.143463
0.242991 0.609089 -0.144134
0.246391 0.609007 -0.144140
0.249551 0.608316 -0.144033
0.250916 0.603416 -0.143152
0.253890 0.602303 -0.142967
0.257048 0.601595 -0.142857
0.263560 0.608380 -0.144128
0.267818 0.609966 -0.144440
0.270434 0.607890 -0.144078
0.274082 0.608054 -0.144128
0.278042 0.608843 -0.144294
0.276646 0.598326 -0.142374
0.282028 0.602111 -0.143092
0.284813 0.600455 -0.142807
0.290832 0.605371 -0.143734
0.293536 0.603516 -0.143412
0.297659 0.604499 -0.143614
0.300592 0.603128 -0.143382
0.303196 0.601149 -0.143038
0.308406 0.604195 -0.143622
0.312450 0.604978 -0.143789
0.315921 0.604691 -0.143759
0.319287 0.604235 -0.143698
0.322578 0.603680 -0.143619
0.330890 0.612235 -0.145226
0.333595 0.610633 -0.144956
0.332301 0.602039 -0.143392
0.332154 0.595678 -0.142242
0.338228 0.600279 -0.143122
-0.356081 0.599538 -0.137696
-0.353491 0.600889 -0.137984
-0.351623 0.603592 -0.138513
-0.349438 0.605853 -0.138965
-0.345366 0.604861 -0.138845
-0.341960 0.605096 -0.138943
-0.338369 0.605044 -0.138991
-0.335127 0.605671 -0.139160
-0.331735 0.606066 -0.139289
-0.328626 0.607025 -0.139519
-0.325093 0.607221 -0.139614
-0.322051 0.608379 -0.139880
-0.318281 0.608154 -0.139902
-0.314735 0.608368 -0.140002
-0.311102 0.608407 -0.140071
-0.307451 0.608403 -0.140133
-0.303888 0.608565 -0.140224
-0.300318 0.608696 -0.140310
-0.295851 0.606932 -0.140058
-0.292567 0.607605 -0.140239
-0.289341 0.608388 -0.140440
-0.286060 0.609040 -0.140618
-0.282606 0.609292 -0.140724
-0.278966 0.609099 -0.140750
-0.275606 0.609493 -0.140880
-0.272270 0.609913 -0.141015
-0.269101 0.610688 -0.141213
-0.265360 0.610095 -0.141165
-0.261668 0.609558 -0.141127
-0.257936 0.608864 -0.141061
-0.254671 0.609248 -0.141186
-0.251451 0.609708 -0.141325
-0.247961 0.609453 -0.141335
-0.244033 0.608028 -0.141135
-0.241171 0.609274 -0.141413
-0.238191 0.610199 -0.141633
-0.234530 0.609289 -0.141523
-0.231029 0.608737 -0.141477
-0.227835 0.608969 -0.141571
-0.224811 0.609633 -0.141742
-0.221740 0.610140 -0.141885
-0.218217 0.609321 -0.141788
-0.214945 0.609161 -0.141810
-0.211687 0.608999 -0.141830
-0.208922 0.610268 -0.142108
-0.205439 0.609341 -0.141990
-0.202546 0.610178 -0.142189
-0.199698 0.611142 -0.142411
-0.195930 0.609143 -0.142097
-0.192931 0.609550 -0.142218
-0.189943 0.609966 -0.142340
-0.186944 0.610323 -0.142450
-0.184040 0.610982 -0.142615
-0.180741 0.610248 -0.142528
-0.177569 0.609900 -0.142510
-0.174441 0.609669 -0.142512
-0.171503 0.610093 -0.142633
-0.168633 0.610755 -0.142797
-0.165408 0.610050 -0.142713
-0.162407 0.610163 -0.142776
-0.159631 0.611141 -0.142997
-0.156731 0.611628 -0.143128
-0.153587 0.611091 -0.143072
-0.150430 0.610445 -0.142997
-0.147518 0.610807 -0.143104
-0.144635 0.611283 -0.143233
-0.141549 0.610836 -0.143192
-0.138416 0.610129 -0.143104
-0.135358 0.609710 -0.143069
-0.132685 0.611115 -0.143365
-0.129748 0.611256 -0.143431
-0.126723 0.610932 -0.143412
-0.123740 0.610784 -0.143424
-0.120841 0.611056 -0.143513
-0.117951 0.611368 -0.143610
-0.115145 0.612155 -0.143793
-0.112196 0.612129 -0.143827
-0.109059 0.610965 -0.143653
-0.106257 0.611767 -0.143838
-0.103267 0.611411 -0.143811
-0.100391 0.611757 -0.143913
-0.097407 0.611380 -0.143882
-0.094439 0.611070 -0.143863
-0.091532 0.611162 -0.143918
-0.088588 0.610970 -0.143920
-0.085881 0.612578 -0.144252
-0.082986 0.612780 -0.144327
-0.080001 0.612236 -0.144264
-0.077013 0.611598 -0.144185
-0.074075 0.611355 -0.144177
-0.071159 0.611273 -0.144199
-0.068298 0.611724 -0.144318
-0.065404 0.611866 -0.144381
-0.062507 0.611964 -0.144436
-0.059640 0.612417 -0.144556
-0.056670 0.611640 -0.144449
-0.053768 0.611641 -0.144486
-0.050895 0.612042 -0.144596
-0.047959 0.611535 -0.144539
-0.045046 0.611315 -0.144534
-0.042151 0.611376 -0.144582
-0.039277 0.611797 -0.144695
-0.036384 0.611933 -0.144756
-0.033712 0.617132 -0.145750
-0.030798 0.617353 -0.145827
-0.027848 0.616601 -0.145724
-0.024856 0.614162 -0.145310
-0.021963 0.614776 -0.145459
-0.019035 0.613925 -0.145338
-0.016129 0.613946 -0.145377
-0.013244 0.616034 -0.145799
-0.010325 0.615719 -0.145776
-0.007410 0.614879 -0.145656
-0.004500 0.614522 -0.145625
-0.001594 0.614079 -0.145579
0.001319 0.614489 -0.145690
0.004266 0.616587 -0.146113
0.007186 0.616571 -0.146146
0.009990 0.612383 -0.145405
0.012958 0.614460 -0.145825
0.015930 0.616134 -0.146170
0.018856 0.616291 -0.146234
0.021791 0.616600 -0.146326
0.024432 0.611147 -0.145350
0.027513 0.614414 -0.145991
0.030490 0.615469 -0.146221
0.033599 0.618360 -0.146792
0.036611 0.619475 -0.147034
0.039675 0.621138 -0.147378
0.042383 0.618126 -0.146853
0.045189 0.616602 -0.146605
0.048282 0.618437 -0.146980
0.051238 0.618627 -0.147050
0.054087 0.617701 -0.146912
0.056711 0.614677 -0.146384
0.059391 0.612427 -0.145999
0.062400 0.613250 -0.146186
0.064685 0.607862 -0.145216
0.067728 0.609052 -0.145471
0.070829 0.610588 -0.145791
0.073812 0.611104 -0.145921
0.076653 0.610543 -0.145849
0.079499 0.610033 -0.145788
0.082447 0.610237 -0.145859
0.086375 0.616864 -0.147129
0.089384 0.617204 -0.147226
0.092089 0.615620 -0.146963
0.095189 0.616480 -0.147157
0.097591 0.613198 -0.146577
0.101113 0.616445 -0.147216
0.104227 0.617236 -0.147397
0.107479 0.618713 -0.147706
0.110798 0.620447 -0.148063
0.113319 0.617981 -0.147635
0.116876 0.620792 -0.148193
0.118622 0.614613 -0.147069
0.120917 0.611312 -0.146483
0.123892 0.611303 -0.146513
0.126833 0.611118 -0.146510
0.129680 0.610494 -0.146425
0.132642 0.610373 -0.146434
0.135656 0.610454 -0.146480
0.138859 0.611291 -0.146668
0.142404 0.613472 -0.147109
0.145814 0.614992 -0.147425
0.149721 0.618376 -0.148091
0.151054 0.611674 -0.146864
0.153511 0.609447 -0.146476
0.156908 0.610764 -0.146754
0.160154 0.611450 -0.146913
0.163132 0.611116 -0.146881
0.166406 0.611806 -0.147041
0.170071 0.613785 -0.147443
0.172361 0.610994 -0.146948
0.175172 0.610002 -0.146790
0.179090 0.612639 -0.147316
0.182626 0.613916 -0.147586
0.184010 0.608284 -0.146555
0.186221 0.605379 -0.146036
0.189639 0.606237 -0.146227
0.193048 0.607000 -0.146399
0.196452 0.607686 -0.146557
0.199496 0.607253 -0.146503
0.202775 0.607469 -0.146572
0.206973 0.610249 -0.147124
0.211137 0.612808 -0.147635
0.214656 0.613467 -0.147788
0.217432 0.612044 -0.147547
0.220259 0.610754 -0.147331
0.224974 0.614442 -0.148055
0.228216 0.614144 -0.148026
0.231191 0.613124 -0.147860
0.234542 0.613038 -0.147871
0.238288 0.613893 -0.148060
0.240204 0.610178 -0.147384
0.241591 0.605235 -0.146475
0.246054 0.607742 -0.146976
0.248169 0.604595 -0.146407
0.250943 0.603021 -0.146135
0.253961 0.602008 -0.145969
0.259403 0.606478 -0.146841
0.262812 0.606239 -0.146822
0.265463 0.604292 -0.146479
0.271047 0.608756 -0.147351
0.273543 0.606420 -0.146934
0.274271 0.600349 -0.145809
0.280378 0.605696 -0.146848
0.280353 0.598163 -0.145445
0.287482 0.605449 -0.146853
0.290846 0.604917 -0.146778
0.294460 0.604880 -0.146798
0.298241 0.605163 -0.146878
0.301615 0.604638 -0.146805
0.303045 0.600369 -0.146021
0.308262 0.603427 -0.146629
0.312776 0.605095 -0.146973
0.316086 0.604498 -0.146888
0.319539 0.604196 -0.146859
0.323484 0.604827 -0.147007
0.329828 0.609803 -0.147983
0.332085 0.607418 -0.147559
0.331226 0.599624 -0.146106
0.333123 0.596859 -0.145611
0.336276 0.596378 -0.145550
-0.359202 0.604215 -0.141708
-0.355170 0.603129 -0.141559
-0.352331 0.604168 -0.141797
-0.349233 0.604835 -0.141968
-0.346002 0.605337 -0.142111
-0.342665 0.605709 -0.142231
-0.338975 0.605492 -0.142245
-0.335282 0.605304 -0.142264
-0.332118 0.606125 -0.142468
-0.328611 0.606348 -0.142564
-0.325436 0.607224 -0.142779
-0.321950 0.607536 -0.142892
-0.318609 0.608145 -0.143060
-0.315091 0.608420 -0.143166
-0.311428 0.608411 -0.143221
-0.307887 0.608637 -0.143319
-0.304205 0.608567 -0.143363
-0.300864 0.609180 -0.143532
-0.297426 0.609582 -0.143662
-0.293251 0.608410 -0.143503
-0.289741 0.608603 -0.143595
-0.286289 0.608895 -0.143704
-0.282888 0.609270 -0.143828
-0.279168 0.608907 -0.143816
-0.275777 0.609239 -0.143932
-0.272659 0.610160 -0.144155
-0.269234 0.610352 -0.144244
-0.265525 0.609840 -0.144203
-0.262304 0.610429 -0.144365
-0.257907 0.608152 -0.143998
-0.254886 0.609131 -0.144230
-0.251498 0.609180 -0.144291
-0.247982 0.608862 -0.144283
-0.244113 0.607589 -0.144099
-0.241186 0.608665 -0.144348
-0.238278 0.609780 -0.144603
-0.234571 0.608750 -0.144462
-0.231346 0.608948 -0.144548
-0.228050 0.608911 -0.144589
-0.224748 0.608808 -0.144618
-0.221579 0.609034 -0.144707
-0.218458 0.609361 -0.144815
-0.215370 0.609749 -0.144933
-0.212462 0.610637 -0.145144
-0.209019 0.609904 -0.145054
-0.205779 0.609724 -0.145066
-0.202618 0.609743 -0.145115
-0.199590 0.610139 -0.145233
-0.196331 0.609769 -0.145209
-0.193216 0.609815 -0.145262
-0.189985 0.609443 -0.145236
-0.187049 0.610010 -0.145385
-0.184122 0.610595 -0.145537
-0.180965 0.610360 -0.145536
-0.177639 0.609478 -0.145415
-0.174605 0.609586 -0.145477
-0.171653 0.609969 -0.145590
-0.168593 0.609926 -0.145624
-0.165591 0.610070 -0.145692
-0.162629 0.610341 -0.145784
-0.159671 0.610611 -0.145875
-0.156871 0.611503 -0.146083
-0.153763 0.611125 -0.146053
-0.150453 0.609849 -0.145855
-0.147497 0.610017 -0.145926
-0.144722 0.610965 -0.146143
-0.141802 0.611275 -0.146241
-0.138658 0.610537 -0.146142
-0.135602 0.610152 -0.146109
-0.132690 0.610421 -0.146199
-0.129873 0.611153 -0.146375
-0.126927 0.611241 -0.146430
-0.123909 0.610936 -0.146411
-0.120939 0.610844 -0.146433
-0.118215 0.612076 -0.146702
-0.115305 0.612308 -0.146783
-0.112339 0.612206 -0.146802
-0.109261 0.611413 -0.146691
-0.106272 0.611100 -0.146671
-0.103402 0.611498 -0.146783
-0.100453 0.611385 -0.146799
-0.097527 0.611406 -0.146841
-0.094633 0.611633 -0.146920
-0.091744 0.611885 -0.147005
-0.088979 0.613073 -0.147265
-0.086036 0.612947 -0.147279
-0.083048 0.612450 -0.147222
-0.080026 0.611606 -0.147100
-0.077097 0.611476 -0.147113
-0.074181 0.611450 -0.147144
-0.071341 0.612121 -0.147307
-0.068398 0.611822 -0.147287
-0.065474 0.611683 -0.147297
-0.062568 0.611700 -0.147337
-0.059678 0.611898 -0.147411
-0.056773 0.611926 -0.147452
-0.053879 0.612079 -0.147517
-0.050961 0.611925 -0.147524
-0.048013 0.611269 -0.147436
-0.045092 0.610951 -0.147412
-0.042242 0.611782 -0.147605
-0.039336 0.611714 -0.147628
-0.036461 0.612243 -0.147764
-0.033658 0.614548 -0.148235
-0.030979 0.620549 -0.149407
-0.027879 0.615927 -0.148568
-0.024898 0.613841 -0.148209
-0.021975 0.613287 -0.148140
-0.019078 0.613764 -0.148265
-0.016197 0.615595 -0.148648
-0.013306 0.618081 -0.149155
-0.010373 0.617451 -0.149071
-0.007446 0.616260 -0.148881
-0.004531 0.615039 -0.148685
-0.001639 0.612308 -0.148202
0.001262 0.612326 -0.148241
0.004201 0.614332 -0.148657
0.007126 0.614908 -0.148801
0.010101 0.617088 -0.149251
0.013015 0.616736 -0.149219
0.015887 0.615342 -0.148990
0.018795 0.615116 -0.148982
0.021634 0.613430 -0.148696
0.024496 0.612496 -0.148553
0.027362 0.611788 -0.148453
0.030419 0.614316 -0.148969
0.033232 0.612746 -0.148705
0.036342 0.615605 -0.149285
0.039465 0.618250 -0.149824
0.042332 0.617375 -0.149692
0.045221 0.616845 -0.149626
0.048150 0.616798 -0.149652
0.051085 0.616815 -0.149690
0.053868 0.615286 -0.149433
0.056777 0.615089 -0.149430
0.059850 0.616413 -0.149717
0.062326 0.612345 -0.148974
0.064805 0.608624 -0.148298
0.067697 0.608529 -0.148314
0.070812 0.610170 -0.148662
0.073813 0.610828 -0.148821
0.076623 0.610027 -0.148702
0.079464 0.609483 -0.148632
0.082586 0.610864 -0.148930
0.086454 0.617059 -0.150151
0.089523 0.617759 -0.150319
0.092533 0.618031 -0.150405
0.094831 0.613988 -0.149664
0.097644 0.613158 -0.149539
0.100698 0.613729 -0.149682
0.104433 0.618017 -0.150539
0.107358 0.617695 -0.150511
0.110837 0.620277 -0.151040
0.114047 0.621333 -0.151277
0.116784 0.619951 -0.151046
0.120054 0.621211 -0.151322
0.121205 0.612298 -0.149643
0.124120 0.611979 -0.149615
0.127371 0.613174 -0.149878
0.129656 0.609994 -0.149299
0.132296 0.608469 -0.149039
0.135303 0.608550 -0.149087
0.139397 0.613134 -0.150003
0.142027 0.611519 -0.149725
0.145774 0.614418 -0.150316
0.149342 0.616472 -0.150745
0.152064 0.615154 -0.150524
0.153436 0.608746 -0.149321
0.157318 0.611864 -0.149955
0.160240 0.611341 -0.149887
0.162678 0.609068 -0.149481
0.165973 0.609858 -0.149666
0.169922 0.612840 -0.150274
0.172103 0.609689 -0.149698
0.174145 0.606145 -0.149045
0.180004 0.615199 -0.150827
0.183420 0.616040 -0.151021
0.184007 0.607838 -0.149469
0.186488 0.605777 -0.149102
0.189781 0.606234 -0.149222
0.193521 0.607989 -0.149594
0.196866 0.608473 -0.149719
0.199700 0.607403 -0.149544
0.202934 0.607481 -0.149590
0.208199 0.613281 -0.150745
0.210444 0.610415 -0.150222
0.213981 0.611150 -0.150396
0.217235 0.611052 -0.150409
0.219472 0.608191 -0.149886
0.221890 0.605843 -0.149462
0.225207 0.605857 -0.149497
0.228512 0.605791 -0.149515
0.231407 0.604647 -0.149324
0.238755 0.614589 -0.151286
0.241328 0.612472 -0.150907
0.240576 0.602309 -0.148964
0.242630 0.599086 -0.148369
0.247467 0.602469 -0.149058
0.250844 0.602321 -0.149060
0.254591 0.602984 -0.149220
0.257919 0.602637 -0.149184
0.260545 0.600691 -0.148837
0.265266 0.603379 -0.149391
0.270773 0.607675 -0.150259
0.275109 0.609307 -0.150608
0.277026 0.605722 -0.149942
0.279209 0.602755 -0.149396
0.283069 0.603309 -0.149535
0.290977 0.612113 -0.151283
0.291817 0.606388 -0.150199
0.293128 0.601725 -0.149322
0.297787 0.603769 -0.149753
0.301787 0.604473 -0.149922
0.303748 0.601226 -0.149321
0.309116 0.604550 -0.150003
0.312444 0.603962 -0.149921
0.316101 0.604016 -0.149964
0.319323 0.603286 -0.149855
0.323426 0.604205 -0.150068
0.327794 0.605613 -0.150377
0.329136 0.601634 -0.149633
0.332075 0.600602 -0.149465
0.333491 0.596982 -0.148790
0.335129 0.593871 -0.148216
-0.359570 0.604176 -0.144895
-0.355739 0.603447 -0.144804
-0.352446 0.603705 -0.144898
-0.349199 0.604113 -0.145022
-0.346069 0.604792 -0.145197
-0.343018 0.605680 -0.145412
-0.339768 0.606271 -0.145571
-0.336315 0.606539 -0.145671
-0.332698 0.606542 -0.145721
-0.328782 0.606009 -0.145672
-0.325377 0.606453 -0.145805
-0.322234 0.607423 -0.146038
-0.318508 0.607291 -0.146064
-0.315283 0.608140 -0.146274
-0.312046 0.608981 -0.146484
-0.308448 0.609108 -0.146558
-0.305027 0.609584 -0.146699
-0.301373 0.609573 -0.146748
-0.297726 0.609553 -0.146794
-0.294105 0.609560 -0.146846
-0.290529 0.609636 -0.146911
-0.286584 0.608880 -0.146818
-0.283328 0.609581 -0.147000
-0.279913 0.609910 -0.147112
-0.276126 0.609371 -0.147059
-0.272865 0.609975 -0.147222
-0.268445 0.607870 -0.146872
-0.265861 0.609972 -0.147318
-0.261634 0.608179 -0.147026
-0.258424 0.608744 -0.147181
-0.254968 0.608676 -0.147215
-0.252230 0.610338 -0.147576
-0.247700 0.607497 -0.147084
-0.244231 0.607234 -0.147080
-0.241385 0.608525 -0.147370
-0.238395 0.609429 -0.147587
-0.235142 0.609612 -0.147667
-0.231603 0.608984 -0.147592
-0.228392 0.609188 -0.147675
-0.224817 0.608341 -0.147558
-0.221676 0.608647 -0.147660
-0.218721 0.609450 -0.147856
-0.215705 0.610060 -0.148015
-0.212551 0.610235 -0.148092
-0.209323 0.610149 -0.148118
-0.205918 0.609479 -0.148033
-0.202808 0.609663 -0.148110
-0.199650 0.609658 -0.148150
-0.196535 0.609750 -0.148209
-0.193461 0.609940 -0.148287
-0.190267 0.609702 -0.148283
-0.187190 0.609811 -0.148344
-0.184271 0.610426 -0.148502
-0.181041 0.609944 -0.148451
-0.177797 0.609357 -0.148379
-0.174744 0.609407 -0.148428
-0.171777 0.609741 -0.148532
-0.168879 0.610311 -0.148680
-0.165756 0.610012 -0.148663
-0.162726 0.610029 -0.148705
-0.159861 0.610673 -0.148867
-0.156940 0.611085 -0.148985
-0.154030 0.611529 -0.149109
-0.151160 0.612136 -0.149264
-0.148104 0.611933 -0.149264
-0.144654 0.609955 -0.148923
-0.141864 0.610838 -0.149130
-0.139359 0.613052 -0.149593
-0.136040 0.611500 -0.149334
-0.133092 0.611642 -0.149399
-0.130093 0.611512 -0.149412
-0.127137 0.611569 -0.149460
-0.124167 0.611537 -0.149491
-0.121215 0.611575 -0.149536
-0.118277 0.611667 -0.149591
-0.115404 0.612111 -0.149714
-0.112421 0.611922 -0.149715
-0.109364 0.611266 -0.149626
-0.106375 0.610959 -0.149603
-0.103586 0.611884 -0.149818
-0.100541 0.611180 -0.149720
-0.097638 0.611363 -0.149792
-0.094778 0.611841 -0.149920
-0.091929 0.612413 -0.150067
-0.089010 0.612487 -0.150118
-0.086122 0.612790 -0.150213
-0.083153 0.612454 -0.150185
-0.080057 0.611018 -0.149944
-0.077277 0.612184 -0.150205
-0.074328 0.611910 -0.150188
-0.071322 0.611055 -0.150059
-0.068512 0.612050 -0.150288
-0.065540 0.611445 -0.150207
-0.062666 0.611838 -0.150319
-0.059768 0.611976 -0.150381
-0.056843 0.611794 -0.150382
-0.053849 0.610689 -0.150204
-0.051038 0.611947 -0.150484
-0.048089 0.611338 -0.150401
-0.045197 0.611521 -0.150472
-0.042272 0.611159 -0.150438
-0.039366 0.611067 -0.150456
-0.036448 0.610712 -0.150423
-0.033723 0.614676 -0.151227
-0.030986 0.619273 -0.152155
-0.028021 0.618500 -0.152041
-0.024958 0.614157 -0.151233
-0.022031 0.613589 -0.151159
-0.019126 0.613870 -0.151249
-0.016208 0.613451 -0.151203
-0.013288 0.612477 -0.151049
-0.010380 0.611934 -0.150979
-0.007478 0.612760 -0.151175
-0.004565 0.614556 -0.151560
-0.001660 0.613362 -0.151363
0.001226 0.611631 -0.151061
0.004138 0.612234 -0.151214
0.007091 0.614350 -0.151662
0.010056 0.616165 -0.152051
0.012977 0.616097 -0.152073
0.015863 0.615080 -0.151910
0.018730 0.613827 -0.151701
0.021634 0.613610 -0.151694
0.024514 0.612967 -0.151603
