ply
format ascii 1.0
comment ---
element vertex 1771
property float x
property float y
property float z
element face 0
property list uchar uint vertex_indices
end_header
0.584212 0.600114 0.049633
0.586283 0.598395 0.049433
0.588480 0.597513 0.049344
0.589719 0.589844 0.048280
0.592148 0.590534 0.048399
0.594360 0.589623 0.048283
0.597843 0.596715 0.049299
0.599957 0.594845 0.049035
0.602291 0.594294 0.048953
0.606633 0.605362 0.050521
0.610166 0.611170 0.051336
0.612741 0.611324 0.051343
0.615247 0.611030 0.051283
0.616653 0.604952 0.050398
0.619020 0.604017 0.050244
0.621093 0.601628 0.049881
0.623447 0.600676 0.049723
0.625748 0.599484 0.049529
0.628332 0.599621 0.049525
0.631104 0.600577 0.049637
0.633618 0.600322 0.049578
0.636039 0.599658 0.049462
0.638633 0.599734 0.049452
0.641332 0.600220 0.049502
0.643967 0.600413 0.049513
0.646405 0.599795 0.049410
0.648572 0.598134 0.049162
0.650308 0.594879 0.048690
0.652435 0.593197 0.048444
0.654937 0.592942 0.048402
0.657221 0.591896 0.048251
0.660582 0.594691 0.048647
0.665044 0.601207 0.049573
0.668338 0.603484 0.049901
0.670471 0.601770 0.049668
0.673689 0.603681 0.049950
0.677917 0.608795 0.050690
0.677199 0.597932 0.049169
0.680367 0.599611 0.049429
0.683443 0.600941 0.049642
0.686193 0.601219 0.049709
0.688880 0.601283 0.049750
0.691470 0.601042 0.049750
0.693729 0.599827 0.049615
0.696049 0.598810 0.049511
0.700001 0.602403 0.050066
0.702429 0.601638 0.050005
0.703945 0.598380 0.049592
0.708934 0.604566 0.050527
0.712007 0.605462 0.050712
0.716564 0.610203 0.051449
0.721327 0.615327 0.052246
0.722895 0.612138 0.051858
0.725292 0.611097 0.051779
0.728200 0.611332 0.051887
0.725368 0.597471 0.049975
0.727059 0.594892 0.049683
0.730451 0.596413 0.049982
0.733178 0.596305 0.050050
0.736131 0.596702 0.050193
0.738481 0.595681 0.050135
0.743903 0.601627 0.051086
0.747560 0.603450 0.051445
0.749226 0.600796 0.051160
0.751787 0.600139 0.051166
0.754023 0.598769 0.051071
0.758573 0.602342 0.051697
0.760953 0.601232 0.051645
0.763134 0.599705 0.051535
0.766484 0.600595 0.051779
0.770808 0.603417 0.052310
0.772170 0.600192 0.051958
0.773480 0.596912 0.051599
0.776175 0.596398 0.051648
0.780301 0.598650 0.052107
0.783090 0.598255 0.052178
0.786863 0.599709 0.052526
0.792031 0.603722 0.053256
0.795742 0.604912 0.053571
0.798156 0.603667 0.053528
0.798915 0.599412 0.053039
0.801317 0.598174 0.052999
0.804032 0.597489 0.053045
0.807951 0.598907 0.053407
0.810659 0.598160 0.053448
0.813305 0.597293 0.053472
0.816314 0.597032 0.053590
0.820335 0.598451 0.053964
0.825729 0.602100 0.054679
0.829795 0.603451 0.055051
0.835297 0.607089 0.055773
0.838982 0.607686 0.056037
0.841530 0.606423 0.056020
0.844136 0.605247 0.056019
0.845356 0.601893 0.055685
0.846176 0.597955 0.055261
0.848965 0.597088 0.055311
0.852367 0.597138 0.055504
0.855336 0.596506 0.055594
0.858328 0.595888 0.055689
0.864110 0.599365 0.056423
0.868684 0.600978 0.056872
0.872096 0.600849 0.057053
0.875910 0.601266 0.057322
0.879154 0.600833 0.057460
0.884078 0.602736 0.057970
0.889036 0.604615 0.058480
0.890801 0.602032 0.058288
0.890245 0.596305 0.057597
0.893453 0.595733 0.057726
0.896339 0.594710 0.057785
0.898562 0.592794 0.057704
0.903921 0.594994 0.058286
0.918015 0.608457 0.060686
0.922205 0.608896 0.060999
0.920427 0.601690 0.060078
0.920030 0.596329 0.059453
0.923287 0.595599 0.059582
0.927296 0.595781 0.059863
0.929876 0.594171 0.059853
0.931278 0.591125 0.059610
0.932027 0.587316 0.059242
0.948541 0.602333 0.061990
0.944347 0.592583 0.060646
0.946075 0.589904 0.060474
0.949818 0.589575 0.060696
0.953365 0.588990 0.060879
0.961191 0.593244 0.061881
0.973053 0.601932 0.063640
0.978637 0.603410 0.064194
0.981972 0.602336 0.064320
0.979673 0.595068 0.063394
0.982958 0.593955 0.063518
0.985422 0.591942 0.063491
0.990562 0.592776 0.063959
0.996257 0.594140 0.064525
1.001476 0.594942 0.065002
1.006653 0.595642 0.065468
1.011563 0.596012 0.065883
1.015182 0.595021 0.066066
1.018439 0.593638 0.066186
1.031823 0.602352 0.068101
1.035861 0.601612 0.068352
1.037917 0.598896 0.068255
1.041648 0.597811 0.068455
1.044312 0.595672 0.068471
1.050418 0.596808 0.069085
1.056097 0.597471 0.069623
1.060037 0.596446 0.069862
1.066481 0.597711 0.070528
1.068836 0.595148 0.070498
1.075280 0.596302 0.071163
1.081312 0.597011 0.071756
1.085908 0.596372 0.072107
1.091316 0.596411 0.072594
1.095896 0.595668 0.072943
1.104515 0.598392 0.073961
1.109725 0.598076 0.074413
1.114025 0.596935 0.074716
1.119546 0.596788 0.075221
1.123730 0.595468 0.075508
1.131073 0.596729 0.076308
1.136064 0.595977 0.076726
1.142805 0.596600 0.077427
1.147861 0.595794 0.077857
1.153862 0.595694 0.078439
1.161091 0.596501 0.079215
1.167709 0.596751 0.079893
1.173324 0.596155 0.080412
1.180338 0.596577 0.081151
1.186281 0.596113 0.081721
1.192273 0.595626 0.082298
1.200202 0.596523 0.083176
1.205764 0.595592 0.083684
1.212402 0.595394 0.084358
1.217003 0.593662 0.084717
1.232076 0.599380 0.086684
1.237759 0.598271 0.087203
1.243049 0.596840 0.087660
1.250361 0.596772 0.088424
1.253618 0.593854 0.088568
1.259833 0.592937 0.089160
1.272919 0.596592 0.090782
1.276781 0.593970 0.091008
1.286249 0.595029 0.092070
1.295325 0.595749 0.093065
1.299912 0.593499 0.093383
1.309044 0.594137 0.094369
1.320934 0.596449 0.095751
1.327236 0.595165 0.096295
1.333110 0.593592 0.096767
1.342785 0.594332 0.097784
1.352851 0.595250 0.098842
1.364172 0.596862 0.100066
1.369193 0.594661 0.100358
1.384174 0.598328 0.102074
1.390359 0.596772 0.102500
1.400548 0.597530 0.103482
1.407900 0.596633 0.104037
1.415924 0.596118 0.104667
1.425528 0.596484 0.105500
1.432282 0.595256 0.105906
1.439529 0.594319 0.106360
1.449181 0.594705 0.107128
1.460570 0.596022 0.108110
1.467565 0.594980 0.108456
1.474711 0.594048 0.108799
1.484704 0.594635 0.109509
1.493916 0.594823 0.110084
1.503609 0.595274 0.110697
0.554668 0.594142 0.044955
0.556558 0.594966 0.045243
0.558581 0.596936 0.045675
0.560478 0.596789 0.045812
0.562455 0.597154 0.046007
0.564348 0.596190 0.046012
0.566362 0.596186 0.046135
0.568564 0.597729 0.046459
0.570689 0.598067 0.046609
0.572762 0.597598 0.046637
0.574994 0.598282 0.046813
0.577232 0.598701 0.046943
0.579364 0.597961 0.046904
0.581543 0.597418 0.046882
0.583648 0.596122 0.046748
0.585832 0.595305 0.046671
0.588644 0.598884 0.047190
0.590975 0.598720 0.047187
0.593964 0.602859 0.047769
0.595645 0.598045 0.047113
0.598192 0.598899 0.047230
0.601118 0.601928 0.047642
0.603747 0.602909 0.047767
0.605063 0.596110 0.046817
0.608207 0.599944 0.047327
0.610645 0.599619 0.047262
0.613297 0.600400 0.047346
0.615885 0.600749 0.047369
0.618538 0.601366 0.047427
0.621084 0.601379 0.047401
0.623184 0.599200 0.047074
0.625710 0.599100 0.047032
0.628304 0.599287 0.047030
0.631054 0.600150 0.047120
0.633677 0.600387 0.047126
0.636203 0.600174 0.047071
0.638581 0.599326 0.046931
0.641339 0.600070 0.047010
0.643948 0.600163 0.047002
0.646501 0.600016 0.046964
0.650414 0.605151 0.047650
0.653027 0.605114 0.047631
0.654757 0.601755 0.047160
0.655902 0.596360 0.046413
0.658176 0.595225 0.046252
0.661807 0.598920 0.046754
0.665449 0.602510 0.047244
0.667787 0.601506 0.047110
0.670542 0.601921 0.047172
0.672826 0.600756 0.047021
0.675852 0.602023 0.047207
0.677509 0.598860 0.046789
0.680311 0.599385 0.046879
0.683569 0.601284 0.047160
0.686257 0.601376 0.047197
0.688881 0.601253 0.047208
0.691464 0.600999 0.047203
0.693929 0.600391 0.047154
0.696397 0.599794 0.047109
0.700577 0.604021 0.047730
0.701556 0.599214 0.047113
0.704724 0.600520 0.047339
0.708402 0.603144 0.047749
0.711929 0.605271 0.048095
0.713463 0.602093 0.047713
0.715500 0.600282 0.047523
0.718042 0.599788 0.047516
0.720629 0.599397 0.047527
0.723244 0.599066 0.047548
0.725027 0.596680 0.047288
0.727448 0.595879 0.047251
0.730148 0.595739 0.047307
0.732275 0.594232 0.047176
0.734570 0.593129 0.047104
0.738255 0.595222 0.047479
0.743226 0.600156 0.048253
0.746992 0.602244 0.048634
0.750073 0.602739 0.048797
0.751345 0.599242 0.048404
0.754534 0.599945 0.048601
0.758326 0.601890 0.048975
0.759933 0.599158 0.048695
0.762229 0.597899 0.048624
0.766764 0.601250 0.049204
0.768032 0.597851 0.048836
0.767859 0.591608 0.048068
0.770543 0.591158 0.048118
0.774233 0.592668 0.048449
0.778202 0.594658 0.048852
0.779957 0.592324 0.048642
0.787101 0.600248 0.049896
0.792701 0.605069 0.050714
0.797593 0.608440 0.051328
0.799630 0.606462 0.051181
0.799436 0.600450 0.050456
0.801595 0.598764 0.050352
0.804440 0.598305 0.050427
0.808331 0.599667 0.050766
0.810910 0.598688 0.050770
0.812994 0.596849 0.050652
0.815234 0.595285 0.050574
0.820133 0.598203 0.051151
0.823730 0.598861 0.051402
0.827995 0.600576 0.051810
0.834767 0.606318 0.052812
0.841098 0.611200 0.053693
0.844031 0.610517 0.053762
0.846196 0.608601 0.053650
0.847108 0.604730 0.053251
0.847286 0.599770 0.052691
0.848458 0.596402 0.052366
0.851384 0.595738 0.052444
0.855036 0.596147 0.052684
0.857317 0.594476 0.052616
0.865337 0.601267 0.053817
0.870897 0.604302 0.054462
0.872687 0.601797 0.054278
0.876175 0.601739 0.054463
0.881736 0.604587 0.055092
0.884985 0.604103 0.055220
0.890830 0.607203 0.055895
0.893649 0.606046 0.055927
0.890719 0.597044 0.054760
0.893313 0.595638 0.054755
0.895907 0.594226 0.054750
0.899236 0.593781 0.054897
0.903180 0.594118 0.055167
0.914875 0.604478 0.056995
0.920415 0.606692 0.057569
0.920414 0.601772 0.057035
0.919459 0.595706 0.056321
0.922424 0.594620 0.056387
0.927273 0.595851 0.056819
0.929736 0.594098 0.056786
0.932288 0.592453 0.056772
0.937294 0.593754 0.057228
0.943044 0.595884 0.057821
0.945263 0.593767 0.057742
0.947193 0.591316 0.057611
0.952724 0.593047 0.058155
0.958415 0.594894 0.058723
0.963113 0.595539 0.059104
0.966438 0.594587 0.059230
0.972245 0.596386 0.059809
0.976002 0.595846 0.060012
0.979453 0.594940 0.060159
0.982783 0.593881 0.060285
0.987242 0.594016 0.060613
0.991434 0.593825 0.060892
0.995444 0.593404 0.061139
0.997491 0.590895 0.061041
1.005318 0.594383 0.061953
1.010084 0.594622 0.062328
1.014653 0.594613 0.062667
1.017035 0.592355 0.062631
1.026911 0.597583 0.063876
1.032079 0.598008 0.064312
1.038816 0.599920 0.065011
1.040004 0.596359 0.064774
1.045610 0.597070 0.065282
1.049171 0.595770 0.065447
1.056365 0.597879 0.066215
1.061357 0.597840 0.066617
1.065648 0.597101 0.066903
1.069791 0.596189 0.067165
1.076790 0.597844 0.067893
1.082895 0.598611 0.068474
1.086720 0.597274 0.068686
1.090183 0.595587 0.068841
1.097247 0.597036 0.069574
1.103381 0.597595 0.070157
1.109593 0.598155 0.070751
1.113508 0.596690 0.070982
1.120091 0.597447 0.071634
1.126125 0.597674 0.072199
1.129650 0.595758 0.072373
1.135632 0.595834 0.072930
1.142346 0.596443 0.073601
1.147819 0.595980 0.074080
1.155919 0.597557 0.074962
1.162266 0.597657 0.075574
1.166560 0.596085 0.075872
1.173506 0.596532 0.076576
1.178879 0.595699 0.077039
1.186734 0.596700 0.077878
1.192308 0.595899 0.078372
1.198801 0.595730 0.079004
1.207079 0.596812 0.079901
1.213660 0.596566 0.080543
1.219310 0.595583 0.081046
1.226160 0.595408 0.081725
1.237711 0.598496 0.083095
1.241788 0.596216 0.083361
1.249658 0.596542 0.084181
1.255056 0.595097 0.084637
1.260706 0.593783 0.085127
1.270749 0.595385 0.086252
1.278139 0.595121 0.086985
1.288118 0.596504 0.088086
1.293885 0.595048 0.088573
1.301041 0.594456 0.089253
1.308893 0.594262 0.090025
1.319752 0.595914 0.091216
1.328288 0.596024 0.092064
1.334623 0.594717 0.092590
1.344407 0.595501 0.093591
1.353017 0.595510 0.094412
1.364216 0.597031 0.095582
1.372934 0.597008 0.096387
1.381117 0.596636 0.097100
1.387755 0.595341 0.097582
1.400438 0.597529 0.098882
1.407313 0.596337 0.099359
1.415375 0.595821 0.099979
1.423801 0.595505 0.100629
1.435221 0.596843 0.101662
1.444112 0.596763 0.102328
1.454128 0.597295 0.103120
1.461679 0.596492 0.103556
1.467751 0.594924 0.103772
1.474172 0.593578 0.104011
1.484873 0.594508 0.104794
1.494465 0.594862 0.105403
1.498726 0.592492 0.105287
0.554284 0.591547 0.042447
0.556490 0.596519 0.043261
0.558334 0.596036 0.043354
0.560268 0.596237 0.043526
0.562215 0.596158 0.043651
0.564280 0.596982 0.043884
0.566338 0.597292 0.044039
0.568374 0.596999 0.044104
0.570454 0.596830 0.044174
0.572357 0.594723 0.043978
0.575043 0.599472 0.044679
0.577174 0.598831 0.044657
0.579315 0.598076 0.044610
0.581294 0.595842 0.044357
0.583336 0.594043 0.044152
0.586574 0.601080 0.045114
0.588876 0.600733 0.045087
0.591471 0.602289 0.045306
0.594201 0.604513 0.045606
0.596117 0.601144 0.045157
0.598774 0.602558 0.045338
0.601610 0.604886 0.045635
0.603823 0.603263 0.045403
0.605428 0.598110 0.044698
0.608272 0.600168 0.044948
0.610601 0.599220 0.044796
0.613335 0.600431 0.044928
0.615879 0.600540 0.044912
0.618384 0.600395 0.044862
0.620868 0.600119 0.044793
0.623310 0.599614 0.044693
0.625730 0.599000 0.044579
0.628225 0.598733 0.044512
0.631178 0.600520 0.044717
0.633759 0.600564 0.044692
0.636306 0.600440 0.044646
0.639000 0.600927 0.044683
0.641322 0.599836 0.044513
0.644050 0.600420 0.044566
0.646373 0.599357 0.044404
0.650640 0.605889 0.045246
0.653756 0.607763 0.045476
0.655642 0.604943 0.045089
0.657038 0.600421 0.044480
0.659020 0.598162 0.044173
0.662265 0.600443 0.044467
0.664939 0.600649 0.044491
0.667693 0.601103 0.044550
0.670438 0.601499 0.044604
0.674116 0.604949 0.045065
0.676745 0.604864 0.045062
0.678099 0.600696 0.044523
0.680666 0.600459 0.044507
0.683719 0.601712 0.044690
0.685883 0.600209 0.044512
0.688692 0.600667 0.044597
0.691498 0.601087 0.044679
0.694045 0.600721 0.044661
0.696808 0.600968 0.044727
0.700874 0.604861 0.045278
0.702880 0.602902 0.045058
0.704095 0.598814 0.044559
0.707426 0.600531 0.044832
0.711497 0.604148 0.045361
0.712077 0.598488 0.044661
0.715490 0.600292 0.044955
0.718053 0.599855 0.044954
0.720731 0.599696 0.044993
0.723285 0.599213 0.044991
0.726543 0.600445 0.045221
0.728350 0.598113 0.044979
0.730046 0.595553 0.044708
0.732880 0.595717 0.044804
0.736160 0.596888 0.045037
0.739347 0.597795 0.045237
0.742217 0.597936 0.045338
0.746167 0.600466 0.045763
0.749973 0.602590 0.046136
0.752216 0.601220 0.046043
0.753547 0.597890 0.045686
0.756815 0.598745 0.045897
0.759577 0.598487 0.045960
0.762536 0.598620 0.046078
0.766646 0.601091 0.046516
0.770236 0.602420 0.046802
0.773338 0.602709 0.046950
0.775291 0.600682 0.046784
0.776963 0.598119 0.046547
0.779689 0.597636 0.046596
0.782697 0.597677 0.046718
0.788242 0.602506 0.047501
0.793559 0.606773 0.048210
0.796998 0.607427 0.048426
0.800123 0.607463 0.048560
0.799664 0.600956 0.047792
0.801804 0.599234 0.047685
0.804518 0.598538 0.047723
0.808418 0.599914 0.048050
0.810988 0.598918 0.048049
0.813031 0.597006 0.047923
0.815282 0.595460 0.047849
0.821648 0.600849 0.048749
0.825121 0.601273 0.048956
0.830190 0.604292 0.049531
0.835146 0.607032 0.050072
0.839217 0.608257 0.050402
0.846040 0.613825 0.051350
0.847607 0.610930 0.051103
0.848768 0.607426 0.050770
0.849118 0.602704 0.050263
0.847556 0.595111 0.049346
0.850040 0.593788 0.049324
0.852910 0.593041 0.049387
0.856084 0.592732 0.049514
0.865689 0.601880 0.051008
0.871081 0.604666 0.051590
0.873253 0.602709 0.051490
0.875867 0.601392 0.051484
0.882495 0.605757 0.052308
0.887638 0.607920 0.052816
0.892145 0.609126 0.053188
0.895587 0.608807 0.053340
0.890883 0.597361 0.051857
0.892894 0.595166 0.051733
0.895812 0.594193 0.051791
0.899997 0.594882 0.052098
0.903243 0.594293 0.052219
0.910525 0.598924 0.053121
0.917323 0.602811 0.053918
0.919369 0.600536 0.053798
0.919411 0.595741 0.053300
0.922426 0.594718 0.053370
0.927049 0.595670 0.053742
0.930745 0.595434 0.053938
0.933966 0.594589 0.054044
0.939832 0.596908 0.054637
0.946066 0.599587 0.055291
0.950608 0.600181 0.055632
0.951560 0.596527 0.055321
0.953913 0.594528 0.055267
0.959383 0.596110 0.055771
0.965185 0.598002 0.056330
0.967253 0.595612 0.056226
0.971348 0.595492 0.056480
0.974848 0.594678 0.056629
0.978467 0.593970 0.056799
0.984157 0.595485 0.057326
0.987173 0.594057 0.057391
0.989194 0.591552 0.057287
0.991076 0.588907 0.057164
0.997653 0.591183 0.057835
1.007625 0.596898 0.059070
1.010282 0.594949 0.059075
1.013232 0.593293 0.059131
1.017498 0.592950 0.059406
1.022569 0.593375 0.059813
1.029912 0.595997 0.060589
1.038248 0.599501 0.061521
1.039384 0.595896 0.061284
1.044929 0.596557 0.061761
1.050294 0.596986 0.062207
1.053780 0.595585 0.062353
1.060230 0.596936 0.062971
1.065515 0.597132 0.063402
1.069320 0.595915 0.063601
1.076016 0.597302 0.064253
1.083051 0.598918 0.064955
1.086593 0.597329 0.065113
1.090222 0.595794 0.065288
1.095124 0.595350 0.065659
1.103153 0.597578 0.066510
1.109050 0.597872 0.067033
1.113368 0.596759 0.067316
1.118138 0.595991 0.067668
1.125067 0.596985 0.068347
1.129320 0.595685 0.068623
1.137938 0.597932 0.069553
1.143252 0.597389 0.069988
1.149235 0.597333 0.070524
1.153628 0.595948 0.070824
1.162385 0.597972 0.071768
1.167392 0.596961 0.072161
1.173463 0.596728 0.072709
1.177673 0.595006 0.072987
1.187017 0.597150 0.074011
1.192300 0.596132 0.074445
1.198956 0.596087 0.075077
1.205433 0.595843 0.075683
1.213070 0.596382 0.076454
1.216948 0.594125 0.076687
1.225836 0.595427 0.077633
1.231952 0.594671 0.078184
1.240411 0.595503 0.079063
1.245330 0.593792 0.079441
1.255987 0.595987 0.080622
1.263185 0.595718 0.081314
1.269580 0.594846 0.081889
1.278912 0.595880 0.082869
1.286987 0.595999 0.083668
1.295380 0.596258 0.084505
1.303449 0.596239 0.085290
1.308751 0.594391 0.085686
1.318053 0.595052 0.086624
1.330800 0.597799 0.088022
1.337082 0.596430 0.088526
1.347576 0.597621 0.089591
1.357283 0.598261 0.090534
1.360438 0.594910 0.090581
1.371514 0.596294 0.091681
1.378934 0.595463 0.092273
1.388356 0.595781 0.093116
1.398761 0.596631 0.094072
1.407716 0.596612 0.094814
1.414906 0.595577 0.095303
1.424463 0.595871 0.096084
1.434886 0.596627 0.096956
1.445217 0.597311 0.097790
1.455104 0.597738 0.098543
1.461064 0.596047 0.098762
1.465789 0.593735 0.098802
1.474419 0.593536 0.099322
1.485140 0.594445 0.100083
1.494148 0.594466 0.100598
1.505239 0.595573 0.101351
0.554151 0.592329 0.040382
0.556217 0.595293 0.040911
0.558196 0.596431 0.041200
0.560167 0.596918 0.041397
0.562121 0.596759 0.041502
0.564118 0.596693 0.041608
0.566237 0.597538 0.041820
0.568342 0.597812 0.041948
0.570480 0.598061 0.042063
0.572449 0.596416 0.041925
0.575001 0.599809 0.042423
0.577334 0.600808 0.042604
0.579616 0.601058 0.042680
0.581568 0.598423 0.042377
0.583557 0.596055 0.042100
0.586545 0.601093 0.042764
0.589062 0.602239 0.042923
0.591381 0.601770 0.042866
0.593759 0.601582 0.042839
0.596547 0.603959 0.043136
0.598903 0.603342 0.043043
0.601363 0.603300 0.043019
0.603908 0.603677 0.043045
0.605501 0.598417 0.042344
0.608459 0.601090 0.042658
0.610742 0.599843 0.042466
0.613291 0.600032 0.042457
0.615876 0.600351 0.042463
0.618403 0.600314 0.042422
0.620902 0.600106 0.042359
0.623404 0.599886 0.042294
0.625943 0.599826 0.042249
0.628101 0.597983 0.041978
0.630807 0.598673 0.042031
0.633810 0.600619 0.042245
0.636360 0.600508 0.042198
0.639052 0.600990 0.042228
0.641515 0.600485 0.042134
0.643844 0.599443 0.041974
0.646199 0.598531 0.041833
0.650580 0.605527 0.042699
0.652564 0.603094 0.042369
0.655237 0.603316 0.042379
0.656958 0.600024 0.041946
0.659527 0.599898 0.041917
0.662514 0.601242 0.042078
0.665125 0.601217 0.042068
0.667768 0.601290 0.042073
0.670741 0.602457 0.042220
0.674343 0.605646 0.042627
0.677153 0.606142 0.042695
0.678652 0.602423 0.042231
0.680705 0.600551 0.042004
0.683178 0.600017 0.041951
0.685839 0.600060 0.041973
0.689761 0.603859 0.042476
0.691676 0.601607 0.042213
0.694122 0.600949 0.042156
0.696171 0.599155 0.041957
0.699937 0.602234 0.042381
0.702544 0.601988 0.042385
0.704379 0.599614 0.042121
0.707453 0.600632 0.042292
0.711163 0.603294 0.042676
0.712543 0.599749 0.042270
0.715279 0.599787 0.042325
0.717958 0.599659 0.042362
0.720696 0.599658 0.042417
0.723052 0.598689 0.042351
0.725711 0.598465 0.042383
0.729888 0.601893 0.042887
0.730140 0.595841 0.042176
0.732918 0.595870 0.042249
0.737781 0.600730 0.042946
0.741057 0.601795 0.043158
0.742034 0.597593 0.042693
0.744552 0.596923 0.042685
0.748888 0.600267 0.043200
0.751030 0.598707 0.043083
0.753930 0.598798 0.043181
0.756509 0.598175 0.043190
0.759217 0.597813 0.043235
0.763229 0.600148 0.043633
0.766628 0.601141 0.043860
0.769531 0.601074 0.043951
0.773114 0.602348 0.044219
0.776275 0.602727 0.044374
0.778882 0.601982 0.044383
0.780515 0.599332 0.044144
0.784582 0.601389 0.044526
0.788209 0.602537 0.044791
0.791688 0.603352 0.045014
0.794882 0.603593 0.045165
0.797793 0.603278 0.045244
0.799638 0.601005 0.045065
0.802074 0.599812 0.045031
0.804796 0.599127 0.045067
0.808052 0.599365 0.045227
0.811107 0.599220 0.045339
0.813203 0.597396 0.045228
0.815312 0.595605 0.045122
0.820829 0.599566 0.045792
0.826236 0.603229 0.046426
0.831795 0.607036 0.047084
0.834843 0.606635 0.047177
0.832875 0.598104 0.046167
0.836387 0.598484 0.046367
0.838987 0.597381 0.046367
0.841861 0.596699 0.046427
0.845013 0.596433 0.046545
0.847520 0.595150 0.046526
0.848665 0.591792 0.046223
0.851407 0.590873 0.046257
0.857457 0.594869 0.046972
0.863928 0.599377 0.047762
0.867626 0.599715 0.047979
0.874350 0.604389 0.048803
0.875523 0.600993 0.048505
0.879195 0.601174 0.048709
0.887528 0.607860 0.049827
0.892456 0.609652 0.050265
0.896092 0.609597 0.050446
0.889393 0.595424 0.048634
0.892738 0.595047 0.048770
0.896006 0.594544 0.048891
0.899016 0.593675 0.048962
0.906714 0.598939 0.049911
0.907140 0.594621 0.049495
0.915274 0.600270 0.050510
0.918529 0.599560 0.050617
0.919812 0.596341 0.050363
0.922932 0.595444 0.050447
0.926790 0.595445 0.050664
0.931359 0.596281 0.051006
0.935224 0.596213 0.051220
0.941285 0.598754 0.051821
0.948380 0.602445 0.052596
0.959703 0.611025 0.054101
0.961434 0.608183 0.053926
0.953574 0.594234 0.052102
0.959992 0.596909 0.052747
0.963751 0.596472 0.052933
0.968435 0.597048 0.053275
0.971286 0.595527 0.053306
0.974685 0.594603 0.053431
0.978248 0.593837 0.053583
0.984130 0.595565 0.054118
0.986028 0.592933 0.053995
0.989032 0.591491 0.054056
0.999629 0.598057 0.055353
1.009245 0.603434 0.056479
1.009438 0.598896 0.056079
1.010651 0.595449 0.055850
1.014510 0.594715 0.056046
1.018255 0.593837 0.056225
1.022701 0.593633 0.056515
1.030395 0.596605 0.057313
1.037956 0.599347 0.058085
1.040674 0.597285 0.058102
1.043658 0.595470 0.058162
1.049330 0.596207 0.058637
1.054360 0.596276 0.059013
1.057716 0.594728 0.059133
1.063420 0.595338 0.059611
1.069730 0.596444 0.060179
1.074984 0.596518 0.060587
1.081879 0.598020 0.061240
1.086181 0.597125 0.061505
1.090420 0.596136 0.061762
1.095898 0.596200 0.062202
1.102294 0.597006 0.062778
1.106119 0.595528 0.062977
1.113568 0.597112 0.063705
1.119776 0.597561 0.064252
1.124849 0.596994 0.064634
1.130791 0.597098 0.065142
1.135861 0.596425 0.065525
1.144103 0.598283 0.066362
1.148294 0.596781 0.066620
1.154304 0.596697 0.067139
1.161707 0.597651 0.067854
1.167658 0.597387 0.068364
1.172955 0.596556 0.068783
1.177551 0.595137 0.069105
1.183427 0.594652 0.069606
1.193568 0.597317 0.070699
1.199916 0.597037 0.071265
1.204905 0.595692 0.071643
1.210170 0.594505 0.072059
1.219908 0.596506 0.073088
1.224347 0.594605 0.073391
1.232404 0.595236 0.074186
1.237971 0.594037 0.074641
1.244446 0.593423 0.075218
1.253751 0.594697 0.076174
1.261688 0.594944 0.076942
1.272736 0.597213 0.078122
1.278309 0.595719 0.078564
1.284460 0.594569 0.079080
1.293864 0.595500 0.080023
1.303652 0.596596 0.081010
1.310459 0.595701 0.081594
1.319444 0.596142 0.082459
1.328121 0.596323 0.083273
1.334897 0.595266 0.083828
1.348807 0.598554 0.085304
1.355317 0.597233 0.085801
1.362925 0.596552 0.086430
1.369891 0.595462 0.086962
1.378135 0.595107 0.087645
1.392029 0.598015 0.089036
1.398582 0.596602 0.089467
1.407021 0.596268 0.090122
1.414924 0.595616 0.090690
1.426508 0.597018 0.091703
1.433846 0.596030 0.092159
1.443466 0.596303 0.092879
1.453221 0.596640 0.093593
1.458120 0.594360 0.093679
1.464173 0.592743 0.093889
1.475163 0.593767 0.094684
1.485411 0.594396 0.095362
1.495002 0.594688 0.095932
1.499726 0.592496 0.095887
0.554144 0.594815 0.038513
0.556008 0.594847 0.038662
0.558065 0.596860 0.039043
0.560109 0.598076 0.039317
0.562220 0.599545 0.039612
0.564168 0.598685 0.039612
0.566129 0.597667 0.039581
0.568308 0.598572 0.039776
0.570449 0.598718 0.039867
0.572504 0.597733 0.039809
0.575031 0.600772 0.040238
0.577428 0.602193 0.040458
0.579863 0.603580 0.040665
0.581935 0.601735 0.040464
0.583883 0.598862 0.040126
0.586623 0.601898 0.040512
0.589194 0.603345 0.040695
0.591606 0.603433 0.040702
0.594019 0.603382 0.040686
0.596265 0.602117 0.040514
0.598650 0.601705 0.040443
0.601062 0.601378 0.040377
0.603148 0.599039 0.040060
0.605409 0.597765 0.039871
0.608306 0.600093 0.040124
0.610847 0.600275 0.040110
0.613196 0.599366 0.039959
0.615823 0.599910 0.039987
0.618455 0.600413 0.040008
0.620944 0.600145 0.039934
0.623451 0.599945 0.039869
0.625989 0.599876 0.039820
0.628562 0.599946 0.039788
0.630810 0.598527 0.039575
0.633694 0.599954 0.039712
0.636336 0.600257 0.039713
0.638720 0.599442 0.039579
0.641161 0.598882 0.039477
0.643583 0.598256 0.039370
0.646202 0.598423 0.039362
0.649230 0.600163 0.039549
0.652313 0.602028 0.039753
0.654171 0.599229 0.039390
0.657115 0.600512 0.039528
0.660294 0.602580 0.039765
0.664359 0.607701 0.040377
0.665953 0.604032 0.039918
0.668453 0.603577 0.039856
0.670862 0.602815 0.039758
0.673839 0.603940 0.039894
0.677657 0.607745 0.040360
0.677890 0.599966 0.039415
0.680895 0.601128 0.039564
0.683355 0.600552 0.039504
0.685703 0.599638 0.039406
0.688984 0.601532 0.039654
0.691772 0.601895 0.039718
0.693996 0.600593 0.039581
0.696224 0.599323 0.039452
0.699373 0.600668 0.039644
0.702288 0.601305 0.039754
0.704542 0.600095 0.039640
0.708412 0.603258 0.040064
0.711468 0.604147 0.040214
0.712820 0.600520 0.039811
0.715090 0.599349 0.039713
0.717776 0.599247 0.039749
0.720415 0.599009 0.039770
0.723007 0.598636 0.039778
0.725497 0.598003 0.039756
0.729291 0.600515 0.040125
0.732019 0.600395 0.040172
0.733901 0.598260 0.039972
0.738776 0.603120 0.040640
0.741765 0.603497 0.040756
0.743244 0.600416 0.040447
0.744892 0.597765 0.040192
0.746852 0.595843 0.040030
0.752932 0.602951 0.040993
0.755379 0.602014 0.040958
0.757706 0.600816 0.040893
0.759036 0.597520 0.040568
0.762280 0.598261 0.040749
0.765867 0.599665 0.041015
0.767820 0.597684 0.040860
0.770242 0.596664 0.040827
0.775332 0.600946 0.041463
0.779658 0.603601 0.041898
0.781764 0.601853 0.041781
0.784592 0.601503 0.041841
0.789627 0.605327 0.042433
0.791460 0.603021 0.042250
0.793591 0.601291 0.042142
0.796436 0.600882 0.042204
0.799269 0.600431 0.042262
0.802279 0.600278 0.042360
0.805356 0.600219 0.042472
0.808402 0.600078 0.042576
0.811108 0.599319 0.042602
0.813274 0.597616 0.042509
0.815427 0.595898 0.042415
0.821116 0.600145 0.043093
0.825951 0.602850 0.043576
0.831731 0.607028 0.044253
0.834347 0.605921 0.044248
0.832654 0.597843 0.043335
0.835137 0.596578 0.043311
0.839245 0.597884 0.043624
0.841806 0.596707 0.043614
0.844194 0.595256 0.043570
0.849107 0.597680 0.044037
0.853426 0.599121 0.044379
0.856219 0.598207 0.044412
0.863938 0.604618 0.045418
0.862217 0.596946 0.044558
0.865723 0.597029 0.044729
0.867490 0.594563 0.044563
0.870156 0.593402 0.044571
0.876903 0.598017 0.045357
0.879376 0.596510 0.045324
0.882250 0.595558 0.045367
0.885607 0.595256 0.045501
0.889540 0.595715 0.045740
0.893213 0.595779 0.045928
0.896532 0.595338 0.046050
0.899345 0.594202 0.046079
0.903490 0.594801 0.046349
0.911998 0.601023 0.047394
0.912181 0.596383 0.046950
0.920759 0.602495 0.047991
0.920053 0.596737 0.047395
0.922856 0.595441 0.047418
0.926427 0.595087 0.047574
0.930912 0.595827 0.047886
0.933715 0.594472 0.047909
0.941341 0.598916 0.048749
0.945357 0.598934 0.048972
0.951456 0.601379 0.049542
0.947807 0.592329 0.048487
0.952964 0.593624 0.048900
0.958257 0.595015 0.049332
0.965836 0.598945 0.050133
0.966520 0.594988 0.049808
0.971220 0.595555 0.050136
0.974464 0.594460 0.050228
0.977636 0.593270 0.050310
0.982143 0.593511 0.050604
0.984251 0.591127 0.050519
0.994245 0.597159 0.051672
1.010255 0.609398 0.053751
1.015462 0.610058 0.054136
1.010634 0.600252 0.052973
1.009819 0.594709 0.052439
1.014447 0.594769 0.052744
1.019350 0.595062 0.053089
1.023156 0.594210 0.053268
1.030048 0.596386 0.053910
1.038225 0.599739 0.054741
1.040754 0.597493 0.054727
1.045256 0.597141 0.055007
1.048760 0.595798 0.055141
1.053331 0.595441 0.055432
1.060696 0.597661 0.056131
1.065660 0.597561 0.056479
1.070044 0.596880 0.056742
1.075139 0.596810 0.057109
1.080699 0.597110 0.057542
1.085982 0.597104 0.057936
1.090721 0.596563 0.058252
1.095661 0.596156 0.058597
1.103064 0.597843 0.059290
1.107875 0.597211 0.059617
1.113933 0.597599 0.060120
1.119516 0.597521 0.060556
1.124942 0.597254 0.060971
1.131745 0.598076 0.061576
1.136190 0.596886 0.061856
1.142343 0.597046 0.062372
1.149207 0.597716 0.062986
1.156138 0.598363 0.063607
1.163691 0.599426 0.064312
1.167838 0.597738 0.064557
1.172079 0.596091 0.064818
1.178537 0.596111 0.065376
1.184662 0.595811 0.065891
1.190479 0.595218 0.066365
1.198215 0.595998 0.067093
1.205604 0.596438 0.067774
1.213023 0.596821 0.068458
1.218973 0.596066 0.068949
1.227372 0.597008 0.069759
1.232949 0.595861 0.070200
1.238765 0.594833 0.070671
1.243103 0.592729 0.070949
1.255685 0.596266 0.072293
1.262716 0.595883 0.072915
1.269068 0.594981 0.073447
1.279319 0.596627 0.074475
1.285254 0.595325 0.074946
1.292264 0.594683 0.075550
1.302149 0.595847 0.076513
1.308476 0.594649 0.077019
1.317053 0.594838 0.077803
1.327730 0.596278 0.078841
1.336202 0.596265 0.079593
1.343586 0.595530 0.080198
1.356346 0.598024 0.081462
1.360979 0.595534 0.081701
1.371100 0.596316 0.082610
1.378833 0.595635 0.083208
1.392282 0.598262 0.084494
1.398762 0.596785 0.084906
1.406472 0.596013 0.085453
1.416206 0.596375 0.086227
1.425726 0.596593 0.086955
1.433158 0.595636 0.087411
1.442074 0.595501 0.088024
1.451209 0.595482 0.088641
1.457927 0.594163 0.088948
1.464002 0.592531 0.089157
1.477984 0.595105 0.090278
1.484311 0.593643 0.090470
1.495828 0.594907 0.091247
1.504512 0.594712 0.091667
0.553254 0.584896 0.035165
0.555918 0.595919 0.036592
0.557852 0.596192 0.036750
0.559881 0.597130 0.036975
0.561872 0.597130 0.037080
0.563919 0.597351 0.037201
0.566102 0.598608 0.037434
0.568188 0.598428 0.037487
0.570383 0.598989 0.037618
0.572147 0.595186 0.037220
0.574685 0.598336 0.037639
0.577478 0.603173 0.038250
0.579921 0.604517 0.038437
0.582222 0.604394 0.038441
0.584341 0.602676 0.038246
0.586712 0.602771 0.038260
0.589279 0.604102 0.038415
0.591972 0.606075 0.038639
0.593939 0.602884 0.038242
0.596149 0.601364 0.038039
0.598370 0.599894 0.037838
0.600820 0.599826 0.037799
0.603445 0.600728 0.037872
0.605285 0.596941 0.037385
0.608247 0.599635 0.037666
0.610700 0.599331 0.037588
0.613183 0.599157 0.037525
0.615770 0.599486 0.037519
0.618491 0.600444 0.037588
0.620583 0.598201 0.037278
0.623416 0.599624 0.037401
0.626101 0.600250 0.037431
0.628002 0.597212 0.037029
0.631051 0.599466 0.037252
0.633430 0.598650 0.037115
0.636186 0.599476 0.037173
0.638708 0.599264 0.037110
0.641015 0.598159 0.036944
0.643460 0.597645 0.036849
0.646143 0.598082 0.036869
0.649969 0.602938 0.037410
0.651990 0.600707 0.037121
0.654678 0.601044 0.037136
0.658108 0.604086 0.037471
0.661749 0.607762 0.037883
0.664339 0.607572 0.037844
0.666700 0.606578 0.037714
0.668227 0.602760 0.037256
0.670360 0.601093 0.037053
0.673452 0.602634 0.037229
0.676761 0.604817 0.037482
0.678199 0.600938 0.037029
0.680759 0.600692 0.037004
0.683446 0.600832 0.037027
0.686109 0.600881 0.037043
0.688447 0.599936 0.036945
0.691603 0.601416 0.037134
0.693996 0.600615 0.037059
0.696313 0.599605 0.036962
0.699385 0.600734 0.037119
0.702048 0.600675 0.037139
0.706520 0.605550 0.037742
0.708785 0.604310 0.037629
0.710511 0.601651 0.037352
0.712646 0.600118 0.037210
0.715059 0.599324 0.037158
0.717464 0.598511 0.037105
0.720416 0.599074 0.037218
0.722952 0.598567 0.037207
0.725821 0.598865 0.037294
0.729189 0.600340 0.037522
0.732327 0.601206 0.037681
0.735734 0.602657 0.037913
0.738895 0.603476 0.038072
0.742044 0.604221 0.038225
0.743770 0.601693 0.037991
0.746117 0.600595 0.037930
0.749018 0.600724 0.038017
0.753396 0.604055 0.038488
0.756505 0.604536 0.038622
0.757475 0.600414 0.038208
0.759586 0.598771 0.038092
0.760240 0.594102 0.037614
0.765863 0.599750 0.038377
0.769504 0.601206 0.038639
0.771007 0.598299 0.038379
0.775416 0.601210 0.038821
0.780785 0.605913 0.039484
0.783327 0.604988 0.039469
0.785534 0.603412 0.039377
0.791086 0.608198 0.040059
0.793274 0.606528 0.039959
0.793672 0.601539 0.039457
0.796953 0.601929 0.039612
0.799844 0.601574 0.039677
0.801339 0.598687 0.039435
0.803874 0.597682 0.039424
0.808091 0.599629 0.039777
0.810943 0.599130 0.039832
0.813361 0.597863 0.039794
0.815495 0.596111 0.039698
0.821134 0.600273 0.040335
0.827338 0.605261 0.041078
0.826806 0.598998 0.040428
0.831366 0.601149 0.040824
0.832443 0.597598 0.040512
0.835289 0.596917 0.040559
0.838450 0.596719 0.040668
0.841728 0.596679 0.040799
0.844188 0.595339 0.040769
0.851095 0.600828 0.041601
0.856780 0.604314 0.042185
0.860996 0.605490 0.042481
0.861394 0.600922 0.042050
0.861739 0.596333 0.041616
0.864058 0.594689 0.041557
0.867140 0.594148 0.041640
0.870306 0.593707 0.041739
0.876271 0.597212 0.042346
0.879542 0.596833 0.042457
0.882841 0.596470 0.042573
0.886541 0.596633 0.042759
0.890574 0.597215 0.043002
0.893837 0.596713 0.043106
0.896664 0.595604 0.043134
0.899560 0.594575 0.043174
0.902743 0.593910 0.043264
0.908174 0.596146 0.043737
0.918736 0.604908 0.045076
0.922407 0.604687 0.045236
0.919801 0.596509 0.044343
0.922657 0.595283 0.044372
0.926227 0.594930 0.044519
0.930094 0.594914 0.044714
0.933914 0.594806 0.044900
0.940700 0.598237 0.045566
0.945216 0.598860 0.045858
0.941317 0.589490 0.044802
0.944221 0.588224 0.044841
0.947642 0.587544 0.044964
0.952951 0.589012 0.045383
0.964868 0.597940 0.046830
0.965015 0.593388 0.046434
0.970057 0.594354 0.046800
0.973408 0.593391 0.046904
0.977688 0.593426 0.047149
0.983379 0.594956 0.047608
0.988071 0.595343 0.047913
0.992418 0.595315 0.048164
1.010747 0.610028 0.050499
1.013187 0.607787 0.050455
1.009728 0.599423 0.049543
1.010435 0.595454 0.049255
1.014099 0.594528 0.049403
1.018307 0.594124 0.049631
1.023080 0.594251 0.049941
1.029163 0.595629 0.050438
1.038048 0.599688 0.051332
1.041384 0.598230 0.051432
1.043024 0.595119 0.051293
1.049492 0.596627 0.051838
1.054099 0.596300 0.052121
1.058566 0.595800 0.052383
1.065398 0.597457 0.052975
1.068657 0.595746 0.053071
1.074029 0.595944 0.053459
1.081178 0.597690 0.054090
1.085253 0.596603 0.054301
1.090592 0.596604 0.054684
1.097660 0.598069 0.055301
1.103420 0.598315 0.055741
1.107319 0.596898 0.055931
1.113893 0.597734 0.056480
1.119601 0.597765 0.056913
1.124715 0.597240 0.057268
1.130626 0.597329 0.057729
1.136953 0.597697 0.058245
1.142299 0.597199 0.058633
1.147552 0.596574 0.059010
1.152938 0.596004 0.059405
1.158920 0.595854 0.059878
1.166988 0.597276 0.060621
1.172709 0.596786 0.061061
1.178439 0.596245 0.061503
1.185554 0.596703 0.062122
1.190704 0.595603 0.062491
1.197778 0.595892 0.063106
1.202659 0.594487 0.063443
1.212769 0.596863 0.064439
1.218256 0.595775 0.064852
1.227223 0.597132 0.065701
1.232485 0.595764 0.066085
1.238927 0.595179 0.066617
1.243159 0.593001 0.066873
1.257094 0.597469 0.068329
1.262818 0.596186 0.068766
1.267873 0.594407 0.069119
1.279599 0.597045 0.070288
1.287072 0.596751 0.070931
1.291717 0.594549 0.071225
1.300800 0.595194 0.072055
1.309545 0.595545 0.072837
1.316240 0.594528 0.073364
1.325866 0.595308 0.074238
1.336666 0.596741 0.075243
1.340962 0.594098 0.075459
1.351408 0.595191 0.076400
1.363772 0.597365 0.077557
1.372909 0.597529 0.078316
1.379105 0.595916 0.078713
1.389517 0.596754 0.079594
1.399743 0.597434 0.080435
1.406434 0.596054 0.080846
1.417391 0.597086 0.081737
1.423959 0.595623 0.082098
1.434001 0.596096 0.082842
1.443595 0.596303 0.083514
1.452021 0.595865 0.084029
1.459187 0.594756 0.084378
1.468387 0.594753 0.084938
1.475434 0.593620 0.085230
1.486075 0.594396 0.085905
1.495295 0.594434 0.086395
1.501463 0.592924 0.086520
0.553749 0.594283 0.034078
0.555776 0.596243 0.034424
0.557751 0.596888 0.034613
0.559663 0.596249 0.034646
0.561698 0.596670 0.034789
0.563781 0.597185 0.034932
0.565830 0.596922 0.034977
0.567942 0.596967 0.035047
0.569959 0.595757 0.034963
0.572119 0.595683 0.035000
0.574637 0.598539 0.035362
0.577334 0.602467 0.035839
0.579780 0.603778 0.036008
0.581899 0.602159 0.035833
0.584200 0.601855 0.035800
0.586418 0.600779 0.035672
0.589102 0.602965 0.035911
0.591564 0.603321 0.035934
0.593953 0.603020 0.035877
0.596261 0.602099 0.035743
0.598289 0.599354 0.035397
0.600865 0.600050 0.035440
0.602905 0.597418 0.035100
0.604515 0.592375 0.034482
0.607480 0.595193 0.034760
0.609382 0.591966 0.034346
0.612620 0.596014 0.034760
0.615080 0.595754 0.034683
0.617547 0.595505 0.034606
0.619799 0.594178 0.034407
0.622381 0.594477 0.034393
0.624512 0.592613 0.034134
0.626965 0.592293 0.034051
0.629983 0.594522 0.034258
0.631956 0.592027 0.033932
0.634014 0.589989 0.033659
0.636849 0.591304 0.033767
0.639460 0.591626 0.033765
0.642233 0.592578 0.033836
0.645569 0.595714 0.034155
0.649654 0.601630 0.034789
0.652803 0.603733 0.034995
0.655240 0.603079 0.034894
0.658790 0.606526 0.035257
0.662040 0.608755 0.035485
0.664283 0.607325 0.035304
0.665715 0.603115 0.034814
0.668518 0.603723 0.034868
0.670777 0.602469 0.034716
0.673485 0.602728 0.034737
0.675938 0.602133 0.034665
0.678223 0.601011 0.034536
0.680969 0.601355 0.034575
0.683708 0.601653 0.034612
0.686072 0.600781 0.034520
0.688703 0.600721 0.034523
0.691362 0.600730 0.034536
0.693802 0.600083 0.034478
0.696459 0.600058 0.034492
0.699313 0.600571 0.034570
0.702869 0.602999 0.034867
0.706203 0.604733 0.035088
0.708890 0.604647 0.035107
0.709978 0.600289 0.034647
0.711110 0.596148 0.034214
0.712214 0.592027 0.033785
0.714561 0.591166 0.033727
0.716857 0.590182 0.033656
0.718721 0.588126 0.033467
0.725252 0.597547 0.034579
0.729147 0.600317 0.034942
0.732237 0.601072 0.035079
0.735747 0.602772 0.035326
0.739080 0.603991 0.035521
0.742241 0.604761 0.035668
0.744960 0.604484 0.035699
0.748008 0.604924 0.035813
0.750988 0.605176 0.035908
0.754381 0.606303 0.036106
0.756475 0.604567 0.035978
0.756770 0.599004 0.035415
0.756430 0.592211 0.034711
0.761953 0.597769 0.035424
0.767662 0.603553 0.036168
0.770778 0.603898 0.036289
0.772734 0.601872 0.036140
0.776612 0.603688 0.036435
0.780189 0.604843 0.036657
0.779846 0.598323 0.035992
0.786464 0.605300 0.036892
0.789570 0.605419 0.037001
0.791552 0.603394 0.036862
0.793967 0.602188 0.036820
0.797172 0.602434 0.036948
0.799726 0.601460 0.036936
0.801493 0.599065 0.036759
0.804599 0.599071 0.036865
0.807872 0.599344 0.037005
0.810473 0.598411 0.037004
0.813197 0.597680 0.037029
0.816411 0.597770 0.037152
0.820679 0.599605 0.037483
0.823488 0.598938 0.037521
0.823124 0.593016 0.036936
0.829500 0.598200 0.037672
0.832469 0.597735 0.037739
0.834862 0.596331 0.037696
0.837289 0.594977 0.037659
0.839402 0.593127 0.037564
0.843596 0.594515 0.037860
0.850571 0.600117 0.038667
0.856303 0.603684 0.039233
0.860814 0.605311 0.039568
0.862463 0.602608 0.039380
0.861467 0.596024 0.038720
0.863918 0.594575 0.038685
0.867328 0.594510 0.038821
0.870773 0.594466 0.038961
0.875727 0.596531 0.039362
0.879059 0.596245 0.039478
0.883216 0.597081 0.039734
0.886516 0.596687 0.039840
0.889570 0.595934 0.039904
0.894089 0.597142 0.040214
0.896562 0.595556 0.040179
0.899379 0.594425 0.040202
0.902729 0.593981 0.040313
0.908000 0.596009 0.040737
0.918045 0.604109 0.041930
0.921359 0.603440 0.042023
0.918908 0.595470 0.041194
0.921402 0.593802 0.041162
0.926628 0.595515 0.041563
0.930617 0.595644 0.041766
0.933373 0.594237 0.041775
0.940236 0.597768 0.042421
0.944247 0.597794 0.042621
0.946273 0.595437 0.042516
0.946029 0.590430 0.042069
0.947460 0.587424 0.041881
0.954392 0.590759 0.042523
0.965020 0.598206 0.043709
0.968592 0.597517 0.043836
0.971231 0.595761 0.043826
0.973211 0.593269 0.043721
0.978471 0.594382 0.044097
0.983688 0.595391 0.044464
0.988685 0.596105 0.044796
0.993845 0.596939 0.045150
0.987375 0.585422 0.043847
1.007955 0.602412 0.046388
1.009927 0.599736 0.046284
1.010805 0.595943 0.046031
1.014011 0.594548 0.046107
1.018065 0.593992 0.046301
1.025354 0.596639 0.046942
1.032794 0.599344 0.047599
1.037867 0.599630 0.047928
1.040129 0.597130 0.047876
1.045283 0.597419 0.048218
1.048978 0.596261 0.048363
1.055110 0.597384 0.048835
1.058843 0.596190 0.048986
1.063711 0.596023 0.049289
1.069809 0.596942 0.049754
1.073118 0.595251 0.049852
1.079295 0.596132 0.050328
1.085127 0.596636 0.050757
1.090507 0.596677 0.051127
1.096486 0.597190 0.051575
1.101975 0.597213 0.051960
1.105427 0.595425 0.052084
1.114078 0.598054 0.052873
1.118670 0.597144 0.053144
1.125024 0.597669 0.053640
1.129016 0.596166 0.053839
1.136200 0.597255 0.054439
1.140519 0.595930 0.054682
1.147675 0.596858 0.055279
1.153699 0.596800 0.055735
1.158635 0.595821 0.056058
1.167139 0.597591 0.056821
1.173032 0.597236 0.057263
1.177919 0.596049 0.057583
1.184276 0.595937 0.058083
1.190936 0.595987 0.058621
1.197832 0.596145 0.059187
1.203001 0.594955 0.059545
1.213510 0.597623 0.060545
1.217506 0.595453 0.060763
1.222751 0.594151 0.061132
1.232250 0.595821 0.062007
1.237992 0.594749 0.062435
1.247572 0.596294 0.063315
1.251306 0.593715 0.063504
1.261260 0.595352 0.064424
1.266670 0.593822 0.064808
1.274302 0.593736 0.065449
1.286992 0.596921 0.066677
1.291899 0.594886 0.066993
1.299540 0.594594 0.067623
1.310315 0.596248 0.068610
1.317831 0.595739 0.069214
1.325854 0.595496 0.069869
1.335833 0.596412 0.070741
1.343015 0.595534 0.071283
1.351003 0.595110 0.071908
1.365734 0.598697 0.073288
1.375822 0.599400 0.074126
1.381265 0.597310 0.074427
1.395849 0.600550 0.075743
1.398988 0.597086 0.075758
1.408490 0.597295 0.076471
1.417870 0.597403 0.077153
1.425122 0.596297 0.077580
1.438282 0.598466 0.078641
1.445325 0.597226 0.079007
1.453156 0.596431 0.079439
1.462853 0.596650 0.080054
1.469325 0.595149 0.080296
1.476885 0.594255 0.080635
1.486732 0.594580 0.081198
1.495819 0.594518 0.081655
1.504280 0.594153 0.082021
0.553667 0.595558 0.032025
0.555698 0.597368 0.032338
0.557606 0.596970 0.032400
0.559576 0.596896 0.032488
0.561553 0.596500 0.032530
0.563615 0.596671 0.032624
0.565718 0.596888 0.032714
0.567915 0.597691 0.032857
0.569994 0.596954 0.032822
0.572320 0.598288 0.033005
0.574694 0.599669 0.033185
0.577420 0.603724 0.033649
0.579438 0.601355 0.033399
0.581345 0.598055 0.033039
0.583585 0.597360 0.032957
0.586334 0.600341 0.033273
0.588711 0.600280 0.033248
0.591426 0.602445 0.033462
0.593912 0.602788 0.033470
0.596409 0.603073 0.033467
0.598675 0.601776 0.033287
0.600148 0.595587 0.032567
0.603105 0.598546 0.032846
0.605514 0.598085 0.032749
0.608140 0.598820 0.032780
0.610806 0.599678 0.032823
0.614393 0.605376 0.033394
0.616650 0.603809 0.033170
0.618484 0.600139 0.032717
0.620444 0.597246 0.032349
0.623398 0.599267 0.032517
0.625853 0.598818 0.032416
0.628721 0.600273 0.032524
0.630840 0.598271 0.032257
0.633250 0.597619 0.032139
0.636313 0.599800 0.032329
0.639405 0.601996 0.032522
0.641804 0.601224 0.032396
0.644889 0.603248 0.032574
0.647470 0.603179 0.032528
0.650445 0.604634 0.032649
0.653205 0.605203 0.032677
0.655490 0.603960 0.032512
0.658788 0.606472 0.032754
0.661701 0.607492 0.032838
0.663523 0.604603 0.032504
0.666191 0.604746 0.032499
0.668893 0.604987 0.032508
0.671252 0.604055 0.032393
0.674008 0.604448 0.032424
0.676588 0.604246 0.032393
0.678271 0.601173 0.032057
0.681093 0.601757 0.032116
0.683742 0.601776 0.032118
0.686833 0.603122 0.032265
0.688679 0.600680 0.032008
0.691260 0.600464 0.031993
0.693805 0.600133 0.031968
0.696124 0.599146 0.031875
0.700510 0.603996 0.032413
0.703562 0.604981 0.032538
0.706015 0.604274 0.032484
0.708601 0.603930 0.032471
0.711092 0.603319 0.032432
0.712804 0.600662 0.032175
0.719231 0.610258 0.033242
0.718243 0.600642 0.032240
0.721713 0.602487 0.032476
0.723521 0.600133 0.032261
0.725676 0.598667 0.032144
0.728341 0.598451 0.032165
0.731823 0.600169 0.032398
0.735620 0.602562 0.032706
0.739301 0.604597 0.032979
0.742715 0.605945 0.033179
0.745625 0.606088 0.033251
0.748957 0.607147 0.033425
0.752238 0.608042 0.033584
0.754666 0.607025 0.033537
0.755108 0.601711 0.033022
0.756124 0.597724 0.032653
0.757667 0.594917 0.032414
0.762374 0.598747 0.032904
0.767604 0.603535 0.033503
0.770733 0.603908 0.033619
0.772985 0.602479 0.033540
0.775033 0.600650 0.033418
0.777958 0.600559 0.033489
0.779361 0.597482 0.033232
0.782617 0.598009 0.033375
0.787674 0.601918 0.033895
0.789879 0.600353 0.033810
0.792951 0.600404 0.033907
0.797314 0.602798 0.034266
0.799792 0.601684 0.034237
0.802038 0.600147 0.034162
0.804201 0.598465 0.034071
0.808135 0.599908 0.034333
0.810308 0.598224 0.034246
0.813394 0.598120 0.034337
0.816307 0.597692 0.034394
0.820083 0.598699 0.034615
0.822219 0.596919 0.034522
0.825764 0.597473 0.034696
0.830009 0.599129 0.034996
0.832736 0.598265 0.035012
0.834335 0.595583 0.034822
0.836351 0.593587 0.034712
0.838440 0.591715 0.034616
0.841114 0.590758 0.034627
0.847407 0.595350 0.035277
0.856423 0.603962 0.036394
0.860235 0.604535 0.036589
0.861908 0.601875 0.036413
0.860953 0.595358 0.035789
0.863914 0.594661 0.035840
0.867373 0.594666 0.035975
0.870776 0.594561 0.036100
0.874334 0.594644 0.036248
0.878051 0.594919 0.036421
0.882805 0.596598 0.036761
0.885555 0.595453 0.036772
0.889490 0.595913 0.036973
0.892354 0.594887 0.037002
0.896387 0.595410 0.037215
0.898588 0.593464 0.037138
0.903818 0.595496 0.037537
0.909047 0.597457 0.037931
0.915269 0.600623 0.038473
0.922512 0.605000 0.039166
0.917944 0.594339 0.038049
0.921401 0.593886 0.038163
0.926141 0.594999 0.038470
0.930077 0.595068 0.038653
0.932908 0.593758 0.038671
0.937295 0.594312 0.038919
0.942276 0.595530 0.039253
0.947761 0.597285 0.039656
0.947545 0.592295 0.039230
0.948835 0.589107 0.039027
0.957990 0.594985 0.039953
0.965457 0.598796 0.040629
0.967711 0.596615 0.040561
0.970903 0.595486 0.040628
0.973780 0.593992 0.040651
0.977206 0.593088 0.040752
0.986205 0.598223 0.041621
0.988241 0.595723 0.041528
0.989989 0.592922 0.041398
0.984485 0.582463 0.040289
0.994543 0.588461 0.041291
1.007672 0.597498 0.042696
1.010118 0.595339 0.042664
1.013915 0.594555 0.042813
1.018018 0.594051 0.043003
1.029077 0.600473 0.044105
1.038623 0.605234 0.045002
1.037689 0.599569 0.044530
1.039212 0.596354 0.044384
1.043477 0.595795 0.044593
1.050941 0.598257 0.045213
1.054251 0.596694 0.045301
1.060462 0.597833 0.045758
1.064584 0.596962 0.045950
1.068639 0.595996 0.046135
1.074844 0.596959 0.046590
1.079099 0.596091 0.046801
1.083727 0.595522 0.047060
1.092287 0.598398 0.047805
1.096513 0.597360 0.048014
1.100499 0.596078 0.048196
1.104571 0.594839 0.048390
1.109924 0.594662 0.048742
1.118362 0.597043 0.049466
1.124402 0.597311 0.049900
1.129619 0.596833 0.050236
1.135177 0.596584 0.050614
1.139631 0.595381 0.050862
1.146577 0.596149 0.051406
1.152106 0.595709 0.051783
1.159005 0.596298 0.052322
1.165676 0.596633 0.052835
1.172705 0.597175 0.053390
1.176759 0.595353 0.053599
1.183696 0.595695 0.054144
1.191868 0.596892 0.054832
1.197785 0.596315 0.055260
1.202130 0.594519 0.055508
1.211738 0.596539 0.056360
1.217647 0.595769 0.056789
1.222439 0.594142 0.057091
1.226748 0.592134 0.057339
1.237858 0.594874 0.058357
1.245205 0.594869 0.058948
1.252021 0.594427 0.059478
1.258913 0.593974 0.060015
1.263489 0.591896 0.060291
1.276446 0.595385 0.061501
1.288935 0.598423 0.062652
1.293003 0.595822 0.062864
1.301907 0.596335 0.063609
1.311710 0.597347 0.064447
1.318535 0.596385 0.064951
1.326650 0.596188 0.065591
1.336360 0.596923 0.066398
1.342108 0.595152 0.066764
1.353720 0.596925 0.067760
1.359781 0.595271 0.068142
1.372529 0.597581 0.069237
1.380570 0.597025 0.069810
1.392623 0.598778 0.070801
1.399450 0.597443 0.071216
1.407113 0.596580 0.071707
1.417889 0.597465 0.072512
1.425062 0.596292 0.072918
1.435644 0.597012 0.073665
1.444634 0.596830 0.074224
