ply
format ascii 1.0
comment ---
element vertex 1768
property float x
property float y
property float z
element face 0
property list uchar uint vertex_indices
end_header
0.299149 0.598768 0.220813
0.302489 0.603137 0.221768
0.306136 0.602011 0.221366
0.309856 0.598968 0.220492
0.313037 0.608825 0.222814
0.317065 0.596859 0.219742
0.320607 0.597296 0.219741
0.324225 0.594897 0.219044
0.327728 0.596919 0.219441
0.331283 0.596770 0.219306
0.334821 0.597987 0.219510
0.338351 0.602275 0.220474
0.341926 0.603071 0.220581
0.345495 0.599358 0.219580
0.349045 0.597686 0.219086
0.352612 0.598668 0.219248
0.356166 0.598310 0.219083
0.359700 0.597185 0.218734
0.363296 0.598746 0.219047
0.366895 0.599923 0.219268
0.370362 0.597094 0.218509
0.373902 0.596704 0.218352
0.377629 0.600452 0.219213
0.381138 0.599142 0.218836
0.384775 0.600351 0.219080
0.388110 0.596288 0.218034
0.391728 0.597188 0.218208
0.395093 0.594281 0.217452
0.399083 0.600164 0.218852
0.402061 0.592452 0.216926
0.405610 0.592425 0.216885
0.409388 0.594980 0.217479
0.413122 0.596768 0.217888
0.417405 0.603970 0.219624
0.421098 0.604721 0.219785
0.424803 0.605478 0.219950
0.428343 0.604666 0.219735
0.431679 0.602140 0.219104
0.434896 0.598807 0.218279
0.438333 0.597439 0.217937
0.441845 0.596711 0.217756
0.445407 0.596363 0.217670
0.449017 0.596355 0.217671
0.452143 0.592986 0.216853
0.456960 0.601063 0.218839
0.460902 0.602957 0.219315
0.464485 0.602462 0.219211
0.467695 0.599690 0.218554
0.470614 0.595329 0.217511
0.474125 0.594574 0.217354
0.477950 0.595575 0.217631
0.481838 0.596836 0.217975
0.485404 0.596288 0.217880
0.488078 0.591130 0.216661
0.490922 0.587050 0.215708
0.495923 0.593720 0.217394
0.499117 0.591375 0.216875
0.502639 0.590637 0.216754
0.507697 0.596935 0.218363
0.511707 0.598220 0.218748
0.513556 0.589940 0.216789
0.515235 0.581248 0.214732
0.521856 0.593629 0.217856
0.523469 0.584866 0.215789
0.527852 0.587582 0.216549
0.532784 0.592316 0.217810
0.537803 0.597161 0.219106
0.541610 0.597178 0.219218
0.543310 0.589295 0.217389
0.546972 0.588843 0.217395
0.552019 0.593335 0.218627
0.556302 0.594928 0.219149
0.560428 0.595877 0.219519
0.563975 0.594780 0.219388
0.567311 0.592969 0.219086
0.571475 0.593895 0.219468
0.575042 0.592814 0.219357
0.578715 0.592061 0.219334
0.582442 0.591455 0.219353
0.586732 0.592552 0.219800
0.590684 0.592548 0.219980
0.595691 0.595636 0.220937
0.598591 0.592401 0.220324
0.602056 0.590848 0.220135
0.606150 0.591087 0.220399
0.607085 0.582420 0.218441
0.608578 0.575506 0.216923
0.616592 0.586474 0.219891
0.622791 0.592210 0.221557
0.624109 0.584852 0.219940
0.625645 0.578227 0.218509
0.630423 0.580055 0.219209
0.635360 0.582191 0.219992
0.642520 0.589767 0.222156
0.644765 0.585005 0.221207
0.650459 0.588695 0.222400
0.656144 0.592222 0.223558
0.659633 0.590432 0.223370
0.664508 0.591880 0.224008
0.669572 0.593687 0.224739
0.674463 0.595023 0.225353
0.677232 0.591537 0.224736
0.681477 0.591377 0.224968
0.685890 0.591560 0.225286
0.689836 0.590710 0.225337
0.694221 0.590795 0.225625
0.697492 0.588519 0.225301
0.701190 0.587175 0.225211
0.706019 0.588174 0.225719
0.711502 0.590474 0.226556
0.713816 0.586367 0.225729
0.719858 0.589748 0.226829
0.723752 0.588854 0.226811
0.727892 0.588471 0.226914
0.729531 0.583326 0.225765
0.732573 0.580975 0.225326
0.743429 0.593348 0.228703
0.752079 0.601402 0.230942
0.748769 0.587386 0.227414
0.748590 0.579390 0.225431
0.757908 0.588671 0.227934
0.758596 0.582464 0.226376
0.763223 0.583376 0.226653
0.764014 0.577637 0.225172
0.762624 0.568298 0.222728
0.765224 0.566032 0.222107
0.765761 0.560376 0.220578
0.770164 0.561393 0.220767
0.781202 0.573521 0.223828
0.788999 0.580160 0.225431
0.797428 0.587799 0.227268
0.801937 0.589021 0.227408
0.805943 0.589490 0.227327
0.808442 0.587623 0.226616
0.809950 0.584290 0.225503
0.810866 0.580156 0.224163
-0.029043 0.591607 0.234245
-0.025385 0.590584 0.234169
-0.021487 0.589153 0.233960
-0.015739 0.583978 0.232720
-0.012135 0.583273 0.232658
-0.015443 0.597185 0.236509
-0.017337 0.608465 0.239630
-0.014323 0.609547 0.239980
-0.010418 0.608826 0.239818
-0.002581 0.599588 0.237336
0.006153 0.588274 0.234270
0.006095 0.596454 0.236433
0.004997 0.607258 0.239277
0.012449 0.598860 0.236924
0.015799 0.599838 0.237073
0.018354 0.602784 0.237728
0.022626 0.601814 0.237306
0.026743 0.601268 0.236978
0.027123 0.609843 0.239075
0.032584 0.606222 0.237880
0.037519 0.603875 0.237009
0.040692 0.605963 0.237308
0.045478 0.604036 0.236517
0.047578 0.609055 0.237563
0.052955 0.605644 0.236348
0.064175 0.586601 0.230971
0.064170 0.597366 0.233505
0.065065 0.606001 0.235456
0.069171 0.605966 0.235098
0.074979 0.601131 0.233466
0.079605 0.599538 0.232687
0.083736 0.599333 0.232268
0.088111 0.598394 0.231653
0.091954 0.599010 0.231444
0.096497 0.597486 0.230672
0.098428 0.604012 0.232001
0.100976 0.608778 0.232865
0.105037 0.608818 0.232496
0.109024 0.609068 0.232183
0.114410 0.604634 0.230658
0.118605 0.604034 0.230132
0.123394 0.601327 0.229065
0.127230 0.601822 0.228828
0.131627 0.600287 0.228073
0.137431 0.593513 0.225980
0.142551 0.588972 0.224470
0.144716 0.595404 0.225773
0.146376 0.603993 0.227626
0.150653 0.602560 0.226924
0.155887 0.597162 0.225220
0.159210 0.599338 0.225449
0.161798 0.604640 0.226475
0.166032 0.603058 0.225760
0.170778 0.599103 0.224452
0.174017 0.601676 0.224801
0.177174 0.604687 0.225263
0.180841 0.605391 0.225150
0.183853 0.609222 0.225827
0.187482 0.610146 0.225778
0.192286 0.605128 0.224247
0.197450 0.597933 0.222181
0.201138 0.598154 0.221978
0.204733 0.598839 0.221896
0.208392 0.599150 0.221727
0.212097 0.599157 0.221487
0.215344 0.601835 0.221916
0.218452 0.605465 0.222585
0.222079 0.605999 0.222491
0.226473 0.601530 0.221164
0.230947 0.596183 0.219627
0.234448 0.597172 0.219663
0.238210 0.596307 0.219247
0.241749 0.596994 0.219218
0.244669 0.602446 0.220367
0.248633 0.599916 0.219555
0.252361 0.599101 0.219171
0.255909 0.599737 0.219148
0.259167 0.602989 0.219770
0.262904 0.601971 0.219350
0.266656 0.600662 0.218863
0.270043 0.602965 0.219265
0.273911 0.600206 0.218433
0.277677 0.598281 0.217810
0.281643 0.593635 0.216529
0.285066 0.595414 0.216819
0.288622 0.595554 0.216713
0.291992 0.598391 0.217267
0.295575 0.598258 0.217102
0.299285 0.595865 0.216392
0.302888 0.595013 0.216060
0.306480 0.594167 0.215733
0.309857 0.597965 0.216537
0.313289 0.601260 0.217221
0.316944 0.598967 0.216554
0.320565 0.597016 0.215974
0.324144 0.595993 0.215622
0.327724 0.594375 0.215130
0.331202 0.598186 0.215953
0.334758 0.598158 0.215852
0.338280 0.603309 0.217004
0.341871 0.596516 0.215275
0.345424 0.598768 0.215733
0.348976 0.598020 0.215470
0.352514 0.596664 0.215064
0.356082 0.597832 0.215269
0.359657 0.598779 0.215424
0.363148 0.596215 0.214736
0.366789 0.599193 0.215385
0.370281 0.597216 0.214845
0.373730 0.594628 0.214161
0.377356 0.596437 0.214537
0.381006 0.598362 0.214943
0.384194 0.591513 0.213245
0.388320 0.601455 0.215582
0.391666 0.597781 0.214652
0.395228 0.597703 0.214589
0.398588 0.594885 0.213871
0.402159 0.595046 0.213870
0.405564 0.593178 0.213386
0.409253 0.594710 0.213721
0.413472 0.601773 0.215384
0.417000 0.601025 0.215177
0.420743 0.602426 0.215488
0.424243 0.601389 0.215218
0.427926 0.602061 0.215361
0.431625 0.602776 0.215516
0.434928 0.600141 0.214873
0.438314 0.598336 0.214431
0.441707 0.596688 0.214030
0.445165 0.595598 0.213766
0.449026 0.597426 0.214204
0.452852 0.598860 0.214551
0.456850 0.601313 0.215146
0.460793 0.603228 0.215615
0.464095 0.600979 0.215090
0.466957 0.596153 0.213951
0.470220 0.593939 0.213441
0.473888 0.594146 0.213515
0.477652 0.594836 0.213708
0.481646 0.596711 0.214190
0.485321 0.596764 0.214238
0.488041 0.591845 0.213098
0.491206 0.589376 0.212548
0.494727 0.588737 0.212442
0.498961 0.591521 0.213162
0.502681 0.591727 0.213267
0.506613 0.592861 0.213599
0.511362 0.597571 0.214796
0.514898 0.596716 0.214659
0.515910 0.585022 0.211920
0.519608 0.585067 0.212008
0.523346 0.585238 0.212131
0.528453 0.590886 0.213578
0.533708 0.596858 0.215109
0.538072 0.599099 0.215747
0.538748 0.587188 0.212976
0.541267 0.582560 0.211965
0.546798 0.589093 0.213654
0.552764 0.596911 0.215661
0.556168 0.595357 0.215409
0.559779 0.594533 0.215339
0.563559 0.594270 0.215409
0.566958 0.592691 0.215167
0.571110 0.593604 0.215533
0.575402 0.594892 0.215997
0.578398 0.591966 0.215444
0.583047 0.594265 0.216165
0.586600 0.593065 0.216042
0.591154 0.594893 0.216662
0.593817 0.590975 0.215887
0.597920 0.591356 0.216166
0.601639 0.590570 0.216166
0.605538 0.590274 0.216291
0.608998 0.588706 0.216110
0.610842 0.582674 0.214840
0.617074 0.588710 0.216535
0.623002 0.593710 0.217984
0.625538 0.589553 0.217188
0.625223 0.578044 0.214582
0.628511 0.576064 0.214326
0.637664 0.588943 0.217745
0.642438 0.590487 0.218373
0.645910 0.588739 0.218190
0.649703 0.587774 0.218205
0.652854 0.585255 0.217836
0.659059 0.589980 0.219271
0.663764 0.591045 0.219801
0.669154 0.593618 0.220709
0.673314 0.593295 0.220897
0.676761 0.591349 0.220680
0.681317 0.591876 0.221082
0.685248 0.590996 0.221130
0.689802 0.591457 0.221513
0.694214 0.591583 0.221810
0.698583 0.591598 0.222076
0.702849 0.591382 0.222279
0.702414 0.581501 0.220034
0.709856 0.587841 0.221881
0.716022 0.591471 0.223037
0.719613 0.589914 0.222871
0.727412 0.596646 0.224799
0.729234 0.591656 0.223739
0.730630 0.585977 0.222489
0.729500 0.575657 0.220040
0.733614 0.575421 0.220142
0.744157 0.579312 0.221411
0.749201 0.580842 0.221913
0.751924 0.578216 0.221334
0.764799 0.593761 0.225380
0.766760 0.589819 0.224423
0.762314 0.574834 0.220619
0.762118 0.567543 0.218759
0.763013 0.562322 0.217407
0.767700 0.563696 0.217718
0.777334 0.573434 0.220144
0.784658 0.579224 0.221535
0.792806 0.586349 0.223241
0.798516 0.589436 0.223890
0.803332 0.591098 0.224149
0.805647 0.588783 0.223371
0.807783 0.586298 0.222527
0.811301 0.586126 0.222248
0.813966 0.584694 0.221627
-0.030408 0.593543 0.231234
-0.026659 0.592396 0.231115
-0.021866 0.589197 0.230431
-0.015367 0.582524 0.228804
-0.011846 0.582025 0.228785
-0.012115 0.589579 0.230872
-0.019244 0.611929 0.236850
-0.015796 0.612166 0.236956
-0.011908 0.611562 0.236813
-0.007996 0.610991 0.236655
0.005453 0.589438 0.230919
0.007942 0.591991 0.231538
0.009236 0.597392 0.232886
0.013130 0.597066 0.232695
0.016458 0.598126 0.232847
0.017876 0.603758 0.234183
0.022893 0.601088 0.233305
0.026631 0.601491 0.233217
0.029508 0.604059 0.233678
0.032827 0.605673 0.233868
0.037095 0.605021 0.233444
0.041683 0.603601 0.232802
0.045911 0.603105 0.232388
0.050572 0.601512 0.231673
0.055404 0.599461 0.230827
0.059785 0.598580 0.230276
0.065405 0.594344 0.228842
0.065114 0.606217 0.231586
0.069728 0.604793 0.230864
0.075546 0.599928 0.229247
0.079647 0.599841 0.228863
0.084328 0.598053 0.228036
0.088097 0.598898 0.227885
0.092128 0.598963 0.227530
0.096707 0.597336 0.226740
0.098839 0.603244 0.227878
0.101937 0.606263 0.228273
0.106667 0.604106 0.227348
0.112422 0.598486 0.225545
0.117344 0.595403 0.224394
0.121116 0.596068 0.224198
0.124450 0.598228 0.224383
0.126875 0.603616 0.225384
0.130934 0.603313 0.224951
0.136366 0.597936 0.223246
0.142422 0.589981 0.220904
0.144091 0.598304 0.222652
0.146750 0.603079 0.223511
0.150923 0.602017 0.222914
0.155379 0.599720 0.222016
0.158001 0.604817 0.222964
0.160321 0.611343 0.224270
0.164653 0.609463 0.223491
0.170413 0.601181 0.221135
0.174587 0.599585 0.220444
0.178387 0.599577 0.220152
0.182440 0.598320 0.219558
0.187925 0.590068 0.217250
0.188633 0.604891 0.220624
0.192803 0.602916 0.219871
0.197301 0.599092 0.218673
0.201272 0.597808 0.218105
0.204850 0.598553 0.218039
0.208596 0.598337 0.217743
0.212197 0.598895 0.217643
0.215424 0.601659 0.218084
0.218677 0.604369 0.218516
0.222414 0.604149 0.218240
0.226690 0.600359 0.217104
0.230749 0.597730 0.216257
0.234423 0.597542 0.216006
0.238021 0.597836 0.215878
0.241836 0.596496 0.215360
0.244162 0.606481 0.217579
0.247842 0.606348 0.217359
0.251810 0.603755 0.216553
0.255469 0.603586 0.216335
0.259056 0.604000 0.216262
0.263046 0.600598 0.215277
0.266753 0.599630 0.214882
0.270706 0.595973 0.213847
0.273875 0.600446 0.214764
0.277739 0.597369 0.213877
0.281559 0.594416 0.213026
0.285136 0.594209 0.212835
0.288490 0.596995 0.213362
0.291989 0.598001 0.213468
0.295511 0.598751 0.213516
0.299205 0.596629 0.212883
0.302900 0.594072 0.212151
0.306488 0.593166 0.211816
0.309905 0.595894 0.212349
0.313251 0.601017 0.213453
0.316931 0.597904 0.212603
0.320494 0.597631 0.212432
0.324042 0.597839 0.212378
0.327609 0.597169 0.212119
0.331153 0.597473 0.212094
0.334689 0.598692 0.212289
0.338281 0.593049 0.210863
0.341796 0.600572 0.212554
0.345382 0.608320 0.214299
0.348905 0.598159 0.211816
0.352443 0.596965 0.211455
0.355977 0.596196 0.211197
0.359522 0.596232 0.211132
0.363029 0.594796 0.210723
0.366650 0.597412 0.211272
0.370185 0.596954 0.211099
0.373717 0.596468 0.210923
0.377422 0.599886 0.211668
0.380527 0.590634 0.209433
0.384296 0.595088 0.210428
0.387560 0.590316 0.209254
0.392282 0.608931 0.213584
0.395621 0.604888 0.212587
0.398350 0.593050 0.209761
0.402243 0.597476 0.210761
0.405598 0.594883 0.210114
0.409035 0.593485 0.209751
0.413047 0.598415 0.210877
0.416723 0.599371 0.211073
0.419674 0.593108 0.209576
0.423684 0.597297 0.210536
0.427442 0.598830 0.210875
0.431323 0.601271 0.211431
0.435228 0.603685 0.211983
0.437793 0.595239 0.209989
0.441183 0.593694 0.209618
0.445480 0.598928 0.210841
0.448905 0.597551 0.210515
0.452252 0.595699 0.210082
0.456251 0.598283 0.210692
0.459998 0.599047 0.210879
0.463451 0.597887 0.210617
0.466589 0.594844 0.209917
0.470083 0.594050 0.209748
0.473974 0.595553 0.210122
0.477641 0.595680 0.210176
0.481312 0.595793 0.210231
0.485354 0.597839 0.210744
0.488925 0.597306 0.210654
0.491998 0.594251 0.209976
0.495914 0.595458 0.210303
0.499383 0.594428 0.210108
0.502187 0.590282 0.209185
0.505630 0.589222 0.208991
0.511834 0.600567 0.211720
0.515850 0.601772 0.212069
0.518948 0.598943 0.211471
0.519526 0.585584 0.208397
0.524266 0.589894 0.209490
0.529483 0.595916 0.210992
0.534323 0.600170 0.212083
0.537015 0.595875 0.211162
0.539150 0.589588 0.209774
0.542003 0.586175 0.209069
0.547265 0.591679 0.210476
0.552436 0.596614 0.211756
0.555836 0.595067 0.211507
0.559837 0.595618 0.211761
0.563431 0.594720 0.211676
0.567208 0.594418 0.211738
0.570798 0.593468 0.211652
0.574804 0.593851 0.211888
0.580279 0.598856 0.213229
0.583329 0.596048 0.212718
0.587791 0.597641 0.213260
0.589804 0.591704 0.212013
0.594115 0.592768 0.212441
0.597861 0.592090 0.212458
0.601790 0.591917 0.212602
0.606104 0.592796 0.213004
0.612834 0.600384 0.215020
0.615154 0.595503 0.214053
0.617005 0.589436 0.212805
0.620671 0.588374 0.212763
0.625684 0.590857 0.213580
0.628920 0.588587 0.213257
0.633977 0.591016 0.214073
0.638974 0.593177 0.214831
0.642883 0.592513 0.214910
0.648273 0.595473 0.215873
0.651120 0.592124 0.215310
0.648579 0.575896 0.211618
0.654063 0.579055 0.212638
0.662595 0.589206 0.215368
0.668566 0.593149 0.216592
0.673337 0.594225 0.217119
0.676230 0.591020 0.216601
0.680324 0.590528 0.216746
0.685465 0.592309 0.217449
0.689115 0.590796 0.217342
0.693795 0.591494 0.217777
0.699927 0.595216 0.218956
0.705028 0.596684 0.219577
0.707365 0.592417 0.218775
0.708189 0.585170 0.217228
0.713534 0.587167 0.217961
0.719514 0.590379 0.218988
0.725680 0.593887 0.220082
0.731858 0.597347 0.221156
0.729177 0.583753 0.217970
0.728849 0.574942 0.215958
0.731826 0.572549 0.215529
0.737470 0.575187 0.216340
0.745336 0.581884 0.218151
0.749749 0.582203 0.218352
0.758386 0.590161 0.220445
0.755040 0.576669 0.217149
0.765460 0.587767 0.219990
0.762913 0.576068 0.217099
0.761753 0.567054 0.214857
0.770866 0.575869 0.217061
0.774752 0.575717 0.216994
0.780521 0.578804 0.217715
0.789418 0.587124 0.219722
0.796506 0.592384 0.220937
0.796908 0.586680 0.219385
0.802250 0.589176 0.219859
0.805459 0.588275 0.219459
0.808658 0.587452 0.219056
0.812431 0.587635 0.218880
0.822479 0.597773 0.221157
-0.029711 0.591365 0.227126
-0.028146 0.594664 0.228149
-0.024792 0.594468 0.228244
-0.019698 0.590789 0.227412
-0.016917 0.591952 0.227813
-0.016828 0.598892 0.229690
-0.013370 0.598927 0.229750
-0.013669 0.607107 0.231901
-0.008764 0.604302 0.231175
-0.003117 0.599920 0.230014
-0.000157 0.601473 0.230370
0.007806 0.591988 0.227837
0.010331 0.594660 0.228435
0.012287 0.598778 0.229385
0.016535 0.597784 0.228986
0.018504 0.602173 0.229959
0.023612 0.599318 0.229035
0.027417 0.599585 0.228899
0.030637 0.601346 0.229129
0.034019 0.602811 0.229263
0.039423 0.599338 0.228108
0.044968 0.595465 0.226836
0.049725 0.593544 0.226054
0.052714 0.596189 0.226430
0.057274 0.594809 0.225762
0.059485 0.599674 0.226679
0.061066 0.606405 0.228058
0.064283 0.608856 0.228333
0.068828 0.607683 0.227679
0.075325 0.600960 0.225612
0.080098 0.598972 0.224745
0.084114 0.599121 0.224416
0.088340 0.598638 0.223925
0.092007 0.599805 0.223848
0.096435 0.598658 0.223187
0.099887 0.600484 0.223273
0.103299 0.602468 0.223397
0.108059 0.600147 0.222445
0.112317 0.599350 0.221878
0.116241 0.599602 0.221575
0.121006 0.596969 0.220558
0.124157 0.599768 0.220894
0.126941 0.603917 0.221564
0.131687 0.601142 0.220526
0.138334 0.591272 0.217748
0.140742 0.596748 0.218756
0.144457 0.597430 0.218588
0.148519 0.596741 0.218089
0.152662 0.595653 0.217499
0.156069 0.597431 0.217614
0.158895 0.601625 0.218323
0.161646 0.606256 0.219140
0.166167 0.603431 0.218149
0.170204 0.602556 0.217638
0.174553 0.600177 0.216770
0.179204 0.596251 0.215536
0.182416 0.598853 0.215886
0.185867 0.600366 0.215978
0.189292 0.602031 0.216111
0.193163 0.601473 0.215715
0.197518 0.598321 0.214703
0.201356 0.597704 0.214305
0.205058 0.597741 0.214071
0.208848 0.597233 0.213711
0.212389 0.598077 0.213681
0.215832 0.599507 0.213795
0.219149 0.601739 0.214104
0.222903 0.601303 0.213783
0.226796 0.599883 0.213233
0.230578 0.599066 0.212833
0.234133 0.599721 0.212787
0.237993 0.598178 0.212225
0.241702 0.597605 0.211898
0.243681 0.610283 0.214707
0.247634 0.608080 0.214002
0.251561 0.605864 0.213300
0.255898 0.599873 0.211715
0.259684 0.598293 0.211174
0.263431 0.596899 0.210682
0.267028 0.596813 0.210502
0.270770 0.595168 0.209961
0.274497 0.593472 0.209412
0.277461 0.600335 0.210873
0.281227 0.598187 0.210226
0.284881 0.597165 0.209847
0.288446 0.597200 0.209719
0.291599 0.603280 0.211007
0.295220 0.602807 0.210767
0.298958 0.600208 0.210034
0.302662 0.597741 0.209337
0.306170 0.598778 0.209460
0.309730 0.598797 0.209349
0.313282 0.598999 0.209284
0.316865 0.598321 0.209018
0.320415 0.598465 0.208946
0.323990 0.597647 0.208653
0.327567 0.596334 0.208249
0.331096 0.597186 0.208351
0.334633 0.598056 0.208459
0.338183 0.597990 0.208353
0.341722 0.603381 0.209514
0.345307 0.606977 0.210261
0.348851 0.600689 0.208724
0.352358 0.596190 0.207604
0.355895 0.595888 0.207458
0.359419 0.595139 0.207212
0.362970 0.595654 0.207260
0.366548 0.596830 0.207464
0.370056 0.595755 0.207150
0.373704 0.598323 0.207680
0.377527 0.604232 0.208983
0.381228 0.606533 0.209455
0.384143 0.594009 0.206514
0.387439 0.589883 0.205511
0.390844 0.588048 0.205039
0.394364 0.588088 0.205003
0.398602 0.597883 0.207214
0.402446 0.601415 0.207985
0.405661 0.596944 0.206917
0.408574 0.589477 0.205163
0.412229 0.590776 0.205429
0.416001 0.593124 0.205939
0.419117 0.588783 0.204913
0.423064 0.592594 0.205764
0.426824 0.594376 0.206151
0.430740 0.597323 0.206809
0.435140 0.604011 0.208329
0.437797 0.596289 0.206541
0.441686 0.598547 0.207049
0.445275 0.598399 0.207007
0.448719 0.597198 0.206726
0.452172 0.596105 0.206473
0.455602 0.594897 0.206197
0.459587 0.597323 0.206759
0.463221 0.597372 0.206778
0.466508 0.595270 0.206306
0.469750 0.592983 0.205794
0.473979 0.596481 0.206616
0.477579 0.596226 0.206578
0.481268 0.596444 0.206653
0.485398 0.598953 0.207258
0.489437 0.600834 0.207723
0.492520 0.597756 0.207051
0.496631 0.599862 0.207575
0.500250 0.599462 0.207527
0.502123 0.590836 0.205588
0.505270 0.588420 0.205083
0.510433 0.595135 0.206685
0.515786 0.602353 0.208408
0.518455 0.597678 0.207395
0.519837 0.587739 0.205171
0.524084 0.589993 0.205763
0.529438 0.596592 0.207363
0.533146 0.596367 0.207393
0.536827 0.596006 0.207397
0.539562 0.592010 0.206565
0.543087 0.591080 0.206446
0.549102 0.599280 0.208444
0.552550 0.597891 0.208230
0.555081 0.593263 0.207270
0.559323 0.594700 0.207720
0.564401 0.598902 0.208817
0.566633 0.593359 0.207658
0.570558 0.593549 0.207835
0.574389 0.593381 0.207935
0.581910 0.604942 0.210770
0.586041 0.605442 0.211038
0.588119 0.599542 0.209820
0.589775 0.592499 0.208340
0.594196 0.593900 0.208834
0.598201 0.593984 0.209026
0.601653 0.592412 0.208837
0.605917 0.593160 0.209197
0.611453 0.597412 0.210385
0.614190 0.593737 0.209719
0.614757 0.584204 0.207680
0.619434 0.585947 0.208295
0.624607 0.588906 0.209204
0.630453 0.593491 0.210503
0.635552 0.595973 0.211313
0.638092 0.591845 0.210567
0.644003 0.596218 0.211836
0.648994 0.598157 0.212536
0.648051 0.585550 0.209787
0.652105 0.585238 0.209957
0.654644 0.581304 0.209269
0.659004 0.581691 0.209612
0.668224 0.593237 0.212623
0.672696 0.593636 0.212978
0.675987 0.591331 0.212688
0.679730 0.590056 0.212644
0.685069 0.592277 0.213439
0.689258 0.591925 0.213617
0.693549 0.591774 0.213842
0.700920 0.598100 0.215627
0.704943 0.597279 0.215687
0.707653 0.593758 0.215088
0.711210 0.592031 0.214917
0.715356 0.591523 0.215035
0.719796 0.591609 0.215289
0.724389 0.591995 0.215608
0.731213 0.596710 0.216971
0.730413 0.586697 0.214735
0.725639 0.569381 0.210699
0.730553 0.570653 0.211183
0.736752 0.574313 0.212236
0.744017 0.579884 0.213743
0.749823 0.582723 0.214566
0.754127 0.582844 0.214706
0.766382 0.597170 0.218309
0.763084 0.583836 0.215112
0.763827 0.577876 0.213700
0.771870 0.584716 0.215406
0.777498 0.587353 0.216059
0.781196 0.586732 0.215890
0.780558 0.578902 0.213929
0.789186 0.586728 0.215785
0.793607 0.587541 0.215895
0.797727 0.587925 0.215877
0.802504 0.589450 0.216114
0.806064 0.589069 0.215859
0.808848 0.587535 0.215300
0.812715 0.587825 0.215162
0.814653 0.585159 0.214281
-0.034074 0.599360 0.225612
-0.028842 0.595352 0.224748
-0.025867 0.595982 0.225039
-0.024904 0.600867 0.226391
-0.022135 0.602197 0.226815
-0.014549 0.593553 0.224673
-0.011492 0.594434 0.224934
-0.009127 0.596917 0.225578
-0.005674 0.597198 0.225637
-0.001388 0.595766 0.225236
0.002959 0.594265 0.224792
0.003660 0.600962 0.226413
0.005445 0.605453 0.227446
0.017177 0.587430 0.222731
0.016365 0.598039 0.225274
0.018576 0.601914 0.226083
0.023480 0.599585 0.225295
0.026822 0.601013 0.225441
0.031985 0.598121 0.224474
0.036598 0.596563 0.223829
0.043908 0.588302 0.221477
0.048947 0.585593 0.220514
0.050470 0.591843 0.221794
0.053061 0.595529 0.222413
0.056262 0.597742 0.222647
0.058421 0.602817 0.223586
0.060530 0.608192 0.224587
0.063637 0.610994 0.224933
0.069754 0.605491 0.223204
0.075957 0.599576 0.221372
0.079161 0.602091 0.221631
0.083906 0.600170 0.220788
0.088083 0.599859 0.220341
0.092473 0.598875 0.219728
0.096172 0.599946 0.219621
0.099947 0.600790 0.219457
0.104310 0.599769 0.218837
0.108574 0.598995 0.218280
0.112519 0.599200 0.217965
0.116101 0.600582 0.217939
0.119941 0.601095 0.217704
0.124814 0.598010 0.216599
0.129003 0.597175 0.216047
0.134788 0.590535 0.214096
0.139442 0.587724 0.213080
0.142598 0.590335 0.213377
0.146005 0.592046 0.213461
0.149852 0.592063 0.213142
0.153748 0.591839 0.212770
0.157904 0.590503 0.212139
0.159596 0.599201 0.213910
0.163010 0.600974 0.214028
0.166010 0.604551 0.214581
0.169646 0.605435 0.214498
0.175037 0.598420 0.212546
0.178744 0.598767 0.212349
0.182217 0.600177 0.212408
0.185204 0.603939 0.213028
0.189630 0.600730 0.212008
0.193508 0.600077 0.211597
0.197709 0.597661 0.210778
0.201471 0.597405 0.210473
0.205153 0.597519 0.210261
0.208711 0.598278 0.210205
0.212392 0.598323 0.209988
0.215744 0.600270 0.210219
0.219973 0.596922 0.209220
0.223213 0.599554 0.209621
0.226853 0.599695 0.209446
0.230477 0.599905 0.209292
0.234112 0.600007 0.209118
0.238021 0.598095 0.208482
0.241545 0.598862 0.208472
0.244609 0.603190 0.209289
0.247669 0.607829 0.210182
0.251669 0.604977 0.209347
0.255860 0.600179 0.208069
0.259727 0.597848 0.207366
0.263309 0.597957 0.207230
0.266582 0.601094 0.207794
0.270554 0.597245 0.206756
0.274013 0.598545 0.206905
0.277572 0.598795 0.206817
0.280928 0.601513 0.207299
0.284791 0.597964 0.206347
0.288074 0.601885 0.207110
0.291257 0.607794 0.208330
0.294822 0.608511 0.208365
0.298679 0.604286 0.207275
0.302182 0.605880 0.207518
0.305680 0.607830 0.207844
0.309336 0.606599 0.207448
0.313148 0.601098 0.206083
0.316822 0.598018 0.205275
0.320396 0.597272 0.205000
0.323905 0.598715 0.205227
0.327467 0.598252 0.205023
0.331034 0.597171 0.204682
0.334574 0.597492 0.204662
0.338102 0.600111 0.205167
0.341653 0.602890 0.205709
0.345223 0.602696 0.205581
0.348784 0.601673 0.205267
0.352290 0.596801 0.204084
0.355820 0.596064 0.203842
0.359353 0.595798 0.203708
0.362896 0.595968 0.203676
0.366462 0.596772 0.203789
0.370029 0.597393 0.203864
0.373651 0.599218 0.204213
0.377564 0.607060 0.205923
0.381241 0.608669 0.206227
0.384368 0.599874 0.204186
0.387415 0.591094 0.202153
0.390864 0.589885 0.201831
0.394646 0.593651 0.202632
0.398452 0.597240 0.203396
0.402495 0.603392 0.204739
0.405864 0.600681 0.204088
0.408506 0.589933 0.201630
0.411964 0.589096 0.201407
0.415697 0.591149 0.201837
0.419730 0.595934 0.202884
0.423032 0.593398 0.202287
0.426573 0.593196 0.202217
0.430908 0.599827 0.203687
0.434671 0.601167 0.203970
0.437628 0.595956 0.202782
0.441420 0.597505 0.203117
0.445190 0.598751 0.203387
0.448490 0.596520 0.202877
0.451875 0.594995 0.202530
0.455419 0.594602 0.202440
0.459670 0.598783 0.203382
0.463306 0.598821 0.203395
0.466423 0.595649 0.202690
0.469947 0.595045 0.202565
0.473328 0.593614 0.202258
0.476970 0.593690 0.202293
0.480794 0.594724 0.202546
0.485987 0.602955 0.204423
0.489542 0.602246 0.204292
0.492789 0.599977 0.203813
0.496717 0.601145 0.204112
0.500365 0.600872 0.204090
0.501427 0.588404 0.201325
0.504951 0.587789 0.201233
0.510017 0.594104 0.202707
0.514823 0.598964 0.203858
0.517578 0.594746 0.202966
0.520264 0.590373 0.202043
0.523741 0.589409 0.201893
0.528902 0.595261 0.203286
0.533235 0.597561 0.203883
0.536495 0.595554 0.203511
0.539814 0.593808 0.203202
0.545348 0.600381 0.204780
0.549301 0.600859 0.204985
0.552483 0.598496 0.204551
0.555115 0.594225 0.203690
0.559226 0.595211 0.204025
0.562849 0.594451 0.203968
0.566459 0.593627 0.203903
0.570126 0.592977 0.203882
0.574271 0.593854 0.204213
0.579438 0.597922 0.205277
0.585596 0.604924 0.207016
0.588765 0.602413 0.206595
0.590733 0.596281 0.205352
0.593168 0.591695 0.204465
0.598232 0.594951 0.205376
0.601419 0.592612 0.205013
0.605405 0.592578 0.205182
0.608498 0.589984 0.204771
0.611534 0.587260 0.204333
0.616331 0.589378 0.205014
0.619780 0.587758 0.204840
0.624956 0.590715 0.205727
0.629055 0.590725 0.205940
0.633103 0.590556 0.206117
0.637478 0.591172 0.206481
0.641181 0.590042 0.206447
0.644976 0.589122 0.206465
0.647686 0.585537 0.205868
0.653380 0.589178 0.206953
0.661126 0.597546 0.209146
0.662595 0.590955 0.207859
0.666999 0.591276 0.208185
0.672799 0.594732 0.209247
0.675699 0.591533 0.208755
0.679562 0.590522 0.208775
0.684931 0.592804 0.209570
0.688842 0.591841 0.209602
0.693192 0.591812 0.209853
0.700171 0.597314 0.211408
0.705184 0.598555 0.211957
0.706955 0.593070 0.210912
0.710225 0.590753 0.210610
0.714585 0.590675 0.210832
0.718638 0.589985 0.210902
0.725539 0.594906 0.212299
0.727640 0.590393 0.211442
0.733396 0.593014 0.212274
0.731514 0.581082 0.209621
0.729832 0.569807 0.207107
0.733747 0.569202 0.207127
0.737687 0.568687 0.207152
0.742931 0.570589 0.207741
0.756636 0.587722 0.211964
0.764846 0.594759 0.213753
0.766755 0.590591 0.212834
0.765517 0.581062 0.210607
0.773376 0.587512 0.212194
0.778997 0.590069 0.212825
0.777317 0.580252 0.210462
0.777677 0.574115 0.208961
0.783164 0.576705 0.209531
0.793352 0.587091 0.211948
0.798897 0.589770 0.212490
0.803223 0.590504 0.212542
0.806336 0.589352 0.212118
0.809241 0.587967 0.211615
0.812072 0.586572 0.211086
0.840931 0.626216 0.220329
-0.033860 0.598199 0.221727
-0.027283 0.591514 0.220199
-0.025545 0.594673 0.221104
-0.025820 0.602133 0.223061
-0.021935 0.601203 0.222899
-0.014792 0.593533 0.221028
-0.009318 0.589348 0.220003
-0.007544 0.593089 0.220936
-0.005006 0.595359 0.221477
-0.002672 0.598220 0.222141
0.001693 0.596756 0.221700
0.004776 0.598216 0.221967
0.013634 0.586767 0.218989
0.020129 0.580533 0.217293
0.018247 0.593576 0.220380
0.020089 0.598307 0.221372
0.025798 0.594079 0.220114
0.030371 0.592531 0.219505
0.033806 0.593766 0.219570
0.038343 0.592378 0.218967
0.044719 0.586423 0.217221
0.043622 0.599211 0.220092
0.049238 0.595210 0.218802
0.051014 0.601089 0.219934
0.054989 0.601373 0.219677
0.059044 0.601469 0.219364
0.063573 0.600295 0.218732
0.066335 0.603951 0.219274
0.069629 0.606231 0.219472
0.075499 0.601280 0.217903
0.079383 0.601879 0.217683
0.083899 0.600634 0.217013
0.088375 0.599448 0.216358
0.092371 0.599646 0.216036
0.094903 0.604312 0.216791
0.100393 0.599887 0.215357
0.104939 0.598266 0.214601
0.108841 0.598628 0.214324
0.112741 0.598970 0.214044
0.116658 0.599224 0.213746
0.120458 0.599839 0.213537
0.124928 0.598115 0.212776
0.129392 0.596299 0.212000
0.133817 0.594503 0.211234
0.138066 0.593237 0.210600
0.143840 0.586182 0.208608
0.146614 0.590201 0.209232
0.149109 0.595408 0.210138
0.153854 0.591876 0.208996
0.157619 0.592096 0.208740
0.159910 0.598348 0.209900
0.161865 0.606223 0.211438
0.165245 0.608259 0.211617
0.169820 0.605082 0.210588
0.173929 0.603795 0.210007
0.178437 0.600558 0.208980
0.182561 0.598924 0.208333
0.186158 0.599694 0.208247
0.189702 0.600714 0.208225
0.193426 0.600815 0.207996
0.196867 0.602337 0.208100
0.201479 0.597650 0.206781
0.205277 0.597109 0.206422
0.208896 0.597492 0.206281
0.212405 0.598485 0.206285
0.215419 0.602421 0.206965
0.219181 0.601966 0.206646
0.225117 0.587720 0.203190
0.226826 0.600022 0.205790
0.230577 0.599365 0.205441
0.234291 0.598871 0.205135
0.238202 0.596880 0.204494
0.241477 0.599428 0.204887
0.244941 0.600666 0.204987
0.248676 0.599775 0.204610
0.251589 0.605617 0.205758
0.255696 0.601543 0.204670
0.259597 0.598933 0.203918
0.262952 0.601212 0.204273
0.266541 0.601343 0.204147
0.270160 0.601126 0.203947
0.273963 0.598845 0.203287
0.277477 0.599596 0.203312
0.281264 0.597074 0.202607
0.284869 0.596551 0.202354
0.288358 0.597504 0.202435
0.291221 0.607781 0.204607
0.294901 0.606613 0.204219
0.298502 0.606581 0.204088
0.302002 0.608376 0.204369
0.305436 0.611825 0.205021
0.309180 0.608983 0.204273
0.312974 0.604149 0.203084
0.316752 0.598442 0.201706
0.320355 0.596736 0.201223
0.323814 0.599934 0.201834
0.327372 0.599858 0.201719
0.330960 0.597817 0.201170
0.334506 0.597639 0.201039
0.338033 0.600187 0.201515
0.341589 0.599830 0.201349
0.345141 0.599504 0.201192
0.348690 0.599071 0.201015
0.352223 0.597584 0.200606
0.355747 0.596375 0.200263
0.359276 0.595927 0.200090
0.362794 0.595188 0.199855
0.366429 0.598464 0.200512
0.369877 0.595565 0.199805
0.373597 0.600063 0.200735
0.377358 0.604525 0.201660
0.380818 0.602036 0.201051
0.384074 0.596198 0.199705
0.387539 0.594812 0.199346
0.391224 0.597040 0.199786
0.394790 0.597207 0.199774
0.398474 0.598926 0.200107
0.402359 0.602994 0.200959
0.406502 0.609697 0.202395
0.409469 0.602177 0.200698
0.411878 0.589345 0.197835
0.416147 0.596947 0.199476
0.419951 0.599235 0.199948
0.423458 0.598492 0.199756
0.426967 0.597802 0.199577
0.430781 0.599771 0.199987
0.435059 0.605407 0.201206
0.437345 0.594695 0.198831
0.441174 0.596596 0.199234
0.444907 0.597616 0.199445
0.448285 0.596004 0.199081
0.451834 0.595644 0.198995
0.455786 0.597981 0.199504
0.459598 0.599228 0.199778
0.465593 0.614115 0.203054
0.467078 0.600536 0.200072
0.469554 0.593585 0.198551
0.473155 0.593483 0.198540
0.476754 0.593338 0.198522
0.480915 0.596246 0.199180
0.485443 0.600918 0.200229
0.488969 0.600122 0.200078
0.492289 0.598289 0.199703
0.496486 0.600846 0.200298
0.499542 0.597741 0.199650
0.501749 0.590744 0.198148
0.504469 0.586389 0.197231
0.511105 0.599827 0.200238
0.515578 0.603117 0.201015
0.517406 0.594823 0.199241
0.520282 0.591266 0.198515
0.525197 0.596247 0.199677
0.530421 0.602240 0.201068
0.533996 0.601406 0.200957
0.537334 0.599644 0.200644
0.542252 0.603944 0.201676
0.545688 0.602487 0.201441
0.548854 0.600049 0.200992
0.551643 0.596292 0.200257
0.555405 0.596084 0.200311
0.559094 0.595585 0.200305
0.562715 0.594828 0.200248
0.566420 0.594331 0.200253
0.570121 0.593798 0.200255
0.574116 0.594193 0.200469
0.579165 0.597896 0.201425
0.584995 0.603891 0.202898
0.588515 0.602499 0.202732
0.589520 0.593445 0.200861
0.594256 0.595808 0.201543
0.597803 0.594543 0.201420
0.601870 0.594781 0.201638
0.605882 0.594806 0.201815
0.608849 0.591834 0.201326
0.612496 0.590791 0.201274
0.617972 0.594732 0.202347
0.626049 0.605515 0.204966
0.625162 0.592135 0.202155
0.628436 0.589980 0.201874
0.631745 0.587925 0.201619
0.635905 0.588047 0.201861
0.641164 0.590871 0.202719
0.644213 0.588106 0.202317
0.647536 0.586036 0.202076
0.655541 0.595246 0.204402
0.660249 0.596336 0.204890
0.663162 0.593146 0.204406
0.668288 0.595113 0.205102
0.672429 0.594740 0.205266
0.675695 0.592367 0.204975
0.679855 0.592006 0.205145
0.684101 0.591807 0.205354
0.688697 0.592339 0.205731
0.693429 0.593120 0.206165
0.699529 0.596746 0.207256
0.704434 0.597764 0.207744
0.707517 0.594981 0.207351
0.709263 0.589522 0.206333
0.714048 0.590300 0.206753
0.718722 0.590832 0.207111
0.723733 0.592014 0.207613
0.727158 0.590085 0.207383
0.732823 0.592514 0.208158
0.735589 0.589387 0.207627
0.733556 0.577326 0.204996
0.733630 0.569469 0.203329
0.735814 0.565688 0.202598
0.746287 0.577109 0.205412
0.753505 0.582466 0.206792
0.758707 0.584160 0.207297
0.758171 0.575742 0.205410
0.764323 0.579231 0.206297
0.770689 0.583077 0.207249
0.777303 0.587338 0.208276
0.782550 0.589261 0.208733
0.782278 0.581935 0.206995
0.781423 0.573842 0.205054
0.796072 0.591580 0.209155
0.799527 0.590754 0.208873
0.803348 0.590614 0.208728
0.806839 0.590029 0.208455
0.810644 0.590036 0.208297
0.812924 0.587710 0.207571
0.815504 0.585976 0.206960
-0.025772 0.581315 0.213997
-0.026286 0.588839 0.215961
-0.024305 0.591521 0.216719
-0.022808 0.595351 0.217736
-0.021426 0.599599 0.218832
-0.016967 0.597587 0.218371
-0.011538 0.593588 0.217399
-0.008093 0.593849 0.217446
-0.006267 0.597711 0.218353
-0.002990 0.598588 0.218503
0.001122 0.597738 0.218207
0.006382 0.594401 0.217280
0.015109 0.583259 0.214422
0.015418 0.591148 0.216197
0.014563 0.601990 0.218668
0.020372 0.597600 0.217400
0.029502 0.585313 0.214191
0.033390 0.585340 0.213967
0.034488 0.592191 0.215383
0.035384 0.599770 0.216955
0.038915 0.601035 0.216978
0.045699 0.594161 0.215018
0.045946 0.603862 0.217052
0.049776 0.604562 0.216898
0.056159 0.598584 0.215129
0.062344 0.592977 0.213444
0.066500 0.592712 0.213038
0.069694 0.595083 0.213256
0.070390 0.604499 0.215147
0.075848 0.600700 0.213879
0.080312 0.599628 0.213259
0.084508 0.599289 0.212813
0.088382 0.599875 0.212585
0.091753 0.601970 0.212712
0.095789 0.602067 0.212367
0.100465 0.600135 0.211546
0.103638 0.602869 0.211824
0.108903 0.598908 0.210533
0.112866 0.599041 0.210206
0.116724 0.599487 0.209955
0.120381 0.600584 0.209860
0.123957 0.601955 0.209831
0.127358 0.603942 0.209949
0.131804 0.602204 0.209207
0.137214 0.596817 0.207629
0.142341 0.592226 0.206244
0.144899 0.597169 0.207063
0.148217 0.599311 0.207240
0.152516 0.597603 0.206537
0.157083 0.594683 0.205565
0.158802 0.603331 0.207244
0.162299 0.604807 0.207286
0.166370 0.603818 0.206771
0.170340 0.603179 0.206343
0.173595 0.605666 0.206630
0.178031 0.602785 0.205705
0.183365 0.595482 0.203786
0.187058 0.595687 0.203575
0.189725 0.600910 0.204502
0.193195 0.602278 0.204563
0.197061 0.601612 0.204170
0.201120 0.599825 0.203532
0.204875 0.599555 0.203240
0.208830 0.598095 0.202688
0.212189 0.599943 0.202881
0.215243 0.603658 0.203497
0.219786 0.598434 0.202119
0.222395 0.605038 0.203387
0.227120 0.598242 0.201672
0.230848 0.597654 0.201346
0.234640 0.596531 0.200906
0.238131 0.597449 0.200925
0.241565 0.598808 0.201045
0.245042 0.599894 0.201108
0.248753 0.599141 0.200769
0.252880 0.594818 0.199645
0.255851 0.600118 0.200652
0.258849 0.605580 0.201697
0.263370 0.597113 0.199673
0.266897 0.597625 0.199634
0.270113 0.601384 0.200313
0.274149 0.596545 0.199104
0.277946 0.593877 0.198377
0.281380 0.595276 0.198548
0.284939 0.595204 0.198399
0.288372 0.596818 0.198622
0.291707 0.600045 0.199202
0.295000 0.604385 0.200028
0.298534 0.605269 0.200099
0.302019 0.607182 0.200399
0.305477 0.609962 0.200890
0.309060 0.610484 0.200891
0.312877 0.605216 0.199632
0.316663 0.599388 0.198256
0.320286 0.597060 0.197646
0.323860 0.595788 0.197270
0.327327 0.598982 0.197868
0.330882 0.598602 0.197691
0.334420 0.599266 0.197744
0.337944 0.602911 0.198446
0.341510 0.602997 0.198378
0.345073 0.601309 0.197928
0.348632 0.601364 0.197858
0.352148 0.597767 0.197000
0.355673 0.596706 0.196694
0.359180 0.595212 0.196297
0.362689 0.594352 0.196040
0.366302 0.597096 0.196565
0.369834 0.596770 0.196428
0.373329 0.595603 0.196112
0.377057 0.599840 0.196966
0.380618 0.599874 0.196913
0.383998 0.596529 0.196134
0.387482 0.595465 0.195850
0.390935 0.594039 0.195490
0.394812 0.598982 0.196507
0.398367 0.598860 0.196433
0.402314 0.603764 0.197444
0.406108 0.606210 0.197929
0.409214 0.600487 0.196654
0.412276 0.594848 0.195402
0.415873 0.595266 0.195456
0.419660 0.597482 0.195900
0.423422 0.599238 0.196248
0.426988 0.599047 0.196178
0.431078 0.603374 0.197084
0.434700 0.603452 0.197078
0.437162 0.594216 0.195070
0.440981 0.596078 0.195453
0.444658 0.596726 0.195577
0.448356 0.597445 0.195719
0.451300 0.592865 0.194725
0.455302 0.595643 0.195315
0.459937 0.602331 0.196750
0.463051 0.598999 0.196032
0.467018 0.601053 0.196476
0.469312 0.593011 0.194751
0.472933 0.593050 0.194768
0.476734 0.594074 0.194999
0.480111 0.592685 0.194714
0.484659 0.597580 0.195785
0.488363 0.597808 0.195855
0.491896 0.597129 0.195734
0.496141 0.599967 0.196372
0.499674 0.599196 0.196238
0.501760 0.591606 0.194639
0.505970 0.594110 0.195217
0.511229 0.601202 0.196787
0.514406 0.598765 0.196308
0.518315 0.599553 0.196529
0.520460 0.592820 0.195132
0.525269 0.597348 0.196167
0.530219 0.602234 0.197284
0.534063 0.602487 0.197406
0.537826 0.602372 0.197453
0.540071 0.596418 0.196243
0.544322 0.598175 0.196704
0.548373 0.599092 0.196988
0.550657 0.593542 0.195877
0.553818 0.591262 0.195477
0.558136 0.593059 0.195966
0.562468 0.594797 0.196447
0.566180 0.594342 0.196458
0.570045 0.594368 0.196578
0.574167 0.595181 0.196875
0.578979 0.598131 0.197641
0.583902 0.601291 0.198460
0.588183 0.602312 0.198820
0.590353 0.596819 0.197766
0.593416 0.594130 0.197327
0.597471 0.594405 0.197540
0.601680 0.595073 0.197844
0.606410 0.597166 0.198466
0.609988 0.595896 0.198358
0.613785 0.595222 0.198387
0.619087 0.598638 0.199318
0.623133 0.598519 0.199480
0.625919 0.595004 0.198900
0.628732 0.591610 0.198350
0.632242 0.590063 0.198212
0.637041 0.591794 0.198802
0.643321 0.597148 0.200199
0.643110 0.586230 0.198002
0.649140 0.590806 0.199238
0.654830 0.594394 0.200262
0.659600 0.595651 0.200774
0.664010 0.595987 0.201086
0.667522 0.594191 0.200927
0.672725 0.596262 0.201633
0.675302 0.592316 0.200998
0.679822 0.592759 0.201345
0.684018 0.592442 0.201523
0.688604 0.592945 0.201887
0.693411 0.593878 0.202348
0.698911 0.596224 0.203127
0.703270 0.596103 0.203350
0.706612 0.593863 0.203092
0.709329 0.590383 0.202548
0.714298 0.591512 0.203043
0.719443 0.592955 0.203604
0.722956 0.591145 0.203421
0.727478 0.591341 0.203685
0.731516 0.590606 0.203729
0.736715 0.592106 0.204272
0.735425 0.581377 0.202013
0.742151 0.585822 0.203204
0.750806 0.593746 0.205179
0.756224 0.595636 0.205762
0.752655 0.581327 0.202617
0.751796 0.572191 0.200636
0.755549 0.571425 0.200555
0.762536 0.576380 0.201768
0.765443 0.574229 0.201331
0.775823 0.584991 0.203839
0.782489 0.589305 0.204844
0.780445 0.578954 0.202460
0.785775 0.581155 0.202936
0.797303 0.593631 0.205747
0.799589 0.590830 0.205028
0.802557 0.589263 0.204568
0.807274 0.590620 0.204756
0.810836 0.590193 0.204511
0.813473 0.588392 0.203928
0.801986 0.564502 0.198277
-0.034229 0.597551 0.214358
-0.027670 0.590995 0.212897
-0.024825 0.591981 0.213222
-0.022370 0.593892 0.213745
-0.023699 0.603788 0.216164
-0.022426 0.608533 0.217322
-0.014816 0.600085 0.215286
-0.010131 0.597813 0.214711
-0.007142 0.599255 0.215004
-0.003110 0.598549 0.214757
0.001337 0.597011 0.214288
0.006133 0.594751 0.213623
0.013343 0.587082 0.211642
0.013709 0.594932 0.213356
0.014611 0.601809 0.214813
0.020393 0.597521 0.213582
0.030861 0.582112 0.209682
0.034739 0.582162 0.209456
0.033101 0.595651 0.212409
0.034281 0.602615 0.213788
0.039335 0.600159 0.212915
0.045001 0.596129 0.211659
0.047160 0.600994 0.212495
0.050219 0.603680 0.212803
0.056561 0.597823 0.211089
0.063313 0.590708 0.209078
0.065086 0.596885 0.210182
0.068645 0.598334 0.210169
0.073921 0.595027 0.209040
0.076915 0.598077 0.209392
0.080726 0.598855 0.209210
0.084478 0.599809 0.209067
0.088021 0.601391 0.209068
0.091860 0.602099 0.208865
0.096151 0.601415 0.208342
0.099713 0.602946 0.208331
0.104136 0.601759 0.207697
0.108671 0.600128 0.206964
0.112709 0.600029 0.206587
0.116551 0.600535 0.206352
0.120755 0.599780 0.205833
0.124012 0.602230 0.206048
0.126902 0.606016 0.206568
0.131008 0.605517 0.206119
0.137898 0.594759 0.203358
0.142479 0.592149 0.202449
0.145395 0.595718 0.202939
0.148751 0.597665 0.203067
0.153354 0.594697 0.202096
0.157567 0.593131 0.201447
0.160395 0.597157 0.202056
0.163733 0.599150 0.202213
0.167296 0.600209 0.202167
0.170329 0.603585 0.202641
0.173811 0.605045 0.202693
0.178547 0.600743 0.201472
0.183309 0.596060 0.200175
0.186656 0.597922 0.200334
0.189944 0.600118 0.200571
0.193130 0.602881 0.200937
0.197221 0.601036 0.200292
0.200886 0.601308 0.200120
0.204812 0.600120 0.199632
0.208981 0.597444 0.198824
0.212257 0.599732 0.199109
0.215489 0.602362 0.199473
0.218841 0.604363 0.199703
0.222275 0.605916 0.199839
0.226524 0.602218 0.198835
0.230783 0.598166 0.197761
0.234389 0.598329 0.197610
0.238239 0.596706 0.197075
0.241827 0.596870 0.196933
0.244860 0.601276 0.197714
0.249059 0.596637 0.196540
0.253076 0.593112 0.195613
0.256042 0.598349 0.196584
0.259294 0.601413 0.197088
0.262737 0.602906 0.197255
0.266969 0.596695 0.195767
0.270211 0.600104 0.196355
0.274114 0.596619 0.195463
0.277875 0.594333 0.194834
0.281350 0.595233 0.194892
0.284472 0.600765 0.195947
0.288178 0.598947 0.195429
0.291924 0.596250 0.194726
0.295330 0.598471 0.195079
0.298809 0.599770 0.195238
0.302628 0.594970 0.194096
0.305722 0.603935 0.195897
0.309208 0.605942 0.196215
0.312778 0.606294 0.196182
0.316664 0.597714 0.194248
0.320236 0.596751 0.193941
0.323759 0.597294 0.193958
0.327280 0.598170 0.194049
0.330810 0.598901 0.194110
0.334380 0.596855 0.193585
0.337881 0.601864 0.194560
0.341430 0.606457 0.195448
0.345002 0.602912 0.194612
0.348554 0.601147 0.194156
0.352069 0.597693 0.193346
0.355577 0.595734 0.192855
0.359084 0.594538 0.192528
0.362781 0.601098 0.193845
0.366343 0.601210 0.193799
0.369833 0.599218 0.193310
0.373343 0.598163 0.193023
0.377050 0.601720 0.193712
0.380688 0.603171 0.193958
0.384145 0.600991 0.193440
0.387439 0.596354 0.192406
0.391264 0.600753 0.193280
0.394558 0.596720 0.192379
0.398351 0.600023 0.193027
0.402137 0.602813 0.193568
0.405663 0.602101 0.193374
0.408988 0.599123 0.192704
0.412606 0.599618 0.192769
0.415676 0.594364 0.191626
0.419210 0.594146 0.191545
0.423345 0.599595 0.192660
0.427431 0.604101 0.193578
0.431145 0.604990 0.193737
0.434256 0.600761 0.192822
0.436972 0.593672 0.191309
0.440659 0.594551 0.191474
0.444675 0.597789 0.192137
0.447930 0.595310 0.191601
0.451453 0.594826 0.191487
0.454956 0.594210 0.191348
0.459159 0.598156 0.192171
0.463045 0.599833 0.192520
0.466064 0.596076 0.191729
0.469223 0.593330 0.191154
0.473129 0.595025 0.191515
0.476385 0.592941 0.191085
0.480153 0.593743 0.191265
0.484056 0.595184 0.191582
0.488408 0.598863 0.192373
0.491743 0.597164 0.192036
0.495761 0.598896 0.192425
0.500388 0.603456 0.193412
0.502955 0.598042 0.192304
0.506976 0.599550 0.192656
0.509987 0.596397 0.192031
0.512796 0.592453 0.191242
0.516715 0.593435 0.191495
0.521526 0.598116 0.192531
0.524452 0.594753 0.191876
0.527474 0.591880 0.191329
0.531260 0.592125 0.191442
0.535802 0.595271 0.192172
0.540080 0.597244 0.192659
0.543656 0.596470 0.192571
0.547306 0.595952 0.192542
0.551424 0.597110 0.192871
0.553672 0.591535 0.191781
0.558085 0.593676 0.192327
0.561968 0.593881 0.192469
0.565744 0.593675 0.192529
0.570167 0.595575 0.193041
0.573885 0.595070 0.193048
0.578498 0.597405 0.193663
0.582887 0.598913 0.194108
0.586095 0.596660 0.193759
0.589697 0.595637 0.193677
0.593278 0.594537 0.193583
0.596712 0.592986 0.193399
0.600644 0.592887 0.193529
0.606299 0.597679 0.194710
0.610733 0.598833 0.195121
0.614625 0.598395 0.195196
0.618319 0.597378 0.195154
0.622389 0.597356 0.195329
0.625155 0.593816 0.194755
0.628193 0.591038 0.194348
0.630867 0.587348 0.193749
0.635601 0.588966 0.194298
0.638798 0.586627 0.193998
0.642639 0.585899 0.194051
0.647978 0.588809 0.194896
0.653679 0.592463 0.195908
0.657771 0.592146 0.196065
0.662440 0.593143 0.196511
0.667590 0.595185 0.197190
0.671804 0.594990 0.197385
0.675861 0.594403 0.197498
0.678649 0.590963 0.196989
0.683386 0.591862 0.197429
0.687156 0.590600 0.197398
0.690887 0.589254 0.197348
0.697866 0.594791 0.198812
0.702360 0.594966 0.199097
0.705005 0.591290 0.198530
0.709633 0.591733 0.198869
0.714840 0.593316 0.199457
0.719119 0.592999 0.199620
0.723285 0.592460 0.199728
0.727303 0.591642 0.199766
0.730530 0.589321 0.199462
0.731638 0.583024 0.198262
0.739712 0.589997 0.200007
0.745760 0.593060 0.200872
0.750841 0.594299 0.201317
0.755099 0.594042 0.201414
0.754672 0.585373 0.199612
0.752722 0.574209 0.197232
0.756782 0.573931 0.197272
0.763621 0.578567 0.198395
0.768439 0.579664 0.198706
0.772696 0.579839 0.198791
0.778749 0.583120 0.199551
0.784455 0.585825 0.200161
0.788581 0.585914 0.200161
0.797411 0.593848 0.201899
0.799122 0.590062 0.200985
0.801524 0.587541 0.200331
0.805246 0.587268 0.200158
0.810228 0.589095 0.200432
0.813131 0.587684 0.199958
0.812238 0.580413 0.198153
-0.033254 0.594949 0.210128
-0.028785 0.592629 0.209680
-0.022513 0.586707 0.208361
-0.022381 0.593378 0.209982
-0.022936 0.601705 0.211969
-0.020607 0.604268 0.212577
-0.016325 0.602861 0.212227
-0.010162 0.597512 0.210926
-0.007200 0.599056 0.211223
-0.002175 0.596236 0.210470
0.001304 0.596852 0.210503
0.005998 0.594866 0.209903
0.013652 0.586246 0.207726
0.015029 0.591824 0.208858
0.016372 0.597691 0.210036
0.023043 0.591320 0.208331
0.027469 0.590167 0.207830
0.028996 0.595990 0.208939
0.030755 0.601454 0.209944
0.034760 0.601584 0.209692
0.041540 0.594848 0.207834
0.045816 0.594283 0.207397
0.047856 0.599456 0.208277
0.051346 0.601031 0.208313
0.057197 0.596447 0.206921
0.060150 0.599481 0.207276
0.063107 0.602595 0.207641
0.066597 0.604335 0.207684
0.070933 0.603756 0.207192
0.076422 0.599872 0.205945
0.080530 0.599831 0.205573
0.083911 0.601892 0.205678
0.089438 0.597611 0.204344
0.092910 0.599370 0.204380
0.095813 0.602899 0.204815
0.099817 0.603075 0.204494
0.104428 0.601286 0.203734
0.108503 0.601125 0.203343
0.112593 0.600862 0.202934
0.116251 0.601990 0.202839
0.121386 0.598084 0.201626
0.124900 0.599600 0.201626
0.127434 0.604583 0.202399
0.133381 0.597429 0.200485
0.139978 0.587566 0.197984
0.143249 0.589691 0.198140
0.146869 0.590517 0.198014
0.151590 0.587046 0.196949
0.154462 0.590700 0.197455
0.157675 0.593075 0.197684
0.160731 0.596142 0.198068
0.164588 0.595906 0.197734
0.167053 0.601601 0.198699
0.170064 0.605090 0.199185
0.174799 0.600923 0.198012
0.179208 0.598009 0.197120
0.182451 0.600392 0.197382
0.186525 0.598836 0.196796
0.189535 0.602398 0.197321
0.193586 0.600818 0.196741
0.197256 0.601086 0.196566
0.201014 0.600838 0.196284
0.204819 0.600277 0.195941
0.208942 0.597843 0.195202
0.212770 0.596924 0.194794
