ply
format ascii 1.0
comment ---
element vertex 1677
property float x
property float y
property float z
element face 0
property list uchar uint vertex_indices
end_header
-0.090590 0.613400 -0.086347
-0.088040 0.615699 -0.086573
-0.085120 0.615073 -0.086551
-0.082311 0.615339 -0.086604
-0.079429 0.614947 -0.086601
-0.076494 0.614002 -0.086550
-0.073645 0.613806 -0.086561
-0.070895 0.614600 -0.086656
-0.068064 0.614578 -0.086681
-0.065192 0.614059 -0.086663
-0.062343 0.613743 -0.086661
-0.059552 0.614123 -0.086718
-0.056813 0.615262 -0.086839
-0.053954 0.614761 -0.086820
-0.051172 0.615394 -0.086897
-0.048331 0.615108 -0.086895
-0.045480 0.614573 -0.086871
-0.042621 0.613770 -0.086824
-0.039749 0.612463 -0.086733
-0.036797 0.608842 -0.086444
-0.034201 0.614350 -0.086933
-0.031449 0.616412 -0.087128
-0.028675 0.618335 -0.087311
-0.025836 0.618033 -0.087303
-0.022989 0.617086 -0.087240
-0.020174 0.618035 -0.087338
-0.017347 0.618562 -0.087400
-0.014519 0.620334 -0.087567
-0.011673 0.622999 -0.087811
-0.008807 0.624846 -0.087984
-0.006049 0.615718 -0.087218
-0.003237 0.615316 -0.087198
-0.000438 0.614378 -0.087131
0.002424 0.616321 -0.087310
0.005108 0.611693 -0.086927
0.007946 0.612761 -0.087030
0.010803 0.614034 -0.087151
0.013619 0.614106 -0.087168
0.016474 0.614942 -0.087250
0.019251 0.614175 -0.087194
0.022101 0.614768 -0.087254
0.024969 0.615551 -0.087329
0.027714 0.614398 -0.087239
0.030475 0.613605 -0.087178
0.033325 0.614047 -0.087223
0.036348 0.616545 -0.087443
0.039318 0.618143 -0.087586
0.041602 0.612028 -0.087066
0.044339 0.611220 -0.087001
0.047045 0.610175 -0.086914
0.049648 0.608227 -0.086750
0.052810 0.611535 -0.087035
0.056303 0.617439 -0.087543
0.059466 0.620092 -0.087770
0.062464 0.621201 -0.087865
0.064979 0.618448 -0.087627
0.067184 0.613539 -0.087203
0.069928 0.612863 -0.087142
0.072720 0.612549 -0.087110
0.075601 0.612842 -0.087130
0.078469 0.613009 -0.087138
0.081142 0.611900 -0.087035
0.083671 0.609949 -0.086859
0.086856 0.612035 -0.087028
0.090149 0.614611 -0.087238
0.093269 0.616047 -0.087349
0.096583 0.618457 -0.087542
0.099398 0.618024 -0.087490
0.101742 0.615119 -0.087225
0.104549 0.614702 -0.087172
0.107140 0.613203 -0.087025
0.110172 0.613901 -0.087064
0.112517 0.611263 -0.086817
0.115438 0.611408 -0.086806
0.118307 0.611277 -0.086770
0.121883 0.614289 -0.087001
0.124592 0.613348 -0.086893
0.127373 0.612731 -0.086810
0.129981 0.611381 -0.086664
0.133197 0.612553 -0.086730
0.135924 0.611677 -0.086621
0.138994 0.612162 -0.086625
0.141983 0.612280 -0.086596
0.144409 0.610221 -0.086381
0.146905 0.608469 -0.086190
0.150039 0.609081 -0.086197
0.151646 0.604140 -0.085732
0.154653 0.604292 -0.085697
0.159290 0.610059 -0.086133
0.162866 0.611975 -0.086242
0.165448 0.610451 -0.086058
0.167876 0.608429 -0.085830
0.170822 0.608121 -0.085744
0.173085 0.605600 -0.085470
0.176471 0.606649 -0.085493
0.180895 0.610834 -0.085777
0.187925 0.622769 -0.086706
0.187070 0.610686 -0.085622
0.189820 0.609557 -0.085453
0.192937 0.609489 -0.085370
0.195897 0.608930 -0.085244
0.198491 0.607315 -0.085028
0.201548 0.606991 -0.084916
0.204881 0.607386 -0.084862
0.209037 0.609945 -0.084984
0.213411 0.612966 -0.085141
0.216602 0.612762 -0.085029
0.219655 0.612165 -0.084882
0.221655 0.608864 -0.084512
0.226563 0.612910 -0.084741
0.232388 0.619073 -0.085140
0.238976 0.626893 -0.085669
0.234034 0.606696 -0.083917
0.236955 0.605682 -0.083727
0.240703 0.606601 -0.083691
0.244624 0.607860 -0.083681
0.246773 0.605011 -0.083340
0.251029 0.606956 -0.083383
0.254157 0.606313 -0.083218
0.258099 0.607455 -0.083196
0.261031 0.606355 -0.082995
0.264823 0.607111 -0.082943
0.267875 0.606270 -0.082765
0.270869 0.605321 -0.082580
0.274336 0.605367 -0.082477
0.280940 0.611819 -0.082881
0.282638 0.608229 -0.082496
0.287066 0.610179 -0.082551
0.290391 0.609928 -0.082438
0.291058 0.604522 -0.081926
0.295121 0.605815 -0.081945
0.301544 0.611613 -0.082320
0.308655 0.618626 -0.082795
0.305428 0.606240 -0.081769
0.308316 0.605460 -0.081653
0.311423 0.605150 -0.081583
0.314814 0.605423 -0.081566
0.317656 0.604771 -0.081487
-0.358849 0.605498 -0.080585
-0.356975 0.607793 -0.080810
-0.352093 0.604943 -0.080654
-0.349367 0.605912 -0.080797
-0.346878 0.607388 -0.080989
-0.344454 0.609066 -0.081205
-0.341087 0.609119 -0.081305
-0.337729 0.609237 -0.081418
-0.334266 0.609207 -0.081527
-0.330442 0.608535 -0.081593
-0.327037 0.608674 -0.081727
-0.323715 0.609003 -0.081881
-0.320007 0.608607 -0.081984
-0.317236 0.610059 -0.082235
-0.313738 0.610109 -0.082380
-0.310392 0.610467 -0.082552
-0.306730 0.610189 -0.082677
-0.303644 0.611086 -0.082896
-0.299372 0.609517 -0.082921
-0.296212 0.610243 -0.083129
-0.293037 0.610935 -0.083335
-0.289488 0.610811 -0.083476
-0.286339 0.611537 -0.083684
-0.282305 0.610284 -0.083733
-0.279390 0.611487 -0.083979
-0.275658 0.610824 -0.084072
-0.272049 0.610390 -0.084183
-0.268955 0.611111 -0.084385
-0.265819 0.611714 -0.084577
-0.262554 0.611981 -0.084739
-0.258583 0.610495 -0.084755
-0.255197 0.610371 -0.084880
-0.251990 0.610645 -0.085035
-0.248473 0.610097 -0.085120
-0.245786 0.611628 -0.085375
-0.241653 0.609380 -0.085314
-0.238964 0.610850 -0.085559
-0.235731 0.610854 -0.085679
-0.232382 0.610499 -0.085767
-0.229329 0.610908 -0.085915
-0.226449 0.611771 -0.086100
-0.222848 0.610558 -0.086107
-0.219992 0.611426 -0.086287
-0.217032 0.611969 -0.086438
-0.213963 0.612162 -0.086556
-0.210862 0.612220 -0.086660
-0.207703 0.612063 -0.086743
-0.204788 0.612623 -0.086885
-0.201771 0.612835 -0.086995
-0.198606 0.612534 -0.087059
-0.195452 0.612223 -0.087119
-0.192496 0.612525 -0.087230
-0.189670 0.613243 -0.087374
-0.186506 0.612774 -0.087414
-0.183463 0.612683 -0.087484
-0.180266 0.611998 -0.087500
-0.177372 0.612360 -0.087606
-0.174430 0.612524 -0.087692
-0.171442 0.612483 -0.087758
-0.168488 0.612540 -0.087831
-0.165797 0.613605 -0.087989
-0.163003 0.614263 -0.088111
-0.159994 0.614039 -0.088154
-0.156982 0.613759 -0.088190
-0.154058 0.613815 -0.088254
-0.151083 0.613618 -0.088295
-0.148195 0.613776 -0.088364
-0.145252 0.613660 -0.088408
-0.142257 0.613274 -0.088427
-0.139325 0.613140 -0.088467
-0.136503 0.613508 -0.088549
-0.133706 0.613992 -0.088640
-0.130867 0.614260 -0.088711
-0.128051 0.614637 -0.088790
-0.125110 0.614339 -0.088808
-0.122177 0.614046 -0.088825
-0.119307 0.614074 -0.088870
-0.116495 0.614414 -0.088941
-0.113504 0.613682 -0.088916
-0.110611 0.613486 -0.088937
-0.107837 0.614015 -0.089022
-0.105177 0.615301 -0.089173
-0.102232 0.614726 -0.089158
-0.099300 0.614178 -0.089144
-0.096467 0.614293 -0.089188
-0.093659 0.614585 -0.089247
-0.090773 0.614275 -0.089251
-0.087825 0.613418 -0.089206
-0.085043 0.613865 -0.089276
-0.082282 0.614520 -0.089364
-0.079393 0.614047 -0.089351
-0.076576 0.614199 -0.089393
-0.073727 0.614034 -0.089405
-0.070936 0.614435 -0.089468
-0.068140 0.614801 -0.089527
-0.065249 0.614100 -0.089489
-0.062385 0.613628 -0.089472
-0.059591 0.613997 -0.089529
-0.056813 0.614614 -0.089608
-0.054022 0.615108 -0.089675
-0.051204 0.615220 -0.089708
-0.048334 0.614472 -0.089663
-0.045479 0.613833 -0.089627
-0.042680 0.614202 -0.089681
-0.039734 0.611348 -0.089444
-0.036829 0.608842 -0.089239
-0.034072 0.609826 -0.089346
-0.031502 0.617209 -0.090029
-0.028693 0.618000 -0.090119
-0.025865 0.618244 -0.090159
-0.023014 0.617263 -0.090088
-0.020184 0.617164 -0.090096
-0.017372 0.619449 -0.090318
-0.014537 0.621174 -0.090490
-0.011684 0.623952 -0.090756
-0.008794 0.628496 -0.091181
-0.006062 0.615385 -0.090013
-0.003245 0.615197 -0.090010
-0.000422 0.615423 -0.090044
0.002355 0.613691 -0.089901
0.005195 0.614604 -0.089996
0.007975 0.613547 -0.089913
0.010777 0.613273 -0.089900
0.013591 0.613335 -0.089917
0.016404 0.613352 -0.089929
0.019236 0.613715 -0.089972
0.022043 0.613575 -0.089969
0.024903 0.614275 -0.090041
0.027665 0.613429 -0.089973
0.030430 0.612726 -0.089917
0.033176 0.611848 -0.089845
0.036123 0.613516 -0.090002
0.039283 0.617456 -0.090364
0.042182 0.618121 -0.090430
0.044926 0.617075 -0.090340
0.047725 0.616663 -0.090306
0.050213 0.613309 -0.090006
0.053366 0.616292 -0.090278
0.056705 0.620642 -0.090674
0.059763 0.622276 -0.090822
0.062874 0.624191 -0.090996
0.064868 0.617262 -0.090368
0.067302 0.614109 -0.090081
0.069914 0.612442 -0.089928
0.072787 0.612693 -0.089947
0.075565 0.612273 -0.089904
0.078420 0.612358 -0.089906
0.081155 0.611660 -0.089837
0.082969 0.605286 -0.089253
0.086763 0.611149 -0.089775
0.090519 0.616446 -0.090244
0.093945 0.619564 -0.090515
0.097113 0.621060 -0.090638
0.099828 0.620019 -0.090530
0.101320 0.612572 -0.089843
0.104074 0.611946 -0.089770
0.106825 0.611305 -0.089695
0.108993 0.607821 -0.089362
0.111897 0.607982 -0.089357
0.115267 0.610290 -0.089544
0.118946 0.613880 -0.089845
0.122282 0.615751 -0.089989
0.125471 0.616875 -0.090064
0.129035 0.619531 -0.090275
0.131454 0.617243 -0.090040
0.133609 0.613938 -0.089711
0.136510 0.613733 -0.089660
0.139482 0.613785 -0.089630
0.142481 0.613907 -0.089605
0.145943 0.615752 -0.089732
0.148983 0.615923 -0.089707
0.151519 0.614207 -0.089511
0.156706 0.622050 -0.090168
0.156523 0.610608 -0.089099
0.158976 0.608683 -0.088879
0.162412 0.610138 -0.088958
0.165672 0.610917 -0.088975
0.167896 0.608214 -0.088680
0.169704 0.604216 -0.088268
0.174800 0.610795 -0.088794
0.176902 0.607730 -0.088461
0.179449 0.606093 -0.088252
0.185652 0.615584 -0.089026
0.186942 0.610034 -0.088467
0.189869 0.609436 -0.088343
0.192949 0.609259 -0.088254
0.195927 0.608753 -0.088134
0.198646 0.607490 -0.087945
0.201125 0.605560 -0.087695
0.204948 0.607312 -0.087766
0.209127 0.609930 -0.087910
0.213087 0.611849 -0.087990
0.217230 0.614150 -0.088100
0.219861 0.612442 -0.087858
0.220647 0.606046 -0.087207
0.223976 0.606165 -0.087121
0.226697 0.604739 -0.086899
0.229729 0.604067 -0.086741
0.234541 0.607661 -0.086949
0.238031 0.607982 -0.086873
0.240961 0.606945 -0.086679
0.245117 0.608739 -0.086726
0.247456 0.606308 -0.086410
0.251119 0.606891 -0.086352
0.253854 0.605369 -0.086113
0.258264 0.607541 -0.086189
0.261035 0.606083 -0.085957
0.264253 0.605602 -0.085808
0.268318 0.606911 -0.085812
0.270881 0.605042 -0.085549
0.274866 0.606149 -0.085539
0.279713 0.608990 -0.085676
0.283569 0.609771 -0.085643
0.287355 0.610406 -0.085601
0.289750 0.608305 -0.085335
0.291952 0.605894 -0.085048
0.295530 0.606217 -0.084995
0.302364 0.612772 -0.085464
0.307811 0.616612 -0.085713
0.305105 0.605206 -0.084706
0.308113 0.604637 -0.084605
0.311473 0.604776 -0.084571
0.315006 0.605287 -0.084575
0.319829 0.608165 -0.084783
-0.361620 0.609664 -0.083965
-0.356620 0.606607 -0.083769
-0.353185 0.606300 -0.083805
-0.349677 0.605922 -0.083844
-0.347317 0.607647 -0.084063
-0.344513 0.608665 -0.084233
-0.341645 0.609641 -0.084408
-0.337465 0.608276 -0.084399
-0.335140 0.610367 -0.084679
-0.330664 0.608502 -0.084641
-0.327948 0.609967 -0.084883
-0.324514 0.610112 -0.085021
-0.320123 0.608418 -0.085011
-0.316828 0.608853 -0.085181
-0.313357 0.608955 -0.085326
-0.310385 0.610065 -0.085559
-0.307466 0.611306 -0.085805
-0.303633 0.610689 -0.085897
-0.300081 0.610628 -0.086037
-0.296342 0.610154 -0.086142
-0.292960 0.610413 -0.086310
-0.289485 0.610452 -0.086459
-0.286253 0.610995 -0.086650
-0.283325 0.612201 -0.086898
-0.279875 0.612229 -0.087044
-0.276426 0.612226 -0.087186
-0.272433 0.610930 -0.087216
-0.269223 0.611393 -0.087395
-0.266044 0.611903 -0.087576
-0.262644 0.611851 -0.087706
-0.259211 0.611677 -0.087824
-0.255816 0.611550 -0.087944
-0.252094 0.610558 -0.087985
-0.248980 0.611034 -0.088152
-0.246135 0.612173 -0.088376
-0.242438 0.611077 -0.088400
-0.239283 0.611336 -0.088541
-0.235821 0.610736 -0.088604
-0.232576 0.610665 -0.088710
-0.229581 0.611241 -0.088872
-0.226691 0.612081 -0.089054
-0.223543 0.612171 -0.089168
-0.220011 0.611107 -0.089176
-0.217127 0.611871 -0.089344
-0.214415 0.613130 -0.089555
-0.210994 0.612236 -0.089570
-0.207847 0.612117 -0.089653
-0.204831 0.612363 -0.089766
-0.201815 0.612578 -0.089873
-0.198704 0.612453 -0.089948
-0.195590 0.612276 -0.090016
-0.192281 0.611401 -0.090018
-0.189576 0.612509 -0.090198
-0.186727 0.613127 -0.090331
-0.183210 0.611376 -0.090247
-0.180287 0.611653 -0.090345
-0.177382 0.611972 -0.090445
-0.174519 0.612426 -0.090556
-0.171551 0.612465 -0.090627
-0.168702 0.612931 -0.090735
-0.165891 0.613533 -0.090854
-0.162960 0.613645 -0.090926
-0.160001 0.613618 -0.090984
-0.157158 0.614042 -0.091081
-0.154205 0.613984 -0.091133
-0.151125 0.613344 -0.091129
-0.148252 0.613563 -0.091203
-0.145576 0.614667 -0.091358
-0.142616 0.614467 -0.091390
-0.139482 0.613408 -0.091342
-0.136611 0.613550 -0.091403
-0.133773 0.613840 -0.091477
-0.131055 0.614732 -0.091605
-0.128193 0.614885 -0.091664
-0.125179 0.614214 -0.091644
-0.122213 0.613742 -0.091642
-0.119369 0.613915 -0.091699
-0.116289 0.612704 -0.091626
-0.113753 0.614652 -0.091846
-0.110896 0.614724 -0.091890
-0.107835 0.613480 -0.091811
-0.105073 0.614088 -0.091903
-0.102372 0.615133 -0.092036
-0.099366 0.614099 -0.091972
-0.096494 0.613948 -0.091991
-0.093703 0.614360 -0.092062
-0.090854 0.614343 -0.092091
-0.087981 0.614112 -0.092100
-0.085142 0.614130 -0.092131
-0.082085 0.612233 -0.091982
-0.079490 0.614345 -0.092209
-0.076651 0.614325 -0.092234
-0.073756 0.613722 -0.092204
-0.070967 0.614145 -0.092270
-0.068204 0.614888 -0.092365
-0.065311 0.614192 -0.092325
-0.062457 0.613883 -0.092320
-0.059630 0.613860 -0.092341
-0.056819 0.614039 -0.092381
-0.054052 0.614869 -0.092482
-0.051233 0.614992 -0.092516
-0.048292 0.613050 -0.092354
-0.045553 0.614475 -0.092510
-0.042780 0.615480 -0.092625
-0.039947 0.615332 -0.092631
-0.036838 0.608246 -0.091981
-0.034019 0.607483 -0.091927
-0.031489 0.615840 -0.092736
-0.028770 0.619943 -0.093143
-0.025913 0.619367 -0.093106
-0.023075 0.619582 -0.093144
-0.020238 0.620007 -0.093201
-0.017400 0.620901 -0.093302
-0.014554 0.621675 -0.093392
-0.011693 0.626272 -0.093843
-0.008788 0.631018 -0.094309
-0.006069 0.615595 -0.092861
-0.003251 0.615262 -0.092843
-0.000431 0.615184 -0.092850
0.002400 0.615582 -0.092900
0.005209 0.615085 -0.092866
0.007998 0.614144 -0.092789
0.010847 0.614952 -0.092878
0.013614 0.613730 -0.092773
0.016436 0.613844 -0.092794
0.019279 0.614313 -0.092849
0.022171 0.615565 -0.092978
0.024898 0.613972 -0.092836
0.027686 0.613500 -0.092800
0.030393 0.611954 -0.092661
0.033173 0.611539 -0.092629
0.035847 0.609847 -0.092475
0.039226 0.616507 -0.093115
0.042107 0.616997 -0.093168
0.044889 0.616380 -0.093114
0.047620 0.615308 -0.093016
0.050339 0.614204 -0.092915
0.053124 0.613772 -0.092877
0.056350 0.617225 -0.093208
0.059582 0.620428 -0.093515
0.063178 0.626312 -0.094076
0.064857 0.616847 -0.093175
0.067293 0.613711 -0.092875
0.070052 0.613114 -0.092817
0.072875 0.612984 -0.092802
0.075623 0.612335 -0.092737
0.078379 0.611759 -0.092677
0.080663 0.608191 -0.092332
0.082816 0.604007 -0.091928
0.087845 0.617317 -0.093187
0.090883 0.618236 -0.093266
0.094174 0.620526 -0.093474
0.097344 0.622004 -0.093604
0.099994 0.620575 -0.093456
0.101427 0.612807 -0.092704
0.104116 0.611827 -0.092597
0.107055 0.612123 -0.092609
0.109363 0.609301 -0.092324
0.111807 0.607231 -0.092109
0.115265 0.609956 -0.092349
0.118963 0.613629 -0.092676
0.122264 0.615347 -0.092816
0.125754 0.617789 -0.093024
0.128564 0.617189 -0.092941
0.131257 0.616095 -0.092810
0.133771 0.614282 -0.092609
0.136439 0.613130 -0.092470
0.139465 0.613404 -0.092464
0.142729 0.614555 -0.092538
0.145882 0.615208 -0.092564
0.149267 0.616670 -0.092665
0.152862 0.618815 -0.092827
0.153879 0.611577 -0.092103
0.156419 0.609940 -0.091906
0.158251 0.605869 -0.091477
0.162320 0.609526 -0.091774
0.165838 0.611178 -0.091880
0.168010 0.608298 -0.091559
0.170864 0.607688 -0.091448
0.174854 0.610680 -0.091673
0.177768 0.610161 -0.091566
0.182566 0.615433 -0.091999
0.187915 0.622173 -0.092565
0.187033 0.610025 -0.091366
0.189875 0.609176 -0.091220
0.193065 0.609318 -0.091164
0.196095 0.608959 -0.091059
0.198702 0.607377 -0.090838
0.201111 0.605250 -0.090565
0.205243 0.607849 -0.090727
0.210453 0.613231 -0.091144
0.213890 0.613711 -0.091104
0.217027 0.613350 -0.090985
0.220448 0.613688 -0.090927
0.221428 0.607768 -0.090293
0.224324 0.606774 -0.090110
0.227552 0.606588 -0.089999
0.229286 0.602723 -0.089551
0.235406 0.609475 -0.090070
0.238980 0.609967 -0.090015
0.243993 0.613779 -0.090261
0.250052 0.619876 -0.090710
0.248014 0.607305 -0.089468
0.250677 0.605617 -0.089212
0.254470 0.606456 -0.089184
0.257524 0.605628 -0.089005
0.260615 0.604880 -0.088834
0.265505 0.607984 -0.089009
0.268464 0.606914 -0.088811
0.271059 0.605101 -0.088548
0.274241 0.604538 -0.088398
0.277327 0.603791 -0.088235
0.281704 0.605671 -0.088308
0.282243 0.599871 -0.087703
0.287115 0.602749 -0.087871
0.292147 0.605898 -0.088067
0.296355 0.607416 -0.088123
0.301959 0.611592 -0.088418
0.306860 0.614392 -0.088597
0.305367 0.605261 -0.087734
0.307975 0.603933 -0.087564
0.311710 0.604744 -0.087590
0.315158 0.605079 -0.087582
0.319638 0.607320 -0.087749
-0.358150 0.603133 -0.086473
-0.356199 0.605310 -0.086712
-0.352764 0.605012 -0.086748
-0.350422 0.606698 -0.086963
-0.347008 0.606574 -0.087030
-0.343931 0.607109 -0.087162
-0.340923 0.607833 -0.087318
-0.338230 0.609200 -0.087537
-0.333868 0.607537 -0.087499
-0.331665 0.609925 -0.087820
-0.328338 0.610263 -0.087968
-0.323649 0.608019 -0.087894
-0.320861 0.609430 -0.088144
-0.317073 0.608921 -0.088229
-0.313787 0.609406 -0.088405
-0.310491 0.609882 -0.088583
-0.307653 0.611297 -0.088846
-0.304656 0.612410 -0.089085
-0.300242 0.610585 -0.089063
-0.297019 0.611211 -0.089259
-0.293092 0.610325 -0.089321
-0.289887 0.610956 -0.089518
-0.285711 0.609447 -0.089522
-0.283145 0.611439 -0.089842
-0.279680 0.611432 -0.089979
-0.275655 0.610113 -0.089997
-0.272650 0.611074 -0.090219
-0.269324 0.611271 -0.090371
-0.265861 0.611111 -0.090488
-0.262853 0.611995 -0.090700
-0.259711 0.612536 -0.090877
-0.255693 0.610887 -0.090851
-0.252514 0.611247 -0.091008
-0.249549 0.612116 -0.091209
-0.246106 0.611732 -0.091292
-0.242766 0.611566 -0.091393
-0.239746 0.612194 -0.091565
-0.236165 0.611289 -0.091592
-0.232813 0.610937 -0.091667
-0.230141 0.612412 -0.091912
-0.226899 0.612285 -0.092004
-0.223312 0.611128 -0.091996
-0.220120 0.611035 -0.092086
-0.217099 0.611399 -0.092217
-0.214115 0.611840 -0.092353
-0.211007 0.611879 -0.092448
-0.207829 0.611664 -0.092517
-0.204887 0.612136 -0.092649
-0.201831 0.612224 -0.092742
-0.198865 0.612563 -0.092857
-0.195860 0.612748 -0.092955
-0.191548 0.608537 -0.092631
-0.189482 0.611772 -0.093017
-0.186841 0.613095 -0.093218
-0.183580 0.612251 -0.093209
-0.180552 0.612171 -0.093272
-0.177623 0.612418 -0.093364
-0.174721 0.612738 -0.093461
-0.171876 0.613253 -0.093575
-0.168845 0.613035 -0.093617
-0.165932 0.613245 -0.093699
-0.162932 0.613079 -0.093743
-0.160043 0.613329 -0.093825
-0.157208 0.613786 -0.093925
-0.154292 0.613889 -0.093990
-0.151093 0.612733 -0.093932
-0.148338 0.613476 -0.094056
-0.145488 0.613788 -0.094136
-0.142514 0.613515 -0.094159
-0.139590 0.613435 -0.094199
-0.136701 0.613498 -0.094251
-0.133828 0.613620 -0.094309
-0.131104 0.614482 -0.094437
-0.128287 0.614877 -0.094518
-0.125105 0.613310 -0.094406
-0.122120 0.612723 -0.094390
-0.119491 0.614090 -0.094563
-0.116755 0.614893 -0.094680
-0.113859 0.614766 -0.094705
-0.110954 0.614549 -0.094720
-0.107789 0.612655 -0.094569
-0.105043 0.613362 -0.094673
-0.102283 0.613996 -0.094769
-0.099459 0.614203 -0.094822
-0.096546 0.613773 -0.094812
-0.093659 0.613483 -0.094814
-0.090958 0.614583 -0.094953
-0.088152 0.614918 -0.095015
-0.085192 0.613972 -0.094951
-0.082223 0.612860 -0.094869
-0.079573 0.614509 -0.095059
-0.076736 0.614534 -0.095089
-0.073722 0.612786 -0.094942
-0.070954 0.613405 -0.095029
-0.068203 0.614254 -0.095137
-0.065385 0.614412 -0.095177
-0.062497 0.613727 -0.095133
-0.059712 0.614268 -0.095210
-0.056842 0.613691 -0.095175
-0.054021 0.613744 -0.095203
-0.051174 0.613379 -0.095188
-0.048404 0.614236 -0.095294
-0.045590 0.614443 -0.095335
-0.042806 0.615257 -0.095436
-0.039993 0.615585 -0.095489
-0.036858 0.607928 -0.094748
-0.034141 0.610053 -0.094978
-0.031668 0.620740 -0.096057
-0.028755 0.618344 -0.095837
-0.025923 0.618684 -0.095889
-0.023115 0.620654 -0.096102
-0.020261 0.620287 -0.096082
-0.017412 0.620117 -0.096082
-0.014573 0.622817 -0.096366
-0.011707 0.626123 -0.096711
-0.008779 0.634134 -0.097523
-0.006079 0.615433 -0.095677
-0.003257 0.615313 -0.095679
-0.000443 0.614814 -0.095643
0.002379 0.614832 -0.095658
0.005203 0.614897 -0.095677
0.008024 0.614837 -0.095684
0.010844 0.614784 -0.095691
0.013674 0.614938 -0.095717
0.016435 0.613643 -0.095599
0.019353 0.615501 -0.095795
0.022219 0.616157 -0.095871
0.024964 0.614789 -0.095744
0.027669 0.612998 -0.095574
0.030419 0.612045 -0.095488
0.033093 0.610214 -0.095313
0.035952 0.610859 -0.095385
0.039022 0.613849 -0.095690
0.042050 0.616068 -0.095918
0.044869 0.615872 -0.095904
0.047614 0.614940 -0.095816
0.050316 0.613668 -0.095693
0.052983 0.612168 -0.095547
0.055805 0.612139 -0.095547
0.059021 0.615394 -0.095875
0.063174 0.625942 -0.096930
0.064851 0.616467 -0.095984
0.067332 0.613667 -0.095705
0.070121 0.613274 -0.095665
0.072900 0.612815 -0.095617
0.075696 0.612491 -0.095582
0.078327 0.611076 -0.095437
0.080958 0.609735 -0.095299
0.083228 0.606220 -0.094943
0.087843 0.616964 -0.096009
0.091197 0.619727 -0.096278
0.094303 0.620915 -0.096388
0.097444 0.622209 -0.096508
0.099856 0.619489 -0.096226
0.101386 0.612246 -0.095491
0.104052 0.611160 -0.095370
0.106726 0.610140 -0.095254
0.109728 0.610743 -0.095299
0.111977 0.607703 -0.094979
0.115290 0.609738 -0.095164
0.119350 0.615057 -0.095675
0.122397 0.615604 -0.095709
0.125237 0.615196 -0.095646
0.128698 0.617429 -0.095844
0.130442 0.612355 -0.095314
0.133349 0.612221 -0.095274
0.136097 0.611427 -0.095167
0.138597 0.609653 -0.094961
0.142483 0.613279 -0.095290
0.145960 0.615182 -0.095445
0.148052 0.611820 -0.095077
0.151041 0.611832 -0.095041
0.153718 0.610683 -0.094889
0.156411 0.609601 -0.094741
0.159321 0.609271 -0.094666
0.162579 0.610101 -0.094704
0.165819 0.610807 -0.094728
0.168395 0.609263 -0.094527
0.171609 0.609802 -0.094530
0.174721 0.609956 -0.094493
0.178428 0.611930 -0.094633
0.183135 0.616890 -0.095063
0.188733 0.624356 -0.095737
0.187081 0.609877 -0.094254
0.190110 0.609578 -0.094162
0.193195 0.609407 -0.094079
0.196227 0.609049 -0.093977
0.198861 0.607540 -0.093759
0.201442 0.605885 -0.093526
0.204163 0.604619 -0.093329
0.210857 0.614034 -0.094169
0.214515 0.615085 -0.094191
0.217761 0.614988 -0.094100
0.220865 0.614483 -0.093967
0.221302 0.607172 -0.093174
0.224305 0.606450 -0.093017
0.227640 0.606528 -0.092935
0.230137 0.604522 -0.092652
0.234265 0.606451 -0.092745
0.239055 0.609863 -0.092978
0.243739 0.612900 -0.093173
0.247399 0.613456 -0.093129
0.247223 0.605214 -0.092243
0.250496 0.604921 -0.092117
0.254290 0.605764 -0.092098
0.258068 0.606525 -0.092071
0.260924 0.605248 -0.091851
0.265264 0.607159 -0.091933
0.268445 0.606560 -0.091778
0.271424 0.605541 -0.091585
0.274356 0.604447 -0.091387
0.277705 0.604224 -0.091273
0.283242 0.608420 -0.091577
0.285434 0.605866 -0.091249
0.286292 0.600762 -0.090688
0.292259 0.605733 -0.091073
0.296050 0.606433 -0.091063
0.299847 0.607160 -0.091061
0.305447 0.611305 -0.091382
0.305926 0.605864 -0.090817
0.308973 0.605321 -0.090715
0.312310 0.605371 -0.090675
0.315524 0.605256 -0.090627
0.318522 0.604822 -0.090558
-0.362882 0.610646 -0.090201
-0.355801 0.604054 -0.089652
-0.353482 0.605709 -0.089864
-0.350744 0.606725 -0.090026
-0.348185 0.608142 -0.090232
-0.343823 0.606404 -0.090158
-0.341210 0.607858 -0.090383
-0.338007 0.608303 -0.090522
-0.334600 0.608422 -0.090637
-0.331231 0.608650 -0.090768
-0.327455 0.608139 -0.090835
-0.324482 0.609176 -0.091050
-0.320280 0.607873 -0.091052
-0.317104 0.608563 -0.091242
-0.314138 0.609691 -0.091476
-0.310830 0.610158 -0.091652
-0.307750 0.611095 -0.091873
-0.304527 0.611752 -0.092069
-0.300769 0.611296 -0.092162
-0.297207 0.611222 -0.092291
-0.293813 0.611484 -0.092452
-0.290771 0.612489 -0.092683
-0.285490 0.608590 -0.092447
-0.283146 0.611069 -0.092817
-0.279537 0.610739 -0.092919
-0.276263 0.611126 -0.093088
-0.272519 0.610403 -0.093148
-0.269104 0.610388 -0.093275
-0.266127 0.611372 -0.093497
-0.262630 0.611090 -0.093595
-0.259533 0.611732 -0.093780
-0.255798 0.610774 -0.093807
-0.252748 0.611459 -0.093992
-0.249674 0.612056 -0.094167
-0.246475 0.612305 -0.094305
-0.242954 0.611675 -0.094355
-0.239605 0.611439 -0.094441
-0.236161 0.610897 -0.094494
-0.233215 0.611646 -0.094672
-0.230270 0.612377 -0.094846
-0.227538 0.613685 -0.095075
-0.223306 0.610718 -0.094879
-0.220100 0.610582 -0.094960
-0.217094 0.610983 -0.095093
-0.214078 0.611326 -0.095217
-0.210833 0.610945 -0.095267
-0.207894 0.611452 -0.095403
-0.204583 0.610775 -0.095419
-0.201678 0.611322 -0.095555
-0.199095 0.612887 -0.095791
-0.196010 0.612816 -0.095861
-0.192137 0.610077 -0.095662
-0.189616 0.611795 -0.095907
-0.186893 0.612842 -0.096084
-0.183676 0.612149 -0.096084
-0.181062 0.613557 -0.096293
-0.178100 0.613709 -0.096375
-0.174941 0.613107 -0.096378
-0.172119 0.613720 -0.096502
-0.169196 0.613932 -0.096584
-0.165993 0.613024 -0.096551
-0.163002 0.612897 -0.096596
-0.160100 0.613097 -0.096672
-0.157219 0.613364 -0.096753
-0.153921 0.611836 -0.096651
-0.151385 0.613524 -0.096874
-0.148544 0.613907 -0.096963
-0.145467 0.613207 -0.096940
-0.142407 0.612529 -0.096918
-0.139663 0.613292 -0.097042
-0.136814 0.613553 -0.097114
-0.133860 0.613281 -0.097129
-0.131052 0.613714 -0.097216
-0.128386 0.614888 -0.097378
-0.125374 0.614240 -0.097351
-0.122448 0.614011 -0.097367
-0.119500 0.613625 -0.097366
-0.116765 0.614429 -0.097485
-0.113934 0.614684 -0.097548
-0.110954 0.614014 -0.097514
-0.107952 0.613150 -0.097459
-0.105058 0.612917 -0.097469
-0.102270 0.613357 -0.097547
-0.099451 0.613597 -0.097603
-0.096503 0.612905 -0.097563
-0.093691 0.613158 -0.097619
-0.091071 0.614893 -0.097827
-0.088249 0.615124 -0.097880
-0.085368 0.614860 -0.097881
-0.082499 0.614666 -0.097888
-0.079687 0.614948 -0.097944
-0.076766 0.614219 -0.097895
-0.073884 0.613783 -0.097875
-0.071016 0.613440 -0.097864
-0.068212 0.613732 -0.097919
-0.065413 0.614104 -0.097981
-0.062591 0.614224 -0.098017
-0.059740 0.613975 -0.098014
-0.056948 0.614473 -0.098087
-0.054111 0.614388 -0.098100
-0.051265 0.614118 -0.098093
-0.048439 0.614131 -0.098115
-0.045644 0.614700 -0.098195
-0.042820 0.614771 -0.098222
-0.039983 0.614566 -0.098220
-0.036930 0.608910 -0.097651
-0.034204 0.610967 -0.097884
-0.031620 0.618230 -0.098657
-0.028708 0.615532 -0.098394
-0.025831 0.613280 -0.098177
-0.023108 0.618877 -0.098777
-0.020249 0.617638 -0.098665
-0.017414 0.617956 -0.098714
-0.014578 0.618946 -0.098833
-0.011733 0.619992 -0.098957
-0.008806 0.631739 -0.100197
-0.006096 0.614750 -0.098441
-0.003276 0.614548 -0.098434
-0.000471 0.613689 -0.098358
0.002345 0.613567 -0.098359
0.005168 0.613726 -0.098388
0.008005 0.614235 -0.098454
0.010834 0.614395 -0.098483
0.013667 0.614624 -0.098518
0.016430 0.613351 -0.098397
0.019217 0.612763 -0.098346
0.022085 0.613631 -0.098447
0.024916 0.613773 -0.098472
0.027657 0.612560 -0.098354
0.030407 0.611618 -0.098265
0.033097 0.609992 -0.098103
0.035963 0.610704 -0.098186
0.039058 0.613971 -0.098534
0.042060 0.615867 -0.098739
0.045200 0.619012 -0.099074
0.048019 0.618647 -0.099042
0.050655 0.616569 -0.098830
0.053286 0.614596 -0.098627
0.055663 0.610565 -0.098209
0.058744 0.612733 -0.098439
0.062689 0.621689 -0.099378
0.064899 0.616501 -0.098837
0.067516 0.614703 -0.098650
0.070119 0.612917 -0.098463
0.072805 0.611809 -0.098347
0.075700 0.612168 -0.098382
0.078439 0.611465 -0.098306
0.081053 0.609991 -0.098149
0.083648 0.608470 -0.097986
0.087807 0.616396 -0.098809
0.091218 0.619493 -0.099127
0.094614 0.622324 -0.099416
0.097536 0.622360 -0.099412
0.100137 0.620647 -0.099223
0.101088 0.610336 -0.098135
0.103760 0.609320 -0.098017
0.106851 0.610418 -0.098120
0.109340 0.608505 -0.097906
0.111844 0.606728 -0.097706
0.115581 0.610750 -0.098110
0.119564 0.615689 -0.098607
0.122638 0.616334 -0.098656
0.125828 0.617433 -0.098750
0.128835 0.617671 -0.098753
0.131602 0.616868 -0.098646
0.132800 0.609635 -0.097868
0.135639 0.609252 -0.097802
0.139014 0.610967 -0.097953
0.141960 0.610924 -0.097919
0.145653 0.613685 -0.098176
0.148810 0.614317 -0.098209
0.150402 0.609168 -0.097640
0.154358 0.612659 -0.097966
0.157367 0.612650 -0.097928
0.159938 0.611089 -0.097726
0.162997 0.611205 -0.097697
0.165449 0.609252 -0.097451
0.169193 0.611576 -0.097647
0.171572 0.609369 -0.097371
0.175427 0.611894 -0.097583
0.178768 0.612686 -0.097614
0.183018 0.616219 -0.097925
0.186657 0.617742 -0.098026
0.187881 0.611962 -0.097373
0.190311 0.609867 -0.097097
0.193425 0.609775 -0.097026
0.196265 0.608859 -0.096869
0.198845 0.607198 -0.096632
0.201644 0.606150 -0.096457
0.205488 0.607943 -0.096571
0.210267 0.612154 -0.096929
0.213732 0.612716 -0.096912
0.216795 0.612169 -0.096779
0.220713 0.613796 -0.096865
0.221203 0.606631 -0.096056
0.224190 0.605873 -0.095896
0.227277 0.605343 -0.095759
0.230262 0.604537 -0.095591
0.234549 0.606844 -0.095737
0.238243 0.607645 -0.095729
0.242888 0.610612 -0.095937
0.247033 0.612311 -0.096016
0.246791 0.603932 -0.095080
0.250617 0.604892 -0.095083
0.254267 0.605408 -0.095041
0.257850 0.605738 -0.094980
0.261584 0.606365 -0.094948
0.265290 0.606896 -0.094907
0.268591 0.606542 -0.094778
0.271912 0.606229 -0.094655
0.274878 0.605183 -0.094460
0.277934 0.604345 -0.094288
0.282241 0.606047 -0.094370
0.284647 0.603934 -0.094077
0.288070 0.603884 -0.093992
0.291390 0.603656 -0.093893
0.294496 0.603043 -0.093760
0.298235 0.603680 -0.093756
0.303183 0.606614 -0.093982
0.305652 0.604913 -0.093758
0.309609 0.606036 -0.093818
0.313025 0.606204 -0.093791
0.315672 0.605039 -0.093641
0.314724 0.597533 -0.092878
-0.362499 0.609403 -0.093168
-0.357281 0.606040 -0.092896
-0.354351 0.606667 -0.093017
-0.351365 0.607276 -0.093145
-0.348026 0.607330 -0.093226
-0.345235 0.608425 -0.093415
-0.341746 0.608327 -0.093495
-0.338416 0.608564 -0.093614
-0.334436 0.607641 -0.093625
-0.330818 0.607410 -0.093709
-0.327662 0.608074 -0.093886
-0.323846 0.607512 -0.093946
-0.320734 0.608316 -0.094144
-0.317217 0.608355 -0.094269
-0.314188 0.609367 -0.094493
-0.310968 0.610020 -0.094685
-0.307371 0.609915 -0.094803
-0.304349 0.610981 -0.095038
-0.301125 0.611637 -0.095234
-0.297435 0.611308 -0.095332
-0.294024 0.611543 -0.095486
-0.290640 0.611817 -0.095644
-0.287114 0.611758 -0.095768
-0.284172 0.612960 -0.096018
-0.279713 0.610752 -0.095924
-0.276706 0.611753 -0.096152
-0.272892 0.610882 -0.096189
-0.269412 0.610729 -0.096297
-0.266302 0.611404 -0.096487
-0.262650 0.610757 -0.096541
-0.259637 0.611602 -0.096745
-0.256135 0.611223 -0.096822
-0.252897 0.611445 -0.096958
-0.249940 0.612342 -0.097161
-0.246562 0.612141 -0.097250
-0.242654 0.610503 -0.097188
-0.239502 0.610774 -0.097321
-0.236472 0.611333 -0.097481
-0.233301 0.611482 -0.097596
-0.230136 0.611607 -0.097707
-0.226294 0.609794 -0.097614
-0.223235 0.610112 -0.097740
-0.220797 0.612186 -0.098046
-0.217234 0.610983 -0.098010
-0.214061 0.610862 -0.098084
-0.211020 0.611096 -0.098192
-0.207655 0.610299 -0.098191
-0.204712 0.610753 -0.098319
-0.202306 0.612888 -0.098621
-0.198860 0.611698 -0.098572
-0.195429 0.610479 -0.098518
-0.192541 0.610991 -0.098644
-0.189820 0.612050 -0.098825
-0.187143 0.613262 -0.099022
-0.184293 0.613871 -0.099153
-0.181351 0.614138 -0.099246
-0.178402 0.614357 -0.099333
-0.175308 0.614011 -0.099357
-0.172216 0.613625 -0.099377
-0.169248 0.613669 -0.099440
-0.166187 0.613319 -0.099459
-0.163203 0.613230 -0.099505
-0.160091 0.612586 -0.099490
-0.157217 0.612876 -0.099573
-0.154434 0.613537 -0.099694
-0.151619 0.614055 -0.099799
-0.148826 0.614671 -0.099913
-0.145320 0.612051 -0.099680
-0.142564 0.612758 -0.099801
-0.139972 0.614257 -0.100006
-0.137066 0.614273 -0.100051
-0.133826 0.612601 -0.099914
-0.131036 0.613119 -0.100010
-0.128245 0.613634 -0.100105
-0.125433 0.614037 -0.100187
-0.122586 0.614244 -0.100247
-0.119780 0.614677 -0.100331
-0.116834 0.614294 -0.100325
-0.113838 0.613577 -0.100283
-0.111267 0.615399 -0.100513
-0.108064 0.613317 -0.100322
-0.105181 0.613170 -0.100339
-0.102387 0.613596 -0.100416
-0.099519 0.613510 -0.100438
-0.096601 0.613048 -0.100418
-0.093816 0.613522 -0.100498
-0.091075 0.614350 -0.100616
-0.088302 0.614961 -0.100710
-0.085460 0.615042 -0.100746
-0.082613 0.615063 -0.100775
-0.079699 0.614462 -0.100736
-0.076858 0.614477 -0.100763
-0.074017 0.614481 -0.100789
-0.071117 0.613862 -0.100746
-0.068255 0.613572 -0.100738
-0.065424 0.613593 -0.100764
-0.062606 0.613759 -0.100804
-0.059794 0.614003 -0.100853
-0.057021 0.614812 -0.100962
-0.054258 0.615850 -0.101096
-0.051331 0.614440 -0.100964
-0.048495 0.614359 -0.100976
-0.045675 0.614515 -0.101013
-0.042838 0.614375 -0.101017
-0.039911 0.612167 -0.100796
-0.036996 0.609734 -0.100551
-0.034294 0.612606 -0.100881
-0.031572 0.615715 -0.101237
-0.028704 0.614334 -0.101104
-0.025872 0.614033 -0.101089
-0.023057 0.614538 -0.101161
-0.020258 0.616697 -0.101412
-0.017423 0.616739 -0.101433
-0.014586 0.616225 -0.101392
-0.011749 0.618454 -0.101651
-0.008844 0.627822 -0.102686
-0.006113 0.614041 -0.101200
-0.003310 0.612801 -0.101079
-0.000496 0.612678 -0.101079
0.002323 0.612789 -0.101105
0.005145 0.612957 -0.101136
0.007977 0.613346 -0.101191
0.010873 0.615283 -0.101415
0.013653 0.614150 -0.101303
0.016515 0.614907 -0.101397
0.019267 0.613472 -0.101251
0.022011 0.612133 -0.101116
0.024750 0.610885 -0.100990
0.027628 0.611866 -0.101106
0.030486 0.612431 -0.101177
0.033071 0.609362 -0.100851
0.036143 0.612610 -0.101214
0.039136 0.614567 -0.101435
0.042229 0.617409 -0.101753
0.045260 0.619315 -0.101968
0.048490 0.623011 -0.102378
0.051345 0.622787 -0.102359
0.053691 0.617953 -0.101836
0.055836 0.611742 -0.101161
0.059393 0.617829 -0.101830
0.063127 0.624871 -0.102603
0.064965 0.616662 -0.101708
0.067357 0.613167 -0.101328
0.070084 0.612313 -0.101235
0.072956 0.612513 -0.101257
0.075736 0.612062 -0.101207
0.078434 0.611080 -0.101098
0.081021 0.609433 -0.100916
0.083704 0.608460 -0.100806
0.087623 0.614933 -0.101510
0.091450 0.620488 -0.102112
0.094577 0.621751 -0.102244
0.097433 0.621431 -0.102202
0.100119 0.620189 -0.102058
0.100451 0.606641 -0.100569
0.104621 0.613369 -0.101294
0.107998 0.615791 -0.101548
0.109384 0.608369 -0.100725
0.112087 0.607533 -0.100620
0.115839 0.611598 -0.101050
0.119333 0.614281 -0.101326
0.122486 0.615304 -0.101421
0.125601 0.616088 -0.101488
0.129220 0.618962 -0.101782
0.130226 0.610762 -0.100866
0.132910 0.609740 -0.100733
0.136151 0.610965 -0.100842
0.139118 0.611032 -0.100824
0.141865 0.610214 -0.100708
0.144704 0.609745 -0.100629
0.149039 0.614829 -0.101152
0.150460 0.609043 -0.100491
0.153232 0.608283 -0.100376
0.156563 0.609483 -0.100471
0.160137 0.611447 -0.100648
0.163149 0.611394 -0.100603
0.165474 0.609008 -0.100304
0.168357 0.608499 -0.100207
0.174080 0.617160 -0.101101
0.176440 0.614794 -0.100799
0.179361 0.614224 -0.100689
0.183603 0.617700 -0.101014
0.186706 0.617570 -0.100948
0.187365 0.610105 -0.100089
0.190384 0.609767 -0.099996
0.193396 0.609377 -0.099897
0.196255 0.608520 -0.099745
0.198782 0.606714 -0.099489
0.201860 0.606442 -0.099396
0.206837 0.611314 -0.099853
0.210067 0.611308 -0.099784
0.212485 0.609105 -0.099478
0.215148 0.607562 -0.099241
0.218385 0.607497 -0.099160
0.221177 0.606264 -0.098953
0.224352 0.605979 -0.098845
0.226973 0.604291 -0.098586
0.229313 0.601925 -0.098254
0.234290 0.605919 -0.098596
0.238146 0.607109 -0.098638
0.242363 0.609076 -0.098760
0.246558 0.610905 -0.098866
0.247427 0.605074 -0.098163
0.249897 0.602962 -0.097852
0.254027 0.604560 -0.097931
0.257757 0.605216 -0.097911
0.261797 0.606502 -0.097956
0.265147 0.606261 -0.097842
0.269030 0.607134 -0.097844
0.271938 0.605942 -0.097632
0.275166 0.605429 -0.097492
0.278316 0.604767 -0.097338
0.281529 0.604250 -0.097202
0.284504 0.603277 -0.097021
0.287883 0.603136 -0.096930
0.290620 0.601766 -0.096715
0.294125 0.601926 -0.096662
0.299613 0.605882 -0.097007
0.304809 0.609238 -0.097294
0.305817 0.604776 -0.096779
0.310496 0.607211 -0.096981
0.313134 0.605929 -0.096807
0.315353 0.603976 -0.096571
0.320072 0.606588 -0.096811
-0.361594 0.607270 -0.096038
-0.357147 0.605237 -0.095884
-0.354226 0.605893 -0.096010
-0.351294 0.606607 -0.096150
-0.347973 0.606704 -0.096234
-0.345144 0.607742 -0.096421
-0.342073 0.608413 -0.096577
-0.337906 0.607134 -0.096540
-0.334259 0.606830 -0.096607
-0.331044 0.607359 -0.096765
-0.328022 0.608292 -0.096968
-0.324600 0.608503 -0.097102
-0.320784 0.607968 -0.097161
-0.318169 0.609783 -0.097467
-0.314324 0.609206 -0.097527
-0.311742 0.611148 -0.097851
-0.307581 0.609923 -0.097847
-0.304561 0.611003 -0.098084
-0.301390 0.611778 -0.098291
-0.297558 0.611162 -0.098352
-0.293635 0.610313 -0.098389
-0.289644 0.609267 -0.098404
-0.286632 0.610307 -0.098638
-0.283905 0.611971 -0.098937
-0.280318 0.611715 -0.099032
-0.276650 0.611230 -0.099103
-0.272731 0.610118 -0.099104
-0.270162 0.612086 -0.099432
-0.265900 0.610060 -0.099332
-0.262890 0.610937 -0.099541
-0.259600 0.611116 -0.099672
-0.256107 0.610757 -0.099745
-0.252986 0.611271 -0.099908
-0.250092 0.612327 -0.100129
-0.247123 0.613178 -0.100325
-0.242887 0.610708 -0.100161
-0.239720 0.610947 -0.100287
-0.236579 0.611213 -0.100413
-0.233239 0.610906 -0.100476
-0.229638 0.609821 -0.100451
-0.226699 0.610516 -0.100618
-0.223410 0.610192 -0.100672
-0.220542 0.611029 -0.100850
-0.217366 0.610950 -0.100926
-0.214415 0.611490 -0.101068
-0.210917 0.610355 -0.101024
-0.207830 0.610405 -0.101108
-0.204980 0.611157 -0.101267
-0.202045 0.611620 -0.101393
-0.199178 0.612282 -0.101539
-0.196034 0.612018 -0.101581
-0.192905 0.611756 -0.101621
-0.190060 0.612414 -0.101761
-0.187129 0.612760 -0.101865
-0.184264 0.613313 -0.101990
-0.181360 0.613709 -0.102096
-0.178178 0.613076 -0.102086
-0.175535 0.614381 -0.102290
-0.172121 0.612794 -0.102172
-0.169519 0.614237 -0.102388
-0.166268 0.613159 -0.102322
-0.163374 0.613433 -0.102406
-0.160130 0.612259 -0.102327
-0.157466 0.613424 -0.102507
-0.154498 0.613319 -0.102544
-0.151689 0.613868 -0.102652
-0.148916 0.614568 -0.102777
-0.145963 0.614462 -0.102810
-0.142912 0.613867 -0.102788
-0.140147 0.614574 -0.102910
-0.137166 0.614242 -0.102914
-0.133997 0.612938 -0.102809
-0.130944 0.612133 -0.102758
-0.128181 0.612775 -0.102868
-0.125448 0.613588 -0.102997
-0.122800 0.614889 -0.103179
-0.119960 0.615156 -0.103245
-0.116889 0.614073 -0.103158
-0.113822 0.612939 -0.103064
-0.111053 0.613540 -0.103165
-0.108299 0.614247 -0.103276
-0.105408 0.614095 -0.103291
-0.102523 0.613950 -0.103305
-0.099672 0.614007 -0.103341
-0.096831 0.614129 -0.103384
-0.093950 0.613939 -0.103391
-0.091147 0.614323 -0.103462
-0.088330 0.614602 -0.103521
-0.085496 0.614750 -0.103564
-0.082648 0.614761 -0.103591
-0.079749 0.614308 -0.103565
-0.077004 0.615243 -0.103696
-0.074145 0.615129 -0.103707
-0.071168 0.613762 -0.103576
-0.068292 0.613345 -0.103552
-0.065457 0.613328 -0.103573
-0.062601 0.613049 -0.103564
-0.059826 0.613753 -0.103665
-0.057051 0.614543 -0.103776
-0.054231 0.614752 -0.103821
-0.051370 0.614353 -0.103796
-0.048541 0.614408 -0.103822
-0.045711 0.614444 -0.103846
-0.042844 0.613724 -0.103784
-0.040043 0.614297 -0.103867
-0.036860 0.605527 -0.102891
-0.034318 0.612418 -0.103691
-0.031567 0.614616 -0.103958
-0.028774 0.615973 -0.104129
-0.025957 0.616842 -0.104245
-0.023133 0.617695 -0.104358
-0.020280 0.616868 -0.104281
-0.017454 0.618484 -0.104481
-0.014603 0.616894 -0.104316
-0.011765 0.616843 -0.104325
-0.008896 0.621641 -0.104886
-0.005982 0.626304 -0.105430
-0.003108 0.625798 -0.105387
-0.000195 0.627422 -0.105586
0.002452 0.617923 -0.104520
0.005344 0.619543 -0.104717
0.008215 0.620120 -0.104796
0.011018 0.618830 -0.104662
0.013817 0.617702 -0.104545
0.016684 0.618168 -0.104610
0.019578 0.619069 -0.104724
0.023005 0.628945 -0.105860
0.025910 0.629058 -0.105883
0.028284 0.621301 -0.105010
0.031136 0.621134 -0.105000
0.033913 0.620000 -0.104880
0.036490 0.616544 -0.104495
0.039238 0.615440 -0.104378
0.042095 0.615615 -0.104405
0.045311 0.619516 -0.104857
0.048463 0.622397 -0.105192
0.051390 0.622878 -0.105253
0.054068 0.621032 -0.105048
0.056737 0.619248 -0.104850
0.059681 0.619891 -0.104927
0.063884 0.630607 -0.106153
0.064728 0.614464 -0.104315
0.067302 0.612401 -0.104082
0.070131 0.612296 -0.104072
0.072960 0.612185 -0.104060
0.075892 0.612756 -0.104126
0.078695 0.612429 -0.104088
0.081032 0.609147 -0.103712
0.083518 0.606951 -0.103459
0.087612 0.614504 -0.104318
0.091167 0.618472 -0.104767
0.094391 0.620328 -0.104973
0.097259 0.620100 -0.104942
0.100134 0.619898 -0.104912
0.102762 0.618393 -0.104733
0.105461 0.617302 -0.104599
0.108238 0.616624 -0.104513
0.111013 0.615948 -0.104425
0.113727 0.614982 -0.104303
0.116053 0.612232 -0.103976
0.119286 0.613708 -0.104130
0.122178 0.613572 -0.104100
0.125488 0.615234 -0.104272
0.128356 0.614915 -0.104218
0.130738 0.612547 -0.103929
0.133303 0.610993 -0.103732
0.136814 0.613275 -0.103970
0.140267 0.615204 -0.104166
0.141719 0.609301 -0.103470
0.144124 0.607198 -0.103206
0.147450 0.608568 -0.103334
0.151040 0.610817 -0.103560
0.152866 0.606624 -0.103054
0.155911 0.606843 -0.103047
0.159344 0.608358 -0.103185
0.162834 0.609981 -0.103333
0.166103 0.610774 -0.103385
0.171155 0.617364 -0.104092
0.173798 0.615909 -0.103886
0.177304 0.617209 -0.103990
0.180377 0.617070 -0.103929
0.183473 0.616963 -0.103871
0.186422 0.616376 -0.103756
0.187244 0.609416 -0.102921
0.190213 0.608940 -0.102815
0.193375 0.608993 -0.102767
0.196248 0.608178 -0.102620
0.199110 0.607316 -0.102465
0.201389 0.604823 -0.102126
0.206106 0.609003 -0.102533
0.209761 0.610168 -0.102600
0.211862 0.607141 -0.102195
0.214524 0.605618 -0.101958
0.217909 0.605960 -0.101927
0.224233 0.613703 -0.102720
0.226446 0.610905 -0.102334
0.227620 0.605576 -0.101666
0.229857 0.602939 -0.101297
0.234045 0.605016 -0.101450
0.238194 0.606908 -0.101581
0.241027 0.605636 -0.101359
0.252948 0.625326 -0.103456
0.248633 0.607499 -0.101401
0.251717 0.606732 -0.101232
0.255565 0.607648 -0.101249
0.259415 0.608517 -0.101260
0.262064 0.606745 -0.100980
0.266154 0.608071 -0.101041
0.269375 0.607516 -0.100896
0.272043 0.605809 -0.100626
0.274975 0.604680 -0.100420
0.278532 0.604842 -0.100358
0.281422 0.603663 -0.100151
0.282376 0.598669 -0.099531
0.287086 0.601180 -0.099732
0.291459 0.602995 -0.099860
0.295816 0.604763 -0.099986
0.301120 0.608319 -0.100310
0.304575 0.608359 -0.100257
0.307341 0.607161 -0.100075
0.310134 0.606081 -0.099911
0.312928 0.605078 -0.099762
0.315273 0.603343 -0.099541
0.317768 0.601972 -0.099365
-0.358951 0.602174 -0.098576
-0.357236 0.604820 -0.098909
-0.354288 0.605441 -0.099035
-0.351138 0.605785 -0.099137
-0.347833 0.605920 -0.099224
-0.344630 0.606296 -0.099344
-0.341045 0.606038 -0.099401
-0.337851 0.606534 -0.099545
-0.334797 0.607337 -0.099726
-0.331958 0.608589 -0.099961
-0.328444 0.608620 -0.100069
-0.324950 0.608709 -0.100186
-0.321599 0.609092 -0.100338
-0.318390 0.609768 -0.100525
-0.315558 0.611212 -0.100798
-0.311405 0.610037 -0.100788
-0.308293 0.610940 -0.101005
-0.304871 0.611215 -0.101155
-0.300875 0.610288 -0.101173
-0.297354 0.610316 -0.101297
-0.294809 0.612400 -0.101646
-0.289986 0.609595 -0.101457
-0.286840 0.610353 -0.101660
-0.283722 0.611157 -0.101867
-0.280792 0.612370 -0.102119
-0.276525 0.610542 -0.102032
-0.273275 0.610965 -0.102194
-0.269738 0.610690 -0.102276
-0.267841 0.614242 -0.102784
-0.262793 0.610299 -0.102453
-0.259760 0.611099 -0.102650
-0.256244 0.610686 -0.102710
-0.253228 0.611464 -0.102901
-0.248773 0.608579 -0.102678
-0.247460 0.613630 -0.103346
-0.244129 0.613526 -0.103433
-0.239965 0.611175 -0.103263
-0.236649 0.610983 -0.103335
-0.233408 0.610943 -0.103422
-0.230322 0.611284 -0.103550
-0.226744 0.610215 -0.103516
-0.223762 0.610765 -0.103663
-0.220555 0.610636 -0.103732
-0.217684 0.611445 -0.103905
-0.214880 0.612437 -0.104097
-0.211809 0.612612 -0.104194
-0.208075 0.610717 -0.104053
-0.205011 0.610809 -0.104137
-0.202136 0.611461 -0.104283
-0.199246 0.612049 -0.104420
-0.196352 0.612606 -0.104552
-0.193256 0.612469 -0.104603
-0.190249 0.612592 -0.104681
-0.187066 0.612077 -0.104685
-0.184116 0.612325 -0.104775
-0.181130 0.612418 -0.104845
-0.178272 0.612943 -0.104964
-0.175366 0.613282 -0.105059
-0.172757 0.614715 -0.105280
-0.169894 0.615194 -0.105389
-0.166510 0.613619 -0.105259
-0.163470 0.613329 -0.105276
-0.160598 0.613677 -0.105366
-0.157782 0.614245 -0.105480
-0.154499 0.612823 -0.105362
-0.151636 0.613132 -0.105444
-0.148929 0.614121 -0.105603
-0.145892 0.613630 -0.105590
-0.142919 0.613386 -0.105603
-0.140145 0.614051 -0.105722
-0.137149 0.613644 -0.105715
-0.134162 0.613234 -0.105706
-0.131153 0.612671 -0.105678
-0.128212 0.612407 -0.105684
-0.125680 0.614296 -0.105941
-0.122956 0.615209 -0.106083
-0.120106 0.615438 -0.106144
-0.116856 0.613339 -0.105932
-0.114289 0.615169 -0.106179
-0.111090 0.613213 -0.105982
-0.108366 0.614113 -0.106118
-0.105583 0.614672 -0.106214
-0.102611 0.613972 -0.106162
-0.099737 0.613888 -0.106181
-0.096952 0.614419 -0.106272
-0.094190 0.615139 -0.106384
-0.091300 0.614911 -0.106384
-0.088377 0.614384 -0.106348
-0.085529 0.614420 -0.106379
-0.082710 0.614697 -0.106436
-0.079919 0.615234 -0.106524
-0.077052 0.615079 -0.106530
-0.074086 0.613923 -0.106418
-0.071411 0.615648 -0.106644
-0.068355 0.613394 -0.106401
-0.065479 0.612933 -0.106369
-0.062623 0.612656 -0.106358
-0.059767 0.612325 -0.106340
-0.057047 0.613802 -0.106535
-0.054238 0.614169 -0.106599
-0.051399 0.614088 -0.106610
-0.048544 0.613733 -0.106587
-0.045712 0.613712 -0.106604
-0.042899 0.614038 -0.106662
-0.040034 0.613297 -0.106593
-0.037003 0.608228 -0.106012
-0.034333 0.611951 -0.106470
-0.031612 0.615111 -0.106861
-0.028827 0.616964 -0.107097
-0.026002 0.617766 -0.107209
-0.023176 0.618937 -0.107364
-0.020345 0.620528 -0.107568
-0.017481 0.619731 -0.107490
-0.014620 0.617355 -0.107225
-0.011780 0.616370 -0.107124
-0.008936 0.617239 -0.107241
-0.006071 0.619263 -0.107496
-0.003212 0.619720 -0.107564
-0.000340 0.620598 -0.107682
0.002525 0.620852 -0.107726
0.005383 0.620834 -0.107737
0.008280 0.621889 -0.107875
0.011086 0.620398 -0.107711
0.013896 0.619318 -0.107596
0.016751 0.619341 -0.107610
0.019711 0.621327 -0.107857
0.022632 0.622308 -0.107985
0.025550 0.623076 -0.108087
0.028421 0.623034 -0.108093
0.031209 0.621852 -0.107962
0.033992 0.620725 -0.107838
0.036749 0.619401 -0.107690
0.039299 0.615818 -0.107273
0.042028 0.614557 -0.107132
0.045217 0.618199 -0.107572
0.048262 0.620061 -0.107800
0.050995 0.618776 -0.107654
0.053718 0.617499 -0.107508
0.056669 0.618304 -0.107610
0.059808 0.620598 -0.107887
0.064015 0.631301 -0.109163
0.064652 0.613519 -0.107054
0.067532 0.613754 -0.107085
0.070228 0.612631 -0.106954
0.073048 0.612428 -0.106932
0.075922 0.612591 -0.106952
0.078702 0.612109 -0.106895
0.081298 0.610464 -0.106700
0.083902 0.608954 -0.106519
0.086770 0.609086 -0.106533
0.091086 0.617621 -0.107544
0.094423 0.620134 -0.107839
0.097632 0.621783 -0.108030
0.100495 0.621462 -0.107987
0.103065 0.619604 -0.107759
0.105892 0.619127 -0.107696
0.108738 0.618745 -0.107642
0.111417 0.617540 -0.107489
0.113864 0.615263 -0.107209
0.116614 0.614473 -0.107104
0.119675 0.615104 -0.107166
0.122596 0.615063 -0.107147
0.125396 0.614465 -0.107062
0.128561 0.615422 -0.107159
0.131282 0.614453 -0.107027
0.133482 0.611365 -0.106643
0.138178 0.618382 -0.107454
0.139269 0.610914 -0.106548
0.141814 0.609307 -0.106336
0.144244 0.607295 -0.106074
0.147664 0.609006 -0.106251
0.151070 0.610571 -0.106410
0.153974 0.610245 -0.106343
0.156597 0.608906 -0.106155
0.159364 0.608079 -0.106027
0.162755 0.609364 -0.106146
0.167268 0.614319 -0.106696
0.170699 0.615514 -0.106801
0.173433 0.614382 -0.106630
0.176843 0.615393 -0.106709
0.180826 0.618128 -0.106990
0.183902 0.617939 -0.106924
0.186438 0.616083 -0.106660
0.187432 0.609640 -0.105856
0.190428 0.609236 -0.105760
0.193317 0.608491 -0.105623
0.196368 0.608188 -0.105535
0.199444 0.607921 -0.105450
0.201205 0.603984 -0.104934
0.205915 0.608152 -0.105364
0.210091 0.610723 -0.105606
0.211997 0.607171 -0.105129
0.214279 0.604653 -0.104772
0.220556 0.612441 -0.105616
0.223873 0.612461 -0.105551
