ply
format ascii 1.0
comment ---
element vertex 1708
property float x
property float y
property float z
element face 0
property list uchar uint vertex_indices
end_header
0.247182 0.591774 -0.302654
0.249795 0.591891 -0.303762
0.252608 0.592951 -0.305313
0.255368 0.593283 -0.306516
0.258087 0.593008 -0.307428
0.260862 0.592762 -0.308346
0.263897 0.593735 -0.309843
0.266962 0.594523 -0.311249
0.270159 0.595713 -0.312845
0.273302 0.596258 -0.314126
0.275754 0.592821 -0.313468
0.280294 0.600123 -0.318024
0.284255 0.603892 -0.320870
0.287450 0.603440 -0.321652
0.292157 0.610086 -0.325914
0.296448 0.614237 -0.328960
0.298863 0.609318 -0.327529
0.301534 0.605575 -0.326661
0.305184 0.606130 -0.327914
0.307236 0.599583 -0.325624
0.309411 0.593679 -0.323632
0.313113 0.594180 -0.324830
0.316914 0.594921 -0.326147
0.320240 0.593618 -0.326434
0.324186 0.594649 -0.327893
0.328803 0.598069 -0.330565
0.333377 0.601090 -0.333042
0.335874 0.596317 -0.331556
0.338267 0.591276 -0.329921
0.342921 0.594263 -0.332384
0.346492 0.593342 -0.332849
0.352472 0.600500 -0.337474
0.358477 0.607409 -0.341992
0.361697 0.604958 -0.341687
0.365548 0.604550 -0.342439
0.369484 0.604365 -0.343310
0.371958 0.599643 -0.341818
0.376748 0.602030 -0.344037
0.377964 0.593678 -0.340634
0.382709 0.595866 -0.342758
0.386179 0.594278 -0.342903
0.389686 0.592807 -0.343111
0.393408 0.591941 -0.343643
0.398089 0.593685 -0.345568
0.402069 0.593452 -0.346451
0.406012 0.593092 -0.347273
0.409807 0.592320 -0.347881
0.414080 0.592761 -0.349148
0.418411 0.593300 -0.350477
0.422532 0.593267 -0.351507
0.427238 0.594631 -0.353305
0.431316 0.594401 -0.354249
0.435478 0.594344 -0.355296
0.439860 0.594768 -0.356615
0.444233 0.595124 -0.357909
0.448913 0.596132 -0.359572
0.452408 0.594410 -0.359743
0.455772 0.592410 -0.359764
0.460536 0.593487 -0.361498
0.464734 0.593277 -0.362530
0.470001 0.595308 -0.364823
0.473724 0.594003 -0.365266
0.477570 0.592949 -0.365855
0.482689 0.594486 -0.367914
0.486684 0.593675 -0.368661
0.490555 0.592595 -0.369264
0.494748 0.592135 -0.370228
0.499903 0.593514 -0.372253
0.503793 0.592389 -0.372860
0.508048 0.591941 -0.373864
0.512017 0.590925 -0.374551
0.517561 0.592802 -0.376919
0.521778 0.592166 -0.377849
0.525463 0.590543 -0.378215
0.530315 0.590991 -0.379796
0.535035 0.591153 -0.381225
0.538973 0.589903 -0.381837
0.543805 0.590174 -0.383355
0.548710 0.590515 -0.384928
0.553419 0.590473 -0.386288
0.558285 0.590643 -0.387789
0.563012 0.590535 -0.389137
0.567275 0.589628 -0.390019
0.573916 0.592506 -0.393191
0.578415 0.591873 -0.394267
0.581999 0.589772 -0.394464
0.586705 0.589406 -0.395723
0.591571 0.589242 -0.397118
0.595841 0.588129 -0.397946
0.600796 0.588015 -0.399398
0.605072 0.586847 -0.400214
0.611748 0.589170 -0.403203
0.616652 0.588821 -0.404557
0.621805 0.588785 -0.406120
0.626588 0.588171 -0.407336
0.632696 0.589376 -0.409710
0.637235 0.588325 -0.410681
0.643912 0.590176 -0.413504
0.648361 0.588906 -0.414366
0.653196 0.588129 -0.415553
0.660023 0.589959 -0.418427
0.665719 0.590209 -0.420309
0.671015 0.589876 -0.421834
0.677886 0.591522 -0.424660
0.683911 0.591998 -0.426749
0.690073 0.592578 -0.428929
0.695474 0.592140 -0.430461
0.699469 0.589917 -0.430833
0.707621 0.592759 -0.434567
0.712645 0.591701 -0.435743
0.718012 0.591016 -0.437182
0.724502 0.591613 -0.439499
0.731334 0.592540 -0.442061
0.736442 0.591386 -0.443243
0.742628 0.591432 -0.445255
0.747707 0.590158 -0.446388
0.755979 0.592434 -0.449970
0.761085 0.591080 -0.451090
0.767027 0.590610 -0.452835
0.774404 0.591650 -0.455650
0.780815 0.591560 -0.457709
0.788215 0.592464 -0.460487
0.795535 0.593197 -0.463177
0.801604 0.592541 -0.464915
0.807728 0.591888 -0.466677
0.816385 0.593776 -0.470275
0.822715 0.593195 -0.472144
0.829176 0.592688 -0.474090
0.835396 0.591883 -0.475846
0.841754 0.591159 -0.477684
0.848418 0.590675 -0.479724
0.856112 0.591120 -0.482472
0.862302 0.590050 -0.484138
0.870453 0.590778 -0.487161
0.875830 0.588824 -0.488224
0.886904 0.592102 -0.493224
0.893368 0.591019 -0.495001
0.899870 0.589913 -0.496788
0.907137 0.589438 -0.499082
0.914866 0.589303 -0.501670
0.924658 0.590901 -0.505627
0.933101 0.591213 -0.508641
0.941282 0.591209 -0.511454
0.946563 0.588653 -0.512315
0.956994 0.590403 -0.516577
0.965903 0.590762 -0.519799
0.971838 0.588572 -0.521046
0.980550 0.588606 -0.524093
0.990741 0.589743 -0.528074
1.000578 0.590482 -0.531792
1.007841 0.589078 -0.533825
1.017708 0.589645 -0.537506
1.024242 0.587525 -0.539037
1.026797 0.582301 -0.538037
1.043424 0.587760 -0.545918
1.050999 0.586213 -0.548052
1.060572 0.586080 -0.551417
1.070263 0.585932 -0.554829
1.080970 0.586421 -0.558841
1.090094 0.585656 -0.561846
1.098983 0.584631 -0.564683
1.111039 0.585745 -0.569431
1.123192 0.586790 -0.574200
1.135324 0.587683 -0.578916
1.142094 0.584794 -0.580364
1.152667 0.584409 -0.584084
1.165143 0.585178 -0.588910
1.178966 0.586695 -0.594499
1.186591 0.584024 -0.596372
1.198107 0.583789 -0.600526
1.207313 0.581964 -0.603290
1.230986 0.589142 -0.614488
1.237084 0.585109 -0.615365
1.256170 0.589010 -0.623763
1.270322 0.589690 -0.629245
1.281872 0.588658 -0.633186
1.291546 0.586399 -0.636022
1.301421 0.584171 -0.638948
1.313442 0.583097 -0.643068
1.332438 0.585895 -0.651098
1.341984 0.583145 -0.653739
1.357697 0.583758 -0.659815
1.370152 0.582416 -0.664019
1.384427 0.581953 -0.669199
1.405111 0.584804 -0.677883
1.423563 0.586253 -0.685261
1.435204 0.583949 -0.688832
1.446167 0.581205 -0.691997
1.465857 0.582851 -0.699886
1.486109 0.584600 -0.708010
1.499152 0.582567 -0.712161
1.514145 0.581409 -0.717320
1.535253 0.583118 -0.725707
1.546108 0.579729 -0.728536
1.558890 0.577210 -0.732356
1.579117 0.578114 -0.740077
1.615182 0.586191 -0.756083
1.620422 0.579889 -0.755737
1.640273 0.580212 -0.763028
1.643115 0.572863 -0.761371
1.691577 0.585614 -0.783409
1.696283 0.578994 -0.782609
1.693613 0.569300 -0.777994
1.716351 0.570493 -0.786437
1.741657 0.572651 -0.796102
1.769356 0.575668 -0.806885
1.779174 0.571279 -0.808493
1.754896 0.553260 -0.792848
1.741782 0.540059 -0.782923
1.712987 0.521001 -0.765205
1.714492 0.514085 -0.762723
1.700512 0.501389 -0.752551
0.242279 0.593414 -0.304684
0.244751 0.593359 -0.305739
0.247114 0.592209 -0.306270
0.249538 0.591175 -0.306849
0.252125 0.590903 -0.307786
0.254804 0.590890 -0.308842
0.257568 0.591067 -0.309985
0.260517 0.592031 -0.311504
0.263326 0.591812 -0.312446
0.266574 0.593811 -0.314461
0.269971 0.596243 -0.316688
0.272713 0.594695 -0.316968
0.275932 0.595484 -0.318385
0.281037 0.605783 -0.324479
0.284684 0.607929 -0.326572
0.289093 0.613504 -0.330362
0.292545 0.613938 -0.331609
0.296465 0.616340 -0.333830
0.298815 0.611135 -0.332253
0.302713 0.612971 -0.334181
0.305522 0.609707 -0.333548
0.307787 0.604049 -0.331693
0.308844 0.593352 -0.327271
0.313520 0.597947 -0.330564
0.317023 0.597449 -0.331278
0.320012 0.594791 -0.330887
0.323997 0.595988 -0.332455
0.327453 0.595006 -0.332908
0.333143 0.602285 -0.337602
0.333177 0.588497 -0.331462
0.338861 0.595403 -0.335973
0.345232 0.604368 -0.341569
0.348048 0.600655 -0.340608
0.351500 0.599159 -0.340793
0.355277 0.598726 -0.341530
0.359047 0.598221 -0.342231
0.361739 0.594229 -0.341104
0.365221 0.592803 -0.341320
0.369218 0.592963 -0.342372
0.372145 0.589822 -0.341684
0.377573 0.594190 -0.344975
0.380760 0.591803 -0.344691
0.385421 0.593696 -0.346689
0.390917 0.597843 -0.349905
0.394552 0.596637 -0.350269
0.396877 0.591846 -0.348708
0.401677 0.593833 -0.350796
0.405729 0.593740 -0.351772
0.410206 0.594718 -0.353338
0.413931 0.593698 -0.353828
0.417860 0.593190 -0.354603
0.421817 0.592731 -0.355411
0.426886 0.594979 -0.357713
0.430389 0.593335 -0.357890
0.434679 0.593580 -0.359113
0.439335 0.594642 -0.360799
0.443178 0.593753 -0.361416
0.446984 0.592767 -0.361986
0.450710 0.591593 -0.362459
0.454677 0.590949 -0.363234
0.459144 0.591378 -0.364621
0.464871 0.594481 -0.367525
0.469101 0.594269 -0.368579
0.473423 0.594221 -0.369736
0.476974 0.592531 -0.369972
0.481967 0.593801 -0.371900
0.486329 0.593719 -0.373071
0.490247 0.592714 -0.373724
0.495999 0.595306 -0.376455
0.499206 0.592842 -0.376289
0.503657 0.592785 -0.377520
0.507996 0.592474 -0.378615
0.512088 0.591664 -0.379431
0.516302 0.591059 -0.380376
0.520820 0.590977 -0.381639
0.525281 0.590751 -0.382828
0.530754 0.592289 -0.385072
0.534638 0.590945 -0.385628
0.538533 0.589608 -0.386195
0.542283 0.588006 -0.386612
0.548371 0.590369 -0.389409
0.552696 0.589668 -0.390389
0.557064 0.589006 -0.391404
0.562357 0.589832 -0.393330
0.566894 0.589362 -0.394486
0.573289 0.591836 -0.397448
0.577527 0.590782 -0.398279
0.581189 0.588800 -0.398550
0.585995 0.588585 -0.399915
0.590693 0.588160 -0.401164
0.595589 0.587993 -0.402586
0.600153 0.587281 -0.403683
0.607846 0.591172 -0.407668
0.608951 0.585267 -0.405545
0.617419 0.590115 -0.410177
0.621837 0.588997 -0.411079
0.627118 0.589073 -0.412749
0.631982 0.588510 -0.414029
0.639123 0.591064 -0.417314
0.643563 0.589802 -0.418181
0.649601 0.590682 -0.420439
0.655337 0.591082 -0.422408
0.661155 0.591527 -0.424425
0.664492 0.588643 -0.424295
0.669649 0.588132 -0.425719
0.677403 0.590919 -0.429325
0.683698 0.591731 -0.431662
0.689332 0.591636 -0.433422
0.694678 0.591124 -0.434924
0.700527 0.591187 -0.436826
0.705961 0.590681 -0.438368
0.710965 0.589607 -0.439545
0.717637 0.590491 -0.442059
0.725243 0.592400 -0.445295
0.730143 0.591041 -0.446336
0.736284 0.591086 -0.448352
0.741792 0.590342 -0.449848
0.749476 0.592022 -0.453035
0.756798 0.593196 -0.455905
0.761647 0.591534 -0.456830
0.767761 0.591233 -0.458722
0.775068 0.592175 -0.461509
0.781524 0.592113 -0.463619
0.787662 0.591648 -0.465467
0.794434 0.591796 -0.467775
0.801221 0.591888 -0.470071
0.808593 0.592516 -0.472779
0.815202 0.592282 -0.474897
0.822690 0.592874 -0.477640
0.829936 0.593141 -0.480180
0.836577 0.592733 -0.482256
0.842408 0.591464 -0.483726
0.849062 0.590949 -0.485776
0.855558 0.590221 -0.487695
0.863593 0.590899 -0.490691
0.869184 0.589185 -0.491930
0.877119 0.589618 -0.494809
0.885698 0.590561 -0.498112
0.893993 0.591149 -0.501186
0.900492 0.590020 -0.502988
0.907772 0.589535 -0.505313
0.916651 0.590398 -0.508715
0.923882 0.589715 -0.510961
0.933181 0.590760 -0.514592
0.939706 0.589317 -0.516317
0.948317 0.589592 -0.519430
0.957402 0.590175 -0.522832
0.964545 0.589042 -0.524913
0.972325 0.588369 -0.527399
0.979142 0.586835 -0.529230
0.990897 0.589228 -0.534285
0.996445 0.586521 -0.535244
1.007733 0.588315 -0.539927
1.017473 0.588765 -0.543567
1.027450 0.589294 -0.547330
1.032962 0.586294 -0.548203
1.044140 0.587551 -0.552682
1.051086 0.585508 -0.554438
1.062666 0.586843 -0.559108
1.070362 0.585196 -0.561298
1.082072 0.586391 -0.565983
1.089970 0.584717 -0.568254
1.096987 0.582345 -0.569963
1.109018 0.583435 -0.574754
1.126010 0.587833 -0.582555
1.133211 0.585295 -0.584300
1.142850 0.584354 -0.587518
1.150448 0.581944 -0.589473
1.168210 0.586218 -0.597551
1.175306 0.583270 -0.599150
1.191195 0.585974 -0.606000
1.200319 0.584148 -0.608762
1.212222 0.584001 -0.613153
1.228700 0.586596 -0.620211
1.243960 0.588246 -0.626495
1.255498 0.587443 -0.630546
1.266498 0.586197 -0.634251
1.281232 0.587079 -0.640095
1.292553 0.585783 -0.643916
1.301941 0.583248 -0.646590
1.324099 0.588009 -0.656572
1.331433 0.584054 -0.657997
1.342723 0.582282 -0.661661
1.359645 0.583547 -0.668486
1.369229 0.580599 -0.671109
1.388405 0.582793 -0.679101
1.407916 0.584970 -0.687212
1.424585 0.585441 -0.693667
1.435882 0.582945 -0.697080
1.451839 0.582777 -0.703036
1.468101 0.582628 -0.709106
1.489140 0.584752 -0.717740
1.503232 0.583226 -0.722498
1.519807 0.582823 -0.728559
1.534537 0.581401 -0.733558
1.552813 0.581585 -0.740421
1.566050 0.579255 -0.744503
1.584812 0.579443 -0.751499
1.597677 0.576789 -0.755276
1.612253 0.574869 -0.759915
1.635268 0.576682 -0.768967
1.663058 0.580463 -0.780446
1.691013 0.584124 -0.791900
1.701497 0.580046 -0.794101
1.719392 0.579149 -0.800125
1.701306 0.563032 -0.787410
1.752388 0.576027 -0.810517
1.772732 0.576000 -0.817596
1.797312 0.577630 -0.826764
1.777671 0.561446 -0.813263
1.735309 0.536619 -0.788302
1.738626 0.530212 -0.786647
0.241910 0.591375 -0.307089
0.244487 0.592227 -0.308593
0.246877 0.591401 -0.309291
0.249439 0.591417 -0.310389
0.252063 0.591501 -0.311516
0.254359 0.589154 -0.311460
0.257074 0.589192 -0.312553
0.260091 0.590732 -0.314374
0.262899 0.590647 -0.315400
0.265512 0.589140 -0.315720
0.269186 0.593360 -0.318854
0.272407 0.594607 -0.320525
0.275283 0.593672 -0.321110
0.280105 0.602668 -0.326628
0.283471 0.603556 -0.328120
0.287549 0.607698 -0.331236
0.290573 0.606276 -0.331565
0.294424 0.608621 -0.333780
0.297297 0.606089 -0.333533
0.301356 0.608853 -0.335955
0.303801 0.604128 -0.334574
0.306271 0.599532 -0.333241
0.309195 0.596892 -0.332887
0.313041 0.598032 -0.334459
0.316236 0.596326 -0.334568
0.319629 0.595334 -0.335036
0.323160 0.594796 -0.335733
0.326623 0.593895 -0.336238
0.332460 0.601796 -0.341311
0.336351 0.602146 -0.342471
0.339941 0.601297 -0.343007
0.342594 0.597088 -0.341780
0.345904 0.595230 -0.341776
0.349559 0.594530 -0.342378
0.353675 0.595319 -0.343766
0.357479 0.594988 -0.344566
0.360729 0.592834 -0.344400
0.365036 0.594025 -0.346011
0.368934 0.593849 -0.346901
0.373041 0.594266 -0.348112
0.378612 0.598982 -0.351635
0.379970 0.591137 -0.348420
0.385147 0.594522 -0.351246
0.389547 0.595545 -0.352811
0.393087 0.594097 -0.353044
0.397305 0.594513 -0.354295
0.401156 0.593888 -0.354986
0.405540 0.594657 -0.356446
0.409583 0.594473 -0.357393
0.413537 0.594030 -0.358206
0.417177 0.592765 -0.358573
0.421150 0.592333 -0.359405
0.426594 0.595494 -0.362238
0.430311 0.594341 -0.362690
0.433962 0.593028 -0.363060
0.438687 0.594241 -0.364848
0.442331 0.592877 -0.365205
0.445839 0.591205 -0.365393
0.450882 0.593001 -0.367544
0.454819 0.592250 -0.368270
0.459451 0.593005 -0.369859
0.463839 0.593175 -0.371128
0.468827 0.594581 -0.373116
0.472697 0.593558 -0.373727
0.477001 0.593422 -0.374857
0.481287 0.593212 -0.375955
0.485675 0.593176 -0.377164
0.490086 0.593144 -0.378388
0.494093 0.592276 -0.379136
0.498781 0.592712 -0.380655
0.502818 0.591843 -0.381424
0.507726 0.592607 -0.383162
0.511534 0.591248 -0.383663
0.515787 0.590700 -0.384652
0.521490 0.592774 -0.387207
0.525902 0.592421 -0.388338
0.530097 0.591644 -0.389228
0.534141 0.590573 -0.389952
0.537712 0.588659 -0.390178
0.542146 0.588229 -0.391305
0.547673 0.589621 -0.393548
0.551909 0.588764 -0.394443
0.555936 0.587531 -0.395119
0.561869 0.589410 -0.397709
0.567088 0.590037 -0.399551
0.570824 0.588221 -0.399907
0.577637 0.591280 -0.403282
0.582037 0.590435 -0.404263
0.586257 0.589278 -0.405062
0.590628 0.588329 -0.406001
0.595506 0.588119 -0.407414
0.601819 0.590014 -0.410166
0.607110 0.590300 -0.411926
0.612889 0.591243 -0.414121
0.617735 0.590760 -0.415428
0.623259 0.591206 -0.417343
0.628522 0.591220 -0.418999
0.633177 0.590326 -0.420088
0.638407 0.590195 -0.421682
0.643522 0.589853 -0.423157
0.649511 0.590653 -0.425390
0.655756 0.591724 -0.427822
0.660696 0.590980 -0.429087
0.664880 0.589202 -0.429685
0.669552 0.588041 -0.430700
0.676417 0.589670 -0.433581
0.683759 0.591816 -0.436834
0.688864 0.591038 -0.438160
0.694333 0.590672 -0.439780
0.699487 0.589867 -0.441120
0.706948 0.591836 -0.444357
0.711867 0.590633 -0.445467
0.718878 0.591897 -0.448277
0.724892 0.591894 -0.450245
0.730437 0.591279 -0.451815
0.736746 0.591502 -0.453983
0.743412 0.592067 -0.456412
0.750249 0.592753 -0.458952
0.756175 0.592336 -0.460747
0.761653 0.591367 -0.462175
0.768157 0.591482 -0.464387
0.775273 0.592196 -0.467051
0.780658 0.590965 -0.468357
0.787870 0.591640 -0.471047
0.794302 0.591412 -0.473118
0.801998 0.592443 -0.476124
0.808939 0.592602 -0.478533
0.815764 0.592572 -0.480831
0.822534 0.592416 -0.483066
0.830209 0.593100 -0.485949
0.836189 0.592018 -0.487559
0.841992 0.590711 -0.489024
0.847980 0.589539 -0.490612
0.856596 0.590847 -0.494088
0.863242 0.590177 -0.496112
0.871670 0.591126 -0.499393
0.879723 0.591630 -0.502377
0.887209 0.591523 -0.504931
0.894060 0.590760 -0.507016
0.901888 0.590818 -0.509767
0.910047 0.591091 -0.512724
0.916372 0.589653 -0.514384
0.923746 0.589082 -0.516753
0.930686 0.588064 -0.518804
0.937886 0.587206 -0.521016
0.950256 0.590676 -0.526724
0.958229 0.590289 -0.529405
0.967334 0.590765 -0.532825
0.973923 0.589069 -0.534532
0.984847 0.590852 -0.539113
0.988823 0.586903 -0.539048
0.997682 0.586840 -0.542209
1.010446 0.589769 -0.547908
1.018346 0.588740 -0.550378
1.029275 0.589976 -0.554798
1.038272 0.589611 -0.557931
1.045157 0.587556 -0.559677
1.055029 0.587677 -0.563326
1.064252 0.587213 -0.566531
1.071257 0.585029 -0.568302
1.080386 0.584325 -0.571403
1.087339 0.581969 -0.573110
1.099669 0.583366 -0.578175
1.109788 0.583072 -0.581820
1.117935 0.581303 -0.584209
1.133407 0.584482 -0.591112
1.141185 0.582256 -0.593219
1.152144 0.582095 -0.597261
1.167176 0.584518 -0.603757
1.176489 0.583014 -0.606724
1.191918 0.585385 -0.613368
1.201225 0.583653 -0.616269
1.216930 0.585886 -0.622987
1.227145 0.584499 -0.626369
1.245365 0.587968 -0.634486
1.253604 0.585117 -0.636624
1.269313 0.586714 -0.643151
1.280140 0.585220 -0.646756
1.295094 0.586060 -0.652746
1.306872 0.584887 -0.656835
1.319207 0.583923 -0.661213
1.336445 0.585634 -0.668387
1.351160 0.585742 -0.674049
1.358844 0.581795 -0.675630
1.370245 0.579843 -0.679318
1.396780 0.586004 -0.691576
1.413185 0.586445 -0.697994
1.424366 0.583967 -0.701408
1.437120 0.582231 -0.705672
1.454548 0.582809 -0.712508
1.471386 0.582932 -0.718953
1.493250 0.585444 -0.728126
1.507934 0.584189 -0.733245
1.519983 0.581540 -0.736862
1.537901 0.581671 -0.743655
1.559183 0.583279 -0.752217
1.579066 0.584064 -0.759935
1.588110 0.579657 -0.761704
1.599846 0.576487 -0.764893
1.627636 0.580579 -0.776668
1.647508 0.580912 -0.784090
1.666079 0.580562 -0.790740
1.681486 0.578742 -0.795635
1.711663 0.583254 -0.808280
1.725692 0.580689 -0.812297
1.741904 0.579030 -0.817402
1.753758 0.575530 -0.820168
1.776841 0.576660 -0.828729
1.790137 0.573737 -0.832126
1.790900 0.565819 -0.829006
1.725188 0.502266 -0.778324
0.243964 0.589176 -0.310504
0.246586 0.590130 -0.312076
0.249284 0.591207 -0.313709
0.251983 0.591892 -0.315149
0.254392 0.590370 -0.315506
0.256964 0.589607 -0.316227
0.259855 0.590494 -0.317755
0.262466 0.589367 -0.318284
0.265334 0.589469 -0.319413
0.268978 0.593632 -0.322562
0.271985 0.593814 -0.323727
0.275095 0.594250 -0.325015
0.279536 0.601367 -0.329657
0.281614 0.595807 -0.327919
0.284151 0.592545 -0.327320
0.289094 0.600918 -0.332611
0.292755 0.602573 -0.334500
0.295320 0.598830 -0.333632
0.299222 0.601128 -0.335839
0.301932 0.597811 -0.335165
0.305610 0.598675 -0.336628
0.308684 0.596744 -0.336644
0.312078 0.596068 -0.337301
0.315659 0.596023 -0.338278
0.319027 0.594987 -0.338736
0.322212 0.593140 -0.338764
0.326286 0.594650 -0.340541
0.329908 0.594285 -0.341336
0.333526 0.593806 -0.342069
0.337179 0.593373 -0.342823
0.341158 0.594012 -0.344144
0.345109 0.594445 -0.345357
0.348963 0.594448 -0.346343
0.352976 0.594902 -0.347572
0.356991 0.595279 -0.348762
0.361082 0.595817 -0.350043
0.364838 0.595217 -0.350716
0.368411 0.594012 -0.351065
0.372185 0.593408 -0.351739
0.376143 0.593322 -0.352698
0.380737 0.595058 -0.354653
0.384660 0.594752 -0.355505
0.388399 0.593885 -0.356054
0.392237 0.593280 -0.356752
0.396171 0.592919 -0.357589
0.400361 0.593217 -0.358796
0.404331 0.592883 -0.359661
0.408712 0.593597 -0.361115
0.412329 0.592278 -0.361449
0.416901 0.593387 -0.363141
0.421487 0.594462 -0.364826
0.425971 0.595214 -0.366344
0.429753 0.594205 -0.366882
0.434132 0.594612 -0.368225
0.438300 0.594476 -0.369273
0.441749 0.592633 -0.369362
0.445477 0.591446 -0.369828
0.450667 0.593556 -0.372182
0.454784 0.593179 -0.373131
0.458810 0.592574 -0.373958
0.462894 0.592072 -0.374854
0.467184 0.591987 -0.376000
0.472497 0.594017 -0.378382
0.476117 0.592436 -0.378685
0.480260 0.591928 -0.379619
0.485671 0.593962 -0.382050
0.489296 0.592330 -0.382349
0.493639 0.592116 -0.383490
0.497362 0.590657 -0.383907
0.502574 0.592059 -0.386025
0.506798 0.591504 -0.386999
0.510188 0.589354 -0.387033
0.515871 0.591464 -0.389618
0.520994 0.592453 -0.391552
0.525379 0.592038 -0.392658
0.529312 0.590780 -0.393267
0.533349 0.589691 -0.393986
0.537734 0.589189 -0.395072
0.541179 0.587033 -0.395161
0.548427 0.591355 -0.399219
0.552455 0.590111 -0.399891
0.556382 0.588681 -0.400458
0.561643 0.589427 -0.402378
0.565767 0.588260 -0.403129
0.573650 0.593109 -0.407636
0.578042 0.592255 -0.408615
0.581952 0.590614 -0.409112
0.586106 0.589338 -0.409846
0.590568 0.588513 -0.410875
0.596008 0.589139 -0.412836
0.601090 0.589162 -0.414431
0.606377 0.589438 -0.416205
0.612382 0.590708 -0.418633
0.616917 0.589764 -0.419659
0.624104 0.592594 -0.423135
0.628026 0.590675 -0.423562
0.631730 0.588437 -0.423789
0.638594 0.590581 -0.426885
0.644082 0.590735 -0.428705
0.650285 0.591800 -0.431143
0.655534 0.591506 -0.432706
0.660061 0.590202 -0.433616
0.664887 0.589262 -0.434780
0.670794 0.589694 -0.436875
0.679378 0.593505 -0.441261
0.684072 0.592221 -0.442252
0.689189 0.591441 -0.443597
0.694873 0.591324 -0.445409
0.701145 0.591877 -0.447697
0.706557 0.591309 -0.449241
0.711836 0.590532 -0.450660
0.719254 0.592269 -0.453832
0.724694 0.591567 -0.455344
0.731815 0.592787 -0.458214
0.738478 0.593389 -0.460682
0.744074 0.592692 -0.462263
0.749609 0.591877 -0.463779
0.755692 0.591631 -0.465719
0.763848 0.593630 -0.469281
0.769397 0.592655 -0.470752
0.774567 0.591223 -0.471913
0.782055 0.592250 -0.474868
0.788368 0.591938 -0.476884
0.793934 0.590776 -0.478306
0.801695 0.591863 -0.481393
0.808882 0.592267 -0.484014
0.815448 0.591956 -0.486139
0.822713 0.592291 -0.488770
0.829814 0.592384 -0.491252
0.835661 0.591159 -0.492779
0.841007 0.589395 -0.493923
0.848278 0.589465 -0.496473
0.857315 0.591159 -0.500291
0.864044 0.590545 -0.502393
0.871605 0.590654 -0.505079
0.877730 0.589345 -0.506707
0.887515 0.591363 -0.510941
0.893085 0.589412 -0.512133
0.902737 0.591111 -0.516208
0.909301 0.589933 -0.518070
0.915818 0.588656 -0.519883
0.923129 0.588020 -0.522236
0.931966 0.588636 -0.525627
0.942764 0.590838 -0.530342
0.951125 0.590839 -0.533340
0.961358 0.592326 -0.537592
0.968043 0.590744 -0.539392
0.974571 0.588975 -0.541073
0.982707 0.588462 -0.543824
0.992087 0.588871 -0.547387
1.000552 0.588448 -0.550309
1.008131 0.587240 -0.552619
1.019151 0.588647 -0.557184
1.029456 0.589375 -0.561240
1.036754 0.587691 -0.563294
1.043463 0.585497 -0.564949
1.051656 0.584358 -0.567555
1.064771 0.586779 -0.573318
1.080231 0.590758 -0.580538
1.084105 0.586160 -0.580286
1.086628 0.580586 -0.579180
1.103067 0.584875 -0.586908
1.112451 0.584019 -0.590119
1.120545 0.582174 -0.592494
1.134682 0.584393 -0.598630
1.139727 0.580289 -0.599055
1.163863 0.588940 -0.611313
1.170165 0.585470 -0.612461
1.177629 0.582714 -0.614316
1.193610 0.585408 -0.621368
1.203969 0.584318 -0.624936
1.220053 0.586746 -0.631950
1.227727 0.583728 -0.633825
1.246366 0.587425 -0.642281
1.256137 0.585487 -0.645356
1.269831 0.585827 -0.650745
1.282896 0.585647 -0.655716
1.299217 0.587252 -0.662572
1.309995 0.585452 -0.666105
1.319214 0.582657 -0.668692
1.338866 0.585721 -0.677352
1.350877 0.584277 -0.681493
1.360879 0.581612 -0.684432
1.384507 0.586338 -0.695208
1.398595 0.585642 -0.700408
1.413214 0.585105 -0.705864
1.425342 0.583123 -0.709850
1.442660 0.583758 -0.716743
1.459096 0.583783 -0.723073
1.473518 0.582646 -0.728210
1.493795 0.584342 -0.736579
1.510596 0.584139 -0.742927
1.523750 0.582024 -0.747183
1.541377 0.581998 -0.753870
1.562495 0.583514 -0.762416
1.578633 0.582526 -0.768140
1.588329 0.578450 -0.770273
1.603843 0.577038 -0.775545
1.618166 0.575016 -0.780109
1.645245 0.578654 -0.791518
1.671608 0.581787 -0.802428
1.670094 0.572588 -0.798270
1.700564 0.577313 -0.811216
1.717405 0.576044 -0.816781
1.734628 0.574894 -0.822479
1.757486 0.576042 -0.831083
1.769861 0.572806 -0.834081
1.778407 0.568044 -0.835027
1.773886 0.558128 -0.829128
1.717772 0.520533 -0.793071
0.246424 0.589651 -0.315235
0.249187 0.591285 -0.317165
0.251785 0.591435 -0.318365
0.254419 0.591467 -0.319503
0.257175 0.591932 -0.320852
0.259731 0.590846 -0.321425
0.262338 0.589804 -0.322011
0.265345 0.590809 -0.323616
0.268991 0.595072 -0.326859
0.272889 0.600229 -0.330561
0.277561 0.609018 -0.336114
0.279437 0.602454 -0.333885
0.280304 0.590752 -0.329010
0.283449 0.590742 -0.330070
0.287834 0.596545 -0.334105
0.292661 0.603971 -0.338986
0.295287 0.600554 -0.338289
0.296861 0.592270 -0.335056
0.301083 0.595971 -0.338013
0.305166 0.598715 -0.340477
0.307994 0.595797 -0.339988
0.311662 0.596345 -0.341299
0.314716 0.594195 -0.341191
0.318016 0.592973 -0.341561
0.322081 0.594661 -0.343460
0.325569 0.593931 -0.344081
0.329176 0.593559 -0.344887
0.332783 0.593085 -0.345636
0.337160 0.595308 -0.347821
0.340843 0.594886 -0.348597
0.344477 0.594218 -0.349239
0.348375 0.594390 -0.350332
0.352165 0.594115 -0.351185
0.356247 0.594733 -0.352522
0.359993 0.594177 -0.353227
0.363876 0.594008 -0.354143
0.367757 0.593779 -0.355030
0.371570 0.593293 -0.355779
0.376332 0.595615 -0.358071
0.379860 0.594170 -0.358304
0.383577 0.593269 -0.358838
0.387408 0.592680 -0.359548
0.391406 0.592530 -0.360505
0.395610 0.592908 -0.361763
0.399505 0.592398 -0.362533
0.403793 0.592908 -0.363880
0.407613 0.592134 -0.364517
0.412522 0.594160 -0.366733
0.416738 0.594321 -0.367913
0.421080 0.594755 -0.369256
0.425234 0.594671 -0.370317
0.429394 0.594569 -0.371376
0.434097 0.595730 -0.373166
0.437734 0.594303 -0.373489
0.441131 0.592322 -0.373499
0.445152 0.591791 -0.374347
0.449808 0.592673 -0.376020
0.454430 0.593415 -0.377624
0.458343 0.592539 -0.378304
0.462312 0.591770 -0.379054
0.467196 0.592939 -0.380944
0.471517 0.592851 -0.382114
0.475603 0.592234 -0.382984
0.479383 0.590964 -0.383479
0.484005 0.591394 -0.384986
0.489450 0.593420 -0.387454
0.492478 0.590575 -0.387043
0.496894 0.590469 -0.388270
0.501373 0.590445 -0.389557
0.505792 0.590264 -0.390763
0.510684 0.590931 -0.392492
0.515840 0.592028 -0.394497
0.520011 0.591250 -0.395382
0.524417 0.590872 -0.396521
0.529057 0.590874 -0.397904
0.533527 0.590531 -0.399089
0.537181 0.588727 -0.399388
0.543236 0.591057 -0.402245
0.548473 0.591893 -0.404200
0.552602 0.590797 -0.404972
0.556990 0.590109 -0.406010
0.560744 0.588345 -0.406386
0.565853 0.588778 -0.408148
0.572072 0.590934 -0.411011
0.576950 0.590860 -0.412490
0.581445 0.590137 -0.413573
0.585778 0.589130 -0.414487
0.590599 0.588842 -0.415871
0.595585 0.588761 -0.417403
0.600896 0.589118 -0.419232
0.606322 0.589585 -0.421150
0.610427 0.588051 -0.421790
0.618339 0.592024 -0.426022
0.623845 0.592403 -0.427943
0.627462 0.590037 -0.428083
0.630239 0.586490 -0.427453
0.637619 0.589358 -0.431059
0.643496 0.590044 -0.433251
0.649786 0.591221 -0.435792
0.654875 0.590704 -0.437225
0.659626 0.589692 -0.438342
0.664550 0.588873 -0.439602
0.671715 0.590930 -0.442822
0.678235 0.592056 -0.445441
0.683883 0.591989 -0.447272
0.689989 0.592443 -0.449480
0.695333 0.591877 -0.451010
0.701074 0.591754 -0.452864
0.706020 0.590603 -0.454025
0.711638 0.590228 -0.455742
0.719495 0.592477 -0.459312
0.725779 0.592757 -0.461536
0.731541 0.592357 -0.463305
0.737675 0.592336 -0.465362
0.743011 0.591336 -0.466748
0.750702 0.592966 -0.470029
0.756923 0.592848 -0.472092
0.762250 0.591675 -0.473418
0.767543 0.590422 -0.474705
0.775800 0.592355 -0.478326
0.781436 0.591361 -0.479848
0.787255 0.590514 -0.481499
0.793575 0.590146 -0.483524
0.799541 0.589348 -0.485256
0.807803 0.590870 -0.488738
0.814662 0.590856 -0.491112
0.821909 0.591166 -0.493759
0.829532 0.591775 -0.496664
0.835937 0.591091 -0.498625
0.841687 0.589707 -0.500079
0.850592 0.591342 -0.503867
0.858506 0.591916 -0.506885
0.866709 0.592679 -0.510087
0.872046 0.590652 -0.511163
0.877288 0.588500 -0.512163
0.883542 0.587249 -0.513888
0.894330 0.590082 -0.518862
0.902730 0.590621 -0.522079
0.910270 0.590300 -0.524655
0.915525 0.587883 -0.525589
0.926896 0.590786 -0.530829
0.934673 0.590432 -0.533499
0.942214 0.589798 -0.535982
0.952246 0.591204 -0.540174
0.959925 0.590518 -0.542702
0.966329 0.588698 -0.544333
0.973255 0.587255 -0.546310
0.981295 0.586658 -0.549029
0.993144 0.589046 -0.554308
0.999860 0.587202 -0.556078
1.008403 0.586743 -0.559062
1.017825 0.586880 -0.562608
1.025884 0.585867 -0.565220
1.034755 0.585394 -0.568347
1.041266 0.583050 -0.569896
1.058437 0.588613 -0.578422
1.068261 0.588525 -0.582079
1.075624 0.586535 -0.584108
1.085581 0.586355 -0.587800
1.090935 0.582779 -0.588500
1.097913 0.580318 -0.590237
1.112803 0.583331 -0.597009
1.126851 0.585582 -0.603190
1.134935 0.583589 -0.605548
1.151096 0.586983 -0.612973
1.165690 0.589135 -0.619355
1.172050 0.585672 -0.620545
1.183846 0.585716 -0.625105
1.197618 0.586912 -0.630851
1.206761 0.584995 -0.633698
1.217170 0.583793 -0.637299
1.233287 0.586051 -0.644357
1.249730 0.588327 -0.651555
1.259547 0.586375 -0.654680
1.271326 0.585515 -0.658963
1.287388 0.587091 -0.665782
1.301139 0.587131 -0.671162
1.310380 0.584410 -0.673810
1.324342 0.584325 -0.679234
1.338916 0.584449 -0.684973
1.349918 0.582428 -0.688561
1.362562 0.581224 -0.693078
1.378987 0.581977 -0.699759
1.399674 0.584875 -0.708858
1.412807 0.583529 -0.713504
1.427682 0.582996 -0.719111
1.445612 0.583927 -0.726418
1.460297 0.583031 -0.731801
1.475865 0.582469 -0.737634
1.497875 0.585017 -0.747062
1.512218 0.583576 -0.752071
1.529641 0.583549 -0.758760
1.545699 0.582739 -0.764616
1.566120 0.583907 -0.772843
1.576045 0.579992 -0.775155
1.583950 0.575127 -0.776312
1.592784 0.570702 -0.777954
1.626689 0.577633 -0.793329
1.644395 0.577054 -0.799701
1.662553 0.576597 -0.806246
1.685750 0.578259 -0.815449
1.680608 0.567609 -0.809248
1.704036 0.569284 -0.818443
1.736279 0.574545 -0.832261
1.760019 0.576088 -0.841405
1.773741 0.573437 -0.845128
1.781313 0.568313 -0.845542
1.766613 0.554379 -0.834196
0.246296 0.589309 -0.318454
0.248859 0.589729 -0.319807
0.251669 0.591414 -0.321791
0.254447 0.592484 -0.323468
0.257098 0.592387 -0.324560
0.260597 0.597127 -0.328083
0.263836 0.599782 -0.330564
0.265926 0.595366 -0.329462
0.268600 0.594156 -0.329972
0.272962 0.602011 -0.335098
0.277064 0.607816 -0.339194
0.278126 0.597098 -0.334816
0.280518 0.593434 -0.334032
0.283810 0.594197 -0.335517
0.287412 0.596196 -0.337638
0.292302 0.604040 -0.342799
0.295142 0.601702 -0.342667
0.298028 0.599462 -0.342573
0.300817 0.596682 -0.342182
0.304079 0.595897 -0.342826
0.307781 0.596843 -0.344376
0.311046 0.595747 -0.344842
0.313617 0.591680 -0.343724
0.317073 0.591189 -0.344492
0.320983 0.592356 -0.346139
0.324968 0.593633 -0.347845
0.328544 0.593185 -0.348626
0.332447 0.593848 -0.350001
0.336833 0.596127 -0.352249
0.340286 0.594893 -0.352601
0.343875 0.594090 -0.353184
0.347556 0.593539 -0.353900
0.351709 0.594509 -0.355446
0.355317 0.593575 -0.355955
0.359036 0.592955 -0.356635
0.362953 0.592923 -0.357638
0.366844 0.592744 -0.358564
0.371156 0.593802 -0.360178
0.375137 0.593768 -0.361193
0.379178 0.593861 -0.362283
0.382394 0.591503 -0.362013
0.386475 0.591645 -0.363138
0.391011 0.593014 -0.364958
0.395265 0.593512 -0.366299
0.399281 0.593306 -0.367252
0.403409 0.593362 -0.368360
0.407809 0.594089 -0.369856
0.411497 0.592911 -0.370280
0.416198 0.594313 -0.372179
0.420241 0.593978 -0.373099
0.424529 0.594223 -0.374359
0.429141 0.595209 -0.376055
0.433135 0.594645 -0.376871
0.437003 0.593761 -0.377510
0.440644 0.592334 -0.377841
0.445287 0.593212 -0.379518
0.449661 0.593418 -0.380817
0.453747 0.592934 -0.381724
0.457975 0.592740 -0.382810
0.462166 0.592429 -0.383838
0.466342 0.592057 -0.384840
0.471162 0.593014 -0.386641
0.475192 0.592259 -0.387439
0.478917 0.590858 -0.387860
0.483175 0.590533 -0.388933
0.487567 0.590444 -0.390158
0.492634 0.591649 -0.392174
0.497035 0.591482 -0.393379
0.502930 0.594157 -0.396316
0.505573 0.590531 -0.395451
0.510707 0.591633 -0.397465
0.514821 0.590771 -0.398296
0.517855 0.587906 -0.397908
0.524202 0.591066 -0.401230
0.528870 0.591101 -0.402649
0.532973 0.590089 -0.403434
0.537506 0.589808 -0.404683
0.541518 0.588587 -0.405359
0.546798 0.589509 -0.407385
0.552209 0.590584 -0.409525
0.556321 0.589422 -0.410275
0.562004 0.590825 -0.412657
0.566218 0.589756 -0.413492
0.570681 0.589064 -0.414577
0.575555 0.588991 -0.416070
0.580348 0.588742 -0.417466
0.585460 0.588943 -0.419165
0.590594 0.589124 -0.420869
0.595446 0.588821 -0.422276
0.600719 0.589105 -0.424079
0.605525 0.588638 -0.425411
0.611216 0.589427 -0.427579
0.617051 0.590356 -0.429861
0.623071 0.591475 -0.432290
0.627995 0.590961 -0.433660
0.632528 0.589855 -0.434651
0.637276 0.589015 -0.435832
0.643296 0.589887 -0.438175
0.649022 0.590286 -0.440222
0.654279 0.589990 -0.441821
0.659450 0.589529 -0.443325
0.665599 0.590308 -0.445691
0.671812 0.591096 -0.448087
0.677392 0.590995 -0.449896
0.683110 0.591014 -0.451808
0.689341 0.591620 -0.454147
0.695366 0.591897 -0.456282
0.700395 0.590881 -0.457537
0.706076 0.590621 -0.459338
0.712754 0.591511 -0.461968
0.719656 0.592590 -0.464760
0.726022 0.592949 -0.467070
0.731795 0.592546 -0.468862
0.736876 0.591286 -0.470063
0.743812 0.592116 -0.472782
0.751347 0.593544 -0.475963
0.757102 0.592881 -0.477661
0.762092 0.591316 -0.478723
0.769351 0.592213 -0.481603
0.773943 0.590123 -0.482319
0.780528 0.590157 -0.484617
0.786267 0.589221 -0.486224
0.791812 0.588032 -0.487663
0.799726 0.589271 -0.490941
0.808411 0.591213 -0.494785
0.814438 0.590327 -0.496536
0.821510 0.590446 -0.499075
0.830281 0.592193 -0.502887
0.836968 0.591767 -0.505079
0.842061 0.589712 -0.506045
0.851583 0.591926 -0.510334
0.859055 0.592050 -0.513048
0.865823 0.591426 -0.515214
0.871012 0.589253 -0.516193
0.876893 0.587692 -0.517676
0.887580 0.590514 -0.522662
0.895627 0.590791 -0.525678
0.904268 0.591518 -0.529098
0.911471 0.590865 -0.531452
0.921308 0.592471 -0.535672
0.928565 0.591703 -0.538015
0.934586 0.589796 -0.539461
0.941121 0.588284 -0.541260
0.952511 0.590832 -0.546454
0.958600 0.588792 -0.547897
0.963519 0.585734 -0.548517
0.972507 0.585993 -0.551949
0.983269 0.587595 -0.556574
0.992528 0.587863 -0.560128
1.000619 0.587101 -0.562856
1.010159 0.587400 -0.566545
1.016649 0.585221 -0.568144
1.023136 0.582987 -0.569730
1.038572 0.587521 -0.577292
1.048456 0.587671 -0.581090
1.057226 0.586882 -0.584119
1.067732 0.587287 -0.588269
1.076163 0.586062 -0.591023
1.083855 0.584222 -0.593272
1.090801 0.581779 -0.595019
1.099287 0.580367 -0.597752
1.117922 0.585959 -0.607008
1.129970 0.586764 -0.611957
1.140756 0.586573 -0.616058
1.151951 0.586543 -0.620387
1.161060 0.585001 -0.623360
1.172547 0.584941 -0.627808
1.187452 0.586989 -0.634368
1.203771 0.589777 -0.641758
1.211864 0.587128 -0.643964
1.216839 0.582443 -0.644220
1.232747 0.584550 -0.651225
1.248939 0.586650 -0.658346
1.260187 0.585558 -0.662381
1.269214 0.583021 -0.665028
1.287082 0.585663 -0.673020
1.300632 0.585570 -0.678334
1.311119 0.583563 -0.681758
1.324747 0.583266 -0.687035
1.339410 0.583423 -0.692884
1.353828 0.583300 -0.698536
1.365290 0.581406 -0.702387
1.378541 0.580396 -0.707256
1.398392 0.582831 -0.715957
1.414278 0.582956 -0.722260
1.430963 0.583360 -0.728970
1.444895 0.582188 -0.734019
1.461213 0.582135 -0.740397
1.480609 0.583509 -0.748484
1.500919 0.585175 -0.757017
1.515522 0.583853 -0.762211
1.530638 0.582689 -0.767640
1.544349 0.580757 -0.772215
1.562776 0.580997 -0.779396
1.575364 0.578378 -0.783222
1.582647 0.573257 -0.784032
1.619905 0.581875 -0.801515
1.637159 0.581140 -0.807736
1.649666 0.578212 -0.811263
1.671830 0.579522 -0.820054
1.686942 0.577647 -0.824886
1.686625 0.569117 -0.821234
1.705423 0.568831 -0.827978
1.733443 0.572348 -0.839634
1.751160 0.571455 -0.845616
1.778304 0.574379 -0.856585
1.785187 0.569007 -0.856607
1.794355 0.564630 -0.857822
0.248544 0.588165 -0.322427
0.251804 0.592944 -0.325994
0.255720 0.601346 -0.331406
0.260615 0.615124 -0.339569
0.262711 0.610915 -0.338623
0.263063 0.596240 -0.332313
0.262712 0.577881 -0.324063
0.267058 0.586649 -0.329686
0.272313 0.599737 -0.337560
0.274110 0.593292 -0.335368
0.278151 0.598686 -0.339292
0.280059 0.592589 -0.337247
0.283284 0.593134 -0.338643
0.287947 0.600477 -0.343594
0.290591 0.597551 -0.343167
0.293423 0.595409 -0.343138
0.296730 0.595324 -0.344182
0.299973 0.594746 -0.344959
0.303675 0.596013 -0.346708
0.307142 0.596023 -0.347784
0.310398 0.594968 -0.348286
0.313407 0.592775 -0.348169
0.316462 0.590697 -0.348102
0.320508 0.592470 -0.350102
0.324384 0.593371 -0.351632
0.327937 0.592884 -0.352408
0.331645 0.592867 -0.353436
0.335594 0.593616 -0.354879
0.339748 0.594958 -0.356648
0.343233 0.593810 -0.357054
0.346937 0.593364 -0.357842
0.350974 0.593965 -0.359207
0.354748 0.593599 -0.360039
0.358247 0.592275 -0.360341
0.362039 0.591863 -0.361148
0.366487 0.593445 -0.363069
0.370273 0.592879 -0.363797
0.373429 0.590375 -0.363441
0.378266 0.592881 -0.365898
0.382721 0.594135 -0.367661
0.386031 0.592021 -0.367531
0.389715 0.590977 -0.368006
0.394573 0.593172 -0.370325
0.398489 0.592687 -0.371131
0.402930 0.593578 -0.372729
0.406858 0.593047 -0.373523
0.411249 0.593691 -0.374998
0.415197 0.593143 -0.375796
0.419546 0.593580 -0.377171
0.424184 0.594682 -0.378942
0.427979 0.593651 -0.379486
0.432350 0.593998 -0.380840
0.436065 0.592742 -0.381267
0.440190 0.592441 -0.382260
0.445323 0.594426 -0.384608
0.449509 0.594171 -0.385651
0.453226 0.592832 -0.386064
0.456535 0.590594 -0.385949
0.461235 0.591402 -0.387651
0.465672 0.591583 -0.388992
0.470445 0.592431 -0.390746
0.474696 0.592127 -0.391822
0.478730 0.591340 -0.392619
0.482864 0.590739 -0.393538
0.487724 0.591569 -0.395334
0.491700 0.590582 -0.396041
0.496319 0.590837 -0.397515
0.501009 0.591180 -0.399056
0.505725 0.591519 -0.400609
0.509905 0.590797 -0.401524
0.513627 0.589201 -0.401909
0.518199 0.589157 -0.403263
0.524670 0.592512 -0.406746
0.528267 0.590594 -0.406965
0.533255 0.591138 -0.408732
0.536863 0.589209 -0.408963
0.540960 0.588124 -0.409731
0.546190 0.588952 -0.411719
0.551152 0.589261 -0.413396
0.556662 0.590427 -0.415636
0.561196 0.589910 -0.416820
0.565659 0.589241 -0.417919
0.570169 0.588615 -0.419059
0.574897 0.588298 -0.420411
0.579119 0.587144 -0.421235
0.584761 0.588172 -0.423489
0.590048 0.588581 -0.425360
0.595052 0.588500 -0.426927
0.600151 0.588512 -0.428573
0.605611 0.589006 -0.430554
0.611870 0.590611 -0.433290
0.616805 0.590204 -0.434714
0.623014 0.591583 -0.437345
0.627910 0.591012 -0.438695
0.632961 0.590617 -0.440177
0.637761 0.589827 -0.441410
0.642462 0.588864 -0.442539
0.648291 0.589397 -0.444701
0.654781 0.590754 -0.447447
0.660753 0.591335 -0.449688
0.667716 0.593150 -0.452802
0.671879 0.591225 -0.453359
0.677429 0.591069 -0.455155
0.683298 0.591263 -0.457214
0.689413 0.591706 -0.459469
0.694565 0.590878 -0.460856
0.700017 0.590379 -0.462491
0.706094 0.590592 -0.464650
0.712764 0.591457 -0.467297
0.719348 0.592141 -0.469842
0.725758 0.592541 -0.472212
0.731328 0.591888 -0.473848
0.737940 0.592393 -0.476342
0.743668 0.591810 -0.478074
0.751221 0.593245 -0.481300
0.756770 0.592337 -0.482843
0.762356 0.591424 -0.484402
0.768451 0.591024 -0.486361
0.775545 0.591651 -0.489109
0.780729 0.590143 -0.490293
0.785240 0.587882 -0.490931
0.793254 0.589292 -0.494349
0.801717 0.591073 -0.498086
0.808475 0.590987 -0.500446
0.814983 0.590578 -0.502588
0.822953 0.591584 -0.505846
0.830839 0.592413 -0.509007
0.836097 0.590550 -0.510119
0.843101 0.590364 -0.512557
0.849977 0.589982 -0.514875
0.857893 0.590532 -0.517958
0.864449 0.589703 -0.519990
0.871031 0.588838 -0.522024
0.878060 0.588330 -0.524374
0.888805 0.591175 -0.529449
0.897396 0.591920 -0.532893
0.903657 0.590466 -0.534600
0.909634 0.588707 -0.536086
0.919886 0.590678 -0.540658
0.928547 0.591134 -0.544041
0.934328 0.589003 -0.545330
0.945508 0.591452 -0.550461
0.949326 0.587527 -0.550320
0.961303 0.590433 -0.555946
0.966682 0.587717 -0.556885
0.976236 0.588393 -0.560738
0.984637 0.588027 -0.563757
0.989219 0.584506 -0.564105
1.002850 0.588156 -0.570690
1.009970 0.586514 -0.572752
1.015226 0.583359 -0.573526
1.031089 0.588334 -0.581501
1.034688 0.583766 -0.581115
1.047317 0.585994 -0.586814
1.056369 0.585405 -0.590066
1.064089 0.583743 -0.592406
1.075849 0.584953 -0.597409
1.084113 0.583509 -0.600061
1.092605 0.582149 -0.602842
1.107993 0.585568 -0.610117
1.116710 0.584148 -0.612982
1.130962 0.586460 -0.619417
1.140284 0.585241 -0.622613
1.151788 0.585402 -0.627188
1.160117 0.583322 -0.629692
1.171222 0.582996 -0.633947
1.181760 0.582184 -0.637807
1.203417 0.588426 -0.648664
1.213938 0.587308 -0.652421
1.224073 0.585843 -0.655906
1.233350 0.583748 -0.658827
1.249563 0.585833 -0.666033
1.259711 0.584052 -0.669427
1.271701 0.583283 -0.673927
1.289487 0.585837 -0.681944
1.301234 0.584652 -0.686203
1.312914 0.583320 -0.690385
1.326173 0.582784 -0.695486
1.342331 0.583763 -0.702291
1.357792 0.584190 -0.708618
1.368193 0.581677 -0.711859
1.380434 0.580089 -0.716164
1.397999 0.581268 -0.723588
1.414622 0.581782 -0.730388
1.429527 0.581245 -0.736112
1.446964 0.581901 -0.743265
1.463218 0.581802 -0.749659
1.488775 0.586277 -0.761400
1.503983 0.585348 -0.767038
1.519891 0.584661 -0.773020
1.531437 0.581746 -0.776433
1.545082 0.579794 -0.781003
1.555712 0.576347 -0.783801
1.573085 0.576036 -0.790385
1.594341 0.577423 -0.799092
1.613960 0.577927 -0.806786
1.634488 0.578732 -0.814906
1.664759 0.583764 -0.828378
1.687914 0.585455 -0.837759
1.699059 0.581809 -0.840390
1.699881 0.573752 -0.837283
1.694861 0.563353 -0.830969
1.714612 0.563503 -0.838231
1.732334 0.562754 -0.844302
1.777573 0.573196 -0.865222
1.783609 0.567538 -0.864770
1.761409 0.550734 -0.849114
0.247340 0.580548 -0.321957
0.251467 0.591291 -0.328590
0.256741 0.608531 -0.338574
0.260428 0.614740 -0.342963
0.262405 0.609923 -0.341703
0.259097 0.573632 -0.324192
0.261748 0.573302 -0.325157
0.266551 0.584890 -0.332303
0.271746 0.597818 -0.340180
0.276699 0.592403 -0.339658
0.279879 0.593100 -0.341164
0.282579 0.591094 -0.341240
0.285734 0.591174 -0.342407
0.289662 0.594729 -0.345412
0.292924 0.594764 -0.346547
0.295935 0.593419 -0.346940
0.299463 0.594247 -0.348485
0.302809 0.594038 -0.349469
0.306540 0.595306 -0.351243
0.309973 0.595083 -0.352208
0.313424 0.594767 -0.353118
0.316962 0.594656 -0.354132
0.320516 0.594459 -0.355095
0.323964 0.593714 -0.355753
0.327231 0.592180 -0.355973
0.330998 0.592436 -0.357169
0.334888 0.593015 -0.358541
0.338631 0.592936 -0.359550
0.342678 0.593820 -0.361091
0.346330 0.593215 -0.361806
0.350201 0.593282 -0.362894
0.354351 0.594185 -0.364450
0.357432 0.591503 -0.364001
0.361826 0.593032 -0.365912
0.365810 0.593152 -0.367036
0.369958 0.593706 -0.368409
0.373989 0.593825 -0.369540
0.378074 0.594043 -0.370733
0.382051 0.593879 -0.371713
0.385312 0.591617 -0.371499
0.389959 0.593288 -0.373537
0.394180 0.593672 -0.374848
0.398043 0.593023 -0.375571
0.402592 0.594189 -0.377348
0.406054 0.592401 -0.377425
0.409945 0.591745 -0.378161
0.414540 0.592866 -0.379939
0.418637 0.592659 -0.380953
0.422858 0.592724 -0.382135
0.427662 0.594171 -0.384139
0.431588 0.593422 -0.384863
0.435229 0.591979 -0.385184
0.439233 0.591386 -0.386015
0.444805 0.594385 -0.388990
0.449166 0.594509 -0.390271
0.452575 0.592456 -0.390262
0.456700 0.592002 -0.391216
0.460878 0.591635 -0.392232
0.466136 0.593560 -0.394641
0.470135 0.592723 -0.395398
0.474093 0.591784 -0.396101
0.477978 0.590677 -0.396711
0.483169 0.592215 -0.398945
0.487199 0.591340 -0.399719
0.491219 0.590425 -0.400478
0.496064 0.591106 -0.402230
0.501076 0.592049 -0.404161
0.505154 0.591144 -0.404960
0.509086 0.589942 -0.405586
0.513470 0.589567 -0.406737
0.518888 0.591057 -0.409068
0.523122 0.590315 -0.410017
0.528719 0.591988 -0.412500
0.532998 0.591243 -0.413474
0.536878 0.589772 -0.413998
0.540248 0.587407 -0.413961
0.545665 0.588547 -0.416170
0.550817 0.589163 -0.418062
0.556183 0.590075 -0.420164
0.560609 0.589368 -0.421238
0.565689 0.589694 -0.422994
0.570253 0.589131 -0.424190
0.574044 0.587303 -0.424572
0.580503 0.589662 -0.427707
0.585709 0.589969 -0.429518
0.590609 0.589746 -0.430998
0.594942 0.588617 -0.431893
0.600066 0.588649 -0.433573
0.606268 0.590229 -0.436302
0.610971 0.589519 -0.437523
0.616735 0.590314 -0.439770
0.623409 0.592343 -0.442872
0.628651 0.592241 -0.444557
0.633757 0.591894 -0.446095
0.637668 0.589840 -0.446484
0.643161 0.589948 -0.448363
0.648133 0.589291 -0.449735
0.655256 0.591484 -0.453092
0.660644 0.591265 -0.454809
0.666475 0.591576 -0.456913
0.672197 0.591682 -0.458895
0.677654 0.591385 -0.460617
0.683588 0.591644 -0.462749
0.689001 0.591182 -0.464395
0.694791 0.591141 -0.466358
0.700175 0.590539 -0.467943
0.705843 0.590235 -0.469761
0.713129 0.591832 -0.472968
0.719039 0.591689 -0.474951
0.724931 0.591466 -0.476897
0.731763 0.592285 -0.479627
0.737144 0.591343 -0.481097
0.743243 0.591180 -0.483159
0.750449 0.592211 -0.486127
0.755999 0.591299 -0.487687
0.761695 0.590501 -0.489353
0.769982 0.592502 -0.493134
0.776409 0.592371 -0.495355
0.780913 0.590107 -0.495991
0.786301 0.588763 -0.497339
0.795958 0.591878 -0.502105
0.802316 0.591417 -0.504184
0.808418 0.590632 -0.506043
0.815418 0.590710 -0.508594
0.823288 0.591595 -0.511803
0.829366 0.590596 -0.513582
0.835978 0.590073 -0.515761
0.842950 0.589840 -0.518197
0.850172 0.589780 -0.520804
0.857765 0.590002 -0.523670
0.865327 0.590113 -0.526486
0.873860 0.591056 -0.530010
0.878820 0.588580 -0.530816
0.886976 0.589016 -0.534007
0.899092 0.592971 -0.540113
0.905127 0.591281 -0.541662
0.909687 0.588228 -0.542114
0.919194 0.589522 -0.546188
0.927567 0.589714 -0.549398
0.936678 0.590454 -0.553116
0.944496 0.589986 -0.555868
0.950802 0.588160 -0.557512
0.959180 0.588019 -0.560623
0.971324 0.590910 -0.566383
0.976985 0.588334 -0.567509
0.985952 0.588401 -0.570954
1.001043 0.593285 -0.578655
1.005570 0.589585 -0.578930
1.010754 0.586380 -0.579661
1.016735 0.583765 -0.580940
1.031499 0.587856 -0.588240
1.035288 0.583414 -0.587977
1.049600 0.586880 -0.594879
1.055129 0.583632 -0.595773
1.071668 0.588449 -0.604084
1.082796 0.589116 -0.608692
1.086213 0.584109 -0.608114
1.098910 0.585706 -0.613713
1.108892 0.585243 -0.617468
1.117812 0.583938 -0.620495
1.129658 0.584559 -0.625416
1.140617 0.584446 -0.629717
1.153443 0.585472 -0.635198
1.162467 0.583823 -0.638172
1.174136 0.583830 -0.642828
1.190150 0.586538 -0.650233
1.192794 0.580462 -0.649035
1.207310 0.581942 -0.655400
1.222415 0.583631 -0.662086
1.236660 0.584616 -0.668173
1.248865 0.584194 -0.672927
1.262851 0.584730 -0.678756
1.275065 0.584057 -0.683431
1.288429 0.583946 -0.688779
1.303140 0.584489 -0.694912
1.317279 0.584551 -0.700640
1.330081 0.583712 -0.705500
1.344686 0.583773 -0.711414
1.359516 0.583820 -0.717412
1.369228 0.580911 -0.720259
1.378972 0.577954 -0.723097
1.404552 0.583439 -0.735403
1.416032 0.581176 -0.739177
1.430510 0.580406 -0.744695
1.446275 0.580189 -0.750920
1.466878 0.582319 -0.759938
1.490291 0.585686 -0.770523
1.504809 0.584412 -0.775801
1.522012 0.584369 -0.782586
1.537566 0.583406 -0.788342
1.542514 0.577267 -0.787903
1.554709 0.574602 -0.791622
1.573863 0.575151 -0.799283
1.599287 0.578479 -0.810444
1.612832 0.576212 -0.814735
1.635090 0.577831 -0.823905
1.674437 0.586917 -0.842617
1.702257 0.590633 -0.854676
1.711818 0.586266 -0.856396
1.705418 0.575101 -0.849185
1.703671 0.566112 -0.844590
1.714976 0.562733 -0.847220
1.743919 0.566654 -0.859508
1.758638 0.564636 -0.863875
1.756315 0.555761 -0.858884
0.250177 0.583309 -0.327913
0.254407 0.594192 -0.334713
0.258437 0.603001 -0.340475
0.260076 0.596520 -0.338328
0.261007 0.585819 -0.333956
0.264507 0.590244 -0.337447
0.267774 0.592847 -0.339993
0.270178 0.590267 -0.339816
0.273112 0.590389 -0.341050
0.276494 0.592603 -0.343387
0.279289 0.591420 -0.343922
0.282500 0.592131 -0.345454
0.285668 0.592353 -0.346722
0.288980 0.593014 -0.348219
0.291997 0.592027 -0.348824
0.295541 0.593288 -0.350633
0.298989 0.593849 -0.352061
0.302611 0.594946 -0.353775
0.305994 0.594773 -0.354795
0.309361 0.594354 -0.355674
0.312890 0.594448 -0.356826
0.316554 0.594914 -0.358178
0.320081 0.594662 -0.359131
0.323290 0.593038 -0.359321
0.326858 0.592705 -0.360217
0.330699 0.593273 -0.361609
0.334786 0.594597 -0.363421
0.338003 0.592635 -0.363399
0.341928 0.593129 -0.364745
0.345585 0.592581 -0.365507
0.349022 0.591214 -0.365805
0.352680 0.590543 -0.366491
0.356747 0.591146 -0.367899
0.361615 0.594213 -0.370709
0.365567 0.594220 -0.371788
