ply
format ascii 1.0
comment ---
element vertex 1679
property float x
property float y
property float z
element face 0
property list uchar uint vertex_indices
end_header
-0.012856 0.612779 -0.029896
-0.010028 0.613089 -0.029932
-0.007199 0.616899 -0.029959
-0.004333 0.621001 -0.029984
-0.001487 0.618744 -0.030023
0.001351 0.617348 -0.030059
0.004197 0.617121 -0.030091
0.007034 0.616571 -0.030123
0.009868 0.616077 -0.030153
0.012734 0.616706 -0.030180
0.015674 0.619197 -0.030202
0.018445 0.617015 -0.030232
0.021240 0.615768 -0.030259
0.024069 0.615407 -0.030283
0.027032 0.617536 -0.030301
0.030007 0.619494 -0.030318
0.032664 0.616243 -0.030343
0.035139 0.610764 -0.030371
0.038206 0.613991 -0.030382
0.041312 0.617305 -0.030392
0.044166 0.617206 -0.030406
0.047012 0.617005 -0.030419
0.049722 0.615325 -0.030433
0.052512 0.614626 -0.030444
0.055265 0.613598 -0.030454
0.058289 0.615187 -0.030458
0.061152 0.615182 -0.030463
0.063815 0.613415 -0.030470
0.066150 0.609045 -0.030479
0.069223 0.610884 -0.030476
0.072098 0.611046 -0.030474
0.074899 0.610620 -0.030472
0.077807 0.610967 -0.030466
0.080598 0.610464 -0.030460
0.083501 0.610714 -0.030451
0.086784 0.613415 -0.030436
0.089988 0.615430 -0.030420
0.092923 0.615646 -0.030404
0.095406 0.613120 -0.030392
0.098304 0.613128 -0.030373
0.100478 0.609004 -0.030359
0.103033 0.607171 -0.030339
0.106588 0.610780 -0.030307
0.109399 0.610280 -0.030280
0.112282 0.610149 -0.030249
0.116305 0.615681 -0.030205
0.119124 0.615062 -0.030171
0.121484 0.612251 -0.030138
0.124694 0.613496 -0.030095
0.127813 0.614240 -0.030049
0.130516 0.613069 -0.030005
0.132578 0.609122 -0.029966
0.135947 0.610884 -0.029909
0.138684 0.609897 -0.029856
0.142306 0.612550 -0.029791
0.145947 0.615135 -0.029722
0.148167 0.611987 -0.029667
0.151134 0.611812 -0.029599
0.154425 0.612837 -0.029525
0.157436 0.612748 -0.029450
0.159395 0.608773 -0.029386
0.161793 0.606484 -0.029313
0.165327 0.608244 -0.029222
0.168988 0.610344 -0.029126
0.173568 0.615466 -0.029014
0.176661 0.615394 -0.028918
0.178990 0.612770 -0.028829
0.182245 0.613191 -0.028723
0.183190 0.606197 -0.028648
0.186488 0.606765 -0.028536
0.189787 0.607278 -0.028419
0.193472 0.608904 -0.028293
0.196357 0.608048 -0.028176
0.199013 0.606502 -0.028060
0.202900 0.608529 -0.027920
0.207571 0.612696 -0.027762
0.211828 0.615529 -0.027607
0.213881 0.612135 -0.027488
0.216730 0.610972 -0.027352
0.220668 0.612730 -0.027192
0.225060 0.615606 -0.027021
0.228193 0.615068 -0.026871
0.230279 0.611813 -0.026740
0.233251 0.610862 -0.026589
0.235565 0.608255 -0.026451
0.238274 0.606661 -0.026303
0.242596 0.609013 -0.026120
0.246528 0.610337 -0.025944
0.248943 0.607997 -0.025801
0.251593 0.606245 -0.025653
0.256092 0.608793 -0.025464
0.258699 0.606940 -0.025320
0.261034 0.604505 -0.025184
0.264608 0.604880 -0.025021
0.267476 0.603687 -0.024879
0.271571 0.605186 -0.024711
0.275791 0.606919 -0.024543
0.277782 0.603890 -0.024436
0.278297 0.597854 -0.024372
0.280604 0.595685 -0.024270
0.286242 0.600405 -0.024093
0.289732 0.600696 -0.023978
0.294035 0.602638 -0.023851
0.299862 0.607592 -0.023695
0.302621 0.606473 -0.023628
0.303883 0.602525 -0.023609
0.308944 0.605991 -0.023506
0.312663 0.606896 -0.023450
0.315508 0.606197 -0.023429
0.318334 0.605543 -0.023421
0.320128 0.603063 -0.023453
0.323297 0.603209 -0.023464
0.327579 0.605437 -0.023463
0.323604 0.592898 -0.023671
-0.348274 0.605411 -0.018105
-0.344778 0.604463 -0.018135
-0.342127 0.605103 -0.018146
-0.338803 0.604604 -0.018199
-0.335667 0.604516 -0.018258
-0.332871 0.605129 -0.018319
-0.330714 0.607019 -0.018367
-0.327461 0.606940 -0.018473
-0.324638 0.607743 -0.018575
-0.321696 0.608390 -0.018695
-0.317978 0.607590 -0.018858
-0.314404 0.607105 -0.019027
-0.312319 0.609627 -0.019147
-0.308350 0.608443 -0.019353
-0.304979 0.608486 -0.019545
-0.301812 0.608981 -0.019737
-0.298865 0.609969 -0.019929
-0.295360 0.609822 -0.020149
-0.291714 0.609380 -0.020382
-0.288569 0.610024 -0.020600
-0.285164 0.610115 -0.020833
-0.281421 0.609456 -0.021083
-0.277850 0.609163 -0.021330
-0.274305 0.608909 -0.021578
-0.270858 0.608862 -0.021824
-0.267697 0.609466 -0.022060
-0.264937 0.611013 -0.022284
-0.261302 0.610477 -0.022538
-0.258084 0.610916 -0.022778
-0.254452 0.610317 -0.023031
-0.251188 0.610588 -0.023271
-0.247760 0.610416 -0.023514
-0.244240 0.609970 -0.023758
-0.241065 0.610373 -0.023988
-0.237883 0.610730 -0.024217
-0.233472 0.607759 -0.024481
-0.230528 0.608657 -0.024696
-0.227133 0.608292 -0.024922
-0.224256 0.609329 -0.025129
-0.221260 0.610015 -0.025337
-0.218189 0.610465 -0.025544
-0.214943 0.610371 -0.025752
-0.211443 0.609472 -0.025963
-0.208254 0.609446 -0.026162
-0.205094 0.609463 -0.026356
-0.201901 0.609338 -0.026548
-0.198751 0.609301 -0.026735
-0.195811 0.609898 -0.026913
-0.192744 0.610056 -0.027091
-0.189475 0.609505 -0.027269
-0.186526 0.609977 -0.027436
-0.183320 0.609539 -0.027606
-0.180477 0.610324 -0.027764
-0.177402 0.610264 -0.027923
-0.174415 0.610484 -0.028078
-0.171297 0.610186 -0.028231
-0.168486 0.610998 -0.028375
-0.165466 0.611001 -0.028519
-0.162297 0.610376 -0.028664
-0.159515 0.611245 -0.028797
-0.156684 0.611911 -0.028929
-0.153406 0.610705 -0.029065
-0.150716 0.611915 -0.029188
-0.147737 0.611890 -0.029313
-0.144716 0.611640 -0.029436
-0.141822 0.611923 -0.029553
-0.138950 0.612286 -0.029668
-0.136098 0.612727 -0.029780
-0.133083 0.612370 -0.029891
-0.130244 0.612837 -0.029997
-0.127328 0.612906 -0.030102
-0.124078 0.611203 -0.030207
-0.121220 0.611486 -0.030306
-0.118378 0.611839 -0.030403
-0.115547 0.612244 -0.030497
-0.112624 0.612111 -0.030589
-0.109846 0.612805 -0.030678
-0.106991 0.613044 -0.030766
-0.104086 0.612951 -0.030852
-0.101194 0.612919 -0.030935
-0.098282 0.612716 -0.031017
-0.095390 0.612616 -0.031097
-0.092470 0.612289 -0.031174
-0.089546 0.611877 -0.031250
-0.086734 0.612273 -0.031324
-0.083947 0.612884 -0.031396
-0.080921 0.611529 -0.031466
-0.078157 0.612303 -0.031534
-0.075304 0.612316 -0.031601
-0.072438 0.612200 -0.031666
-0.069647 0.612776 -0.031730
-0.066786 0.612660 -0.031792
-0.063957 0.612863 -0.031853
-0.061194 0.613822 -0.031913
-0.058312 0.613438 -0.031970
-0.055434 0.613026 -0.032026
-0.052646 0.613774 -0.032082
-0.049823 0.614091 -0.032136
-0.046986 0.614212 -0.032189
-0.044030 0.612362 -0.032238
-0.041197 0.612390 -0.032287
-0.038371 0.612539 -0.032336
-0.035578 0.613414 -0.032385
-0.032919 0.617673 -0.032438
-0.030069 0.617817 -0.032483
-0.027223 0.618129 -0.032528
-0.024303 0.615869 -0.032567
-0.021360 0.611702 -0.032601
-0.018534 0.611729 -0.032641
-0.015708 0.611706 -0.032680
-0.012887 0.612172 -0.032719
-0.010061 0.612387 -0.032756
-0.007233 0.612924 -0.032794
-0.004378 0.618402 -0.032841
-0.001509 0.619866 -0.032878
0.001308 0.616433 -0.032903
0.004164 0.616926 -0.032936
0.007018 0.617095 -0.032967
0.009867 0.617008 -0.032996
0.012789 0.619205 -0.033030
0.015626 0.618539 -0.033056
0.018501 0.618916 -0.033083
0.021269 0.616869 -0.033102
0.024134 0.617085 -0.033127
0.026986 0.617037 -0.033149
0.029890 0.617827 -0.033173
0.032633 0.616010 -0.033188
0.035254 0.612637 -0.033197
0.038219 0.614341 -0.033220
0.041213 0.616206 -0.033241
0.044133 0.616938 -0.033258
0.046975 0.616692 -0.033271
0.049593 0.614033 -0.033276
0.052360 0.613137 -0.033284
0.055240 0.613417 -0.033294
0.058326 0.615591 -0.033308
0.061348 0.616993 -0.033319
0.064052 0.615502 -0.033319
0.066313 0.610427 -0.033307
0.069093 0.609860 -0.033307
0.071982 0.610157 -0.033308
0.074908 0.610692 -0.033308
0.077847 0.611258 -0.033306
0.080684 0.611054 -0.033300
0.083373 0.609841 -0.033290
0.086812 0.613589 -0.033292
0.089968 0.615287 -0.033286
0.092734 0.614463 -0.033271
0.095516 0.613758 -0.033254
0.098060 0.611681 -0.033231
0.100589 0.609604 -0.033206
0.103198 0.608052 -0.033180
0.106028 0.607742 -0.033156
0.109332 0.609902 -0.033136
0.112282 0.610120 -0.033109
0.116144 0.614851 -0.033091
0.118875 0.613818 -0.033055
0.121519 0.612391 -0.033015
0.125385 0.616686 -0.032988
0.128410 0.616934 -0.032947
0.130316 0.612153 -0.032892
0.133490 0.613075 -0.032847
0.136049 0.611298 -0.032794
0.138069 0.607308 -0.032734
0.141159 0.607828 -0.032680
0.144346 0.608685 -0.032624
0.148192 0.612072 -0.032569
0.151074 0.611571 -0.032504
0.154288 0.612309 -0.032437
0.158041 0.614993 -0.032370
0.160579 0.613100 -0.032293
0.161830 0.606614 -0.032207
0.164419 0.605041 -0.032125
0.169583 0.612411 -0.032048
0.173955 0.616793 -0.031963
0.177104 0.616887 -0.031871
0.179948 0.615937 -0.031774
0.181538 0.610916 -0.031672
0.183684 0.607789 -0.031569
0.186549 0.606976 -0.031463
0.189818 0.607394 -0.031354
0.193482 0.608957 -0.031240
0.196624 0.608870 -0.031123
0.199664 0.608446 -0.031003
0.202172 0.606451 -0.030880
0.207466 0.612424 -0.030746
0.210492 0.611804 -0.030614
0.212104 0.607245 -0.030485
0.216525 0.610444 -0.030342
0.218770 0.607657 -0.030205
0.221178 0.605342 -0.030066
0.225191 0.607250 -0.029914
0.228566 0.607425 -0.029764
0.231584 0.606648 -0.029613
0.236309 0.610139 -0.029447
0.240231 0.611516 -0.029285
0.243039 0.610106 -0.029130
0.246645 0.610624 -0.028968
0.248854 0.607782 -0.028819
0.252306 0.607905 -0.028658
0.255263 0.606857 -0.028502
0.257516 0.604211 -0.028356
0.261865 0.606340 -0.028186
0.266337 0.608676 -0.028017
0.268447 0.605756 -0.027879
0.271891 0.605798 -0.027729
0.274535 0.604124 -0.027593
0.276171 0.600361 -0.027477
0.276799 0.594584 -0.027382
0.279485 0.593215 -0.027265
0.284335 0.596325 -0.027123
0.288282 0.597562 -0.027002
0.291712 0.597767 -0.026897
0.298116 0.603885 -0.026756
0.302866 0.606674 -0.026650
0.304297 0.603022 -0.026607
0.309950 0.607586 -0.026509
0.312854 0.606897 -0.026467
0.315679 0.606130 -0.026439
0.318253 0.604973 -0.026428
0.321286 0.604751 -0.026423
0.323695 0.603462 -0.026442
0.326652 0.603258 -0.026466
0.322357 0.590141 -0.026612
-0.344238 0.597561 -0.021208
-0.344897 0.604004 -0.021113
-0.342779 0.605631 -0.021116
-0.340083 0.606313 -0.021152
-0.336408 0.605284 -0.021233
-0.333409 0.605560 -0.021307
-0.330576 0.606221 -0.021390
-0.327923 0.607300 -0.021481
-0.324857 0.607673 -0.021598
-0.321315 0.607192 -0.021743
-0.317923 0.607046 -0.021894
-0.314607 0.607095 -0.022055
-0.311395 0.607396 -0.022224
-0.308086 0.607546 -0.022405
-0.305220 0.608635 -0.022583
-0.302308 0.609681 -0.022770
-0.298813 0.609558 -0.022982
-0.295259 0.609321 -0.023203
-0.292160 0.610066 -0.023417
-0.288245 0.609068 -0.023659
-0.285064 0.609654 -0.023884
-0.281332 0.609031 -0.024128
-0.277573 0.608322 -0.024375
-0.274850 0.609942 -0.024598
-0.271996 0.611288 -0.024826
-0.268298 0.610678 -0.025076
-0.264816 0.610540 -0.025321
-0.261555 0.610905 -0.025561
-0.258017 0.610576 -0.025806
-0.254009 0.609049 -0.026060
-0.250889 0.609667 -0.026293
-0.247319 0.609128 -0.026534
-0.244158 0.609588 -0.026764
-0.241060 0.610186 -0.026990
-0.237868 0.610517 -0.027216
-0.234314 0.609844 -0.027445
-0.230264 0.607761 -0.027679
-0.227383 0.608805 -0.027890
-0.224296 0.609259 -0.028101
-0.221208 0.609684 -0.028309
-0.217921 0.609501 -0.028516
-0.214974 0.610266 -0.028715
-0.211782 0.610286 -0.028914
-0.208320 0.609443 -0.029111
-0.205256 0.609754 -0.029301
-0.202162 0.609938 -0.029486
-0.198925 0.609633 -0.029670
-0.195673 0.609228 -0.029849
-0.192836 0.610127 -0.030021
-0.189960 0.610886 -0.030190
-0.186676 0.610243 -0.030358
-0.183706 0.610624 -0.030520
-0.180497 0.610135 -0.030680
-0.177541 0.610497 -0.030835
-0.174393 0.610133 -0.030987
-0.171369 0.610172 -0.031135
-0.168492 0.610737 -0.031279
-0.164549 0.607175 -0.031421
-0.162370 0.610365 -0.031558
-0.159624 0.611378 -0.031693
-0.156785 0.612011 -0.031824
-0.153528 0.610892 -0.031951
-0.150655 0.611330 -0.032076
-0.147860 0.612088 -0.032199
-0.144895 0.612092 -0.032318
-0.142070 0.612695 -0.032435
-0.139190 0.613038 -0.032549
-0.136019 0.611987 -0.032657
-0.133141 0.612277 -0.032765
-0.130289 0.612676 -0.032871
-0.127614 0.613970 -0.032976
-0.124508 0.613046 -0.033074
-0.121351 0.611776 -0.033168
-0.118504 0.612111 -0.033264
-0.115591 0.612062 -0.033356
-0.112806 0.612726 -0.033448
-0.109934 0.612882 -0.033537
-0.107079 0.613129 -0.033624
-0.104138 0.612813 -0.033706
-0.101210 0.612546 -0.033787
-0.098376 0.612861 -0.033868
-0.095493 0.612834 -0.033946
-0.092572 0.612512 -0.034021
-0.089678 0.612333 -0.034094
-0.086846 0.612602 -0.034167
-0.084054 0.613189 -0.034241
-0.081246 0.613663 -0.034312
-0.078289 0.612864 -0.034375
-0.075376 0.612381 -0.034439
-0.072483 0.612011 -0.034501
-0.069654 0.612223 -0.034564
-0.066814 0.612309 -0.034626
-0.064002 0.612692 -0.034687
-0.061236 0.613613 -0.034751
-0.058327 0.612911 -0.034804
-0.055480 0.612887 -0.034859
-0.052668 0.613308 -0.034916
-0.049867 0.613919 -0.034972
-0.046886 0.611839 -0.035012
-0.044187 0.614085 -0.035075
-0.041325 0.613759 -0.035122
-0.038446 0.613035 -0.035166
-0.035647 0.613857 -0.035218
-0.032893 0.615916 -0.035277
-0.030105 0.617540 -0.035331
-0.027273 0.618268 -0.035380
-0.024397 0.617672 -0.035419
-0.021473 0.614725 -0.035441
-0.018575 0.611756 -0.035462
-0.015741 0.611267 -0.035498
-0.012919 0.611549 -0.035538
-0.010093 0.611682 -0.035575
-0.007267 0.612108 -0.035614
-0.004406 0.619746 -0.035701
-0.001559 0.617816 -0.035722
0.001289 0.617285 -0.035751
0.004140 0.617190 -0.035783
0.006999 0.617461 -0.035815
0.009932 0.620328 -0.035866
0.012881 0.622864 -0.035913
0.015508 0.615950 -0.035891
0.018310 0.614810 -0.035909
0.021193 0.615657 -0.035940
0.024060 0.616003 -0.035967
0.026835 0.614610 -0.035980
0.029691 0.614776 -0.036003
0.032505 0.614251 -0.036020
0.035369 0.614501 -0.036041
0.038056 0.612300 -0.036043
0.041279 0.617198 -0.036097
0.044202 0.617903 -0.036118
0.046961 0.616640 -0.036123
0.049699 0.615263 -0.036126
0.052553 0.615193 -0.036137
0.055664 0.617646 -0.036166
0.058560 0.617844 -0.036177
0.061383 0.617341 -0.036181
0.064414 0.618656 -0.036197
0.066444 0.611529 -0.036147
0.069157 0.610382 -0.036141
0.071953 0.609933 -0.036139
0.074817 0.610004 -0.036139
0.077763 0.610638 -0.036142
0.080656 0.610845 -0.036140
0.083584 0.611241 -0.036138
0.086778 0.613338 -0.036146
0.089879 0.614691 -0.036148
0.092720 0.614347 -0.036134
0.095787 0.615346 -0.036129
0.099095 0.617666 -0.036131
0.100123 0.606931 -0.036033
0.103340 0.608797 -0.036028
0.106320 0.609269 -0.036010
0.109296 0.609673 -0.035990
0.112195 0.609637 -0.035964
0.115797 0.613080 -0.035961
0.119222 0.615471 -0.035948
0.122219 0.615685 -0.035916
0.124910 0.614437 -0.035871
0.127885 0.614505 -0.035833
0.130633 0.613531 -0.035785
0.133492 0.613049 -0.035738
0.136334 0.612483 -0.035688
0.138800 0.610331 -0.035624
0.140614 0.605564 -0.035540
0.143946 0.607047 -0.035495
0.147671 0.609993 -0.035457
0.152165 0.615763 -0.035433
0.154935 0.614743 -0.035362
0.157948 0.614627 -0.035294
0.160446 0.612596 -0.035210
0.162269 0.608178 -0.035109
0.164086 0.603856 -0.035007
0.169932 0.613612 -0.034983
0.173423 0.614971 -0.034906
0.176605 0.615211 -0.034819
0.179295 0.613784 -0.034720
0.181691 0.611413 -0.034612
0.184142 0.609250 -0.034503
0.186939 0.608203 -0.034396
0.189887 0.607614 -0.034288
0.193126 0.607887 -0.034181
0.196725 0.609183 -0.034074
0.199607 0.608290 -0.033954
0.202388 0.607092 -0.033829
0.207178 0.611619 -0.033723
0.209850 0.610016 -0.033590
0.212673 0.608837 -0.033455
0.216320 0.609901 -0.033324
0.218298 0.606406 -0.033177
0.221212 0.605449 -0.033035
0.224709 0.606007 -0.032894
0.228234 0.606584 -0.032750
0.231415 0.606233 -0.032601
0.237405 0.612897 -0.032462
0.239132 0.608805 -0.032303
0.243302 0.610749 -0.032150
0.244885 0.606384 -0.031990
0.247771 0.605201 -0.031833
0.251758 0.606604 -0.031677
0.254297 0.604597 -0.031520
0.256324 0.601453 -0.031364
0.260377 0.602938 -0.031209
0.266375 0.608703 -0.031052
0.268600 0.606020 -0.030903
0.269579 0.600694 -0.030761
0.271690 0.597923 -0.030621
0.274636 0.596990 -0.030484
0.278561 0.598139 -0.030349
0.282883 0.600094 -0.030218
0.285652 0.598844 -0.030100
0.287369 0.595518 -0.029996
0.290550 0.595224 -0.029893
0.297572 0.602563 -0.029778
0.303456 0.607555 -0.029678
0.304117 0.602376 -0.029618
0.308695 0.604856 -0.029547
0.312380 0.605642 -0.029494
0.315303 0.605043 -0.029458
0.318439 0.604909 -0.029433
0.321003 0.603792 -0.029426
0.324165 0.603854 -0.029429
0.326241 0.602022 -0.029453
0.326925 0.597806 -0.029499
-0.347452 0.602566 -0.024084
-0.345432 0.604296 -0.024085
-0.343215 0.605779 -0.024104
-0.340492 0.606445 -0.024149
-0.336983 0.605754 -0.024226
-0.333761 0.605654 -0.024311
-0.330791 0.606091 -0.024404
-0.327889 0.606728 -0.024509
-0.324845 0.607170 -0.024631
-0.321320 0.606747 -0.024775
-0.317929 0.606627 -0.024929
-0.314644 0.606761 -0.025091
-0.311606 0.607434 -0.025259
-0.308539 0.608097 -0.025437
-0.305524 0.608913 -0.025623
-0.302499 0.609753 -0.025818
-0.298995 0.609633 -0.026030
-0.295595 0.609744 -0.026246
-0.291152 0.607638 -0.026485
-0.288146 0.608595 -0.026704
-0.284900 0.609050 -0.026932
-0.281315 0.608758 -0.027168
-0.277885 0.608801 -0.027404
-0.274827 0.609676 -0.027637
-0.271704 0.610407 -0.027872
-0.268696 0.611407 -0.028106
-0.265242 0.611354 -0.028347
-0.261728 0.611128 -0.028587
-0.257849 0.609979 -0.028830
-0.254124 0.609149 -0.029070
-0.250757 0.609155 -0.029304
-0.247457 0.609297 -0.029535
-0.244267 0.609687 -0.029763
-0.241010 0.609873 -0.029989
-0.237772 0.610078 -0.030211
-0.233869 0.608467 -0.030434
-0.230665 0.608665 -0.030650
-0.227444 0.608784 -0.030863
-0.224467 0.609544 -0.031071
-0.221219 0.609517 -0.031276
-0.217875 0.609166 -0.031478
-0.214776 0.609481 -0.031676
-0.211691 0.609803 -0.031870
-0.208461 0.609654 -0.032059
-0.205254 0.609527 -0.032245
-0.202239 0.609952 -0.032428
-0.199128 0.610044 -0.032606
-0.195806 0.609418 -0.032779
-0.192878 0.610020 -0.032950
-0.190065 0.610986 -0.033119
-0.187165 0.611645 -0.033284
-0.183779 0.610613 -0.033440
-0.180662 0.610447 -0.033595
-0.177951 0.611685 -0.033751
-0.174909 0.611729 -0.033900
-0.171509 0.610403 -0.034039
-0.168535 0.610600 -0.034181
-0.165634 0.611050 -0.034320
-0.162462 0.610413 -0.034452
-0.159921 0.612245 -0.034592
-0.157026 0.612667 -0.034722
-0.153610 0.610902 -0.034838
-0.150732 0.611312 -0.034962
-0.147880 0.611822 -0.035084
-0.144999 0.612191 -0.035202
-0.142216 0.612989 -0.035320
-0.139055 0.612038 -0.035424
-0.136089 0.611939 -0.035531
-0.133098 0.611676 -0.035634
-0.130373 0.612696 -0.035744
-0.127577 0.613376 -0.035849
-0.124488 0.612530 -0.035940
-0.121555 0.612442 -0.036035
-0.118611 0.612269 -0.036126
-0.115738 0.612454 -0.036218
-0.112850 0.612536 -0.036307
-0.110004 0.612842 -0.036395
-0.107110 0.612852 -0.036479
-0.104173 0.612558 -0.036559
-0.101253 0.612339 -0.036637
-0.098442 0.612804 -0.036719
-0.095572 0.612869 -0.036796
-0.092639 0.612468 -0.036867
-0.089717 0.612096 -0.036936
-0.086909 0.612544 -0.037011
-0.084130 0.613235 -0.037087
-0.081293 0.613477 -0.037156
-0.078455 0.613709 -0.037225
-0.075469 0.612617 -0.037279
-0.072567 0.612189 -0.037338
-0.069731 0.612342 -0.037401
-0.066925 0.612797 -0.037465
-0.064000 0.612000 -0.037516
-0.061230 0.612851 -0.037582
-0.058224 0.610967 -0.037618
-0.055452 0.611793 -0.037681
-0.052707 0.613053 -0.037748
-0.049849 0.612863 -0.037798
-0.046962 0.612165 -0.037841
-0.044249 0.614234 -0.037913
-0.041395 0.614089 -0.037960
-0.038507 0.613238 -0.037999
-0.035668 0.613251 -0.038045
-0.032885 0.614571 -0.038105
-0.030093 0.615988 -0.038164
-0.027309 0.617988 -0.038230
-0.024472 0.618776 -0.038281
-0.021542 0.615877 -0.038290
-0.018639 0.612998 -0.038298
-0.015795 0.612341 -0.038329
-0.012953 0.611279 -0.038355
-0.010129 0.611585 -0.038396
-0.007301 0.611840 -0.038434
-0.004439 0.619802 -0.038560
-0.001604 0.616314 -0.038554
0.001243 0.616129 -0.038585
0.004104 0.616790 -0.038625
0.006960 0.616972 -0.038658
0.009871 0.619068 -0.038713
0.012674 0.617162 -0.038720
0.015412 0.613961 -0.038710
0.018252 0.613913 -0.038736
0.021093 0.613903 -0.038762
0.023941 0.614016 -0.038788
0.026902 0.616150 -0.038837
0.029675 0.614773 -0.038843
0.032355 0.612146 -0.038832
0.035197 0.612201 -0.038853
0.038569 0.619425 -0.038960
0.041506 0.620226 -0.038987
0.044052 0.616204 -0.038955
0.046832 0.615262 -0.038959
0.049802 0.616454 -0.038988
0.052896 0.618791 -0.039029
0.055785 0.618885 -0.039042
0.058443 0.616772 -0.039026
0.061424 0.617733 -0.039047
0.063847 0.613761 -0.039005
0.066430 0.611418 -0.038982
0.069266 0.611248 -0.038984
0.072100 0.611053 -0.038985
0.074801 0.609868 -0.038971
0.077624 0.609617 -0.038968
0.080598 0.610408 -0.038975
0.083579 0.611175 -0.038981
0.086834 0.613664 -0.039006
0.089985 0.615327 -0.039019
0.092912 0.615487 -0.039012
0.095860 0.615736 -0.039004
0.098624 0.614877 -0.038980
0.100519 0.609125 -0.038895
0.103546 0.609883 -0.038887
0.106242 0.608799 -0.038854
0.109096 0.608571 -0.038830
0.112026 0.608717 -0.038809
0.116095 0.614513 -0.038853
0.119687 0.617683 -0.038862
0.122820 0.618497 -0.038841
0.125036 0.614972 -0.038766
0.126447 0.607906 -0.038647
0.130255 0.611797 -0.038654
0.132666 0.609399 -0.038586
0.135588 0.609249 -0.038541
0.138370 0.608488 -0.038486
0.141348 0.608529 -0.038438
0.144003 0.607238 -0.038371
0.147974 0.611148 -0.038361
0.151724 0.614021 -0.038335
0.154669 0.613697 -0.038271
0.157114 0.611488 -0.038182
0.159464 0.608976 -0.038088
0.161873 0.606727 -0.037993
0.166447 0.612158 -0.037978
0.170518 0.615621 -0.037937
0.173602 0.615562 -0.037856
0.175888 0.612792 -0.037743
0.179230 0.613555 -0.037663
0.182246 0.613197 -0.037569
0.184786 0.611291 -0.037455
0.186940 0.608200 -0.037328
0.189977 0.607887 -0.037224
0.193351 0.608565 -0.037125
0.196601 0.608813 -0.037020
0.199540 0.608095 -0.036901
0.202386 0.607086 -0.036777
0.207248 0.611822 -0.036699
0.210398 0.611562 -0.036574
0.213632 0.611500 -0.036447
0.215943 0.608880 -0.036297
0.218531 0.607038 -0.036150
0.221515 0.606258 -0.036009
0.224594 0.605711 -0.035867
0.228050 0.606112 -0.035729
0.231316 0.605982 -0.035585
0.236448 0.610497 -0.035469
0.239115 0.608759 -0.035309
0.241158 0.605510 -0.035139
0.244691 0.605905 -0.034991
0.248877 0.607807 -0.034849
0.250714 0.604132 -0.034676
0.252660 0.600778 -0.034506
0.257263 0.603556 -0.034368
0.261396 0.605184 -0.034224
0.264429 0.604308 -0.034070
0.266589 0.601524 -0.033910
0.268752 0.598810 -0.033755
0.272032 0.598553 -0.033613
0.275140 0.597939 -0.033474
0.280456 0.601968 -0.033355
0.285280 0.604896 -0.033236
0.288226 0.603931 -0.033112
0.289836 0.600311 -0.032989
0.291661 0.597226 -0.032876
0.296990 0.601169 -0.032789
0.304207 0.608754 -0.032718
0.305245 0.604265 -0.032632
0.308256 0.603694 -0.032566
0.312066 0.604700 -0.032514
0.315657 0.605332 -0.032474
0.318320 0.604287 -0.032443
0.320735 0.602871 -0.032426
0.323510 0.602203 -0.032424
0.327127 0.603137 -0.032439
0.316819 0.579230 -0.032426
-0.349444 0.605410 -0.027034
-0.346064 0.604768 -0.027066
-0.343099 0.604940 -0.027108
-0.339681 0.604367 -0.027170
-0.336873 0.604974 -0.027239
-0.333985 0.605516 -0.027323
-0.330836 0.605649 -0.027424
-0.327744 0.605954 -0.027538
-0.324717 0.606449 -0.027665
-0.321553 0.606746 -0.027805
-0.318295 0.606915 -0.027959
-0.315280 0.607610 -0.028120
-0.312242 0.608318 -0.028293
-0.309186 0.609039 -0.028475
-0.305669 0.608866 -0.028671
-0.302170 0.608749 -0.028874
-0.299102 0.609548 -0.029080
-0.295792 0.609869 -0.029295
-0.291912 0.608986 -0.029519
-0.288298 0.608661 -0.029745
-0.285105 0.609249 -0.029972
-0.281585 0.609117 -0.030204
-0.277996 0.608821 -0.030438
-0.274773 0.609331 -0.030672
-0.271744 0.610284 -0.030907
-0.268526 0.610799 -0.031143
-0.265340 0.611380 -0.031379
-0.261909 0.611363 -0.031615
-0.257325 0.608510 -0.031847
-0.254187 0.609108 -0.032079
-0.251250 0.610192 -0.032310
-0.247811 0.609999 -0.032537
-0.244572 0.610274 -0.032762
-0.241045 0.609770 -0.032983
-0.237713 0.609728 -0.033202
-0.234378 0.609632 -0.033417
-0.230746 0.608685 -0.033625
-0.227759 0.609450 -0.033836
-0.224547 0.609563 -0.034041
-0.221239 0.609362 -0.034241
-0.218036 0.609414 -0.034438
-0.214795 0.609317 -0.034630
-0.211813 0.609942 -0.034823
-0.208655 0.610011 -0.035009
-0.205286 0.609389 -0.035187
-0.202102 0.609284 -0.035363
-0.198962 0.609274 -0.035537
-0.196110 0.610147 -0.035713
-0.193163 0.610697 -0.035883
-0.190140 0.610971 -0.036048
-0.187172 0.611400 -0.036210
-0.184309 0.612164 -0.036371
-0.181073 0.611606 -0.036518
-0.178007 0.611594 -0.036667
-0.174970 0.611652 -0.036812
-0.171597 0.610425 -0.036942
-0.168602 0.610544 -0.037081
-0.165714 0.611041 -0.037219
-0.162917 0.611875 -0.037359
-0.159795 0.611408 -0.037482
-0.157148 0.612825 -0.037621
-0.153931 0.611891 -0.037734
-0.150863 0.611519 -0.037849
-0.147898 0.611541 -0.037965
-0.144992 0.611793 -0.038081
-0.142001 0.611638 -0.038190
-0.139187 0.612266 -0.038304
-0.136281 0.612456 -0.038411
-0.133339 0.612447 -0.038514
-0.130260 0.611729 -0.038606
-0.127456 0.612341 -0.038710
-0.124529 0.612316 -0.038805
-0.121650 0.612520 -0.038901
-0.118758 0.612634 -0.038993
-0.115777 0.612222 -0.039076
-0.112719 0.611319 -0.039151
-0.109951 0.612058 -0.039244
-0.107171 0.612742 -0.039335
-0.104468 0.613932 -0.039431
-0.101399 0.612785 -0.039494
-0.098516 0.612791 -0.039571
-0.095704 0.613264 -0.039652
-0.092635 0.611909 -0.039707
-0.089803 0.612186 -0.039781
-0.087130 0.613684 -0.039871
-0.084129 0.612660 -0.039925
-0.081305 0.612997 -0.039996
-0.078487 0.613392 -0.040066
-0.075626 0.613412 -0.040130
-0.072641 0.612253 -0.040175
-0.069809 0.612465 -0.040239
-0.067002 0.612922 -0.040304
-0.064140 0.612829 -0.040361
-0.061224 0.612086 -0.040406
-0.058395 0.612283 -0.040464
-0.055563 0.612446 -0.040520
-0.052746 0.612804 -0.040578
-0.049929 0.613198 -0.040636
-0.047113 0.613641 -0.040693
-0.044270 0.613686 -0.040743
-0.041419 0.613581 -0.040789
-0.038542 0.612930 -0.040826
-0.035696 0.612790 -0.040870
-0.032989 0.615897 -0.040963
-0.030169 0.616743 -0.041020
-0.027346 0.617725 -0.041078
-0.024526 0.619131 -0.041142
-0.021676 0.619746 -0.041193
-0.018677 0.612827 -0.041124
-0.015834 0.612310 -0.041155
-0.013001 0.612290 -0.041192
-0.010166 0.611777 -0.041221
-0.007336 0.611781 -0.041257
-0.004500 0.613186 -0.041314
-0.001640 0.615870 -0.041391
0.001202 0.615292 -0.041415
0.004056 0.615729 -0.041454
0.006953 0.617828 -0.041520
0.009812 0.617843 -0.041550
0.012595 0.615450 -0.041541
0.015352 0.612920 -0.041527
0.018238 0.614096 -0.041574
0.021088 0.614224 -0.041602
0.023909 0.613747 -0.041619
0.026839 0.615299 -0.041669
0.029833 0.617677 -0.041732
0.032466 0.614088 -0.041694
0.035275 0.613508 -0.041705
0.038364 0.616802 -0.041780
0.041157 0.615896 -0.041783
0.043961 0.615209 -0.041789
0.046850 0.615550 -0.041811
0.049771 0.616181 -0.041837
0.052597 0.615754 -0.041844
0.055365 0.614778 -0.041840
0.058559 0.617884 -0.041903
0.061051 0.614380 -0.041854
0.063727 0.612722 -0.041834
0.066397 0.611132 -0.041814
0.069358 0.611964 -0.041834
0.072266 0.612314 -0.041844
0.075053 0.611714 -0.041836
0.077672 0.609922 -0.041807
0.080599 0.610378 -0.041814
0.083583 0.611158 -0.041825
0.087087 0.615274 -0.041891
0.090238 0.616875 -0.041912
0.093002 0.615983 -0.041890
0.095467 0.613327 -0.041835
0.098011 0.611252 -0.041789
0.100832 0.610835 -0.041769
0.103406 0.609048 -0.041724
0.106229 0.608670 -0.041700
0.109092 0.608487 -0.041678
0.112012 0.608581 -0.041658
0.116230 0.615121 -0.041744
0.119737 0.617860 -0.041764
0.122919 0.618903 -0.041753
0.125672 0.617867 -0.041705
0.126870 0.609771 -0.041538
0.129214 0.607097 -0.041458
0.132075 0.606761 -0.041415
0.134700 0.605398 -0.041352
0.137745 0.605818 -0.041316
0.141626 0.609612 -0.041332
0.145055 0.611412 -0.041313
0.147933 0.610936 -0.041253
0.151214 0.612000 -0.041216
0.154090 0.611453 -0.041150
0.156471 0.609047 -0.041051
0.158700 0.606141 -0.040942
0.162983 0.610674 -0.040946
0.166979 0.613996 -0.040928
0.170993 0.617230 -0.040904
0.173988 0.616842 -0.040821
0.175623 0.611874 -0.040665
0.179365 0.613972 -0.040613
0.182944 0.615432 -0.040547
0.184635 0.610786 -0.040389
0.186646 0.607255 -0.040244
0.190267 0.608761 -0.040169
0.193419 0.608754 -0.040069
0.196508 0.608520 -0.039962
0.199510 0.607993 -0.039847
0.202433 0.607212 -0.039726
0.207692 0.613082 -0.039690
0.212108 0.616361 -0.039615
0.214737 0.614554 -0.039469
0.216690 0.610910 -0.039297
0.218429 0.606758 -0.039116
0.221366 0.605858 -0.038974
0.224822 0.606302 -0.038847
0.227949 0.605845 -0.038705
0.231154 0.605561 -0.038563
0.235998 0.609356 -0.038466
0.239762 0.610342 -0.038333
0.242214 0.608066 -0.038162
0.245898 0.608784 -0.038022
0.248218 0.606214 -0.037846
0.248531 0.598981 -0.037623
0.252416 0.600171 -0.037487
0.256827 0.602509 -0.037362
0.261350 0.605021 -0.037238
0.263190 0.601481 -0.037058
0.265869 0.599861 -0.036899
0.270649 0.602833 -0.036783
0.274678 0.604118 -0.036654
0.277950 0.603768 -0.036515
0.280030 0.600936 -0.036360
0.285597 0.605393 -0.036270
0.290173 0.607734 -0.036167
0.293005 0.606517 -0.036044
0.294395 0.602472 -0.035907
0.297991 0.602906 -0.035813
0.302582 0.605310 -0.035742
0.305338 0.604155 -0.035656
0.308843 0.604502 -0.035591
0.312684 0.605528 -0.035542
0.315916 0.605448 -0.035497
0.318479 0.604186 -0.035457
0.320543 0.602097 -0.035424
0.323187 0.601167 -0.035413
0.325261 0.599296 -0.035409
0.326175 0.595462 -0.035407
-0.351446 0.608272 -0.030020
-0.346257 0.604466 -0.030062
-0.342519 0.603276 -0.030112
-0.339884 0.604140 -0.030173
-0.336975 0.604592 -0.030250
-0.334027 0.605050 -0.030340
-0.331022 0.605476 -0.030445
-0.327736 0.605444 -0.030565
-0.324888 0.606303 -0.030696
-0.321801 0.606776 -0.030840
-0.318741 0.607358 -0.030996
-0.316048 0.608721 -0.031162
-0.313226 0.609895 -0.031339
-0.309499 0.609306 -0.031526
-0.305309 0.607790 -0.031720
-0.301938 0.607946 -0.031922
-0.299018 0.609064 -0.032131
-0.295938 0.609883 -0.032347
-0.292060 0.609022 -0.032565
-0.288734 0.609338 -0.032789
-0.285376 0.609585 -0.033016
-0.281607 0.608920 -0.033243
-0.278378 0.609440 -0.033475
-0.274944 0.609490 -0.033707
-0.271888 0.610394 -0.033943
-0.268631 0.610826 -0.034177
-0.265188 0.610806 -0.034409
-0.261393 0.609913 -0.034635
-0.257415 0.608520 -0.034857
-0.254783 0.610370 -0.035095
-0.251200 0.609863 -0.035317
-0.247847 0.609885 -0.035540
-0.244301 0.609374 -0.035756
-0.240889 0.609159 -0.035972
-0.237724 0.609547 -0.036188
-0.234307 0.609232 -0.036396
-0.231216 0.609749 -0.036607
-0.227781 0.609293 -0.036807
-0.224646 0.609619 -0.037010
-0.221417 0.609643 -0.037206
-0.217971 0.609000 -0.037392
-0.214953 0.609547 -0.037586
-0.211880 0.609901 -0.037774
-0.208768 0.610110 -0.037958
-0.205500 0.609799 -0.038131
-0.202031 0.608809 -0.038294
-0.198935 0.608929 -0.038464
-0.195972 0.609437 -0.038636
-0.193093 0.610197 -0.038807
-0.189586 0.608847 -0.038949
-0.187265 0.611432 -0.039135
-0.184211 0.611535 -0.039288
-0.181106 0.611424 -0.039435
-0.178152 0.611809 -0.039584
-0.174944 0.611249 -0.039718
-0.171750 0.610677 -0.039848
-0.168626 0.610311 -0.039977
-0.165693 0.610629 -0.040112
-0.162673 0.610581 -0.040239
-0.159993 0.611856 -0.040383
-0.156718 0.610719 -0.040488
-0.153902 0.611409 -0.040617
-0.150985 0.611670 -0.040737
-0.148016 0.611678 -0.040850
-0.145026 0.611561 -0.040959
-0.142131 0.611839 -0.041071
-0.139345 0.612601 -0.041188
-0.136488 0.613031 -0.041297
-0.133595 0.613276 -0.041402
-0.130687 0.613425 -0.041502
-0.127429 0.611778 -0.041570
-0.124555 0.612015 -0.041667
-0.121702 0.612352 -0.041763
-0.118860 0.612735 -0.041858
-0.115613 0.610838 -0.041912
-0.112700 0.610737 -0.041995
-0.109910 0.611338 -0.042087
-0.107249 0.612733 -0.042192
-0.104370 0.612813 -0.042272
-0.101560 0.613325 -0.042358
-0.098692 0.613450 -0.042435
-0.095779 0.613253 -0.042505
-0.092832 0.612776 -0.042567
-0.089865 0.612098 -0.042625
-0.087031 0.612361 -0.042698
-0.084236 0.612932 -0.042775
-0.081303 0.612392 -0.042830
-0.078439 0.612376 -0.042893
-0.075663 0.613124 -0.042969
-0.072726 0.612409 -0.043016
-0.069903 0.612726 -0.043082
-0.067076 0.613008 -0.043145
-0.064199 0.612766 -0.043197
-0.061328 0.612553 -0.043249
-0.058448 0.612174 -0.043296
-0.055612 0.612294 -0.043351
-0.052802 0.612759 -0.043412
-0.049986 0.613186 -0.043471
-0.047157 0.613444 -0.043526
-0.044319 0.613582 -0.043577
-0.041450 0.613185 -0.043617
-0.038579 0.612644 -0.043653
-0.035748 0.612832 -0.043702
-0.033190 0.619505 -0.043880
-0.030309 0.619208 -0.043918
-0.027385 0.617505 -0.043926
-0.024514 0.617107 -0.043960
-0.021561 0.613091 -0.043919
-0.018695 0.611638 -0.043929
-0.015889 0.613404 -0.044004
-0.013047 0.613143 -0.044036
-0.010205 0.612410 -0.044058
-0.007370 0.610409 -0.044053
-0.004533 0.613181 -0.044145
-0.001670 0.616000 -0.044237
0.001174 0.615491 -0.044260
0.004010 0.614763 -0.044277
0.006865 0.615131 -0.044316
0.009849 0.620151 -0.044452
0.012552 0.614851 -0.044370
0.015311 0.612401 -0.044347
0.018212 0.613972 -0.044408
0.021111 0.615148 -0.044459
0.023910 0.614113 -0.044463
0.026767 0.614298 -0.044492
0.029792 0.617245 -0.044578
0.032726 0.618338 -0.044624
0.035451 0.616232 -0.044601
0.038205 0.614785 -0.044590
0.041063 0.614806 -0.044610
0.043945 0.615111 -0.044635
0.046840 0.615510 -0.044660
0.049842 0.617005 -0.044708
0.052872 0.618638 -0.044758
0.055891 0.619986 -0.044801
0.058208 0.614593 -0.044697
0.061149 0.615262 -0.044722
0.063919 0.614373 -0.044713
0.066481 0.611809 -0.044666
0.069341 0.611807 -0.044672
0.072246 0.612127 -0.044685
0.075027 0.611484 -0.044675
0.077693 0.610027 -0.044646
0.080570 0.610125 -0.044649
0.083585 0.611115 -0.044669
0.087384 0.617154 -0.044797
0.090185 0.616476 -0.044779
0.092608 0.613494 -0.044708
0.095251 0.611969 -0.044668
0.097971 0.610950 -0.044637
0.100646 0.609707 -0.044599
0.103500 0.609496 -0.044581
0.106445 0.609755 -0.044572
0.109220 0.609083 -0.044540
0.112132 0.609121 -0.044522
0.115605 0.611930 -0.044561
0.119226 0.615294 -0.044609
0.122530 0.616975 -0.044619
0.125108 0.615167 -0.044552
0.127519 0.612652 -0.044468
0.129950 0.610305 -0.044385
0.132619 0.609059 -0.044324
0.135143 0.607220 -0.044247
0.138136 0.607384 -0.044211
0.142369 0.612591 -0.044277
0.145893 0.614713 -0.044275
0.148379 0.612629 -0.044183
0.150685 0.609894 -0.044075
0.153483 0.609092 -0.044004
0.156114 0.607663 -0.043918
0.159483 0.608945 -0.043884
0.163141 0.611187 -0.043867
0.166547 0.612421 -0.043825
0.169989 0.613700 -0.043781
0.173034 0.613545 -0.043705
0.175705 0.612107 -0.043600
0.179480 0.614308 -0.043564
0.182725 0.614681 -0.043488
0.184588 0.610602 -0.043323
0.186454 0.606620 -0.043156
0.190139 0.608335 -0.043097
0.193399 0.608664 -0.043007
0.196454 0.608330 -0.042901
0.199354 0.607509 -0.042783
0.202493 0.607360 -0.042674
0.208781 0.616166 -0.042726
0.212238 0.616705 -0.042621
0.215514 0.616684 -0.042503
0.217398 0.612825 -0.042313
0.218429 0.606737 -0.042083
0.221674 0.606655 -0.041956
0.224628 0.605775 -0.041812
0.228039 0.606055 -0.041685
0.231947 0.607553 -0.041576
0.236155 0.609724 -0.041475
0.240652 0.612515 -0.041381
0.243177 0.610384 -0.041205
0.245085 0.606795 -0.041005
0.246425 0.601920 -0.040785
0.249003 0.600043 -0.040613
0.251942 0.599024 -0.040454
0.257080 0.603029 -0.040369
0.260974 0.604106 -0.040240
0.264349 0.603983 -0.040095
0.268066 0.604601 -0.039961
0.271904 0.605456 -0.039833
0.275888 0.606597 -0.039710
0.278432 0.604660 -0.039550
0.280309 0.601377 -0.039376
0.282491 0.598810 -0.039219
0.290315 0.607844 -0.039216
0.293140 0.606592 -0.039086
0.295273 0.604008 -0.038948
0.299294 0.605238 -0.038865
0.302830 0.605529 -0.038780
0.305781 0.604722 -0.038691
0.309095 0.604672 -0.038621
0.312536 0.604910 -0.038566
0.316026 0.605290 -0.038523
0.318690 0.604189 -0.038476
0.321018 0.602554 -0.038435
0.324773 0.603610 -0.038439
0.327307 0.602518 -0.038431
0.318869 0.581931 -0.038210
-0.349194 0.603634 -0.033023
-0.345589 0.602639 -0.033058
-0.342895 0.603338 -0.033112
-0.340390 0.604468 -0.033182
-0.338516 0.606848 -0.033271
-0.334497 0.605378 -0.033362
-0.331510 0.605872 -0.033472
-0.328477 0.606350 -0.033596
-0.324920 0.605897 -0.033729
-0.322211 0.607119 -0.033880
-0.318976 0.607392 -0.034039
-0.316062 0.608345 -0.034211
-0.313115 0.609290 -0.034394
-0.309658 0.609264 -0.034580
-0.305768 0.608379 -0.034770
-0.302183 0.608123 -0.034970
-0.299698 0.610170 -0.035189
-0.296370 0.610496 -0.035404
-0.292399 0.609463 -0.035615
-0.288768 0.609136 -0.035833
-0.285175 0.608883 -0.036055
-0.281371 0.608146 -0.036275
-0.277779 0.607852 -0.036499
-0.275589 0.610719 -0.036752
-0.271992 0.610400 -0.036978
-0.268698 0.610755 -0.037210
-0.264913 0.609933 -0.037429
-0.261541 0.610047 -0.037657
-0.258254 0.610340 -0.037885
-0.254822 0.610248 -0.038107
-0.251109 0.609417 -0.038318
-0.247603 0.609050 -0.038532
-0.244509 0.609690 -0.038755
-0.240699 0.608445 -0.038952
-0.237681 0.609212 -0.039170
-0.234679 0.610005 -0.039386
-0.231224 0.609546 -0.039582
-0.227909 0.609416 -0.039779
-0.224688 0.609502 -0.039975
-0.221414 0.609398 -0.040165
-0.218193 0.609399 -0.040353
-0.214957 0.609312 -0.040536
-0.211825 0.609489 -0.040719
-0.208634 0.609449 -0.040895
-0.205614 0.609890 -0.041074
-0.202403 0.609704 -0.041240
-0.199013 0.608904 -0.041393
-0.195806 0.608623 -0.041549
-0.192823 0.609027 -0.041714
-0.190080 0.610202 -0.041888
-0.187067 0.610461 -0.042043
-0.183933 0.610274 -0.042188
-0.181182 0.611382 -0.042351
-0.178195 0.611647 -0.042497
-0.174923 0.610848 -0.042620
-0.171871 0.610795 -0.042753
-0.168860 0.610856 -0.042885
-0.165619 0.610002 -0.042997
-0.162718 0.610408 -0.043129
-0.159679 0.610244 -0.043247
-0.156806 0.610714 -0.043375
-0.153920 0.611115 -0.043499
-0.151052 0.611575 -0.043621
-0.148126 0.611770 -0.043735
-0.145117 0.611572 -0.043839
-0.142327 0.612325 -0.043960
-0.139434 0.612605 -0.044068
-0.136559 0.612950 -0.044175
-0.133629 0.613013 -0.044275
-0.130578 0.612453 -0.044358
-0.127634 0.612378 -0.044450
-0.124620 0.611905 -0.044531
-0.121812 0.612481 -0.044632
-0.118967 0.612859 -0.044726
-0.115842 0.611655 -0.044785
-0.112676 0.610121 -0.044833
-0.109978 0.611247 -0.044938
-0.107088 0.611248 -0.045017
-0.104413 0.612571 -0.045123
-0.101537 0.612653 -0.045200
-0.098739 0.613237 -0.045287
-0.095843 0.613155 -0.045356
-0.092834 0.612241 -0.045406
-0.089786 0.610953 -0.045444
-0.087043 0.611880 -0.045532
-0.084252 0.612475 -0.045611
-0.081345 0.612139 -0.045667
-0.078485 0.612155 -0.045730
-0.075574 0.611700 -0.045780
-0.072780 0.612268 -0.045853
-0.069942 0.612445 -0.045916
-0.067106 0.612638 -0.045977
-0.064267 0.612797 -0.046037
-0.061471 0.613444 -0.046107
-0.058508 0.612146 -0.046130
-0.055655 0.612075 -0.046180
-0.052865 0.612810 -0.046249
-0.050016 0.612788 -0.046299
-0.047117 0.611965 -0.046328
-0.044367 0.613465 -0.046412
-0.041517 0.613418 -0.046458
-0.038606 0.612143 -0.046473
-0.035729 0.611344 -0.046498
-0.033289 0.620659 -0.046772
-0.030340 0.618766 -0.046769
-0.027436 0.617652 -0.046784
-0.024539 0.616420 -0.046794
-0.021654 0.615190 -0.046804
-0.018760 0.612888 -0.046786
-0.015918 0.612676 -0.046819
-0.013089 0.613551 -0.046879
-0.010243 0.612753 -0.046896
-0.007405 0.611296 -0.046895
-0.004562 0.614299 -0.047006
-0.001696 0.616650 -0.047099
0.001161 0.616792 -0.047136
0.003975 0.614390 -0.047108
0.006800 0.613470 -0.047116
0.009717 0.616206 -0.047216
0.012616 0.617586 -0.047282
0.015324 0.613373 -0.047203
0.018121 0.612252 -0.047202
0.021065 0.614555 -0.047288
0.023924 0.614742 -0.047319
0.026737 0.614030 -0.047325
0.029697 0.615894 -0.047398
0.032698 0.618098 -0.047478
0.035452 0.616417 -0.047457
0.038303 0.616247 -0.047474
0.041135 0.615841 -0.047483
0.044015 0.616041 -0.047507
0.046837 0.615534 -0.047512
0.050049 0.619295 -0.047627
0.053093 0.620946 -0.047686
0.055900 0.620092 -0.047678
0.058543 0.617748 -0.047630
0.061412 0.617626 -0.047639
0.063998 0.615039 -0.047582
0.066566 0.612493 -0.047525
0.069297 0.611412 -0.047504
0.072133 0.611211 -0.047506
0.074937 0.610763 -0.047499
0.077719 0.610164 -0.047487
0.080591 0.610211 -0.047491
0.083566 0.610926 -0.047510
0.087041 0.614839 -0.047612
0.089836 0.614194 -0.047593
0.092543 0.613016 -0.047558
0.095217 0.611686 -0.047517
0.098222 0.612333 -0.047526
0.100760 0.610271 -0.047463
0.103568 0.609786 -0.047439
0.106620 0.610611 -0.047447
0.109324 0.609545 -0.047404
0.112101 0.608879 -0.047370
0.115633 0.611981 -0.047432
0.118782 0.613045 -0.047438
0.121657 0.612732 -0.047407
0.124615 0.612785 -0.047382
0.127481 0.612391 -0.047344
0.130341 0.611961 -0.047303
0.133227 0.611629 -0.047261
0.136523 0.613028 -0.047262
0.139427 0.612701 -0.047216
0.142533 0.613185 -0.047188
0.146351 0.616474 -0.047229
0.149081 0.615317 -0.047154
0.151186 0.611753 -0.047015
0.153763 0.610078 -0.046921
0.157425 0.612473 -0.046928
0.160288 0.611819 -0.046854
0.163550 0.612588 -0.046814
0.166356 0.611682 -0.046728
0.169732 0.612749 -0.046689
0.173389 0.614694 -0.046668
0.176910 0.616081 -0.046629
0.179246 0.613482 -0.046489
0.181715 0.611360 -0.046359
0.184966 0.611756 -0.046286
0.186462 0.606597 -0.046076
0.190015 0.607907 -0.046020
0.193313 0.608359 -0.045939
0.196359 0.608004 -0.045835
0.199189 0.606982 -0.045713
0.201930 0.605693 -0.045581
0.208027 0.613976 -0.045668
0.211934 0.615817 -0.045601
0.215013 0.615263 -0.045475
0.218066 0.614615 -0.045344
0.219013 0.608276 -0.045083
0.221493 0.606144 -0.044914
0.225224 0.607301 -0.044816
0.228196 0.606428 -0.044670
0.231177 0.605565 -0.044522
0.236935 0.611645 -0.044520
0.239938 0.610712 -0.044365
0.242134 0.607800 -0.044167
0.244297 0.604854 -0.043968
0.246778 0.602709 -0.043785
0.249617 0.601429 -0.043619
0.253632 0.602872 -0.043508
0.257923 0.604885 -0.043407
0.261397 0.604983 -0.043268
0.265731 0.606973 -0.043166
0.269134 0.606852 -0.043024
0.271108 0.603624 -0.042825
0.274449 0.603394 -0.042686
0.277235 0.601993 -0.042529
0.279987 0.600558 -0.042376
0.284820 0.603462 -0.042305
0.287463 0.601836 -0.042158
0.291017 0.602103 -0.042052
0.295899 0.605038 -0.041998
0.300708 0.607789 -0.041948
0.303567 0.606706 -0.041839
0.306165 0.605178 -0.041733
0.308686 0.603580 -0.041636
0.311926 0.603422 -0.041573
0.315850 0.604602 -0.041545
0.319383 0.605087 -0.041516
0.322248 0.604400 -0.041480
0.326024 0.605448 -0.041485
0.330280 0.607407 -0.041519
0.333743 0.607989 -0.041543
-0.348170 0.601176 -0.036003
-0.345910 0.602580 -0.036056
-0.343599 0.603995 -0.036124
-0.341223 0.605395 -0.036206
-0.337840 0.605051 -0.036288
-0.334912 0.605610 -0.036391
-0.331945 0.606172 -0.036508
-0.328917 0.606690 -0.036637
-0.326413 0.608275 -0.036787
-0.321811 0.605906 -0.036914
-0.318870 0.606764 -0.037081
-0.316008 0.607837 -0.037259
-0.313012 0.608702 -0.037445
-0.309887 0.609358 -0.037638
-0.305976 0.608456 -0.037823
-0.303289 0.610069 -0.038040
-0.300172 0.610839 -0.038255
-0.295601 0.608571 -0.038440
-0.292820 0.610070 -0.038672
-0.288842 0.609018 -0.038878
-0.284785 0.607759 -0.039083
-0.281477 0.608118 -0.039309
-0.277764 0.607564 -0.039525
-0.274856 0.608805 -0.039766
-0.271699 0.609482 -0.040000
-0.268244 0.609459 -0.040223
-0.264812 0.609460 -0.040447
-0.261628 0.610025 -0.040677
-0.258483 0.610665 -0.040907
-0.254359 0.608881 -0.041097
-0.251170 0.609341 -0.041321
-0.248016 0.609866 -0.041542
-0.244907 0.610481 -0.041763
-0.240744 0.608331 -0.041934
-0.237674 0.608961 -0.042149
-0.234704 0.609835 -0.042365
-0.231406 0.609802 -0.042562
-0.228115 0.609741 -0.042755
-0.224559 0.608895 -0.042930
-0.221435 0.609208 -0.043123
-0.218257 0.609330 -0.043308
-0.215000 0.609180 -0.043484
-0.211798 0.609144 -0.043659
-0.208832 0.609778 -0.043844
-0.205382 0.608903 -0.043995
-0.202324 0.609178 -0.044165
-0.199694 0.610778 -0.044360
-0.195840 0.608443 -0.044468
-0.192915 0.609031 -0.044634
-0.190051 0.609803 -0.044801
-0.187066 0.610148 -0.044956
-0.184105 0.610551 -0.045109
-0.181002 0.610428 -0.045246
-0.178115 0.611034 -0.045397
-0.175037 0.610927 -0.045529
-0.172048 0.611109 -0.045664
-0.169017 0.611101 -0.045791
-0.165838 0.610489 -0.045901
-0.163172 0.611826 -0.046055
-0.159900 0.610759 -0.046148
-0.156956 0.610950 -0.046268
-0.154012 0.611112 -0.046385
-0.151094 0.611364 -0.046502
-0.148106 0.611284 -0.046608
-0.145241 0.611718 -0.046723
-0.142215 0.611408 -0.046818
-0.139436 0.612192 -0.046938
-0.136484 0.612166 -0.047035
-0.133666 0.612757 -0.047146
-0.130683 0.612531 -0.047233
-0.127675 0.612135 -0.047314
-0.124789 0.612328 -0.047408
-0.121912 0.612548 -0.047500
-0.119030 0.612728 -0.047589
-0.116312 0.613806 -0.047701
-0.113150 0.612364 -0.047743
-0.110173 0.611907 -0.047810
-0.107575 0.613710 -0.047935
-0.104260 0.611091 -0.047940
-0.101567 0.612317 -0.048046
-0.098715 0.612536 -0.048124
-0.095762 0.612045 -0.048181
-0.092872 0.611953 -0.048246
-0.090013 0.612052 -0.048316
-0.087151 0.612119 -0.048383
-0.084230 0.611703 -0.048436
-0.081433 0.612252 -0.048514
-0.078597 0.612492 -0.048582
-0.075684 0.612040 -0.048629
-0.072746 0.611298 -0.048667
-0.069994 0.612282 -0.048752
-0.067134 0.612237 -0.048807
-0.064268 0.612098 -0.048858
-0.061535 0.613431 -0.048949
-0.058673 0.613358 -0.049000
-0.055774 0.612786 -0.049035
-0.052956 0.613220 -0.049098
-0.050037 0.612248 -0.049120
-0.047163 0.611796 -0.049155
-0.044453 0.613965 -0.049265
-0.041570 0.613384 -0.049295
-0.038683 0.612619 -0.049318
-0.035798 0.611725 -0.049337
-0.033091 0.614806 -0.049471
-0.030387 0.618733 -0.049629
-0.027478 0.617526 -0.049636
-0.024644 0.618548 -0.049707
-0.021707 0.615606 -0.049660
-0.018783 0.611938 -0.049591
-0.015950 0.612139 -0.049635
-0.013117 0.612542 -0.049685
-0.010279 0.612568 -0.049722
-0.007440 0.612698 -0.049762
-0.004597 0.613734 -0.049828
-0.001744 0.614790 -0.049894
0.001092 0.613837 -0.049899
0.003956 0.614917 -0.049964
0.006787 0.614067 -0.049970
0.009675 0.615579 -0.050047
0.012574 0.617017 -0.050120
0.015373 0.615304 -0.050098
0.018181 0.614193 -0.050092
0.021101 0.615739 -0.050167
0.023976 0.616105 -0.050204
0.026767 0.614861 -0.050192
0.029561 0.613844 -0.050186
0.032565 0.616226 -0.050282
0.035468 0.616805 -0.050323
0.038330 0.616732 -0.050342
0.041304 0.618093 -0.050405
0.043996 0.615886 -0.050357
0.047079 0.618359 -0.050452
0.049845 0.617122 -0.050431
0.052780 0.617731 -0.050467
0.055282 0.614013 -0.050367
0.058524 0.617567 -0.050491
0.061592 0.619233 -0.050556
0.064382 0.618340 -0.050540
0.066488 0.611802 -0.050349
0.069287 0.611293 -0.050342
0.072098 0.610886 -0.050337
0.074903 0.610449 -0.050330
0.077778 0.610519 -0.050338
0.080635 0.610441 -0.050339
0.083739 0.612012 -0.050390
0.086972 0.614309 -0.050462
0.089510 0.612045 -0.050391
0.091922 0.609107 -0.050297
0.095359 0.612448 -0.050396
0.098206 0.612145 -0.050381
0.100739 0.610062 -0.050309
0.103558 0.609635 -0.050287
0.106423 0.609457 -0.050270
0.109356 0.609613 -0.050262
0.112369 0.610147 -0.050263
0.115886 0.613142 -0.050339
0.118442 0.611291 -0.050263
0.121243 0.610661 -0.050222
0.124544 0.612360 -0.050251
0.127864 0.614037 -0.050277
0.130726 0.613576 -0.050235
0.134047 0.615105 -0.050251
0.137314 0.616309 -0.050255
0.139932 0.614717 -0.050172
0.142818 0.614257 -0.050120
0.146629 0.617501 -0.050178
0.150243 0.619804 -0.050205
0.152656 0.617348 -0.050085
0.155449 0.616387 -0.050008
0.157807 0.613809 -0.049879
0.160528 0.612615 -0.049790
0.163174 0.611159 -0.049690
0.166542 0.612261 -0.049663
0.169948 0.613421 -0.049635
0.173528 0.615095 -0.049619
0.176741 0.615447 -0.049560
0.179252 0.613435 -0.049429
0.181145 0.609448 -0.049238
0.184070 0.608838 -0.049142
0.186222 0.605785 -0.048973
0.189333 0.605747 -0.048888
0.193190 0.607930 -0.048863
0.196198 0.607471 -0.048760
0.199152 0.606821 -0.048647
0.202066 0.606036 -0.048528
0.207559 0.612593 -0.048611
0.210284 0.611130 -0.048466
0.214232 0.613055 -0.048412
0.217324 0.612544 -0.048286
0.218893 0.607909 -0.048045
0.221571 0.606307 -0.047886
0.224686 0.605848 -0.047754
0.228168 0.606312 -0.047645
0.231074 0.605255 -0.047492
0.235952 0.609133 -0.047467
0.239153 0.608723 -0.047326
0.240853 0.604626 -0.047088
0.244218 0.604611 -0.046955
0.246984 0.603138 -0.046783
0.250924 0.604426 -0.046680
0.254666 0.605195 -0.046563
0.257844 0.604629 -0.046411
0.262862 0.608200 -0.046362
0.267223 0.610199 -0.046273
0.268632 0.605648 -0.046027
0.270542 0.602283 -0.045812
0.273915 0.602127 -0.045677
0.277743 0.602932 -0.045567
0.283733 0.608239 -0.045565
0.283954 0.601505 -0.045288
0.284577 0.595758 -0.045041
0.290493 0.600843 -0.045047
0.297397 0.607807 -0.045100
0.301701 0.609507 -0.045040
0.304303 0.607879 -0.044914
0.305596 0.603795 -0.044744
0.308746 0.603388 -0.044664
0.312182 0.603577 -0.044607
0.316447 0.605362 -0.044595
0.319769 0.605423 -0.044558
0.322348 0.604179 -0.044504
