ply
format ascii 1.0
comment ---
element vertex 1680
property float x
property float y
property float z
element face 0
property list uchar uint vertex_indices
end_header
0.381990 0.589663 -0.085740
0.386096 0.588639 -0.085599
0.390731 0.601685 -0.089023
0.394610 0.595185 -0.087469
0.398257 0.585537 -0.085101
0.402118 0.581995 -0.084272
0.407057 0.598034 -0.088411
0.411785 0.608729 -0.091176
0.416084 0.611988 -0.092031
0.419449 0.602177 -0.089541
0.423115 0.597894 -0.088440
0.427125 0.598776 -0.088634
0.431559 0.604980 -0.090161
0.434063 0.589352 -0.086112
0.437945 0.590305 -0.086260
0.441576 0.589022 -0.085818
0.445113 0.587327 -0.085248
0.448794 0.587524 -0.085136
0.452093 0.584638 -0.084218
0.454763 0.576843 -0.082035
0.458063 0.575291 -0.081412
0.462891 0.586703 -0.084044
0.468814 0.606455 -0.088751
0.471545 0.600868 -0.087033
0.472865 0.585432 -0.082815
0.475620 0.581615 -0.081508
0.479280 0.584753 -0.081927
0.482621 0.585865 -0.081814
0.486043 0.587797 -0.081884
0.489307 0.588918 -0.081729
-0.619311 0.588047 -0.140741
-0.612912 0.588307 -0.140893
-0.611074 0.592793 -0.142344
-0.609149 0.597320 -0.143768
-0.596966 0.592469 -0.142177
-0.590135 0.592594 -0.142123
-0.587856 0.597053 -0.143401
-0.574128 0.590789 -0.141240
-0.570178 0.593809 -0.141978
-0.569122 0.599707 -0.143583
-0.555830 0.593880 -0.141442
-0.550381 0.595664 -0.141666
-0.539912 0.592571 -0.140313
-0.536215 0.596187 -0.141035
-0.525616 0.592981 -0.139576
-0.518597 0.593363 -0.139208
-0.514674 0.596930 -0.139803
-0.503032 0.592642 -0.137909
-0.507305 0.604794 -0.141110
-0.495337 0.600183 -0.139057
-0.488502 0.600911 -0.138638
-0.479910 0.599781 -0.137619
-0.472127 0.599495 -0.136838
-0.467568 0.602689 -0.137109
-0.460451 0.603128 -0.136510
-0.450240 0.600141 -0.134844
-0.442136 0.599424 -0.133862
-0.435434 0.600241 -0.133336
-0.426429 0.598428 -0.132000
-0.419844 0.599320 -0.131477
-0.414339 0.601439 -0.131316
-0.408701 0.603402 -0.131099
-0.401184 0.603140 -0.130209
-0.391586 0.600345 -0.128559
-0.384043 0.599915 -0.127620
-0.377551 0.600700 -0.127044
-0.370443 0.600689 -0.126233
-0.365113 0.602821 -0.126059
-0.355342 0.599381 -0.124245
-0.348212 0.599147 -0.123385
-0.341673 0.599600 -0.122732
-0.336522 0.601786 -0.122592
-0.328380 0.600059 -0.121317
-0.321272 0.599591 -0.120420
-0.315180 0.600394 -0.119900
-0.308248 0.600021 -0.119050
-0.300707 0.598749 -0.117952
-0.294898 0.599752 -0.117519
-0.288242 0.599537 -0.116747
-0.282154 0.600043 -0.116192
-0.276532 0.601149 -0.115818
-0.268785 0.599183 -0.114582
-0.261494 0.597767 -0.113517
-0.255084 0.597534 -0.112799
-0.249546 0.598511 -0.112433
-0.243359 0.598478 -0.111794
-0.238593 0.600508 -0.111744
-0.231865 0.599544 -0.110866
-0.225960 0.599755 -0.110329
-0.220211 0.600147 -0.109853
-0.213730 0.599339 -0.109055
-0.208137 0.599853 -0.108635
-0.202394 0.600075 -0.108144
-0.195741 0.598774 -0.107245
-0.190208 0.599206 -0.106834
-0.184386 0.599112 -0.106289
-0.178399 0.598680 -0.105662
-0.173085 0.599312 -0.105337
-0.168205 0.600636 -0.105209
-0.163179 0.601678 -0.105013
-0.156983 0.600652 -0.104265
-0.151208 0.600287 -0.103706
-0.145485 0.599947 -0.103163
-0.140183 0.600301 -0.102818
-0.134756 0.600379 -0.102407
-0.127724 0.597457 -0.101198
-0.122738 0.598212 -0.100987
-0.117959 0.599320 -0.100880
-0.112765 0.599611 -0.100560
-0.106844 0.598459 -0.099863
-0.100475 0.596356 -0.098922
-0.096269 0.598404 -0.099096
-0.091846 0.600017 -0.099160
-0.086740 0.600241 -0.098862
-0.081725 0.600607 -0.098609
-0.076254 0.599990 -0.098103
-0.070944 0.599642 -0.097675
-0.064411 0.596657 -0.096558
-0.059799 0.597652 -0.096500
-0.054884 0.597968 -0.096270
-0.050057 0.598434 -0.096085
-0.045049 0.598464 -0.095792
-0.039870 0.598062 -0.095392
-0.034725 0.597679 -0.095004
-0.029773 0.597684 -0.094724
-0.025443 0.599092 -0.094817
-0.022562 0.603911 -0.095805
-0.020503 0.610782 -0.097332
-0.015405 0.610416 -0.096976
-0.009896 0.608981 -0.096347
-0.003549 0.605374 -0.095161
0.004291 0.597850 -0.092965
0.008468 0.599452 -0.093147
0.013183 0.599657 -0.092971
0.018436 0.598408 -0.092424
0.023496 0.597590 -0.091994
0.027478 0.599627 -0.092308
0.032618 0.598495 -0.091809
0.038982 0.593868 -0.090414
0.040391 0.603093 -0.092596
0.045982 0.600530 -0.091743
0.051831 0.597092 -0.090673
0.055701 0.599369 -0.091078
0.058298 0.605508 -0.092479
0.064109 0.601968 -0.091399
0.067440 0.605977 -0.092262
0.076248 0.592774 -0.088716
0.080671 0.593173 -0.088664
0.085013 0.593804 -0.088677
0.089888 0.592649 -0.088238
0.094007 0.593962 -0.088435
0.095947 0.602771 -0.090553
0.097895 0.611821 -0.092735
0.102016 0.613421 -0.093017
0.107822 0.608925 -0.091750
0.113620 0.604250 -0.090444
0.118313 0.603518 -0.090148
0.123639 0.600289 -0.089223
0.125688 0.609708 -0.091523
0.132651 0.599862 -0.088924
0.139122 0.591575 -0.086729
0.144041 0.589360 -0.086085
0.150087 0.582230 -0.084197
0.152213 0.591739 -0.086545
0.155250 0.597595 -0.087969
0.160113 0.595414 -0.087356
0.163822 0.598436 -0.088070
0.169800 0.590815 -0.086087
0.173670 0.593018 -0.086605
0.176060 0.602654 -0.089014
0.180224 0.603694 -0.089248
0.185484 0.599037 -0.088041
0.190577 0.594991 -0.086995
0.195231 0.593115 -0.086507
0.200094 0.589928 -0.085691
0.203966 0.592290 -0.086289
0.208534 0.590594 -0.085864
0.212861 0.590256 -0.085789
0.215740 0.599070 -0.088043
0.220508 0.596034 -0.087296
0.224998 0.594662 -0.086977
0.229124 0.595711 -0.087279
0.233653 0.593902 -0.086862
0.237874 0.594251 -0.086998
0.242193 0.593845 -0.086949
0.245463 0.601872 -0.089049
0.250236 0.597885 -0.088103
0.254343 0.599393 -0.088559
0.258318 0.602227 -0.089359
0.263039 0.598169 -0.088411
0.266860 0.602747 -0.089667
0.270965 0.604778 -0.090282
0.275280 0.604691 -0.090363
0.279639 0.604076 -0.090315
0.283818 0.605623 -0.090824
0.288100 0.605991 -0.091037
0.292435 0.605679 -0.091083
0.296978 0.602136 -0.090308
0.301783 0.593752 -0.088299
0.306222 0.590436 -0.087588
0.309992 0.599541 -0.090058
0.314755 0.589159 -0.087545
0.318963 0.589680 -0.087826
0.323017 0.594488 -0.089209
0.327457 0.588683 -0.087872
0.331613 0.591162 -0.088662
0.335796 0.593458 -0.089407
0.340006 0.595285 -0.090033
0.344253 0.595288 -0.090190
0.348462 0.599637 -0.091465
0.352727 0.598033 -0.091206
0.356974 0.598321 -0.091432
0.361228 0.600371 -0.092109
0.365466 0.599935 -0.092141
0.369588 0.593022 -0.090494
0.373679 0.588269 -0.089397
0.377827 0.588073 -0.089470
0.382005 0.589349 -0.089915
0.386202 0.591266 -0.090516
0.390453 0.594539 -0.091459
0.394497 0.592805 -0.091093
0.398212 0.585084 -0.089162
0.401942 0.579365 -0.087736
0.406384 0.587305 -0.089834
0.411224 0.600865 -0.093373
0.415555 0.605411 -0.094559
0.419305 0.601659 -0.093574
0.423112 0.599516 -0.092988
0.426965 0.598615 -0.092702
0.431292 0.603828 -0.093980
0.433800 0.588493 -0.089914
0.437748 0.590443 -0.090303
0.441323 0.588803 -0.089740
0.444918 0.587908 -0.089347
0.448497 0.587332 -0.089014
0.451835 0.585004 -0.088205
0.454892 0.580772 -0.086883
0.458349 0.580606 -0.086587
0.463218 0.592416 -0.089347
0.467890 0.602298 -0.091581
0.470796 0.598342 -0.090235
0.472523 0.586133 -0.086756
0.474788 0.578873 -0.084530
0.478624 0.583492 -0.085320
0.482570 0.588970 -0.086303
0.487294 0.599774 -0.088614
-0.614050 0.583829 -0.144701
-0.610336 0.586450 -0.145634
-0.606363 0.588928 -0.146481
-0.600209 0.589491 -0.146670
-0.590696 0.587006 -0.145833
-0.589579 0.592374 -0.147492
-0.584817 0.594448 -0.148045
-0.578617 0.595243 -0.148143
-0.573742 0.597364 -0.148627
-0.563518 0.594419 -0.147435
-0.553403 0.591578 -0.146239
-0.549494 0.594799 -0.146954
-0.544426 0.596969 -0.147289
-0.542432 0.602264 -0.148587
-0.525181 0.592398 -0.144986
-0.519328 0.593907 -0.144996
-0.512680 0.594655 -0.144727
-0.504564 0.593928 -0.143954
-0.498589 0.595423 -0.143856
-0.495593 0.600070 -0.144726
-0.487829 0.599779 -0.143999
-0.479419 0.598795 -0.143027
-0.472299 0.599178 -0.142463
-0.464643 0.598980 -0.141693
-0.457632 0.599471 -0.141120
-0.448077 0.597149 -0.139649
-0.443498 0.600305 -0.139873
-0.437677 0.602100 -0.139654
-0.426482 0.597801 -0.137532
-0.420518 0.599380 -0.137225
-0.414824 0.601265 -0.137000
-0.409411 0.603474 -0.136866
-0.402519 0.603940 -0.136189
-0.392774 0.600971 -0.134460
-0.384666 0.599863 -0.133302
-0.378049 0.600492 -0.132673
-0.370936 0.600469 -0.131848
-0.363970 0.600573 -0.131063
-0.357200 0.600865 -0.130339
-0.347932 0.597952 -0.128658
-0.342960 0.600392 -0.128590
-0.336492 0.600894 -0.127945
-0.330343 0.601757 -0.127415
-0.322405 0.600224 -0.126182
-0.316976 0.601921 -0.125915
-0.308930 0.600082 -0.124612
-0.301322 0.598731 -0.123466
-0.295321 0.599482 -0.122948
-0.289781 0.600815 -0.122610
-0.281988 0.598970 -0.121354
-0.275399 0.598715 -0.120575
-0.269027 0.598696 -0.119875
-0.261572 0.597053 -0.118718
-0.255440 0.597231 -0.118099
-0.250423 0.598981 -0.117944
-0.244786 0.599783 -0.117526
-0.238985 0.600289 -0.117033
-0.233304 0.600922 -0.116588
-0.227605 0.601477 -0.116131
-0.221495 0.601343 -0.115490
-0.214741 0.600138 -0.114556
-0.208690 0.599953 -0.113923
-0.202297 0.599154 -0.113129
-0.196353 0.599001 -0.112529
-0.190672 0.599209 -0.112041
-0.185598 0.600361 -0.111828
-0.179655 0.600031 -0.111210
-0.174267 0.600567 -0.110844
-0.168922 0.601128 -0.110495
-0.162742 0.600207 -0.109744
-0.157361 0.600596 -0.109366
-0.151727 0.600491 -0.108862
-0.146402 0.600874 -0.108502
-0.140898 0.600890 -0.108050
-0.135328 0.600729 -0.107558
-0.129452 0.599947 -0.106906
-0.123349 0.598671 -0.106127
-0.118431 0.599536 -0.105945
-0.113624 0.600576 -0.105818
-0.107997 0.600013 -0.105261
-0.102758 0.600137 -0.104900
-0.096595 0.598397 -0.104041
-0.091779 0.599239 -0.103892
-0.087147 0.600421 -0.103842
-0.082068 0.600668 -0.103546
-0.076592 0.600055 -0.103025
-0.070519 0.598132 -0.102158
-0.065309 0.597932 -0.101764
-0.059575 0.596558 -0.101062
-0.054892 0.597374 -0.100956
-0.050341 0.598449 -0.100926
-0.045067 0.597900 -0.100467
-0.039300 0.596183 -0.099702
-0.034269 0.596048 -0.099368
-0.029692 0.596905 -0.099306
-0.024648 0.596649 -0.098952
-0.020116 0.597547 -0.098913
-0.016443 0.600479 -0.099420
-0.012369 0.602469 -0.099681
-0.006830 0.600866 -0.098993
-0.001870 0.600617 -0.098671
0.004069 0.597842 -0.097686
0.009304 0.596745 -0.097153
0.013561 0.598114 -0.097277
0.018861 0.596729 -0.096680
0.023678 0.596549 -0.096406
0.028904 0.595211 -0.095833
0.032698 0.597723 -0.096281
0.036054 0.601490 -0.097063
0.041473 0.599485 -0.096330
0.046525 0.598427 -0.095854
0.051052 0.598828 -0.095766
0.055297 0.600030 -0.095893
0.057045 0.608743 -0.097994
0.061189 0.610362 -0.098239
0.067296 0.605896 -0.096896
0.076475 0.591540 -0.092974
0.080755 0.592391 -0.093036
0.085194 0.592704 -0.092964
0.089852 0.592262 -0.092699
0.094242 0.592668 -0.092661
0.096067 0.601859 -0.094918
0.098837 0.608026 -0.096390
0.103080 0.609135 -0.096548
0.108564 0.605747 -0.095541
0.114168 0.601748 -0.094382
0.119712 0.597780 -0.093237
0.122971 0.602382 -0.094325
0.128065 0.599953 -0.093592
0.133968 0.594158 -0.091991
0.138180 0.594970 -0.092111
0.140726 0.602696 -0.094031
0.145936 0.599412 -0.093099
0.150485 0.598813 -0.092869
0.154275 0.601507 -0.093499
0.158171 0.603808 -0.094033
0.164206 0.596279 -0.092025
0.168626 0.596006 -0.091903
0.173157 0.595150 -0.091636
0.177033 0.597474 -0.092199
0.180435 0.602292 -0.093412
0.184880 0.601876 -0.093277
0.190245 0.596478 -0.091858
0.195476 0.591496 -0.090554
0.199656 0.592148 -0.090713
0.204060 0.591509 -0.090544
0.208507 0.590541 -0.090296
0.212187 0.594221 -0.091258
0.215912 0.597814 -0.092202
0.220181 0.598040 -0.092282
0.224106 0.600585 -0.092969
0.228578 0.599457 -0.092711
0.232895 0.599347 -0.092722
0.237306 0.598511 -0.092552
0.241074 0.602590 -0.093661
0.245694 0.600080 -0.093070
0.249990 0.600078 -0.093135
0.254300 0.599939 -0.093170
0.258295 0.602662 -0.093953
0.262198 0.606505 -0.095034
0.267354 0.598114 -0.092946
0.271035 0.604448 -0.094686
0.275394 0.603901 -0.094645
0.279990 0.600501 -0.093867
0.284006 0.603909 -0.094865
0.288373 0.603102 -0.094773
0.292746 0.602098 -0.094633
0.297288 0.598372 -0.093790
0.301926 0.592465 -0.092381
0.306028 0.595105 -0.093203
0.310091 0.598986 -0.094353
0.314835 0.588999 -0.091887
0.319086 0.588499 -0.091900
0.323272 0.589621 -0.092338
0.327512 0.589320 -0.092407
0.331760 0.588571 -0.092359
0.335812 0.596135 -0.094489
0.340050 0.597017 -0.094870
0.344307 0.596864 -0.094980
0.348551 0.597403 -0.095269
0.352812 0.592756 -0.094195
0.357028 0.592063 -0.094155
0.361238 0.592650 -0.094447
0.365442 0.593084 -0.094694
0.369653 0.594260 -0.095130
0.373844 0.594511 -0.095315
0.377908 0.590145 -0.094277
0.382094 0.591713 -0.094792
0.386320 0.594453 -0.095605
0.390395 0.593166 -0.095346
0.394260 0.587835 -0.094007
0.398395 0.589487 -0.094496
0.402405 0.588964 -0.094397
0.406535 0.591023 -0.094962
0.410597 0.592122 -0.095258
0.414576 0.592253 -0.095279
0.418847 0.596911 -0.096477
0.422715 0.596113 -0.096214
0.426623 0.596341 -0.096202
0.430134 0.592273 -0.095035
0.433749 0.590197 -0.094372
0.437374 0.588832 -0.093874
0.441148 0.589542 -0.093900
0.444677 0.588189 -0.093360
0.448366 0.588861 -0.093328
0.451933 0.588780 -0.093076
0.455544 0.589479 -0.093004
0.459505 0.593498 -0.093777
0.463230 0.595706 -0.094050
0.466830 0.597147 -0.094099
0.469426 0.591108 -0.092172
0.472258 0.587543 -0.090872
0.475489 0.587440 -0.090452
0.479057 0.590091 -0.090726
0.482808 0.594220 -0.091358
-0.611312 0.587846 -0.151392
-0.605317 0.588439 -0.151652
-0.596625 0.586616 -0.151077
-0.589354 0.586138 -0.150904
-0.582854 0.586427 -0.150942
-0.586769 0.596568 -0.154183
-0.584159 0.600730 -0.155411
-0.575398 0.599132 -0.154704
-0.565741 0.596694 -0.153679
-0.550421 0.588773 -0.150815
-0.548286 0.593655 -0.152114
-0.548210 0.600683 -0.154072
-0.543172 0.602934 -0.154423
-0.525080 0.592183 -0.150487
-0.519048 0.593460 -0.150447
-0.514558 0.596356 -0.150897
-0.505758 0.594896 -0.149894
-0.499506 0.596068 -0.149713
-0.494699 0.598784 -0.149999
-0.488316 0.599896 -0.149735
-0.478962 0.597873 -0.148431
-0.468697 0.594836 -0.146779
-0.462362 0.595995 -0.146454
-0.453969 0.594917 -0.145389
-0.448872 0.597443 -0.145457
-0.443745 0.599963 -0.145501
-0.437973 0.601784 -0.145304
-0.430246 0.601396 -0.144391
-0.422270 0.600686 -0.143367
-0.416708 0.602718 -0.143197
-0.409680 0.603041 -0.142479
-0.401652 0.602151 -0.141376
-0.393022 0.600485 -0.140029
-0.385356 0.599897 -0.139017
-0.376638 0.597972 -0.137592
-0.370515 0.599134 -0.137125
-0.363331 0.598953 -0.136243
-0.358039 0.601073 -0.136072
-0.350813 0.600739 -0.135150
-0.341500 0.597683 -0.133402
-0.336699 0.600306 -0.133395
-0.329867 0.600280 -0.132586
-0.323979 0.601428 -0.132141
-0.317106 0.601231 -0.131296
-0.309473 0.599947 -0.130134
-0.301765 0.598472 -0.128925
-0.296070 0.599648 -0.128522
-0.289830 0.600029 -0.127891
-0.282084 0.598254 -0.126629
-0.275066 0.597400 -0.125653
-0.269851 0.599025 -0.125423
-0.263650 0.599201 -0.124775
-0.257488 0.599370 -0.124135
-0.251321 0.599470 -0.123487
-0.245916 0.600632 -0.123161
-0.238461 0.598689 -0.121938
-0.233137 0.599859 -0.121636
-0.226963 0.599692 -0.120956
-0.221284 0.600219 -0.120489
-0.215565 0.600631 -0.119999
-0.208417 0.598738 -0.118855
-0.202941 0.599403 -0.118461
-0.197413 0.599936 -0.118040
-0.192084 0.600742 -0.117707
-0.186323 0.600793 -0.117168
-0.180947 0.601426 -0.116806
-0.175293 0.601544 -0.116308
-0.167919 0.598686 -0.114973
-0.162558 0.599160 -0.114598
-0.157172 0.599544 -0.114206
-0.152347 0.600860 -0.114088
-0.146990 0.601205 -0.113704
-0.141055 0.600465 -0.113024
-0.135253 0.599892 -0.112401
-0.129860 0.600001 -0.111979
-0.124474 0.600070 -0.111555
-0.119213 0.600321 -0.111191
-0.113333 0.599347 -0.110494
-0.108293 0.599911 -0.110235
-0.102598 0.599162 -0.109619
-0.096555 0.597659 -0.108802
-0.091535 0.598100 -0.108534
-0.086860 0.599194 -0.108454
-0.082007 0.599899 -0.108274
-0.076820 0.599886 -0.107902
-0.071147 0.598806 -0.107245
-0.066398 0.599597 -0.107110
-0.059918 0.596667 -0.105960
-0.055283 0.597599 -0.105879
-0.050804 0.598844 -0.105891
-0.046103 0.599583 -0.105769
-0.039124 0.595183 -0.104251
-0.034098 0.595056 -0.103908
-0.029640 0.596186 -0.103914
-0.025121 0.597156 -0.103882
-0.020423 0.597680 -0.103736
-0.015817 0.598392 -0.103646
-0.010993 0.598547 -0.103411
-0.005479 0.596965 -0.102712
-0.000293 0.596113 -0.102217
0.004797 0.595430 -0.101775
0.009092 0.596719 -0.101871
0.013574 0.597513 -0.101839
0.017992 0.598451 -0.101852
0.022849 0.598200 -0.101549
0.027985 0.597144 -0.101036
0.033661 0.594526 -0.100110
0.038116 0.595190 -0.100072
0.042749 0.595327 -0.099897
0.047614 0.594758 -0.099539
0.052477 0.594133 -0.099172
0.056692 0.595366 -0.099308
0.061934 0.593502 -0.098621
0.065519 0.596600 -0.099266
0.069248 0.599310 -0.099811
0.075690 0.593504 -0.098089
0.080700 0.592055 -0.097537
0.085176 0.592258 -0.097430
0.089603 0.592588 -0.097362
0.094591 0.590996 -0.096789
0.099624 0.589150 -0.096154
0.103332 0.591829 -0.096727
0.107321 0.593565 -0.097055
0.110075 0.599794 -0.098580
0.115809 0.595223 -0.097244
0.120354 0.594905 -0.097042
0.124683 0.595366 -0.097053
0.129331 0.594559 -0.096733
0.134083 0.593264 -0.096289
0.139032 0.591076 -0.095616
0.142670 0.594201 -0.096354
0.146155 0.598070 -0.097294
0.151269 0.595014 -0.096408
0.153537 0.604380 -0.098812
0.159914 0.595544 -0.096410
0.163608 0.598676 -0.097177
0.168068 0.598295 -0.097022
0.173101 0.595086 -0.096126
0.177702 0.593829 -0.095752
0.181303 0.597563 -0.096701
0.185587 0.597895 -0.096759
0.190511 0.594781 -0.095913
0.195155 0.593006 -0.095426
0.199606 0.592200 -0.095202
0.203784 0.592900 -0.095380
0.208021 0.593263 -0.095477
0.212498 0.592142 -0.095188
0.215885 0.597845 -0.096705
0.219910 0.599711 -0.097217
0.224603 0.597145 -0.096566
0.228836 0.597609 -0.096720
0.233545 0.594631 -0.095972
0.237726 0.595382 -0.096214
0.241944 0.595881 -0.096396
0.246620 0.592696 -0.095612
0.250486 0.596057 -0.096563
0.254679 0.596823 -0.096834
0.259285 0.593845 -0.096122
0.263738 0.592049 -0.095727
0.268161 0.590372 -0.095370
0.272520 0.589197 -0.095151
0.276780 0.588982 -0.095191
0.281031 0.588842 -0.095257
0.285211 0.589570 -0.095557
0.289450 0.589591 -0.095676
0.293495 0.592365 -0.096529
0.297902 0.590014 -0.096027
0.302242 0.588390 -0.095722
0.306403 0.589681 -0.096194
0.310508 0.592265 -0.097014
0.314890 0.589409 -0.096391
0.319161 0.588522 -0.096293
0.323393 0.588425 -0.096407
0.327621 0.588331 -0.096524
0.331904 0.586080 -0.096065
0.336111 0.586156 -0.096228
0.340282 0.588058 -0.096877
0.344512 0.586407 -0.096576
0.348705 0.586730 -0.096801
0.352894 0.587557 -0.097157
0.357081 0.587649 -0.097313
0.361272 0.589499 -0.097935
0.365450 0.589392 -0.098027
0.369625 0.589943 -0.098289
0.373833 0.592395 -0.099053
0.377803 0.585099 -0.097194
0.382035 0.589360 -0.098424
0.386208 0.591240 -0.099004
0.390237 0.589500 -0.098601
0.394147 0.585873 -0.097677
0.398339 0.589208 -0.098609
0.402474 0.591352 -0.099204
0.406482 0.591414 -0.099224
0.410315 0.589089 -0.098585
0.414189 0.588134 -0.098296
0.418154 0.589026 -0.098483
0.422270 0.592256 -0.099277
0.426038 0.591202 -0.098899
0.429869 0.591444 -0.098848
0.433508 0.589922 -0.098302
0.437147 0.588971 -0.097886
0.440787 0.588527 -0.097583
0.444487 0.589133 -0.097537
0.448158 0.589826 -0.097491
0.451776 0.590382 -0.097384
0.455269 0.590196 -0.097056
0.458807 0.590793 -0.096912
0.462463 0.592711 -0.097096
0.465866 0.592861 -0.096786
0.469279 0.593445 -0.096567
0.472173 0.590431 -0.095374
0.476264 0.596735 -0.096623
0.479259 0.595203 -0.095778
0.482040 0.592586 -0.094629
-0.605968 0.589534 -0.157315
-0.599709 0.589909 -0.157485
-0.586970 0.584336 -0.155620
-0.588217 0.591799 -0.158085
-0.587042 0.597145 -0.159798
-0.583134 0.600031 -0.160645
-0.577568 0.601426 -0.160949
-0.563424 0.594637 -0.158472
-0.558789 0.597008 -0.159021
-0.545640 0.591139 -0.156775
-0.538692 0.591326 -0.156513
-0.540347 0.600098 -0.159074
-0.521735 0.588754 -0.154892
-0.518146 0.592420 -0.155673
-0.512224 0.593800 -0.155654
-0.506311 0.595237 -0.155618
-0.500344 0.596661 -0.155542
-0.494663 0.598426 -0.155545
-0.486950 0.598091 -0.154823
-0.479078 0.597588 -0.154018
-0.471115 0.596982 -0.153154
-0.461017 0.594051 -0.151505
-0.455814 0.596408 -0.151562
-0.450298 0.598452 -0.151494
-0.442994 0.598530 -0.150765
-0.434178 0.596893 -0.149464
-0.427264 0.597358 -0.148830
-0.421700 0.599348 -0.148673
-0.415518 0.600631 -0.148276
-0.406262 0.598322 -0.146717
-0.399506 0.598870 -0.146067
-0.392969 0.599650 -0.145485
-0.384955 0.598626 -0.144326
-0.377857 0.598646 -0.143496
-0.370476 0.598270 -0.142542
-0.364403 0.599449 -0.142078
-0.357389 0.599424 -0.141236
-0.352313 0.601782 -0.141143
-0.343717 0.599652 -0.139652
-0.334976 0.597234 -0.138080
-0.330335 0.600026 -0.138133
-0.324478 0.601217 -0.137694
-0.317677 0.601119 -0.136863
-0.311698 0.602055 -0.136359
-0.306108 0.603470 -0.136009
-0.297177 0.600292 -0.134263
-0.291087 0.600896 -0.133685
-0.285045 0.601514 -0.133121
-0.278606 0.601520 -0.132380
-0.270667 0.599331 -0.130988
-0.264745 0.599922 -0.130448
-0.258790 0.600412 -0.129888
-0.252288 0.600046 -0.129082
-0.244877 0.598262 -0.127865
-0.238995 0.598659 -0.127312
-0.233033 0.598880 -0.126718
-0.225841 0.597164 -0.125560
-0.220867 0.598766 -0.125399
-0.215876 0.600312 -0.125230
-0.207507 0.596509 -0.123495
-0.202689 0.598212 -0.123395
-0.198115 0.600280 -0.123410
-0.192514 0.600663 -0.122942
-0.186578 0.600442 -0.122307
-0.181088 0.600896 -0.121880
-0.175477 0.601095 -0.121390
-0.168486 0.598900 -0.120215
-0.162421 0.598184 -0.119482
-0.157271 0.598979 -0.119196
-0.152256 0.599969 -0.118976
-0.147071 0.600625 -0.118668
-0.140670 0.599058 -0.117732
-0.135231 0.599142 -0.117280
-0.129944 0.599451 -0.116901
-0.124673 0.599740 -0.116527
-0.119455 0.600080 -0.116175
-0.113773 0.599495 -0.115569
-0.107763 0.598213 -0.114775
-0.102254 0.597821 -0.114242
-0.097109 0.598077 -0.113903
-0.091959 0.598279 -0.113556
-0.086654 0.598123 -0.113116
-0.081878 0.598985 -0.112972
-0.077069 0.599747 -0.112806
-0.071922 0.599776 -0.112442
-0.066145 0.598427 -0.111699
-0.060889 0.598105 -0.111252
-0.055887 0.598273 -0.110950
-0.051192 0.599068 -0.110831
-0.045667 0.597997 -0.110197
-0.039876 0.596254 -0.109384
-0.034361 0.595047 -0.108729
-0.030111 0.596663 -0.108866
-0.024866 0.595961 -0.108365
-0.020163 0.596469 -0.108206
-0.015464 0.596954 -0.108048
-0.010051 0.595676 -0.107408
-0.004959 0.595106 -0.106971
0.000690 0.593087 -0.106141
0.005257 0.593696 -0.106043
0.009620 0.594796 -0.106085
0.013641 0.596768 -0.106373
0.017907 0.598107 -0.106492
0.022811 0.597741 -0.106149
0.028289 0.595762 -0.105369
0.033490 0.594445 -0.104777
0.038275 0.594199 -0.104486
0.042954 0.594202 -0.104268
0.047620 0.594201 -0.104055
0.052402 0.593818 -0.103743
0.057133 0.593528 -0.103463
0.061134 0.595381 -0.103772
0.065191 0.597077 -0.104044
0.069744 0.597248 -0.103906
0.075191 0.594562 -0.102996
0.080056 0.593610 -0.102564
0.084826 0.592894 -0.102203
0.089566 0.592214 -0.101857
0.093954 0.592650 -0.101819
0.098368 0.592974 -0.101757
0.103054 0.592319 -0.101435
0.107449 0.592634 -0.101381
0.110526 0.597691 -0.102617
0.115934 0.594299 -0.101571
0.120704 0.593138 -0.101135
0.125032 0.593584 -0.101139
0.129452 0.593649 -0.101046
0.134294 0.591995 -0.100495
0.138522 0.592732 -0.100595
0.142566 0.594223 -0.100904
0.147448 0.592192 -0.100269
0.152727 0.588321 -0.099145
0.156537 0.590736 -0.099720
0.160553 0.592292 -0.100070
0.164807 0.592782 -0.100139
0.169793 0.589798 -0.099278
0.174376 0.588590 -0.098902
0.178384 0.590140 -0.099274
0.182398 0.591705 -0.099656
0.186418 0.593287 -0.100048
0.190706 0.593484 -0.100074
0.195282 0.592079 -0.099676
0.199666 0.591654 -0.099547
0.203901 0.592037 -0.099642
0.208201 0.592029 -0.099638
0.212534 0.591788 -0.099577
0.216984 0.590761 -0.099312
0.221464 0.589452 -0.098976
0.225249 0.592730 -0.099882
0.229905 0.590118 -0.099208
0.234080 0.590787 -0.099424
0.238704 0.588111 -0.098746
0.242929 0.588318 -0.098850
0.247063 0.589264 -0.099159
0.251455 0.588090 -0.098903
0.255821 0.587042 -0.098687
0.260082 0.586839 -0.098704
0.264245 0.587549 -0.098974
0.268265 0.589757 -0.099653
0.272499 0.589908 -0.099783
0.276939 0.587767 -0.099300
0.281157 0.588004 -0.099464
0.285236 0.589982 -0.100103
0.289291 0.592518 -0.100898
0.293719 0.590111 -0.100361
0.297966 0.590079 -0.100471
0.302335 0.588023 -0.100037
0.306574 0.587929 -0.100137
0.310718 0.589632 -0.100726
0.314979 0.589125 -0.100720
0.319246 0.588345 -0.100642
0.323487 0.587958 -0.100671
0.327692 0.588545 -0.100965
0.331933 0.587866 -0.100917
0.336160 0.587314 -0.100902
0.340385 0.586365 -0.100777
0.344573 0.587141 -0.101120
0.348777 0.586105 -0.100967
0.352960 0.586187 -0.101115
0.357143 0.590926 -0.102527
0.361293 0.584878 -0.100994
0.365473 0.587625 -0.101851
0.369642 0.588855 -0.102288
0.373813 0.590220 -0.102753
0.377914 0.588917 -0.102480
0.382018 0.588686 -0.102489
0.386107 0.588588 -0.102522
0.390172 0.588415 -0.102521
0.394186 0.587611 -0.102334
0.398061 0.584575 -0.101521
0.402389 0.591086 -0.103302
0.406307 0.589893 -0.102959
0.410055 0.586612 -0.102027
0.413934 0.586189 -0.101857
0.417894 0.587427 -0.102122
0.421802 0.588270 -0.102257
0.425718 0.589557 -0.102491
0.429490 0.589454 -0.102324
0.433255 0.589706 -0.102231
0.436850 0.588529 -0.101726
0.440424 0.587659 -0.101281
0.444191 0.589197 -0.101469
0.447740 0.588948 -0.101146
0.451057 0.586989 -0.100336
0.454607 0.587635 -0.100209
0.457998 0.587259 -0.099783
0.461147 0.585275 -0.098898
0.464925 0.588853 -0.099494
0.468357 0.589881 -0.099376
0.471161 0.586438 -0.098034
0.473871 0.582838 -0.096632
0.478020 0.590107 -0.098123
-0.602802 0.587169 -0.161778
-0.601352 0.591913 -0.163460
-0.594128 0.591419 -0.163314
-0.588441 0.592407 -0.163634
-0.585902 0.596426 -0.164947
-0.580595 0.597930 -0.165360
-0.571806 0.596180 -0.164621
-0.570205 0.601370 -0.166206
-0.549737 0.588386 -0.161558
-0.543187 0.588848 -0.161452
-0.543238 0.595862 -0.163532
-0.527941 0.587782 -0.160443
-0.524293 0.591270 -0.161244
-0.516547 0.590712 -0.160634
-0.511196 0.592609 -0.160818
-0.505376 0.594084 -0.160820
-0.499849 0.595908 -0.160905
-0.493083 0.596487 -0.160535
-0.485607 0.596341 -0.159890
-0.479041 0.597170 -0.159541
-0.472136 0.597656 -0.159049
-0.465148 0.598060 -0.158503
-0.457707 0.597974 -0.157768
-0.448712 0.596166 -0.156441
-0.442309 0.597196 -0.156035
-0.436036 0.598372 -0.155658
-0.424966 0.594119 -0.153475
-0.419836 0.596551 -0.153481
-0.413231 0.597298 -0.152919
-0.404858 0.595969 -0.151667
-0.398655 0.597129 -0.151219
-0.392701 0.598569 -0.150854
-0.386202 0.599341 -0.150265
-0.378659 0.598821 -0.149255
-0.371951 0.599262 -0.148553
-0.364436 0.598666 -0.147518
-0.359306 0.600977 -0.147414
-0.351789 0.600277 -0.146349
-0.345498 0.601063 -0.145761
-0.336339 0.598127 -0.143996
-0.329719 0.598363 -0.143245
-0.325884 0.602188 -0.143631
-0.318623 0.601499 -0.142599
-0.311914 0.601470 -0.141783
-0.305603 0.601913 -0.141123
-0.299824 0.603025 -0.140681
-0.291921 0.601171 -0.139324
-0.286323 0.602419 -0.138942
-0.279982 0.602584 -0.138233
-0.272516 0.601090 -0.137024
-0.264935 0.599335 -0.135749
-0.258336 0.598899 -0.134891
-0.251917 0.598652 -0.134103
-0.245839 0.598839 -0.133460
-0.240459 0.600005 -0.133126
-0.235217 0.601340 -0.132852
-0.225961 0.596520 -0.130726
-0.220971 0.598104 -0.130552
-0.216307 0.600165 -0.130531
-0.209559 0.598929 -0.129527
-0.202395 0.596943 -0.128312
-0.198081 0.599430 -0.128449
-0.192752 0.600259 -0.128100
-0.186649 0.599775 -0.127369
-0.180751 0.599560 -0.126730
-0.174997 0.599520 -0.126154
-0.168644 0.598405 -0.125271
-0.163130 0.598642 -0.124799
-0.157589 0.598780 -0.124309
-0.151714 0.598278 -0.123640
-0.146333 0.598580 -0.123218
-0.141571 0.599941 -0.123116
-0.135971 0.599759 -0.122571
-0.129808 0.598485 -0.121717
-0.124332 0.598399 -0.121221
-0.119268 0.599026 -0.120941
-0.114412 0.600007 -0.120772
-0.107999 0.597975 -0.119739
-0.102676 0.597953 -0.119298
-0.097642 0.598444 -0.119014
-0.092437 0.598554 -0.118628
-0.086798 0.597745 -0.117987
-0.081692 0.597945 -0.117644
-0.077081 0.599115 -0.117587
-0.071871 0.599018 -0.117175
-0.066115 0.597717 -0.116426
-0.061178 0.598079 -0.116162
-0.056307 0.598544 -0.115933
-0.051104 0.598245 -0.115495
-0.045686 0.597412 -0.114912
-0.040357 0.596711 -0.114375
-0.035277 0.596508 -0.113986
-0.030470 0.596878 -0.113768
-0.026268 0.598615 -0.113942
-0.019634 0.594620 -0.112503
-0.015311 0.595991 -0.112588
-0.011017 0.597421 -0.112695
-0.004763 0.594036 -0.111451
0.000463 0.593068 -0.110897
0.005371 0.592828 -0.110554
0.009608 0.594251 -0.110685
0.013431 0.596740 -0.111119
0.017842 0.597708 -0.111133
0.022729 0.597394 -0.110794
0.028297 0.595181 -0.109929
0.033282 0.594460 -0.109489
0.038052 0.594270 -0.109204
0.042641 0.594541 -0.109053
0.047432 0.594199 -0.108737
0.052196 0.593879 -0.108434
0.056827 0.593902 -0.108232
0.061118 0.594900 -0.108306
0.065385 0.595963 -0.108404
0.070602 0.594070 -0.107688
0.074989 0.594690 -0.107674
0.080075 0.593044 -0.107039
0.084793 0.592504 -0.106716
0.089468 0.592046 -0.106422
0.094117 0.591617 -0.106142
0.098365 0.592505 -0.106232
0.102516 0.593723 -0.106418
0.106726 0.594737 -0.106553
0.111914 0.592207 -0.105717
0.116555 0.591558 -0.105405
0.120917 0.591892 -0.105371
0.125340 0.591967 -0.105271
0.129764 0.592004 -0.105166
0.134210 0.591911 -0.105031
0.138506 0.592389 -0.105060
0.143209 0.591162 -0.104625
0.147693 0.590771 -0.104427
0.152137 0.590502 -0.104268
0.156569 0.590232 -0.104115
0.160935 0.590217 -0.104038
0.165405 0.589683 -0.103825
0.170052 0.588256 -0.103373
0.174325 0.588535 -0.103395
0.177831 0.592599 -0.104461
0.182410 0.591378 -0.104084
0.186693 0.591606 -0.104110
0.190936 0.592027 -0.104196
0.195501 0.590672 -0.103802
0.199912 0.590082 -0.103623
0.204246 0.589876 -0.103555
0.208542 0.589854 -0.103545
0.212787 0.590124 -0.103621
0.216878 0.591359 -0.103968
0.221314 0.590388 -0.103716
0.225898 0.588325 -0.103172
0.229869 0.590393 -0.103766
0.234322 0.589089 -0.103442
0.238766 0.587737 -0.103111
0.243022 0.587733 -0.103156
0.247305 0.587486 -0.103140
0.251008 0.592092 -0.104462
0.255324 0.591693 -0.104417
0.259586 0.591728 -0.104497
0.264235 0.588043 -0.103561
0.268482 0.588027 -0.103638
0.272704 0.588267 -0.103790
0.276627 0.591861 -0.104870
0.280988 0.590673 -0.104641
0.285064 0.592901 -0.105356
0.289327 0.592915 -0.105466
0.293706 0.591264 -0.105122
0.298102 0.589081 -0.104636
0.302383 0.588435 -0.104575
0.306642 0.588042 -0.104587
0.310857 0.588404 -0.104811
0.315089 0.588443 -0.104947
0.319332 0.588142 -0.104991
0.323533 0.588848 -0.105314
0.327735 0.589625 -0.105657
0.331995 0.588391 -0.105444
0.336239 0.587120 -0.105219
0.340439 0.587335 -0.105404
0.344651 0.586351 -0.105254
0.348839 0.586286 -0.105355
0.353020 0.585666 -0.105297
0.357187 0.585889 -0.105468
0.361371 0.589938 -0.106695
0.365480 0.584981 -0.105414
0.369660 0.588198 -0.106395
0.373812 0.589323 -0.106785
0.377914 0.588661 -0.106669
0.381996 0.588154 -0.106583
0.386062 0.587869 -0.106546
0.390110 0.587712 -0.106532
0.394117 0.587177 -0.106396
0.398207 0.588959 -0.106890
0.402215 0.589358 -0.106981
0.406106 0.588165 -0.106612
0.409943 0.586744 -0.106160
0.413795 0.586209 -0.105936
0.417746 0.587604 -0.106227
0.421567 0.587566 -0.106098
0.425389 0.587995 -0.106077
0.429187 0.588539 -0.106066
0.432872 0.588190 -0.105784
0.436528 0.587994 -0.105521
0.440292 0.589364 -0.105669
0.443852 0.589004 -0.105314
0.447210 0.587153 -0.104524
0.450675 0.586834 -0.104134
0.454112 0.586686 -0.103768
0.457451 0.586086 -0.103254
0.460781 0.585835 -0.102814
0.464121 0.586052 -0.102480
0.467654 0.588125 -0.102632
0.470540 0.585508 -0.101479
0.473009 0.580280 -0.099596
-0.599979 0.591170 -0.168471
-0.593382 0.591204 -0.168526
-0.578645 0.583683 -0.165915
-0.583510 0.594563 -0.169656
-0.580753 0.598422 -0.170917
-0.574474 0.599022 -0.171004
-0.559957 0.591748 -0.168317
-0.546917 0.585842 -0.166066
-0.544238 0.590017 -0.167270
-0.532014 0.584893 -0.165213
-0.531087 0.590949 -0.166984
-0.524197 0.591166 -0.166696
-0.519766 0.593902 -0.167237
-0.510656 0.591952 -0.166124
-0.505929 0.594493 -0.166521
-0.499136 0.594962 -0.166169
-0.493189 0.596342 -0.166094
-0.485259 0.595674 -0.165284
-0.478373 0.596114 -0.164823
-0.470935 0.595977 -0.164135
-0.465020 0.597488 -0.163980
-0.461864 0.602035 -0.164827
-0.449097 0.596079 -0.162090
-0.441604 0.595863 -0.161278
-0.429076 0.589985 -0.158542
-0.423709 0.592083 -0.158476
-0.419127 0.595095 -0.158696
-0.415496 0.599235 -0.159274
-0.407726 0.598606 -0.158245
-0.399454 0.597343 -0.156998
-0.391558 0.596465 -0.155872
-0.384533 0.596574 -0.155068
-0.378983 0.598426 -0.154832
-0.371924 0.598426 -0.153983
-0.365165 0.598748 -0.153238
-0.357502 0.597901 -0.152110
-0.354935 0.603389 -0.153047
-0.346175 0.601071 -0.151444
-0.338105 0.599534 -0.150102
-0.330841 0.598953 -0.149075
-0.325539 0.600865 -0.148858
-0.320973 0.603727 -0.148947
-0.311874 0.600538 -0.147105
-0.305258 0.600568 -0.146303
-0.297840 0.599443 -0.145142
-0.291893 0.600254 -0.144606
-0.286268 0.601464 -0.144205
-0.279967 0.601686 -0.143500
-0.272143 0.599689 -0.142108
-0.264374 0.597664 -0.140721
-0.258176 0.597804 -0.140026
-0.252614 0.598812 -0.139612
-0.246579 0.599076 -0.138977
-0.241188 0.600241 -0.138632
-0.235960 0.601611 -0.138361
-0.226809 0.596974 -0.136244
-0.221181 0.597595 -0.135765
-0.216226 0.599211 -0.135603
-0.212240 0.602320 -0.135908
-0.206310 0.602347 -0.135277
-0.198419 0.599164 -0.133678
-0.192869 0.599646 -0.133212
-0.186871 0.599344 -0.132517
-0.180594 0.598512 -0.131673
-0.174742 0.598312 -0.131033
-0.169296 0.598734 -0.130592
-0.163487 0.598487 -0.129960
-0.158226 0.599122 -0.129603
-0.151559 0.597254 -0.128506
-0.146399 0.597951 -0.128189
-0.141932 0.599846 -0.128240
-0.136679 0.600304 -0.127869
-0.130512 0.599046 -0.126998
-0.124921 0.598768 -0.126429
-0.120204 0.600062 -0.126336
-0.114397 0.599270 -0.125634
-0.109051 0.599286 -0.125180
-0.103266 0.598401 -0.124470
-0.098259 0.598962 -0.124195
-0.093216 0.599414 -0.123897
-0.086841 0.597154 -0.122811
-0.082114 0.598129 -0.122684
-0.077142 0.598573 -0.122409
-0.071134 0.596826 -0.121502
-0.066286 0.597422 -0.121287
-0.061329 0.597752 -0.121003
-0.056296 0.597876 -0.120667
-0.051309 0.598052 -0.120353
-0.046162 0.597831 -0.119932
-0.040620 0.596671 -0.119246
-0.035671 0.596778 -0.118935
-0.031053 0.597595 -0.118837
-0.025338 0.595838 -0.118003
-0.019464 0.593613 -0.117042
-0.015339 0.595454 -0.117259
-0.012539 0.600501 -0.118404
-0.005283 0.594718 -0.116443
-0.000922 0.595919 -0.116496
0.005477 0.591979 -0.115081
0.009352 0.594324 -0.115474
0.013043 0.597167 -0.116015
0.017824 0.597183 -0.115753
0.023022 0.596046 -0.115168
0.027792 0.595983 -0.114897
0.033077 0.594464 -0.114217
0.038029 0.593782 -0.113783
0.042602 0.594104 -0.113640
0.046852 0.595320 -0.113757
0.052067 0.593719 -0.113081
0.056887 0.593193 -0.112716
0.061144 0.594295 -0.112819
0.066763 0.591239 -0.111750
0.071396 0.591094 -0.111512
0.075828 0.591536 -0.111446
0.080217 0.592086 -0.111416
0.084838 0.591862 -0.111174
0.089755 0.590605 -0.110646
0.094408 0.590152 -0.110351
0.098590 0.591258 -0.110501
0.102823 0.592184 -0.110606
0.107817 0.590399 -0.109955
0.112547 0.589463 -0.109548
0.116791 0.590242 -0.109630
0.121207 0.590366 -0.109534
0.125805 0.589763 -0.109239
0.130357 0.589270 -0.108982
0.134493 0.590381 -0.109180
0.138864 0.590539 -0.109117
0.143224 0.590716 -0.109065
0.147799 0.589953 -0.108757
0.152306 0.589410 -0.108516
0.156914 0.588364 -0.108141
0.161144 0.588940 -0.108226
0.165483 0.589007 -0.108174
0.169961 0.588383 -0.107936
0.173146 0.593960 -0.109436
0.177944 0.591770 -0.108773
0.182427 0.591042 -0.108524
0.186790 0.590872 -0.108438
0.191053 0.591193 -0.108495
0.195464 0.590689 -0.108328
0.200005 0.589397 -0.107948
0.204311 0.589358 -0.107924
0.208346 0.590922 -0.108353
0.213014 0.588644 -0.107717
0.217263 0.588866 -0.107784
0.221502 0.589140 -0.107873
0.225803 0.588988 -0.107849
0.229977 0.589692 -0.108071
0.234445 0.588287 -0.107710
0.238830 0.587392 -0.107497
0.243061 0.587601 -0.107599
0.247184 0.588692 -0.107954
0.251530 0.587965 -0.107806
0.255514 0.590342 -0.108532
0.259869 0.589515 -0.108368
0.264427 0.586637 -0.107636
0.268793 0.585405 -0.107370
0.272951 0.586226 -0.107683
0.276853 0.589986 -0.108824
0.280920 0.592209 -0.109541
0.285207 0.591930 -0.109561
0.289494 0.591606 -0.109573
0.293858 0.590104 -0.109258
0.298214 0.588489 -0.108915
0.302504 0.587692 -0.108804
0.306692 0.588522 -0.109153
0.310918 0.588745 -0.109333
0.315192 0.587906 -0.109216
0.319420 0.587914 -0.109339
0.323616 0.588714 -0.109685
0.327857 0.588214 -0.109665
0.332050 0.589112 -0.110038
0.336290 0.588072 -0.109864
0.340522 0.586522 -0.109542
0.344680 0.589205 -0.110411
0.348910 0.584726 -0.109255
0.353073 0.585871 -0.109681
0.357242 0.590847 -0.111183
0.361367 0.583518 -0.109203
0.365492 0.583420 -0.109256
0.369655 0.586662 -0.110245
0.373822 0.589374 -0.111073
0.377908 0.588563 -0.110895
0.381979 0.588119 -0.110807
0.386089 0.589513 -0.111226
0.390075 0.587982 -0.110802
0.394047 0.586979 -0.110513
0.398092 0.588206 -0.110837
0.402088 0.588795 -0.110963
0.406007 0.588454 -0.110808
0.409940 0.588885 -0.110851
0.413739 0.587720 -0.110423
0.417399 0.585198 -0.109591
0.421576 0.590345 -0.110902
0.425117 0.587355 -0.109895
0.428803 0.586854 -0.109567
0.432587 0.587979 -0.109675
0.436305 0.588717 -0.109649
0.440038 0.589985 -0.109750
0.443370 0.587548 -0.108785
0.446788 0.586550 -0.108202
0.450273 0.586650 -0.107904
0.453551 0.585294 -0.107176
0.456955 0.585496 -0.106861
0.460228 0.584972 -0.106320
0.463808 0.587336 -0.106562
0.467044 0.587219 -0.106090
0.470106 0.586117 -0.105324
0.472790 0.582606 -0.103872
-0.592649 0.591037 -0.173717
-0.586247 0.591257 -0.173818
-0.571614 0.583779 -0.171157
-0.579920 0.598009 -0.176126
-0.575236 0.600081 -0.176758
-0.553743 0.586043 -0.171660
-0.552118 0.591117 -0.173269
-0.542445 0.588443 -0.172104
-0.538244 0.591162 -0.172799
-0.529116 0.589070 -0.171759
-0.526237 0.593237 -0.172882
-0.520395 0.594515 -0.172948
-0.512204 0.593455 -0.172154
-0.505475 0.593905 -0.171853
-0.500605 0.596311 -0.172199
-0.490526 0.593343 -0.170632
-0.484770 0.594892 -0.170608
-0.475138 0.592365 -0.169134
-0.468081 0.592562 -0.168578
-0.463044 0.594950 -0.168753
-0.456044 0.595243 -0.168172
-0.450151 0.596755 -0.167987
-0.441403 0.595119 -0.166695
-0.428005 0.588231 -0.163583
-0.423080 0.590782 -0.163693
-0.420524 0.596065 -0.164713
-0.415558 0.598649 -0.164791
-0.409876 0.600422 -0.164576
-0.400566 0.597939 -0.162906
-0.389190 0.592926 -0.160378
-0.382383 0.593247 -0.159647
-0.377826 0.596253 -0.159811
-0.373275 0.599281 -0.159972
-0.366137 0.599135 -0.159066
-0.359392 0.599428 -0.158305
-0.350979 0.597582 -0.156835
-0.345903 0.599877 -0.156739
-0.338669 0.599400 -0.155728
-0.332784 0.600602 -0.155273
-0.326615 0.601399 -0.154689
-0.320298 0.601958 -0.154031
-0.313080 0.601265 -0.152971
-0.304413 0.598548 -0.151261
-0.297227 0.597727 -0.150180
-0.291975 0.599483 -0.149942
-0.286580 0.601012 -0.149636
-0.279567 0.600241 -0.148598
-0.271497 0.597894 -0.147067
-0.263939 0.596167 -0.145748
-0.258756 0.597769 -0.145505
-0.253286 0.598922 -0.145127
-0.246835 0.598588 -0.144287
-0.241204 0.599404 -0.143823
-0.233787 0.597484 -0.142505
-0.227073 0.596528 -0.141505
-0.221520 0.597273 -0.141053
-0.216709 0.599122 -0.140957
-0.212111 0.601281 -0.140967
-0.206256 0.601430 -0.140358
-0.200150 0.601118 -0.139617
-0.193223 0.599406 -0.138454
-0.186729 0.598304 -0.137494
-0.180672 0.597841 -0.136744
-0.175093 0.598107 -0.136230
-0.170154 0.599400 -0.136043
-0.165059 0.600395 -0.135774
-0.157749 0.597525 -0.134331
-0.152282 0.597754 -0.133849
-0.147140 0.598503 -0.133536
-0.142240 0.599642 -0.133352
-0.136900 0.599957 -0.132926
-0.131173 0.599515 -0.132280
-0.125459 0.599029 -0.131631
-0.120335 0.599581 -0.131306
-0.115059 0.599802 -0.130891
-0.109208 0.598874 -0.130139
-0.103795 0.598717 -0.129629
-0.098431 0.598598 -0.129140
-0.093581 0.599442 -0.128948
-0.088385 0.599559 -0.128547
-0.082243 0.597708 -0.127567
-0.076953 0.597510 -0.127090
-0.071832 0.597604 -0.126709
-0.066267 0.596718 -0.126045
-0.061002 0.596397 -0.125558
-0.056149 0.596907 -0.125325
-0.051611 0.598062 -0.125291
-0.046265 0.597417 -0.124731
-0.040835 0.596515 -0.124104
-0.035744 0.596312 -0.123692
-0.031224 0.597362 -0.123656
-0.025892 0.596506 -0.123066
-0.020780 0.596096 -0.122615
-0.018230 0.601739 -0.123946
-0.016146 0.608608 -0.125641
-0.009746 0.605047 -0.124285
-0.000204 0.593544 -0.120618
0.003508 0.596345 -0.121141
0.007621 0.598156 -0.121381
0.013080 0.596491 -0.120614
0.017730 0.596856 -0.120445
0.023966 0.592962 -0.119044
0.029198 0.591622 -0.118394
0.032257 0.596152 -0.119454
0.036893 0.596388 -0.119273
0.040590 0.599235 -0.119854
0.045641 0.598245 -0.119331
0.050116 0.598857 -0.119277
0.054943 0.598403 -0.118922
0.060047 0.597062 -0.118317
0.065316 0.595130 -0.117548
0.071308 0.590853 -0.116112
0.076043 0.590352 -0.115770
0.079879 0.592669 -0.116245
0.084333 0.593009 -0.116157
0.089654 0.590452 -0.115243
0.094060 0.590844 -0.115183
0.097951 0.592975 -0.115627
0.102519 0.592778 -0.115409
0.108003 0.589286 -0.114254
0.112309 0.589877 -0.114274
0.116765 0.589902 -0.114139
0.121265 0.589723 -0.113952
0.126340 0.587299 -0.113129
0.130744 0.587357 -0.113022
0.134893 0.588393 -0.113200
0.138687 0.590874 -0.113797
0.142786 0.592157 -0.114058
0.147527 0.590741 -0.113554
0.152832 0.586790 -0.112336
0.157095 0.587231 -0.112375
0.161209 0.588332 -0.112609
0.165452 0.588850 -0.112683
0.169515 0.590208 -0.113002
0.174672 0.586306 -0.111830
0.178802 0.587269 -0.112050
0.183036 0.587717 -0.112129
0.186880 0.590195 -0.112792
0.190851 0.592088 -0.113295
0.195183 0.592070 -0.113261
0.199657 0.591222 -0.112997
0.203908 0.591589 -0.113085
0.208493 0.589957 -0.112612
0.213078 0.588196 -0.112108
0.217434 0.587756 -0.111986
0.221772 0.587381 -0.111889
0.226275 0.585835 -0.111465
0.230533 0.585881 -0.111501
0.235004 0.584364 -0.111098
0.239098 0.585541 -0.111468
0.242975 0.588479 -0.112344
0.247314 0.587890 -0.112224
0.251745 0.586459 -0.111869
0.255844 0.587802 -0.112310
0.260206 0.586835 -0.112099
0.264563 0.585805 -0.111876
0.268963 0.584228 -0.111502
0.273226 0.583919 -0.111493
0.276989 0.589144 -0.113068
0.281041 0.591549 -0.113844
0.285450 0.589733 -0.113419
0.289719 0.589543 -0.113463
0.293967 0.589604 -0.113583
0.298407 0.586695 -0.112856
0.302601 0.587345 -0.113149
0.306751 0.588871 -0.113695
0.310883 0.590978 -0.114409
0.315221 0.588996 -0.113955
0.319501 0.587840 -0.113737
0.323786 0.586174 -0.113373
0.327983 0.586589 -0.113604
0.332121 0.589184 -0.114459
0.336290 0.591229 -0.115154
0.340476 0.592984 -0.115763
0.344684 0.593724 -0.116077
0.348934 0.588737 -0.114742
0.353106 0.590858 -0.115442
0.357282 0.590336 -0.115375
0.361426 0.587562 -0.114654
0.365547 0.586363 -0.114375
0.369731 0.590695 -0.115677
0.374009 0.598450 -0.117953
0.378148 0.598565 -0.118019
0.382226 0.597278 -0.117669
0.386198 0.593888 -0.116699
0.390258 0.594138 -0.116761
0.394207 0.592362 -0.116223
0.398092 0.590117 -0.115533
0.401664 0.582868 -0.113387
0.406046 0.591425 -0.115765
0.410018 0.592602 -0.116001
0.413651 0.588985 -0.114839
0.416957 0.581654 -0.112591
0.420815 0.583032 -0.112822
0.424747 0.585674 -0.113392
0.428619 0.587780 -0.113784
0.432406 0.589161 -0.113945
0.436072 0.589530 -0.113793
0.439519 0.588015 -0.113079
0.442903 0.586413 -0.112318
0.446311 0.585578 -0.111753
0.449779 0.585774 -0.111459
0.452791 0.582251 -0.110085
0.456174 0.582575 -0.109783
0.459708 0.584520 -0.109917
0.462733 0.582561 -0.108924
0.466152 0.584195 -0.108926
0.469500 0.585535 -0.108821
-0.589110 0.594440 -0.180196
-0.582599 0.594587 -0.180252
-0.576065 0.594764 -0.180278
-0.565797 0.591422 -0.178999
-0.564088 0.596323 -0.180640
-0.553501 0.592727 -0.179188
-0.545348 0.591500 -0.178547
-0.536788 0.589895 -0.177730
-0.530582 0.590643 -0.177716
-0.522363 0.589425 -0.176958
-0.519287 0.593413 -0.178023
-0.515504 0.596779 -0.178823
-0.502297 0.590560 -0.176166
-0.492636 0.587932 -0.174757
-0.486331 0.588783 -0.174552
-0.479572 0.589190 -0.174154
-0.472238 0.589009 -0.173515
-0.466633 0.590688 -0.173502
-0.460802 0.592160 -0.173384
-0.455224 0.593937 -0.173344
-0.449457 0.595537 -0.173212
-0.442420 0.595754 -0.172570
-0.432414 0.592641 -0.170742
-0.425936 0.593446 -0.170264
-0.420498 0.595435 -0.170178
-0.416096 0.598634 -0.170491
-0.408658 0.598341 -0.169577
-0.402115 0.599065 -0.169001
-0.397091 0.601570 -0.169026
-0.382795 0.593004 -0.165241
-0.378496 0.596301 -0.165522
-0.374653 0.600177 -0.165989
-0.368680 0.601465 -0.165564
-0.361103 0.600739 -0.164451
-0.351571 0.597496 -0.162489
-0.345376 0.598367 -0.161921
-0.339820 0.600020 -0.161615
-0.332061 0.598805 -0.160348
-0.326509 0.600390 -0.160023
-0.320337 0.601132 -0.159419
-0.309587 0.595734 -0.156780
-0.302647 0.595292 -0.155800
-0.298140 0.598083 -0.155896
-0.292966 0.599955 -0.155693
-0.286134 0.599505 -0.154732
-0.278547 0.597925 -0.153411
-0.271874 0.597543 -0.152494
-0.265498 0.597512 -0.151702
-0.259047 0.597309 -0.150865
-0.253015 0.597648 -0.150215
-0.247176 0.598216 -0.149649
-0.240549 0.597557 -0.148698
-0.233254 0.595816 -0.147411
-0.227669 0.596574 -0.146941
-0.222229 0.597507 -0.146536
-0.217039 0.598785 -0.146252
-0.211619 0.599664 -0.145851
-0.206588 0.601117 -0.145642
-0.200976 0.601607 -0.145137
-0.194428 0.600530 -0.144148
-0.187033 0.597983 -0.142707
-0.181412 0.598254 -0.142170
-0.176410 0.599504 -0.141950
-0.171061 0.600133 -0.141546
-0.165829 0.600919 -0.141201
-0.160098 0.600799 -0.140583
-0.152348 0.597092 -0.138858
-0.147315 0.598041 -0.138597
-0.142379 0.599127 -0.138388
-0.137041 0.599454 -0.137952
-0.131766 0.599847 -0.137547
-0.126148 0.599558 -0.136941
-0.120508 0.599166 -0.136314
-0.114714 0.598419 -0.135588
-0.109533 0.598772 -0.135211
-0.104399 0.599167 -0.134855
-0.099302 0.599591 -0.134517
-0.094037 0.599640 -0.134073
-0.088648 0.599387 -0.133547
-0.082653 0.597847 -0.132638
-0.077811 0.598583 -0.132431
-0.072394 0.598093 -0.131860
-0.067117 0.597831 -0.131367
-0.061059 0.595853 -0.130364
-0.056089 0.596117 -0.130048
-0.051473 0.597107 -0.129959
-0.046607 0.597520 -0.129704
-0.040612 0.595374 -0.128686
-0.035997 0.596245 -0.128584
-0.030721 0.595576 -0.128027
-0.028091 0.600983 -0.129298
-0.022632 0.599830 -0.128611
-0.020194 0.605799 -0.130059
-0.016379 0.608551 -0.130550
-0.007206 0.598221 -0.127148
-0.001832 0.596984 -0.126467
0.001806 0.600030 -0.127068
0.006670 0.599992 -0.126757
0.013488 0.594853 -0.124940
0.018227 0.594973 -0.124692
0.024467 0.591058 -0.123256
0.032665 0.581703 -0.120221
0.036959 0.582718 -0.120261
0.034780 0.601702 -0.125611
0.039288 0.602353 -0.125550
0.043781 0.603024 -0.125502
0.049859 0.599062 -0.124097
0.054356 0.599601 -0.124023
0.059485 0.598218 -0.123391
0.063394 0.600465 -0.123832
0.067991 0.600611 -0.123662
0.075254 0.592331 -0.121029
0.079919 0.592043 -0.120746
0.084345 0.592482 -0.120683
0.088837 0.592674 -0.120553
0.092601 0.595280 -0.121135
0.096710 0.596755 -0.121392
0.101232 0.596804 -0.121239
0.104854 0.600008 -0.122012
0.108557 0.602995 -0.122727
0.112955 0.603494 -0.122723
0.119082 0.597491 -0.120832
0.123031 0.599540 -0.121292
0.127778 0.598522 -0.120866
0.131885 0.599970 -0.121163
0.135813 0.602161 -0.121683
0.139869 0.603877 -0.122070
0.145164 0.600389 -0.120952
0.150783 0.595311 -0.119380
0.155366 0.594548 -0.119068
0.159255 0.596853 -0.119652
0.163771 0.596326 -0.119422
0.168574 0.594388 -0.118788
0.172716 0.595523 -0.119052
0.176385 0.599023 -0.120008
0.179749 0.604212 -0.121459
0.184646 0.601651 -0.120672
0.190238 0.595205 -0.118766
0.195028 0.592784 -0.118033
0.199477 0.592125 -0.117817
0.204035 0.590766 -0.117404
0.208577 0.589395 -0.116995
0.213060 0.588280 -0.116666
0.216693 0.592461 -0.117877
0.220169 0.597915 -0.119463
0.223751 0.602992 -0.120946
0.229669 0.592036 -0.117794
0.234027 0.591587 -0.117690
0.237632 0.596746 -0.119216
0.241659 0.598975 -0.119901
0.246799 0.592345 -0.118025
0.252095 0.583841 -0.115611
0.255445 0.591701 -0.117944
0.259547 0.593337 -0.118480
0.263957 0.592139 -0.118199
0.267915 0.595371 -0.119209
0.272530 0.591942 -0.118291
0.276511 0.595209 -0.119320
0.280841 0.594708 -0.119261
0.285148 0.594400 -0.119262
0.289368 0.595196 -0.119587
0.293293 0.600281 -0.121161
0.297949 0.594875 -0.119690
0.302592 0.588787 -0.118021
