ply
format ascii 1.0
comment ---
element vertex 1708
property float x
property float y
property float z
element face 0
property list uchar uint vertex_indices
end_header
0.484133 0.586369 -0.601723
0.489053 0.586620 -0.603097
0.493697 0.585818 -0.603814
0.498513 0.585609 -0.604917
0.503971 0.587571 -0.607413
0.508901 0.587623 -0.608706
0.513696 0.587174 -0.609690
0.518599 0.587044 -0.610888
0.522634 0.584097 -0.610285
0.528315 0.586364 -0.613046
0.533228 0.586134 -0.614212
0.538084 0.585690 -0.615249
0.543077 0.585614 -0.616536
0.548262 0.586044 -0.618163
0.553441 0.586392 -0.619750
0.558729 0.586977 -0.621505
0.564056 0.587598 -0.623297
0.568952 0.586972 -0.624282
0.573796 0.586170 -0.625162
0.578669 0.585413 -0.626081
0.583818 0.585340 -0.627462
0.589840 0.587444 -0.630302
0.594627 0.586319 -0.631011
0.599242 0.584749 -0.631430
0.604573 0.584913 -0.633018
0.610534 0.586526 -0.635592
0.615727 0.586220 -0.636892
0.621321 0.586797 -0.638801
0.626863 0.587178 -0.640591
0.632019 0.586618 -0.641758
0.637143 0.585945 -0.642859
0.642913 0.586650 -0.644910
0.649350 0.588722 -0.647913
0.654873 0.588722 -0.649516
0.660024 0.587881 -0.650554
0.665746 0.588189 -0.652395
0.671345 0.588176 -0.654030
0.676729 0.587668 -0.655335
0.681813 0.586515 -0.656204
0.687026 0.585585 -0.657238
0.692612 0.585343 -0.658765
0.698658 0.585927 -0.660885
0.705235 0.587439 -0.663677
0.711906 0.589027 -0.666543
0.717200 0.587972 -0.667561
0.722183 0.586316 -0.668163
0.729395 0.588644 -0.671612
0.734777 0.587604 -0.672681
0.739669 0.585669 -0.673120
0.745078 0.584611 -0.674198
0.753151 0.588070 -0.678546
0.759137 0.587856 -0.680270
0.765647 0.588458 -0.682602
0.771939 0.588619 -0.684634
0.777846 0.588085 -0.686178
0.783385 0.586905 -0.687265
0.791246 0.589380 -0.691050
0.797479 0.589172 -0.692890
0.802480 0.586988 -0.693287
0.808483 0.586327 -0.694822
0.814600 0.585785 -0.696465
0.821596 0.586504 -0.699067
0.827775 0.585928 -0.700723
0.833785 0.585048 -0.702170
0.840737 0.585484 -0.704626
0.845140 0.582191 -0.704286
0.854815 0.586360 -0.709618
0.861996 0.586876 -0.712212
0.870746 0.589478 -0.716427
0.876531 0.587894 -0.717469
0.881998 0.585840 -0.718167
0.888201 0.584743 -0.719618
0.894409 0.583603 -0.721056
0.903186 0.585771 -0.725089
0.909042 0.584038 -0.726114
0.916027 0.583710 -0.728259
0.923307 0.583684 -0.730668
0.934890 0.588963 -0.737297
0.939892 0.585906 -0.737378
0.947358 0.585849 -0.739858
0.953916 0.584613 -0.741429
0.961149 0.584129 -0.743627
0.967383 0.582390 -0.744845
0.975458 0.582762 -0.747791
0.984030 0.583615 -0.751164
0.993993 0.585959 -0.755793
1.001188 0.585027 -0.757793
1.008066 0.583672 -0.759477
1.015587 0.582968 -0.761727
1.023197 0.582288 -0.764029
1.035631 0.586769 -0.770658
1.043412 0.586063 -0.773027
1.050826 0.584888 -0.775039
1.056302 0.581606 -0.775310
1.066704 0.583420 -0.779911
1.074202 0.582112 -0.781917
1.091831 0.591042 -0.792692
1.097414 0.587555 -0.792940
1.106124 0.587156 -0.795865
1.114518 0.586352 -0.798484
1.124016 0.586538 -0.802005
1.133934 0.587020 -0.805834
1.140882 0.584554 -0.807132
1.148553 0.582718 -0.809015
1.162460 0.586634 -0.816025
1.170072 0.584548 -0.817781
1.178650 0.583280 -0.820300
1.193903 0.587960 -0.828205
1.202546 0.586524 -0.830681
1.213308 0.586881 -0.834824
1.223854 0.586932 -0.838744
1.232523 0.585249 -0.841126
1.243846 0.585762 -0.845568
1.254965 0.585983 -0.849796
1.266472 0.586413 -0.854271
1.277723 0.586516 -0.858493
1.287227 0.585079 -0.861316
1.299369 0.585703 -0.866121
1.310615 0.585492 -0.870184
1.321355 0.584784 -0.873811
1.334319 0.585732 -0.879065
1.346593 0.586029 -0.883736
1.357175 0.584930 -0.887089
1.368000 0.583948 -0.890577
1.382347 0.585541 -0.896610
1.395255 0.585950 -0.901516
1.408541 0.586549 -0.906635
1.417643 0.584027 -0.908658
1.426250 0.581135 -0.910293
1.443707 0.584525 -0.918242
1.455345 0.583700 -0.921949
1.467969 0.583526 -0.926305
1.478682 0.581997 -0.929257
1.489349 0.580430 -0.932137
1.505923 0.582839 -0.939095
1.513879 0.579433 -0.939993
1.521725 0.576005 -0.940796
1.539384 0.579035 -0.948316
1.553724 0.579854 -0.953483
1.571686 0.582971 -0.961047
1.583787 0.582321 -0.964565
1.589284 0.577555 -0.963602
1.590905 0.570491 -0.960050
1.599496 0.567868 -0.961165
1.627174 0.576945 -0.974891
1.626185 0.568587 -0.969603
1.631387 0.564118 -0.968418
1.673873 0.581853 -0.991535
1.674170 0.574544 -0.987065
1.671095 0.565446 -0.980463
1.679283 0.563051 -0.981155
1.684906 0.559279 -0.980201
1.693737 0.557440 -0.981295
0.195946 0.570304 -0.525144
0.198746 0.572877 -0.527834
0.201588 0.575998 -0.530828
0.204526 0.578914 -0.533708
0.207658 0.580046 -0.535593
0.210825 0.581792 -0.537815
0.214186 0.581331 -0.538795
0.217804 0.576866 -0.537514
0.221234 0.577060 -0.538830
0.224550 0.581467 -0.542512
0.228083 0.582677 -0.544386
0.231756 0.581784 -0.545057
0.235445 0.582084 -0.546391
0.239200 0.582128 -0.547566
0.243010 0.582260 -0.548779
0.246908 0.580161 -0.548701
0.250813 0.580746 -0.550145
0.254772 0.581676 -0.551775
0.258790 0.581743 -0.552899
0.262854 0.581521 -0.553843
0.266962 0.581355 -0.554808
0.271117 0.581643 -0.556023
0.275306 0.581388 -0.556914
0.279568 0.582724 -0.558722
0.283861 0.583393 -0.560134
0.288136 0.582362 -0.560544
0.292493 0.582888 -0.561858
0.296872 0.583099 -0.562981
0.301281 0.583333 -0.564112
0.305698 0.583224 -0.565036
0.310179 0.583802 -0.566362
0.314637 0.583601 -0.567225
0.319122 0.583539 -0.568167
0.323347 0.579848 -0.566950
0.328083 0.582682 -0.569610
0.332729 0.583966 -0.571352
0.337266 0.583767 -0.572211
0.341661 0.582011 -0.572138
0.346383 0.583486 -0.574002
0.351002 0.583769 -0.575156
0.355578 0.583567 -0.576022
0.360099 0.582840 -0.576573
0.364741 0.583071 -0.577707
0.369417 0.583479 -0.578955
0.374152 0.584229 -0.580417
0.378785 0.584149 -0.581380
0.383277 0.583069 -0.581741
0.387987 0.583447 -0.582996
0.393010 0.585723 -0.585422
0.397747 0.586057 -0.586670
0.402524 0.586564 -0.588032
0.407046 0.585545 -0.588463
0.411418 0.583726 -0.588406
0.415810 0.582076 -0.588458
0.420859 0.583902 -0.590670
0.425473 0.583384 -0.591439
0.430125 0.583041 -0.592325
0.434909 0.583310 -0.593601
0.439736 0.583726 -0.594979
0.444614 0.584307 -0.596472
0.449610 0.585340 -0.598260
0.454458 0.585641 -0.599600
0.459195 0.585418 -0.600621
0.464382 0.587016 -0.602802
0.469498 0.588207 -0.604740
0.473932 0.586621 -0.604930
0.478477 0.585483 -0.605410
0.483342 0.585556 -0.606670
0.488498 0.586643 -0.608590
0.493210 0.586041 -0.609441
0.498030 0.585800 -0.610533
0.503231 0.586834 -0.612457
0.508248 0.587153 -0.613933
0.513156 0.587047 -0.615148
0.517939 0.586491 -0.616080
0.522936 0.586586 -0.617446
0.527859 0.586394 -0.618637
0.532957 0.586695 -0.620160
0.537618 0.585612 -0.620790
0.542659 0.585645 -0.622161
0.548077 0.586720 -0.624229
0.553163 0.586755 -0.625626
0.558518 0.587493 -0.627500
0.563561 0.587284 -0.628761
0.568771 0.587483 -0.630305
0.573883 0.587358 -0.631646
0.578850 0.586798 -0.632708
0.584403 0.587721 -0.634773
0.589402 0.587143 -0.635846
0.594867 0.587698 -0.637693
0.599756 0.586753 -0.638542
0.605461 0.587769 -0.640727
0.610489 0.587072 -0.641766
0.615513 0.586325 -0.642782
0.621042 0.586722 -0.644589
0.626435 0.586735 -0.646148
0.632193 0.587516 -0.648246
0.637232 0.586610 -0.649201
0.643649 0.588701 -0.652232
0.649324 0.589066 -0.654093
0.654317 0.587902 -0.654908
0.659779 0.587700 -0.656401
0.665236 0.587434 -0.657864
0.670993 0.587728 -0.659731
0.676192 0.586824 -0.660774
0.681742 0.586585 -0.662296
0.686966 0.585650 -0.663340
0.692349 0.584986 -0.664588
0.698097 0.584976 -0.666313
0.704952 0.587003 -0.669501
0.711418 0.588187 -0.672112
0.716565 0.586846 -0.672937
0.721989 0.585979 -0.674114
0.729619 0.589038 -0.678128
0.734450 0.586990 -0.678485
0.739118 0.584642 -0.678634
0.746130 0.586346 -0.681732
0.753873 0.589193 -0.685689
0.758374 0.586432 -0.685577
0.765052 0.587305 -0.688135
0.771192 0.587204 -0.689998
0.777228 0.586870 -0.691709
0.783862 0.587441 -0.694106
0.790064 0.587244 -0.695956
0.795643 0.586006 -0.697050
0.802037 0.585996 -0.699074
0.808212 0.585582 -0.700817
0.815981 0.587526 -0.704351
0.821995 0.586727 -0.705847
0.827898 0.585712 -0.707197
0.834691 0.585954 -0.709519
0.841210 0.585724 -0.711505
0.849218 0.587557 -0.715091
0.856554 0.588327 -0.717894
0.863872 0.588983 -0.720638
0.871375 0.589807 -0.723539
0.877022 0.588002 -0.724432
0.883102 0.586747 -0.725770
0.887986 0.583848 -0.725842
0.894329 0.582867 -0.727427
0.903217 0.585157 -0.731608
0.910897 0.585757 -0.734496
0.916805 0.584003 -0.735551
0.927047 0.587686 -0.740949
0.933576 0.586568 -0.742566
0.940425 0.585789 -0.744479
0.947598 0.585344 -0.746687
0.955292 0.585455 -0.749374
0.961919 0.584205 -0.750991
0.966618 0.580618 -0.750732
0.983650 0.591455 -0.762268
0.987267 0.586444 -0.760911
0.995039 0.586212 -0.763492
1.001193 0.584064 -0.764525
1.007583 0.582137 -0.765765
1.015625 0.581994 -0.768517
1.024470 0.582643 -0.771970
1.032527 0.582331 -0.774660
1.042901 0.584418 -0.779413
1.051290 0.584260 -0.782320
1.060092 0.584443 -0.785560
1.067172 0.582738 -0.787229
1.080849 0.587747 -0.794697
1.088121 0.586042 -0.796457
1.097937 0.586830 -0.800409
1.107602 0.587349 -0.804182
1.116655 0.587153 -0.807381
1.123375 0.584588 -0.808545
1.133065 0.584833 -0.812217
1.141955 0.584205 -0.815168
1.153209 0.585711 -0.820066
1.164859 0.587446 -0.825233
1.172352 0.585207 -0.826889
1.185976 0.588495 -0.833577
1.194614 0.587108 -0.836097
1.203821 0.586148 -0.839048
1.214246 0.586174 -0.842948
1.224906 0.586296 -0.846987
1.236369 0.586998 -0.851618
1.247829 0.587574 -0.856190
1.258275 0.587172 -0.859901
1.269152 0.587031 -0.863905
1.278221 0.585292 -0.866443
1.288898 0.584799 -0.870198
1.300475 0.584941 -0.874599
1.310230 0.583521 -0.877544
1.323907 0.585132 -0.883446
1.338714 0.587493 -0.890134
1.348176 0.585576 -0.892700
1.358367 0.584168 -0.895779
1.371433 0.584876 -0.900962
1.387329 0.587601 -0.908184
1.397312 0.585814 -0.910947
1.409234 0.585408 -0.915095
1.417591 0.582361 -0.916584
1.429452 0.581823 -0.920593
1.448243 0.586146 -0.929561
1.460542 0.585775 -0.933752
1.470523 0.583756 -0.936231
1.478628 0.580450 -0.937338
1.489852 0.579296 -0.940631
1.507495 0.582449 -0.948396
1.521001 0.582763 -0.953174
1.531020 0.580760 -0.955463
1.545038 0.581393 -0.960489
1.558862 0.581882 -0.965319
1.572723 0.582387 -0.970116
1.579953 0.578698 -0.970333
1.589124 0.576308 -0.971858
1.599853 0.574948 -0.974411
1.639667 0.591495 -0.996455
1.638545 0.582858 -0.990928
1.635093 0.573010 -0.983906
1.645550 0.571682 -0.986145
1.662393 0.574195 -0.992557
1.687936 0.581808 -1.004593
1.677541 0.568439 -0.993110
1.675870 0.560377 -0.987393
1.690324 0.561716 -0.992124
1.692719 0.556248 -0.989074
0.198277 0.574791 -0.533244
0.201227 0.576135 -0.535287
0.204253 0.577386 -0.537273
0.207251 0.580220 -0.540143
0.210318 0.583272 -0.543135
0.213782 0.580593 -0.542885
0.217243 0.578774 -0.543104
0.220713 0.577750 -0.543757
0.223948 0.583522 -0.548266
0.227567 0.582045 -0.548639
0.231216 0.581071 -0.549284
0.234890 0.580941 -0.550396
0.238596 0.581803 -0.552066
0.242438 0.579119 -0.551679
0.246239 0.581012 -0.553918
0.250137 0.580525 -0.554769
0.254076 0.580971 -0.556148
0.258073 0.579207 -0.556228
0.262109 0.579822 -0.557679
0.266206 0.581591 -0.559795
0.270330 0.580767 -0.560384
0.274537 0.582611 -0.562526
0.278769 0.583053 -0.563838
0.283008 0.582291 -0.564431
0.287287 0.581860 -0.565209
0.291542 0.580099 -0.565190
0.296005 0.582807 -0.567811
0.300430 0.583567 -0.569275
0.304929 0.585058 -0.571170
0.309327 0.584166 -0.571641
0.313814 0.584450 -0.572809
0.318317 0.584621 -0.573908
0.322753 0.583622 -0.574302
0.327338 0.584378 -0.575748
0.331844 0.583941 -0.576476
0.336303 0.582873 -0.576822
0.340963 0.583849 -0.578404
0.345567 0.584058 -0.579525
0.350028 0.582816 -0.579767
0.354610 0.582663 -0.580672
0.359360 0.583846 -0.582395
0.363810 0.582439 -0.582542
0.368465 0.582663 -0.583690
0.373152 0.583037 -0.584935
0.377869 0.583537 -0.586265
0.382557 0.583749 -0.587424
0.387362 0.584664 -0.589025
0.392283 0.586205 -0.591022
0.396851 0.585430 -0.591594
0.401399 0.584548 -0.592106
0.406068 0.584369 -0.593062
0.410548 0.583111 -0.593351
0.415472 0.584276 -0.595162
0.419785 0.582144 -0.594918
0.424662 0.582948 -0.596521
0.429661 0.584278 -0.598466
0.434563 0.585020 -0.600054
0.439176 0.584335 -0.600752
0.443858 0.583956 -0.601652
0.448864 0.584993 -0.603459
0.453524 0.584440 -0.604267
0.458471 0.585082 -0.605846
0.463777 0.587130 -0.608335
0.468576 0.586993 -0.609443
0.473272 0.586416 -0.610277
0.477632 0.584524 -0.610276
0.482656 0.585164 -0.611912
0.487749 0.585991 -0.613681
0.492649 0.586035 -0.614957
0.497435 0.585627 -0.615951
0.502586 0.586451 -0.617756
0.507658 0.586925 -0.619347
0.512409 0.586261 -0.620207
0.517236 0.585817 -0.621222
0.522280 0.586039 -0.622683
0.527418 0.586493 -0.624309
0.532155 0.585641 -0.625087
0.537484 0.586562 -0.627046
0.542771 0.587274 -0.628882
0.547883 0.587394 -0.630338
0.552721 0.586668 -0.631244
0.558123 0.587505 -0.633203
0.563388 0.587879 -0.634867
0.568459 0.587657 -0.636146
0.574047 0.588773 -0.638335
0.579204 0.588660 -0.639712
0.583764 0.586942 -0.640016
0.589126 0.587272 -0.641716
0.594167 0.586726 -0.642833
0.599744 0.587470 -0.644841
0.605143 0.587697 -0.646512
0.610077 0.586744 -0.647387
0.615334 0.586527 -0.648778
0.621179 0.587627 -0.651089
0.626564 0.587579 -0.652625
0.631471 0.586392 -0.653385
0.637242 0.587109 -0.655477
0.643052 0.587830 -0.657588
0.648617 0.587940 -0.659289
0.654123 0.587861 -0.660873
0.659098 0.586605 -0.661644
0.665158 0.587580 -0.663996
0.670549 0.587093 -0.665334
0.675917 0.586514 -0.666619
0.681327 0.585972 -0.667943
0.686924 0.585751 -0.669510
0.692669 0.585764 -0.671258
0.697902 0.584731 -0.672272
0.704563 0.586367 -0.675215
0.710384 0.586326 -0.676974
0.716011 0.585868 -0.678446
0.721720 0.585508 -0.680004
0.727428 0.585091 -0.681536
0.734677 0.587356 -0.685040
0.743115 0.591584 -0.690006
0.748877 0.591012 -0.691487
0.753671 0.588733 -0.691727
0.758537 0.586568 -0.692059
0.765125 0.587262 -0.694517
0.771089 0.586844 -0.696171
0.777172 0.586565 -0.697946
0.784600 0.588389 -0.701311
0.789531 0.586135 -0.701646
0.795158 0.584960 -0.702802
0.802141 0.585846 -0.705530
0.809042 0.586521 -0.708122
0.815564 0.586536 -0.710238
0.822173 0.586611 -0.712421
0.829545 0.587744 -0.715437
0.835227 0.586308 -0.716509
0.843906 0.589169 -0.720906
0.850081 0.588312 -0.722469
0.856273 0.587428 -0.724031
0.863467 0.587890 -0.726659
0.871215 0.589034 -0.729849
0.878342 0.589230 -0.732328
0.883153 0.586219 -0.732312
0.888560 0.583996 -0.732927
0.894902 0.582982 -0.734515
0.904061 0.585590 -0.739006
0.912333 0.586919 -0.742519
0.919477 0.586700 -0.744829
0.922925 0.581740 -0.743358
0.934543 0.587010 -0.750141
0.940319 0.584871 -0.750987
0.948747 0.585935 -0.754457
0.954104 0.583183 -0.754851
0.960222 0.581317 -0.755988
0.966049 0.579063 -0.756827
0.969817 0.574367 -0.755670
0.989093 0.587617 -0.769397
0.994810 0.584987 -0.770029
1.000883 0.582728 -0.770992
1.010496 0.584389 -0.775267
1.018159 0.583766 -0.777668
1.026500 0.583805 -0.780665
1.033583 0.582390 -0.782467
1.043714 0.584176 -0.787033
1.053118 0.585059 -0.790881
1.062228 0.585518 -0.794414
1.070601 0.585106 -0.797240
1.080806 0.586483 -0.801663
1.087798 0.584472 -0.803187
1.094714 0.582326 -0.804625
1.108432 0.586878 -0.811988
1.117026 0.586198 -0.814810
1.131071 0.590724 -0.822301
1.135629 0.585930 -0.821560
1.144800 0.585519 -0.824760
1.154383 0.585399 -0.828270
1.166633 0.587654 -0.833981
1.176865 0.587897 -0.837932
1.186491 0.587474 -0.841330
1.196739 0.587511 -0.845198
1.204579 0.585295 -0.847038
1.215498 0.585728 -0.851370
1.227955 0.587384 -0.856897
1.238502 0.587249 -0.860813
1.248928 0.586906 -0.864582
1.259989 0.586996 -0.868809
1.270149 0.586228 -0.872268
1.279720 0.584885 -0.875217
1.289861 0.583932 -0.878573
1.301881 0.584414 -0.883352
1.312963 0.584036 -0.887342
1.326527 0.585525 -0.893194
1.336596 0.584161 -0.896293
1.351007 0.586084 -0.902661
1.361982 0.585256 -0.906344
1.375647 0.586389 -0.912006
1.390353 0.588195 -0.918379
1.402800 0.588215 -0.922985
1.411666 0.585548 -0.924875
1.419820 0.582358 -0.926210
1.433986 0.583470 -0.931931
1.452989 0.587923 -0.941111
1.463431 0.586242 -0.943967
1.473945 0.584602 -0.946834
1.481194 0.580722 -0.947315
1.490591 0.578346 -0.949314
1.512978 0.584706 -0.960511
1.525737 0.584524 -0.964775
1.536193 0.582820 -0.967366
1.550672 0.583758 -0.972732
1.567822 0.586395 -0.979891
1.571855 0.580622 -0.977891
1.580627 0.577963 -0.979165
1.591039 0.576395 -0.981542
1.607061 0.578350 -0.987707
1.618604 0.577545 -0.990767
1.656593 0.592851 -1.011615
1.652265 0.582434 -1.003868
1.658226 0.578379 -1.003059
1.658803 0.571254 -0.998683
1.665744 0.568026 -0.998550
1.680864 0.569650 -1.003789
1.682995 0.563813 -1.000484
1.684240 0.557617 -0.996635
0.197683 0.578605 -0.539742
0.200846 0.576810 -0.540049
0.203967 0.576342 -0.541094
0.206954 0.578892 -0.543841
0.210142 0.579406 -0.545427
0.213353 0.580660 -0.547427
0.216616 0.582270 -0.549623
0.219797 0.587218 -0.553727
0.223471 0.583000 -0.552561
0.227134 0.579712 -0.551907
0.230740 0.579026 -0.552734
0.234347 0.580022 -0.554521
0.238087 0.578447 -0.554804
0.241816 0.579417 -0.556550
0.245648 0.577976 -0.556879
0.249467 0.581090 -0.559856
0.253392 0.580792 -0.560826
0.257367 0.579479 -0.561186
0.261376 0.576996 -0.560839
0.265464 0.582181 -0.565002
0.269599 0.583415 -0.566829
0.273767 0.583348 -0.567875
0.277964 0.582777 -0.568610
0.282196 0.582289 -0.569383
0.286362 0.578786 -0.568345
0.290742 0.581033 -0.570730
0.295114 0.581790 -0.572219
0.299578 0.583698 -0.574395
0.303998 0.583866 -0.575521
0.308405 0.583342 -0.576225
0.312897 0.583844 -0.577544
0.317507 0.585675 -0.579665
0.321968 0.584957 -0.580240
0.326468 0.584585 -0.581022
0.330962 0.583982 -0.581662
0.335462 0.583344 -0.582279
0.340052 0.583564 -0.583419
0.344537 0.582585 -0.583826
0.349130 0.582598 -0.584843
0.353830 0.583459 -0.586383
0.358389 0.582956 -0.587087
0.362984 0.582700 -0.587948
0.367453 0.581420 -0.588178
0.372209 0.582306 -0.589753
0.377012 0.583396 -0.591463
0.381760 0.583969 -0.592859
0.386447 0.584043 -0.593952
0.391329 0.585308 -0.595796
0.395908 0.584567 -0.596394
0.400470 0.583729 -0.596938
0.405131 0.583468 -0.597849
0.409945 0.584036 -0.599291
0.414640 0.583885 -0.600289
0.419324 0.583638 -0.601234
0.423997 0.583308 -0.602135
0.428808 0.583640 -0.603466
0.433767 0.584624 -0.605221
0.438704 0.585411 -0.606864
0.443260 0.584377 -0.607354
0.447927 0.583840 -0.608169
0.452621 0.583406 -0.609060
0.458084 0.586210 -0.612044
0.462939 0.586320 -0.613309
0.467624 0.585694 -0.614108
0.472166 0.584488 -0.614541
0.477114 0.584853 -0.616001
0.482117 0.585368 -0.617571
0.487187 0.586056 -0.619267
0.491853 0.585209 -0.619973
0.496829 0.585447 -0.621397
0.502070 0.586546 -0.623400
0.507157 0.587025 -0.625010
0.511931 0.586394 -0.625900
0.516697 0.585707 -0.626762
0.521886 0.586356 -0.628520
0.526677 0.585675 -0.629409
0.531779 0.585928 -0.630929
0.537128 0.586868 -0.632921
0.542411 0.587523 -0.634737
0.546883 0.585728 -0.634924
0.552662 0.587703 -0.637653
0.557966 0.588213 -0.639413
0.562769 0.587256 -0.640195
0.567818 0.586947 -0.641426
0.573948 0.589501 -0.644614
0.578866 0.588710 -0.645545
0.583535 0.587239 -0.646021
0.587817 0.584770 -0.645822
0.593395 0.585585 -0.647882
0.599276 0.587069 -0.650418
0.604370 0.586528 -0.651576
0.609580 0.586224 -0.652909
0.615566 0.587711 -0.655497
0.620848 0.587450 -0.656888
0.625874 0.586550 -0.657846
0.631242 0.586394 -0.659336
0.636709 0.586401 -0.660952
0.642349 0.586731 -0.662811
0.648449 0.587989 -0.665339
0.653741 0.587424 -0.666597
0.658906 0.586546 -0.667647
0.664412 0.586341 -0.669186
0.670378 0.587024 -0.671373
0.675954 0.586839 -0.672956
0.681037 0.585612 -0.673806
0.688440 0.588925 -0.677934
0.693626 0.587782 -0.678876
0.698573 0.586147 -0.679473
0.704180 0.585741 -0.680971
0.709770 0.585251 -0.682423
0.717142 0.587998 -0.686253
0.721159 0.584503 -0.685541
0.726987 0.584288 -0.687239
0.735311 0.588444 -0.692175
0.741329 0.588390 -0.694036
0.748164 0.589686 -0.696915
0.753541 0.588395 -0.697895
0.759421 0.587917 -0.699494
0.765287 0.587363 -0.701053
0.771911 0.588004 -0.703525
0.777456 0.586809 -0.704637
0.784768 0.588414 -0.707880
0.790369 0.587196 -0.709010
0.795625 0.585399 -0.709716
0.801965 0.585257 -0.711695
0.808782 0.585780 -0.714205
0.814100 0.583952 -0.714934
0.824473 0.589662 -0.721484
0.830513 0.588760 -0.722974
0.836227 0.587331 -0.724074
0.843649 0.588332 -0.727082
0.849865 0.587515 -0.728699
0.856828 0.587699 -0.731122
0.863204 0.586986 -0.732865
0.870024 0.586828 -0.735069
0.876800 0.586539 -0.737193
0.882910 0.585283 -0.738575
0.890095 0.585414 -0.741083
0.897238 0.585409 -0.743511
0.902000 0.582222 -0.743412
0.912448 0.586362 -0.749231
0.919357 0.585817 -0.751314
0.926235 0.585164 -0.753336
0.937216 0.589566 -0.759507
0.943600 0.588116 -0.760947
0.946711 0.582622 -0.759088
0.955622 0.584164 -0.763033
0.960486 0.580758 -0.762923
0.966039 0.578155 -0.763494
0.979743 0.585042 -0.772004
0.987640 0.584984 -0.774778
0.993781 0.582834 -0.775827
1.005179 0.586581 -0.781883
1.013726 0.586970 -0.785154
1.019297 0.583970 -0.785582
1.026538 0.582768 -0.787567
1.036468 0.584407 -0.792025
1.046016 0.585508 -0.796075
1.056246 0.587212 -0.800697
1.063683 0.585857 -0.802715
1.070579 0.583874 -0.804218
1.084944 0.589484 -0.812421
1.089790 0.585230 -0.812012
1.097445 0.583782 -0.814103
1.110684 0.587797 -0.821094
1.118384 0.586192 -0.823141
1.127872 0.586251 -0.826720
1.140531 0.589246 -0.833000
1.148365 0.587493 -0.835049
1.159440 0.588712 -0.839844
1.168171 0.587622 -0.842587
1.176949 0.586490 -0.845333
1.186577 0.586047 -0.848759
1.199515 0.588479 -0.854905
1.211077 0.589526 -0.859832
1.219351 0.587552 -0.861985
1.229473 0.587119 -0.865625
1.239945 0.586888 -0.869504
1.249807 0.586037 -0.872839
1.260176 0.585523 -0.876538
1.272054 0.586171 -0.881399
1.280519 0.583892 -0.883479
1.290901 0.583122 -0.887049
1.302039 0.582875 -0.891166
1.315704 0.584546 -0.897209
1.325586 0.583108 -0.900230
1.335567 0.581687 -0.903287
1.355389 0.587783 -0.913878
1.366377 0.586933 -0.917579
1.377686 0.586260 -0.921474
1.391165 0.587141 -0.926960
1.404227 0.587622 -0.932061
1.412872 0.584803 -0.933789
1.423794 0.583624 -0.937184
1.441984 0.587595 -0.945915
1.452454 0.585981 -0.948853
1.464657 0.585564 -0.953018
1.473181 0.582573 -0.954447
1.484416 0.581463 -0.957815
1.493709 0.579033 -0.959736
1.501939 0.575919 -0.960864
1.525936 0.583300 -0.973215
1.536159 0.581486 -0.975654
1.557618 0.586999 -0.985986
1.564813 0.583232 -0.986187
1.567667 0.576782 -0.983347
1.575382 0.573533 -0.983904
1.592622 0.576310 -0.991029
1.595689 0.570291 -0.988332
1.589407 0.558683 -0.979264
1.612972 0.565432 -0.990586
1.654637 0.582975 -1.014032
1.660114 0.578672 -1.012873
1.661605 0.572132 -1.009053
1.664598 0.566628 -1.006268
1.676780 0.566597 -1.009602
1.681097 0.562088 -1.007712
1.675758 0.552192 -0.999503
0.200548 0.576547 -0.544282
0.203698 0.575310 -0.544909
0.206769 0.576109 -0.546689
0.209787 0.578900 -0.549607
0.213061 0.578557 -0.550718
0.216103 0.583827 -0.555059
0.219508 0.583627 -0.556237
0.223038 0.581889 -0.556508
0.226687 0.578263 -0.555663
0.230262 0.577597 -0.556522
0.233820 0.579207 -0.558698
0.237466 0.580156 -0.560477
0.241251 0.577765 -0.560282
0.245006 0.579088 -0.562255
0.248859 0.577915 -0.562743
0.252736 0.579010 -0.564558
0.256677 0.579295 -0.565881
0.260670 0.579552 -0.567176
0.264720 0.580804 -0.569051
0.268831 0.582216 -0.571013
0.272988 0.582940 -0.572555
0.277171 0.582602 -0.573449
0.281313 0.579271 -0.572531
0.285613 0.580877 -0.574572
0.289899 0.580668 -0.575510
0.294263 0.581573 -0.577114
0.298645 0.582004 -0.578424
0.303075 0.582709 -0.579895
0.307486 0.582474 -0.580790
0.311981 0.583207 -0.582270
0.316535 0.584360 -0.584004
0.321081 0.584928 -0.585379
0.325505 0.583615 -0.585598
0.330079 0.584035 -0.586878
0.334602 0.583644 -0.587658
0.339039 0.582226 -0.587804
0.343642 0.582466 -0.588972
0.348238 0.582484 -0.590005
0.352901 0.582997 -0.591348
0.357642 0.584023 -0.593014
0.362294 0.584138 -0.594118
0.366805 0.583057 -0.594478
0.371256 0.581550 -0.594574
0.376089 0.582843 -0.596429
0.380787 0.583040 -0.597603
0.385567 0.583704 -0.599078
0.390263 0.583736 -0.600163
0.395015 0.584055 -0.601436
0.399757 0.584247 -0.602637
0.404502 0.584402 -0.603823
0.409102 0.583680 -0.604459
0.413805 0.583520 -0.605460
0.418489 0.583228 -0.606385
0.423044 0.582249 -0.606878
0.427763 0.582095 -0.607907
0.433261 0.585677 -0.611349
0.437883 0.584899 -0.612000
0.442726 0.585133 -0.613312
0.446893 0.582292 -0.612644
0.452079 0.583984 -0.614920
0.457223 0.585374 -0.617014
0.462063 0.585394 -0.618231
0.466604 0.584151 -0.618633
0.471425 0.584030 -0.619777
0.476377 0.584377 -0.621238
0.481567 0.585561 -0.623262
0.486276 0.584864 -0.624061
0.491246 0.585099 -0.625486
0.496195 0.585198 -0.626832
0.501460 0.586343 -0.628884
0.506441 0.586423 -0.630243
0.511519 0.586778 -0.631798
0.516441 0.586554 -0.632979
0.521463 0.586609 -0.634357
0.526442 0.586476 -0.635622
0.531266 0.585811 -0.636541
0.536168 0.585360 -0.637613
0.541255 0.585421 -0.639044
0.546681 0.586422 -0.641124
0.551804 0.586461 -0.642566
0.557273 0.587423 -0.644649
0.562212 0.586822 -0.645682
0.567328 0.586669 -0.647031
0.573059 0.588122 -0.649496
0.578026 0.587447 -0.650514
0.582670 0.585898 -0.650939
0.588118 0.586402 -0.652794
0.593703 0.587179 -0.654851
0.598746 0.586527 -0.655932
0.603707 0.585637 -0.656858
0.609774 0.587379 -0.659634
0.615276 0.587671 -0.661415
0.620285 0.586743 -0.662353
0.625470 0.586189 -0.663565
0.631475 0.587451 -0.666072
0.637595 0.588873 -0.668712
0.642665 0.587883 -0.669658
0.648202 0.587874 -0.671314
0.653549 0.587398 -0.672652
0.659164 0.587441 -0.674374
0.664197 0.586212 -0.675197
0.671146 0.588885 -0.678843
0.676619 0.588438 -0.680260
0.682484 0.588722 -0.682222
0.687989 0.588229 -0.683635
0.693200 0.587114 -0.684609
0.698311 0.585775 -0.685431
0.703845 0.585209 -0.686830
0.710164 0.586059 -0.689286
0.717206 0.588160 -0.692685
0.722425 0.586823 -0.693567
0.727052 0.584392 -0.693649
0.734864 0.587611 -0.697943
0.741848 0.589232 -0.701076
0.747477 0.588404 -0.702403
0.753230 0.587743 -0.703869
0.758809 0.586739 -0.705092
0.764967 0.586658 -0.707027
0.770613 0.585669 -0.708294
0.777000 0.585842 -0.710461
0.783197 0.585640 -0.712361
0.789729 0.585906 -0.714640
0.795676 0.585181 -0.716180
0.802772 0.586183 -0.719070
0.809563 0.586626 -0.721555
0.816615 0.587386 -0.724309
0.827303 0.593495 -0.731255
0.832629 0.591463 -0.731897
0.836465 0.587230 -0.730827
0.845215 0.590120 -0.735361
0.849222 0.586098 -0.734481
0.856461 0.586658 -0.737233
0.862880 0.585988 -0.739035
0.868337 0.583929 -0.739754
0.874697 0.583076 -0.741452
0.882481 0.584085 -0.744668
0.890378 0.585147 -0.747961
0.896300 0.583504 -0.749102
0.903635 0.583661 -0.751722
0.911063 0.583857 -0.754406
0.918552 0.584047 -0.757116
0.927203 0.585617 -0.760992
0.933475 0.584106 -0.762370
0.943154 0.586745 -0.767205
0.951261 0.587327 -0.770383
0.953107 0.580265 -0.767224
0.964230 0.584333 -0.773371
0.971783 0.584018 -0.775897
0.979620 0.583954 -0.778669
0.987078 0.583366 -0.781035
0.994102 0.582207 -0.782948
1.007819 0.588537 -0.791289
1.014778 0.587095 -0.793050
1.020805 0.584563 -0.793901
1.026487 0.581616 -0.794417
1.039034 0.586056 -0.801369
1.047391 0.585826 -0.804325
1.056519 0.586320 -0.807957
1.064694 0.585711 -0.810666
1.073018 0.585169 -0.813477
1.084189 0.587452 -0.818837
1.090969 0.585144 -0.820169
1.097537 0.582571 -0.821293
1.109350 0.585143 -0.827075
1.117957 0.584417 -0.829946
1.129028 0.585989 -0.834948
1.142446 0.589670 -0.841940
1.151343 0.588882 -0.844916
1.158021 0.585925 -0.845938
1.168542 0.586488 -0.850245
1.176576 0.584650 -0.852375
1.187690 0.585537 -0.857089
1.203367 0.590389 -0.865590
1.211466 0.588306 -0.867638
1.219592 0.586184 -0.869680
1.229953 0.585939 -0.873544
1.240912 0.586107 -0.877852
1.250912 0.585349 -0.881320
1.259700 0.583487 -0.883757
1.271309 0.583902 -0.888441
1.282907 0.584198 -0.893057
1.291305 0.581788 -0.895055
1.304723 0.583364 -0.901014
1.316128 0.583210 -0.905307
1.329743 0.584702 -0.911282
1.341894 0.584935 -0.916037
1.354913 0.585742 -0.921404
1.367989 0.586491 -0.926746
1.376366 0.583612 -0.928409
1.387640 0.582874 -0.932257
1.405419 0.586866 -0.940997
1.414879 0.584655 -0.943342
1.427566 0.584753 -0.948078
1.442823 0.586624 -0.954672
1.452695 0.584612 -0.957179
1.461465 0.581830 -0.958834
1.479319 0.585335 -0.967140
1.485552 0.580802 -0.966845
1.492614 0.576899 -0.967147
1.508819 0.579167 -0.974051
1.519233 0.577544 -0.976702
1.539570 0.582444 -0.986419
1.551176 0.581582 -0.989806
1.558567 0.578034 -0.990162
1.567730 0.575690 -0.991754
1.567195 0.567299 -0.986524
1.577232 0.565679 -0.988711
1.576621 0.557534 -0.983484
1.590396 0.558370 -0.988231
1.600763 0.557154 -0.990583
1.637115 0.571603 -1.010649
1.648992 0.571258 -1.013878
1.657639 0.569053 -1.014887
1.671714 0.570103 -1.019533
1.687045 0.571909 -1.024969
1.685232 0.563873 -1.018938
0.200389 0.574564 -0.547520
0.203351 0.575701 -0.549531
0.206382 0.576813 -0.551522
0.209552 0.576717 -0.552806
0.212746 0.577246 -0.554444
0.215969 0.578427 -0.556454
0.219219 0.580500 -0.558977
0.222654 0.580102 -0.560046
0.226212 0.578021 -0.560113
0.229786 0.576676 -0.560594
0.233313 0.578330 -0.562830
0.236915 0.579866 -0.564987
0.240586 0.581455 -0.567167
0.244354 0.581589 -0.568472
0.248222 0.578494 -0.567837
0.252042 0.583585 -0.572074
0.255999 0.579717 -0.570943
0.259972 0.578723 -0.571513
0.263987 0.578354 -0.572443
0.268080 0.581266 -0.575341
0.272213 0.581947 -0.576885
0.276396 0.582690 -0.578455
0.280645 0.584093 -0.580418
0.284827 0.581553 -0.579972
0.289102 0.581317 -0.580916
0.293439 0.581832 -0.582309
0.297805 0.582115 -0.583553
0.302195 0.582233 -0.584689
0.306701 0.583882 -0.586761
0.311154 0.583948 -0.587855
0.315612 0.583709 -0.588756
0.320049 0.582896 -0.589297
0.324647 0.583989 -0.591015
0.329154 0.583597 -0.591811
0.333617 0.582566 -0.592206
0.338163 0.582348 -0.593105
0.342776 0.582674 -0.594344
0.347401 0.582931 -0.595542
0.352046 0.583229 -0.596768
0.356765 0.584024 -0.598310
0.361454 0.584407 -0.599597
0.365970 0.583303 -0.599949
0.370547 0.582675 -0.600604
0.375166 0.582329 -0.601441
0.379884 0.582632 -0.602696
0.384578 0.582692 -0.603802
0.389294 0.582825 -0.604962
0.393989 0.582768 -0.606007
0.398921 0.584093 -0.607944
0.403676 0.584250 -0.609143
0.408329 0.583772 -0.609942
0.413112 0.583986 -0.611195
0.417760 0.583430 -0.611959
0.422204 0.581808 -0.612041
0.427052 0.582255 -0.613469
0.432583 0.585952 -0.617019
0.437209 0.585128 -0.617646
0.441584 0.583144 -0.617524
0.446686 0.584481 -0.619578
0.451466 0.584299 -0.620650
0.456418 0.584816 -0.622192
0.461187 0.584500 -0.623197
0.465904 0.583939 -0.624051
0.470858 0.584303 -0.625525
0.475987 0.585282 -0.627420
0.480694 0.584568 -0.628204
0.485724 0.585037 -0.629785
0.490532 0.584631 -0.630795
0.495596 0.585104 -0.632403
0.500523 0.585032 -0.633660
0.505519 0.585146 -0.635053
0.510473 0.585069 -0.636329
0.516088 0.587112 -0.639048
0.521353 0.587899 -0.640936
0.526047 0.586798 -0.641559
0.530609 0.585276 -0.641904
0.536086 0.586545 -0.644159
0.540658 0.585007 -0.644513
0.545922 0.585504 -0.646268
0.551437 0.586652 -0.648484
0.556629 0.586788 -0.650021
0.561715 0.586571 -0.651327
0.566925 0.586647 -0.652849
0.572009 0.586324 -0.654107
0.576826 0.585246 -0.654852
0.581979 0.585024 -0.656204
0.587758 0.586358 -0.658656
0.593556 0.587641 -0.661090
0.598092 0.585688 -0.661270
0.603340 0.585482 -0.662687
0.609071 0.586387 -0.664901
0.614859 0.587339 -0.667167
0.619684 0.585955 -0.667790
0.625349 0.586487 -0.669789
0.631258 0.587497 -0.672144
0.636854 0.587718 -0.673953
0.642426 0.587820 -0.675693
0.647659 0.587122 -0.676872
0.653918 0.588580 -0.679620
0.658645 0.586703 -0.679974
0.665042 0.588292 -0.682853
0.670735 0.588332 -0.684627
0.676230 0.587907 -0.686077
0.681431 0.586845 -0.687075
0.686984 0.586442 -0.688568
0.692758 0.586417 -0.690355
0.698578 0.586418 -0.692178
0.703690 0.585017 -0.692979
0.710666 0.587070 -0.696357
0.716973 0.587773 -0.698756
0.722871 0.587650 -0.700558
0.729207 0.588252 -0.702922
0.735295 0.588334 -0.704915
0.740604 0.586984 -0.705847
0.746669 0.586910 -0.707757
0.752432 0.586256 -0.709246
0.758730 0.586456 -0.711401
0.764193 0.585191 -0.712459
0.770574 0.585402 -0.714661
0.775775 0.583622 -0.715354
0.782867 0.584855 -0.718383
0.789406 0.585113 -0.720685
0.795503 0.584603 -0.722414
0.803182 0.586487 -0.726026
0.810212 0.587263 -0.728805
0.819184 0.590888 -0.733845
0.825545 0.590454 -0.735734
0.830593 0.588020 -0.736066
0.838269 0.589406 -0.739436
0.843503 0.587164 -0.739954
0.849998 0.586699 -0.741902
0.856331 0.585942 -0.743641
0.862877 0.585425 -0.745595
0.869059 0.584344 -0.747117
0.875712 0.583853 -0.749138
0.881795 0.582530 -0.750509
0.888822 0.582417 -0.752887
0.898717 0.586007 -0.758321
0.904433 0.583996 -0.759210
0.910751 0.582726 -0.760727
0.916414 0.580569 -0.761536
0.924255 0.581122 -0.764612
0.932464 0.582041 -0.768027
0.943602 0.586462 -0.774412
0.947439 0.581812 -0.773244
0.958581 0.585979 -0.779510
0.965450 0.584878 -0.781383
0.970726 0.581838 -0.781639
0.980527 0.584050 -0.786390
0.987716 0.583116 -0.788500
0.997795 0.585406 -0.793415
1.009273 0.589133 -0.799626
1.014538 0.585760 -0.799749
1.022290 0.585111 -0.802260
1.030922 0.585341 -0.805578
1.038878 0.584743 -0.808213
1.046400 0.583599 -0.810407
1.056584 0.585193 -0.815060
1.064568 0.584357 -0.817611
1.072774 0.583671 -0.820336
1.082425 0.584375 -0.824349
1.091473 0.584355 -0.827763
1.099510 0.583223 -0.830218
1.109987 0.584424 -0.834836
1.117651 0.582746 -0.836883
1.129823 0.585359 -0.842906
1.141762 0.587587 -0.848648
1.149629 0.585811 -0.850747
1.159227 0.585585 -0.854327
1.168577 0.585028 -0.857647
1.179441 0.585761 -0.862228
1.190118 0.586202 -0.866592
1.201757 0.587387 -0.871719
1.210609 0.585971 -0.874424
1.219476 0.584492 -0.877105
1.229695 0.584110 -0.880882
1.240578 0.584199 -0.885161
1.250342 0.583234 -0.888461
1.262631 0.584300 -0.893790
1.274650 0.585018 -0.898833
1.283611 0.583114 -0.901328
1.297826 0.585410 -0.908028
1.307083 0.583586 -0.910666
1.320247 0.584805 -0.916384
1.333826 0.586231 -0.922358
1.344167 0.585027 -0.925701
1.356661 0.585417 -0.930688
1.367561 0.584508 -0.934366
1.375685 0.581460 -0.935840
1.385501 0.579661 -0.938592
1.409023 0.587897 -0.951818
1.419114 0.586139 -0.954641
1.431231 0.585817 -0.958959
1.441452 0.584103 -0.961789
1.452465 0.582936 -0.965171
1.465506 0.583164 -0.970018
1.480672 0.584816 -0.976378
1.486108 0.579776 -0.975477
1.499651 0.580283 -0.980526
1.514194 0.581430 -0.986240
1.518593 0.575842 -0.984514
1.522174 0.569825 -0.982207
1.538663 0.572285 -0.989190
1.556098 0.575307 -0.996764
1.560589 0.570064 -0.995047
1.574446 0.570825 -0.999964
1.574339 0.562894 -0.994998
1.584808 0.561660 -0.997478
1.604874 0.566341 -1.006607
1.627015 0.572224 -1.017072
1.614789 0.557410 -1.003746
1.615795 0.550766 -0.999621
1.644498 0.560609 -1.014422
1.669994 0.568448 -1.026893
1.684084 0.569588 -1.031536
0.202963 0.576967 -0.554662
0.205916 0.579020 -0.557235
0.209308 0.575001 -0.556253
0.212627 0.572800 -0.556315
0.215667 0.576689 -0.559942
0.218899 0.578475 -0.562331
0.222277 0.578644 -0.563757
0.225738 0.578228 -0.564825
0.229208 0.579130 -0.566662
0.232797 0.578354 -0.567488
0.236353 0.580645 -0.570133
0.240002 0.582246 -0.572358
0.243757 0.581919 -0.573414
0.247558 0.582123 -0.574777
0.251426 0.581083 -0.575374
0.255327 0.582251 -0.577290
0.259291 0.578130 -0.575988
0.263295 0.580570 -0.578650
0.267357 0.581500 -0.580386
0.271461 0.581544 -0.581570
0.275643 0.583323 -0.583804
0.279844 0.583374 -0.584970
0.284050 0.582238 -0.585396
0.288306 0.581797 -0.586237
0.292654 0.582862 -0.587996
0.297027 0.583480 -0.589473
0.301445 0.584235 -0.591029
0.305838 0.583832 -0.591859
0.310225 0.582951 -0.592384
0.314628 0.582061 -0.592896
0.319155 0.582696 -0.594354
0.323705 0.583243 -0.595755
0.328216 0.582992 -0.596654
0.332680 0.582013 -0.597092
0.337257 0.582169 -0.598241
0.341897 0.582766 -0.599670
0.346560 0.583385 -0.601113
0.351172 0.583337 -0.602137
0.355812 0.583416 -0.603244
0.360430 0.583205 -0.604168
0.365086 0.583211 -0.605234
0.369686 0.582711 -0.605981
0.374314 0.582375 -0.606835
0.379080 0.582970 -0.608292
0.383771 0.582939 -0.609353
0.388284 0.581697 -0.609639
0.393074 0.582217 -0.611067
0.397979 0.583349 -0.612899
0.402949 0.584730 -0.614903
0.407788 0.585229 -0.616346
0.412593 0.585462 -0.617625
0.417373 0.585502 -0.618788
0.422306 0.586284 -0.620444
0.427323 0.587398 -0.622329
0.431675 0.585160 -0.622027
0.436686 0.586122 -0.623834
0.441034 0.583926 -0.623570
0.445723 0.583336 -0.624372
0.450728 0.584114 -0.626089
0.455570 0.584110 -0.627299
0.460534 0.584574 -0.628831
0.465382 0.584496 -0.630015
0.470499 0.585444 -0.631894
0.475595 0.586222 -0.633674
0.480258 0.585269 -0.634307
0.485058 0.584821 -0.635287
0.489975 0.584768 -0.636544
0.494774 0.584249 -0.637498
0.499794 0.584473 -0.638965
0.504740 0.584387 -0.640234
0.509764 0.584513 -0.641659
0.515282 0.586210 -0.644169
0.520752 0.587635 -0.646510
0.525239 0.585840 -0.646663
0.530062 0.585104 -0.647549
0.535669 0.586735 -0.650075
0.540805 0.586843 -0.651568
0.545910 0.586800 -0.652971
0.550982 0.586609 -0.654283
0.555985 0.586174 -0.655438
0.561127 0.586087 -0.656847
0.566226 0.585831 -0.658152
0.570977 0.584586 -0.658776
0.575837 0.583617 -0.659602
0.581364 0.584361 -0.661646
0.587497 0.586584 -0.664749
0.592831 0.586656 -0.666353
0.597455 0.584905 -0.666677
0.602405 0.583946 -0.667571
0.609225 0.587469 -0.671675
0.614122 0.586260 -0.672421
0.619923 0.587142 -0.674676
0.624604 0.585357 -0.675032
0.630077 0.585365 -0.676689
0.636119 0.586584 -0.679236
0.641592 0.586454 -0.680825
0.648522 0.589432 -0.684688
0.653208 0.587460 -0.684971
0.657810 0.585303 -0.685125
0.662051 0.582393 -0.684734
0.669964 0.587043 -0.689906
0.675009 0.585696 -0.690691
0.680869 0.585951 -0.692672
0.686538 0.585759 -0.694339
0.693446 0.587920 -0.697773
0.698939 0.587245 -0.699117
0.705690 0.588907 -0.702225
0.710638 0.587091 -0.702747
0.716451 0.586855 -0.704468
0.723835 0.589419 -0.708320
0.729702 0.589126 -0.710040
0.734237 0.586413 -0.709937
0.739684 0.585302 -0.711062
0.745021 0.583960 -0.712024
0.753005 0.587109 -0.716444
0.758904 0.586594 -0.718080
0.765473 0.587144 -0.720555
0.771277 0.586351 -0.722015
0.777058 0.585474 -0.723426
0.783277 0.585254 -0.725366
0.789332 0.584710 -0.727073
0.795096 0.583652 -0.728396
0.801758 0.583942 -0.730798
0.808938 0.584948 -0.733789
0.817473 0.587908 -0.738357
0.823635 0.587182 -0.740035
0.830293 0.587134 -0.742273
0.836994 0.587076 -0.744529
0.842710 0.585526 -0.745612
0.850566 0.586990 -0.749141
0.857688 0.587312 -0.751781
0.863878 0.586252 -0.753328
0.870514 0.585756 -0.755357
0.875933 0.583538 -0.756003
0.881785 0.581876 -0.757121
0.892080 0.586086 -0.763092
0.899355 0.586151 -0.765694
0.904451 0.583300 -0.765909
0.909529 0.580409 -0.766104
0.917071 0.580638 -0.768919
0.926028 0.582559 -0.773189
0.930291 0.578518 -0.772483
0.940464 0.581752 -0.777935
0.950634 0.584829 -0.783309
0.957765 0.584095 -0.785493
0.965384 0.583874 -0.788146
0.974365 0.585172 -0.792140
0.980393 0.582918 -0.793119
0.987625 0.582009 -0.795285
0.999743 0.586592 -0.802258
1.007404 0.585967 -0.804758
1.015925 0.586221 -0.808066
1.024613 0.586560 -0.811492
1.032037 0.585420 -0.813657
1.038278 0.582936 -0.814664
1.047554 0.583644 -0.818542
1.056149 0.583520 -0.821727
1.064731 0.583289 -0.824859
1.073033 0.582675 -0.827691
1.084004 0.584695 -0.832956
1.093540 0.585124 -0.836835
1.101930 0.584297 -0.839617
1.110168 0.583237 -0.842227
1.119626 0.583286 -0.845903
1.132473 0.586501 -0.852572
1.142307 0.586664 -0.856471
1.148103 0.582907 -0.856746
1.162633 0.587280 -0.864702
1.171540 0.586258 -0.867641
1.180459 0.585163 -0.870552
1.192336 0.586657 -0.875980
1.198907 0.583272 -0.876785
1.212258 0.585843 -0.883363
1.221796 0.584921 -0.886624
1.230646 0.583319 -0.889262
1.241192 0.583097 -0.893286
1.252532 0.583448 -0.897920
1.266497 0.585883 -0.904670
1.276722 0.585072 -0.908254
1.286932 0.584168 -0.911777
1.297191 0.583226 -0.915293
1.309130 0.583554 -0.920122
1.321088 0.583798 -0.924903
1.333267 0.584122 -0.929798
1.345222 0.584180 -0.934451
1.356230 0.583431 -0.938292
1.368505 0.583580 -0.943079
1.376745 0.580630 -0.944642
1.388358 0.580174 -0.948804
1.405669 0.583839 -0.957320
1.419883 0.585122 -0.963346
1.428078 0.582008 -0.964687
1.440466 0.581886 -0.969195
1.453846 0.582420 -0.974392
1.464677 0.581137 -0.977603
1.471036 0.576775 -0.977417
1.492543 0.582781 -0.988506
1.513775 0.588459 -0.999260
1.521178 0.584792 -0.999697
1.514955 0.572201 -0.990131
1.515237 0.564107 -0.985401
1.528309 0.564446 -0.989984
1.548966 0.569641 -0.999981
1.572709 0.576703 -1.012075
1.578274 0.572231 -1.011062
1.585880 0.569134 -1.011500
1.597119 0.568358 -1.014493
1.612770 0.570318 -1.020545
1.614894 0.564089 -1.017077
1.615877 0.557322 -1.012846
1.632315 0.559897 -1.019343
1.650737 0.563636 -1.027134
1.670872 0.568353 -1.036014
1.687485 0.570994 -1.042404
0.205655 0.578313 -0.561253
0.208923 0.575964 -0.561260
0.212309 0.572256 -0.560445
0.215313 0.576315 -0.564220
0.218615 0.576142 -0.565477
0.221952 0.576472 -0.567024
0.225294 0.578172 -0.569379
0.228756 0.578577 -0.570951
0.232265 0.579454 -0.572794
0.235825 0.580851 -0.574942
0.239470 0.581559 -0.576663
0.243193 0.581479 -0.577894
0.246985 0.580482 -0.578554
0.250822 0.579546 -0.579234
0.254694 0.580262 -0.580907
0.258623 0.581990 -0.583188
0.262610 0.581397 -0.584034
0.266649 0.581722 -0.585431
0.270744 0.582548 -0.587124
0.274878 0.582578 -0.588315
0.279068 0.583133 -0.589819
0.283267 0.582358 -0.590487
0.287515 0.582120 -0.591476
0.291830 0.582690 -0.592957
0.296191 0.583361 -0.594495
0.300564 0.583463 -0.595668
0.304907 0.582419 -0.596115
0.309246 0.580999 -0.596315
0.313665 0.580612 -0.597156
0.318311 0.583159 -0.599845
0.322764 0.582478 -0.600492
0.327231 0.581779 -0.601123
0.331777 0.581834 -0.602228
0.336358 0.582063 -0.603443
0.340917 0.581848 -0.604374
0.345576 0.582471 -0.605840
0.350281 0.583311 -0.607447
0.354861 0.582846 -0.608220
0.359466 0.582513 -0.609079
0.364145 0.582703 -0.610277
0.368796 0.582576 -0.611274
0.373491 0.582689 -0.612431
0.378404 0.584260 -0.614537
0.383065 0.583927 -0.615417
0.387485 0.581979 -0.615251
0.392778 0.585613 -0.618725
0.397468 0.585268 -0.619617
0.402228 0.585302 -0.620762
0.407090 0.585862 -0.622261
0.411859 0.585819 -0.623373
0.416670 0.585958 -0.624613
0.421465 0.585955 -0.625769
0.426243 0.585824 -0.626849
0.431311 0.587068 -0.628849
0.435649 0.584722 -0.628478
0.440531 0.584978 -0.629843
0.445085 0.583691 -0.630189
0.449816 0.583204 -0.631077
0.454808 0.583816 -0.632710
0.459660 0.583763 -0.633909
0.464652 0.584240 -0.635476
0.469917 0.585743 -0.637748
0.474835 0.585770 -0.639037
0.479818 0.585999 -0.640475
0.484439 0.584816 -0.640967
0.489193 0.584120 -0.641798
0.494316 0.584725 -0.643527
0.499672 0.586071 -0.645776
0.504233 0.584585 -0.646100
0.509106 0.584157 -0.647159
0.514682 0.586013 -0.649802
0.519856 0.586443 -0.651479
0.524498 0.585118 -0.651956
0.528999 0.583351 -0.652135
0.535075 0.586411 -0.655677
0.540604 0.587663 -0.657982
0.545566 0.587145 -0.659067
0.550445 0.586353 -0.659972
0.555447 0.585879 -0.661112
0.560748 0.586204 -0.662825
0.565665 0.585410 -0.663763
0.570440 0.584200 -0.664418
0.575449 0.583595 -0.665512
0.581340 0.585257 -0.668229
0.586369 0.584595 -0.669309
0.591545 0.584266 -0.670639
0.596887 0.584304 -0.672246
0.602807 0.585700 -0.674842
0.608699 0.586926 -0.677336
0.614418 0.587645 -0.679483
0.619893 0.587711 -0.681174
0.624595 0.585934 -0.681542
0.629826 0.585350 -0.682788
0.635751 0.586279 -0.685151
0.641425 0.586566 -0.687063
0.647069 0.586716 -0.688892
0.653035 0.587493 -0.691199
0.657264 0.584517 -0.690753
0.663185 0.585088 -0.692938
0.669665 0.586728 -0.695935
0.675369 0.586690 -0.697707
0.680971 0.586385 -0.699295
0.686518 0.585919 -0.700779
0.692709 0.586654 -0.703180
0.699772 0.588977 -0.706799
0.704690 0.587117 -0.707283
0.710285 0.586505 -0.708725
0.716981 0.587874 -0.711687
0.723489 0.588802 -0.714339
0.729197 0.588203 -0.715845
0.734937 0.587611 -0.717373
0.738933 0.583912 -0.716526
0.747364 0.587910 -0.721624
0.752823 0.586667 -0.722703
0.758809 0.586277 -0.724457
0.765428 0.586882 -0.727007
0.771405 0.586349 -0.728691
0.777272 0.585583 -0.730211
0.783771 0.585779 -0.732507
0.789301 0.584367 -0.733555
0.793879 0.581427 -0.733408
0.801432 0.583093 -0.736931
0.808143 0.583360 -0.739370
0.815688 0.584811 -0.742781
0.823169 0.586061 -0.746063
0.830701 0.587285 -0.749357
0.836118 0.585322 -0.750106
0.842623 0.584898 -0.752119
0.848974 0.584193 -0.753927
0.856881 0.585621 -0.757500
0.863962 0.585790 -0.760078
0.870613 0.585287 -0.762132
0.876290 0.583393 -0.763062
0.882720 0.582479 -0.764823
0.892189 0.585548 -0.769922
0.898579 0.584423 -0.771568
0.904656 0.582834 -0.772850
0.910397 0.580770 -0.773754
0.917114 0.579911 -0.775696
0.925921 0.581616 -0.779837
0.933775 0.582017 -0.782915
0.944973 0.586433 -0.789459
0.950087 0.583275 -0.789574
0.960778 0.586801 -0.795458
0.968203 0.586283 -0.797908
0.974580 0.584457 -0.799257
0.980352 0.581878 -0.799976
0.997559 0.592410 -0.812187
0.999606 0.585388 -0.809093
1.007823 0.585363 -0.812161
1.017409 0.586769 -0.816540
1.025456 0.586358 -0.819354
1.033644 0.586015 -0.822270
1.040807 0.584479 -0.824158
1.049432 0.584437 -0.827426
1.057919 0.584153 -0.830519
1.067537 0.584954 -0.834644
1.075717 0.584158 -0.837364
1.085792 0.585207 -0.841819
1.094371 0.584626 -0.844829
1.103071 0.584076 -0.847912
1.112001 0.583662 -0.851166
1.119869 0.582118 -0.853412
1.135802 0.588274 -0.862927
1.143815 0.586643 -0.865200
1.154703 0.587653 -0.870013
1.165212 0.588181 -0.874429
1.173238 0.586301 -0.876596
1.183769 0.586640 -0.880932
1.192266 0.585031 -0.883439
1.202963 0.585314 -0.887820
1.213608 0.585438 -0.892099
1.225120 0.586211 -0.897067
1.233883 0.584491 -0.899630
1.244176 0.584010 -0.903453
1.254636 0.583580 -0.907366
1.264119 0.582242 -0.910410
1.279422 0.585638 -0.918253
1.287320 0.582819 -0.919875
1.297306 0.581652 -0.923187
1.310065 0.582634 -0.928721
1.323400 0.583959 -0.934651
1.333050 0.582292 -0.937527
1.344198 0.581736 -0.941564
1.357367 0.582658 -0.947162
1.367607 0.581272 -0.950359
1.380467 0.581805 -0.955580
1.394410 0.583061 -0.961583
1.403929 0.580994 -0.964051
1.415268 0.580233 -0.967896
1.430023 0.581883 -0.974325
1.440261 0.580254 -0.977201
1.451990 0.579665 -0.981173
1.460554 0.576860 -0.982686
1.471536 0.575744 -0.985997
1.494769 0.582949 -0.998469
1.521538 0.592367 -1.013438
1.533383 0.591651 -1.017138
1.522628 0.576058 -1.004074
1.517889 0.564697 -0.995565
1.521661 0.559059 -0.993364
1.545552 0.566405 -1.005817
1.571044 0.574636 -1.019287
1.589908 0.578571 -1.027835
1.591725 0.571861 -1.024075
1.598115 0.568116 -1.023606
1.605920 0.565331 -1.024137
1.612927 0.562147 -1.024096
1.627995 0.563884 -1.029701
1.657206 0.574025 -1.045111
1.673581 0.576475 -1.051450
1.690615 0.579310 -1.058176
0.205804 0.571562 -0.561667
0.208676 0.574942 -0.565090
0.211795 0.575478 -0.566816
0.215089 0.573871 -0.567249
0.218326 0.574355 -0.568924
0.221581 0.575783 -0.571157
0.224936 0.576518 -0.572965
0.228331 0.577872 -0.575139
0.231805 0.578947 -0.577134
0.235343 0.580106 -0.579172
0.238963 0.580692 -0.580850
0.242671 0.579948 -0.581701
0.246435 0.578738 -0.582250
0.250244 0.577495 -0.582762
0.254072 0.579691 -0.585376
0.257974 0.581352 -0.587653
0.261942 0.582585 -0.589655
0.265969 0.583552 -0.591482
0.270033 0.582928 -0.592307
0.274140 0.582489 -0.593233
0.278340 0.584370 -0.595596
0.282527 0.583573 -0.596273
0.286737 0.582464 -0.596740
0.291008 0.582255 -0.597761
0.295322 0.582250 -0.598899
0.299674 0.582314 -0.600072
0.303978 0.580845 -0.600264
0.308327 0.579888 -0.600771
0.312873 0.581715 -0.603039
0.317395 0.582534 -0.604664
0.321850 0.581993 -0.605416
0.326321 0.581434 -0.606152
0.330899 0.581931 -0.607560
0.335465 0.582019 -0.608704
0.340015 0.581730 -0.609604
0.344672 0.582340 -0.611082
0.349307 0.582536 -0.612295
0.354101 0.583983 -0.614320
0.358722 0.583710 -0.615233
0.363222 0.582367 -0.615452
0.367840 0.581957 -0.616278
0.372682 0.583153 -0.618157
