ply
format ascii 1.0
comment ---
element vertex 1708
property float x
property float y
property float z
element face 0
property list uchar uint vertex_indices
end_header
0.318222 0.602642 -0.159799
0.322589 0.599239 -0.158959
0.326445 0.598618 -0.158808
0.329836 0.600736 -0.159337
0.333519 0.601118 -0.159441
0.337870 0.597159 -0.158478
0.340226 0.606200 -0.160726
0.345699 0.594334 -0.157818
0.348660 0.599507 -0.159118
0.352357 0.599580 -0.159163
0.356583 0.595567 -0.158203
0.360228 0.595825 -0.158299
0.363771 0.596910 -0.158604
0.367127 0.599656 -0.159321
0.370801 0.599756 -0.159388
0.374512 0.599473 -0.159363
0.378077 0.600566 -0.159681
0.381348 0.604758 -0.160768
0.385630 0.598412 -0.159252
0.389378 0.597428 -0.159064
0.392929 0.598694 -0.159435
0.396694 0.597325 -0.159157
0.399984 0.602247 -0.160438
0.403884 0.598917 -0.159679
0.407578 0.598303 -0.159595
0.411161 0.599428 -0.159943
0.414821 0.599316 -0.159988
0.418515 0.598490 -0.159857
0.422128 0.599255 -0.160123
0.425703 0.601122 -0.160665
0.429414 0.599648 -0.160380
0.433037 0.600558 -0.160689
0.436689 0.600681 -0.160804
0.440405 0.597839 -0.160183
0.444066 0.596688 -0.159985
0.447696 0.597285 -0.160224
0.451332 0.597943 -0.160479
0.454977 0.597060 -0.160353
0.458612 0.594914 -0.159913
0.462285 0.600637 -0.161437
0.465959 0.601954 -0.161865
0.469610 0.601074 -0.161746
0.473247 0.599866 -0.161547
0.476844 0.597542 -0.161071
0.480461 0.596543 -0.160926
0.484063 0.595344 -0.160733
0.487682 0.594807 -0.160707
0.491347 0.595348 -0.160953
0.495157 0.598657 -0.161894
0.498502 0.592886 -0.160561
0.502532 0.599465 -0.162327
0.506211 0.599612 -0.162481
0.510015 0.601498 -0.163074
0.513528 0.599190 -0.162615
0.517316 0.600615 -0.163096
0.521332 0.604567 -0.164215
0.524834 0.602250 -0.163758
0.528190 0.598571 -0.162959
0.531545 0.595220 -0.162243
0.534987 0.592998 -0.161812
0.538691 0.593376 -0.162040
0.542549 0.595059 -0.162599
0.546751 0.599511 -0.163861
0.550273 0.598015 -0.163621
0.554029 0.598445 -0.163870
0.557882 0.599546 -0.164292
0.561083 0.595770 -0.163479
0.564762 0.595603 -0.163582
0.568732 0.597404 -0.164188
0.572541 0.597997 -0.164489
0.576140 0.597173 -0.164432
0.579626 0.595675 -0.164206
0.583320 0.595485 -0.164315
0.586523 0.592392 -0.163685
0.590002 0.591021 -0.163496
0.595376 0.600194 -0.166004
0.599998 0.604799 -0.167349
0.604393 0.607940 -0.168325
0.607640 0.605000 -0.167747
0.610167 0.598573 -0.166276
0.612328 0.590635 -0.164418
0.617233 0.596117 -0.166006
0.621073 0.596353 -0.166251
0.624970 0.596804 -0.166554
0.628565 0.595858 -0.166501
0.632456 0.596207 -0.166784
0.636089 0.595407 -0.166775
0.640547 0.598043 -0.167656
0.644797 0.599689 -0.168287
0.648803 0.600253 -0.168641
0.651703 0.596418 -0.167860
0.655235 0.595120 -0.167739
0.658726 0.593685 -0.167585
0.662256 0.592405 -0.167475
0.667759 0.598311 -0.169238
0.671713 0.598427 -0.169501
0.675200 0.596865 -0.169330
0.679026 0.596481 -0.169471
0.682711 0.595590 -0.169483
0.686693 0.595679 -0.169756
0.690754 0.595975 -0.170088
0.695389 0.598063 -0.170896
0.698258 0.594455 -0.170212
0.704686 0.601988 -0.172465
0.707665 0.598676 -0.171869
0.710638 0.595405 -0.171286
0.715827 0.598757 -0.172458
0.721917 0.604586 -0.174294
0.725976 0.604349 -0.174531
0.728034 0.598411 -0.173260
0.730472 0.593661 -0.172306
0.734420 0.593143 -0.172482
0.738410 0.592705 -0.172684
0.744292 0.597268 -0.174228
0.747820 0.595466 -0.174079
0.749242 0.588208 -0.172472
0.754253 0.590264 -0.173366
0.757042 0.586618 -0.172734
0.760928 0.585741 -0.172850
0.766981 0.590137 -0.174396
0.771487 0.590628 -0.174896
0.776249 0.591658 -0.175549
0.781403 0.593529 -0.176437
0.788236 0.599188 -0.178363
0.791057 0.595465 -0.177745
0.794144 0.592391 -0.177305
0.800000 0.595511 -0.178562
0.803471 0.593254 -0.178354
0.807696 0.592642 -0.178600
0.811479 0.591050 -0.178581
0.816038 0.591091 -0.179014
0.823270 0.596670 -0.180981
0.825370 0.591478 -0.179976
0.826359 0.584108 -0.178364
0.829185 0.580576 -0.177812
0.833540 0.580137 -0.178119
0.842045 0.587827 -0.180694
0.848764 0.591839 -0.182250
0.853261 0.591469 -0.182581
0.857230 0.590083 -0.182625
0.869989 0.605187 -0.187302
0.872510 0.600965 -0.186545
0.872934 0.592994 -0.184717
0.874579 0.587412 -0.183551
0.882657 0.593475 -0.185672
0.887662 0.593976 -0.186210
0.889535 0.588994 -0.185177
0.893399 0.587594 -0.185149
0.898378 0.588164 -0.185667
0.903072 0.588273 -0.186040
0.908469 0.589601 -0.186746
0.913790 0.590824 -0.187405
0.918059 0.590343 -0.187557
0.922440 0.590112 -0.187761
0.926901 0.590081 -0.188002
0.931954 0.591065 -0.188513
0.936721 0.591651 -0.188888
0.940035 0.590022 -0.188600
0.941153 0.585082 -0.187331
0.944702 0.584065 -0.187171
0.962142 0.604416 -0.193165
0.073289 0.583027 -0.162184
0.072687 0.591148 -0.164452
0.076581 0.590542 -0.164465
0.079414 0.592183 -0.165034
0.082827 0.592785 -0.165317
0.085903 0.594203 -0.165791
0.089664 0.594330 -0.165913
0.092789 0.595902 -0.166388
0.096056 0.597304 -0.166801
0.101975 0.593129 -0.165759
0.100802 0.604376 -0.168671
0.104133 0.606056 -0.169102
0.109448 0.603437 -0.168409
0.114288 0.601899 -0.167979
0.117715 0.603608 -0.168372
0.124259 0.598219 -0.166923
0.128411 0.598341 -0.166881
0.131833 0.600238 -0.167284
0.136373 0.599536 -0.167008
0.141930 0.596368 -0.166089
0.145375 0.598346 -0.166485
0.148568 0.601024 -0.167053
0.152791 0.601172 -0.166965
0.157920 0.598996 -0.166277
0.162031 0.599408 -0.166248
0.165758 0.600838 -0.166476
0.169923 0.601119 -0.166408
0.174583 0.600036 -0.165990
0.179351 0.598592 -0.165479
0.184538 0.595898 -0.164650
0.187596 0.599168 -0.165343
0.190144 0.603986 -0.166430
0.193382 0.606886 -0.167029
0.199888 0.600036 -0.165148
0.203639 0.601308 -0.165338
0.207814 0.601265 -0.165196
0.212525 0.599480 -0.164615
0.216596 0.599630 -0.164529
0.219746 0.602739 -0.165197
0.225005 0.598904 -0.164108
0.229329 0.598030 -0.163774
0.232311 0.601689 -0.164593
0.235910 0.603263 -0.164888
0.238493 0.608462 -0.166103
0.243604 0.604610 -0.165034
0.249589 0.597319 -0.163102
0.253060 0.599176 -0.163486
0.258889 0.591968 -0.161586
0.262597 0.592746 -0.161708
0.265135 0.598194 -0.163013
0.268247 0.601461 -0.163771
0.272416 0.600390 -0.163440
0.275648 0.603217 -0.164096
0.278842 0.606281 -0.164816
0.282583 0.606989 -0.164947
0.288072 0.599691 -0.163066
0.292709 0.595981 -0.162094
0.296633 0.595453 -0.161928
0.300236 0.596415 -0.162141
0.303660 0.598277 -0.162585
0.307417 0.598465 -0.162612
0.311264 0.598141 -0.162514
0.314050 0.603500 -0.163850
0.317831 0.603568 -0.163859
0.322502 0.598484 -0.162576
0.326210 0.598740 -0.162640
0.329991 0.598526 -0.162589
0.333852 0.597753 -0.162402
0.337317 0.599435 -0.162836
0.340396 0.603757 -0.163938
0.344072 0.604212 -0.164071
0.347920 0.603442 -0.163898
0.352040 0.600569 -0.163200
0.355861 0.599724 -0.163015
0.359551 0.599814 -0.163069
0.363359 0.598905 -0.162874
0.367121 0.598276 -0.162753
0.371043 0.596128 -0.162252
0.374762 0.595648 -0.162175
0.378397 0.595908 -0.162286
0.381897 0.597549 -0.162749
0.384957 0.604073 -0.164446
0.389083 0.599145 -0.163257
0.392795 0.598595 -0.163175
0.396509 0.597930 -0.163067
0.400172 0.597847 -0.163108
0.403757 0.598844 -0.163424
0.407430 0.598600 -0.163429
0.411249 0.595812 -0.162794
0.414933 0.595000 -0.162659
0.418504 0.596287 -0.163058
0.422105 0.597165 -0.163356
0.425823 0.595293 -0.162960
0.429372 0.597703 -0.163650
0.432987 0.598656 -0.163974
0.436603 0.599921 -0.164378
0.440276 0.599068 -0.164249
0.443975 0.596141 -0.163594
0.447608 0.596454 -0.163763
0.451244 0.596909 -0.163971
0.454885 0.597016 -0.164091
0.458530 0.598248 -0.164500
0.462203 0.601443 -0.165410
0.465868 0.601466 -0.165516
0.469490 0.598883 -0.164959
0.473174 0.600235 -0.165407
0.476842 0.600438 -0.165563
0.480651 0.605098 -0.166858
0.484440 0.607912 -0.167685
0.487685 0.596612 -0.164912
0.491287 0.595525 -0.164746
0.494760 0.592058 -0.163972
0.498725 0.598103 -0.165632
0.502169 0.594417 -0.164806
0.506349 0.602668 -0.167036
0.509890 0.600523 -0.166608
0.513448 0.598841 -0.166299
0.517261 0.600567 -0.166865
0.521288 0.604633 -0.168035
0.525104 0.605843 -0.168474
0.528115 0.598245 -0.166651
0.531529 0.595488 -0.166073
0.535268 0.596111 -0.166366
0.538840 0.595097 -0.166239
0.542657 0.596323 -0.166691
0.546507 0.597704 -0.167186
0.550326 0.598684 -0.167579
0.554237 0.600290 -0.168137
0.558385 0.603546 -0.169123
0.561087 0.595956 -0.167308
0.564682 0.595164 -0.167251
0.568667 0.597065 -0.167894
0.572505 0.597846 -0.168250
0.576349 0.598583 -0.168597
0.579679 0.596045 -0.168096
0.583439 0.596225 -0.168303
0.586558 0.592605 -0.167524
0.590049 0.591273 -0.167342
0.594703 0.596438 -0.168854
0.599983 0.604673 -0.171171
0.604224 0.606988 -0.171950
0.607638 0.604912 -0.171587
0.609586 0.595577 -0.169327
0.613386 0.595693 -0.169540
0.617145 0.595575 -0.169694
0.621100 0.596343 -0.170083
0.625243 0.597899 -0.170682
0.629864 0.601476 -0.171816
0.632723 0.597192 -0.170889
0.636300 0.596117 -0.170808
0.639871 0.595021 -0.170724
0.645720 0.603243 -0.173101
0.649611 0.603257 -0.173319
0.651684 0.596100 -0.171646
0.655457 0.595721 -0.171766
0.658878 0.593994 -0.171533
0.662512 0.593077 -0.171517
0.668432 0.600464 -0.173710
0.672995 0.602699 -0.174542
0.676479 0.601029 -0.174341
0.679010 0.596098 -0.173276
0.682207 0.593551 -0.172847
0.686613 0.595062 -0.173506
0.690785 0.595715 -0.173940
0.694814 0.595843 -0.174240
0.698486 0.594792 -0.174229
0.703677 0.598453 -0.175487
0.707196 0.596836 -0.175335
0.710878 0.595712 -0.175320
0.717112 0.602134 -0.177343
0.722773 0.606637 -0.178860
0.726637 0.605792 -0.178939
0.727473 0.596364 -0.176700
0.730111 0.592184 -0.175883
0.734070 0.591704 -0.176073
0.738078 0.591317 -0.176294
0.745346 0.599573 -0.178875
0.748437 0.596572 -0.178398
0.751220 0.592809 -0.177716
0.755054 0.591779 -0.177786
0.760291 0.594253 -0.178822
0.763666 0.591988 -0.178565
0.769856 0.596614 -0.180208
0.771433 0.589933 -0.178744
0.776404 0.591455 -0.179547
0.782009 0.594371 -0.180742
0.787038 0.595822 -0.181540
0.792074 0.597197 -0.182325
0.795369 0.594557 -0.181999
0.798324 0.591175 -0.181469
0.804094 0.594017 -0.182680
0.807576 0.591772 -0.182474
0.811770 0.591061 -0.182701
0.816746 0.591976 -0.183388
0.822655 0.594770 -0.184609
0.826994 0.594215 -0.184890
0.826846 0.584494 -0.182582
0.831724 0.585085 -0.183186
0.835888 0.584208 -0.183376
0.842966 0.589042 -0.185189
0.848092 0.589947 -0.185887
0.853663 0.591659 -0.186816
0.857773 0.590544 -0.186934
0.870404 0.605398 -0.191627
0.873518 0.602284 -0.191169
0.875586 0.597321 -0.190167
0.878523 0.594045 -0.189640
0.881471 0.590866 -0.189128
0.887893 0.593918 -0.190407
0.892336 0.593458 -0.190660
0.895896 0.591505 -0.190464
0.898424 0.587855 -0.189758
0.902159 0.586364 -0.189663
0.907823 0.588187 -0.190517
0.913579 0.590174 -0.191402
0.918216 0.590335 -0.191735
0.921649 0.588590 -0.191489
0.926731 0.589607 -0.192030
0.932348 0.591532 -0.192816
0.937706 0.593083 -0.193471
0.939543 0.589156 -0.192491
0.943219 0.588241 -0.192372
0.949392 0.591282 -0.193393
0.959838 0.600899 -0.196328
0.061685 0.605662 -0.171886
0.069527 0.597220 -0.169880
0.069709 0.604055 -0.171848
0.073649 0.603549 -0.171876
0.081818 0.594524 -0.169650
0.086020 0.593599 -0.169526
0.089655 0.593940 -0.169714
0.092966 0.595074 -0.170090
0.096567 0.595717 -0.170318
0.102224 0.592051 -0.169396
0.100992 0.603367 -0.172391
0.105797 0.601755 -0.171972
0.112648 0.595636 -0.170352
0.116528 0.596131 -0.170453
0.119101 0.599684 -0.171343
0.124139 0.597698 -0.170764
0.127629 0.599332 -0.171122
0.131458 0.600250 -0.171280
0.135789 0.600028 -0.171129
0.140800 0.598180 -0.170540
0.145377 0.597373 -0.170217
0.149274 0.598262 -0.170331
0.152320 0.601341 -0.171010
0.156426 0.601789 -0.170995
0.160960 0.601131 -0.170687
0.164411 0.603313 -0.171117
0.169081 0.602270 -0.170701
0.173933 0.600682 -0.170143
0.178370 0.600171 -0.169864
0.182613 0.600163 -0.169716
0.187386 0.598607 -0.169166
0.190137 0.602827 -0.170119
0.193684 0.604802 -0.170488
0.199192 0.600928 -0.169340
0.203605 0.600212 -0.169016
0.207675 0.600490 -0.168952
0.212163 0.599409 -0.168539
0.216038 0.600205 -0.168616
0.219089 0.603655 -0.169383
0.223420 0.602935 -0.169075
0.229259 0.597047 -0.167435
0.232930 0.598335 -0.167655
0.233728 0.609659 -0.170470
0.239090 0.605094 -0.169187
0.243826 0.602572 -0.168437
0.249388 0.596836 -0.166864
0.253049 0.597990 -0.167071
0.257397 0.596489 -0.166600
0.260958 0.597958 -0.166898
0.264036 0.601362 -0.167699
0.267791 0.602087 -0.167815
0.272340 0.599471 -0.167077
0.275269 0.603594 -0.168076
0.277823 0.609478 -0.169532
0.281712 0.609621 -0.169516
0.287235 0.602269 -0.167581
0.292356 0.596391 -0.166029
0.296148 0.596529 -0.166027
0.299932 0.596658 -0.166028
0.303945 0.595597 -0.165727
0.308137 0.593510 -0.165167
0.310521 0.600798 -0.167018
0.313834 0.603398 -0.167669
0.318249 0.599962 -0.166776
0.322127 0.599352 -0.166612
0.325862 0.599502 -0.166647
0.329504 0.600180 -0.166822
0.333766 0.596984 -0.166006
0.337532 0.596735 -0.165950
0.340594 0.601107 -0.167084
0.343893 0.604097 -0.167866
0.347512 0.604971 -0.168110
0.351442 0.603592 -0.167778
0.355234 0.603113 -0.167681
0.359026 0.602559 -0.167568
0.362849 0.601670 -0.167372
0.366955 0.598246 -0.166528
0.371062 0.594479 -0.165599
0.374711 0.594610 -0.165674
0.378275 0.595556 -0.165962
0.381982 0.595088 -0.165888
0.384885 0.603211 -0.168027
0.388126 0.608338 -0.169399
0.392271 0.603159 -0.168123
0.395865 0.604348 -0.168488
0.399712 0.602216 -0.168000
0.403270 0.603956 -0.168512
0.407050 0.602484 -0.168199
0.411115 0.595929 -0.166579
0.414757 0.595960 -0.166657
0.418361 0.596727 -0.166928
0.422005 0.596738 -0.167006
0.425668 0.596289 -0.166967
0.429317 0.596083 -0.166993
0.432859 0.599253 -0.167894
0.436535 0.598402 -0.167758
0.440205 0.597496 -0.167610
0.443851 0.597505 -0.167700
0.447484 0.598571 -0.168066
0.451140 0.597950 -0.167997
0.454791 0.597096 -0.167870
0.458439 0.597901 -0.168174
0.462142 0.605389 -0.170213
0.465793 0.602468 -0.169556
0.469362 0.596228 -0.168039
0.472893 0.590891 -0.166756
0.476593 0.593943 -0.167653
0.480328 0.597134 -0.168589
0.484078 0.599855 -0.169406
0.487719 0.599204 -0.169347
0.491090 0.592687 -0.167763
0.494990 0.597959 -0.169250
0.498521 0.595540 -0.168735
0.502191 0.595819 -0.168926
0.506256 0.602149 -0.170697
0.509932 0.601938 -0.170764
0.513263 0.597071 -0.169616
0.517039 0.598409 -0.170091
0.521102 0.603006 -0.171420
0.524768 0.602569 -0.171436
0.528177 0.599384 -0.170733
0.531703 0.597688 -0.170421
0.535284 0.596642 -0.170282
0.538938 0.596346 -0.170341
0.542794 0.597847 -0.170873
0.546537 0.598226 -0.171113
0.550203 0.597914 -0.171174
0.554178 0.600029 -0.171876
0.557804 0.599310 -0.171833
0.560980 0.595318 -0.170931
0.564829 0.596327 -0.171348
0.568751 0.597742 -0.171875
0.572746 0.599515 -0.172499
0.576169 0.597481 -0.172120
0.579632 0.595789 -0.171833
0.584782 0.604343 -0.174262
0.586858 0.594356 -0.171782
0.590160 0.591882 -0.171294
0.595087 0.598525 -0.173227
0.599304 0.600949 -0.174046
0.603300 0.602052 -0.174517
0.606854 0.600803 -0.174365
0.609553 0.595304 -0.173084
0.613155 0.594445 -0.173040
0.617025 0.594869 -0.173342
0.620950 0.595496 -0.173701
0.624921 0.596270 -0.174103
0.629118 0.597978 -0.174758
0.632280 0.595074 -0.174183
0.635417 0.592151 -0.173605
0.641250 0.600555 -0.176069
0.646318 0.605453 -0.177600
0.649204 0.601383 -0.176725
0.652119 0.597550 -0.175915
0.656049 0.597731 -0.176189
0.659561 0.596288 -0.176030
0.662708 0.593512 -0.175513
0.668477 0.600320 -0.177592
0.672766 0.601562 -0.178173
0.676063 0.599244 -0.177793
0.678975 0.595639 -0.177067
0.681860 0.592025 -0.176341
0.687048 0.596142 -0.177722
0.690616 0.594786 -0.177619
0.694464 0.594331 -0.177767
0.698490 0.594405 -0.178063
0.702790 0.595286 -0.178586
0.704835 0.589194 -0.177205
0.710582 0.594388 -0.178921
0.716772 0.600679 -0.180948
0.721706 0.603065 -0.181912
0.726491 0.604902 -0.182732
0.727920 0.597149 -0.180913
0.730101 0.591671 -0.179723
0.734181 0.591511 -0.180006
0.737851 0.590197 -0.179975
0.744237 0.596097 -0.181953
0.749011 0.597547 -0.182705
0.752594 0.595823 -0.182580
0.758082 0.598952 -0.183814
0.762943 0.600360 -0.184577
0.767437 0.600768 -0.185068
0.770398 0.597364 -0.184495
0.772087 0.590931 -0.183075
0.776534 0.591177 -0.183534
0.780640 0.590564 -0.183758
0.786298 0.593506 -0.184992
0.794073 0.601151 -0.187566
0.797216 0.598104 -0.187121
0.798888 0.591814 -0.185757
0.803397 0.591865 -0.186196
0.807909 0.591871 -0.186628
0.811874 0.590659 -0.186715
0.817538 0.593022 -0.187830
0.824830 0.598678 -0.189896
0.822891 0.585135 -0.186447
0.828611 0.587471 -0.187563
0.831208 0.583437 -0.186843
0.836173 0.584169 -0.187499
0.842147 0.586832 -0.188715
0.848768 0.590662 -0.190272
0.853657 0.591063 -0.190833
0.857850 0.590117 -0.190998
0.862612 0.590246 -0.191473
0.867214 0.590071 -0.191852
0.872061 0.590344 -0.192356
0.876973 0.590732 -0.192886
0.880933 0.589418 -0.192905
0.888122 0.593859 -0.194611
0.894179 0.596245 -0.195701
0.899583 0.597477 -0.196438
0.900446 0.590937 -0.194856
0.901891 0.585559 -0.193596
0.905816 0.584497 -0.193598
0.913304 0.589428 -0.195365
0.917285 0.588547 -0.195383
0.921517 0.588154 -0.195525
0.925665 0.587700 -0.195625
0.931311 0.589722 -0.196444
0.935751 0.589870 -0.196679
0.940925 0.591246 -0.197257
0.945120 0.591158 -0.197372
0.948975 0.590629 -0.197331
0.947126 0.581466 -0.194673
0.073290 0.582758 -0.169684
0.068431 0.599224 -0.174281
0.069546 0.604167 -0.175790
0.072697 0.605211 -0.176240
0.080939 0.596016 -0.173933
0.085653 0.594009 -0.173525
0.089771 0.593308 -0.173445
0.093344 0.593843 -0.173675
0.096760 0.594822 -0.174005
0.100197 0.595876 -0.174336
0.101916 0.600778 -0.175678
0.107419 0.597567 -0.174829
0.115127 0.589459 -0.172651
0.116592 0.595279 -0.174188
0.119273 0.598539 -0.175022
0.122698 0.600227 -0.175421
0.127492 0.598819 -0.174977
0.131471 0.599350 -0.175039
0.136105 0.598366 -0.174685
0.140983 0.596799 -0.174164
0.143874 0.600105 -0.174937
0.147057 0.602797 -0.175536
0.151249 0.603023 -0.175469
0.155289 0.603652 -0.175504
0.159310 0.604349 -0.175552
0.164519 0.601925 -0.174764
0.168252 0.603372 -0.175004
0.174231 0.598738 -0.173624
0.177988 0.600078 -0.173832
0.182197 0.600163 -0.173705
0.186455 0.600084 -0.173535
0.190641 0.600177 -0.173411
0.194352 0.601632 -0.173649
0.198282 0.602441 -0.173718
0.203164 0.600338 -0.173017
0.208029 0.598174 -0.172305
0.211729 0.599546 -0.172530
0.215901 0.599408 -0.172359
0.219313 0.601686 -0.172830
0.222324 0.605314 -0.173660
0.227818 0.600662 -0.172310
0.232710 0.597849 -0.171451
0.235333 0.602793 -0.172639
0.238001 0.607709 -0.173823
0.243888 0.601092 -0.171978
0.248653 0.598304 -0.171145
0.253257 0.595957 -0.170434
0.257012 0.596716 -0.170544
0.260665 0.597853 -0.170757
0.263815 0.600989 -0.171500
0.266851 0.604663 -0.172389
0.270869 0.604345 -0.172235
0.275067 0.603189 -0.171866
0.278222 0.606463 -0.172663
0.281562 0.609010 -0.173274
0.286015 0.606548 -0.172578
0.292000 0.596791 -0.169977
0.295544 0.598146 -0.170290
0.299222 0.598858 -0.170440
0.304026 0.593922 -0.169116
0.307651 0.594736 -0.169301
0.311012 0.596929 -0.169851
0.313906 0.601715 -0.171084
0.317570 0.602438 -0.171259
0.321849 0.599641 -0.170516
0.325436 0.600696 -0.170786
0.329000 0.601907 -0.171100
0.332677 0.602446 -0.171242
0.337164 0.597767 -0.170024
0.340653 0.599357 -0.170448
0.343950 0.602332 -0.171240
0.347354 0.604704 -0.171876
0.350518 0.608965 -0.173011
0.354303 0.608771 -0.172985
0.358309 0.606781 -0.172491
0.362336 0.604417 -0.171903
0.366367 0.601789 -0.171248
0.370752 0.595744 -0.169702
0.374111 0.598673 -0.170509
0.377601 0.600557 -0.171045
0.381914 0.594181 -0.169421
0.384440 0.606324 -0.172651
0.387912 0.609042 -0.173416
0.391734 0.607826 -0.173152
0.395344 0.609130 -0.173552
0.398752 0.613311 -0.174709
0.402532 0.612660 -0.174602
0.406786 0.604506 -0.172528
0.410811 0.598857 -0.171112
0.414568 0.597092 -0.170719
0.418215 0.597180 -0.170814
0.421856 0.597377 -0.170940
0.425532 0.596741 -0.170850
0.429123 0.598302 -0.171340
0.432638 0.602748 -0.172591
0.436269 0.604405 -0.173112
0.440108 0.597092 -0.171272
0.443752 0.597288 -0.171411
0.447378 0.599094 -0.171977
0.451028 0.600039 -0.172319
0.454694 0.597924 -0.171855
0.458346 0.597571 -0.171858
0.462046 0.604655 -0.173827
0.465714 0.603159 -0.173533
0.469204 0.591765 -0.170623
0.472710 0.586106 -0.169229
0.476327 0.586764 -0.169507
0.480214 0.595917 -0.172037
0.483949 0.598323 -0.172784
0.487426 0.593736 -0.171680
0.491252 0.597806 -0.172872
0.494905 0.597598 -0.172932
0.498502 0.596360 -0.172720
0.502173 0.596544 -0.172888
0.506207 0.602302 -0.174540
0.509910 0.602450 -0.174702
0.512969 0.593821 -0.172531
0.516873 0.596952 -0.173491
0.520907 0.601245 -0.174763
0.524706 0.602396 -0.175201
0.528221 0.600330 -0.174783
0.531691 0.597981 -0.174291
0.535180 0.596005 -0.173899
0.539076 0.597963 -0.174561
0.542930 0.599352 -0.175073
0.546507 0.598225 -0.174915
0.550054 0.596912 -0.174708
0.553817 0.597381 -0.174981
0.557569 0.597691 -0.175213
0.561085 0.596227 -0.174972
0.564709 0.595591 -0.174954
0.568514 0.596211 -0.175277
0.572423 0.597440 -0.175766
0.575945 0.596092 -0.175564
0.579609 0.595665 -0.175613
0.585041 0.605913 -0.178543
0.588240 0.602446 -0.177778
0.590446 0.593479 -0.175528
0.595174 0.598958 -0.177184
0.599394 0.601367 -0.178013
0.602540 0.597972 -0.177275
0.606130 0.596990 -0.177192
0.609838 0.596611 -0.177276
0.613168 0.594377 -0.176858
0.617161 0.595372 -0.177321
0.621028 0.595699 -0.177606
0.624763 0.595375 -0.177717
0.628368 0.594454 -0.177668
0.631519 0.591558 -0.177084
0.635380 0.591779 -0.177353
0.640800 0.598448 -0.179390
0.645718 0.602757 -0.180789
0.648468 0.598180 -0.179758
0.651755 0.595853 -0.179346
0.655546 0.595513 -0.179483
0.659387 0.595337 -0.179669
0.663029 0.594390 -0.179647
0.668046 0.598433 -0.181004
0.671928 0.598239 -0.181199
0.675034 0.595294 -0.180639
0.678141 0.592415 -0.180100
0.682366 0.593367 -0.180625
0.686820 0.595006 -0.181347
0.690731 0.594770 -0.181554
0.694457 0.593907 -0.181592
0.698039 0.592568 -0.181502
0.702456 0.593822 -0.182139
0.705326 0.590262 -0.181439
0.710032 0.592285 -0.182303
0.715904 0.597647 -0.184109
0.721553 0.602142 -0.185683
0.725521 0.601632 -0.185860
0.727383 0.595138 -0.184361
0.730443 0.592120 -0.183841
0.734424 0.591666 -0.184049
0.739177 0.593254 -0.184839
0.744129 0.595275 -0.185759
0.747461 0.592938 -0.185453
0.753444 0.597464 -0.187099
0.757883 0.597878 -0.187587
0.764028 0.602509 -0.189283
0.767575 0.600523 -0.189101
0.770581 0.597217 -0.188547
0.773174 0.592954 -0.187722
0.776725 0.591030 -0.187570
0.780764 0.590247 -0.187750
0.788036 0.596906 -0.190078
0.794654 0.601846 -0.191924
0.797801 0.598790 -0.191468
0.799119 0.591696 -0.189845
0.803240 0.590886 -0.190043
0.808123 0.591699 -0.190717
0.812305 0.590946 -0.190939
0.816196 0.589552 -0.190977
0.824238 0.596802 -0.193546
0.823121 0.584979 -0.190534
0.826334 0.582212 -0.190170
0.832411 0.585233 -0.191507
0.836588 0.584378 -0.191706
0.841896 0.585732 -0.192555
0.849210 0.590917 -0.194539
0.852855 0.588935 -0.194400
0.859521 0.592702 -0.195964
0.863983 0.592249 -0.196270
0.868121 0.591202 -0.196392
0.871911 0.589543 -0.196323
0.876329 0.589061 -0.196595
0.880717 0.588550 -0.196847
0.886654 0.590802 -0.197918
0.893760 0.595076 -0.199587
0.900309 0.598324 -0.200937
0.900490 0.590638 -0.198970
0.901662 0.584828 -0.197546
0.904706 0.582325 -0.197101
0.912947 0.588556 -0.199284
0.917204 0.588171 -0.199441
0.920283 0.585936 -0.199014
0.928322 0.591815 -0.201032
0.931477 0.589849 -0.200640
0.935374 0.589171 -0.200616
0.939945 0.589642 -0.200917
0.940715 0.584270 -0.199409
0.945547 0.585346 -0.199844
0.961463 0.603459 -0.205457
0.066710 0.595567 -0.176939
0.071951 0.592107 -0.176220
0.073500 0.596073 -0.177498
0.076749 0.596799 -0.177876
0.081502 0.594587 -0.177433
0.084666 0.595712 -0.177878
0.088992 0.594554 -0.177680
0.093082 0.593972 -0.177618
0.097030 0.593782 -0.177643
0.099435 0.596996 -0.178577
0.100981 0.602240 -0.180046
0.109816 0.591695 -0.177186
0.112373 0.594928 -0.178069
0.116119 0.595643 -0.178248
0.119053 0.598296 -0.178939
0.122708 0.599417 -0.179197
0.128016 0.596769 -0.178411
0.133639 0.593362 -0.177406
0.137912 0.593142 -0.177258
0.140428 0.597211 -0.178268
0.144286 0.598123 -0.178407
0.148367 0.598528 -0.178400
0.152601 0.598572 -0.178286
0.157963 0.595738 -0.177383
0.161457 0.597682 -0.177773
0.165652 0.597831 -0.177671
0.170026 0.597496 -0.177434
0.173875 0.598564 -0.177575
0.177433 0.600446 -0.177934
0.182052 0.599395 -0.177497
0.186040 0.600076 -0.177529
0.191166 0.597457 -0.176669
0.192891 0.604707 -0.178476
0.198079 0.601820 -0.177546
0.202733 0.600414 -0.177019
0.206455 0.601792 -0.177245
0.211846 0.597936 -0.176064
0.215810 0.598448 -0.176063
0.219229 0.600699 -0.176533
0.222286 0.604173 -0.177335
0.225734 0.606401 -0.177806
0.231196 0.601766 -0.176437
0.234876 0.603114 -0.176679
0.238758 0.603739 -0.176732
0.243110 0.602629 -0.176325
0.248221 0.598622 -0.175146
0.252629 0.597047 -0.174625
0.256916 0.595813 -0.174200
0.260635 0.596695 -0.174346
0.263563 0.600713 -0.175336
0.267142 0.602188 -0.175651
0.271039 0.602346 -0.175618
0.274793 0.603062 -0.175739
0.280275 0.596251 -0.173854
0.282677 0.602755 -0.175531
0.285820 0.606133 -0.176377
0.290404 0.602919 -0.175469
0.295080 0.599060 -0.174394
0.298920 0.599036 -0.174346
0.303067 0.597422 -0.173880
0.307393 0.594763 -0.173139
0.311004 0.595664 -0.173352
0.314167 0.598985 -0.174215
0.317566 0.601133 -0.174769
0.321376 0.601003 -0.174721
0.325234 0.600540 -0.174587
0.329509 0.597488 -0.173768
0.332623 0.601421 -0.174815
0.336619 0.599900 -0.174412
0.340568 0.598542 -0.174056
0.344150 0.599563 -0.174338
0.347162 0.604646 -0.175707
0.350455 0.607986 -0.176615
0.353920 0.610226 -0.177234
0.357925 0.608331 -0.176753
0.362334 0.602940 -0.175344
0.366126 0.602332 -0.175213
0.369988 0.601006 -0.174894
0.373693 0.600983 -0.174926
0.377548 0.599469 -0.174563
0.381199 0.599845 -0.174708
0.384440 0.604624 -0.176031
0.388054 0.605675 -0.176362
0.391818 0.605012 -0.176239
0.395749 0.602120 -0.175522
0.398819 0.610448 -0.177807
0.403119 0.602140 -0.175648
0.406368 0.608867 -0.177511
0.410718 0.598194 -0.174723
0.414426 0.597339 -0.174564
0.418066 0.597649 -0.174718
0.421694 0.598252 -0.174954
0.425373 0.597719 -0.174887
0.428878 0.601892 -0.176084
0.432392 0.607000 -0.177535
0.436112 0.606145 -0.177390
0.439984 0.597858 -0.175253
0.443638 0.597854 -0.175340
0.447276 0.599063 -0.175754
0.450938 0.598764 -0.175766
0.454594 0.599501 -0.176059
0.458256 0.599016 -0.176025
0.461939 0.602312 -0.177010
0.465611 0.601935 -0.177010
0.469205 0.596958 -0.175772
0.472689 0.588941 -0.173716
0.476378 0.591741 -0.174576
0.480135 0.595869 -0.175797
0.483804 0.596347 -0.176036
0.487476 0.596757 -0.176259
0.491151 0.597085 -0.176462
0.494813 0.597072 -0.176575
0.498408 0.595819 -0.176354
0.502140 0.597008 -0.176795
0.506102 0.601583 -0.178156
0.510021 0.604868 -0.179171
0.513066 0.595856 -0.176855
0.516658 0.594862 -0.176713
0.520808 0.600647 -0.178413
0.524624 0.601982 -0.178908
0.528313 0.601783 -0.178989
0.531743 0.598925 -0.178349
0.535071 0.595306 -0.177503
0.538615 0.593999 -0.177287
0.542178 0.592939 -0.177140
0.546694 0.600069 -0.179228
0.550337 0.599453 -0.179208
0.553908 0.598279 -0.179037
0.557948 0.600726 -0.179858
0.561220 0.597343 -0.179087
0.564711 0.595710 -0.178797
0.568431 0.595720 -0.178958
0.572251 0.596358 -0.179294
0.575916 0.595940 -0.179344
0.579529 0.595186 -0.179303
0.584376 0.601892 -0.181315
0.589532 0.609997 -0.183717
0.592432 0.604756 -0.182452
0.595934 0.603105 -0.182177
0.598801 0.598086 -0.180976
0.602412 0.597199 -0.180915
0.606213 0.597302 -0.181130
0.609825 0.596419 -0.181076
0.613478 0.595746 -0.181084
0.617229 0.595537 -0.181222
0.621073 0.595735 -0.181477
0.624716 0.594974 -0.181469
0.628627 0.595401 -0.181795
0.632087 0.593816 -0.181565
0.636170 0.594910 -0.182084
0.641093 0.599422 -0.183559
0.645728 0.602536 -0.184651
0.648745 0.599018 -0.183898
0.651176 0.593298 -0.182531
0.655201 0.593891 -0.182932
0.659219 0.594397 -0.183313
0.663356 0.595281 -0.183804
0.668120 0.598368 -0.184920
0.670978 0.594506 -0.184089
0.673896 0.590954 -0.183347
0.678460 0.593140 -0.184225
0.682197 0.592416 -0.184288
0.686428 0.593311 -0.184814
0.690749 0.594423 -0.185407
0.694707 0.594289 -0.185653
0.698223 0.592721 -0.185498
0.702559 0.593699 -0.186070
0.705618 0.590700 -0.185518
0.708664 0.587713 -0.184973
0.715026 0.594574 -0.187240
0.720971 0.599956 -0.189096
0.725271 0.600410 -0.189553
0.727112 0.593864 -0.188012
0.731661 0.594986 -0.188671
0.735194 0.593243 -0.188515
0.739434 0.593406 -0.188912
0.743813 0.593882 -0.189405
0.748099 0.594050 -0.189817
0.753237 0.596359 -0.190855
0.758321 0.598408 -0.191826
0.761278 0.595012 -0.191226
0.766973 0.598432 -0.192610
0.770439 0.596262 -0.192377
0.773153 0.592291 -0.191621
0.777162 0.591447 -0.191783
0.781474 0.591284 -0.192148
0.788914 0.598299 -0.194626
0.793884 0.599445 -0.195392
0.796992 0.596323 -0.194908
0.799843 0.592659 -0.194265
0.804229 0.592408 -0.194632
0.809377 0.593762 -0.195479
0.812671 0.591078 -0.195133
0.817807 0.592300 -0.195949
0.823161 0.593906 -0.196884
0.824153 0.586462 -0.195120
0.828864 0.586720 -0.195653
0.835666 0.591133 -0.197434
0.839379 0.589287 -0.197339
0.843533 0.588324 -0.197506
0.848602 0.589131 -0.198204
0.854731 0.591929 -0.199502
0.859681 0.592421 -0.200099
0.864141 0.591978 -0.200409
0.868416 0.591201 -0.200609
0.872452 0.590006 -0.200673
0.875710 0.587441 -0.200307
0.881557 0.589570 -0.201363
0.886485 0.590048 -0.201903
0.890717 0.589327 -0.202061
0.891467 0.582630 -0.200368
0.898518 0.586894 -0.202025
0.898827 0.579692 -0.200134
0.905141 0.582755 -0.201385
0.913301 0.588876 -0.203563
0.917568 0.588537 -0.203726
0.921205 0.587242 -0.203570
0.928590 0.592087 -0.205293
0.931808 0.590256 -0.204924
0.933147 0.585557 -0.203639
0.939038 0.588170 -0.204597
0.941678 0.585758 -0.203970
0.938884 0.575084 -0.200749
0.957606 0.597615 -0.207822
0.066143 0.596596 -0.181061
0.076566 0.582844 -0.177490
0.079199 0.584516 -0.178162
0.079079 0.591884 -0.180393
0.082568 0.592156 -0.180638
0.084792 0.595145 -0.181616
0.088900 0.594391 -0.181535
0.092954 0.593838 -0.181488
0.096182 0.595131 -0.181934
0.099572 0.596202 -0.182297
0.103104 0.597085 -0.182589
0.107635 0.595887 -0.182283
0.112883 0.593155 -0.181531
0.116082 0.595040 -0.182045
0.119577 0.596371 -0.182389
0.123742 0.596261 -0.182315
0.129029 0.593595 -0.181516
0.133203 0.593540 -0.181430
0.139588 0.588246 -0.179874
0.140303 0.596584 -0.182095
0.144373 0.596944 -0.182088
0.148098 0.598197 -0.182319
0.151742 0.599711 -0.182613
0.156291 0.598964 -0.182274
0.160526 0.599017 -0.182150
0.164848 0.598842 -0.181958
0.168582 0.600227 -0.182193
0.173031 0.599703 -0.181897
0.176595 0.601584 -0.182263
0.181242 0.600474 -0.181801
0.185922 0.599208 -0.181297
0.187909 0.605642 -0.182914
0.190209 0.611331 -0.184324
0.196666 0.604785 -0.182367
0.202391 0.600200 -0.180954
0.206939 0.599042 -0.180486
0.211167 0.598800 -0.180273
0.215114 0.599397 -0.180293
0.218992 0.600190 -0.180370
0.222036 0.603708 -0.181197
0.225568 0.605662 -0.181599
0.229828 0.605149 -0.181329
0.236377 0.596595 -0.178865
0.239832 0.598631 -0.179303
0.243708 0.599170 -0.179335
0.247296 0.600732 -0.179652
0.250911 0.602200 -0.179948
0.254849 0.602429 -0.179910
0.259148 0.601203 -0.179481
0.263801 0.598460 -0.178643
0.268259 0.596339 -0.177980
0.273161 0.592222 -0.176780
0.277076 0.592067 -0.176664
0.280418 0.594329 -0.177211
0.283585 0.597416 -0.177986
0.286977 0.599567 -0.178512
0.290705 0.600203 -0.178630
0.294754 0.599295 -0.178334
0.298850 0.598057 -0.177952
0.302482 0.599018 -0.178173
0.306492 0.598049 -0.177874
0.310529 0.596833 -0.177513
0.313990 0.598604 -0.177968
0.317310 0.601197 -0.178650
0.321254 0.600346 -0.178402
0.325260 0.599028 -0.178030
0.329068 0.598782 -0.177955
0.332674 0.599722 -0.178205
0.336487 0.599351 -0.178104
0.340426 0.598082 -0.177763
0.344357 0.596737 -0.177405
0.347719 0.599270 -0.178104
0.350693 0.604783 -0.179616
0.355322 0.598110 -0.177822
0.359325 0.595810 -0.177220
0.363297 0.593545 -0.176630
0.366181 0.600324 -0.178501
0.369070 0.607597 -0.180510
0.372990 0.605914 -0.180089
0.376864 0.604479 -0.179739
0.380772 0.602526 -0.179250
0.384805 0.598995 -0.178336
0.388529 0.598533 -0.178259
0.392260 0.597907 -0.178140
0.396041 0.596533 -0.177820
0.399766 0.595711 -0.177654
0.403410 0.595906 -0.177767
0.407098 0.595421 -0.177698
0.410768 0.595128 -0.177683
0.414342 0.596488 -0.178121
0.417955 0.597324 -0.178420
0.421602 0.597548 -0.178554
0.425248 0.597812 -0.178702
0.428756 0.601982 -0.179919
0.432330 0.605280 -0.180900
0.436067 0.603578 -0.180519
0.439837 0.599610 -0.179521
0.443519 0.598590 -0.179330
0.447186 0.598013 -0.179262
0.450840 0.598545 -0.179500
0.454501 0.597990 -0.179442
0.458156 0.596605 -0.179159
0.461839 0.601127 -0.180497
0.465522 0.601926 -0.180817
0.469210 0.602477 -0.181071
0.472878 0.601785 -0.180987
0.476560 0.601869 -0.181118
0.480219 0.601109 -0.181019
0.483832 0.599240 -0.180617
0.487384 0.596245 -0.179906
0.491099 0.597475 -0.180360
0.494693 0.596015 -0.180075
0.498375 0.596389 -0.180297
0.501990 0.595518 -0.180178
0.506035 0.601463 -0.181941
0.509968 0.604921 -0.183021
0.513657 0.604600 -0.183061
0.516761 0.596819 -0.181042
0.520703 0.599970 -0.182045
0.524720 0.603594 -0.183181
0.528067 0.599601 -0.182213
0.531676 0.598648 -0.182088
0.535052 0.595485 -0.181352
0.538560 0.593801 -0.181027
0.542617 0.597128 -0.182094
0.547120 0.603952 -0.184136
0.550503 0.601026 -0.183474
0.554437 0.602632 -0.184073
0.557932 0.600760 -0.183707
0.561008 0.595908 -0.182513
0.564577 0.594857 -0.182379
0.568363 0.595326 -0.182671
0.572394 0.597352 -0.183401
0.575823 0.595366 -0.183013
0.579577 0.595484 -0.183215
0.584022 0.599735 -0.184577
0.588469 0.603727 -0.185871
0.593241 0.609309 -0.187615
0.595989 0.603336 -0.186124
0.598998 0.599055 -0.185108
0.603366 0.602105 -0.186153
0.606667 0.599502 -0.185613
0.609490 0.594606 -0.184430
0.613345 0.594941 -0.184721
0.617119 0.594840 -0.184893
0.620929 0.594877 -0.185107
0.625290 0.597378 -0.186022
0.629418 0.598702 -0.186608
0.633690 0.600552 -0.187348
0.637621 0.600839 -0.187650
0.641505 0.600882 -0.187887
0.645636 0.601889 -0.188402
0.649018 0.599820 -0.188048
0.651565 0.594526 -0.186778
0.655555 0.594941 -0.187137
0.659167 0.593877 -0.187078
0.662989 0.593588 -0.187245
0.667968 0.597463 -0.188606
0.670890 0.593832 -0.187827
0.674460 0.592554 -0.187725
0.678877 0.594188 -0.188462
0.682735 0.593832 -0.188634
0.686614 0.593515 -0.188822
0.690851 0.594333 -0.189343
0.694849 0.594311 -0.189627
0.699212 0.595391 -0.190235
0.703095 0.594903 -0.190397
0.706801 0.593843 -0.190398
0.709361 0.589327 -0.189402
0.713357 0.589149 -0.189668
0.720112 0.596951 -0.192261
0.724423 0.597464 -0.192744
0.728234 0.596501 -0.192804
0.731417 0.593771 -0.192352
0.735343 0.593105 -0.192509
0.739575 0.593230 -0.192903
0.744777 0.595875 -0.194044
0.749262 0.596515 -0.194605
0.753666 0.596876 -0.195091
0.755491 0.590614 -0.193629
0.760167 0.591622 -0.194316
0.765656 0.594557 -0.195582
0.770334 0.595384 -0.196232
0.773320 0.592066 -0.195658
0.777206 0.590918 -0.195732
0.781828 0.591472 -0.196319
0.789134 0.598155 -0.198744
0.794508 0.600210 -0.199797
0.797594 0.597017 -0.199282
0.799451 0.591131 -0.197960
0.804680 0.592733 -0.198891
0.809377 0.593098 -0.199455
0.814290 0.593870 -0.200146
0.818310 0.592699 -0.200252
0.822029 0.590891 -0.200167
0.826359 0.590345 -0.200465
0.832193 0.592829 -0.201686
0.837174 0.593514 -0.202362
0.839800 0.589488 -0.201596
0.844036 0.588687 -0.201813
0.848885 0.589069 -0.202389
0.854837 0.591534 -0.203603
0.859567 0.591622 -0.204082
0.864787 0.592618 -0.204835
0.869908 0.593408 -0.205518
0.873009 0.590498 -0.205045
0.876562 0.588479 -0.204835
0.880899 0.587919 -0.205065
0.885941 0.588639 -0.205680
0.886085 0.580815 -0.203614
0.886137 0.573030 -0.201536
0.890616 0.573019 -0.201868
0.901254 0.583481 -0.205467
0.899196 0.572502 -0.202321
0.916654 0.594188 -0.209415
0.917852 0.588785 -0.207977
0.922840 0.589724 -0.208511
0.927506 0.590195 -0.208873
0.930565 0.588162 -0.208420
0.932250 0.584067 -0.207291
0.938380 0.587105 -0.208387
0.930938 0.569043 -0.202789
0.937389 0.572818 -0.204066
0.913203 0.529703 -0.190487
0.067450 0.593971 -0.184161
0.083083 0.569842 -0.177609
0.089554 0.563685 -0.176089
0.077987 0.593893 -0.184811
0.082989 0.591062 -0.184192
0.086257 0.591847 -0.184574
0.089364 0.593093 -0.185065
0.092984 0.593393 -0.185267
0.096184 0.594695 -0.185732
0.100703 0.593296 -0.185411
0.104907 0.592648 -0.185283
0.107742 0.595075 -0.186006
0.110995 0.596718 -0.186488
0.115247 0.596244 -0.186351
0.119697 0.595382 -0.186087
0.123763 0.595450 -0.186069
0.127974 0.595246 -0.185959
0.129220 0.602084 -0.187829
0.134912 0.598531 -0.186742
0.139377 0.597897 -0.186469
0.143827 0.597321 -0.186202
0.147133 0.599600 -0.186732
0.151499 0.599292 -0.186521
0.155527 0.599855 -0.186548
0.160280 0.598567 -0.186046
0.164288 0.599200 -0.186081
0.168294 0.599855 -0.186116
0.172470 0.600062 -0.186022
0.177253 0.598591 -0.185453
0.181347 0.598981 -0.185405
0.185356 0.599601 -0.185421
0.188354 0.603123 -0.186251
0.191453 0.606430 -0.187020
0.195521 0.606929 -0.187001
0.202160 0.599633 -0.184800
0.206503 0.599110 -0.184499
0.210581 0.599352 -0.184416
0.214717 0.599372 -0.184273
0.218792 0.599541 -0.184175
0.222597 0.600556 -0.184317
0.226167 0.602342 -0.184678
0.230379 0.601949 -0.184434
0.235390 0.598714 -0.183404
0.239770 0.597540 -0.182952
0.243446 0.598799 -0.183183
0.246959 0.600650 -0.183584
0.250856 0.601080 -0.183593
0.254488 0.602481 -0.183877
0.258993 0.600478 -0.183221
0.263559 0.598097 -0.182465
0.267250 0.599109 -0.182656
0.271577 0.597475 -0.182118
0.275753 0.596351 -0.181728
0.279223 0.598179 -0.182160
0.283387 0.596957 -0.181753
0.287016 0.598049 -0.181991
0.290668 0.599035 -0.182205
0.294591 0.598722 -0.182065
0.298476 0.598529 -0.181962
0.302252 0.598817 -0.181998
0.305833 0.600060 -0.182302
0.310233 0.597026 -0.181428
0.313726 0.598657 -0.181849
0.317184 0.600518 -0.182339
0.321177 0.599402 -0.182009
0.325122 0.598445 -0.181728
0.328757 0.599254 -0.181939
0.332564 0.598999 -0.181861
0.336406 0.598452 -0.181706
0.340483 0.596282 -0.181106
0.344559 0.593924 -0.180458
0.347956 0.596145 -0.181081
0.351168 0.599832 -0.182113
0.355408 0.595969 -0.181060
0.358856 0.597985 -0.181638
0.362794 0.596130 -0.181148
0.365998 0.600315 -0.182333
0.369276 0.604160 -0.183427
0.372900 0.605107 -0.183724
0.376613 0.605241 -0.183799
0.380574 0.602830 -0.183172
0.384705 0.598324 -0.181968
0.388485 0.597238 -0.181714
0.392191 0.596889 -0.181668
0.395778 0.597951 -0.182015
0.399496 0.597367 -0.181909
0.403043 0.599118 -0.182453
0.406958 0.595426 -0.181491
0.410595 0.595738 -0.181642
0.414210 0.596468 -0.181912
0.417835 0.597122 -0.182163
0.421546 0.595996 -0.181923
0.425206 0.595851 -0.181957
0.428694 0.600354 -0.183286
0.432301 0.602452 -0.183950
0.436004 0.601667 -0.183815
0.439741 0.598955 -0.183146
0.443418 0.598219 -0.183028
0.447081 0.598072 -0.183077
0.450740 0.598268 -0.183224
0.454404 0.597699 -0.183160
0.458062 0.597247 -0.183130
0.461732 0.599078 -0.183740
0.465416 0.600539 -0.184249
0.469105 0.601385 -0.184589
0.472872 0.605543 -0.185857
0.476532 0.603949 -0.185520
0.480358 0.608253 -0.186834
0.484034 0.607087 -0.186621
0.487455 0.599828 -0.184704
0.490992 0.596662 -0.183934
0.494628 0.596067 -0.183885
0.498251 0.595285 -0.183786
0.501979 0.596372 -0.184213
0.505841 0.599372 -0.185180
0.510011 0.606374 -0.187274
0.513592 0.604437 -0.186860
0.517154 0.602467 -0.186438
0.520902 0.602930 -0.186703
0.524385 0.600295 -0.186097
0.527404 0.592916 -0.184156
0.531389 0.596116 -0.185198
0.534876 0.594119 -0.184776
0.538488 0.593437 -0.184728
0.542177 0.593472 -0.184884
0.546214 0.596448 -0.185874
0.550722 0.603020 -0.187884
0.553976 0.599163 -0.186948
0.557648 0.598740 -0.186985
0.560822 0.594654 -0.185986
0.564460 0.594108 -0.185993
0.568541 0.596602 -0.186865
0.571965 0.594548 -0.186448
0.575950 0.596195 -0.187086
0.579476 0.594849 -0.186876
0.584551 0.602902 -0.189345
0.587324 0.596961 -0.187831
0.590857 0.595654 -0.187640
0.595971 0.603148 -0.189964
0.599616 0.602286 -0.189907
0.604566 0.608290 -0.191817
0.607464 0.603445 -0.190628
0.608967 0.591837 -0.187501
0.612583 0.591056 -0.187478
0.616832 0.593291 -0.188323
0.621522 0.597433 -0.189721
0.625360 0.597482 -0.189948
0.629537 0.598999 -0.190601
0.633331 0.598747 -0.190749
0.637212 0.598842 -0.191002
0.641105 0.598939 -0.191259
0.643641 0.593463 -0.189909
0.648075 0.595752 -0.190808
0.651670 0.594623 -0.190722
0.655493 0.594378 -0.190897
0.659353 0.594240 -0.191107
0.663418 0.594821 -0.191530
0.667260 0.594531 -0.191706
0.670244 0.591156 -0.190988
0.674887 0.593657 -0.191986
0.679440 0.595718 -0.192863
0.683080 0.594583 -0.192812
0.687138 0.594827 -0.193170
0.691142 0.594843 -0.193466
0.694965 0.594231 -0.193584
0.699087 0.594533 -0.193976
0.704327 0.598246 -0.195378
0.707788 0.596365 -0.195140
0.710204 0.591361 -0.193985
0.713069 0.587791 -0.193255
0.717881 0.589943 -0.194224
0.723727 0.594936 -0.196043
0.727972 0.595216 -0.196473
0.731562 0.593620 -0.196351
0.735170 0.592069 -0.196248
0.738992 0.591086 -0.196320
0.745813 0.598037 -0.198770
0.751876 0.602755 -0.200564
0.753479 0.595786 -0.198864
0.755004 0.588766 -0.197149
0.759653 0.589714 -0.197831
0.765112 0.592584 -0.199101
0.769694 0.593186 -0.199694
0.773318 0.591416 -0.199578
0.777456 0.590862 -0.199834
0.781675 0.590460 -0.200141
0.788124 0.595160 -0.202007
0.796860 0.604888 -0.205416
0.799132 0.599797 -0.204316
0.798864 0.589159 -0.201517
0.803733 0.589987 -0.202226
0.809197 0.592033 -0.203314
0.814088 0.592764 -0.204003
0.818869 0.593203 -0.204606
0.823027 0.592297 -0.204796
0.827249 0.591510 -0.205023
0.832167 0.592118 -0.205683
0.835803 0.590117 -0.205532
0.839100 0.587463 -0.205174
0.845579 0.591075 -0.206766
0.852626 0.595682 -0.208671
0.856776 0.594634 -0.208805
0.859512 0.590934 -0.208099
0.863512 0.589671 -0.208148
0.868556 0.590366 -0.208804
0.872120 0.588354 -0.208597
0.871315 0.578518 -0.205902
0.874766 0.576509 -0.205662
0.883138 0.583251 -0.208184
0.891192 0.589325 -0.210485
0.891296 0.581572 -0.208374
0.893539 0.577677 -0.207468
0.900441 0.581795 -0.209095
0.916506 0.601237 -0.215602
0.914033 0.589594 -0.212158
0.917931 0.588711 -0.212128
0.922606 0.589176 -0.212506
0.926747 0.588841 -0.212603
0.930366 0.587754 -0.212433
0.932493 0.584401 -0.211509
0.934384 0.580816 -0.210483
0.937859 0.579843 -0.210269
0.927324 0.551419 -0.201246
0.075764 0.577623 -0.183299
0.085090 0.565791 -0.180158
0.090253 0.562170 -0.179347
0.077274 0.595161 -0.189031
0.083480 0.589845 -0.187696
0.086256 0.591585 -0.188368
0.089655 0.592176 -0.188688
0.092746 0.593531 -0.189207
0.096358 0.593914 -0.189424
0.100885 0.592448 -0.189087
0.105003 0.591930 -0.189002
0.105985 0.598364 -0.190903
0.108767 0.601045 -0.191702
0.113717 0.599013 -0.191122
0.118419 0.597576 -0.190695
0.123206 0.595978 -0.190204
0.126100 0.598808 -0.190974
0.129356 0.600918 -0.191521
0.133017 0.602169 -0.191806
0.138588 0.598884 -0.190769
0.143335 0.597566 -0.190289
0.147196 0.598447 -0.190430
0.150959 0.599621 -0.190647
0.155622 0.598552 -0.190209
0.159299 0.600017 -0.190492
0.163375 0.600480 -0.190481
0.168364 0.598527 -0.189771
0.172094 0.599913 -0.190015
0.176869 0.598459 -0.189441
0.181189 0.598214 -0.189212
0.185322 0.598472 -0.189125
0.188900 0.600305 -0.189488
0.191391 0.605347 -0.190767
0.194978 0.607261 -0.191152
0.200752 0.602604 -0.189661
0.206018 0.599308 -0.188563
0.210118 0.599500 -0.188462
0.214787 0.597843 -0.187837
0.218821 0.598134 -0.187771
0.222756 0.598714 -0.187790
0.226174 0.600989 -0.188294
0.229861 0.602383 -0.188552
0.235229 0.597943 -0.187157
0.239393 0.597535 -0.186912
0.243318 0.597922 -0.186897
0.247176 0.598511 -0.186945
0.251089 0.598862 -0.186929
0.255197 0.598424 -0.186695
0.258690 0.600306 -0.187123
0.263104 0.598554 -0.186528
0.266833 0.599449 -0.186686
0.271012 0.598461 -0.186318
0.275158 0.597514 -0.185966
0.279214 0.596860 -0.185703
0.282983 0.597386 -0.185778
0.286765 0.597827 -0.185834
0.290679 0.597619 -0.185712
0.294292 0.598772 -0.185979
0.298210 0.598447 -0.185834
0.302131 0.598042 -0.185671
0.305853 0.598574 -0.185778
0.309089 0.601626 -0.186599
0.312957 0.601396 -0.186500
0.316524 0.602760 -0.186855
0.321085 0.598515 -0.185635
0.324850 0.598620 -0.185644
0.328537 0.599152 -0.185778
0.332348 0.598902 -0.185697
0.336381 0.597169 -0.185202
0.340342 0.595758 -0.184802
0.344347 0.593902 -0.184281
0.347581 0.597301 -0.185243
0.350977 0.599716 -0.185933
0.355230 0.595798 -0.184843
0.358956 0.595666 -0.184823
0.362365 0.598063 -0.185519
0.366072 0.598090 -0.185552
0.369499 0.600555 -0.186274
0.372957 0.602912 -0.186970
0.376451 0.605105 -0.187624
0.379757 0.609378 -0.188868
0.384574 0.597948 -0.185688
0.388334 0.597125 -0.185501
0.392044 0.596755 -0.185445
0.395705 0.596934 -0.185547
0.399242 0.598757 -0.186116
0.402942 0.598465 -0.186091
0.406682 0.597472 -0.185872
0.410388 0.596865 -0.185764
0.414020 0.597451 -0.185996
0.417642 0.598330 -0.186313
0.421475 0.594756 -0.185374
0.425087 0.595690 -0.185713
0.428597 0.599655 -0.186911
0.432274 0.599535 -0.186957
0.435885 0.601757 -0.187668
0.439616 0.599521 -0.187120
0.443330 0.596990 -0.186491
0.446987 0.597147 -0.186625
0.450643 0.597590 -0.186842
0.454306 0.596995 -0.186768
0.457964 0.596567 -0.186743
0.461641 0.599526 -0.187682
0.465320 0.600071 -0.187938
0.469013 0.601131 -0.188344
0.472653 0.599160 -0.187890
0.476363 0.600599 -0.188408
0.480030 0.600097 -0.188375
0.483848 0.604021 -0.189606
0.487357 0.599221 -0.188354
0.490933 0.596910 -0.187813
0.494538 0.595596 -0.187557
0.498204 0.595608 -0.187681
0.501858 0.595371 -0.187737
0.506024 0.603148 -0.190085
0.509831 0.604590 -0.190626
0.513525 0.604265 -0.190665
0.517163 0.603233 -0.190503
0.521008 0.604778 -0.191082
0.527327 0.592534 -0.187850
0.531279 0.595382 -0.188808
0.534718 0.592925 -0.188247
0.538261 0.591630 -0.188021
0.541995 0.592114 -0.188308
0.546391 0.598187 -0.190206
0.550411 0.600661 -0.191072
0.553904 0.598753 -0.190680
0.557328 0.596434 -0.190171
0.560870 0.595109 -0.189950
0.564512 0.594552 -0.189954
0.568364 0.595444 -0.190378
0.572255 0.596496 -0.190852
0.576293 0.598394 -0.191575
0.580428 0.600747 -0.192433
0.584631 0.603342 -0.193365
0.587312 0.596832 -0.191659
0.590828 0.595413 -0.191433
0.592988 0.586518 -0.189036
0.598004 0.593470 -0.191247
0.601798 0.593609 -0.191482
0.605021 0.590782 -0.190856
0.611510 0.604372 -0.195019
0.614455 0.599997 -0.193950
0.619378 0.605206 -0.195682
0.622935 0.603787 -0.195482
0.624784 0.594635 -0.193022
0.628807 0.595509 -0.193499
0.631923 0.592369 -0.192802
0.636627 0.596079 -0.194120
0.640106 0.594494 -0.193887
0.643333 0.591908 -0.193364
0.647899 0.594734 -0.194437
0.651876 0.595102 -0.194792
0.655967 0.595854 -0.195265
0.659609 0.594849 -0.195224
0.663286 0.593967 -0.195224
0.666486 0.591344 -0.194713
0.670066 0.590130 -0.194623
0.674913 0.593343 -0.195851
0.679549 0.595673 -0.196825
0.683085 0.594168 -0.196665
0.687070 0.594157 -0.196954
0.691133 0.594358 -0.197312
0.695185 0.594469 -0.197649
0.699315 0.594773 -0.198050
0.705205 0.600470 -0.200074
0.709370 0.600681 -0.200462
0.711509 0.594760 -0.199014
0.714217 0.590657 -0.198114
0.719470 0.594023 -0.199468
0.724115 0.595498 -0.200261
0.728023 0.594800 -0.200405
0.731501 0.592880 -0.200185
0.735156 0.591448 -0.200117
0.740151 0.593614 -0.201148
0.746561 0.599416 -0.203294
0.750881 0.599536 -0.203721
0.752871 0.593597 -0.202306
0.755090 0.588358 -0.201105
0.759852 0.589577 -0.201883
0.764900 0.591417 -0.202860
0.769581 0.592259 -0.203538
0.773730 0.591748 -0.203808
0.778981 0.593808 -0.204876
0.783143 0.593218 -0.205133
0.789642 0.597980 -0.207053
0.796658 0.603739 -0.209293
0.799676 0.600327 -0.208694
0.800156 0.591338 -0.206359
0.804746 0.591517 -0.206879
0.809431 0.591852 -0.207451
0.814126 0.592159 -0.208018
0.819108 0.593022 -0.208762
0.824821 0.595346 -0.209970
0.828313 0.593019 -0.209715
0.831779 0.590666 -0.209449
0.836375 0.590606 -0.209905
0.841956 0.592468 -0.210969
0.848566 0.596277 -0.212651
0.854628 0.598923 -0.213963
0.856011 0.592569 -0.212403
0.859693 0.590690 -0.212259
0.866102 0.593936 -0.213745
0.868454 0.589637 -0.212806
