ply
format ascii 1.0
comment ---
element vertex 1771
property float x
property float y
property float z
element face 0
property list uchar uint vertex_indices
end_header
0.827081 0.594714 0.285746
0.834057 0.596688 0.287103
0.838659 0.596197 0.287546
0.841422 0.593842 0.287292
0.849673 0.596861 0.289076
0.854176 0.596131 0.289452
0.858705 0.595389 0.289828
0.865713 0.596972 0.291099
0.871641 0.597457 0.291960
0.878154 0.598431 0.293016
0.883026 0.597824 0.293469
0.887344 0.596679 0.293717
0.891093 0.595000 0.293757
0.893526 0.592134 0.293333
0.896936 0.590157 0.293251
0.906631 0.593716 0.295341
0.912525 0.593865 0.296096
0.920630 0.595895 0.297593
0.923660 0.593526 0.297346
0.933257 0.596746 0.299315
0.929719 0.588875 0.296852
0.927826 0.582511 0.294964
0.947093 0.593680 0.300110
0.953790 0.594393 0.301051
0.960623 0.595209 0.302023
0.962003 0.591652 0.301207
0.960772 0.586101 0.299556
0.942705 0.567418 0.292509
0.941668 0.562366 0.290988
0.949043 0.563936 0.292158
0.979476 0.583195 0.300598
0.236708 0.611547 0.241685
0.239436 0.608005 0.240867
0.241943 0.606066 0.240488
0.245160 0.599213 0.238721
0.247569 0.598150 0.238571
0.248763 0.606517 0.241067
0.250980 0.607679 0.241530
0.253281 0.608503 0.241893
0.255894 0.606994 0.241591
0.258276 0.607653 0.241894
0.260332 0.611608 0.243123
0.263146 0.608862 0.242454
0.265766 0.608026 0.242318
0.268404 0.607116 0.242157
0.271136 0.605257 0.241723
0.273375 0.609197 0.242929
0.275742 0.612189 0.243864
0.278433 0.611387 0.243720
0.281147 0.610288 0.243489
0.283870 0.609015 0.243206
0.286519 0.608888 0.243247
0.289185 0.608500 0.243212
0.291775 0.609664 0.243619
0.294327 0.611952 0.244345
0.296912 0.614051 0.245018
0.299631 0.612968 0.244785
0.302310 0.612818 0.244818
0.304961 0.613740 0.245157
0.307627 0.614266 0.245385
0.310337 0.612109 0.244847
0.313079 0.604514 0.242757
0.315703 0.604669 0.242881
0.318325 0.605145 0.243098
0.320942 0.604158 0.242899
0.323557 0.604301 0.243025
0.326165 0.604126 0.243061
0.328724 0.601661 0.242443
0.331366 0.603714 0.243123
0.334239 0.613056 0.245897
0.336812 0.611064 0.245421
0.339488 0.612271 0.245867
0.341996 0.609448 0.245156
0.344388 0.604895 0.243949
0.347055 0.606322 0.244464
0.349768 0.608320 0.245147
0.352371 0.608326 0.245258
0.355027 0.609114 0.245598
0.357701 0.610076 0.245990
0.360315 0.610168 0.246134
0.362849 0.609298 0.246002
0.365060 0.604872 0.244843
0.367912 0.607798 0.245814
0.370387 0.606594 0.245591
0.372986 0.606704 0.245752
0.375274 0.603918 0.245073
0.377802 0.603494 0.245082
0.380400 0.603705 0.245278
0.382954 0.603520 0.245361
0.385477 0.603098 0.245377
0.388140 0.603752 0.245709
0.390750 0.603963 0.245914
0.393267 0.603488 0.245921
0.395648 0.602102 0.245664
0.398115 0.601347 0.245592
0.400922 0.602803 0.246171
0.403561 0.603101 0.246412
0.406060 0.602526 0.246399
0.408628 0.602364 0.246510
0.411330 0.602944 0.246841
0.414273 0.604804 0.247551
0.417049 0.605641 0.247963
0.419625 0.605369 0.248049
0.422235 0.605258 0.248186
0.424782 0.604811 0.248224
0.427332 0.604375 0.248268
0.429928 0.604156 0.248377
0.432883 0.605576 0.248975
0.435408 0.604965 0.248972
0.438238 0.605700 0.249371
0.440817 0.605292 0.249431
0.443330 0.604592 0.249406
0.445930 0.604256 0.249492
0.448660 0.604430 0.249731
0.451291 0.604180 0.249845
0.453931 0.603945 0.249965
0.456553 0.603623 0.250060
0.459251 0.603568 0.250237
0.462093 0.604018 0.250568
0.464224 0.601856 0.250114
0.467471 0.603700 0.250868
0.470278 0.603917 0.251134
0.472914 0.603513 0.251214
0.475527 0.603019 0.251268
0.478288 0.603000 0.251467
0.481528 0.604506 0.252130
0.484187 0.604081 0.252210
0.486767 0.603393 0.252211
0.489956 0.604579 0.252783
0.492685 0.604301 0.252912
0.495260 0.603543 0.252895
0.498052 0.603419 0.253074
0.500662 0.602748 0.253086
0.503353 0.602296 0.253166
0.506249 0.602406 0.253420
0.509351 0.603051 0.253840
0.512132 0.602777 0.253980
0.514911 0.602478 0.254113
0.518121 0.603296 0.254592
0.521059 0.603357 0.254839
0.523935 0.603229 0.255030
0.526651 0.602672 0.255089
0.529361 0.602087 0.255140
0.532839 0.603380 0.255777
0.535680 0.603065 0.255915
0.538613 0.602951 0.256118
0.541768 0.603336 0.256478
0.544730 0.603232 0.256687
0.547996 0.603805 0.257110
0.550681 0.603015 0.257107
0.553486 0.602490 0.257189
0.556621 0.602678 0.257496
0.559913 0.603177 0.257903
0.562782 0.602723 0.258012
0.565134 0.601156 0.257771
0.568276 0.601259 0.258058
0.571814 0.602153 0.258599
0.575560 0.603425 0.259262
0.578260 0.602520 0.259236
0.580983 0.601655 0.259224
0.584320 0.601998 0.259598
0.588427 0.603809 0.260445
0.590828 0.602254 0.260218
0.593340 0.600922 0.260062
0.595839 0.599566 0.259901
0.599683 0.600722 0.260548
0.603033 0.600914 0.260888
0.605761 0.599937 0.260853
0.608657 0.599258 0.260916
0.612456 0.600175 0.261498
0.614981 0.598799 0.261340
0.618069 0.598404 0.261501
0.621236 0.598125 0.261703
0.624321 0.597683 0.261854
0.628169 0.598509 0.262422
0.630785 0.597232 0.262305
0.635608 0.599595 0.263383
0.638304 0.598403 0.263300
0.642271 0.599261 0.263893
0.646139 0.599910 0.264421
0.650916 0.601953 0.265414
0.655713 0.603954 0.266399
0.660000 0.605091 0.267104
0.663233 0.604557 0.267259
0.664619 0.601199 0.266478
0.669061 0.602466 0.267238
0.671266 0.600348 0.266873
0.673955 0.598953 0.266751
0.677657 0.599026 0.267124
0.681921 0.599872 0.267762
0.685101 0.599122 0.267867
0.687763 0.597619 0.267722
0.691128 0.597094 0.267911
0.695185 0.597501 0.268419
0.699369 0.598035 0.268976
0.702741 0.597422 0.269149
0.705047 0.595350 0.268829
0.707476 0.593446 0.268568
0.717870 0.602027 0.271901
0.723763 0.604531 0.273167
0.728245 0.605126 0.273786
0.734791 0.608304 0.275303
0.730941 0.598222 0.272247
0.727745 0.589113 0.269519
0.728607 0.585175 0.268578
0.732933 0.585529 0.269131
0.746382 0.596936 0.273549
0.746639 0.592178 0.272339
0.751463 0.592919 0.273055
0.755844 0.593075 0.273575
0.766341 0.600342 0.276609
0.769359 0.598751 0.276533
0.770665 0.595178 0.275759
0.773436 0.593291 0.275586
0.780488 0.596210 0.277130
0.787120 0.598555 0.278482
0.790973 0.597736 0.278714
0.794418 0.596436 0.278780
0.797674 0.594905 0.278768
0.805398 0.598142 0.280485
0.808542 0.596401 0.280413
0.813103 0.596131 0.280882
0.820823 0.599102 0.282540
0.821930 0.595144 0.281678
0.828823 0.592029 0.281722
0.839155 0.597330 0.284284
0.844130 0.597165 0.284842
0.849864 0.597695 0.285667
0.853734 0.596352 0.285801
0.857677 0.595053 0.285957
0.866297 0.598186 0.287780
0.872188 0.598634 0.288607
0.877979 0.598932 0.289384
0.882904 0.598377 0.289845
0.886701 0.596755 0.289902
0.886168 0.591195 0.288456
0.881607 0.582084 0.285638
0.885551 0.580682 0.285761
0.907496 0.595133 0.291999
0.913857 0.595679 0.292891
0.920119 0.596102 0.293737
0.926461 0.596565 0.294595
0.934112 0.598109 0.295875
0.925519 0.585968 0.291784
0.918074 0.575001 0.288117
0.938414 0.587133 0.293535
0.955815 0.596643 0.297934
0.958696 0.594234 0.297611
0.960680 0.591159 0.297003
0.962260 0.587832 0.296273
0.955322 0.577871 0.292861
0.940603 0.562029 0.287047
0.943634 0.560229 0.286840
0.951438 0.562153 0.288115
0.238789 0.598641 0.235584
0.239703 0.607024 0.238058
0.242460 0.603377 0.237211
0.244575 0.604364 0.237635
0.246606 0.606297 0.238313
0.249511 0.601970 0.237254
0.251934 0.601398 0.237226
0.254998 0.595792 0.235796
0.257130 0.597928 0.236505
0.258936 0.603371 0.238127
0.261147 0.605767 0.238900
0.263658 0.605711 0.238986
0.266031 0.607265 0.239516
0.268707 0.605951 0.239244
0.271391 0.604589 0.238954
0.273601 0.608878 0.240235
0.276073 0.610563 0.240789
0.279089 0.605306 0.239403
0.281649 0.605994 0.239674
0.284123 0.608261 0.240383
0.286784 0.607853 0.240345
0.289432 0.607699 0.240376
0.292048 0.608228 0.240598
0.294744 0.607135 0.240366
0.297512 0.604018 0.239566
0.299848 0.612442 0.241999
0.302619 0.609046 0.241122
0.305170 0.613144 0.242346
0.307843 0.613010 0.242385
0.310605 0.606702 0.240692
0.313263 0.604390 0.240121
0.315881 0.604910 0.240346
0.318501 0.604655 0.240355
0.321114 0.604284 0.240332
0.323719 0.603667 0.240243
0.326302 0.602251 0.239930
0.328901 0.602466 0.240078
0.331496 0.602613 0.240209
0.334260 0.608504 0.241963
0.336987 0.611735 0.242969
0.339548 0.610022 0.242583
0.342045 0.607334 0.241923
0.344646 0.607335 0.242025
0.347343 0.609149 0.242642
0.349928 0.608808 0.242651
0.352445 0.607489 0.242386
0.355053 0.607708 0.242558
0.357781 0.609542 0.243192
0.360442 0.610312 0.243526
0.362984 0.609576 0.243435
0.365550 0.609212 0.243452
0.367956 0.607170 0.242993
0.370643 0.608187 0.243407
0.373323 0.609049 0.243780
0.375891 0.608795 0.243836
0.378361 0.607684 0.243650
0.381510 0.612430 0.245141
0.384117 0.612362 0.245258
0.386553 0.610947 0.244992
0.389156 0.610886 0.245115
0.391900 0.611845 0.245534
0.394551 0.612067 0.245743
0.397605 0.614999 0.246733
0.400293 0.615311 0.246974
0.402009 0.609387 0.245420
0.405669 0.615827 0.247430
0.407253 0.609398 0.245731
0.409740 0.608582 0.245652
0.411547 0.603939 0.244468
0.414512 0.605908 0.245198
0.417254 0.606554 0.245547
0.420117 0.607775 0.246065
0.422485 0.606383 0.245827
0.424930 0.605421 0.245716
0.427416 0.604673 0.245667
0.430045 0.604615 0.245821
0.433000 0.606044 0.246411
0.435862 0.606956 0.246852
0.438387 0.606313 0.246842
0.440917 0.605691 0.246838
0.443431 0.605002 0.246816
0.445994 0.604515 0.246855
0.448503 0.603804 0.246829
0.451328 0.604345 0.247173
0.453861 0.603703 0.247170
0.456508 0.603491 0.247295
0.459570 0.604815 0.247876
0.461910 0.603408 0.247652
0.464203 0.601852 0.247384
0.467114 0.602514 0.247774
0.470148 0.603552 0.248277
0.472760 0.603083 0.248335
0.475454 0.602875 0.248472
0.478349 0.603311 0.248802
0.481423 0.604282 0.249294
0.483876 0.603215 0.249179
0.486631 0.603101 0.249350
0.490157 0.605336 0.250225
0.492651 0.604344 0.250137
0.495257 0.603686 0.250149
0.497990 0.603397 0.250274
0.500691 0.602995 0.250365
0.503417 0.602648 0.250475
0.506362 0.602895 0.250765
0.509398 0.603361 0.251122
0.512295 0.603405 0.251354
0.514974 0.602836 0.251402
0.517813 0.602678 0.251575
0.520973 0.603334 0.251997
0.523859 0.603238 0.252193
0.526750 0.603129 0.252386
0.529446 0.602512 0.252425
0.532392 0.602497 0.252650
0.535962 0.603969 0.253331
0.538838 0.603714 0.253485
0.541865 0.603795 0.253744
0.544766 0.603550 0.253905
0.547624 0.603189 0.254031
0.550382 0.602579 0.254082
0.552817 0.601236 0.253908
0.556829 0.603388 0.254815
0.559892 0.603386 0.255058
0.562444 0.602253 0.254952
0.565630 0.602472 0.255268
0.568166 0.601291 0.255150
0.570925 0.600575 0.255177
0.574811 0.602163 0.255924
0.577782 0.601828 0.256074
0.581124 0.602218 0.256453
0.584005 0.601660 0.256536
0.586577 0.600481 0.256427
0.589738 0.600440 0.256676
0.593565 0.601647 0.257320
0.596204 0.600553 0.257242
0.599657 0.600978 0.257644
0.602810 0.600809 0.257862
0.606132 0.600926 0.258172
0.609168 0.600494 0.258311
0.611311 0.598453 0.257940
0.615781 0.600531 0.258881
0.618493 0.599468 0.258825
0.621778 0.599389 0.259085
0.625261 0.599621 0.259447
0.629502 0.601097 0.260212
0.632392 0.600255 0.260236
0.635373 0.599552 0.260307
0.638519 0.599105 0.260462
0.641100 0.597724 0.260318
0.644752 0.598053 0.260730
0.647940 0.597610 0.260895
0.652031 0.598560 0.261515
0.655225 0.598069 0.261671
0.658535 0.597734 0.261880
0.662302 0.598066 0.262311
0.665614 0.597676 0.262510
0.668529 0.596672 0.262511
0.674551 0.600226 0.264012
0.678444 0.600574 0.264466
0.681594 0.599810 0.264558
0.685100 0.599532 0.264815
0.688246 0.598719 0.264897
0.692285 0.599134 0.265391
0.695859 0.598861 0.265662
0.700319 0.599771 0.266331
0.703301 0.598620 0.266318
0.715807 0.604979 0.269209
0.717037 0.601388 0.268393
0.722580 0.603454 0.269483
0.730063 0.607947 0.271402
0.731573 0.604670 0.270703
0.733443 0.601870 0.270168
0.729350 0.591603 0.267094
0.729919 0.587284 0.266038
0.737072 0.591105 0.267763
0.745110 0.595889 0.269831
0.750576 0.597432 0.270800
0.754739 0.597344 0.271218
0.759774 0.598243 0.271983
0.757397 0.590395 0.269730
0.758983 0.587249 0.269102
0.768808 0.593584 0.271773
0.774599 0.595158 0.272803
0.777462 0.593354 0.272663
0.785181 0.596954 0.274422
0.795243 0.603024 0.277065
0.794437 0.597030 0.275474
0.799676 0.597653 0.276219
0.803741 0.596952 0.276504
0.809391 0.597897 0.277382
0.814663 0.598371 0.278102
0.821614 0.600534 0.279436
0.820077 0.593842 0.277605
0.814828 0.583432 0.274430
0.819432 0.583143 0.274895
0.837042 0.595842 0.280073
0.840443 0.594140 0.280054
0.848684 0.597175 0.281766
0.852783 0.596068 0.281979
0.857019 0.595064 0.282233
0.863432 0.596105 0.283246
0.870173 0.597386 0.284357
0.874287 0.596137 0.284539
0.878635 0.595081 0.284796
0.879580 0.590881 0.283881
0.878526 0.584904 0.282295
0.878078 0.579548 0.280930
0.887507 0.583059 0.282897
0.910427 0.598370 0.289338
0.914817 0.597166 0.289550
0.920097 0.596729 0.290050
0.925025 0.595973 0.290426
0.931713 0.596708 0.291367
0.916338 0.578862 0.285158
0.923092 0.579772 0.286136
0.943903 0.592260 0.291592
0.950199 0.592648 0.292369
0.956422 0.592975 0.293114
0.960637 0.591692 0.293217
0.963270 0.589186 0.292826
0.956746 0.579521 0.289600
0.943722 0.564964 0.284409
0.934922 0.553956 0.280574
0.938274 0.552503 0.280483
0.238926 0.598492 0.233058
0.241258 0.597354 0.232908
0.242239 0.605810 0.235351
0.244414 0.606495 0.235683
0.247140 0.603420 0.234988
0.249538 0.602911 0.234981
0.252339 0.599435 0.234162
0.255207 0.595397 0.233181
0.257449 0.596634 0.233630
0.259209 0.602493 0.235335
0.261365 0.605418 0.236237
0.263685 0.607236 0.236832
0.266360 0.605829 0.236542
0.269017 0.604676 0.236317
0.271315 0.607615 0.237208
0.273741 0.609558 0.237824
0.276759 0.604395 0.236492
0.279540 0.601886 0.235882
0.282116 0.602111 0.236020
0.284383 0.607309 0.237521
0.286956 0.608304 0.237868
0.289684 0.606703 0.237501
0.292390 0.605309 0.237191
0.295050 0.604653 0.237082
0.297654 0.605301 0.237333
0.300318 0.604386 0.237153
0.302862 0.607269 0.238020
0.305401 0.611418 0.239237
0.308074 0.610773 0.239134
0.310746 0.609524 0.238866
0.313442 0.604270 0.237494
0.316058 0.604422 0.237614
0.318672 0.604697 0.237770
0.321283 0.604338 0.237753
0.323879 0.603301 0.237549
0.326470 0.602777 0.237489
0.329049 0.602068 0.237379
0.331668 0.603386 0.237833
0.334338 0.606078 0.238670
0.337050 0.609313 0.239661
0.339680 0.609743 0.239876
0.342143 0.606426 0.239053
0.344760 0.606913 0.239288
0.347420 0.608154 0.239736
0.349920 0.606533 0.239389
0.352279 0.602981 0.238507
0.354885 0.603547 0.238772
0.357536 0.604658 0.239193
0.360198 0.605791 0.239622
0.362955 0.607943 0.240339
0.365520 0.607688 0.240385
0.368072 0.607338 0.240407
0.370620 0.606977 0.240429
0.373259 0.607534 0.240709
0.375967 0.608669 0.241155
0.378522 0.608356 0.241196
0.381560 0.612155 0.242395
0.384148 0.611978 0.242480
0.386562 0.610435 0.242182
0.389238 0.610967 0.242470
0.391919 0.611492 0.242758
0.394384 0.610440 0.242604
0.397296 0.612485 0.243326
0.399261 0.608140 0.242245
0.401106 0.603282 0.241017
0.405387 0.613766 0.244137
0.408258 0.615149 0.244683
0.410294 0.611560 0.243819
0.412870 0.611209 0.243876
0.415467 0.610971 0.243967
0.417720 0.608874 0.243530
0.420290 0.608520 0.243590
0.423109 0.609426 0.244012
0.426160 0.611410 0.244745
0.429343 0.613917 0.245630
0.432349 0.615443 0.246237
0.434180 0.611432 0.245260
0.436092 0.607941 0.244430
0.438417 0.606407 0.244163
0.440587 0.604241 0.243715
0.443416 0.604926 0.244088
0.445999 0.604535 0.244153
0.448568 0.604078 0.244200
0.450973 0.602958 0.244057
0.454005 0.604299 0.244627
0.457773 0.608371 0.245991
0.459799 0.605728 0.245411
0.462167 0.604415 0.245218
0.464569 0.603244 0.245066
0.467292 0.603225 0.245250
0.470085 0.603423 0.245499
0.472727 0.603068 0.245588
0.475408 0.602828 0.245712
0.478609 0.604283 0.246334
0.481102 0.603365 0.246263
0.483914 0.603463 0.246490
0.486618 0.603194 0.246612
0.489434 0.603249 0.246829
0.492933 0.605347 0.247650
0.495391 0.604238 0.247529
0.497985 0.603541 0.247529
0.500703 0.603194 0.247634
0.503329 0.602566 0.247657
0.506424 0.603245 0.248069
0.509436 0.603645 0.248400
0.512395 0.603862 0.248677
0.515376 0.604104 0.248964
0.517821 0.602894 0.248820
0.520459 0.602192 0.248828
0.523690 0.603008 0.249291
0.526688 0.603181 0.249563
0.529575 0.603045 0.249744
0.532546 0.603092 0.249982
0.535905 0.604053 0.250496
0.539041 0.604426 0.250835
0.541707 0.603651 0.250831
0.544567 0.603321 0.250961
0.547307 0.602696 0.251003
0.550106 0.602195 0.251084
0.552835 0.601521 0.251114
0.556400 0.602688 0.251704
0.559479 0.602736 0.251956
0.562231 0.602049 0.251986
0.565506 0.602468 0.252355
0.568381 0.602007 0.252457
0.571388 0.601805 0.252639
0.574722 0.602250 0.253021
0.577889 0.602320 0.253291
0.580968 0.602185 0.253499
0.584240 0.602406 0.253819
0.586949 0.601494 0.253792
0.589508 0.600285 0.253674
0.592683 0.600255 0.253922
0.596258 0.600953 0.254397
0.599223 0.600467 0.254508
0.602441 0.600432 0.254761
0.606702 0.602274 0.255600
0.609368 0.601168 0.255524
0.612299 0.600530 0.255596
0.615736 0.600771 0.255944
0.619144 0.600928 0.256269
0.622048 0.600183 0.256313
0.625409 0.600205 0.256601
0.629030 0.600636 0.257020
0.631914 0.599798 0.257042
0.635096 0.599438 0.257217
0.638080 0.598735 0.257285
0.641464 0.598663 0.257556
0.644579 0.598132 0.257685
0.648436 0.598755 0.258183
0.651741 0.598471 0.258396
0.654983 0.598062 0.258572
0.658683 0.598334 0.258969
0.663615 0.600439 0.259958
0.666354 0.599172 0.259869
0.669552 0.598580 0.260000
0.673655 0.599301 0.260558
0.677307 0.599315 0.260892
0.681550 0.600148 0.261495
0.684624 0.599261 0.261545
0.687657 0.598298 0.261574
0.691896 0.599007 0.262151
0.695070 0.598189 0.262235
0.697503 0.596335 0.261983
0.702422 0.597858 0.262841
0.705564 0.596925 0.262898
0.708914 0.596247 0.263044
0.715029 0.599192 0.264389
0.717697 0.597538 0.264223
0.725807 0.602913 0.266390
0.732245 0.606003 0.267812
0.729820 0.597753 0.265467
0.740551 0.606140 0.268670
0.737761 0.597509 0.266197
0.740190 0.595429 0.265915
0.746808 0.598453 0.267351
0.753311 0.601236 0.268718
0.761041 0.605388 0.270557
0.762981 0.602557 0.270047
0.758608 0.592328 0.267027
0.762441 0.591782 0.267292
0.770400 0.595944 0.269170
0.774605 0.595703 0.269556
0.779835 0.596573 0.270331
0.788884 0.601644 0.272560
0.794525 0.602795 0.273455
0.796498 0.599854 0.272944
0.799407 0.597934 0.272790
0.803256 0.597009 0.272986
0.806520 0.595428 0.272960
0.817476 0.601928 0.275767
0.815277 0.594524 0.273716
0.817765 0.592052 0.273394
0.815473 0.584685 0.271346
0.817476 0.581759 0.270863
0.832237 0.591639 0.274932
0.841142 0.595456 0.276870
0.847239 0.596383 0.277791
0.852610 0.596533 0.278444
0.856387 0.595089 0.278530
0.860598 0.594038 0.278762
0.870528 0.598367 0.280947
0.873721 0.596253 0.280807
0.875835 0.593130 0.280300
0.878378 0.590419 0.279941
0.875680 0.582951 0.277834
0.878637 0.580681 0.277625
0.891772 0.587495 0.280772
0.906734 0.595757 0.284474
0.912641 0.595907 0.285179
0.918016 0.595566 0.285700
0.924323 0.596006 0.286512
0.931783 0.597396 0.287679
0.922774 0.584881 0.283602
0.933973 0.589441 0.285947
0.939572 0.589282 0.286506
0.948195 0.591599 0.287999
0.954298 0.591833 0.288692
0.959829 0.591610 0.289199
0.964845 0.590993 0.289541
0.960284 0.582843 0.286966
0.937520 0.560611 0.278919
0.931702 0.551934 0.276059
0.950495 0.562365 0.280586
0.240913 0.586176 0.227304
0.241384 0.597331 0.230420
0.242377 0.605765 0.232811
0.244724 0.605267 0.232819
0.247735 0.600089 0.231572
0.250090 0.599839 0.231632
0.252212 0.601676 0.232244
0.254632 0.601455 0.232300
0.257067 0.601325 0.232374
0.259237 0.603787 0.233138
0.261453 0.606251 0.233899
0.263858 0.607331 0.234285
0.266599 0.605287 0.233828
0.269283 0.603838 0.233526
0.271602 0.606541 0.234337
0.274034 0.608372 0.234911
0.276829 0.605963 0.234342
0.279807 0.600885 0.233052
0.282141 0.604578 0.234121
0.284682 0.605701 0.234497
0.287240 0.606814 0.234870
0.289902 0.606267 0.234794
0.292594 0.605063 0.234540
0.295201 0.605568 0.234748
0.297840 0.605398 0.234773
0.300504 0.604419 0.234580
0.303106 0.605231 0.234872
0.305590 0.611252 0.236573
0.308233 0.611935 0.236833
0.310997 0.604403 0.234869
0.313614 0.604352 0.234931
0.316228 0.604462 0.235038
0.318839 0.604338 0.235084
0.321445 0.604192 0.235125
0.324046 0.603950 0.235142
0.326636 0.603421 0.235082
0.329203 0.602159 0.234825
0.331791 0.602363 0.234968
0.334440 0.604629 0.235674
0.337166 0.608541 0.236832
0.339777 0.608681 0.236965
0.342341 0.607831 0.236830
0.344846 0.606010 0.236432
0.347602 0.609157 0.237393
0.350219 0.609485 0.237586
0.352418 0.603304 0.236001
0.355059 0.604405 0.236409
0.357766 0.606260 0.237026
0.360199 0.604448 0.236641
0.362544 0.601793 0.236025
0.365573 0.607153 0.237613
0.368282 0.608548 0.238114
0.370831 0.608169 0.238131
0.373371 0.607751 0.238138
0.375987 0.608058 0.238348
0.379243 0.614002 0.240114
0.380887 0.605772 0.237973
0.383815 0.608640 0.238895
0.386521 0.609543 0.239279
0.388025 0.601295 0.237131
0.391231 0.606008 0.238572
0.394302 0.609429 0.239659
0.396384 0.605881 0.238816
0.398408 0.602165 0.237926
0.400532 0.599303 0.237274
0.403955 0.604619 0.238898
0.406780 0.606010 0.239433
0.409721 0.607979 0.240133
0.413434 0.614186 0.242019
0.415759 0.612387 0.241672
0.417965 0.610017 0.241166
0.420427 0.609085 0.241063
0.423261 0.610066 0.241499
0.425768 0.609354 0.241461
0.428911 0.611726 0.242291
0.431821 0.612863 0.242777
0.434281 0.611836 0.242656
0.435491 0.605178 0.240948
0.438035 0.604687 0.240978
0.440906 0.605601 0.241407
0.443495 0.605255 0.241482
0.446077 0.604865 0.241545
0.448454 0.603634 0.241371
0.450907 0.602724 0.241290
0.453710 0.603188 0.241599
0.457563 0.607615 0.243039
0.461129 0.610772 0.244121
0.464005 0.611239 0.244439
0.467935 0.615466 0.245833
0.469801 0.612197 0.245088
0.472593 0.612241 0.245290
0.476804 0.617097 0.246874
0.478838 0.614448 0.246309
0.480697 0.611286 0.245595
0.485880 0.618978 0.248004
0.485365 0.608219 0.245104
0.488083 0.607920 0.245215
0.491051 0.608378 0.245546
0.493571 0.607429 0.245472
0.495631 0.605111 0.245001
0.498028 0.603826 0.244831
0.500677 0.603283 0.244876
0.503201 0.602369 0.244814
0.505680 0.601332 0.244717
0.509106 0.602914 0.245384
0.511433 0.601430 0.245158
0.513927 0.600407 0.245068
0.517343 0.601826 0.245693
0.520364 0.602143 0.245998
0.523210 0.601979 0.246163
0.526493 0.602895 0.246647
0.529852 0.603950 0.247174
0.532752 0.603817 0.247353
0.535927 0.604328 0.247724
0.538873 0.604248 0.247921
0.541330 0.602989 0.247771
0.543809 0.601786 0.247638
0.547240 0.602779 0.248158
0.549942 0.602062 0.248172
0.553019 0.602178 0.248434
0.556501 0.603160 0.248957
0.559439 0.602901 0.249111
0.562286 0.602423 0.249201
0.565188 0.602050 0.249324
0.568379 0.602265 0.249625
0.571606 0.602523 0.249940
0.575273 0.603653 0.250520
0.578251 0.603329 0.250665
0.581080 0.602687 0.250715
0.584262 0.602730 0.250973
0.587200 0.602269 0.251081
0.589894 0.601319 0.251042
0.592914 0.600987 0.251191
0.596020 0.600797 0.251386
0.599093 0.600522 0.251557
0.602241 0.600365 0.251765
0.605964 0.601234 0.252290
0.609401 0.601537 0.252644
0.612410 0.601042 0.252755
0.615694 0.601015 0.253013
0.618124 0.599468 0.252805
0.621470 0.599509 0.253088
0.624431 0.598863 0.253160
0.628551 0.600160 0.253836
0.631317 0.599136 0.253797
0.634740 0.599191 0.254094
0.638228 0.599321 0.254418
0.641297 0.598741 0.254523
0.645030 0.599206 0.254957
0.648444 0.599126 0.255224
0.651744 0.598837 0.255429
0.655084 0.598584 0.255647
0.659289 0.599634 0.256279
0.663738 0.601002 0.257015
0.666974 0.600483 0.257161
0.669919 0.599511 0.257167
0.673508 0.599472 0.257471
0.677743 0.600346 0.258068
0.681171 0.600001 0.258282
0.684307 0.599210 0.258359
0.687932 0.599094 0.258654
0.692017 0.599589 0.259148
0.695293 0.598916 0.259273
0.698368 0.597945 0.259306
0.701165 0.596576 0.259215
0.705755 0.597613 0.259902
0.710082 0.598241 0.260463
0.711532 0.595020 0.259784
0.717420 0.597624 0.260996
0.720492 0.596494 0.261002
0.724524 0.596574 0.261406
0.727746 0.595586 0.261468
0.733010 0.597141 0.262366
0.737429 0.597573 0.262904
0.740922 0.596812 0.263056
0.745490 0.597335 0.263636
0.754230 0.602846 0.265872
0.759939 0.604578 0.266872
0.763346 0.603501 0.266948
0.764557 0.599820 0.266162
0.766521 0.597039 0.265677
0.770449 0.596526 0.265953
0.775797 0.597593 0.266767
0.782855 0.600520 0.268215
0.790339 0.603820 0.269801
0.793471 0.602185 0.269733
0.793178 0.596773 0.268387
0.798855 0.597899 0.269264
0.802224 0.596470 0.269278
0.805611 0.595033 0.269296
0.809550 0.594156 0.269510
0.815010 0.594830 0.270265
0.816933 0.591780 0.269744
0.817045 0.586881 0.268585
0.817512 0.582383 0.267563
0.824182 0.584152 0.268721
0.836663 0.591615 0.271881
0.843948 0.593761 0.273201
0.852946 0.597485 0.275088
0.856353 0.595683 0.275042
0.859805 0.593909 0.275009
0.870036 0.598538 0.277251
0.874796 0.597898 0.277634
0.876180 0.594087 0.276888
0.876226 0.589074 0.275707
0.875233 0.583169 0.274197
0.878680 0.581342 0.274148
0.890003 0.586546 0.276645
0.906366 0.596070 0.280727
0.912347 0.596286 0.281438
0.916650 0.595014 0.281606
0.923573 0.595990 0.282594
0.928447 0.595184 0.282926
0.930294 0.591823 0.282308
0.934752 0.590693 0.282504
0.944943 0.594319 0.284459
0.948790 0.592675 0.284449
0.953615 0.591856 0.284735
0.953613 0.587176 0.283559
0.954856 0.583582 0.282770
0.951805 0.576675 0.280709
0.920683 0.547919 0.270349
0.919733 0.543115 0.269005
0.924900 0.543129 0.269470
0.241879 0.580568 0.223421
0.241717 0.595910 0.227570
0.242253 0.607554 0.230755
0.244902 0.604989 0.230220
0.248097 0.598470 0.228641
0.250043 0.601352 0.229518
0.251928 0.605185 0.230641
0.254243 0.605996 0.230966
0.256622 0.606569 0.231224
0.259100 0.606549 0.231320
0.261514 0.607335 0.231625
0.264043 0.607292 0.231706
0.266608 0.607066 0.231736
0.269282 0.605839 0.231498
0.271917 0.605106 0.231387
0.274380 0.606498 0.231834
0.276975 0.606535 0.231921
0.279554 0.606929 0.232100
0.282286 0.605256 0.231731
0.285057 0.602813 0.231157
0.287640 0.603242 0.231342
0.290166 0.604900 0.231851
0.292739 0.605970 0.232205
0.295321 0.607120 0.232580
0.298011 0.605752 0.232288
0.300751 0.602516 0.231499
0.303272 0.605751 0.232429
0.305793 0.610275 0.233704
0.308409 0.612033 0.234245
0.311164 0.604763 0.232386
0.313780 0.604733 0.232454
0.316393 0.604702 0.232522
0.319002 0.604694 0.232599
0.321607 0.604684 0.232676
0.324209 0.604609 0.232738
0.326798 0.604042 0.232670
0.329306 0.599979 0.231670
0.331963 0.603440 0.232681
0.334575 0.604398 0.233026
0.337186 0.605178 0.233325
0.339847 0.607073 0.233926
0.342424 0.606770 0.233940
0.345140 0.609347 0.234729
0.348243 0.618564 0.237301
0.350422 0.610864 0.235338
0.353005 0.610606 0.235373
0.355470 0.608701 0.234968
0.358026 0.608296 0.234967
0.360529 0.607291 0.234807
0.362808 0.603747 0.233964
0.365671 0.607157 0.234997
0.368512 0.609989 0.235878
0.371139 0.610380 0.236103
0.373760 0.610665 0.236301
0.376380 0.610917 0.236492
0.378506 0.606782 0.235498
0.381026 0.606305 0.235495
0.383617 0.606444 0.235661
0.386502 0.608851 0.236445
0.388902 0.607420 0.236189
0.391093 0.604549 0.235542
0.393725 0.604959 0.235789
0.395636 0.600425 0.234691
0.397757 0.597545 0.234044
0.400851 0.601025 0.235133
0.404356 0.606814 0.236858
0.406741 0.605519 0.236649
0.409490 0.606404 0.237038
0.412953 0.611255 0.238518
0.415616 0.611414 0.238713
0.417785 0.608892 0.238174
0.420758 0.610672 0.238819
0.423513 0.611225 0.239128
0.425971 0.610253 0.239019
0.428504 0.609667 0.239018
0.431602 0.611754 0.239756
0.434021 0.610577 0.239594
0.435827 0.606658 0.238675
0.438210 0.605434 0.238501
0.440461 0.603663 0.238177
0.443534 0.605418 0.238832
0.445987 0.604502 0.238747
0.448532 0.603971 0.238771
0.450861 0.602575 0.238554
0.453613 0.602854 0.238806
0.457531 0.607548 0.240292
0.461413 0.611897 0.241688
0.464029 0.611402 0.241730
0.466752 0.611280 0.241878
0.469095 0.609785 0.241642
0.472134 0.610738 0.242095
0.474577 0.609594 0.241959
0.478019 0.611812 0.242772
0.481349 0.613556 0.243454
0.482871 0.609348 0.242456
0.484390 0.605242 0.241486
0.487643 0.606680 0.242085
0.491599 0.610213 0.243280
0.494485 0.610354 0.243516
0.497903 0.612051 0.244197
0.500849 0.612279 0.244461
0.502713 0.609339 0.243823
0.505876 0.610164 0.244260
0.509087 0.611068 0.244721
0.512304 0.611932 0.245173
0.522661 0.624029 0.249059
0.522303 0.615134 0.246716
0.523858 0.611450 0.245867
0.526344 0.610233 0.245728
0.529055 0.609594 0.245756
0.531104 0.607289 0.245303
0.533153 0.605022 0.244861
0.535804 0.604249 0.244852
0.538714 0.604092 0.245022
0.540465 0.601171 0.244390
0.543528 0.601362 0.244662
0.546485 0.601275 0.244856
0.549866 0.602129 0.245325
0.552851 0.602042 0.245522
0.556290 0.602938 0.246008
0.559525 0.603338 0.246350
0.562321 0.602754 0.246406
0.565739 0.603482 0.246849
0.568385 0.602539 0.246802
0.571333 0.602220 0.246939
0.575264 0.603903 0.247670
0.578211 0.603519 0.247792
0.580649 0.602097 0.247608
0.583503 0.601505 0.247671
0.586330 0.600848 0.247715
0.590196 0.602189 0.248356
0.593282 0.601980 0.248538
0.596064 0.601174 0.248543
0.599054 0.600745 0.248663
0.602343 0.600853 0.248944
0.605682 0.601021 0.249246
0.608771 0.600706 0.249406
0.611896 0.600434 0.249580
0.615064 0.600216 0.249772
0.618214 0.599943 0.249950
0.620966 0.598959 0.249915
0.624196 0.598786 0.250127
0.628095 0.599718 0.250676
0.631132 0.599160 0.250777
0.634252 0.598720 0.250915
0.638156 0.599545 0.251441
0.641675 0.599698 0.251766
0.644990 0.599491 0.251983
0.648185 0.599068 0.252138
0.651808 0.599294 0.252493
0.655046 0.598886 0.252658
0.659320 0.600048 0.253309
0.663579 0.601132 0.253940
0.666607 0.600308 0.253986
0.669776 0.599677 0.254094
0.673663 0.600086 0.254528
0.677506 0.600389 0.254933
0.680758 0.599798 0.255064
0.684619 0.600056 0.255463
0.687978 0.599563 0.255631
0.692278 0.600363 0.256208
0.695639 0.599810 0.256365
0.698792 0.598943 0.256428
0.702517 0.598838 0.256733
0.706240 0.598694 0.257031
0.709501 0.597897 0.257127
0.714313 0.599129 0.257871
0.717667 0.598391 0.257994
0.721777 0.598605 0.258425
0.724789 0.597367 0.258398
0.727830 0.596150 0.258381
0.731419 0.595605 0.258583
0.737352 0.597947 0.259720
0.740642 0.596942 0.259786
0.744814 0.596991 0.260197
0.749508 0.597627 0.260805
0.752595 0.596279 0.260775
0.755634 0.594856 0.260725
0.760412 0.595459 0.261341
0.764419 0.595105 0.261652
0.767739 0.593920 0.261695
0.772926 0.594840 0.262437
0.781676 0.599722 0.264493
0.786191 0.599720 0.264951
0.794320 0.603674 0.266728
0.793446 0.597617 0.265190
0.797291 0.596754 0.265381
0.801488 0.596238 0.265694
0.805719 0.595714 0.266011
0.809723 0.594908 0.266240
0.817400 0.597907 0.267759
0.821637 0.597230 0.268048
0.820841 0.591352 0.266580
0.821333 0.586843 0.265573
0.824137 0.584693 0.265369
0.830701 0.586278 0.266448
0.838433 0.588930 0.267904
0.845172 0.590509 0.269003
0.852399 0.592478 0.270247
0.856200 0.591076 0.270335
0.860773 0.590384 0.270672
0.872101 0.595998 0.273215
0.875478 0.594063 0.273133
0.876036 0.589524 0.272136
0.872729 0.581504 0.269907
0.875212 0.578827 0.269553
0.884815 0.582529 0.271458
0.905140 0.595618 0.276716
0.912250 0.596832 0.277766
0.918467 0.597218 0.278521
0.923243 0.596330 0.278818
0.930621 0.597653 0.279908
0.931195 0.593192 0.278905
0.935053 0.591545 0.278909
0.944895 0.594876 0.280716
0.950721 0.594845 0.281295
0.952798 0.591768 0.280749
0.942457 0.578751 0.276531
0.940973 0.573047 0.274971
0.930580 0.560411 0.270823
0.919207 0.547247 0.266440
0.910462 0.536375 0.262869
0.240474 0.590591 0.223598
0.241831 0.595985 0.225121
0.243347 0.600847 0.226503
0.245815 0.599418 0.226266
0.248614 0.595693 0.225431
0.250287 0.600633 0.226820
0.252102 0.605046 0.228069
0.254368 0.606305 0.228502
0.256716 0.607202 0.228837
0.258810 0.610683 0.229835
0.261929 0.605093 0.228485
0.264397 0.605570 0.228699
0.266815 0.606808 0.229105
0.269452 0.605991 0.228977
0.272086 0.605285 0.228874
0.274826 0.603369 0.228455
0.277303 0.604736 0.228885
0.279738 0.606986 0.229542
0.282442 0.605726 0.229288
0.285217 0.603231 0.228711
0.287891 0.602124 0.228493
0.290367 0.604611 0.229208
0.292936 0.605715 0.229565
0.295488 0.607483 0.230095
0.298239 0.604531 0.229395
0.300928 0.602536 0.228946
0.303433 0.606325 0.230004
0.305974 0.610041 0.231044
0.308581 0.612107 0.231656
0.311326 0.605217 0.229932
0.313939 0.605375 0.230048
0.316553 0.605046 0.230038
0.319161 0.605404 0.230210
0.321767 0.605392 0.230286
0.324357 0.604330 0.230088
0.326950 0.604288 0.230160
0.329469 0.600932 0.229364
0.332116 0.603931 0.230237
0.334722 0.604735 0.230536
0.337312 0.604972 0.230688
0.339897 0.605076 0.230807
0.342600 0.607851 0.231631
0.345197 0.608020 0.231772
0.347590 0.604515 0.230947
0.350053 0.602777 0.230589
0.352593 0.602512 0.230620
0.355157 0.602648 0.230760
0.357935 0.605673 0.231664
0.360508 0.605745 0.231792
0.363293 0.608343 0.232589
0.365677 0.606173 0.232127
0.368261 0.606350 0.232288
0.371468 0.612823 0.234121
0.373954 0.611729 0.233950
0.376108 0.607664 0.232992
0.378407 0.605229 0.232467
0.380983 0.605321 0.232615
0.383527 0.605138 0.232692
0.386137 0.605475 0.232909
0.388983 0.607555 0.233594
0.391548 0.607423 0.233690
0.393822 0.605241 0.233240
0.395716 0.600608 0.232136
0.398146 0.599781 0.232050
0.401416 0.604326 0.233405
0.404681 0.608546 0.234678
0.407127 0.607593 0.234565
0.409675 0.607263 0.234620
0.412702 0.609636 0.235405
0.415305 0.609527 0.235524
0.417987 0.609822 0.235754
0.421256 0.613140 0.236802
0.423874 0.612949 0.236904
0.426024 0.610422 0.236377
0.429061 0.612287 0.237038
0.431287 0.610200 0.236631
0.433516 0.608195 0.236247
0.435629 0.605725 0.235737
0.438322 0.605906 0.235947
0.440882 0.605474 0.235993
0.443491 0.605238 0.236093
0.446069 0.604860 0.236156
0.448343 0.603229 0.235877
0.450868 0.602638 0.235884
0.453130 0.601017 0.235609
0.457804 0.608646 0.237872
0.460487 0.608494 0.238005
0.462912 0.607369 0.237871
0.465600 0.607204 0.238002
0.468630 0.608229 0.238463
0.469993 0.603389 0.237307
0.472557 0.602796 0.237322
0.476240 0.605954 0.238377
0.479850 0.608731 0.239329
0.481409 0.604733 0.238405
0.483635 0.602967 0.238100
0.488179 0.608501 0.239825
0.490629 0.607367 0.239698
0.493948 0.608876 0.240309
0.498192 0.613073 0.241673
0.501325 0.613841 0.242082
0.502979 0.610277 0.241281
0.505195 0.608397 0.240950
0.508502 0.609606 0.241487
0.511167 0.608974 0.241508
0.512350 0.604297 0.240391
0.516666 0.608138 0.241673
0.522103 0.614804 0.243756
0.522550 0.608242 0.242108
0.525317 0.607801 0.242188
0.529438 0.610775 0.243236
0.532520 0.611042 0.243520
0.534428 0.608380 0.242974
0.538227 0.610359 0.243747
0.542678 0.613822 0.244946
0.548088 0.619434 0.246762
0.551202 0.619508 0.247002
0.554360 0.619652 0.247263
0.557547 0.619834 0.247537
0.559474 0.617151 0.246991
0.555979 0.602495 0.243004
0.559111 0.602683 0.243277
0.562235 0.602822 0.243538
0.565358 0.602927 0.243791
0.568376 0.602781 0.243972
0.570147 0.600016 0.243398
0.575195 0.604029 0.244787
0.577978 0.603318 0.244810
0.580640 0.602354 0.244760
0.583350 0.601479 0.244737
0.586166 0.600808 0.244775
0.588804 0.599777 0.244709
0.593255 0.602217 0.245659
0.596788 0.602834 0.246079
0.599289 0.601479 0.245923
0.601931 0.600389 0.245845
0.604967 0.600017 0.245980
0.608349 0.600249 0.246294
0.611695 0.600384 0.246583
0.615037 0.600482 0.246862
0.617977 0.599846 0.246927
0.621089 0.599491 0.247076
0.624245 0.599193 0.247245
0.627901 0.599717 0.247660
0.630688 0.598747 0.247633
0.634524 0.599505 0.248124
0.637570 0.598922 0.248216
0.640437 0.598033 0.248219
0.645064 0.599956 0.249069
0.648221 0.599474 0.249199
0.651403 0.599011 0.249338
0.654866 0.598965 0.249605
0.658335 0.598896 0.249868
0.662485 0.599835 0.250440
0.666243 0.600131 0.250821
0.669264 0.599290 0.250859
0.672819 0.599222 0.251136
0.676656 0.599532 0.251532
0.680526 0.599851 0.251934
0.684513 0.600297 0.252380
0.687714 0.599586 0.252475
0.691054 0.599049 0.252626
0.695125 0.599503 0.253086
0.698565 0.599044 0.253269
0.701794 0.598270 0.253358
0.705990 0.598779 0.253848
0.709299 0.598056 0.253961
0.712381 0.597008 0.253976
0.715342 0.595783 0.253940
0.721511 0.598703 0.255203
0.725028 0.598121 0.255378
0.728473 0.597419 0.255519
0.733805 0.599065 0.256403
0.737521 0.598622 0.256637
0.740743 0.597536 0.256672
0.744438 0.597006 0.256887
0.749512 0.598113 0.257628
0.752581 0.596749 0.257589
0.755789 0.595531 0.257601
0.761606 0.597359 0.258593
0.765127 0.596432 0.258709
0.768156 0.594908 0.258639
0.773702 0.596241 0.259494
0.779302 0.597561 0.260355
0.783245 0.596949 0.260598
0.786819 0.595891 0.260702
0.792449 0.597062 0.261538
0.797105 0.597099 0.262013
0.801081 0.596351 0.262239
0.805576 0.596118 0.262640
0.811980 0.597856 0.263697
0.818439 0.599565 0.264756
0.823322 0.599554 0.265255
0.827222 0.598479 0.265409
0.826007 0.592171 0.263824
0.829419 0.590590 0.263814
0.833907 0.590059 0.264161
0.839350 0.590428 0.264817
0.845725 0.591649 0.265769
0.851134 0.591859 0.266388
0.854909 0.590447 0.266463
0.859358 0.589651 0.266752
0.863632 0.588657 0.266977
0.874236 0.593528 0.269217
0.877593 0.591575 0.269125
0.876562 0.585612 0.267649
0.873229 0.577640 0.265467
0.878855 0.577804 0.266098
0.900637 0.592251 0.271711
0.912692 0.597845 0.274262
0.918950 0.598261 0.275009
0.923410 0.597092 0.275198
0.926946 0.595135 0.275105
0.927602 0.590761 0.274148
0.929603 0.587581 0.273601
0.938570 0.590226 0.275119
0.949779 0.594657 0.277275
0.949788 0.589893 0.276133
0.925528 0.565649 0.267961
0.918312 0.555472 0.264804
0.903840 0.527793 0.256604
0.240020 0.594366 0.222112
0.241819 0.596913 0.222888
0.243966 0.597443 0.223152
0.247136 0.590883 0.221621
0.248748 0.595758 0.222969
0.250208 0.602402 0.224761
0.252153 0.605885 0.225751
0.254721 0.604723 0.225561
0.257114 0.605201 0.225782
0.259733 0.603926 0.225554
0.262434 0.601977 0.225151
0.265017 0.601209 0.225043
0.267361 0.603026 0.225588
0.269842 0.603720 0.225845
0.272452 0.603176 0.225784
0.275164 0.601490 0.225431
0.277654 0.602587 0.225783
0.280108 0.604439 0.226327
0.282685 0.604864 0.226506
0.285400 0.603232 0.226160
0.288021 0.603030 0.226177
0.290521 0.605125 0.226780
0.293074 0.606602 0.227226
0.295865 0.602889 0.226346
0.298533 0.601448 0.226046
0.301085 0.603038 0.226521
0.303643 0.604971 0.227085
0.306149 0.609868 0.228410
0.308778 0.610539 0.228654
0.311497 0.604668 0.227223
0.314095 0.605953 0.227626
0.316710 0.605255 0.227523
0.319314 0.604688 0.227454
0.321908 0.603801 0.227305
0.324506 0.604430 0.227547
0.327096 0.604402 0.227621
0.329596 0.600313 0.226652
0.332227 0.602913 0.227406
0.334899 0.606121 0.228319
0.337525 0.607273 0.228706
0.340187 0.609095 0.229267
0.342718 0.607723 0.229006
0.345263 0.606950 0.228901
0.347661 0.603697 0.228157
0.350148 0.602501 0.227946
0.352639 0.601562 0.227803
0.355097 0.600299 0.227577
0.357540 0.599020 0.227349
0.359959 0.597618 0.227090
0.363248 0.606686 0.229552
0.365799 0.606519 0.229619
0.368301 0.605842 0.229555
0.371078 0.608013 0.230234
0.373852 0.609957 0.230857
0.375937 0.605377 0.229781
0.378297 0.603606 0.229439
0.380911 0.604120 0.229694
0.383368 0.603303 0.229604
0.385939 0.603428 0.229761
0.388451 0.603090 0.229799
0.391546 0.606990 0.230949
0.393845 0.605027 0.230565
0.396539 0.605850 0.230913
0.398957 0.604791 0.230769
0.401980 0.607631 0.231652
0.404913 0.609722 0.232340
0.407406 0.609029 0.232298
0.409598 0.606606 0.231800
0.412280 0.607063 0.232063
0.415164 0.608586 0.232610
0.417784 0.608590 0.232758
0.420841 0.610849 0.233505
0.423534 0.611115 0.233725
0.425936 0.609894 0.233553
0.427972 0.606938 0.232920
0.431624 0.611734 0.234350
0.434006 0.610418 0.234157
0.435682 0.605938 0.233119
0.438062 0.604741 0.232957
0.440981 0.605897 0.233425
0.443747 0.606331 0.233702
0.446037 0.604745 0.233440
0.448505 0.603918 0.233381
0.450806 0.602431 0.233146
0.452700 0.599391 0.232494
0.455724 0.600757 0.233027
0.459809 0.606021 0.234614
0.461920 0.603797 0.234184
0.464809 0.604434 0.234527
0.468499 0.607859 0.235627
0.469880 0.603096 0.234512
0.472271 0.601927 0.234369
0.477114 0.609004 0.236467
0.479181 0.606644 0.236005
0.481195 0.604165 0.235510
0.483857 0.603809 0.235593
0.486300 0.602746 0.235484
0.489682 0.604589 0.236170
0.492476 0.604560 0.236346
0.497125 0.610044 0.238034
0.500224 0.610769 0.238422
0.501860 0.607207 0.237633
0.504179 0.605673 0.237402
0.506524 0.604230 0.237195
0.508797 0.602603 0.236938
0.512931 0.606065 0.238086
0.516507 0.607904 0.238789
0.518655 0.605880 0.238426
0.521574 0.605898 0.238628
0.523693 0.603831 0.238252
0.526476 0.603477 0.238353
0.533846 0.607163 0.239782
0.534757 0.602145 0.238585
0.540278 0.608294 0.240507
0.544525 0.611233 0.241537
0.550513 0.618135 0.243681
0.549582 0.608881 0.241297
0.554682 0.613562 0.242824
0.557412 0.612768 0.242816
0.555937 0.602648 0.240179
0.559092 0.602890 0.240461
0.561832 0.602201 0.240481
0.564893 0.602188 0.240693
0.567989 0.602223 0.240920
0.571294 0.602666 0.241265
0.571874 0.597464 0.240007
0.581053 0.609836 0.243750
0.585547 0.612479 0.244730
0.588564 0.612100 0.244852
0.590942 0.610450 0.244611
0.593016 0.608222 0.244205
0.596081 0.607916 0.244351
0.600151 0.609492 0.245038
0.603906 0.610415 0.245541
0.606082 0.608366 0.245191
0.610354 0.610169 0.245952
0.609146 0.601993 0.243832
0.612322 0.601812 0.244021
0.615087 0.600879 0.243994
0.617479 0.599286 0.243777
0.621299 0.600172 0.244282
0.625333 0.601373 0.244883
0.628014 0.600232 0.244802
0.630823 0.599300 0.244784
0.633736 0.598530 0.244815
0.637482 0.599113 0.245245
0.640547 0.598551 0.245341
0.644718 0.599744 0.245956
0.648796 0.600734 0.246516
0.651730 0.599877 0.246533
0.654643 0.598972 0.246538
0.658211 0.599064 0.246841
0.661752 0.599081 0.247125
0.665653 0.599609 0.247564
0.669069 0.599371 0.247778
0.672268 0.598783 0.247891
0.675880 0.598779 0.248181
0.679481 0.598724 0.248460
0.683773 0.599627 0.249029
0.687022 0.599000 0.249143
0.691442 0.599992 0.249749
0.694754 0.599391 0.249878
0.697704 0.598267 0.249852
0.700595 0.597047 0.249800
0.705730 0.598845 0.250668
0.709300 0.598478 0.250883
0.712598 0.597721 0.250983
0.715652 0.596619 0.250981
0.719530 0.596570 0.251306
0.724807 0.598280 0.252175
0.728464 0.597855 0.252394
0.732835 0.598297 0.252886
0.737158 0.598628 0.253349
0.740636 0.597868 0.253480
0.744005 0.596944 0.253564
0.749849 0.598996 0.254579
0.752890 0.597599 0.254527
0.756797 0.597213 0.254795
0.761436 0.597650 0.255326
0.765046 0.596834 0.255471
0.771643 0.599435 0.256697
0.774239 0.597363 0.256458
0.779436 0.598228 0.257152
0.783331 0.597566 0.257370
0.786927 0.596536 0.257476
0.792160 0.597276 0.258152
0.797117 0.597650 0.258720
0.800537 0.596307 0.258744
0.804773 0.595809 0.259046
0.811664 0.598078 0.260247
0.816147 0.597728 0.260611
0.819591 0.596251 0.260617
0.823012 0.594727 0.260612
0.830439 0.597255 0.261936
0.833459 0.595238 0.261782
0.838507 0.595232 0.262293
0.845208 0.596805 0.263331
0.850016 0.596441 0.263740
0.854445 0.595664 0.264018
0.858085 0.594094 0.264036
0.860738 0.591564 0.263739
0.865016 0.590563 0.263953
0.870114 0.590297 0.264417
0.881019 0.595348 0.266678
0.882035 0.591219 0.265851
0.879908 0.584282 0.264068
0.886801 0.585523 0.265054
0.894896 0.587769 0.266388
0.910603 0.596628 0.269994
0.917868 0.597936 0.271025
0.923958 0.598178 0.271693
0.926144 0.595056 0.271196
0.926268 0.590230 0.270099
0.923455 0.583019 0.268157
0.922530 0.577498 0.266785
0.932566 0.581086 0.268584
0.929717 0.574110 0.266674
0.916972 0.559276 0.261971
0.931018 0.566149 0.264898
0.935452 0.565291 0.265088
0.937750 0.562787 0.264681
0.904210 0.528522 0.253361
0.240021 0.595150 0.219856
0.241802 0.597889 0.220662
0.244903 0.591798 0.219282
0.246845 0.593971 0.219938
0.248048 0.602056 0.222054
0.250267 0.603101 0.222424
0.252573 0.603772 0.222696
0.255160 0.602402 0.222456
0.257950 0.599389 0.221804
0.260233 0.600927 0.222278
0.262562 0.602368 0.222724
0.265333 0.599794 0.222168
0.267603 0.602330 0.222881
0.270017 0.603746 0.223312
0.272770 0.601570 0.222846
0.275417 0.600585 0.222673
0.277848 0.602403 0.223199
0.280447 0.602249 0.223231
0.282979 0.603166 0.223530
0.285598 0.602937 0.223541
0.288189 0.603214 0.223678
0.290675 0.605591 0.224341
0.293277 0.606048 0.224523
0.295887 0.606447 0.224691
0.298677 0.602166 0.223686
0.301298 0.601717 0.223641
0.303797 0.605471 0.224652
0.306357 0.608043 0.225368
0.308928 0.611304 0.226259
0.311653 0.604872 0.224715
0.314260 0.604902 0.224796
0.316859 0.606551 0.225286
0.319467 0.605817 0.225178
0.322059 0.604527 0.224930
0.324651 0.604630 0.225035
0.327204 0.602499 0.224579
0.329708 0.599255 0.223842
0.332374 0.603473 0.224991
0.334989 0.604866 0.225429
0.337715 0.609019 0.226567
0.340329 0.609542 0.226789
0.342854 0.608086 0.226513
0.345402 0.607414 0.226436
0.347760 0.603475 0.225533
0.350258 0.602530 0.225390
0.352843 0.603074 0.225626
0.355424 0.603524 0.225841
0.357639 0.599050 0.224805
0.360105 0.598283 0.224713
0.362776 0.600022 0.225261
0.365669 0.604072 0.226401
0.368451 0.606537 0.227140
0.370711 0.603492 0.226474
0.373247 0.603385 0.226560
0.376133 0.606493 0.227470
0.378612 0.605752 0.227398
0.381101 0.605153 0.227364
0.383556 0.604304 0.227267
0.386050 0.603816 0.227264
0.388661 0.604228 0.227494
0.391120 0.603493 0.227430
0.393953 0.605416 0.228053
0.396667 0.606388 0.228433
0.399375 0.607232 0.228782
0.402113 0.608205 0.229166
0.404936 0.609611 0.229665
0.407601 0.609976 0.229896
0.409556 0.606165 0.229048
0.412441 0.607801 0.229611
0.415309 0.609229 0.230123
0.417394 0.606362 0.229521
0.419212 0.602225 0.228590
0.423147 0.609045 0.230509
0.425443 0.607367 0.230220
0.428146 0.607712 0.230458
0.431010 0.608780 0.230888
0.434199 0.611272 0.231691
0.435408 0.604674 0.230119
0.437889 0.603965 0.230087
0.440650 0.604466 0.230373
0.443331 0.604582 0.230560
0.446250 0.605651 0.230999
0.448617 0.604407 0.230831
0.450967 0.603118 0.230652
0.452708 0.599475 0.229852
0.456552 0.603983 0.231204
0.459263 0.604046 0.231385
0.462083 0.604475 0.231664
0.465342 0.606448 0.232355
0.468281 0.607181 0.232718
0.470553 0.605542 0.232453
0.472319 0.602200 0.231735
0.476352 0.606560 0.233067
0.480925 0.612525 0.234832
0.482532 0.608635 0.233971
0.483139 0.601654 0.232281
0.486022 0.602015 0.232554
0.489064 0.602828 0.232949
0.492523 0.604854 0.233672
0.496187 0.607401 0.234537
0.499408 0.608532 0.235024
0.501108 0.605199 0.234310
0.503059 0.602653 0.233808
0.505985 0.602894 0.234057
0.509546 0.604856 0.234774
0.513397 0.607524 0.235684
0.517030 0.609502 0.236410
0.518586 0.605893 0.235623
0.521241 0.605228 0.235634
0.523872 0.604494 0.235626
0.524746 0.599297 0.234403
0.528960 0.602567 0.235489
0.532506 0.604074 0.236096
0.536049 0.605505 0.236685
0.537696 0.602321 0.236012
0.543969 0.610147 0.238359
0.544940 0.605351 0.237244
0.549060 0.607913 0.238152
0.553328 0.610720 0.239131
0.557987 0.614306 0.240328
0.555823 0.602639 0.237314
0.558544 0.601938 0.237327
0.562386 0.603650 0.238010
0.565251 0.603207 0.238097
0.568318 0.603175 0.238300
0.570550 0.601376 0.238012
0.572284 0.598570 0.237443
0.580711 0.609413 0.240685
0.585412 0.612484 0.241765
0.587345 0.609960 0.241281
0.589415 0.607737 0.240881
0.593712 0.609855 0.241700
0.597219 0.610384 0.242076
0.599873 0.609257 0.241988
0.602311 0.607723 0.241785
0.606196 0.608875 0.242343
0.608913 0.607834 0.242282
0.610786 0.605262 0.241788
0.613186 0.603663 0.241571
0.618268 0.606817 0.242705
0.620616 0.605088 0.242454
0.624044 0.605238 0.242739
0.627665 0.605687 0.243112
0.632115 0.607500 0.243878
0.635701 0.607798 0.244214
0.637340 0.604834 0.243615
0.640708 0.604737 0.243841
0.644300 0.604977 0.244167
0.647034 0.603804 0.244087
0.650149 0.603229 0.244182
0.652618 0.601620 0.243980
0.654907 0.599735 0.243698
0.657893 0.598929 0.243731
0.662312 0.600295 0.244399
0.665358 0.599528 0.244449
0.668936 0.599539 0.244728
0.672287 0.599183 0.244904
0.675546 0.598665 0.245034
0.678759 0.598059 0.245142
0.683329 0.599376 0.245819
0.686550 0.598718 0.245918
0.691370 0.600286 0.246677
0.694798 0.599850 0.246849
0.697630 0.598566 0.246773
0.700306 0.597060 0.246633
0.702755 0.595239 0.246402
0.710313 0.600249 0.248212
0.712996 0.598669 0.248060
0.715504 0.596851 0.247841
0.720018 0.597634 0.248404
0.724410 0.598206 0.248910
0.728240 0.598010 0.249190
0.731754 0.597380 0.249343
0.735768 0.597345 0.249681
0.740149 0.597721 0.250148
0.744319 0.597790 0.250528
0.747820 0.597003 0.250653
0.753215 0.598462 0.251468
0.756737 0.597620 0.251587
0.760754 0.597332 0.251880
0.763857 0.595936 0.251837
