ply
format ascii 1.0
comment ---
element vertex 1737
property float x
property float y
property float z
element face 0
property list uchar uint vertex_indices
end_header
0.229228 0.611045 0.234672
0.232596 0.611144 0.234875
0.235517 0.610113 0.234855
0.238517 0.609268 0.234874
0.241451 0.608261 0.234861
0.245383 0.609600 0.235315
0.248314 0.608558 0.235296
0.251829 0.608858 0.235544
0.256255 0.611192 0.236197
0.257884 0.607210 0.235586
0.263049 0.611109 0.236550
0.264616 0.607071 0.235921
0.266612 0.604054 0.235490
0.270671 0.605491 0.235950
0.277920 0.613591 0.237749
0.278302 0.607274 0.236635
0.281413 0.606712 0.236674
0.287603 0.612417 0.237973
0.289434 0.609291 0.237477
0.292570 0.608849 0.237513
0.296915 0.610819 0.238029
0.298658 0.607748 0.237509
0.301280 0.606471 0.237341
0.304735 0.606848 0.237496
0.308735 0.608295 0.237855
0.311343 0.607184 0.237679
0.315048 0.608174 0.237915
0.319016 0.609689 0.238244
0.321151 0.607937 0.237891
0.324992 0.609336 0.238164
0.328824 0.610767 0.238428
0.336924 0.619741 0.240211
-0.343945 0.605138 0.239765
-0.342783 0.608206 0.240420
-0.340271 0.609008 0.240588
-0.337119 0.608756 0.240519
-0.333883 0.608424 0.240417
-0.331386 0.609510 0.240592
-0.328651 0.610248 0.240679
-0.326123 0.611455 0.240847
-0.322900 0.611445 0.240747
-0.319303 0.610784 0.240497
-0.315984 0.610701 0.240352
-0.313309 0.611920 0.240463
-0.310667 0.613279 0.240589
-0.307218 0.613109 0.240387
-0.304325 0.614091 0.240411
-0.301212 0.614681 0.240343
-0.296941 0.612933 0.239786
-0.293282 0.612440 0.239478
-0.290441 0.613672 0.239517
-0.286681 0.612988 0.239156
-0.283683 0.613941 0.239124
-0.280460 0.614425 0.238991
-0.277373 0.615222 0.238917
-0.273338 0.613907 0.238412
-0.270321 0.614858 0.238364
-0.266536 0.614053 0.237959
-0.263138 0.614111 0.237727
-0.259919 0.614569 0.237576
-0.256820 0.615302 0.237479
-0.253250 0.614885 0.237153
-0.249305 0.613505 0.236636
-0.246320 0.614448 0.236585
-0.242523 0.613326 0.236125
-0.239021 0.612896 0.235806
-0.235990 0.613640 0.235722
-0.233168 0.614921 0.235747
-0.229705 0.614480 0.235435
-0.226031 0.613411 0.235002
-0.222764 0.613389 0.234780
-0.219576 0.613548 0.234598
-0.216116 0.612896 0.234260
-0.212921 0.612946 0.234064
-0.209764 0.613063 0.233885
-0.206588 0.613086 0.233692
-0.203241 0.612547 0.233394
-0.199809 0.611686 0.233038
-0.197416 0.614006 0.233303
-0.194391 0.614351 0.233189
-0.191259 0.614315 0.233005
-0.187931 0.613587 0.232692
-0.184963 0.614002 0.232604
-0.181976 0.614325 0.232501
-0.179152 0.615182 0.232506
-0.176294 0.615909 0.232489
-0.173057 0.615256 0.232211
-0.170116 0.615628 0.232133
-0.166905 0.614960 0.231860
-0.163469 0.613375 0.231416
-0.160820 0.614743 0.231541
-0.157993 0.615422 0.231536
-0.155125 0.615925 0.231502
-0.152021 0.615442 0.231283
-0.149443 0.617114 0.231477
-0.146487 0.617197 0.231372
-0.143434 0.616821 0.231184
-0.140483 0.616852 0.231076
-0.137406 0.616274 0.230856
-0.134192 0.614987 0.230505
-0.131344 0.615370 0.230473
-0.128511 0.615813 0.230455
-0.125723 0.616472 0.230481
-0.122916 0.617036 0.230491
-0.119866 0.616305 0.230260
-0.117000 0.616511 0.230208
-0.114190 0.617010 0.230214
-0.111183 0.616374 0.230009
-0.108244 0.616077 0.229870
-0.105398 0.616296 0.229830
-0.102538 0.616417 0.229775
-0.099723 0.616805 0.229771
-0.096910 0.617207 0.229772
-0.093774 0.615386 0.229360
-0.091001 0.615998 0.229405
-0.088169 0.616197 0.229374
-0.085320 0.616244 0.229318
-0.082451 0.616116 0.229230
-0.079612 0.616210 0.229186
-0.076793 0.616450 0.229171
-0.073944 0.616415 0.229106
-0.071106 0.616456 0.229057
-0.068230 0.616113 0.228939
-0.065448 0.616676 0.228990
-0.062691 0.617542 0.229100
-0.059927 0.618385 0.229207
-0.057014 0.617533 0.229000
-0.054126 0.616875 0.228831
-0.051266 0.616482 0.228713
-0.048454 0.616708 0.228711
-0.045665 0.617302 0.228779
-0.042869 0.617835 0.228837
-0.040047 0.617988 0.228826
-0.037161 0.616885 0.228583
-0.034327 0.616640 0.228501
-0.031841 0.624778 0.229972
-0.028904 0.622652 0.229544
-0.026067 0.622992 0.229573
-0.023228 0.623362 0.229610
-0.020354 0.622305 0.229383
-0.017593 0.627010 0.230224
-0.014731 0.627377 0.230263
-0.011839 0.624561 0.229716
-0.008990 0.626126 0.229979
-0.006129 0.626022 0.229935
-0.003295 0.621121 0.229006
-0.000451 0.621671 0.229086
0.002375 0.620640 0.228875
0.005194 0.619800 0.228700
0.008033 0.620017 0.228722
0.010839 0.619050 0.228526
0.013565 0.615982 0.227945
0.016581 0.621153 0.228884
0.019261 0.617409 0.228180
0.022098 0.617679 0.228218
0.024929 0.617766 0.228223
0.027721 0.617139 0.228098
0.030625 0.618389 0.228320
0.033413 0.617710 0.228189
0.036291 0.618369 0.228305
0.039152 0.618705 0.228363
0.042153 0.620705 0.228729
0.044881 0.619283 0.228465
0.047675 0.618719 0.228362
0.050225 0.615629 0.227794
0.053351 0.618589 0.228343
0.056039 0.617063 0.228067
0.058742 0.615787 0.227838
0.061668 0.616554 0.227988
0.064604 0.617331 0.228141
0.066880 0.612675 0.227294
0.069957 0.614586 0.227660
0.072844 0.614914 0.227736
0.075697 0.614953 0.227760
0.078603 0.615336 0.227850
0.081505 0.615645 0.227928
0.084320 0.615338 0.227894
0.087643 0.618263 0.228459
0.090985 0.621113 0.229012
0.094032 0.621995 0.229205
0.097097 0.622911 0.229406
0.099174 0.618136 0.228557
0.103390 0.625419 0.229940
0.107817 0.633432 0.231461
0.110871 0.633807 0.231573
0.113307 0.630964 0.231091
0.115596 0.627499 0.230497
0.117758 0.623549 0.229814
0.120021 0.620232 0.229252
0.122546 0.618258 0.228940
0.125200 0.616928 0.228750
0.128084 0.616649 0.228758
0.131047 0.616692 0.228829
0.133472 0.614406 0.228470
0.136258 0.613692 0.228406
0.139551 0.615047 0.228730
0.142648 0.615529 0.228895
0.145568 0.615262 0.228923
0.148785 0.616116 0.229164
0.151607 0.615405 0.229117
0.153092 0.609723 0.228145
0.155181 0.606415 0.227618
0.160458 0.614593 0.229242
0.163601 0.614947 0.229408
0.167032 0.616242 0.229754
0.170645 0.618071 0.230204
0.172408 0.613631 0.229481
0.175906 0.614985 0.229850
0.178948 0.614788 0.229932
0.181716 0.613686 0.229847
0.183960 0.610947 0.229456
0.186185 0.608195 0.229066
0.191026 0.613388 0.230180
0.193951 0.612683 0.230185
0.196969 0.612232 0.230241
0.199902 0.611506 0.230249
0.202944 0.611072 0.230316
0.207733 0.615486 0.231308
0.212096 0.618559 0.232051
0.216004 0.620265 0.232539
0.218019 0.616825 0.232048
0.220333 0.614230 0.231720
0.225258 0.618448 0.232699
0.228566 0.618369 0.232859
0.230952 0.615931 0.232568
0.233196 0.613172 0.232217
0.235849 0.611457 0.232067
0.239387 0.611899 0.232335
0.242074 0.610267 0.232203
0.245253 0.609811 0.232299
0.249098 0.610888 0.232693
0.252478 0.610847 0.232870
0.254983 0.608807 0.232657
0.260276 0.613032 0.233663
0.262540 0.610457 0.233342
0.264678 0.607660 0.232974
0.268113 0.607720 0.233160
0.274815 0.614719 0.234703
0.279031 0.616334 0.235188
0.279551 0.610253 0.234153
0.282589 0.609488 0.234156
0.286883 0.611306 0.234661
0.290852 0.612455 0.235025
0.294432 0.612835 0.235229
0.295425 0.608175 0.234425
0.296178 0.603189 0.233544
0.299515 0.603306 0.233661
0.305414 0.608326 0.234738
0.308419 0.607864 0.234715
0.311987 0.608513 0.234899
0.314900 0.608003 0.234838
0.318289 0.608437 0.234949
0.321274 0.608199 0.234912
0.324099 0.607753 0.234817
0.326790 0.607147 0.234675
0.326361 0.601149 0.233447
-0.346637 0.609665 0.237695
-0.343210 0.608815 0.237532
-0.339813 0.608080 0.237377
-0.337237 0.608882 0.237517
-0.334656 0.609765 0.237656
-0.331273 0.609274 0.237501
-0.328902 0.610711 0.237720
-0.326050 0.611348 0.237761
-0.322949 0.611594 0.237708
-0.319667 0.611561 0.237584
-0.316426 0.611664 0.237473
-0.313704 0.612827 0.237563
-0.309210 0.610583 0.236954
-0.307488 0.613837 0.237439
-0.304044 0.613741 0.237240
-0.300401 0.613270 0.236956
-0.296789 0.612879 0.236679
-0.293784 0.613761 0.236648
-0.290110 0.613272 0.236337
-0.286840 0.613641 0.236190
-0.283396 0.613650 0.235967
-0.280377 0.614588 0.235923
-0.276425 0.613480 0.235471
-0.273655 0.614984 0.235532
-0.269865 0.614200 0.235139
-0.266351 0.614012 0.234863
-0.262958 0.614082 0.234637
-0.259790 0.614661 0.234511
-0.256374 0.614638 0.234267
-0.252871 0.614372 0.233977
-0.249499 0.614389 0.233744
-0.246081 0.614260 0.233484
-0.242664 0.614094 0.233220
-0.239323 0.614080 0.232988
-0.236389 0.615091 0.232956
-0.232426 0.613368 0.232400
-0.229540 0.614445 0.232388
-0.225377 0.612033 0.231708
-0.222700 0.613614 0.231799
-0.219463 0.613629 0.231593
-0.216201 0.613532 0.231369
-0.212985 0.613518 0.231166
-0.209684 0.613212 0.230911
-0.206513 0.613240 0.230723
-0.203361 0.613286 0.230544
-0.200165 0.613151 0.230334
-0.197239 0.613816 0.230279
-0.194277 0.614343 0.230203
-0.190905 0.613518 0.229875
-0.187842 0.613638 0.229729
-0.184751 0.613630 0.229564
-0.181931 0.614501 0.229568
-0.179113 0.615371 0.229574
-0.176145 0.615700 0.229484
-0.173018 0.615427 0.229284
-0.169787 0.614723 0.229008
-0.166987 0.615565 0.229024
-0.163873 0.615203 0.228819
-0.160881 0.615263 0.228697
-0.157982 0.615654 0.228639
-0.154975 0.615591 0.228501
-0.152042 0.615793 0.228415
-0.149151 0.616141 0.228359
-0.146457 0.617317 0.228460
-0.143522 0.617451 0.228370
-0.140460 0.616982 0.228173
-0.137294 0.615983 0.227881
-0.134331 0.615863 0.227755
-0.131500 0.616335 0.227740
-0.128614 0.616525 0.227676
-0.126012 0.618126 0.227874
-0.122994 0.617630 0.227689
-0.119855 0.616428 0.227378
-0.117108 0.617274 0.227445
-0.114324 0.617924 0.227478
-0.111386 0.617702 0.227354
-0.108268 0.616368 0.227029
-0.105431 0.616641 0.227001
-0.102582 0.616829 0.226959
-0.099699 0.616779 0.226875
-0.096823 0.616746 0.226797
-0.093908 0.616418 0.226667
-0.091031 0.616312 0.226580
-0.088235 0.616773 0.226598
-0.085363 0.616655 0.226513
-0.082378 0.615618 0.226262
-0.079501 0.615353 0.226154
-0.076758 0.616201 0.226250
-0.073961 0.616607 0.226267
-0.071040 0.615874 0.226079
-0.068272 0.616538 0.226146
-0.065522 0.617435 0.226256
-0.062753 0.618197 0.226344
-0.059914 0.618218 0.226299
-0.057026 0.617635 0.226146
-0.054114 0.616666 0.225925
-0.051272 0.616488 0.225849
-0.048515 0.617477 0.225984
-0.045667 0.617194 0.225892
-0.042890 0.618031 0.226003
-0.040031 0.617508 0.225869
-0.037150 0.616419 0.225635
-0.034292 0.615600 0.225451
-0.031970 0.627564 0.227574
-0.028980 0.624315 0.226954
-0.026044 0.621769 0.226462
-0.023189 0.621278 0.226342
-0.020264 0.617506 0.225632
-0.017440 0.617338 0.225573
-0.014644 0.619202 0.225881
-0.011816 0.619269 0.225866
-0.008989 0.619736 0.225925
-0.006158 0.619373 0.225835
-0.003273 0.629355 0.227607
-0.000487 0.620604 0.226011
0.002327 0.619231 0.225743
0.005122 0.617512 0.225414
0.007963 0.618315 0.225540
0.010831 0.619773 0.225785
0.013717 0.621362 0.226054
0.016566 0.621576 0.226078
0.019358 0.620406 0.225854
0.022045 0.617270 0.225278
0.024908 0.618007 0.225399
0.027701 0.617405 0.225281
0.030688 0.619998 0.225738
0.033545 0.620256 0.225777
0.036451 0.621147 0.225931
0.039169 0.619449 0.225621
0.042093 0.620480 0.225803
0.044761 0.618373 0.225422
0.047551 0.617829 0.225324
0.050435 0.618315 0.225412
0.053419 0.619734 0.225669
0.056267 0.619703 0.225667
0.059034 0.618915 0.225531
0.061802 0.618176 0.225406
0.064400 0.616045 0.225032
0.066833 0.612720 0.224444
0.069879 0.614408 0.224760
0.072795 0.614972 0.224875
0.075630 0.614889 0.224875
0.078576 0.615566 0.225014
0.081438 0.615606 0.225041
0.084310 0.615686 0.225076
0.088078 0.621457 0.226137
0.090955 0.621343 0.226142
0.093684 0.620322 0.225986
0.096001 0.616927 0.225404
0.098440 0.614383 0.224978
0.101026 0.612763 0.224720
0.104142 0.614055 0.224989
0.107191 0.614902 0.225180
0.110462 0.616820 0.225566
0.113815 0.619027 0.226008
0.117383 0.622150 0.226617
0.120260 0.621804 0.226604
0.122696 0.619389 0.226219
0.125040 0.616632 0.225776
0.128738 0.619998 0.226441
0.131448 0.618878 0.226299
0.133328 0.614231 0.225521
0.135406 0.610572 0.224923
0.138092 0.609522 0.224801
0.141170 0.610049 0.224968
0.145394 0.615030 0.225946
0.149176 0.618081 0.226578
0.152146 0.617907 0.226628
0.154599 0.615782 0.226327
0.156851 0.612967 0.225903
0.160121 0.613861 0.226158
0.163479 0.614994 0.226460
0.167276 0.617568 0.227028
0.169223 0.613730 0.226431
0.171666 0.611642 0.226155
0.174219 0.609945 0.225954
0.178359 0.613383 0.226697
0.180737 0.611081 0.226393
0.183536 0.610123 0.226338
0.185774 0.607435 0.225968
0.190565 0.612505 0.227029
0.193957 0.613213 0.227292
0.196967 0.612742 0.227342
0.199885 0.611974 0.227341
0.202924 0.611534 0.227404
0.206728 0.613204 0.227862
0.213177 0.622067 0.229657
0.215888 0.620486 0.229522
0.217364 0.615607 0.228775
0.220425 0.615005 0.228827
0.225998 0.620904 0.230093
0.229522 0.621353 0.230348
0.232300 0.619866 0.230244
0.234318 0.616493 0.229788
0.236876 0.614503 0.229592
0.240161 0.614294 0.229731
0.242794 0.612503 0.229574
0.245732 0.611448 0.229556
0.248507 0.610016 0.229467
0.251696 0.609548 0.229559
0.255617 0.610728 0.229963
0.258530 0.609607 0.229931
0.261181 0.607922 0.229788
0.263927 0.606474 0.229688
0.268346 0.608658 0.230276
0.274286 0.614020 0.231470
0.277468 0.613462 0.231529
0.279350 0.610224 0.231069
0.281145 0.606896 0.230583
0.286758 0.611403 0.231594
0.291674 0.614430 0.232315
0.294653 0.613577 0.232281
0.295724 0.609037 0.231526
0.295168 0.601481 0.230177
0.300747 0.605890 0.231125
0.303663 0.605201 0.231076
0.308071 0.607379 0.231569
0.311568 0.607874 0.231724
0.315224 0.608711 0.231930
0.317687 0.607423 0.231711
0.320293 0.606483 0.231545
0.323280 0.606309 0.231511
0.327520 0.608434 0.231906
0.331333 0.609843 0.232148
-0.346449 0.609179 0.234583
-0.342709 0.607800 0.234314
-0.340393 0.609005 0.234539
-0.337670 0.609581 0.234624
-0.335165 0.610637 0.234787
-0.331765 0.610152 0.234630
-0.328746 0.610431 0.234608
-0.325935 0.611172 0.234662
-0.322866 0.611503 0.234620
-0.319737 0.611787 0.234555
-0.316441 0.611812 0.234425
-0.313473 0.612524 0.234417
-0.310984 0.614240 0.234594
-0.307170 0.613399 0.234258
-0.303949 0.613769 0.234149
-0.300432 0.613573 0.233920
-0.297236 0.614057 0.233815
-0.293902 0.614285 0.233653
-0.289980 0.613293 0.233247
-0.286724 0.613705 0.233108
-0.283480 0.614157 0.232972
-0.279450 0.612898 0.232501
-0.276606 0.614230 0.232527
-0.273408 0.614792 0.232402
-0.269521 0.613786 0.231974
-0.265915 0.613386 0.231662
-0.262531 0.613469 0.231443
-0.259557 0.614498 0.231403
-0.255741 0.613511 0.230981
-0.252634 0.614190 0.230876
-0.249414 0.614578 0.230718
-0.246389 0.615428 0.230649
-0.242499 0.614076 0.230166
-0.239281 0.614372 0.229997
-0.235638 0.613530 0.229616
-0.232180 0.613112 0.229320
-0.229261 0.614089 0.229288
-0.225555 0.612906 0.228856
-0.222606 0.613741 0.228804
-0.219408 0.613859 0.228622
-0.216244 0.614034 0.228455
-0.213070 0.614139 0.228278
-0.209684 0.613583 0.227983
-0.206493 0.613547 0.227789
-0.203642 0.614497 0.227780
-0.200389 0.614196 0.227545
-0.197254 0.614211 0.227372
-0.194551 0.615560 0.227448
-0.191120 0.614551 0.227095
-0.187433 0.612621 0.226578
-0.184342 0.612580 0.226411
-0.181705 0.614048 0.226524
-0.178971 0.615190 0.226580
-0.175943 0.615291 0.226451
-0.172812 0.614985 0.226250
-0.169869 0.615316 0.226170
-0.166975 0.615806 0.226122
-0.164093 0.616321 0.226082
-0.160769 0.615099 0.225730
-0.157983 0.615925 0.225753
-0.154830 0.615259 0.225509
-0.151457 0.613626 0.225095
-0.148906 0.615350 0.225289
-0.146236 0.616600 0.225401
-0.143422 0.617240 0.225406
-0.140533 0.617534 0.225351
-0.137349 0.616452 0.225052
-0.134381 0.616300 0.224923
-0.131514 0.616600 0.224878
-0.128645 0.616870 0.224830
-0.125836 0.617423 0.224835
-0.122528 0.615395 0.224382
-0.119858 0.616615 0.224512
-0.117112 0.617459 0.224576
-0.114302 0.617958 0.224582
-0.111388 0.617858 0.224483
-0.108521 0.618005 0.224430
-0.105585 0.617708 0.224301
-0.102548 0.616739 0.224054
-0.099668 0.616693 0.223974
-0.096790 0.616635 0.223894
-0.093967 0.616926 0.223877
-0.091098 0.616880 0.223803
-0.088272 0.617121 0.223781
-0.085454 0.617425 0.223773
-0.082456 0.616290 0.223511
-0.079536 0.615691 0.223347
-0.076675 0.615525 0.223260
-0.073839 0.615546 0.223208
-0.071061 0.616091 0.223251
-0.068296 0.616782 0.223321
-0.065558 0.617799 0.223450
-0.062749 0.618125 0.223458
-0.059748 0.616296 0.223088
-0.056990 0.617155 0.223193
-0.054174 0.617349 0.223182
-0.051390 0.617982 0.223250
-0.048449 0.616410 0.222932
-0.045777 0.618756 0.223304
-0.042859 0.617339 0.223015
-0.040024 0.617180 0.222949
-0.037133 0.615851 0.222678
-0.034296 0.615399 0.222563
-0.032076 0.629760 0.225051
-0.028942 0.622847 0.223803
-0.026160 0.624868 0.224125
-0.023140 0.618838 0.223036
-0.020257 0.616365 0.222572
-0.017443 0.616446 0.222558
-0.014634 0.616919 0.222613
-0.011815 0.616702 0.222549
-0.009002 0.617317 0.222631
-0.006184 0.616667 0.222493
-0.003330 0.623450 0.223658
-0.000479 0.623832 0.223702
0.002320 0.620430 0.223086
0.005059 0.615636 0.222227
0.007866 0.615447 0.222175
0.010762 0.618399 0.222674
0.013678 0.621075 0.223126
0.016540 0.621692 0.223218
0.019378 0.621597 0.223187
0.022130 0.619728 0.222847
0.024903 0.618553 0.222630
0.027722 0.618367 0.222587
0.030645 0.619881 0.222842
0.033652 0.622419 0.223278
0.036368 0.620519 0.222939
0.039150 0.619714 0.222793
0.042007 0.619910 0.222823
0.044717 0.618341 0.222545
0.047551 0.618300 0.222537
0.050464 0.619079 0.222673
0.053441 0.620406 0.222906
0.056159 0.619116 0.222683
0.059172 0.620619 0.222950
0.061985 0.620218 0.222886
0.064426 0.616692 0.222277
0.066954 0.614124 0.221837
0.069777 0.614025 0.221830
0.072684 0.614547 0.221933
0.075600 0.615079 0.222040
0.078562 0.615873 0.222195
0.081379 0.615614 0.222167
0.084289 0.615952 0.222245
0.087611 0.618888 0.222781
0.090985 0.621939 0.223338
0.093979 0.622504 0.223462
0.096368 0.619479 0.222960
0.098488 0.615058 0.222215
0.101014 0.613099 0.221904
0.103869 0.612990 0.221918
0.107102 0.614843 0.222279
0.110229 0.616040 0.222528
0.113289 0.616808 0.222703
0.117176 0.621557 0.223581
0.120185 0.621865 0.223681
0.121908 0.616137 0.222724
0.125213 0.617840 0.223074
0.128755 0.620500 0.223596
0.131475 0.619423 0.223464
0.133387 0.614914 0.222730
0.134802 0.608476 0.221658
0.137304 0.606721 0.221413
0.141009 0.609837 0.222030
0.145634 0.616416 0.223262
0.149203 0.618633 0.223729
0.152516 0.619761 0.224007
0.154293 0.615099 0.223264
0.156436 0.611908 0.222783
0.159788 0.613125 0.223086
0.163717 0.616296 0.223740
0.167034 0.617201 0.223996
0.168735 0.612542 0.223267
0.171178 0.610486 0.223003
0.174554 0.611519 0.223292
0.178179 0.613286 0.223716
0.180925 0.612160 0.223628
0.183370 0.610092 0.223376
0.186690 0.610737 0.223611
0.189092 0.608546 0.223343
0.193738 0.613063 0.224280
0.196796 0.612741 0.224354
0.199743 0.612069 0.224369
0.202717 0.611454 0.224398
0.206061 0.611849 0.224612
0.212671 0.621194 0.226445
0.215273 0.619336 0.226262
0.216815 0.614655 0.225571
0.219273 0.612484 0.225336
0.222764 0.613021 0.225594
0.227231 0.616004 0.226300
0.231402 0.618120 0.226852
0.234192 0.616696 0.226764
0.238379 0.618709 0.227304
0.241471 0.617979 0.227346
0.244051 0.616012 0.227162
0.247016 0.614976 0.227150
0.249561 0.612961 0.226958
0.250698 0.607742 0.226175
0.253157 0.605630 0.225962
0.257265 0.607245 0.226435
0.260744 0.607414 0.226641
0.263195 0.605322 0.226426
0.262998 0.597569 0.225157
0.272856 0.611401 0.227891
0.277179 0.613262 0.228400
0.278259 0.608346 0.227643
0.280628 0.606202 0.227395
0.282972 0.604071 0.227142
0.291323 0.614056 0.229147
0.294322 0.613228 0.229123
0.296257 0.610363 0.228707
0.299207 0.609565 0.228667
0.301920 0.608370 0.228543
0.303686 0.605448 0.228081
0.307003 0.605548 0.228175
0.311816 0.608483 0.228790
0.314613 0.607707 0.228692
0.317774 0.607672 0.228720
0.321122 0.608039 0.228810
0.323883 0.607422 0.228698
0.327937 0.609176 0.229019
0.331480 0.610076 0.229163
-0.345210 0.606869 0.231121
-0.343300 0.608720 0.231475
-0.340726 0.609503 0.231607
-0.338669 0.611306 0.231919
-0.335128 0.610533 0.231719
-0.331191 0.609095 0.231376
-0.328543 0.610075 0.231483
-0.325879 0.611113 0.231586
-0.322931 0.611699 0.231587
-0.319558 0.611546 0.231433
-0.316318 0.611701 0.231325
-0.312946 0.611650 0.231166
-0.309880 0.612245 0.231118
-0.306862 0.612986 0.231087
-0.303932 0.613954 0.231090
-0.300515 0.613982 0.230904
-0.297388 0.614629 0.230828
-0.293811 0.614372 0.230573
-0.289996 0.613620 0.230218
-0.286511 0.613558 0.229989
-0.282588 0.612550 0.229578
-0.279383 0.613086 0.229454
-0.276189 0.613650 0.229332
-0.273140 0.614544 0.229270
-0.269464 0.614019 0.228940
-0.265734 0.613335 0.228581
-0.262387 0.613506 0.228381
-0.258847 0.613198 0.228093
-0.255439 0.613169 0.227857
-0.252160 0.613423 0.227676
-0.248479 0.612659 0.227308
-0.245555 0.613731 0.227281
-0.241889 0.612914 0.226908
-0.238793 0.613503 0.226797
-0.235716 0.614118 0.226693
-0.232414 0.614116 0.226479
-0.228773 0.613157 0.226095
-0.225482 0.613084 0.225875
-0.222432 0.613634 0.225773
-0.219521 0.614546 0.225739
-0.216063 0.613883 0.225424
-0.212924 0.614079 0.225269
-0.209494 0.613381 0.224955
-0.206421 0.613682 0.224827
-0.203332 0.613903 0.224688
-0.199944 0.613163 0.224380
-0.196829 0.613210 0.224217
-0.193856 0.613671 0.224133
-0.191023 0.614559 0.224129
-0.187795 0.614131 0.223893
-0.184264 0.612626 0.223470
-0.181530 0.613752 0.223519
-0.178868 0.615128 0.223616
-0.175815 0.615128 0.223472
-0.172739 0.615004 0.223310
-0.169845 0.615506 0.223262
-0.166620 0.614747 0.222994
-0.163377 0.613854 0.222707
-0.160732 0.615213 0.222820
-0.157823 0.615541 0.222755
-0.154871 0.615669 0.222658
-0.151710 0.614908 0.222408
-0.148950 0.615766 0.222445
-0.146089 0.616193 0.222409
-0.143016 0.615671 0.222210
-0.140492 0.617556 0.222436
-0.137205 0.615990 0.222060
-0.134387 0.616526 0.222055
-0.131273 0.615627 0.221802
-0.128577 0.616713 0.221898
-0.125725 0.617038 0.221864
-0.122879 0.617375 0.221834
-0.119800 0.616463 0.221590
-0.116943 0.616689 0.221546
-0.114114 0.617050 0.221527
-0.111409 0.618116 0.221633
-0.108595 0.618566 0.221634
-0.105611 0.617988 0.221460
-0.102792 0.618382 0.221455
-0.099714 0.617098 0.221163
-0.096946 0.617773 0.221211
-0.094023 0.617394 0.221079
-0.091127 0.617167 0.220976
-0.088263 0.617123 0.220906
-0.085317 0.616433 0.220726
-0.082560 0.617166 0.220793
-0.079673 0.616861 0.220683
-0.076716 0.615905 0.220463
-0.073868 0.615827 0.220396
-0.071076 0.616233 0.220413
-0.068315 0.616961 0.220487
-0.065485 0.617026 0.220449
-0.062555 0.616011 0.220227
-0.059852 0.617432 0.220424
-0.057012 0.617350 0.220364
-0.054211 0.617728 0.220385
-0.051431 0.618431 0.220463
-0.048672 0.619490 0.220603
-0.045810 0.619108 0.220497
-0.042839 0.616839 0.220070
-0.040042 0.617281 0.220108
-0.037215 0.617208 0.220060
-0.034366 0.616626 0.219925
-0.031850 0.623925 0.221138
-0.029104 0.626834 0.221602
-0.026098 0.622412 0.220814
-0.023165 0.619142 0.220225
-0.020277 0.616437 0.219734
-0.017443 0.615377 0.219525
-0.014636 0.615520 0.219522
-0.011835 0.616530 0.219668
-0.009020 0.616260 0.219597
-0.006207 0.616806 0.219665
-0.003351 0.623983 0.220865
-0.000488 0.625377 0.221080
0.002321 0.622274 0.220531
0.005094 0.618776 0.219915
0.007832 0.615190 0.219285
0.010678 0.616482 0.219487
0.013572 0.618813 0.219868
0.016440 0.619883 0.220034
0.019342 0.621489 0.220293
0.022162 0.621054 0.220205
0.024843 0.618032 0.219679
0.027614 0.617082 0.219506
0.030686 0.621109 0.220181
0.033494 0.620577 0.220082
0.036260 0.619529 0.219896
0.039114 0.619734 0.219924
0.042015 0.620494 0.220048
0.044727 0.618938 0.219780
0.047456 0.617709 0.219569
0.050287 0.617671 0.219561
0.053222 0.618646 0.219727
0.055878 0.616853 0.219424
0.058630 0.616068 0.219293
0.061883 0.619741 0.219922
0.064371 0.616644 0.219402
0.066929 0.614325 0.219015
0.069762 0.614311 0.219022
0.072671 0.614853 0.219125
0.075584 0.615359 0.219223
0.078540 0.616119 0.219367
0.081448 0.616476 0.219443
0.083900 0.613787 0.219003
0.087294 0.617255 0.219613
0.090882 0.621700 0.220391
0.094131 0.623819 0.220776
0.096700 0.621816 0.220460
0.098763 0.617018 0.219670
0.100902 0.612868 0.218993
0.104170 0.615007 0.219389
0.107102 0.615240 0.219462
0.110001 0.615265 0.219503
0.113009 0.615810 0.219634
0.116631 0.619298 0.220271
0.119693 0.619922 0.220421
0.122026 0.617092 0.219983
0.124706 0.615937 0.219834
0.127995 0.617520 0.220156
0.130515 0.615647 0.219890
0.132681 0.612309 0.219375
0.135171 0.610434 0.219112
0.137867 0.609446 0.219005
0.142047 0.614429 0.219924
0.145676 0.617011 0.220435
0.149337 0.619584 0.220949
0.151431 0.616083 0.220422
0.153207 0.611494 0.219710
0.155742 0.609810 0.219501
0.159668 0.613140 0.220158
0.163732 0.616800 0.220877
0.166672 0.616404 0.220899
0.168710 0.612912 0.220391
0.171208 0.611043 0.220166
0.174662 0.612337 0.220491
0.178325 0.614225 0.220923
0.181106 0.613205 0.220855
0.183937 0.612335 0.220816
0.186077 0.609329 0.220409
0.190258 0.612554 0.221090
0.193481 0.612780 0.221253
0.196564 0.612551 0.221340
0.199484 0.611812 0.221342
0.202459 0.611213 0.221372
0.205699 0.611332 0.221531
0.212182 0.620351 0.223254
0.214754 0.618431 0.223064
0.216279 0.613725 0.222387
0.218656 0.611360 0.222123
0.220495 0.607621 0.221619
0.224019 0.608274 0.221892
0.227983 0.609982 0.222355
0.231926 0.611551 0.222796
0.236554 0.614728 0.223527
0.241217 0.617867 0.224254
0.243742 0.615771 0.224053
0.246890 0.615173 0.224120
0.250369 0.615331 0.224322
0.248243 0.602572 0.222214
0.252541 0.604699 0.222766
0.256549 0.606102 0.223189
0.260609 0.607565 0.223623
0.262359 0.603936 0.223139
0.262973 0.597936 0.222223
0.273649 0.613507 0.225197
0.278006 0.615404 0.225702
0.278589 0.609416 0.224775
0.279312 0.603864 0.223919
0.283272 0.605026 0.224274
0.286540 0.604791 0.224368
0.293037 0.610987 0.225626
0.295580 0.609319 0.225443
0.298935 0.609297 0.225551
0.302325 0.609382 0.225668
0.304594 0.607378 0.225391
0.307389 0.606456 0.225301
0.311343 0.607759 0.225605
0.315344 0.609180 0.225917
0.318132 0.608423 0.225818
0.321517 0.608823 0.225916
0.324856 0.609204 0.225995
0.327577 0.608552 0.225871
0.328945 0.605613 0.225313
-0.346449 0.608893 0.228493
-0.344018 0.609873 0.228668
-0.341148 0.610169 0.228698
-0.338232 0.610466 0.228714
-0.335723 0.611580 0.228866
-0.331628 0.609891 0.228479
-0.328511 0.610041 0.228421
-0.325844 0.611098 0.228518
-0.323082 0.612061 0.228584
-0.319895 0.612293 0.228499
-0.316277 0.611751 0.228258
-0.312679 0.611284 0.228019
-0.309616 0.611901 0.227971
-0.306772 0.613006 0.228004
-0.302867 0.612032 0.227641
-0.300254 0.613690 0.227757
-0.297029 0.614148 0.227643
-0.293603 0.614214 0.227450
-0.289845 0.613591 0.227125
-0.285998 0.612766 0.226759
-0.282894 0.613529 0.226679
-0.279421 0.613497 0.226451
-0.276056 0.613692 0.226262
-0.272675 0.613846 0.226064
-0.269106 0.613558 0.225784
-0.265681 0.613573 0.225559
-0.262208 0.613451 0.225309
-0.258848 0.613568 0.225103
-0.255223 0.613023 0.224780
-0.252056 0.613542 0.224649
-0.248870 0.613997 0.224508
-0.245369 0.613640 0.224224
-0.242181 0.614030 0.224076
-0.238518 0.613168 0.223708
-0.235502 0.613933 0.223633
-0.232478 0.614653 0.223553
-0.228957 0.614021 0.223235
-0.225504 0.613509 0.222944
-0.222119 0.613126 0.222679
-0.218931 0.613244 0.222506
-0.215721 0.613259 0.222319
-0.212432 0.613000 0.222087
-0.209357 0.613319 0.221961
-0.206312 0.613692 0.221849
-0.203251 0.613987 0.221726
-0.200062 0.613853 0.221532
-0.196738 0.613245 0.221260
-0.193804 0.613820 0.221198
-0.190940 0.614599 0.221175
-0.188235 0.615885 0.221243
-0.185123 0.615808 0.221078
-0.181604 0.614295 0.220669
-0.178745 0.614985 0.220644
-0.175769 0.615242 0.220549
-0.172636 0.614902 0.220354
-0.169597 0.614860 0.220213
-0.166890 0.616015 0.220282
-0.163727 0.615440 0.220057
-0.160602 0.614951 0.219851
-0.157933 0.616214 0.219947
-0.154828 0.615724 0.219747
-0.151936 0.616063 0.219692
-0.149110 0.616654 0.219682
-0.146299 0.617305 0.219686
-0.143366 0.617412 0.219599
-0.140000 0.615540 0.219180
-0.137417 0.617152 0.219355
-0.134161 0.615645 0.219003
-0.131232 0.615603 0.218902
-0.128467 0.616340 0.218937
-0.125849 0.617820 0.219099
-0.122729 0.616751 0.218832
-0.119763 0.616413 0.218691
-0.116882 0.616492 0.218624
-0.114010 0.616595 0.218562
-0.111270 0.617438 0.218628
-0.108611 0.618780 0.218779
-0.105769 0.619058 0.218753
-0.102596 0.617253 0.218379
-0.099839 0.617992 0.218435
-0.097065 0.618649 0.218479
-0.094123 0.618156 0.218331
-0.091023 0.616486 0.217988
-0.088076 0.615804 0.217813
-0.085458 0.617558 0.218047
-0.082547 0.617098 0.217913
-0.079759 0.617593 0.217940
-0.076840 0.616984 0.217783
-0.073923 0.616322 0.217620
-0.071137 0.616798 0.217648
-0.068321 0.617003 0.217633
-0.065512 0.617272 0.217629
-0.062688 0.617388 0.217602
-0.059879 0.617672 0.217603
-0.057015 0.617310 0.217499
-0.054212 0.617648 0.217512
-0.051461 0.618712 0.217647
-0.048652 0.619076 0.217667
-0.045659 0.616619 0.217219
-0.042908 0.617788 0.217375
-0.040053 0.617252 0.217249
-0.037257 0.617779 0.217301
-0.034435 0.617816 0.217273
-0.031791 0.622147 0.217959
-0.028983 0.623069 0.218079
-0.026066 0.620869 0.217682
-0.023150 0.617904 0.217159
-0.020288 0.616121 0.216834
-0.017459 0.615143 0.216644
-0.014656 0.615502 0.216676
-0.011849 0.615648 0.216674
-0.009045 0.617002 0.216874
-0.006229 0.617403 0.216916
-0.003374 0.624143 0.218009
-0.000532 0.623488 0.217879
0.002272 0.620681 0.217392
0.005032 0.616957 0.216756
0.007839 0.616592 0.216676
0.010612 0.615163 0.216422
0.013446 0.615931 0.216532
0.016307 0.617181 0.216723
0.019275 0.620642 0.217280
0.022107 0.620572 0.217255
0.024804 0.617915 0.216803
0.027579 0.617046 0.216647
0.030437 0.617630 0.216733
0.033331 0.618672 0.216896
0.036432 0.622446 0.217512
0.039336 0.623162 0.217623
0.042207 0.623351 0.217648
0.044959 0.622123 0.217441
0.047567 0.619397 0.216987
0.050304 0.618290 0.216801
0.053047 0.617323 0.216641
0.055581 0.614428 0.216163
0.058366 0.614066 0.216105
0.061299 0.615014 0.216265
0.064304 0.616477 0.216512
0.066744 0.613225 0.215980
0.069805 0.615043 0.216289
0.072726 0.615660 0.216400
0.075597 0.615845 0.216442
0.078395 0.615482 0.216394
0.081343 0.616146 0.216518
0.084145 0.615780 0.216474
0.087176 0.616885 0.216674
0.091606 0.626577 0.218298
0.093879 0.622689 0.217676
0.096415 0.620530 0.217342
0.098933 0.618371 0.217011
0.100754 0.612431 0.216054
0.103672 0.612700 0.216128
0.106923 0.614680 0.216488
0.109858 0.614915 0.216561
0.112775 0.615021 0.216614
0.116620 0.619635 0.217418
0.119644 0.620082 0.217534
0.122070 0.617689 0.217180
0.124408 0.614971 0.216774
0.126805 0.612607 0.216429
0.129074 0.609753 0.216005
0.132448 0.611715 0.216385
0.135754 0.613278 0.216701
0.139095 0.614891 0.217029
0.142310 0.615899 0.217259
0.145745 0.617700 0.217624
0.148417 0.616447 0.217483
0.151000 0.614873 0.217291
0.152868 0.610656 0.216661
0.156192 0.611880 0.216942
0.160946 0.618158 0.218073
0.164365 0.619467 0.218377
0.166810 0.617321 0.218104
0.168891 0.613971 0.217633
0.171277 0.611718 0.217349
0.174695 0.612894 0.217643
0.179173 0.617420 0.218506
0.182420 0.617842 0.218682
0.184682 0.615129 0.218333
0.185988 0.609518 0.217498
0.189229 0.609905 0.217678
0.193114 0.612159 0.218178
0.196393 0.612523 0.218362
0.199242 0.611591 0.218330
0.202383 0.611475 0.218440
0.205614 0.611575 0.218590
0.212092 0.620593 0.220263
0.213761 0.616224 0.219660
0.215861 0.613093 0.219271
0.218142 0.610490 0.218973
0.220156 0.607226 0.218564
0.224228 0.609300 0.219072
0.227446 0.609112 0.219195
0.230569 0.608657 0.219276
0.235113 0.611673 0.219956
0.240261 0.616037 0.220874
0.244022 0.616930 0.221195
0.246318 0.614305 0.220909
0.249318 0.613359 0.220914
0.252037 0.611765 0.220807
0.251966 0.603853 0.219600
0.256551 0.606558 0.220239
0.259792 0.606201 0.220344
0.263176 0.606152 0.220501
0.265989 0.604860 0.220438
0.269211 0.604463 0.220530
0.276288 0.612189 0.222045
0.278226 0.609043 0.221646
0.277207 0.599900 0.220184
0.282794 0.604400 0.221120
0.287494 0.607032 0.221722
0.292516 0.610263 0.222423
0.293164 0.604865 0.221588
0.296190 0.604234 0.221588
0.300975 0.607028 0.222186
0.304393 0.607210 0.222310
0.307198 0.606285 0.222226
0.312347 0.609788 0.222917
0.315495 0.609591 0.222938
0.318578 0.609343 0.222936
0.320536 0.607131 0.222571
0.324476 0.608576 0.222843
0.326863 0.607311 0.222618
0.342888 0.630082 0.226660
-0.348725 0.612734 0.226172
-0.344561 0.610727 0.225791
-0.341017 0.609862 0.225603
-0.337736 0.609530 0.225497
-0.334889 0.610049 0.225531
-0.331920 0.610429 0.225525
-0.328595 0.610229 0.225399
-0.325765 0.611011 0.225437
-0.322997 0.611985 0.225497
-0.320038 0.612673 0.225492
-0.315853 0.611067 0.225059
-0.312690 0.611462 0.224977
-0.309741 0.612327 0.224970
-0.306193 0.612054 0.224747
-0.302765 0.612045 0.224563
-0.299490 0.612374 0.224432
-0.296524 0.613363 0.224413
-0.293242 0.613733 0.224276
-0.289414 0.612966 0.223930
-0.286091 0.613265 0.223771
-0.282832 0.613704 0.223632
-0.279512 0.614017 0.223469
-0.275792 0.613439 0.223144
-0.272522 0.613840 0.222993
-0.269290 0.614321 0.222854
-0.265192 0.612795 0.222361
-0.262027 0.613383 0.222242
-0.258677 0.613522 0.222043
-0.255537 0.614137 0.221930
-0.252110 0.614038 0.221693
-0.248893 0.614418 0.221542
-0.245599 0.614579 0.221354
-0.241797 0.613419 0.220940
-0.238432 0.613308 0.220712
-0.235495 0.614274 0.220672
-0.232392 0.614784 0.220557
-0.229092 0.614737 0.220349
-0.225435 0.613670 0.219969
-0.221929 0.612946 0.219653
-0.218596 0.612643 0.219412
-0.215554 0.613118 0.219309
-0.212508 0.613552 0.219202
-0.209363 0.613664 0.219044
-0.206419 0.614337 0.218985
-0.203241 0.614274 0.218805
-0.199902 0.613671 0.218537
-0.196684 0.613380 0.218326
-0.193803 0.614118 0.218293
-0.191074 0.615327 0.218342
-0.187670 0.614308 0.218020
-0.184849 0.615169 0.218018
-0.181824 0.615323 0.217901
-0.178628 0.614847 0.217681
-0.175577 0.614825 0.217541
-0.172631 0.615142 0.217462
-0.169736 0.615619 0.217412
-0.166835 0.616055 0.217359
-0.163904 0.616353 0.217286
-0.160654 0.615381 0.217005
-0.157616 0.615178 0.216855
-0.154736 0.615569 0.216807
-0.152090 0.616908 0.216919
-0.149111 0.616862 0.216804
-0.146137 0.616805 0.216690
-0.142947 0.615756 0.216415
-0.139974 0.615609 0.216292
-0.137327 0.616915 0.216412
-0.134262 0.616288 0.216215
-0.131365 0.616407 0.216144
-0.128487 0.616593 0.216086
-0.125514 0.616278 0.215949
-0.122614 0.616297 0.215869
-0.119826 0.616884 0.215884
-0.116853 0.616462 0.215736
-0.113993 0.616619 0.215685
-0.111198 0.617135 0.215695
-0.108600 0.618817 0.215897
-0.105416 0.617005 0.215530
-0.102627 0.617530 0.215548
-0.099753 0.617522 0.215480
-0.096873 0.617439 0.215401
-0.093785 0.615897 0.215087
-0.090971 0.616175 0.215071
-0.088091 0.615959 0.214977
-0.085331 0.616627 0.215028
-0.082502 0.616775 0.214996
-0.079666 0.616849 0.214953
-0.076776 0.616449 0.214835
-0.073962 0.616663 0.214819
-0.071138 0.616790 0.214789
-0.068505 0.618765 0.215061
-0.065565 0.617772 0.214852
-0.062708 0.617551 0.214770
-0.059845 0.617219 0.214672
-0.057002 0.617067 0.214604
-0.054207 0.617474 0.214628
-0.051398 0.617745 0.214631
-0.048650 0.618887 0.214776
-0.045728 0.617502 0.214513
-0.042902 0.617488 0.214473
-0.040093 0.617734 0.214477
-0.037209 0.616553 0.214251
-0.034394 0.616589 0.214222
-0.031786 0.621622 0.215002
-0.029043 0.624257 0.215394
-0.026001 0.618300 0.214402
-0.023155 0.617423 0.214231
-0.020311 0.616296 0.214020
-0.017479 0.615201 0.213816
-0.014674 0.615292 0.213804
-0.011882 0.617026 0.214057
-0.009068 0.617214 0.214062
-0.006252 0.617308 0.214053
-0.003409 0.622264 0.214827
-0.000610 0.618268 0.214162
0.002195 0.617243 0.213976
0.005035 0.618465 0.214152
0.007832 0.617394 0.213961
0.010623 0.616480 0.213796
0.013393 0.615179 0.213569
0.016205 0.615303 0.213573
0.019090 0.617058 0.213840
0.022029 0.619589 0.214232
0.024832 0.619053 0.214133
0.027577 0.617579 0.213884
0.030432 0.618104 0.213957
0.033424 0.620588 0.214346
0.036497 0.623868 0.214863
0.039498 0.625775 0.215162
0.042261 0.624493 0.214949
0.044948 0.622446 0.214615
0.047585 0.620038 0.214224
0.050177 0.617372 0.213793
0.052834 0.615598 0.213507
0.055597 0.614990 0.213409
0.058396 0.614739 0.213369
0.061436 0.616621 0.213674
0.064607 0.619434 0.214129
0.066844 0.614417 0.213328
0.069775 0.615188 0.213459
0.072776 0.616419 0.213664
0.075534 0.615764 0.213569
0.078224 0.614653 0.213401
0.081288 0.616146 0.213654
0.084234 0.616742 0.213764
0.087119 0.616887 0.213803
0.091953 0.629108 0.215785
0.094064 0.624177 0.215013
0.096302 0.620243 0.214402
0.098381 0.615594 0.213678
0.100765 0.612856 0.213263
0.103927 0.614445 0.213546
0.106875 0.614798 0.213633
0.109765 0.614812 0.213666
0.112773 0.615386 0.213793
0.116527 0.619557 0.214500
0.120006 0.622196 0.214964
0.122337 0.619317 0.214541
0.124298 0.614851 0.213864
0.126681 0.612436 0.213520
0.129550 0.612215 0.213532
0.132805 0.613627 0.213811
0.136221 0.615624 0.214187
0.139373 0.616424 0.214373
0.142336 0.616403 0.214428
0.144974 0.615062 0.214273
0.147898 0.614846 0.214302
0.150684 0.614080 0.214246
0.153304 0.612688 0.214090
0.156068 0.611841 0.214026
0.160856 0.618257 0.215145
0.164427 0.620111 0.215527
0.166401 0.616331 0.214996
0.168316 0.612442 0.214449
0.170824 0.610632 0.214244
0.174131 0.611476 0.214474
0.178442 0.615499 0.215228
0.183072 0.620364 0.216124
0.185335 0.617620 0.215780
0.186420 0.611298 0.214851
0.189523 0.611248 0.214954
0.192938 0.612091 0.215206
0.196199 0.612414 0.215377
0.199435 0.612610 0.215531
0.202247 0.611555 0.215482
0.205463 0.611621 0.215621
0.213071 0.623778 0.217763
0.213017 0.614674 0.216394
0.215609 0.612895 0.216239
0.218334 0.611475 0.216146
0.219617 0.606297 0.215430
0.224188 0.609673 0.216139
0.227368 0.609391 0.216243
0.230537 0.609051 0.216340
0.233819 0.608963 0.216481
0.241823 0.620314 0.218542
0.244217 0.617874 0.218296
0.245534 0.612923 0.217628
0.248284 0.611413 0.217538
0.251199 0.610297 0.217514
0.253674 0.608182 0.217322
0.253524 0.600212 0.216138
0.258715 0.604253 0.216985
0.262900 0.605974 0.217439
0.265372 0.603941 0.217254
0.267778 0.601811 0.217049
0.272579 0.604773 0.217708
0.276556 0.605946 0.218060
0.279198 0.604353 0.217934
0.280642 0.600371 0.217393
0.287346 0.607060 0.218675
0.290547 0.606661 0.218736
0.292704 0.604248 0.218442
0.295148 0.602475 0.218248
0.300168 0.605720 0.218910
0.304578 0.607780 0.219358
0.306967 0.606042 0.219141
0.310427 0.606382 0.219270
0.314819 0.608488 0.219692
0.318081 0.608551 0.219749
0.320854 0.607794 0.219650
0.324233 0.608201 0.219739
0.329397 0.611833 0.220372
0.325453 0.599485 0.218226
-0.347627 0.610703 0.222768
-0.344377 0.610312 0.222679
-0.339988 0.607970 0.222228
-0.337480 0.609031 0.222366
-0.334668 0.609636 0.222409
-0.331544 0.609756 0.222351
-0.328684 0.610431 0.222377
-0.325676 0.610907 0.222355
-0.322576 0.611281 0.222301
-0.319093 0.610987 0.222117
-0.316615 0.612669 0.222270
-0.312747 0.611732 0.221950
-0.309854 0.612729 0.221961
-0.306310 0.612487 0.221745
-0.302556 0.611843 0.221451
-0.299144 0.611906 0.221273
-0.296011 0.612560 0.221191
-0.292922 0.613333 0.221124
-0.289199 0.612795 0.220825
-0.286054 0.613479 0.220733
-0.282818 0.613979 0.220606
-0.279144 0.613524 0.220311
-0.275678 0.613508 0.220090
-0.272223 0.613499 0.219870
-0.268266 0.612325 0.219449
-0.264873 0.612400 0.219243
-0.261926 0.613493 0.219211
-0.258866 0.614317 0.219133
-0.255392 0.614139 0.218886
-0.252203 0.614616 0.218752
-0.248802 0.614547 0.218528
-0.245101 0.613685 0.218172
-0.241636 0.613359 0.217910
-0.238582 0.614043 0.217820
-0.235622 0.614952 0.217772
-0.232476 0.615350 0.217640
-0.228604 0.613765 0.217180
-0.225260 0.613530 0.216950
-0.221910 0.613227 0.216712
-0.218648 0.613117 0.216510
-0.215611 0.613605 0.216411
-0.212592 0.614115 0.216319
-0.209621 0.614740 0.216250
-0.206453 0.614750 0.216083
-0.203093 0.614130 0.215816
-0.199783 0.613602 0.215568
-0.196602 0.613415 0.215380
-0.193785 0.614347 0.215379
-0.190930 0.615142 0.215359
-0.187680 0.614615 0.215127
-0.184681 0.614876 0.215027
-0.181790 0.615471 0.214985
-0.178527 0.614752 0.214732
-0.175412 0.614489 0.214557
-0.172515 0.614967 0.214506
-0.169735 0.615853 0.214524
-0.166849 0.616337 0.214480
-0.163810 0.616218 0.214342
-0.160541 0.615158 0.214054
-0.157628 0.615438 0.213987
-0.154859 0.616272 0.214011
-0.151892 0.616290 0.213907
-0.148953 0.616388 0.213819
-0.145934 0.616114 0.213674
-0.142968 0.616027 0.213561
-0.140209 0.616834 0.213595
-0.137327 0.617077 0.213541
-0.134279 0.616524 0.213361
-0.131410 0.616772 0.213313
-0.128455 0.616575 0.213195
-0.125354 0.615605 0.212957
-0.122654 0.616632 0.213040
-0.119800 0.616863 0.212998
-0.116882 0.616732 0.212900
-0.114059 0.617094 0.212883
-0.111338 0.618043 0.212962
-0.108243 0.616799 0.212693
-0.105472 0.617428 0.212725
-0.102482 0.616704 0.212543
-0.099641 0.616861 0.212503
-0.096772 0.616822 0.212434
-0.093949 0.617075 0.212413
-0.091033 0.616661 0.212288
-0.088184 0.616682 0.212233
-0.085355 0.616838 0.212201
-0.082603 0.617587 0.212265
-0.079583 0.616168 0.211988
-0.076751 0.616225 0.211945
-0.073920 0.616276 0.211903
-0.071156 0.616932 0.211957
-0.068424 0.617939 0.212068
-0.065570 0.617777 0.211996
-0.062716 0.617574 0.211919
-0.059864 0.617357 0.211841
-0.056993 0.616862 0.211721
-0.054118 0.616237 0.211582
-0.051418 0.617870 0.211798
-0.048543 0.617200 0.211654
-0.045824 0.618810 0.211869
-0.042940 0.617896 0.211688
-0.040075 0.617168 0.211538
-0.037236 0.616799 0.211446
-0.034392 0.616232 0.211323
-0.031936 0.624868 0.212644
-0.028920 0.620432 0.211917
-0.026040 0.618955 0.211655
-0.023192 0.618121 0.211495
-0.020367 0.617918 0.211434
-0.017470 0.613557 0.210724
-0.014712 0.616570 0.211169
-0.011904 0.617114 0.211228
-0.009089 0.617096 0.211200
-0.006276 0.616476 0.211079
-0.003432 0.622374 0.211977
-0.000623 0.619383 0.211488
0.002174 0.617485 0.211170
0.005018 0.618914 0.211373
0.007888 0.620825 0.211651
0.010699 0.620061 0.211514
0.013459 0.617977 0.211171
0.016194 0.615759 0.210808
0.019075 0.617397 0.211048
0.021902 0.617568 0.211060
0.024640 0.615984 0.210800
0.027552 0.617718 0.211057
0.030495 0.619652 0.211347
0.033325 0.619615 0.211331
0.036127 0.619167 0.211251
0.039167 0.621894 0.211667
0.042087 0.622792 0.211800
0.044878 0.622075 0.211682
0.047513 0.619668 0.211302
0.050148 0.617488 0.210958
0.052758 0.615247 0.210607
0.055827 0.617598 0.210971
0.058678 0.617731 0.210992
0.061651 0.618903 0.211175
0.064668 0.620333 0.211401
0.066865 0.614969 0.210569
0.069660 0.614662 0.210526
0.072706 0.616261 0.210782
0.075452 0.615537 0.210677
0.078135 0.614391 0.210509
0.080913 0.613951 0.210451
0.083852 0.614579 0.210562
0.087240 0.618027 0.211114
0.091104 0.624199 0.212092
0.093760 0.622706 0.211878
0.095306 0.614766 0.210659
0.098450 0.616347 0.210927
0.100824 0.613541 0.210513
0.103742 0.613802 0.210579
0.106869 0.615127 0.210813
0.109832 0.615516 0.210903
0.112795 0.615861 0.210989
0.116923 0.621863 0.211961
0.120058 0.622812 0.212145
0.122470 0.620312 0.211793
0.124491 0.616104 0.211176
0.127339 0.615746 0.211163
0.130595 0.617161 0.211430
0.133679 0.617750 0.211570
0.136174 0.615810 0.211316
0.138508 0.613254 0.210969
0.141674 0.614120 0.211160
0.143643 0.610195 0.210602
0.146447 0.609619 0.210573
0.150772 0.614809 0.211452
0.153161 0.612555 0.211165
0.155650 0.610709 0.210944
0.158549 0.610373 0.210964
0.163762 0.618176 0.212271
0.166244 0.616201 0.212039
0.168524 0.613568 0.211706
0.171333 0.612756 0.211663
0.174172 0.612032 0.211637
0.177109 0.611609 0.211663
0.182515 0.619026 0.212935
0.184041 0.614003 0.212238
0.186029 0.610526 0.211788
0.189060 0.610282 0.211855
0.192910 0.612450 0.212309
0.196224 0.612934 0.212500
0.199177 0.612316 0.212518
0.202069 0.611499 0.212508
0.204960 0.610664 0.212498
0.212463 0.622564 0.214533
0.213711 0.617028 0.213777
0.215775 0.613804 0.213394
0.218259 0.611739 0.213199
0.219504 0.606464 0.212489
0.222807 0.606588 0.212651
0.227354 0.609821 0.213319
0.230731 0.610000 0.213497
0.233903 0.609632 0.213588
0.241816 0.620767 0.215551
0.244016 0.617861 0.215237
0.244043 0.609855 0.214091
0.246473 0.607642 0.213889
0.250418 0.608948 0.214262
0.253415 0.608037 0.214273
0.254687 0.603254 0.213648
0.258356 0.603882 0.213911
0.262556 0.605640 0.214358
0.265692 0.605043 0.214417
0.268132 0.602962 0.214228
0.271651 0.603200 0.214419
0.276788 0.606802 0.215164
0.278612 0.603504 0.214762
0.281070 0.601580 0.214582
0.285185 0.603042 0.214959
0.287410 0.600736 0.214702
0.293020 0.605154 0.215558
0.293541 0.599616 0.214745
0.299546 0.604768 0.215709
0.303992 0.606887 0.216157
0.306560 0.605472 0.216004
0.311075 0.607760 0.216460
0.314196 0.607488 0.216475
0.316550 0.605879 0.216254
0.319995 0.606336 0.216366
0.324764 0.609217 0.216872
0.328593 0.610449 0.217087
0.330564 0.608470 0.216750
-0.345299 0.606537 0.219015
-0.342462 0.606861 0.219046
-0.340689 0.609156 0.219401
-0.337528 0.609084 0.219334
-0.334530 0.609380 0.219317
-0.331365 0.609447 0.219246
-0.328702 0.610508 0.219332
-0.326030 0.611636 0.219416
-0.322297 0.610846 0.219159
-0.319470 0.611820 0.219192
-0.315864 0.611362 0.218969
-0.313200 0.612771 0.219054
-0.310133 0.613456 0.219006
-0.306841 0.613742 0.218881
-0.301701 0.610339 0.218123
-0.298663 0.611158 0.218074
-0.295994 0.612773 0.218153
-0.293140 0.614051 0.218170
-0.289739 0.614211 0.217992
-0.286137 0.613943 0.217740
-0.282772 0.614178 0.217568
-0.279011 0.613540 0.217249
-0.275066 0.612464 0.216855
-0.272358 0.614124 0.216917
-0.269182 0.614740 0.216803
-0.265699 0.614638 0.216571
-0.261375 0.612537 0.216009
-0.258624 0.614082 0.216051
-0.255537 0.614826 0.215962
-0.252013 0.614492 0.215697
-0.248681 0.614586 0.215504
-0.244746 0.613133 0.215061
-0.241602 0.613610 0.214937
-0.238635 0.614515 0.214885
-0.235642 0.615339 0.214823
-0.232499 0.615744 0.214695
-0.228402 0.613548 0.214149
-0.225183 0.613642 0.213978
-0.221959 0.613682 0.213802
-0.218704 0.613593 0.213609
-0.215543 0.613722 0.213455
-0.212747 0.614873 0.213469
-0.209613 0.615017 0.213324
-0.206318 0.614640 0.213099
-0.203045 0.614272 0.212880
-0.199973 0.614473 0.212755
-0.196784 0.614269 0.212570
-0.193776 0.614592 0.212472
-0.190732 0.614767 0.212354
-0.187789 0.615237 0.212286
-0.184759 0.615394 0.212173
-0.181403 0.614396 0.211880
-0.178517 0.614960 0.211837
-0.175203 0.613986 0.211555
-0.172238 0.614197 0.211463
-0.169525 0.615304 0.211516
-0.166738 0.616139 0.211528
-0.163646 0.615800 0.211359
-0.160622 0.615680 0.211228
-0.157689 0.615876 0.211149
-0.154812 0.616272 0.211104
-0.151879 0.616419 0.211023
-0.148902 0.616351 0.210912
-0.145934 0.616286 0.210803
-0.143020 0.616420 0.210728
-0.140230 0.617085 0.210739
-0.137379 0.617468 0.210708
-0.134237 0.616472 0.210465
-0.131259 0.616185 0.210334
-0.128432 0.616593 0.210314
-0.125515 0.616545 0.210226
-0.122320 0.615019 0.209911
-0.119716 0.616530 0.210068
-0.116943 0.617167 0.210092
-0.114163 0.617776 0.210113
-0.111281 0.617799 0.210046
-0.108288 0.617145 0.209877
-0.105331 0.616643 0.209733
-0.102512 0.616954 0.209716
-0.099602 0.616672 0.209609
-0.096831 0.617266 0.209639
-0.093997 0.617452 0.209608
-0.091124 0.617343 0.209533
-0.088228 0.617034 0.209429
-0.085396 0.617167 0.209395
-0.082574 0.617369 0.209372
-0.079698 0.617113 0.209281
-0.076779 0.616456 0.209130
-0.073916 0.616214 0.209044
-0.071082 0.616207 0.208995
-0.068383 0.617485 0.209144
-0.065614 0.618162 0.209202
-0.062807 0.618471 0.209205
-0.059950 0.618236 0.209126
-0.056982 0.616616 0.208837
-0.054174 0.616827 0.208829
-0.051345 0.616748 0.208778
-0.048613 0.618037 0.208936
-0.045720 0.617009 0.208742
-0.042901 0.617027 0.208709
-0.040122 0.617763 0.208785
-0.037266 0.617096 0.208650
-0.034464 0.617451 0.208670
-0.031862 0.622668 0.209431
-0.028918 0.619926 0.208983
-0.026113 0.620659 0.209064
-0.023296 0.621235 0.209122
-0.020332 0.615486 0.208221
-0.017540 0.616324 0.208320
-0.014731 0.616464 0.208315
-0.011931 0.617709 0.208478
-0.009113 0.617306 0.208392
-0.006298 0.616587 0.208259
-0.003452 0.623135 0.209228
-0.000621 0.621994 0.209032
0.002185 0.619958 0.208703
0.005033 0.620984 0.208837
0.007916 0.623090 0.209136
0.010742 0.622489 0.209026
0.013506 0.620213 0.208664
0.016334 0.620170 0.208641
0.019130 0.619367 0.208503
0.021837 0.616827 0.208104
0.024596 0.615732 0.207924
0.027516 0.617636 0.208199
0.030417 0.618917 0.208380
0.033316 0.619980 0.208530
0.036003 0.617895 0.208205
0.038854 0.618220 0.208244
0.041824 0.619983 0.208503
0.044638 0.619689 0.208451
0.047512 0.620076 0.208504
0.050200 0.618448 0.208253
0.052788 0.615952 0.207873
0.055689 0.616664 0.207978
0.058713 0.618433 0.208244
0.061706 0.619764 0.208445
