ply
format ascii 1.0
comment ---
element vertex 1753
property float x
property float y
property float z
element face 0
property list uchar uint vertex_indices
end_header
0.474200 0.583791 0.189709
0.480115 0.591530 0.190463
0.484614 0.592674 0.190600
0.490120 0.598030 0.191137
0.494089 0.596647 0.191043
0.498256 0.596069 0.191029
0.503030 0.597900 0.191246
0.507838 0.599731 0.191467
0.512650 0.601442 0.191681
0.516635 0.599878 0.191589
0.521279 0.600766 0.191732
0.527202 0.606241 0.192314
0.526834 0.588835 0.190733
0.529871 0.584013 0.190346
0.534632 0.585273 0.190539
0.540112 0.588874 0.190958
0.546192 0.594297 0.191554
0.549330 0.589793 0.191211
0.552616 0.585860 0.190923
0.557065 0.585694 0.190998
0.561756 0.586234 0.191143
0.566344 0.586385 0.191253
0.574046 0.595901 0.192262
0.577659 0.592884 0.192074
0.580193 0.586749 0.191589
0.583038 0.581655 0.191203
0.589004 0.585550 0.191682
0.592964 0.583673 0.191606
0.601005 0.593075 0.192618
0.607887 0.599026 0.193299
0.612082 0.597586 0.193265
0.615805 0.594926 0.193111
0.618144 0.588734 0.192612
0.622332 0.587456 0.192585
0.625252 0.583014 0.192246
0.627328 0.576599 0.191710
0.632860 0.578886 0.192015
0.641389 0.588429 0.193020
0.647346 0.591595 0.193397
0.651181 0.589704 0.193274
0.654273 0.586181 0.192982
0.654216 0.575537 0.191984
0.658418 0.574944 0.191957
0.665890 0.581823 0.192649
0.670156 0.581485 0.192623
0.676856 0.586620 0.193119
0.681702 0.587706 0.193206
0.685648 0.586938 0.193098
0.690339 0.587897 0.193144
-0.301413 0.592964 0.213942
-0.295902 0.592228 0.213693
-0.290551 0.591814 0.213463
-0.285890 0.592523 0.213351
-0.280708 0.592539 0.213137
-0.275674 0.592860 0.212942
-0.270430 0.592937 0.212701
-0.265202 0.593105 0.212456
-0.259040 0.591859 0.212027
-0.253910 0.592286 0.211785
-0.248787 0.592776 0.211538
-0.243500 0.593044 0.211253
-0.238301 0.593489 0.210980
-0.233143 0.594033 0.210709
-0.227418 0.593645 0.210321
-0.222089 0.593925 0.210005
-0.216295 0.593411 0.209592
-0.211626 0.594828 0.209398
-0.205561 0.593810 0.208919
-0.200905 0.595247 0.208722
-0.195347 0.595070 0.208337
-0.189297 0.593962 0.207846
-0.184159 0.594464 0.207539
-0.179609 0.596029 0.207354
-0.173211 0.594111 0.206776
-0.167903 0.594170 0.206424
-0.162994 0.594946 0.206155
-0.156616 0.592826 0.205566
-0.151136 0.592366 0.205167
-0.146063 0.592649 0.204854
-0.141196 0.593293 0.204586
-0.135320 0.591828 0.204089
-0.129495 0.590371 0.203600
-0.124636 0.590834 0.203326
-0.119991 0.591699 0.203100
-0.115470 0.592788 0.202903
-0.111143 0.594258 0.202752
-0.106477 0.594958 0.202522
-0.099827 0.591187 0.201817
-0.094685 0.590657 0.201467
-0.090120 0.591370 0.201255
-0.085123 0.591036 0.200937
-0.079557 0.589295 0.200474
-0.075058 0.589981 0.200275
-0.071262 0.592316 0.200254
-0.067351 0.594372 0.200208
-0.062938 0.595181 0.200034
-0.057505 0.593394 0.199595
-0.052356 0.592220 0.199224
-0.047226 0.591003 0.198855
-0.042870 0.591720 0.198692
-0.038450 0.592228 0.198511
-0.034032 0.592700 0.198331
-0.029637 0.593195 0.198157
-0.026500 0.597130 0.198340
-0.021818 0.596791 0.198089
-0.015970 0.593062 0.197495
-0.010212 0.589434 0.196918
-0.006485 0.591609 0.196936
-0.003167 0.595017 0.197081
0.000336 0.597926 0.197179
0.005640 0.595338 0.196724
0.012478 0.587822 0.195778
0.014645 0.594853 0.196300
0.018234 0.597480 0.196380
0.023750 0.593824 0.195835
0.026806 0.598213 0.196097
0.034447 0.587143 0.194820
0.036648 0.594431 0.195376
0.039053 0.601218 0.195883
0.044344 0.597885 0.195388
0.044669 0.612472 0.196668
0.049373 0.611315 0.196392
0.056394 0.601322 0.195248
0.059305 0.606733 0.195626
0.063252 0.608252 0.195622
0.072321 0.589290 0.193612
0.076227 0.590606 0.193595
0.080683 0.589653 0.193359
0.084769 0.590193 0.193270
0.088863 0.590688 0.193179
0.091357 0.598268 0.193779
0.096408 0.594554 0.193282
0.101743 0.589322 0.192641
0.105623 0.590717 0.192645
0.109699 0.591189 0.192560
0.113787 0.591592 0.192471
0.117754 0.592599 0.192442
0.120371 0.600675 0.193093
0.123933 0.604066 0.193294
0.128880 0.599998 0.192781
0.132134 0.605233 0.193160
0.135491 0.610125 0.193507
0.139628 0.610610 0.193434
0.145011 0.603440 0.192632
0.150974 0.592126 0.191439
0.156237 0.584651 0.190615
0.159799 0.588116 0.190833
0.162838 0.595426 0.191415
0.166580 0.598141 0.191562
0.170835 0.597186 0.191362
0.174858 0.597930 0.191324
0.178972 0.597964 0.191220
0.181992 0.607081 0.191973
0.187439 0.595857 0.190811
0.192186 0.589972 0.190155
0.196206 0.590398 0.190093
0.200289 0.590208 0.189974
0.204325 0.590453 0.189897
0.208296 0.591389 0.189885
0.211896 0.596654 0.190279
0.215987 0.596518 0.190168
0.220130 0.595653 0.189991
0.224276 0.594589 0.189796
0.228670 0.589705 0.189248
0.232741 0.589146 0.189103
0.236820 0.588316 0.188933
0.240672 0.591466 0.189134
0.244501 0.595646 0.189430
0.248488 0.597109 0.189475
0.252506 0.598090 0.189476
0.256836 0.590480 0.188687
0.260894 0.589295 0.188491
0.264924 0.588703 0.188351
0.268880 0.591209 0.188497
0.272835 0.594989 0.188761
0.276824 0.598834 0.189030
0.280893 0.596497 0.188734
0.284941 0.593641 0.188392
0.288966 0.593611 0.188310
0.292996 0.594667 0.188328
0.297078 0.599651 0.188706
0.301076 0.596369 0.188330
0.305140 0.597835 0.188389
0.309083 0.593981 0.187964
0.313064 0.592631 0.187769
0.317064 0.592204 0.187660
0.321071 0.592070 0.187578
0.325062 0.591584 0.187466
0.329054 0.591203 0.187366
0.333303 0.595757 0.187713
0.337567 0.599816 0.188016
0.341227 0.593553 0.187387
0.344981 0.589544 0.186965
0.348789 0.586790 0.186658
0.352916 0.588557 0.186761
0.356987 0.589398 0.186781
0.361180 0.591553 0.186922
0.365062 0.590011 0.186731
0.368981 0.588988 0.186590
0.373385 0.592908 0.186894
0.376854 0.587468 0.186359
0.380735 0.586254 0.186207
0.385478 0.592706 0.186744
0.389561 0.593034 0.186733
0.393389 0.591217 0.186533
0.397295 0.590109 0.186398
0.401674 0.592624 0.186591
0.405764 0.592819 0.186577
0.409952 0.593658 0.186624
0.413610 0.590775 0.186340
0.417165 0.587349 0.186011
0.421204 0.587197 0.185977
0.425987 0.591644 0.186356
0.429742 0.589569 0.186156
0.433916 0.590027 0.186184
0.438324 0.591757 0.186329
0.442151 0.590107 0.186175
0.446298 0.590229 0.186182
0.451063 0.593561 0.186479
0.457835 0.607024 0.187683
0.458940 0.591272 0.186283
0.462564 0.588579 0.186051
0.466790 0.588853 0.186087
0.470943 0.588709 0.186090
0.475609 0.590871 0.186301
0.478118 0.583207 0.185638
0.483838 0.589900 0.186262
0.487259 0.586375 0.185976
0.492378 0.590081 0.186340
0.496114 0.587877 0.186179
0.499881 0.585822 0.186035
0.504090 0.585532 0.186052
0.508620 0.586441 0.186180
0.513495 0.588560 0.186421
0.519497 0.594747 0.187031
0.523733 0.594166 0.187037
0.527016 0.590113 0.186735
0.530058 0.585293 0.186366
0.534780 0.586408 0.186535
0.540187 0.589752 0.186909
0.545385 0.592217 0.187207
0.549092 0.589630 0.187053
0.552698 0.586741 0.186874
0.556789 0.585429 0.186840
0.561355 0.585590 0.186943
0.566751 0.588244 0.187274
0.575119 0.599761 0.188414
0.577909 0.594231 0.188008
0.580518 0.588292 0.187565
0.583601 0.583860 0.187259
0.588374 0.584332 0.187402
0.592631 0.583304 0.187408
0.601921 0.596162 0.188685
0.605183 0.592223 0.188426
0.610222 0.593138 0.188610
0.614101 0.590947 0.188507
0.619033 0.591548 0.188659
0.623363 0.590583 0.188664
0.627143 0.588259 0.188540
0.631004 0.586213 0.188436
0.634777 0.584023 0.188314
0.640404 0.586429 0.188610
0.645337 0.587143 0.188744
0.652004 0.591996 0.189253
0.654259 0.586459 0.188791
0.656394 0.580846 0.188312
0.659770 0.578276 0.188105
0.665364 0.580851 0.188364
0.670487 0.582406 0.188518
0.677394 0.587954 0.189029
0.681300 0.586944 0.188919
0.684848 0.585294 0.188736
0.685227 0.577034 0.187926
-0.301454 0.592785 0.209295
-0.295735 0.591768 0.209016
-0.290786 0.591980 0.208860
-0.286069 0.592634 0.208736
-0.280798 0.592542 0.208510
-0.275182 0.591998 0.208215
-0.270128 0.592386 0.208011
-0.265324 0.593237 0.207845
-0.260411 0.593989 0.207654
-0.255422 0.594685 0.207443
-0.249584 0.594066 0.207071
-0.243814 0.593580 0.206705
-0.238511 0.593877 0.206417
-0.233099 0.594016 0.206104
-0.227425 0.593728 0.205736
-0.221692 0.593336 0.205351
-0.216313 0.593539 0.205028
-0.211171 0.594146 0.204745
-0.204474 0.592017 0.204158
-0.199415 0.592726 0.203882
-0.195204 0.594942 0.203770
-0.189435 0.594346 0.203349
-0.184514 0.595255 0.203093
-0.178081 0.593331 0.202532
-0.172884 0.593637 0.202214
-0.167920 0.594345 0.201941
-0.161822 0.592834 0.201434
-0.156536 0.592811 0.201090
-0.150896 0.592033 0.200669
-0.146164 0.592986 0.200435
-0.141471 0.593980 0.200210
-0.135983 0.593312 0.199814
-0.129797 0.591119 0.199264
-0.125100 0.591927 0.199032
-0.119998 0.591830 0.198712
-0.115383 0.592710 0.198497
-0.111065 0.594194 0.198349
-0.104904 0.591594 0.197786
-0.100096 0.591879 0.197525
-0.095451 0.592471 0.197300
-0.090075 0.591345 0.196906
-0.085313 0.591548 0.196652
-0.079091 0.588266 0.196051
-0.075290 0.590591 0.196022
-0.071163 0.592128 0.195917
-0.066844 0.593178 0.195767
-0.062131 0.593220 0.195522
-0.056705 0.591417 0.195097
-0.051286 0.589519 0.194669
-0.046947 0.590297 0.194511
-0.042695 0.591265 0.194376
-0.038243 0.591677 0.194190
-0.033762 0.591964 0.193996
-0.029685 0.593307 0.193910
-0.024430 0.591375 0.193507
-0.020575 0.593264 0.193482
-0.015168 0.590735 0.193031
-0.010205 0.589362 0.192696
-0.005975 0.590050 0.192566
-0.002741 0.593681 0.192722
0.000743 0.596618 0.192814
0.005787 0.594803 0.192452
0.010390 0.594259 0.192215
0.013380 0.598772 0.192466
0.015753 0.605383 0.192919
0.018950 0.609463 0.193131
0.026173 0.600202 0.192077
0.032211 0.594602 0.191376
0.035678 0.597643 0.191499
0.039125 0.600816 0.191635
0.041333 0.608497 0.192199
0.046158 0.606885 0.191887
0.051464 0.603389 0.191402
0.056859 0.599386 0.190873
0.057477 0.613580 0.192051
0.062741 0.610058 0.191572
0.072346 0.588985 0.189460
0.076111 0.590869 0.189493
0.080119 0.591779 0.189438
0.084793 0.589860 0.189122
0.088886 0.590350 0.189032
0.092016 0.595097 0.189337
0.095969 0.596286 0.189314
0.100732 0.593740 0.188948
0.105938 0.588946 0.188378
0.109693 0.590931 0.188434
0.113860 0.590934 0.188309
0.118601 0.587976 0.187915
0.119575 0.604504 0.189304
0.125173 0.597096 0.188506
0.129126 0.598299 0.188496
0.133380 0.597840 0.188336
0.136519 0.603792 0.188759
0.140796 0.603261 0.188595
0.146083 0.596461 0.187864
0.151685 0.587227 0.186916
0.155704 0.587713 0.186849
0.159389 0.590448 0.186986
0.163421 0.590918 0.186920
0.167051 0.594281 0.187115
0.171703 0.590241 0.186645
0.175765 0.590421 0.186556
0.183956 0.590167 0.186326
0.186304 0.605127 0.187561
0.192089 0.590257 0.186131
0.196209 0.589750 0.185986
0.200211 0.590337 0.185939
0.204268 0.590359 0.185842
0.208340 0.590193 0.185730
0.211273 0.603043 0.186773
0.215670 0.599563 0.186368
0.219596 0.601678 0.186460
0.223305 0.606991 0.186834
0.227630 0.603967 0.186473
0.232122 0.597836 0.185839
0.236529 0.592128 0.185245
0.240831 0.587318 0.184732
0.244792 0.588448 0.184742
0.248766 0.589432 0.184741
0.252645 0.592979 0.184964
0.256640 0.594119 0.184977
0.260809 0.589900 0.184522
0.264875 0.588037 0.184275
0.268788 0.592380 0.184571
0.272713 0.598276 0.185002
0.276728 0.601147 0.185169
0.280809 0.598741 0.184878
0.284881 0.590936 0.184121
0.288895 0.592063 0.184140
0.292934 0.595607 0.184369
0.296931 0.592517 0.184025
0.301113 0.603170 0.184871
0.305088 0.598732 0.184413
0.309012 0.593924 0.183924
0.312876 0.588641 0.183397
0.316979 0.591794 0.183599
0.320973 0.591378 0.183494
0.324977 0.591273 0.183417
0.328984 0.591267 0.183350
0.333365 0.598319 0.183891
0.337420 0.598554 0.183847
0.341429 0.598005 0.183737
0.344994 0.590864 0.183065
0.348821 0.588305 0.182787
0.352932 0.589779 0.182856
0.356988 0.590374 0.182851
0.361106 0.591616 0.182903
0.365015 0.590377 0.182745
0.368935 0.589360 0.182608
0.372822 0.588074 0.182450
0.376771 0.587468 0.182352
0.380935 0.588871 0.182427
0.385216 0.591155 0.182578
0.389237 0.591023 0.182527
0.393113 0.589694 0.182375
0.397024 0.588696 0.182254
0.401055 0.588640 0.182215
0.405811 0.593855 0.182625
0.408917 0.587015 0.182016
0.412533 0.584069 0.181739
0.417792 0.592157 0.182400
0.421888 0.592233 0.182384
0.425664 0.590271 0.182198
0.429707 0.589988 0.182157
0.432991 0.585212 0.181738
0.437931 0.590131 0.182142
0.442277 0.591429 0.182243
0.446303 0.590874 0.182190
0.450634 0.591907 0.182274
0.456971 0.603190 0.183228
0.461063 0.602570 0.183179
0.463493 0.593752 0.182439
0.467063 0.590767 0.182195
0.472646 0.597302 0.182760
0.476737 0.596647 0.182720
0.478422 0.585165 0.181767
0.482343 0.583937 0.181685
0.487193 0.586691 0.181944
0.491772 0.588133 0.182095
0.496030 0.588130 0.182127
0.499850 0.586293 0.182007
0.504128 0.586283 0.182045
0.509181 0.589219 0.182337
0.513325 0.588514 0.182324
0.517454 0.587719 0.182306
0.523156 0.592656 0.182780
0.526609 0.589251 0.182547
0.530509 0.587485 0.182457
0.535089 0.588080 0.182572
0.540505 0.591439 0.182926
0.545122 0.591939 0.183039
0.548680 0.588870 0.182851
0.552142 0.585533 0.182643
0.556512 0.585139 0.182689
0.560986 0.585022 0.182761
0.565338 0.584478 0.182800
0.574829 0.599470 0.184177
0.577674 0.594111 0.183807
0.580582 0.589053 0.183463
0.585017 0.588517 0.183511
0.591815 0.594680 0.184138
0.596896 0.595804 0.184332
0.597089 0.583365 0.183350
0.604255 0.590231 0.184042
0.607879 0.587376 0.183889
0.611903 0.585641 0.183832
0.618251 0.589998 0.184303
0.621662 0.586685 0.184104
0.625955 0.585700 0.184104
0.628849 0.581257 0.183798
0.634899 0.584731 0.184178
0.641544 0.589586 0.184675
0.645865 0.588772 0.184670
0.647397 0.581411 0.184082
0.651111 0.579398 0.183955
0.656326 0.580966 0.184134
0.659872 0.578754 0.183971
0.665363 0.581064 0.184195
0.670417 0.582434 0.184325
0.676711 0.586600 0.184689
0.681006 0.586420 0.184659
0.684502 0.584631 0.184475
0.690401 0.588123 0.184741
-0.301548 0.592689 0.204657
-0.295651 0.591436 0.204355
-0.291229 0.592459 0.204287
-0.286522 0.593161 0.204165
-0.279874 0.591006 0.203714
-0.274898 0.591455 0.203532
-0.270102 0.592263 0.203375
-0.265364 0.593239 0.203221
-0.260961 0.594819 0.203118
-0.255921 0.595462 0.202902
-0.250394 0.595373 0.202595
-0.244349 0.594469 0.202191
-0.238315 0.593590 0.201782
-0.232945 0.593811 0.201483
-0.227515 0.593945 0.201168
-0.222196 0.594270 0.200869
-0.216189 0.593412 0.200440
-0.210926 0.593816 0.200141
-0.206332 0.595384 0.199961
-0.199392 0.592795 0.199345
-0.194251 0.593348 0.199057
-0.189552 0.594679 0.198849
-0.184604 0.595543 0.198593
-0.177248 0.591909 0.197875
-0.172547 0.593132 0.197660
-0.167913 0.594460 0.197456
-0.161208 0.591779 0.196848
-0.156121 0.592128 0.196551
-0.150912 0.592187 0.196229
-0.146478 0.593732 0.196060
-0.141804 0.594770 0.195843
-0.136319 0.594111 0.195461
-0.130902 0.593514 0.195090
-0.125252 0.592349 0.194668
-0.119957 0.591842 0.194316
-0.115112 0.592223 0.194057
-0.109548 0.590985 0.193644
-0.104942 0.591761 0.193434
-0.100614 0.593108 0.193283
-0.095671 0.593037 0.193000
-0.089659 0.590458 0.192479
-0.084802 0.590420 0.192210
-0.080420 0.591432 0.192046
-0.075519 0.591176 0.191765
-0.071195 0.592241 0.191615
-0.066477 0.592310 0.191375
-0.060867 0.590113 0.190925
-0.055847 0.589278 0.190609
-0.051364 0.589724 0.190419
-0.047072 0.590619 0.190275
-0.042684 0.591227 0.190108
-0.038134 0.591369 0.189902
-0.033921 0.592367 0.189780
-0.029601 0.593046 0.189632
-0.025373 0.593944 0.189507
-0.019670 0.590675 0.189001
-0.014871 0.589834 0.188724
-0.008986 0.585773 0.188155
-0.005926 0.589838 0.188338
-0.002188 0.591954 0.188344
0.001583 0.593989 0.188345
0.005099 0.596823 0.188421
0.008763 0.599242 0.188462
0.012332 0.601992 0.188535
0.013892 0.611272 0.189202
0.017500 0.614093 0.189284
0.026638 0.598518 0.187709
0.030418 0.600544 0.187727
0.034174 0.602686 0.187758
0.038874 0.601542 0.187496
0.044857 0.595729 0.186819
0.049519 0.594474 0.186554
0.053809 0.594512 0.186407
0.054426 0.608384 0.187493
0.059438 0.605833 0.187118
0.067424 0.591476 0.185701
0.072041 0.589992 0.185429
0.075824 0.591818 0.185452
0.080010 0.592002 0.185332
0.084491 0.590905 0.185101
0.088500 0.591776 0.185045
0.091709 0.596198 0.185301
0.095183 0.599580 0.185468
0.099011 0.601438 0.185502
0.102628 0.604348 0.185629
0.108636 0.595765 0.184756
0.113325 0.593287 0.184418
0.116491 0.598406 0.184741
0.123101 0.585777 0.183527
0.126193 0.591299 0.183887
0.130127 0.592455 0.183871
0.132570 0.602052 0.184584
0.138301 0.593084 0.183696
0.142311 0.593836 0.183648
0.146912 0.590976 0.183291
0.150337 0.595347 0.183556
0.153635 0.600780 0.183912
0.159222 0.591134 0.182979
0.163794 0.587872 0.182594
0.167881 0.587840 0.182486
0.171693 0.589829 0.182552
0.175863 0.589156 0.182391
0.179421 0.593311 0.182642
0.182052 0.605471 0.183571
0.186802 0.600232 0.183026
0.192160 0.589026 0.181978
0.196030 0.590822 0.182031
0.200112 0.590658 0.181920
0.204328 0.589056 0.181689
0.208599 0.586659 0.181392
0.211455 0.600198 0.182434
0.215377 0.602312 0.182516
0.219385 0.603524 0.182523
0.223356 0.605368 0.182584
0.227881 0.599323 0.181986
0.232159 0.596225 0.181636
0.236416 0.592932 0.181271
0.240724 0.588092 0.180780
0.244699 0.588996 0.180767
0.248638 0.590826 0.180832
0.252605 0.592344 0.180872
0.256526 0.595464 0.181045
0.260698 0.591355 0.180620
0.264688 0.592627 0.180641
0.268628 0.596707 0.180895
0.272579 0.602228 0.181268
0.276628 0.603784 0.181314
0.280747 0.597979 0.180756
0.284817 0.589988 0.180020
0.288825 0.590032 0.179946
0.292866 0.595609 0.180327
0.296941 0.599591 0.180577
0.301072 0.604912 0.180937
0.305129 0.604147 0.180799
0.308954 0.594368 0.179928
0.312782 0.587802 0.179321
0.316807 0.588770 0.179330
0.320890 0.591041 0.179446
0.324961 0.592523 0.179499
0.329022 0.593527 0.179515
0.333253 0.597569 0.179778
0.337372 0.598987 0.179829
0.341187 0.595290 0.179467
0.345243 0.595697 0.179439
0.348949 0.591133 0.179010
0.353043 0.592229 0.179041
0.357035 0.591896 0.178959
0.360706 0.587825 0.178576
0.364912 0.590101 0.178707
0.368850 0.589293 0.178591
0.372753 0.588177 0.178452
0.376825 0.588767 0.178452
0.380893 0.589241 0.178445
0.384900 0.589104 0.178390
0.388952 0.589331 0.178367
0.392882 0.588507 0.178261
0.396837 0.587909 0.178176
0.400909 0.588207 0.178164
0.405328 0.590982 0.178354
0.409031 0.588472 0.178121
0.414123 0.595592 0.178663
0.418301 0.596168 0.178682
0.422389 0.596083 0.178651
0.426215 0.594330 0.178489
0.429862 0.591544 0.178248
0.433320 0.587755 0.177928
0.437072 0.585813 0.177759
0.441533 0.587880 0.177913
0.446235 0.591097 0.178162
0.450508 0.591834 0.178215
0.458127 0.609757 0.179644
0.461648 0.606113 0.179353
0.464318 0.598401 0.178740
0.467707 0.594446 0.178430
0.472110 0.595373 0.178513
0.477726 0.601774 0.179037
0.478770 0.587307 0.177896
0.483116 0.587910 0.177963
0.487108 0.586905 0.177905
0.491537 0.587720 0.177995
0.495830 0.587883 0.178037
0.500147 0.588073 0.178084
0.504819 0.589597 0.178241
0.509066 0.589352 0.178260
0.513182 0.588550 0.178238
0.517356 0.587933 0.178234
0.521529 0.587268 0.178230
0.527559 0.593254 0.178763
0.531210 0.590544 0.178601
0.535839 0.591264 0.178719
0.540186 0.590928 0.178754
0.544656 0.590956 0.178822
0.548205 0.587880 0.178643
0.552103 0.585979 0.178561
0.556474 0.585588 0.178604
0.560822 0.585076 0.178640
0.564886 0.583649 0.178605
0.571550 0.590094 0.179210
0.576197 0.590262 0.179309
0.580630 0.589745 0.179354
0.585898 0.591611 0.179594
0.591840 0.595294 0.179985
0.597381 0.597702 0.180273
0.596597 0.582524 0.179123
0.602226 0.585220 0.179434
0.608284 0.588960 0.179831
0.612312 0.587207 0.179777
0.616229 0.585202 0.179699
0.621702 0.587243 0.179953
0.625127 0.584039 0.179771
0.629566 0.583465 0.179802
0.636487 0.589042 0.180337
0.644244 0.596532 0.181025
0.650599 0.600492 0.181417
0.647223 0.581324 0.179887
0.652134 0.582091 0.179998
0.655781 0.579977 0.179863
0.653263 0.563901 0.178560
0.665154 0.580806 0.179984
0.668602 0.578567 0.179809
0.676223 0.585676 0.180399
0.681011 0.586549 0.180459
0.684873 0.585517 0.180348
0.688013 0.583081 0.180109
-0.299751 0.589823 0.199726
-0.295387 0.590842 0.199670
-0.290872 0.591748 0.199583
-0.286616 0.593148 0.199532
-0.280746 0.592202 0.199219
-0.274522 0.590772 0.198841
-0.269747 0.591628 0.198687
-0.265360 0.593169 0.198590
-0.260664 0.594307 0.198437
-0.255717 0.595114 0.198239
-0.250343 0.595286 0.197965
-0.244397 0.594560 0.197589
-0.238767 0.594362 0.197260
-0.233262 0.594380 0.196946
-0.228029 0.594863 0.196673
-0.222384 0.594655 0.196325
-0.216467 0.593966 0.195926
-0.211195 0.594368 0.195633
-0.205638 0.594257 0.195286
-0.199417 0.592938 0.194819
-0.194381 0.593684 0.194556
-0.189518 0.594724 0.194322
-0.183699 0.593992 0.193915
-0.176921 0.591413 0.193329
-0.172293 0.592767 0.193130
-0.166456 0.591800 0.192708
-0.162084 0.593577 0.192553
-0.155898 0.591804 0.192061
-0.151135 0.592735 0.191831
-0.146204 0.593291 0.191569
-0.141397 0.594050 0.191331
-0.136350 0.594273 0.191045
-0.130865 0.593530 0.190673
-0.125070 0.592056 0.190237
-0.119999 0.592016 0.189941
-0.114852 0.591744 0.189629
-0.109631 0.591240 0.189299
-0.105061 0.592089 0.189101
-0.100414 0.592723 0.188886
-0.095623 0.592985 0.188642
-0.090601 0.592660 0.188349
-0.085149 0.591266 0.187964
-0.080649 0.592006 0.187778
-0.076005 0.592360 0.187562
-0.070999 0.591791 0.187267
-0.065691 0.590406 0.186903
-0.061519 0.591733 0.186788
-0.056203 0.590170 0.186418
-0.051889 0.591052 0.186271
-0.047324 0.591251 0.186068
-0.042628 0.591058 0.185834
-0.038377 0.591985 0.185703
-0.034098 0.592804 0.185567
-0.030374 0.595108 0.185564
-0.027380 0.599445 0.185744
-0.024195 0.603321 0.185884
-0.020346 0.605367 0.185867
-0.014893 0.602784 0.185449
-0.009503 0.600258 0.185041
-0.003389 0.595445 0.184439
0.002078 0.592394 0.183994
0.007302 0.589944 0.183606
0.011495 0.590591 0.183489
0.012669 0.600802 0.184197
0.014871 0.607981 0.184644
0.018679 0.610087 0.184657
0.024444 0.605691 0.184117
0.029839 0.602356 0.183672
0.033520 0.604782 0.183720
0.039910 0.597733 0.182967
0.044991 0.595073 0.182590
0.049849 0.593088 0.182274
0.053980 0.593685 0.182178
0.055662 0.603516 0.182861
0.060167 0.602819 0.182659
0.066544 0.594711 0.181839
0.071369 0.592461 0.181513
0.075855 0.591460 0.181295
0.079901 0.592219 0.181225
0.083968 0.592882 0.181149
0.088055 0.593452 0.181067
0.091412 0.597250 0.181254
0.094862 0.600760 0.181418
0.098412 0.603930 0.181554
0.104268 0.596284 0.180800
0.108557 0.595843 0.180642
0.112157 0.598776 0.180763
0.116007 0.600545 0.180789
0.122647 0.587820 0.179629
0.126320 0.590280 0.179716
0.130171 0.591857 0.179731
0.133999 0.593625 0.179763
0.136867 0.601018 0.180253
0.142056 0.594968 0.179651
0.145863 0.597011 0.179707
0.149122 0.602608 0.180052
0.152562 0.607346 0.180328
0.157258 0.603901 0.179942
0.163886 0.586775 0.178455
0.167572 0.589588 0.178579
0.171560 0.590328 0.178537
0.175666 0.590168 0.178422
0.177857 0.605297 0.179535
0.181940 0.605846 0.179478
0.186594 0.601459 0.179027
0.191936 0.590452 0.178050
0.195858 0.591825 0.178063
0.200011 0.591003 0.177901
0.204213 0.589568 0.177692
0.208382 0.588300 0.177498
0.211166 0.602748 0.178550
0.215297 0.602472 0.178435
0.219646 0.599316 0.178092
0.223919 0.596758 0.177799
0.227989 0.596785 0.177710
0.232103 0.596059 0.177563
0.236030 0.598358 0.177655
0.240567 0.589770 0.176892
0.244601 0.589654 0.176797
0.248506 0.592304 0.176918
0.252471 0.594027 0.176968
0.256462 0.595405 0.176991
0.260510 0.595315 0.176900
0.264563 0.594892 0.176784
0.268562 0.596699 0.176843
0.272534 0.600922 0.177090
0.276602 0.600493 0.176976
0.280708 0.594534 0.176434
0.284753 0.589417 0.175959
0.288758 0.589313 0.175874
0.292753 0.588082 0.175703
0.296874 0.599622 0.176520
0.300873 0.596459 0.176201
0.304937 0.597980 0.176245
0.309078 0.602103 0.176490
0.312714 0.587784 0.175317
0.316739 0.588787 0.175325
0.320858 0.591971 0.175501
0.324904 0.592803 0.175497
0.328926 0.592982 0.175445
0.333184 0.597594 0.175733
0.337189 0.597048 0.175627
0.341079 0.594705 0.175386
0.345116 0.594874 0.175338
0.348970 0.592457 0.175095
0.352865 0.590854 0.174915
0.356987 0.592230 0.174963
0.360650 0.588041 0.174590
0.364862 0.590392 0.174716
0.368771 0.589264 0.174579
0.372784 0.589273 0.174530
0.376805 0.589331 0.174486
0.380780 0.588935 0.174410
0.384756 0.588549 0.174337
0.388780 0.588569 0.174296
0.392780 0.588359 0.174239
0.396352 0.584765 0.173929
0.400279 0.584084 0.173842
0.405093 0.589904 0.174247
0.409285 0.590903 0.174290
0.413286 0.590487 0.174228
0.417719 0.592920 0.174383
0.422331 0.596321 0.174614
0.426683 0.597855 0.174706
0.429989 0.592905 0.174312
0.433192 0.587588 0.173894
0.437086 0.586471 0.173794
0.441047 0.585745 0.173726
0.446032 0.590570 0.174078
0.450458 0.592140 0.174188
0.456819 0.603581 0.175043
0.461358 0.605226 0.175164
0.464258 0.598673 0.174672
0.467175 0.592454 0.174208
0.470432 0.588055 0.173883
0.475894 0.593925 0.174334
0.479240 0.589977 0.174049
0.483271 0.589147 0.174002
0.487620 0.589664 0.174059
0.491354 0.587505 0.173918
0.495990 0.589099 0.174063
0.500357 0.589477 0.174120
0.504748 0.589873 0.174181
0.508963 0.589508 0.174188
0.512990 0.588377 0.174141
0.516921 0.586860 0.174068
0.521253 0.586812 0.174108
0.526667 0.590601 0.174443
0.531216 0.591122 0.174533
0.535412 0.590339 0.174529
0.540071 0.591094 0.174644
0.544656 0.591513 0.174737
0.548085 0.588038 0.174537
0.552548 0.587973 0.174598
0.556639 0.586663 0.174568
0.560986 0.586135 0.174600
0.565242 0.585287 0.174610
0.571504 0.590498 0.175086
0.575867 0.589817 0.175113
0.580290 0.589280 0.175154
0.585686 0.591527 0.175409
0.593112 0.599443 0.176101
0.597382 0.598223 0.176094
0.596407 0.582497 0.174971
0.600981 0.582318 0.175042
0.607686 0.587837 0.175553
0.612142 0.587226 0.175591
0.617028 0.587740 0.175714
0.620826 0.585431 0.175616
0.625413 0.585186 0.175675
0.629542 0.583810 0.175643
0.633721 0.582606 0.175621
0.641719 0.590755 0.176320
0.648826 0.596583 0.176835
0.653220 0.595866 0.176834
0.656327 0.592203 0.176596
0.655368 0.579288 0.175628
0.659425 0.578214 0.175574
0.664759 0.580124 0.175744
0.669823 0.581471 0.175860
0.675525 0.584288 0.176081
0.680335 0.585195 0.176141
0.685624 0.587226 0.176276
0.691962 0.591565 0.176580
-0.301061 0.591520 0.195279
-0.295567 0.590906 0.195054
-0.290933 0.591662 0.194948
-0.286638 0.593027 0.194887
-0.282904 0.595351 0.194904
-0.275051 0.591476 0.194295
-0.269766 0.591570 0.194064
-0.265043 0.592607 0.193912
-0.260353 0.593770 0.193761
-0.255029 0.593987 0.193506
-0.249470 0.593869 0.193208
-0.243967 0.593865 0.192913
-0.239008 0.594777 0.192699
-0.233879 0.595440 0.192454
-0.227998 0.594856 0.192083
-0.222667 0.595192 0.191796
-0.217239 0.595358 0.191490
-0.210737 0.593646 0.191003
-0.205705 0.594455 0.190753
-0.200310 0.594610 0.190440
-0.194081 0.593235 0.189984
-0.188891 0.593679 0.189698
-0.183410 0.593556 0.189361
-0.177464 0.592519 0.188942
-0.171705 0.591758 0.188550
-0.166398 0.591788 0.188234
-0.161539 0.592624 0.187995
-0.157267 0.594566 0.187859
-0.151140 0.592837 0.187393
-0.145971 0.592916 0.187095
-0.140965 0.593264 0.186825
-0.136106 0.593858 0.186581
-0.130158 0.592148 0.186136
-0.125150 0.592299 0.185862
-0.120089 0.592275 0.185577
-0.114847 0.591797 0.185257
-0.109861 0.591798 0.184983
-0.104717 0.591384 0.184679
-0.099725 0.591234 0.184402
-0.094210 0.589835 0.184021
-0.090147 0.591655 0.183925
-0.085853 0.592922 0.183784
-0.080670 0.592075 0.183466
-0.075334 0.590779 0.183115
-0.070773 0.591251 0.182919
-0.066147 0.591519 0.182711
-0.061417 0.591473 0.182480
-0.057580 0.593610 0.182438
-0.053233 0.594447 0.182289
-0.047161 0.590805 0.181768
-0.042588 0.590921 0.181568
-0.038544 0.592383 0.181484
-0.034783 0.594598 0.181466
-0.030757 0.596097 0.181391
-0.028730 0.603116 0.181778
-0.024352 0.603691 0.181632
-0.019137 0.601844 0.181289
-0.015761 0.605209 0.181380
-0.011680 0.606555 0.181307
-0.005555 0.601801 0.180737
0.003376 0.588354 0.179463
0.007589 0.588947 0.179341
0.012066 0.588683 0.179152
0.011991 0.602821 0.180134
0.014381 0.609424 0.180504
0.019552 0.607077 0.180152
0.024869 0.604118 0.179754
0.029332 0.603917 0.179581
0.033974 0.603045 0.179358
0.039952 0.597409 0.178756
0.044944 0.595057 0.178421
0.049783 0.593139 0.178124
0.054116 0.592985 0.177969
0.055117 0.605366 0.178812
0.059581 0.604854 0.178632
0.065408 0.598946 0.178027
0.071132 0.593175 0.177438
0.075563 0.592413 0.177246
0.080265 0.590459 0.176963
0.083907 0.592885 0.177025
0.087520 0.595510 0.177105
0.091334 0.597324 0.177122
0.093904 0.604817 0.177583
0.100924 0.592004 0.176462
0.106032 0.587627 0.176003
0.109165 0.592587 0.176270
0.111324 0.602592 0.176928
0.116654 0.596925 0.176374
0.123079 0.585231 0.175357
0.126081 0.591212 0.175706
0.129999 0.592444 0.175690
0.133794 0.594409 0.175731
0.136183 0.604595 0.176403
0.140075 0.606377 0.176430
0.145491 0.598885 0.175749
0.148371 0.606929 0.176257
0.152403 0.607939 0.176228
0.157609 0.601088 0.175601
0.163581 0.588440 0.174538
0.167584 0.589031 0.174482
0.171476 0.590457 0.174490
0.175562 0.590459 0.174391
0.177333 0.608949 0.175688
0.181410 0.609687 0.175644
0.186296 0.603456 0.175076
0.191556 0.593287 0.174215
0.195782 0.591914 0.174017
0.199890 0.591547 0.173896
0.204060 0.590469 0.173722
0.208037 0.591335 0.173694
0.211491 0.598253 0.174118
0.215191 0.602938 0.174375
0.219650 0.598416 0.173948
0.224066 0.593853 0.173519
0.227903 0.597075 0.173669
0.231399 0.606063 0.174246
0.235690 0.602983 0.173930
0.240705 0.586054 0.172592
0.244485 0.590671 0.172847
0.248368 0.593907 0.173001
0.252428 0.593467 0.172885
0.256549 0.591158 0.172632
0.260602 0.590244 0.172482
0.264623 0.590169 0.172395
0.268640 0.590095 0.172309
0.272555 0.595897 0.172654
0.276660 0.590588 0.172187
0.280652 0.593329 0.172309
0.284683 0.591153 0.172073
0.288694 0.590252 0.171931
0.292722 0.593722 0.172108
0.296723 0.591827 0.171896
0.300754 0.593061 0.171912
0.304767 0.592843 0.171823
0.308767 0.592239 0.171708
0.312689 0.589171 0.171416
0.316657 0.588327 0.171286
0.320718 0.590100 0.171346
0.324794 0.591831 0.171404
0.328860 0.593021 0.171424
0.333014 0.595671 0.171550
0.337053 0.595872 0.171501
0.340855 0.592204 0.171175
0.344732 0.590163 0.170968
0.348578 0.587950 0.170751
0.352574 0.587947 0.170693
0.356372 0.585486 0.170461
0.362058 0.605453 0.171831
0.365527 0.598626 0.171290
0.369410 0.596829 0.171110
0.373190 0.594140 0.170868
0.377075 0.592676 0.170715
0.381329 0.594723 0.170813
0.385280 0.593881 0.170708
0.389599 0.596202 0.170830
0.394042 0.599333 0.171010
0.397815 0.596918 0.170799
0.401691 0.595427 0.170655
0.405148 0.590935 0.170301
0.409014 0.589598 0.170173
0.412666 0.586838 0.169947
0.416592 0.586036 0.169861
0.422235 0.596296 0.170558
0.425983 0.594066 0.170376
0.429645 0.591394 0.170164
0.433317 0.588889 0.169967
0.437459 0.589173 0.169970
0.442071 0.592015 0.170155
0.445049 0.585776 0.169702
0.450510 0.592969 0.170199
0.456610 0.603055 0.170902
0.459880 0.598324 0.170563
0.464045 0.598176 0.170551
0.465486 0.584869 0.169613
0.470410 0.588493 0.169872
0.474424 0.587711 0.169823
0.479650 0.592358 0.170160
0.484776 0.596306 0.170450
0.488684 0.594779 0.170358
0.491982 0.590691 0.170088
0.494806 0.584744 0.169689
0.500149 0.589174 0.170026
0.504326 0.588737 0.170023
0.508657 0.588854 0.170062
0.512794 0.588162 0.170047
0.516915 0.587374 0.170028
0.521157 0.586994 0.170041
0.525831 0.588121 0.170164
0.530446 0.588934 0.170268
0.535033 0.589554 0.170362
0.541956 0.598070 0.171020
0.545404 0.594559 0.170827
0.548655 0.590452 0.170594
0.551617 0.585484 0.170302
0.556915 0.588070 0.170550
0.561102 0.587027 0.170543
0.565683 0.587172 0.170623
0.571644 0.591444 0.171001
0.575566 0.589434 0.170931
0.578893 0.585683 0.170738
0.583711 0.586316 0.170861
0.591805 0.596224 0.171652
0.596547 0.596377 0.171744
0.597065 0.584799 0.170991
0.602295 0.586373 0.171185
0.606652 0.585526 0.171204
0.612814 0.589457 0.171569
0.617327 0.588961 0.171611
0.621971 0.588801 0.171677
0.625860 0.586731 0.171601
0.629265 0.583509 0.171438
0.634408 0.584675 0.171590
0.638977 0.584434 0.171635
0.643494 0.584105 0.171669
0.649879 0.588252 0.172023
0.654346 0.587851 0.172039
0.659667 0.589494 0.172197
0.661249 0.582614 0.171723
0.665126 0.581159 0.171637
0.670912 0.584079 0.171862
0.675598 0.584600 0.171901
0.680172 0.584960 0.171917
0.686023 0.588178 0.172132
0.691835 0.591355 0.172331
-0.299093 0.588411 0.190359
-0.296437 0.591995 0.190533
-0.291210 0.591898 0.190344
-0.286717 0.592991 0.190251
-0.280980 0.592295 0.189975
-0.276012 0.592840 0.189802
-0.270627 0.592815 0.189563
-0.264923 0.592349 0.189270
-0.259229 0.591942 0.188972
-0.254697 0.593424 0.188839
-0.249143 0.593323 0.188550
-0.244071 0.594032 0.188326
-0.239147 0.595018 0.188121
-0.233239 0.594399 0.187763
-0.227844 0.594632 0.187478
-0.222313 0.594635 0.187167
-0.216568 0.594258 0.186820
-0.212120 0.596110 0.186669
-0.205666 0.594455 0.186204
-0.199670 0.593545 0.185805
-0.194125 0.593391 0.185474
-0.188664 0.593347 0.185153
-0.183741 0.594246 0.184916
-0.177848 0.593315 0.184520
-0.171832 0.592081 0.184101
-0.166517 0.592096 0.183794
-0.161697 0.593009 0.183567
-0.156781 0.593697 0.183323
-0.151413 0.593452 0.183002
-0.146533 0.594111 0.182763
-0.141330 0.594072 0.182468
-0.135758 0.593213 0.182108
-0.130124 0.592140 0.181735
-0.125223 0.592509 0.181487
-0.120446 0.593083 0.181261
-0.114324 0.590722 0.180796
-0.110073 0.592301 0.180662
-0.104744 0.591480 0.180335
-0.099718 0.591249 0.180060
-0.094972 0.591579 0.179837
-0.090414 0.592284 0.179648
-0.085599 0.592348 0.179412
-0.080512 0.591710 0.179123
-0.075137 0.590310 0.178777
-0.069789 0.588876 0.178434
-0.065068 0.588870 0.178210
-0.061391 0.591391 0.178192
-0.057656 0.593772 0.178166
-0.053353 0.594716 0.178029
-0.047706 0.592167 0.177619
-0.042539 0.590743 0.177303
-0.038412 0.591980 0.177201
-0.034578 0.593983 0.177162
-0.030756 0.596023 0.177129
-0.026628 0.597222 0.177033
-0.021113 0.594513 0.176636
-0.014195 0.587673 0.175923
-0.012774 0.596472 0.176426
-0.010944 0.604289 0.176853
-0.005931 0.602810 0.176565
0.002365 0.591295 0.175510
0.006769 0.591342 0.175347
0.012854 0.586090 0.174783
0.012189 0.602050 0.175841
0.014417 0.609155 0.176222
0.020445 0.603988 0.175672
0.026649 0.598018 0.175066
0.031331 0.596963 0.174836
0.034231 0.601978 0.175066
0.040560 0.595091 0.174401
0.045540 0.592738 0.174082
0.050045 0.591986 0.173885
0.054436 0.591592 0.173718
0.054190 0.608645 0.174853
0.058282 0.609627 0.174790
0.064555 0.602058 0.174094
0.071057 0.593238 0.173309
0.075694 0.591633 0.173062
0.079847 0.591943 0.172959
0.084187 0.591436 0.172797
0.088512 0.590937 0.172637
0.089153 0.606703 0.173673
0.093680 0.605540 0.173466
0.098247 0.604099 0.173241
0.106882 0.583299 0.171605
0.109340 0.591426 0.172083
0.111685 0.600470 0.172627
0.115296 0.603496 0.172733
0.122710 0.586816 0.171413
0.125995 0.591318 0.171629
0.129875 0.592760 0.171625
0.133700 0.594566 0.171647
0.136251 0.603813 0.172206
0.140355 0.604304 0.172134
0.145038 0.601251 0.171810
0.150000 0.596215 0.171345
0.153220 0.602174 0.171669
0.157933 0.598456 0.171301
0.163290 0.589995 0.170598
0.167500 0.589152 0.170439
0.171619 0.588893 0.170323
0.175550 0.590038 0.170307
0.177318 0.608524 0.171519
0.181327 0.609812 0.171512
0.186942 0.597283 0.170531
0.191574 0.592521 0.170101
0.195776 0.591343 0.169925
0.199908 0.590716 0.169789
0.203981 0.590596 0.169689
0.207949 0.591577 0.169667
0.210950 0.603685 0.170423
0.214964 0.604886 0.170416
0.219253 0.602660 0.170171
0.223779 0.596867 0.169679
0.227778 0.597936 0.169665
0.231249 0.607373 0.170233
0.235512 0.604873 0.169973
0.240619 0.586443 0.168611
0.244566 0.587753 0.168618
0.248291 0.594181 0.168978
0.252448 0.591381 0.168702
0.256512 0.590381 0.168551
0.260533 0.590383 0.168470
0.264562 0.590013 0.168365
0.268589 0.589507 0.168250
0.272608 0.589045 0.168140
0.276604 0.589933 0.168123
0.280610 0.590398 0.168077
0.284554 0.610818 0.169393
0.288646 0.602585 0.168756
0.292675 0.596650 0.168276
0.296662 0.592184 0.167899
0.300605 0.587546 0.167512
0.304703 0.592934 0.167805
0.308659 0.590498 0.167569
0.312629 0.589373 0.167424
0.316625 0.589316 0.167351
0.320659 0.590284 0.167349
0.324685 0.590851 0.167321
0.328743 0.591980 0.167331
0.333130 0.599184 0.167751
0.337014 0.596387 0.167499
0.340805 0.592511 0.167177
0.344549 0.588449 0.166845
0.348416 0.586639 0.166664
0.352383 0.586356 0.166588
0.356691 0.590327 0.166797
0.361647 0.601474 0.167485
0.365562 0.599828 0.167321
0.369004 0.593306 0.166834
0.372856 0.591519 0.166664
0.377599 0.598453 0.167076
0.381637 0.598265 0.167016
0.385891 0.599974 0.167083
0.389921 0.599607 0.167014
0.393661 0.596867 0.166790
0.397404 0.594317 0.166580
0.401463 0.594317 0.166541
0.405584 0.594737 0.166532
0.409464 0.593378 0.166407
0.413233 0.591310 0.166238
0.417170 0.590449 0.166150
0.421055 0.589261 0.166043
0.425771 0.593301 0.166283
0.429702 0.592296 0.166192
0.433025 0.587716 0.165869
0.437793 0.591631 0.166107
0.441597 0.589907 0.165976
0.445603 0.589324 0.165922
0.450006 0.590830 0.166009
0.454706 0.593742 0.166191
0.459679 0.597841 0.166453
0.462377 0.590484 0.165964
0.465195 0.583990 0.165534
0.470282 0.588406 0.165825
0.474604 0.589058 0.165872
0.477757 0.584363 0.165569
0.484870 0.597236 0.166425
0.488816 0.595868 0.166347
0.491150 0.587697 0.165823
0.493655 0.580500 0.165367
0.499431 0.586778 0.165801
0.503893 0.587532 0.165874
0.508223 0.587680 0.165911
0.512700 0.588319 0.165983
0.516794 0.587435 0.165957
0.521165 0.587534 0.165999
0.525333 0.586835 0.165992
0.530515 0.589692 0.166223
0.535111 0.590340 0.166311
0.542348 0.599929 0.166995
0.545775 0.596322 0.166807
0.551231 0.599471 0.167070
0.550814 0.583384 0.166059
0.556514 0.587297 0.166378
0.561097 0.587515 0.166454
0.565289 0.586457 0.166448
0.571319 0.590959 0.166815
0.575072 0.588454 0.166717
0.578135 0.583941 0.166485
0.582485 0.583248 0.166511
0.589144 0.589116 0.166978
0.594375 0.590751 0.167162
0.597645 0.586870 0.166977
0.601584 0.584889 0.166919
0.607155 0.587324 0.167159
0.614390 0.594070 0.167689
0.617289 0.589285 0.167440
0.623092 0.592097 0.167703
0.628405 0.593584 0.167874
0.632495 0.591970 0.167832
0.631867 0.578762 0.166999
0.637727 0.581732 0.167260
0.642712 0.582548 0.167370
0.648368 0.584970 0.167584
0.654055 0.587449 0.167796
0.659065 0.588356 0.167894
0.662329 0.585313 0.167714
0.666083 0.583523 0.167612
0.671485 0.585535 0.167760
0.676138 0.585940 0.167789
0.680778 0.586403 0.167811
0.685470 0.587076 0.167837
0.688775 0.584886 0.167656
-0.303358 0.594445 0.186284
-0.296513 0.591910 0.185895
-0.291191 0.591694 0.185697
-0.284975 0.590214 0.185372
-0.280172 0.590935 0.185229
-0.276270 0.593122 0.185201
-0.271105 0.593463 0.184997
-0.265170 0.592661 0.184682
-0.259796 0.592781 0.184437
-0.254653 0.593313 0.184219
-0.250595 0.595638 0.184146
-0.245427 0.596229 0.183915
-0.238334 0.593682 0.183408
-0.232826 0.593726 0.183118
-0.227391 0.593896 0.182834
-0.221490 0.593271 0.182479
-0.216596 0.594349 0.182266
-0.211408 0.594921 0.182007
-0.204878 0.593125 0.181548
-0.199692 0.593643 0.181283
-0.194454 0.594044 0.181008
-0.189430 0.594804 0.180764
-0.184155 0.595073 0.180479
-0.178534 0.594658 0.180140
-0.171362 0.591264 0.179561
-0.166949 0.592986 0.179402
-0.161581 0.592852 0.179095
-0.156410 0.593041 0.178818
-0.151584 0.593852 0.178593
-0.146452 0.594009 0.178320
-0.141710 0.594896 0.178108
-0.136195 0.594158 0.177771
-0.130087 0.592110 0.177336
-0.125317 0.592747 0.177117
-0.119205 0.590491 0.176676
-0.116013 0.594380 0.176719
-0.109732 0.591586 0.176246
-0.105283 0.592689 0.176080
-0.100563 0.593149 0.175869
-0.095786 0.593427 0.175647
-0.090691 0.592921 0.175370
-0.085866 0.592963 0.175140
-0.080607 0.591925 0.174831
-0.075237 0.590534 0.174501
-0.069881 0.589076 0.174170
-0.065152 0.589048 0.173952
-0.061454 0.591512 0.173925
-0.056996 0.592076 0.173759
-0.052770 0.593189 0.173637
-0.048221 0.593441 0.173454
-0.042563 0.590745 0.173058
-0.037967 0.590732 0.172864
-0.033344 0.590592 0.172664
-0.029634 0.592882 0.172646
-0.024910 0.592383 0.172426
-0.018698 0.587640 0.171901
-0.014363 0.588050 0.171756
-0.010099 0.588628 0.171625
-0.005581 0.588428 0.171442
-0.001937 0.590782 0.171446
0.000123 0.597954 0.171798
0.004900 0.596952 0.171564
0.009099 0.597676 0.171457
0.016877 0.587019 0.170540
0.019889 0.591344 0.170696
0.023823 0.592747 0.170646
0.028290 0.592376 0.170471
0.031881 0.594918 0.170506
0.036318 0.594591 0.170340
0.041149 0.592828 0.170074
0.045715 0.591911 0.169872
0.050434 0.590363 0.169627
0.054814 0.589977 0.169466
0.053389 0.611441 0.170832
0.057900 0.610859 0.170658
0.063707 0.605139 0.170130
0.071618 0.590751 0.169004
0.075908 0.590511 0.168863
0.079769 0.592008 0.168844
0.084051 0.591747 0.168705
0.088570 0.590412 0.168493
0.089395 0.605344 0.169400
0.093228 0.607284 0.169414
0.098130 0.604337 0.169096
0.103843 0.597378 0.168506
0.108875 0.593358 0.168119
0.112288 0.597151 0.168266
0.116821 0.595401 0.168037
0.122223 0.589006 0.167495
0.126151 0.590123 0.167464
0.130097 0.591175 0.167429
0.133668 0.594364 0.167539
0.136906 0.599626 0.167788
0.140544 0.602770 0.167896
0.145706 0.596736 0.167388
0.149773 0.597216 0.167319
0.153758 0.598229 0.167286
0.158162 0.596462 0.167069
0.163753 0.586314 0.166296
0.167690 0.587303 0.166265
0.171698 0.587806 0.166202
0.175708 0.588299 0.166140
0.177722 0.604746 0.167133
0.182439 0.600008 0.166725
0.187438 0.592412 0.166131
0.191704 0.590742 0.165929
0.195695 0.591477 0.165886
0.199814 0.590981 0.165762
0.203871 0.591046 0.165677
0.208103 0.589180 0.165466
0.210787 0.604782 0.166395
0.214884 0.605035 0.166322
0.219082 0.603994 0.166166
0.223362 0.601659 0.165927
0.227478 0.601337 0.165819
0.231431 0.603491 0.165872
0.235717 0.600303 0.165581
0.240516 0.587147 0.164647
0.244440 0.588980 0.164683
0.248450 0.589224 0.164617
0.252426 0.590328 0.164606
0.256436 0.590706 0.164550
0.260474 0.590236 0.164439
0.264563 0.587586 0.164191
0.268526 0.589450 0.164231
0.272528 0.589978 0.164187
0.276533 0.590485 0.164143
0.280540 0.591226 0.164114
0.284474 0.615114 0.165555
0.288587 0.606853 0.164955
0.292616 0.597627 0.164295
0.296555 0.588131 0.163621
0.300536 0.587245 0.163493
0.304555 0.588735 0.163516
0.308696 0.594663 0.163820
0.312586 0.590116 0.163464
0.316693 0.593238 0.163592
0.320604 0.590548 0.163356
0.324591 0.590198 0.163268
0.328610 0.590578 0.163227
0.333081 0.599521 0.163722
0.337029 0.597830 0.163553
0.340788 0.593315 0.163209
0.344638 0.590809 0.162992
0.348438 0.587901 0.162752
0.352398 0.587458 0.162666
0.356249 0.585680 0.162499
0.360559 0.589487 0.162681
0.365226 0.596873 0.163085
0.368711 0.590947 0.162665
0.374168 0.605508 0.163515
0.377619 0.599362 0.163084
0.381377 0.596544 0.162862
0.386008 0.601672 0.163131
0.389913 0.600189 0.162995
0.393169 0.593472 0.162537
0.396751 0.589790 0.162269
0.400491 0.587534 0.162091
0.404860 0.590013 0.162205
0.409370 0.593287 0.162371
0.413484 0.593599 0.162356
0.417281 0.591740 0.162209
0.421662 0.593722 0.162301
0.426532 0.598604 0.162572
0.429571 0.592036 0.162143
0.432258 0.583709 0.161609
0.436902 0.587040 0.161792
0.441334 0.588957 0.161890
0.445630 0.589988 0.161936
0.449962 0.591107 0.161990
0.455412 0.597908 0.162393
0.459405 0.596968 0.162326
0.462059 0.589417 0.161857
0.464770 0.582437 0.161425
0.470331 0.589136 0.161833
0.474551 0.589308 0.161843
0.479381 0.592161 0.162021
0.484816 0.597499 0.162353
0.488695 0.595845 0.162260
0.490833 0.586852 0.161722
0.493164 0.578959 0.161253
0.498437 0.583244 0.161532
0.503549 0.586658 0.161761
0.508062 0.587546 0.161838
0.512003 0.586148 0.161778
0.517086 0.589020 0.161983
0.521221 0.588233 0.161966
0.524652 0.584870 0.161794
0.529256 0.585720 0.161884
0.534634 0.589172 0.162136
0.540594 0.594426 0.162503
0.544489 0.592491 0.162430
0.548199 0.589947 0.162322
0.550727 0.583588 0.161982
0.556188 0.586743 0.162231
0.560857 0.587246 0.162318
0.566518 0.590735 0.162593
0.571404 0.591699 0.162714
0.574570 0.587427 0.162513
0.578645 0.585913 0.162484
0.584156 0.588558 0.162715
0.589826 0.591527 0.162969
0.593164 0.587803 0.162806
0.595616 0.581698 0.162495
0.601736 0.585743 0.162818
0.607818 0.589535 0.163125
0.614219 0.594039 0.163478
0.618628 0.593192 0.163494
0.622048 0.589807 0.163350
0.628375 0.593893 0.163672
0.628760 0.582987 0.163049
0.632054 0.579571 0.162893
0.636530 0.579146 0.162922
0.642092 0.581369 0.163113
0.646971 0.581945 0.163196
0.651891 0.582650 0.163280
0.658368 0.586992 0.163589
0.664037 0.589441 0.163771
0.666935 0.585646 0.163549
0.671902 0.586639 0.163622
0.676481 0.586842 0.163636
0.680579 0.586089 0.163579
0.684765 0.585644 0.163532
0.689589 0.586686 0.163568
-0.302782 0.593382 0.181549
-0.296147 0.591173 0.181202
-0.290268 0.590142 0.180939
-0.285150 0.590323 0.180763
-0.280500 0.591298 0.180640
-0.276150 0.592823 0.180549
-0.272383 0.595343 0.180527
-0.266637 0.594877 0.180248
-0.260281 0.593484 0.179884
-0.255337 0.594358 0.179696
-0.250664 0.595718 0.179539
-0.245185 0.595816 0.179272
-0.238050 0.593208 0.178781
-0.232664 0.593460 0.178516
-0.226442 0.592313 0.178135
-0.221312 0.592990 0.177896
-0.216412 0.594063 0.177685
-0.210159 0.592788 0.177287
-0.204798 0.593026 0.177007
-0.199553 0.593442 0.176741
-0.194690 0.594518 0.176526
-0.189742 0.595421 0.176298
-0.183423 0.593781 0.175875
-0.177626 0.593022 0.175523
-0.172727 0.593885 0.175297
-0.166380 0.591955 0.174860
-0.161420 0.592592 0.174622
-0.156337 0.592946 0.174366
-0.151165 0.593072 0.174096
-0.146173 0.593496 0.173852
-0.141458 0.594426 0.173649
-0.134559 0.590849 0.173115
-0.129845 0.591640 0.172910
-0.125298 0.592736 0.172731
-0.120713 0.593710 0.172547
-0.115619 0.593551 0.172283
-0.110598 0.593481 0.172031
-0.105763 0.593753 0.171807
-0.100807 0.593694 0.171564
-0.095126 0.591932 0.171203
-0.090864 0.593307 0.171072
-0.085287 0.591606 0.170725
-0.080881 0.592545 0.170570
-0.075761 0.591751 0.170296
-0.070492 0.590513 0.169996
-0.066294 0.591796 0.169877
-0.060908 0.590114 0.169554
-0.057082 0.592238 0.169501
-0.052223 0.591737 0.169268
-0.047251 0.590873 0.169014
-0.042849 0.591420 0.168861
-0.037880 0.590422 0.168606
-0.033228 0.590193 0.168407
-0.029638 0.592800 0.168406
-0.025347 0.593491 0.168276
-0.019238 0.589048 0.167800
-0.015493 0.591154 0.167773
-0.009634 0.587165 0.167336
-0.005776 0.588875 0.167287
-0.002646 0.592760 0.167388
-0.000283 0.599041 0.167650
0.002748 0.603419 0.167786
0.010352 0.593608 0.166976
0.017990 0.583329 0.166141
0.020232 0.590071 0.166442
0.024450 0.590515 0.166326
0.028376 0.591906 0.166275
0.033060 0.590734 0.166057
0.036646 0.593264 0.166085
0.040635 0.594431 0.166025
0.046032 0.590570 0.165637
0.050602 0.589536 0.165438
0.055254 0.588124 0.165216
0.055101 0.604746 0.166168
0.058586 0.607980 0.166249
0.065357 0.598428 0.165505
0.071598 0.590578 0.164874
0.075715 0.591035 0.164783
0.079842 0.591435 0.164689
0.084303 0.590400 0.164505
0.088366 0.591012 0.164428
0.089894 0.602840 0.165068
0.093883 0.604016 0.165028
0.098346 0.603024 0.164851
0.102521 0.603314 0.164757
0.107314 0.600593 0.164474
0.112397 0.596271 0.164092
0.117231 0.592972 0.163776
0.122286 0.588322 0.163377
0.126375 0.588566 0.163288
0.130773 0.587094 0.163093
0.133924 0.592534 0.163332
0.137429 0.596201 0.163459
0.140859 0.600485 0.163625
0.144094 0.606188 0.163880
0.149059 0.601288 0.163475
0.153507 0.599415 0.163260
0.157762 0.598683 0.163117
0.163506 0.587553 0.162333
0.167709 0.586685 0.162185
0.171623 0.587862 0.162164
0.175634 0.588353 0.162101
0.178048 0.601597 0.162821
0.182765 0.596741 0.162431
0.187365 0.592462 0.162078
0.191506 0.591924 0.161954
0.195527 0.592422 0.161895
0.199601 0.592423 0.161806
0.203759 0.591511 0.161662
0.207442 0.595628 0.161824
0.211141 0.599969 0.161999
0.215158 0.600918 0.161970
0.219061 0.603407 0.162033
0.223241 0.602395 0.161886
0.227231 0.603969 0.161895
0.231356 0.603626 0.161790
0.235529 0.602369 0.161630
0.240306 0.589806 0.160795
0.244364 0.589204 0.160677
0.248340 0.590242 0.160659
0.252407 0.589211 0.160517
0.256401 0.589886 0.160478
0.260391 0.590823 0.160454
0.264476 0.588438 0.160235
0.268413 0.591703 0.160351
0.272438 0.591493 0.160261
0.276458 0.591370 0.160178
0.280475 0.591420 0.160105
0.284480 0.594376 0.160205
0.288512 0.598846 0.160393
0.292543 0.596107 0.160159
0.296559 0.594495 0.159992
0.300460 0.586366 0.159444
0.304537 0.591004 0.159645
0.308589 0.592866 0.159684
0.312464 0.588109 0.159338
0.316555 0.591070 0.159443
