ply
format ascii 1.0
comment ---
element vertex 1708
property float x
property float y
property float z
element face 0
property list uchar uint vertex_indices
end_header
0.396682 0.591934 -0.256180
0.398624 0.601211 -0.259349
0.403101 0.599475 -0.258647
0.408682 0.592524 -0.256118
0.413485 0.588851 -0.254748
0.416323 0.594424 -0.256635
0.418962 0.601205 -0.258952
0.423061 0.600874 -0.258775
0.428679 0.592565 -0.255802
0.433422 0.588436 -0.254303
0.437098 0.589884 -0.254769
0.440270 0.594213 -0.256252
0.444003 0.595482 -0.256667
0.447668 0.597185 -0.257239
0.451941 0.595185 -0.256517
0.455864 0.595236 -0.256521
0.459911 0.594429 -0.256228
0.463910 0.593843 -0.256019
0.466938 0.600000 -0.258182
0.470695 0.601240 -0.258624
0.474666 0.600903 -0.258517
0.479657 0.592485 -0.255580
0.483391 0.593605 -0.255995
0.487428 0.592202 -0.255530
0.491291 0.592174 -0.255552
0.494568 0.597540 -0.257473
0.498539 0.596623 -0.257192
0.502584 0.594818 -0.256605
0.506488 0.594285 -0.256468
0.510435 0.593174 -0.256133
0.513806 0.598797 -0.258169
0.517275 0.603829 -0.260002
0.521526 0.598860 -0.258324
0.525639 0.595135 -0.257087
0.529542 0.594118 -0.256806
0.533299 0.595348 -0.257320
0.536764 0.602178 -0.259809
0.540643 0.601882 -0.259795
0.544711 0.597229 -0.258250
0.548616 0.595540 -0.257753
0.552439 0.595693 -0.257908
0.556184 0.598475 -0.258994
0.560071 0.596580 -0.258435
0.563928 0.595302 -0.258097
0.567772 0.593951 -0.257737
0.571596 0.593243 -0.257607
0.575408 0.593513 -0.257827
0.579222 0.594347 -0.258249
0.583040 0.594275 -0.258356
0.586859 0.594326 -0.258509
0.590710 0.596598 -0.259452
0.594557 0.597437 -0.259892
0.598281 0.592627 -0.258335
0.602056 0.591245 -0.257995
0.605926 0.593115 -0.258811
0.609758 0.593439 -0.259083
0.613662 0.595355 -0.259925
0.617730 0.600268 -0.261837
0.621204 0.592952 -0.259405
0.625373 0.598918 -0.261700
0.628851 0.592827 -0.259708
0.632619 0.591905 -0.259560
0.636624 0.594368 -0.260621
0.640984 0.601099 -0.263211
0.644473 0.596323 -0.261699
0.647163 0.582834 -0.257076
0.651233 0.585828 -0.258343
0.654566 0.580835 -0.256758
0.657977 0.577054 -0.255608
0.663000 0.588768 -0.260013
0.667398 0.593778 -0.262024
0.671839 0.598707 -0.264014
0.676333 0.603625 -0.266006
0.679644 0.598729 -0.264478
0.683148 0.595631 -0.263598
0.686619 0.592481 -0.262703
0.690376 0.591548 -0.262609
0.694392 0.592413 -0.263168
0.698342 0.592742 -0.263538
0.702429 0.593897 -0.264212
0.707043 0.598219 -0.266037
0.710980 0.598151 -0.266281
0.715554 0.601782 -0.267870
0.717983 0.592940 -0.264943
0.721674 0.591538 -0.264716
0.725587 0.591367 -0.264941
0.729321 0.590224 -0.264818
0.733238 0.590029 -0.265044
0.735980 0.583945 -0.263130
0.739706 0.582905 -0.263057
0.743322 0.581348 -0.262800
0.747620 0.582975 -0.263713
0.753142 0.590026 -0.266619
0.758955 0.598000 -0.269876
0.763923 0.601915 -0.271656
0.767831 0.601130 -0.271719
0.769313 0.590286 -0.268086
0.771674 0.583411 -0.265913
0.775343 0.581965 -0.265743
0.780186 0.585101 -0.267270
0.787484 0.597420 -0.272204
0.793040 0.602696 -0.274548
0.797256 0.602806 -0.274989
0.800264 0.598517 -0.273804
0.802894 0.593002 -0.272166
0.805822 0.588671 -0.270971
0.810928 0.591855 -0.272581
0.815062 0.591627 -0.272927
0.818154 0.587934 -0.271985
0.822514 0.588405 -0.272606
0.827762 0.591628 -0.274267
0.833712 0.596875 -0.276700
0.839126 0.600254 -0.278444
0.838899 0.586465 -0.273728
0.844548 0.590494 -0.275729
0.848295 0.588795 -0.275577
0.854974 0.595513 -0.278618
0.858958 0.594356 -0.278686
0.862524 0.592022 -0.278312
0.869262 0.598396 -0.281257
0.872200 0.594278 -0.280215
0.876010 0.592552 -0.280087
0.880738 0.593233 -0.280883
0.883843 0.589662 -0.280054
0.887340 0.587148 -0.279631
0.892146 0.587941 -0.280482
0.894289 0.582095 -0.278776
0.899897 0.584812 -0.280373
0.906795 0.590514 -0.283131
0.909852 0.586933 -0.282298
0.914341 0.586761 -0.282785
0.920857 0.591237 -0.285079
0.924805 0.589730 -0.285045
0.928619 0.587943 -0.284896
0.932922 0.587268 -0.285176
0.937285 0.586728 -0.285502
0.942095 0.587157 -0.286200
0.947192 0.588181 -0.287126
0.953377 0.591470 -0.288934
0.955681 0.586619 -0.287524
0.959539 0.585086 -0.287407
0.965943 0.588767 -0.289337
0.971379 0.590442 -0.290460
0.974948 0.588403 -0.290094
0.978877 0.587149 -0.290019
0.982527 0.585417 -0.289732
0.988374 0.587969 -0.291129
0.992719 0.587668 -0.291367
0.996675 0.586693 -0.291312
1.000918 0.586325 -0.291474
1.005592 0.586815 -0.291952
1.009477 0.585922 -0.291849
1.016645 0.591018 -0.294118
1.020769 0.590664 -0.294175
1.022666 0.586461 -0.292659
1.032699 0.596625 -0.296877
1.034575 0.592563 -0.295356
1.033270 0.583198 -0.291675
1.031494 0.573283 -0.287740
1.043457 0.586768 -0.293176
1.046475 0.585164 -0.292520
1.050418 0.585204 -0.292495
1.055330 0.586918 -0.293113
1.058617 0.586042 -0.292661
1.061942 0.585324 -0.292246
0.188235 0.557545 -0.248980
0.192469 0.562156 -0.251440
0.189448 0.574790 -0.256360
0.197868 0.565004 -0.253185
0.207473 0.552759 -0.249090
0.201559 0.571813 -0.256272
0.203813 0.574630 -0.257570
0.202812 0.584321 -0.261335
0.199217 0.599716 -0.267147
0.207209 0.591100 -0.264236
0.210614 0.592172 -0.264810
0.214044 0.593303 -0.265381
0.218939 0.591360 -0.264811
0.223889 0.589338 -0.264187
0.227205 0.590991 -0.264874
0.230475 0.592864 -0.265619
0.236363 0.588888 -0.264215
0.237257 0.596410 -0.266970
0.243429 0.591850 -0.265310
0.247474 0.592268 -0.265442
0.251086 0.593788 -0.265955
0.256093 0.592009 -0.265251
0.261827 0.588436 -0.263880
0.268704 0.581949 -0.261435
0.273416 0.580792 -0.260914
0.275751 0.585724 -0.262592
0.278622 0.589424 -0.263810
0.285598 0.582406 -0.261129
0.287292 0.589342 -0.263500
0.291953 0.588420 -0.263014
0.295620 0.590213 -0.263505
0.300067 0.589870 -0.263217
0.300732 0.600272 -0.266811
0.305001 0.600566 -0.266743
0.311790 0.593443 -0.263993
0.315520 0.595202 -0.264452
0.318893 0.598075 -0.265311
0.322942 0.598929 -0.265441
0.329736 0.591156 -0.262462
0.333684 0.592172 -0.262653
0.337529 0.593520 -0.262966
0.341268 0.595223 -0.263409
0.345645 0.594799 -0.263088
0.351811 0.588175 -0.260544
0.355130 0.591208 -0.261475
0.357986 0.595958 -0.263025
0.363297 0.591930 -0.261428
0.367545 0.591628 -0.261174
0.371685 0.591673 -0.261050
0.375012 0.594798 -0.262034
0.380785 0.588381 -0.259606
0.384435 0.590167 -0.260121
0.386951 0.596624 -0.262312
0.390730 0.598019 -0.262697
0.393016 0.605817 -0.265377
0.396906 0.606883 -0.265655
0.403184 0.597248 -0.262117
0.407527 0.595978 -0.261574
0.412834 0.590062 -0.259379
0.416119 0.593533 -0.260541
0.419018 0.599029 -0.262430
0.422707 0.600757 -0.262981
0.427792 0.595273 -0.260966
0.432511 0.591389 -0.259528
0.436339 0.592127 -0.259745
0.440200 0.592666 -0.259895
0.443568 0.596044 -0.261064
0.447645 0.595336 -0.260782
0.451679 0.594802 -0.260567
0.455722 0.594119 -0.260306
0.459616 0.594329 -0.260367
0.463486 0.594655 -0.260476
0.466573 0.600460 -0.262542
0.470171 0.602913 -0.263420
0.474978 0.596384 -0.261102
0.478352 0.600527 -0.262592
0.483096 0.593794 -0.260212
0.487032 0.593316 -0.260066
0.491091 0.591645 -0.259499
0.494059 0.599896 -0.262474
0.498151 0.597970 -0.261826
0.502267 0.595568 -0.261014
0.506591 0.590641 -0.259305
0.510829 0.586101 -0.257739
0.514507 0.587693 -0.258364
0.518057 0.591057 -0.259625
0.521771 0.592610 -0.260246
0.525920 0.588019 -0.258677
0.529539 0.590965 -0.259804
0.532976 0.597442 -0.262197
0.536670 0.600294 -0.263300
0.540590 0.599099 -0.262961
0.544588 0.595862 -0.261896
0.548538 0.593002 -0.260970
0.552397 0.591901 -0.260676
0.556149 0.593976 -0.261523
0.559972 0.594004 -0.261641
0.563788 0.594326 -0.261869
0.567624 0.593487 -0.261685
0.571453 0.592625 -0.261495
0.575263 0.593463 -0.261920
0.579081 0.594148 -0.262293
0.582907 0.595087 -0.262762
0.586715 0.592774 -0.262067
0.590544 0.593736 -0.262552
0.594356 0.593164 -0.262489
0.598178 0.593270 -0.262675
0.602012 0.593704 -0.262982
0.605819 0.593153 -0.262938
0.609691 0.594419 -0.263552
0.613640 0.597165 -0.264704
0.617749 0.602681 -0.266861
0.621788 0.605801 -0.268159
0.625296 0.599086 -0.265910
0.629064 0.597568 -0.265541
0.632780 0.595459 -0.264961
0.636426 0.592612 -0.264117
0.640280 0.592809 -0.264378
0.644406 0.596271 -0.265826
0.647855 0.591488 -0.264291
0.651050 0.584401 -0.261921
0.654765 0.583387 -0.261757
0.658575 0.583382 -0.261963
0.663099 0.590054 -0.264600
0.667753 0.597281 -0.267448
0.671957 0.599973 -0.268653
0.675252 0.594887 -0.267029
0.679016 0.593884 -0.266896
0.682942 0.594161 -0.267234
0.686758 0.593564 -0.267258
0.690455 0.592131 -0.266981
0.694229 0.591278 -0.266919
0.698298 0.592401 -0.267586
0.702251 0.592666 -0.267944
0.706200 0.592845 -0.268276
0.710448 0.594786 -0.269260
0.714950 0.598055 -0.270739
0.717875 0.592118 -0.268838
0.721399 0.589781 -0.268263
0.725414 0.590174 -0.268700
0.729467 0.590703 -0.269193
0.733111 0.589071 -0.268893
0.736274 0.585081 -0.267726
0.739923 0.583607 -0.267492
0.743384 0.581266 -0.266943
0.747614 0.582553 -0.267744
0.754159 0.594204 -0.272403
0.758600 0.595984 -0.273407
0.762530 0.595428 -0.273548
0.764576 0.586883 -0.270717
0.768747 0.587446 -0.271285
0.773207 0.589113 -0.272273
0.775086 0.580417 -0.269390
0.779813 0.583101 -0.270772
0.786379 0.592636 -0.274734
0.793553 0.604019 -0.279406
0.797251 0.602177 -0.279122
0.799993 0.596918 -0.277555
0.802871 0.592283 -0.276226
0.806078 0.588908 -0.275375
0.810753 0.590597 -0.276444
0.814770 0.589973 -0.276646
0.818612 0.588748 -0.276627
0.822228 0.586782 -0.276332
0.827767 0.590927 -0.278369
0.833611 0.595827 -0.280706
0.834327 0.584811 -0.276978
0.839311 0.586958 -0.278279
0.844880 0.590719 -0.280209
0.849390 0.591218 -0.280898
0.853615 0.590836 -0.281256
0.857676 0.589950 -0.281426
0.861219 0.587603 -0.281038
0.866011 0.588695 -0.281982
0.871007 0.590259 -0.283116
0.875763 0.591091 -0.283973
0.879580 0.589396 -0.283855
0.884276 0.589973 -0.284623
0.887627 0.587072 -0.284041
0.891172 0.584704 -0.283666
0.897019 0.588039 -0.285521
0.900947 0.586578 -0.285504
0.907206 0.590712 -0.287682
0.911301 0.589586 -0.287798
0.914996 0.587525 -0.287542
0.920258 0.589103 -0.288719
0.924919 0.589251 -0.289329
0.929328 0.588812 -0.289704
0.933953 0.588848 -0.290260
0.937576 0.586686 -0.289937
0.942184 0.586694 -0.290467
0.950373 0.594324 -0.294028
0.959461 0.603656 -0.298269
0.964155 0.603646 -0.298770
0.960958 0.587460 -0.292773
0.966151 0.588685 -0.293731
0.971025 0.589265 -0.294414
0.974736 0.587556 -0.294158
0.979427 0.587838 -0.294683
0.983616 0.587180 -0.294807
0.988571 0.588044 -0.295524
0.992862 0.587679 -0.295721
0.997225 0.587511 -0.295972
1.001245 0.586765 -0.295962
1.005046 0.585694 -0.295794
1.009535 0.585957 -0.296138
1.015916 0.589683 -0.297861
1.017283 0.584480 -0.295927
1.018909 0.579906 -0.294217
1.026049 0.585128 -0.296461
1.032406 0.588973 -0.298115
1.030582 0.578796 -0.294034
1.032424 0.575113 -0.292565
1.041920 0.584475 -0.296374
1.044864 0.582811 -0.295667
1.050300 0.585389 -0.296656
1.054466 0.585920 -0.296783
1.057982 0.585465 -0.296480
1.061132 0.584510 -0.295946
0.213002 0.534912 -0.245998
0.195410 0.584161 -0.264680
0.198371 0.585595 -0.265508
0.201177 0.595347 -0.269622
0.206878 0.591463 -0.268423
0.210699 0.591594 -0.268674
0.214491 0.591886 -0.268959
0.219309 0.590041 -0.268432
0.223888 0.588766 -0.268089
0.226637 0.591619 -0.269245
0.232333 0.587984 -0.267984
0.233680 0.594246 -0.270351
0.233661 0.603883 -0.273941
0.241724 0.594957 -0.270661
0.246868 0.592768 -0.269846
0.251930 0.590778 -0.269085
0.254640 0.594494 -0.270410
0.258264 0.596107 -0.270943
0.264792 0.590566 -0.268822
0.271674 0.584016 -0.266314
0.277947 0.578870 -0.264313
0.284362 0.573231 -0.262119
0.287873 0.575101 -0.262681
0.287677 0.586950 -0.266906
0.292628 0.585189 -0.266111
0.298657 0.580409 -0.264200
0.300152 0.588162 -0.266890
0.299487 0.602290 -0.271912
0.305668 0.597091 -0.269831
0.312028 0.591181 -0.267489
0.320207 0.579634 -0.263081
0.318839 0.596615 -0.269127
0.322326 0.599181 -0.269888
0.329189 0.591220 -0.266796
0.333451 0.591242 -0.266628
0.337008 0.593518 -0.267285
0.341232 0.593633 -0.267154
0.346977 0.588596 -0.265146
0.352271 0.584873 -0.263622
0.355993 0.586454 -0.264037
0.357428 0.596174 -0.267420
0.362365 0.593539 -0.266305
0.367112 0.591446 -0.265393
0.371104 0.592071 -0.265475
0.374990 0.593076 -0.265701
0.381143 0.585175 -0.262694
0.385364 0.584628 -0.262368
0.388175 0.589777 -0.264115
0.391305 0.593763 -0.265444
0.394688 0.596790 -0.266430
0.398284 0.598971 -0.267115
0.401499 0.602901 -0.268439
0.406628 0.598207 -0.266642
0.410966 0.596935 -0.266093
0.416288 0.590825 -0.263798
0.419898 0.592777 -0.264429
0.422228 0.601236 -0.267422
0.427049 0.597188 -0.265892
0.432223 0.590986 -0.263590
0.436120 0.591367 -0.263676
0.439573 0.594221 -0.264663
0.443856 0.592382 -0.263958
0.447466 0.594395 -0.264652
0.451403 0.594469 -0.264650
0.455454 0.593771 -0.264376
0.459305 0.594292 -0.264547
0.462910 0.596462 -0.265321
0.466256 0.600541 -0.266790
0.470084 0.601373 -0.267090
0.474235 0.599793 -0.266524
0.478568 0.596614 -0.265385
0.482623 0.595390 -0.264959
0.486693 0.593894 -0.264438
0.490727 0.592533 -0.263972
0.494101 0.597100 -0.265655
0.497938 0.597581 -0.265865
0.502095 0.594807 -0.264903
0.506241 0.591827 -0.263870
0.510301 0.589438 -0.263056
0.514448 0.585684 -0.261752
0.518295 0.585227 -0.261646
0.522148 0.584580 -0.261475
0.525820 0.586413 -0.262207
0.529219 0.592733 -0.264570
0.532779 0.597344 -0.266319
0.536551 0.598838 -0.266943
0.540528 0.596477 -0.266174
0.544459 0.594565 -0.265572
0.548351 0.593136 -0.265148
0.552150 0.593913 -0.265530
0.556049 0.591609 -0.264797
0.559874 0.591315 -0.264797
0.563662 0.592603 -0.265377
0.567469 0.593404 -0.265783
0.571300 0.592775 -0.265674
0.575117 0.593286 -0.265984
0.578939 0.594158 -0.266429
0.582769 0.594844 -0.266811
0.586587 0.593357 -0.266405
0.590395 0.592170 -0.266112
0.594222 0.592576 -0.266403
0.598077 0.593994 -0.267068
0.601865 0.592512 -0.266679
0.605703 0.592931 -0.266987
0.609530 0.592927 -0.267145
0.613390 0.593644 -0.267571
0.617585 0.601248 -0.270521
0.621665 0.605193 -0.272138
0.625337 0.601315 -0.270896
0.629191 0.600912 -0.270929
0.633277 0.604009 -0.272251
0.636622 0.596333 -0.269624
0.639990 0.589897 -0.267452
0.643922 0.591101 -0.268090
0.648012 0.593962 -0.269342
0.651856 0.593779 -0.269479
0.655865 0.595296 -0.270247
0.659600 0.593914 -0.269951
0.663405 0.593290 -0.269939
0.667852 0.598455 -0.272068
0.671797 0.598820 -0.272431
0.674900 0.592153 -0.270199
0.678552 0.590326 -0.269758
0.682696 0.592361 -0.270751
0.686700 0.593180 -0.271300
0.690556 0.592849 -0.271428
0.694502 0.593113 -0.271781
0.698097 0.590992 -0.271253
0.701921 0.590435 -0.271310
0.706076 0.591940 -0.272140
0.710432 0.594522 -0.273378
0.714339 0.594273 -0.273567
0.717866 0.591836 -0.272944
0.721420 0.589643 -0.272416
0.725260 0.589065 -0.272497
0.728918 0.587518 -0.272220
0.733185 0.589122 -0.273129
0.736917 0.587932 -0.272996
0.740647 0.586750 -0.272872
0.744480 0.586067 -0.272940
0.749929 0.592852 -0.275827
0.754346 0.594611 -0.276831
0.759391 0.599016 -0.278841
0.761987 0.592597 -0.276772
0.765036 0.588329 -0.275518
0.769335 0.589361 -0.276274
0.774676 0.594525 -0.278605
0.777507 0.589469 -0.277067
0.779323 0.580628 -0.274091
0.784924 0.586503 -0.276718
0.792220 0.598424 -0.281663
0.796912 0.600302 -0.282793
0.799417 0.594204 -0.280883
0.802275 0.589529 -0.279518
0.807057 0.591629 -0.280754
0.810577 0.589316 -0.280305
0.814657 0.588900 -0.280591
0.818409 0.587373 -0.280455
0.823083 0.588817 -0.281472
0.828030 0.591025 -0.282792
0.832343 0.591130 -0.283309
0.836365 0.590293 -0.283469
0.841739 0.593498 -0.285203
0.847112 0.596546 -0.286888
0.850896 0.594818 -0.286724
0.853961 0.591035 -0.285762
0.857654 0.589089 -0.285520
0.861907 0.588711 -0.285896
0.866088 0.588099 -0.286185
0.870246 0.587399 -0.286444
0.875120 0.588572 -0.287444
0.880927 0.592101 -0.289379
0.883820 0.587984 -0.288305
0.887940 0.587058 -0.288490
0.892419 0.587016 -0.289027
0.901732 0.598852 -0.294281
0.902816 0.590325 -0.291456
0.904355 0.583094 -0.289135
0.909391 0.584295 -0.290169
0.914493 0.585591 -0.291241
0.919704 0.587078 -0.292389
0.925379 0.589562 -0.293936
0.930034 0.589681 -0.294530
0.933799 0.587816 -0.294320
0.936218 0.583056 -0.292931
0.942877 0.587545 -0.295265
0.946329 0.585104 -0.294789
0.953939 0.591461 -0.297865
0.956747 0.587711 -0.296832
0.960962 0.586950 -0.296996
0.965127 0.586129 -0.297118
0.968653 0.584072 -0.296717
0.977350 0.592324 -0.300503
0.983986 0.596396 -0.302567
0.989705 0.598641 -0.303867
0.988417 0.587475 -0.299651
0.993172 0.588038 -0.300211
0.996996 0.586900 -0.300047
1.001331 0.586790 -0.300278
1.004854 0.585254 -0.299895
1.009328 0.585541 -0.300233
1.013026 0.584495 -0.299993
1.018745 0.587139 -0.301243
1.020350 0.582552 -0.299485
1.023874 0.581478 -0.299143
1.026407 0.578786 -0.298104
1.028715 0.575834 -0.296927
1.035738 0.581033 -0.299081
1.042367 0.585559 -0.300927
1.046497 0.585913 -0.301024
1.050143 0.585542 -0.300791
1.054636 0.586651 -0.301140
1.057951 0.585906 -0.300697
0.208002 0.558591 -0.259114
0.194460 0.593467 -0.272395
0.199060 0.591668 -0.272024
0.204945 0.587251 -0.270651
0.208206 0.588370 -0.271314
0.211019 0.590559 -0.272352
0.214740 0.590933 -0.272687
0.218971 0.590300 -0.272620
0.223442 0.589211 -0.272359
0.227837 0.588353 -0.272158
0.232319 0.587359 -0.271882
0.234952 0.590628 -0.273178
0.235628 0.598559 -0.276197
0.243571 0.589805 -0.272948
0.246796 0.592039 -0.273792
0.251940 0.589799 -0.272940
0.254500 0.593816 -0.274411
0.255742 0.601225 -0.277134
0.261204 0.598377 -0.276000
0.268888 0.589884 -0.272740
0.273574 0.588856 -0.272259
0.275172 0.595833 -0.274758
0.279632 0.595502 -0.274512
0.285249 0.592088 -0.273103
0.291121 0.587895 -0.271396
0.298726 0.578810 -0.267857
0.301480 0.582996 -0.269264
0.301808 0.594188 -0.273273
0.304596 0.598638 -0.274763
0.313202 0.586185 -0.269953
0.319933 0.578888 -0.267066
0.321177 0.587922 -0.270251
0.323155 0.594980 -0.272697
0.328793 0.590800 -0.270966
0.332587 0.592314 -0.271350
0.336905 0.592148 -0.271112
0.341202 0.592010 -0.270886
0.346462 0.588596 -0.269449
0.351603 0.585423 -0.268106
0.355116 0.587754 -0.268803
0.356075 0.599189 -0.272871
0.361447 0.595064 -0.271186
0.366697 0.591178 -0.269596
0.370311 0.593240 -0.270208
0.375401 0.589674 -0.268747
0.380447 0.586083 -0.267284
0.385518 0.582189 -0.265715
0.388263 0.587572 -0.267573
0.391801 0.589829 -0.268282
0.397351 0.583559 -0.265857
0.400935 0.585520 -0.266469
0.402056 0.598504 -0.271143
0.405240 0.602628 -0.272561
0.411484 0.592593 -0.268777
0.416544 0.587680 -0.266884
0.420277 0.588983 -0.267283
0.422429 0.598261 -0.270618
0.427419 0.593305 -0.268729
0.431822 0.591148 -0.267874
0.435594 0.592256 -0.268225
0.439278 0.593870 -0.268767
0.443501 0.592411 -0.268188
0.447286 0.593421 -0.268520
0.451114 0.594180 -0.268766
0.455104 0.593912 -0.268641
0.459106 0.593490 -0.268466
0.462761 0.595333 -0.269127
0.465837 0.601297 -0.271306
0.469498 0.603412 -0.272077
0.473804 0.600794 -0.271119
0.478527 0.594684 -0.268884
0.482649 0.592896 -0.268240
0.486585 0.592481 -0.268106
0.490549 0.591742 -0.267858
0.494215 0.593624 -0.268576
0.498002 0.594477 -0.268923
0.502224 0.590963 -0.267671
0.506133 0.590378 -0.267499
0.509752 0.592935 -0.268486
0.513661 0.592300 -0.268306
0.518259 0.582840 -0.264888
0.521936 0.584478 -0.265552
0.525423 0.589047 -0.267297
0.528707 0.597416 -0.270445
0.532354 0.601010 -0.271843
0.536129 0.602873 -0.272610
0.540350 0.596130 -0.270215
0.544295 0.594007 -0.269524
0.548046 0.596170 -0.270414
0.551851 0.597344 -0.270946
0.555825 0.593279 -0.269551
0.559678 0.592379 -0.269326
0.563493 0.592879 -0.269621
0.567316 0.593123 -0.269827
0.571144 0.593002 -0.269901
0.574972 0.592873 -0.269978
0.578797 0.593011 -0.270156
0.582630 0.594895 -0.270984
0.586476 0.595999 -0.271528
0.590309 0.595368 -0.271436
0.594281 0.602663 -0.274279
0.597948 0.593591 -0.271071
0.601832 0.595403 -0.271895
0.605550 0.591613 -0.270647
0.609387 0.591906 -0.270916
0.613151 0.590374 -0.270512
0.617378 0.598909 -0.273848
0.621274 0.599471 -0.274231
0.624950 0.596035 -0.273132
0.629008 0.599284 -0.274523
0.633187 0.603823 -0.276399
0.636632 0.597460 -0.274222
0.640029 0.591257 -0.272106
0.643913 0.591730 -0.272480
0.648212 0.596920 -0.274618
0.652804 0.604720 -0.277739
0.656424 0.601582 -0.276781
0.660311 0.601352 -0.276913
0.663154 0.591257 -0.273359
0.667568 0.596172 -0.275424
0.671751 0.598642 -0.276580
0.675309 0.595694 -0.275711
0.678583 0.590688 -0.274072
0.682901 0.594000 -0.275560
0.686547 0.592074 -0.275085
0.690268 0.590784 -0.274854
0.694278 0.591519 -0.275389
0.697981 0.590133 -0.275131
0.701652 0.588582 -0.274814
0.705953 0.591015 -0.276007
0.709914 0.591204 -0.276358
0.713935 0.591689 -0.276828
0.717861 0.591561 -0.277070
0.721614 0.590446 -0.276944
0.725196 0.588419 -0.276478
0.728833 0.586750 -0.276151
0.733351 0.589618 -0.277555
0.738580 0.595841 -0.280244
0.741556 0.590770 -0.278640
0.745836 0.592075 -0.279471
0.749918 0.592359 -0.279919
0.754276 0.593831 -0.280829
0.758908 0.596394 -0.282165
0.763031 0.596602 -0.282606
0.766664 0.594682 -0.282238
0.769972 0.591454 -0.281373
0.773451 0.589005 -0.280811
0.777097 0.587268 -0.280528
0.779028 0.578897 -0.277691
0.782173 0.575430 -0.276747
0.788432 0.583663 -0.280333
0.795917 0.596015 -0.285529
0.798672 0.590870 -0.283961
0.803167 0.591995 -0.284829
0.806488 0.588973 -0.284092
0.810835 0.589491 -0.284740
0.814754 0.588509 -0.284810
0.819322 0.589636 -0.285710
0.824476 0.592560 -0.287323
0.828746 0.592534 -0.287790
0.833715 0.594631 -0.289098
0.837541 0.593113 -0.288994
0.842857 0.596074 -0.290660
0.848451 0.599706 -0.292601
0.853353 0.601161 -0.293693
0.853734 0.589576 -0.289634
0.857885 0.588930 -0.289902
0.861984 0.588111 -0.290106
0.866306 0.587877 -0.290548
0.871785 0.590717 -0.292219
0.875881 0.589764 -0.292385
0.879481 0.587501 -0.292030
0.883836 0.587207 -0.292465
0.888400 0.587409 -0.293101
0.892561 0.586560 -0.293317
0.897100 0.586632 -0.293904
0.901264 0.585760 -0.294111
0.905427 0.584879 -0.294314
0.909071 0.582770 -0.294016
0.915213 0.586509 -0.296086
0.921183 0.589735 -0.297948
0.925443 0.588981 -0.298191
0.930264 0.589489 -0.298942
0.933649 0.586804 -0.298382
0.936211 0.582388 -0.297102
0.940791 0.582428 -0.297632
0.941728 0.574727 -0.294975
0.953312 0.589574 -0.301561
0.957975 0.589724 -0.302102
0.961411 0.587375 -0.301598
0.964615 0.584633 -0.300912
0.969171 0.584690 -0.301361
0.973810 0.584943 -0.301870
0.983736 0.595568 -0.306655
0.984670 0.588609 -0.304135
0.987713 0.585884 -0.303341
0.991053 0.583829 -0.302799
0.997075 0.586896 -0.304360
1.001192 0.586430 -0.304424
1.005323 0.586060 -0.304501
1.008765 0.584512 -0.304057
1.014096 0.586461 -0.305041
1.017660 0.585298 -0.304698
1.021225 0.584232 -0.304365
1.024920 0.583489 -0.304136
1.027075 0.580170 -0.302802
1.034593 0.586195 -0.305338
1.041609 0.591340 -0.307477
1.047341 0.594313 -0.308679
1.047542 0.588065 -0.306001
1.051050 0.587491 -0.305663
1.054357 0.586677 -0.305195
1.057256 0.585290 -0.304462
0.194144 0.559256 -0.261611
0.194653 0.564771 -0.264100
0.197398 0.566033 -0.264975
0.203981 0.559713 -0.262977
0.205424 0.563780 -0.264861
0.200704 0.580617 -0.271538
0.197731 0.594268 -0.277002
0.199676 0.598036 -0.278718
0.208172 0.588185 -0.275262
0.211373 0.589488 -0.275994
0.214939 0.590130 -0.276451
0.218839 0.590150 -0.276648
0.223295 0.589037 -0.276389
0.227355 0.588865 -0.276462
0.234081 0.582780 -0.274267
0.237269 0.584676 -0.275075
0.238185 0.591922 -0.277892
0.244074 0.587831 -0.276383
0.248749 0.586566 -0.275925
0.251837 0.589125 -0.276897
0.253571 0.595081 -0.279141
0.255735 0.600193 -0.281044
0.258426 0.604178 -0.282501
0.265668 0.596853 -0.279649
0.271400 0.593216 -0.278182
0.273640 0.598549 -0.280104
0.277102 0.600852 -0.280863
0.283333 0.595861 -0.278845
0.289454 0.591032 -0.276880
0.294918 0.587872 -0.275540
0.299016 0.588426 -0.275598
0.300216 0.597201 -0.278758
0.301565 0.605818 -0.281850
0.310047 0.593859 -0.277160
0.321058 0.573990 -0.269485
0.321890 0.584168 -0.273154
0.323468 0.592374 -0.276073
0.327763 0.592356 -0.275889
0.332415 0.591174 -0.275265
0.336366 0.592185 -0.275469
0.340757 0.591749 -0.275128
0.345707 0.589388 -0.274066
0.350042 0.589001 -0.273749
0.353341 0.592154 -0.274765
0.357196 0.593416 -0.275073
0.361849 0.591802 -0.274306
0.365823 0.592577 -0.274438
0.370776 0.589664 -0.273193
0.373222 0.596177 -0.275485
0.379475 0.588042 -0.272295
0.383123 0.589899 -0.272853
0.386517 0.592817 -0.273812
0.390991 0.591322 -0.273126
0.396666 0.584598 -0.270492
0.401125 0.582802 -0.269706
0.403485 0.590214 -0.272366
0.406759 0.593760 -0.273587
0.411530 0.590436 -0.272249
0.415665 0.589942 -0.271973
0.420583 0.585532 -0.270244
0.425342 0.581641 -0.268715
0.428334 0.586601 -0.270491
0.431629 0.590170 -0.271755
0.435100 0.592930 -0.272723
0.438416 0.596658 -0.274057
0.442753 0.594675 -0.273270
0.446879 0.593768 -0.272890
0.450751 0.594311 -0.273055
0.454783 0.593823 -0.272843
0.458811 0.593283 -0.272617
0.462670 0.593787 -0.272785
0.465697 0.600069 -0.275111
0.469038 0.604488 -0.276748
0.473155 0.603383 -0.276335
0.477720 0.598666 -0.274583
0.482449 0.592195 -0.272183
0.486432 0.591413 -0.271906
0.490160 0.592759 -0.272427
0.493825 0.594751 -0.273194
0.497509 0.596703 -0.273951
0.501526 0.595441 -0.273517
0.505220 0.597430 -0.274299
0.508594 0.603182 -0.276487
0.512804 0.599649 -0.275222
0.517336 0.591578 -0.272271
0.521146 0.592085 -0.272520
0.524729 0.595871 -0.273997
0.528242 0.601271 -0.276080
0.531979 0.603766 -0.277086
0.535802 0.605085 -0.277659
0.540275 0.593687 -0.273490
0.544397 0.587526 -0.271278
0.547970 0.593423 -0.273573
0.551730 0.595624 -0.274492
0.555581 0.595507 -0.274551
0.559420 0.595808 -0.274770
0.563226 0.597724 -0.275597
0.567105 0.596267 -0.275167
0.570978 0.593976 -0.274430
0.574818 0.593389 -0.274334
0.578653 0.592324 -0.274062
0.582482 0.592326 -0.274195
0.586324 0.594004 -0.274960
0.590259 0.601476 -0.277904
0.597802 0.592439 -0.274807
0.601663 0.593464 -0.275345
0.605476 0.592702 -0.275216
0.609251 0.591085 -0.274770
0.613267 0.595462 -0.276582
0.617405 0.601511 -0.279030
0.621212 0.600018 -0.278644
0.625006 0.598528 -0.278263
0.628728 0.596051 -0.277513
0.631963 0.586625 -0.274143
0.636230 0.592835 -0.276679
0.640235 0.594795 -0.277616
0.644216 0.596191 -0.278345
0.648539 0.601340 -0.280499
0.652700 0.604134 -0.281769
0.656533 0.603178 -0.281624
0.659409 0.592821 -0.277918
0.663698 0.596704 -0.279615
0.667395 0.594874 -0.279150
0.671662 0.598072 -0.280599
0.675644 0.598615 -0.281045
0.679491 0.598004 -0.281057
0.682993 0.594751 -0.280068
0.686226 0.589715 -0.278401
0.690130 0.589768 -0.278678
0.694143 0.590522 -0.279229
0.698185 0.591377 -0.279824
0.701758 0.589125 -0.279236
0.705542 0.588280 -0.279191
0.709103 0.586101 -0.278639
0.713233 0.587340 -0.279403
0.717937 0.591732 -0.281385
0.721740 0.590848 -0.281347
0.725509 0.589786 -0.281246
0.731032 0.597927 -0.284697
0.733050 0.587714 -0.281080
0.737076 0.587960 -0.281500
0.741120 0.588237 -0.281939
0.745501 0.590048 -0.282978
0.749321 0.589137 -0.282970
0.753424 0.589497 -0.283461
0.758180 0.592677 -0.285055
0.761907 0.591226 -0.284857
0.765570 0.589520 -0.284566
0.769688 0.589719 -0.285023
0.773463 0.588476 -0.284924
0.777514 0.588326 -0.285259
0.778924 0.577890 -0.281575
0.782381 0.575601 -0.281080
0.788097 0.581773 -0.283910
0.792630 0.583332 -0.284941
0.797926 0.587517 -0.287015
0.802084 0.587493 -0.287442
0.806881 0.589623 -0.288727
0.810853 0.588829 -0.288866
0.814953 0.588440 -0.289173
0.819257 0.588678 -0.289734
0.823959 0.590136 -0.290788
0.828147 0.589872 -0.291166
0.833260 0.592433 -0.292677
0.837224 0.591354 -0.292745
0.842505 0.594213 -0.294393
0.849399 0.601690 -0.297899
0.851980 0.596348 -0.296283
0.852677 0.585736 -0.292552
0.858243 0.589113 -0.294438
0.864685 0.594767 -0.297251
0.868135 0.592039 -0.296695
0.871695 0.589644 -0.296275
0.875792 0.588698 -0.296442
0.879884 0.587725 -0.296601
0.884181 0.587268 -0.296972
0.888273 0.586267 -0.297123
0.892772 0.586275 -0.297685
0.896836 0.585179 -0.297798
0.900978 0.584272 -0.297986
0.905131 0.583390 -0.298182
0.911677 0.588149 -0.300692
0.917161 0.590288 -0.302127
0.921537 0.589809 -0.302483
0.926017 0.589565 -0.302929
0.930242 0.588745 -0.303130
0.934702 0.588460 -0.303544
0.937107 0.583703 -0.302092
0.944300 0.589365 -0.304952
0.949150 0.589918 -0.305681
0.954564 0.591653 -0.306889
0.958141 0.589556 -0.306486
0.961431 0.586942 -0.305846
0.964664 0.584301 -0.305174
0.965247 0.576452 -0.302298
0.973034 0.583060 -0.305456
0.978683 0.585381 -0.306799
0.983440 0.585970 -0.307392
0.986302 0.582973 -0.306451
0.991185 0.583914 -0.307141
0.997039 0.586711 -0.308587
1.000955 0.585920 -0.308493
1.004290 0.584144 -0.307955
1.009455 0.585793 -0.308833
1.014000 0.586365 -0.309227
1.018104 0.586213 -0.309285
1.021049 0.584093 -0.308482
1.023143 0.580601 -0.307066
1.027626 0.581388 -0.307430
1.034656 0.586612 -0.309640
1.041903 0.592197 -0.311972
1.048422 0.596538 -0.313747
1.048971 0.590895 -0.311272
1.051102 0.588054 -0.309953
1.053663 0.586049 -0.308959
0.183755 0.579753 -0.273099
0.182856 0.588175 -0.276749
0.190766 0.579325 -0.273813
0.198805 0.570153 -0.270722
0.205787 0.563049 -0.268387
0.204575 0.572657 -0.272406
0.200568 0.588311 -0.278721
0.201237 0.594623 -0.281447
0.207001 0.590434 -0.280128
0.210747 0.590546 -0.280431
0.214271 0.591230 -0.280926
0.218748 0.589952 -0.280644
0.223432 0.588279 -0.280183
0.228597 0.585588 -0.279305
0.234332 0.581641 -0.277917
0.237449 0.583628 -0.278789
0.240967 0.584818 -0.279330
0.244518 0.586033 -0.279858
0.248093 0.587290 -0.280380
0.251379 0.589332 -0.281183
0.254762 0.591250 -0.281918
0.258457 0.592512 -0.282381
0.262830 0.592174 -0.282209
0.267582 0.590917 -0.281666
0.273211 0.587429 -0.280248
0.276372 0.590256 -0.281247
0.281094 0.589099 -0.280698
0.282556 0.596608 -0.283469
0.289244 0.590241 -0.280894
0.291542 0.595731 -0.282866
0.294231 0.600305 -0.284475
0.302278 0.589885 -0.280322
0.306255 0.590814 -0.280518
0.310877 0.589887 -0.279997
0.315194 0.589822 -0.279803
0.318267 0.593485 -0.281033
0.323342 0.591122 -0.279952
0.327522 0.591441 -0.279897
0.332111 0.590451 -0.279341
0.336007 0.591630 -0.279614
0.339680 0.593550 -0.280169
0.344342 0.592204 -0.279479
0.348329 0.593065 -0.279634
0.352656 0.592741 -0.279339
0.357663 0.589961 -0.278112
0.361717 0.590462 -0.278138
0.366958 0.586582 -0.276501
0.370380 0.589305 -0.277381
0.373441 0.593473 -0.278814
0.376705 0.596971 -0.279995
0.380624 0.597959 -0.280227
0.385357 0.595635 -0.279207
0.390202 0.592692 -0.277958
0.394351 0.592519 -0.277767
0.398036 0.594298 -0.278321
0.403091 0.590027 -0.276588
0.407430 0.588756 -0.275999
0.411456 0.588823 -0.275923
0.415440 0.589043 -0.275911
0.419446 0.589114 -0.275848
0.424553 0.583620 -0.273687
0.428888 0.581754 -0.272904
0.431915 0.586639 -0.274681
0.433962 0.597058 -0.278555
0.437283 0.600911 -0.279952
0.442136 0.596131 -0.278092
0.446230 0.595510 -0.277810
0.450171 0.595726 -0.277851
0.454381 0.594213 -0.277245
0.458487 0.593222 -0.276842
0.462315 0.593985 -0.277107
0.465580 0.598654 -0.278853
0.468789 0.604006 -0.280863
0.472911 0.602904 -0.280441
0.477107 0.601089 -0.279756
0.481577 0.596880 -0.278172
0.485754 0.594717 -0.277367
0.489743 0.593976 -0.277104
0.493593 0.594387 -0.277281
0.497428 0.594931 -0.277514
0.501323 0.594872 -0.277525
0.504361 0.603830 -0.280947
0.507982 0.607224 -0.282274
0.512570 0.599548 -0.279422
0.516500 0.599119 -0.279313
0.520370 0.599400 -0.279478
0.524453 0.596618 -0.278490
0.528180 0.598846 -0.279401
0.531984 0.600125 -0.279958
0.535944 0.598750 -0.279517
0.540196 0.591287 -0.276774
0.544371 0.583866 -0.274052
0.548080 0.586062 -0.274974
0.551629 0.593285 -0.277806
0.555397 0.595685 -0.278817
0.558952 0.607110 -0.283254
0.563043 0.598406 -0.280065
0.566935 0.596702 -0.279533
0.570814 0.594636 -0.278869
0.574662 0.594041 -0.278766
0.578505 0.593379 -0.278642
0.582338 0.591567 -0.278086
0.586184 0.593509 -0.278961
0.590109 0.600127 -0.281619
0.594030 0.602817 -0.282790
0.597553 0.586799 -0.276842
0.601470 0.590668 -0.278468
0.605347 0.592137 -0.279186
0.609198 0.592463 -0.279473
0.613321 0.599147 -0.282191
0.617373 0.602870 -0.283785
0.621168 0.600918 -0.283217
0.624825 0.596838 -0.281840
0.628682 0.596606 -0.281937
0.632626 0.597674 -0.282536
0.636415 0.596389 -0.282239
0.640198 0.595165 -0.281969
0.644093 0.595411 -0.282267
0.648057 0.596387 -0.282850
0.651628 0.592919 -0.281731
0.655479 0.592671 -0.281853
0.659645 0.595533 -0.283176
0.663432 0.594503 -0.283007
0.667549 0.596508 -0.284011
0.671464 0.596552 -0.284266
0.675869 0.600610 -0.286074
0.679802 0.600553 -0.286301
0.683238 0.596663 -0.285052
0.686220 0.589665 -0.282604
0.690194 0.590174 -0.283063
0.694298 0.591500 -0.283843
0.698833 0.595549 -0.285686
0.701729 0.588775 -0.283337
0.705754 0.589407 -0.283865
0.709206 0.586495 -0.283022
0.712796 0.584522 -0.282548
0.718145 0.592624 -0.286003
0.724111 0.603647 -0.290610
0.727443 0.599850 -0.289446
0.730511 0.594831 -0.287808
0.734075 0.592553 -0.287244
0.737846 0.591376 -0.287116
0.741965 0.591899 -0.287660
0.745623 0.590166 -0.287325
0.749497 0.589468 -0.287403
0.753374 0.588768 -0.287485
0.757422 0.588808 -0.287866
0.761412 0.588546 -0.288134
0.765137 0.587134 -0.287955
0.769164 0.586978 -0.288278
0.773574 0.588325 -0.289203
0.777823 0.588933 -0.289844
0.778897 0.577161 -0.285580
0.784308 0.582281 -0.288023
0.790634 0.590558 -0.291735
0.793041 0.584157 -0.289615
0.796975 0.583418 -0.289755
0.802493 0.588219 -0.292116
0.806808 0.588647 -0.292739
0.810716 0.587628 -0.292790
0.814810 0.587212 -0.293090
0.818760 0.586293 -0.293195
0.823018 0.586341 -0.293695
0.828081 0.588876 -0.295205
0.833295 0.591745 -0.296860
0.837564 0.591585 -0.297302
0.841322 0.589846 -0.297109
0.845355 0.588927 -0.297255
0.849820 0.589245 -0.297907
0.855612 0.593293 -0.300086
0.861649 0.597854 -0.302484
0.866026 0.597635 -0.302942
0.867265 0.588825 -0.299889
0.871083 0.587161 -0.299757
0.875279 0.586504 -0.300041
0.879657 0.586301 -0.300513
0.883914 0.585753 -0.300845
0.887990 0.584731 -0.300983
0.892243 0.584144 -0.301301
0.896705 0.584055 -0.301824
0.900982 0.583491 -0.302149
0.904423 0.580924 -0.301639
0.914242 0.593427 -0.307397
0.918463 0.592565 -0.307595
0.919968 0.585485 -0.305189
0.925245 0.587112 -0.306410
0.930807 0.589326 -0.307871
0.934865 0.588164 -0.307910
0.936915 0.582666 -0.306112
0.945710 0.591802 -0.310459
0.950396 0.592001 -0.311034
0.952905 0.587648 -0.309672
0.957143 0.587000 -0.309856
0.960991 0.585595 -0.309700
0.965723 0.586037 -0.310306
0.965923 0.577444 -0.307057
0.971656 0.580019 -0.308524
0.978680 0.585101 -0.311037
0.983582 0.586018 -0.311756
0.986320 0.582827 -0.310699
0.991945 0.585221 -0.311995
0.996845 0.586265 -0.312690
1.000128 0.584354 -0.312094
1.003694 0.583067 -0.311735
1.009183 0.585363 -0.312879
1.014338 0.587085 -0.313748
1.018350 0.586812 -0.313733
1.020701 0.583685 -0.312467
1.023597 0.581648 -0.311635
1.023594 0.574699 -0.308670
1.027554 0.574757 -0.308676
1.038477 0.586753 -0.313762
1.044518 0.590380 -0.315234
1.047730 0.589291 -0.314658
1.050058 0.586832 -0.313468
0.182916 0.588250 -0.280635
0.187785 0.585396 -0.279985
0.193834 0.580223 -0.278414
0.201959 0.570846 -0.275189
0.204863 0.572060 -0.276030
0.200952 0.595099 -0.285636
0.205862 0.592656 -0.284994
0.210292 0.591280 -0.284739
0.213384 0.592843 -0.285600
0.218263 0.590651 -0.284976
0.224712 0.585056 -0.282998
0.228076 0.586272 -0.283646
0.231854 0.586669 -0.283952
0.233511 0.591972 -0.286146
0.238442 0.589959 -0.285462
0.242899 0.589074 -0.285195
0.253810 0.573046 -0.278993
0.257014 0.575053 -0.279809
0.255615 0.588280 -0.284985
0.259853 0.588125 -0.284917
0.263827 0.588672 -0.285103
0.267952 0.588903 -0.285148
0.272361 0.588460 -0.284912
0.275987 0.590060 -0.285459
0.278198 0.595446 -0.287467
0.284542 0.590033 -0.285249
0.287394 0.593892 -0.286635
0.289351 0.600334 -0.289015
0.294184 0.598996 -0.288354
0.300277 0.594067 -0.286286
0.306337 0.589077 -0.284190
0.310777 0.588644 -0.283860
0.314674 0.589791 -0.284141
0.318025 0.592606 -0.285064
0.321042 0.596519 -0.286409
0.327696 0.589241 -0.283409
0.331894 0.589451 -0.283314
0.335655 0.591049 -0.283756
0.339985 0.590812 -0.283487
0.344065 0.591367 -0.283525
0.348536 0.590582 -0.283046
0.353402 0.588363 -0.282016
0.358096 0.586628 -0.281176
0.362029 0.587513 -0.281351
0.365940 0.588471 -0.281558
0.369966 0.588996 -0.281602
0.373635 0.590853 -0.282163
0.377734 0.591071 -0.282096
0.382357 0.589167 -0.281217
0.386162 0.590449 -0.281570
0.390156 0.590952 -0.281629
0.394279 0.590882 -0.281472
0.398421 0.590677 -0.281269
0.402182 0.592095 -0.281696
0.405998 0.593277 -0.282037
0.411454 0.586852 -0.279462
0.415749 0.585585 -0.278876
0.418460 0.591912 -0.281211
0.421972 0.594512 -0.282121
0.426147 0.593795 -0.281764
0.430990 0.589469 -0.280029
0.433711 0.596332 -0.282591
0.436802 0.601471 -0.284497
0.441860 0.595600 -0.282189
0.446079 0.594263 -0.281626
0.449965 0.594819 -0.281793
0.454071 0.593986 -0.281435
0.458147 0.593233 -0.281114
0.461991 0.593928 -0.281354
0.465777 0.595030 -0.281755
0.469606 0.595842 -0.282051
0.473912 0.593126 -0.281001
0.477255 0.597580 -0.282704
0.481424 0.595709 -0.281990
0.485501 0.594408 -0.281500
0.489893 0.590196 -0.279900
0.493677 0.591093 -0.280262
0.497513 0.591531 -0.280455
0.501115 0.594310 -0.281550
0.504945 0.594930 -0.281823
0.508777 0.595540 -0.282097
0.512527 0.597145 -0.282758
0.516412 0.597216 -0.282837
0.520474 0.594901 -0.282006
0.524410 0.593992 -0.281719
0.528303 0.593583 -0.281628
0.532433 0.589114 -0.279984
0.536073 0.592653 -0.281419
0.539983 0.591488 -0.281052
0.544019 0.587281 -0.279522
0.547923 0.585257 -0.278835
0.551549 0.590354 -0.280888
0.555167 0.597248 -0.283637
0.559011 0.598092 -0.284067
0.562877 0.598182 -0.284212
0.566809 0.594363 -0.282857
0.570659 0.594280 -0.282944
0.574506 0.594454 -0.283134
0.578358 0.592994 -0.282700
0.582193 0.590756 -0.281969
0.586056 0.594815 -0.283670
0.589906 0.594666 -0.283755
0.593660 0.589111 -0.281757
0.597442 0.587213 -0.281174
0.601637 0.601007 -0.286656
0.605579 0.602769 -0.287498
0.609384 0.600313 -0.286714
0.612946 0.592648 -0.283918
0.616715 0.590933 -0.283427
0.620540 0.590583 -0.283469
0.624340 0.589802 -0.283347
0.628037 0.587446 -0.282619
0.631984 0.589157 -0.283473
0.636075 0.592609 -0.285009
0.639808 0.590890 -0.284542
0.643642 0.590583 -0.284627
0.647426 0.589681 -0.284486
0.651420 0.591154 -0.285274
0.655508 0.593410 -0.286372
0.659121 0.590704 -0.285542
0.662860 0.589398 -0.285262
0.666978 0.591582 -0.286348
0.671449 0.596590 -0.288546
0.675172 0.594954 -0.288152
0.679408 0.597484 -0.289394
0.683376 0.597733 -0.289748
0.686495 0.591661 -0.287630
0.690264 0.590600 -0.287480
0.694938 0.595778 -0.289785
0.698193 0.591157 -0.288247
0.702381 0.592785 -0.289171
0.706820 0.595822 -0.290656
0.710271 0.592677 -0.289713
0.713257 0.586947 -0.287752
0.719949 0.602582 -0.294234
0.724449 0.605176 -0.295577
0.727626 0.600472 -0.294040
0.730470 0.594226 -0.291894
0.734247 0.593018 -0.291747
0.738033 0.591871 -0.291631
0.741888 0.591063 -0.291655
0.745684 0.589972 -0.291572
0.749510 0.589028 -0.291553
0.753580 0.589177 -0.291977
0.757419 0.588251 -0.291979
0.761171 0.586945 -0.291834
0.764843 0.585311 -0.291564
0.768512 0.583689 -0.291305
0.772798 0.584574 -0.292057
0.776853 0.584464 -0.292418
0.778910 0.576566 -0.289651
0.781710 0.571758 -0.288129
0.792545 0.596980 -0.298727
0.793942 0.586746 -0.295033
0.797592 0.584915 -0.294736
0.802304 0.586826 -0.295960
0.806270 0.586047 -0.296103
0.810976 0.587751 -0.297260
0.814951 0.586914 -0.297394
0.818821 0.585714 -0.297385
0.823004 0.585507 -0.297789
0.828724 0.590102 -0.300162
0.834023 0.593186 -0.301929
0.838117 0.592448 -0.302140
0.841618 0.589907 -0.301615
0.844892 0.586733 -0.300833
0.848580 0.584811 -0.300569
0.855012 0.590733 -0.303548
0.860895 0.594882 -0.305806
0.864989 0.593911 -0.305954
0.864605 0.580739 -0.301041
0.870189 0.583921 -0.302913
0.874856 0.584549 -0.303728
0.879263 0.584441 -0.304241
0.882980 0.582531 -0.304002
0.887008 0.581429 -0.304100
0.891391 0.581211 -0.304568
0.897448 0.585079 -0.306751
0.901490 0.583936 -0.306830
0.904255 0.579754 -0.305623
0.909284 0.580998 -0.306698
0.913093 0.579357 -0.306550
0.924538 0.595239 -0.313815
0.924364 0.584430 -0.309771
0.929676 0.586137 -0.311022
0.935070 0.587980 -0.312323
0.937068 0.582396 -0.310450
0.941146 0.581426 -0.310525
0.947968 0.586313 -0.313089
0.952881 0.587098 -0.313887
0.956638 0.585496 -0.313645
0.960762 0.584708 -0.313732
0.965463 0.585136 -0.314320
0.967734 0.580735 -0.312810
0.970394 0.577242 -0.311664
0.977272 0.582112 -0.314096
0.983911 0.586461 -0.316282
0.986997 0.583978 -0.315494
0.990346 0.582099 -0.314940
0.995202 0.583144 -0.315620
0.999292 0.582808 -0.315675
1.004241 0.584120 -0.316413
1.007419 0.582259 -0.315749
1.012719 0.584323 -0.316754
1.016250 0.583267 -0.316377
1.020753 0.584021 -0.316754
1.023789 0.582272 -0.316016
1.021361 0.571158 -0.311189
1.027526 0.575083 -0.312850
1.033310 0.578371 -0.314205
1.040769 0.584512 -0.316765
1.045588 0.586207 -0.317370
1.048098 0.584116 -0.316307
0.188250 0.584654 -0.283542
0.191821 0.584396 -0.283886
0.194866 0.585293 -0.284658
0.201747 0.578463 -0.282377
0.200881 0.595171 -0.289658
0.205415 0.593465 -0.289313
0.210347 0.590972 -0.288631
0.216203 0.586538 -0.287158
0.217939 0.591043 -0.289181
0.225505 0.582947 -0.286207
0.231618 0.577983 -0.284441
0.233412 0.582679 -0.286464
0.236346 0.584978 -0.287517
0.240510 0.584590 -0.287483
0.247428 0.577867 -0.284919
0.263644 0.558472 -0.277364
0.255746 0.587095 -0.288722
0.259485 0.588093 -0.289125
0.263806 0.587735 -0.288971
0.267829 0.588165 -0.289110
0.270673 0.591649 -0.290440
0.273630 0.594978 -0.291691
0.278188 0.594250 -0.291322
0.282538 0.594085 -0.291161
0.287144 0.593249 -0.290721
0.289710 0.597978 -0.292469
0.295122 0.594977 -0.291152
0.300827 0.591067 -0.289468
0.305826 0.589056 -0.288526
0.310071 0.589174 -0.288417
0.315114 0.586932 -0.287373
0.318493 0.589601 -0.288259
0.322282 0.591096 -0.288677
0.326549 0.591144 -0.288523
0.330976 0.590666 -0.288160
0.335344 0.590337 -0.287854
0.339360 0.591120 -0.287985
0.343840 0.590356 -0.287508
0.348464 0.589044 -0.286817
0.353366 0.586690 -0.285721
0.357418 0.587197 -0.285749
0.360309 0.591841 -0.287400
0.364724 0.591061 -0.286928
0.368938 0.590955 -0.286724
0.372920 0.591684 -0.286851
0.376864 0.592539 -0.287031
0.381384 0.591106 -0.286322
0.385900 0.589576 -0.285580
0.390129 0.589118 -0.285262
0.393485 0.592278 -0.286362
0.398054 0.590288 -0.285457
0.402140 0.590291 -0.285336
0.405896 0.591735 -0.285782
0.410288 0.590250 -0.285092
0.415035 0.586961 -0.283707
0.417137 0.596307 -0.287247
0.420982 0.597389 -0.287576
0.425941 0.592777 -0.285694
0.430773 0.588531 -0.283962
0.435036 0.587070 -0.283320
0.438008 0.592643 -0.285420
0.441801 0.593791 -0.285805
0.446317 0.590707 -0.284550
0.450035 0.592219 -0.285089
0.453996 0.592248 -0.285058
0.458071 0.591498 -0.284730
0.461882 0.592403 -0.285050
0.465577 0.594126 -0.285695
0.471559 0.579570 -0.280022
0.474470 0.586649 -0.282759
0.477423 0.593901 -0.285570
0.480591 0.599961 -0.287922
0.485307 0.593567 -0.285443
0.489315 0.592727 -0.285127
0.493643 0.588855 -0.283640
0.497392 0.590074 -0.284135
0.501252 0.590265 -0.284236
0.504789 0.593816 -0.285648
0.508686 0.593715 -0.285647
0.512563 0.593793 -0.285721
0.516358 0.594863 -0.286186
0.520386 0.592925 -0.285487
0.524411 0.590722 -0.284690
0.528218 0.591454 -0.285038
0.532160 0.590045 -0.284560
0.535953 0.591005 -0.285007
0.539863 0.589803 -0.284619
0.543750 0.588820 -0.284321
0.547575 0.589046 -0.284497
0.551312 0.591702 -0.285626
0.555130 0.592585 -0.286069
0.558827 0.598294 -0.288399
0.562722 0.597348 -0.288139
0.566654 0.593685 -0.286824
0.570519 0.592481 -0.286473
0.574365 0.592431 -0.286576
0.578211 0.591824 -0.286467
0.582051 0.591285 -0.286388
0.585902 0.592871 -0.287145
0.589760 0.593647 -0.287590
0.593487 0.586531 -0.284952
0.597263 0.584655 -0.284367
0.601198 0.589263 -0.286326
0.605431 0.601684 -0.291353
0.609346 0.602194 -0.291720
0.612763 0.590683 -0.287376
0.616563 0.589704 -0.287165
0.620551 0.592519 -0.288449
0.624393 0.592222 -0.288516
0.628013 0.588336 -0.287176
0.632185 0.593282 -0.289315
0.635925 0.591467 -0.288799
0.639618 0.589216 -0.288114
0.643454 0.588963 -0.288222
0.647324 0.589102 -0.288488
0.651234 0.589613 -0.288907
0.655173 0.590340 -0.289416
0.659029 0.590134 -0.289562
0.662638 0.587577 -0.288782
0.667114 0.593022 -0.291175
0.670968 0.592591 -0.291248
0.673982 0.585195 -0.288563
0.679053 0.594705 -0.292590
0.683338 0.597441 -0.293937
0.686627 0.592584 -0.292273
0.690637 0.593162 -0.292773
0.694625 0.593502 -0.293185
0.698281 0.591575 -0.292700
0.702040 0.590392 -0.292516
0.706534 0.593811 -0.294174
0.710880 0.596081 -0.295382
0.714858 0.596023 -0.295667
0.719005 0.596882 -0.296325
0.723391 0.598972 -0.297483
0.726397 0.593478 -0.295606
0.730221 0.592516 -0.295551
0.733065 0.586562 -0.293494
0.737851 0.590507 -0.295424
0.742280 0.592482 -0.296571
0.745711 0.589600 -0.295766
0.749711 0.589432 -0.296063
0.754189 0.591374 -0.297219
0.758475 0.592337 -0.297988
0.762610 0.592561 -0.298465
0.766744 0.592720 -0.298923
0.769351 0.586529 -0.296808
0.773527 0.586881 -0.297357
0.776753 0.583412 -0.296356
0.779286 0.577357 -0.294304
0.781940 0.571954 -0.292519
0.786579 0.574091 -0.293820
0.791357 0.576606 -0.295286
0.795699 0.577413 -0.296062
0.802088 0.585321 -0.299764
0.807048 0.587970 -0.301319
0.811423 0.588489 -0.302006
0.815264 0.587169 -0.301943
0.819207 0.586177 -0.302021
0.823303 0.585662 -0.302302
0.828818 0.589580 -0.304428
0.834620 0.594204 -0.306859
0.837805 0.590662 -0.305906
0.841402 0.588422 -0.305497
0.845049 0.586353 -0.305163
0.848412 0.583481 -0.304497
0.853086 0.584391 -0.305415
0.858004 0.585915 -0.306596
0.862949 0.587420 -0.307777
0.865245 0.581637 -0.305897
0.869653 0.581641 -0.306452
0.875019 0.584136 -0.308061
0.879648 0.584604 -0.308818
0.886644 0.591086 -0.312125
0.890023 0.588222 -0.311476
0.896796 0.593849 -0.314432
0.901649 0.594584 -0.315312
0.904605 0.590687 -0.314215
0.904822 0.580349 -0.310357
0.907249 0.575473 -0.308818
0.912860 0.578100 -0.310481
0.919870 0.583850 -0.313482
0.924935 0.585049 -0.314525
0.929860 0.585904 -0.315412
0.933968 0.584941 -0.315505
0.939046 0.586115 -0.316508
0.940390 0.579261 -0.314025
0.947015 0.583785 -0.316446
0.955818 0.592776 -0.320794
0.956930 0.585670 -0.318142
0.960482 0.583748 -0.317717
0.964263 0.582367 -0.317505
0.966657 0.578287 -0.316092
0.969224 0.574681 -0.314859
0.975121 0.577706 -0.316494
0.985076 0.588553 -0.321523
0.985619 0.581236 -0.318589
0.987533 0.576720 -0.316850
0.992242 0.577592 -0.317438
0.998107 0.580652 -0.318957
1.002210 0.580483 -0.319033
1.006398 0.580543 -0.319179
1.010252 0.580070 -0.319061
1.013957 0.579413 -0.318832
1.021174 0.585045 -0.321332
1.024474 0.583797 -0.320782
1.032670 0.591140 -0.323972
1.031985 0.583161 -0.320410
1.032314 0.577127 -0.317673
1.039000 0.582019 -0.319698
1.042639 0.581800 -0.319453
0.190088 0.581217 -0.286010
0.191324 0.585568 -0.288194
0.195097 0.584951 -0.288391
0.198419 0.585339 -0.288961
0.199692 0.590058 -0.291230
0.200929 0.595038 -0.293583
0.206444 0.591209 -0.292404
0.212396 0.586470 -0.290834
0.215382 0.588097 -0.291776
0.221379 0.583314 -0.290132
0.226682 0.580042 -0.289063
0.235753 0.568433 -0.284631
0.238394 0.571064 -0.285870
0.241670 0.572394 -0.286564
0.245584 0.572375 -0.286694
0.253477 0.563195 -0.283126
0.254068 0.580510 -0.290227
0.253616 0.591397 -0.294640
0.257783 0.591357 -0.294649
0.262481 0.590061 -0.294133
0.266659 0.590086 -0.294127
0.270044 0.592171 -0.294929
0.274920 0.590522 -0.294216
0.279357 0.590012 -0.293943
0.283350 0.590694 -0.294133
0.287887 0.589963 -0.293743
0.293625 0.585959 -0.292029
0.297459 0.587118 -0.292372
0.300235 0.591303 -0.293917
0.304810 0.590489 -0.293450
0.310059 0.587701 -0.292186
0.312541 0.592972 -0.294138
0.317371 0.591382 -0.293340
0.320998 0.593385 -0.293974
0.324809 0.594876 -0.294399
0.329670 0.593098 -0.293516
0.334253 0.592123 -0.292952
0.338459 0.592318 -0.292854
0.342534 0.592928 -0.292920
0.347655 0.589998 -0.291578
0.351953 0.589754 -0.291307
0.354581 0.595323 -0.293348
0.359134 0.594191 -0.292727
0.364532 0.589894 -0.290852
0.368886 0.589263 -0.290437
