ply
format ascii 1.0
comment ---
element vertex 1746
property float x
property float y
property float z
element face 0
property list uchar uint vertex_indices
end_header
0.163982 0.614435 0.082902
0.166022 0.612652 0.082694
0.167891 0.609913 0.082350
0.169689 0.606893 0.081966
0.171521 0.604206 0.081630
0.174547 0.608307 0.082271
0.177095 0.609576 0.082507
0.179527 0.610139 0.082643
0.181678 0.609195 0.082563
0.183530 0.606768 0.082271
0.186260 0.608748 0.082616
0.188723 0.609330 0.082760
0.190783 0.607965 0.082625
0.193218 0.608355 0.082746
0.195642 0.608650 0.082854
0.198044 0.608804 0.082944
0.200270 0.608168 0.082921
0.202297 0.606690 0.082777
0.204561 0.606220 0.082781
0.207303 0.607670 0.083067
0.209784 0.607996 0.083191
0.211588 0.605647 0.082926
0.214281 0.606744 0.083167
0.218058 0.611822 0.083992
0.219884 0.609514 0.083739
0.221782 0.607518 0.083533
0.224139 0.607182 0.083572
0.226868 0.608116 0.083800
0.229355 0.608158 0.083899
0.231846 0.608173 0.083997
0.234351 0.608200 0.084098
0.237261 0.609500 0.084389
0.239545 0.608727 0.084377
0.242014 0.608523 0.084450
0.245042 0.610013 0.084778
0.246928 0.607956 0.084580
0.249737 0.608684 0.084799
0.252266 0.608530 0.084888
0.253948 0.605894 0.084608
0.256092 0.604620 0.084533
0.257979 0.602634 0.084352
0.260287 0.601834 0.084350
0.263752 0.604180 0.084823
0.266701 0.605042 0.085074
0.269182 0.604614 0.085132
0.270974 0.602376 0.084918
0.273412 0.601837 0.084961
0.275898 0.601408 0.085021
0.279537 0.603854 0.085517
0.282266 0.603974 0.085661
0.285268 0.604736 0.085903
0.287927 0.604647 0.086015
0.290653 0.604711 0.086149
0.292913 0.603682 0.086114
0.295574 0.603603 0.086223
0.298617 0.604399 0.086464
0.301983 0.605909 0.086813
0.304403 0.605297 0.086832
0.307263 0.605684 0.087001
0.309572 0.604894 0.086985
0.312179 0.604786 0.087069
0.314658 0.604444 0.087111
0.317854 0.605645 0.087388
0.320315 0.605344 0.087425
0.322870 0.605290 0.087494
0.325351 0.605139 0.087541
0.327543 0.604469 0.087500
0.335703 0.615676 0.089303
-0.221316 0.603811 0.081130
-0.217348 0.601895 0.080849
-0.212704 0.598938 0.080412
-0.212558 0.603109 0.080985
-0.210213 0.603887 0.081066
-0.207869 0.604726 0.081149
-0.204943 0.604671 0.081098
-0.201783 0.604265 0.080991
-0.199196 0.604836 0.081018
-0.196668 0.605544 0.081058
-0.193378 0.604995 0.080916
-0.190892 0.605833 0.080965
-0.188576 0.606997 0.081058
-0.185544 0.606936 0.080973
-0.182223 0.606366 0.080813
-0.179703 0.607221 0.080852
-0.176912 0.607600 0.080823
-0.174399 0.608487 0.080863
-0.171570 0.608798 0.080820
-0.168528 0.608700 0.080720
-0.165371 0.608362 0.080585
-0.161946 0.607480 0.080375
-0.159427 0.608318 0.080405
-0.157008 0.609349 0.080463
-0.153758 0.608718 0.080289
-0.150930 0.608893 0.080229
-0.147809 0.608444 0.080083
-0.144945 0.608484 0.080006
-0.142469 0.609303 0.080039
-0.139784 0.609665 0.080010
-0.136622 0.608978 0.079838
-0.133924 0.609246 0.079799
-0.131024 0.609039 0.079697
-0.127971 0.608449 0.079543
-0.125080 0.608175 0.079436
-0.122237 0.607965 0.079339
-0.119775 0.608596 0.079360
-0.117377 0.609359 0.079401
-0.114865 0.609833 0.079405
-0.112016 0.609470 0.079295
-0.108731 0.607994 0.079035
-0.106004 0.607828 0.078957
-0.103591 0.608409 0.078983
-0.101237 0.609121 0.079029
-0.098869 0.609783 0.079070
-0.095978 0.609056 0.078924
-0.093259 0.608733 0.078834
-0.090905 0.609353 0.078875
-0.088546 0.609943 0.078914
-0.085858 0.609606 0.078828
-0.083256 0.609467 0.078771
-0.080790 0.609684 0.078765
-0.078470 0.610297 0.078814
-0.075862 0.610054 0.078748
-0.073151 0.609461 0.078636
-0.070593 0.609287 0.078583
-0.068116 0.609327 0.078561
-0.065642 0.609354 0.078539
-0.063231 0.609549 0.078541
-0.060988 0.610272 0.078616
-0.058166 0.609084 0.078433
-0.055970 0.609927 0.078527
-0.053204 0.608828 0.078359
-0.050942 0.609416 0.078421
-0.048709 0.610102 0.078498
-0.046334 0.610278 0.078507
-0.043896 0.610207 0.078484
-0.041293 0.609492 0.078375
-0.038954 0.609730 0.078396
-0.035831 0.606921 0.078006
-0.034846 0.612424 0.078742
-0.032031 0.610749 0.078507
-0.029510 0.610194 0.078425
-0.027676 0.612479 0.078729
-0.025627 0.613921 0.078919
-0.022879 0.612343 0.078702
-0.019476 0.607745 0.078077
-0.017266 0.608378 0.078161
-0.015120 0.609319 0.078287
-0.012933 0.610089 0.078391
-0.010584 0.610083 0.078391
-0.008302 0.610398 0.078435
-0.005908 0.610133 0.078401
-0.003716 0.610897 0.078507
-0.001545 0.611805 0.078634
0.000795 0.611800 0.078638
0.002953 0.612819 0.078780
0.005363 0.612399 0.078729
0.007553 0.613266 0.078853
0.010216 0.611220 0.078583
0.012589 0.610898 0.078547
0.014496 0.613624 0.078924
0.016843 0.613501 0.078916
0.019240 0.612998 0.078857
0.021824 0.611079 0.078607
0.024240 0.610285 0.078510
0.026113 0.613673 0.078980
0.028285 0.614870 0.079153
0.030525 0.615564 0.079259
0.032914 0.614987 0.079193
0.035237 0.614958 0.079202
0.037585 0.614659 0.079175
0.040016 0.613479 0.079028
0.042385 0.612827 0.078954
0.044686 0.612843 0.078970
0.047091 0.611619 0.078819
0.049512 0.610030 0.078618
0.051669 0.611730 0.078865
0.053985 0.611383 0.078833
0.056298 0.611021 0.078800
0.058601 0.610735 0.078778
0.060859 0.611190 0.078857
0.063131 0.611425 0.078906
0.065491 0.609812 0.078705
0.067777 0.609577 0.078691
0.070037 0.609932 0.078758
0.072361 0.608434 0.078573
0.074584 0.609974 0.078801
0.076864 0.609688 0.078782
0.079132 0.609791 0.078816
0.081416 0.608824 0.078705
0.083690 0.607893 0.078598
0.085937 0.610863 0.079024
0.088211 0.611436 0.079124
0.090483 0.610661 0.079040
0.092747 0.609869 0.078955
0.095014 0.609870 0.078978
0.097283 0.609962 0.079014
0.099560 0.610368 0.079093
0.101763 0.608033 0.078798
0.104072 0.609561 0.079032
0.106323 0.609195 0.079007
0.108535 0.607977 0.078866
0.110807 0.608285 0.078934
0.113049 0.607957 0.078916
0.115536 0.612031 0.079502
0.117705 0.610242 0.079284
0.119835 0.608123 0.079023
0.121995 0.606708 0.078858
0.124153 0.605430 0.078712
0.126577 0.607618 0.079043
0.128997 0.609521 0.079335
0.131532 0.612494 0.079776
0.133813 0.612456 0.079803
0.135853 0.609969 0.079495
0.137664 0.605470 0.078910
0.140988 0.615368 0.080308
0.142916 0.612037 0.079885
0.145049 0.610699 0.079738
0.147087 0.608680 0.079497
0.149707 0.611378 0.079908
0.151792 0.609801 0.079730
0.153748 0.607365 0.079434
0.157746 0.619564 0.081162
0.160239 0.620620 0.081351
0.162046 0.617035 0.080900
0.163814 0.613398 0.080442
0.165932 0.612140 0.080313
0.167865 0.609814 0.080038
0.170237 0.610190 0.080139
0.172671 0.610877 0.080284
0.173973 0.605179 0.079543
0.177088 0.609621 0.080213
0.179539 0.610291 0.080359
0.181880 0.610334 0.080420
0.183945 0.608963 0.080286
0.185797 0.606582 0.080011
0.187898 0.605481 0.079916
0.190974 0.608984 0.080467
0.193237 0.608569 0.080471
0.195595 0.608571 0.080535
0.197913 0.608367 0.080572
0.200241 0.608186 0.080614
0.202384 0.607204 0.080545
0.205002 0.608195 0.080755
0.207383 0.608151 0.080821
0.210060 0.609256 0.081052
0.211533 0.605603 0.080612
0.213669 0.604584 0.080546
0.217942 0.611567 0.081613
0.219672 0.608919 0.081321
0.221544 0.606849 0.081112
0.223249 0.604225 0.080825
0.226545 0.607191 0.081334
0.228379 0.605024 0.081115
0.232012 0.608936 0.081765
0.234739 0.609688 0.081967
0.237111 0.609228 0.081997
0.239431 0.608581 0.082004
0.241964 0.608590 0.082106
0.243904 0.606729 0.081941
0.246369 0.606487 0.082011
0.249961 0.609584 0.082563
0.252827 0.610413 0.082792
0.254866 0.608785 0.082668
0.256640 0.606420 0.082438
0.259250 0.606437 0.082554
0.262554 0.608342 0.082947
0.263991 0.605072 0.082589
0.266316 0.604251 0.082587
0.268987 0.604339 0.082719
0.271528 0.604059 0.082799
0.274261 0.604254 0.082949
0.277313 0.605230 0.083214
0.280574 0.606679 0.083549
0.283504 0.607254 0.083757
0.286044 0.606853 0.083821
0.288682 0.606683 0.083919
0.291388 0.606671 0.084039
0.294287 0.607103 0.084223
0.296922 0.606917 0.084315
0.299516 0.606645 0.084392
0.302594 0.607477 0.084630
0.304845 0.606465 0.084591
0.307523 0.606431 0.084694
0.309808 0.605570 0.084669
0.312488 0.605602 0.084773
0.314903 0.605106 0.084794
0.317522 0.605083 0.084880
0.320119 0.605058 0.084959
0.323049 0.605762 0.085142
0.325220 0.604965 0.085093
0.327852 0.605164 0.085187
0.332897 0.610191 0.086002
-0.222705 0.606107 0.078895
-0.216881 0.601334 0.078232
-0.215525 0.603549 0.078522
-0.212888 0.603825 0.078538
-0.210611 0.604730 0.078634
-0.208115 0.605341 0.078682
-0.205908 0.606477 0.078797
-0.201812 0.604554 0.078486
-0.199139 0.604993 0.078494
-0.196084 0.604824 0.078414
-0.193295 0.605126 0.078394
-0.191019 0.606334 0.078493
-0.188708 0.607518 0.078585
-0.185442 0.607056 0.078450
-0.182314 0.606834 0.078345
-0.179410 0.607008 0.078292
-0.177056 0.608179 0.078372
-0.174702 0.609367 0.078452
-0.171110 0.608270 0.078223
-0.168302 0.608605 0.078186
-0.165911 0.609724 0.078255
-0.161786 0.607508 0.077874
-0.159094 0.608008 0.077860
-0.156587 0.608857 0.077893
-0.153909 0.609359 0.077880
-0.150963 0.609302 0.077792
-0.148005 0.609187 0.077699
-0.145167 0.609285 0.077634
-0.142844 0.610432 0.077712
-0.139310 0.609002 0.077447
-0.136535 0.609132 0.077392
-0.133402 0.608450 0.077230
-0.131087 0.609517 0.077303
-0.127899 0.608625 0.077118
-0.124612 0.607452 0.076897
-0.122076 0.607930 0.076897
-0.119656 0.608652 0.076932
-0.117113 0.609070 0.076928
-0.114382 0.609011 0.076863
-0.111823 0.609331 0.076850
-0.108900 0.608732 0.076717
-0.106253 0.608767 0.076670
-0.103678 0.608947 0.076645
-0.101320 0.609651 0.076690
-0.098947 0.610303 0.076730
-0.095779 0.608851 0.076495
-0.092898 0.608088 0.076353
-0.090647 0.608970 0.076429
-0.088415 0.609896 0.076513
-0.085846 0.609881 0.076475
-0.083036 0.609153 0.076344
-0.080585 0.609401 0.076344
-0.078258 0.609986 0.076389
-0.075865 0.610362 0.076409
-0.073274 0.610130 0.076351
-0.070601 0.609608 0.076256
-0.067915 0.609003 0.076152
-0.065463 0.609086 0.076139
-0.063358 0.610250 0.076270
-0.061029 0.610700 0.076308
-0.057664 0.607717 0.075899
-0.055452 0.608478 0.075981
-0.053134 0.608876 0.076017
-0.050851 0.609389 0.076069
-0.048673 0.610263 0.076169
-0.046252 0.610269 0.076157
-0.043821 0.610219 0.076139
-0.041457 0.610391 0.076151
-0.039142 0.610734 0.076187
-0.035495 0.605900 0.075548
-0.034772 0.612417 0.076392
-0.032722 0.613821 0.076569
-0.030213 0.613373 0.076505
-0.028157 0.614788 0.076686
-0.025635 0.614240 0.076612
-0.023134 0.613748 0.076545
-0.019585 0.608519 0.075862
-0.017214 0.608425 0.075849
-0.015072 0.609383 0.075975
-0.012958 0.610498 0.076122
-0.010651 0.610704 0.076151
-0.008068 0.609517 0.075999
-0.006056 0.611188 0.076220
-0.003875 0.612037 0.076335
-0.001040 0.609369 0.075992
0.001089 0.610466 0.076141
0.003274 0.611286 0.076254
0.005712 0.610657 0.076179
0.008635 0.607034 0.075714
0.010976 0.606808 0.075692
0.013325 0.606496 0.075660
0.015981 0.604114 0.075358
0.018311 0.603794 0.075326
0.020311 0.605768 0.075594
0.022631 0.605518 0.075572
0.024795 0.606418 0.075700
0.027252 0.605070 0.075536
0.029620 0.604331 0.075451
0.031824 0.604902 0.075538
0.034042 0.605388 0.075615
0.036493 0.603741 0.075413
0.038731 0.603985 0.075458
0.041018 0.603749 0.075441
0.043254 0.604007 0.075490
0.045465 0.604555 0.075576
0.047861 0.602968 0.075384
0.050145 0.602571 0.075347
0.052175 0.605484 0.075745
0.054153 0.609512 0.076289
0.056323 0.611180 0.076524
0.058533 0.612423 0.076704
0.060768 0.613410 0.076851
0.063106 0.612551 0.076757
0.065499 0.610349 0.076486
0.067808 0.609592 0.076405
0.070087 0.609430 0.076403
0.072337 0.610085 0.076508
0.074633 0.609299 0.076425
0.076899 0.609414 0.076460
0.079173 0.609159 0.076446
0.081451 0.608396 0.076367
0.083707 0.609113 0.076482
0.085953 0.613181 0.077039
0.088237 0.612089 0.076917
0.090511 0.611322 0.076838
0.092781 0.610804 0.076793
0.095023 0.608783 0.076550
0.097273 0.608173 0.076493
0.099537 0.608415 0.076549
0.101824 0.609396 0.076702
0.104081 0.609211 0.076703
0.106332 0.608882 0.076685
0.108577 0.608512 0.076661
0.110852 0.608839 0.076731
0.113134 0.609244 0.076811
0.115453 0.610244 0.076971
0.117733 0.610435 0.077024
0.119857 0.608227 0.076760
0.121886 0.604945 0.076355
0.124199 0.605858 0.076505
0.126464 0.606050 0.076561
0.127889 0.596258 0.075293
0.130690 0.602937 0.076210
0.132690 0.600387 0.075903
0.134946 0.600676 0.075974
0.137034 0.599296 0.075824
0.139403 0.600624 0.076035
0.141634 0.600602 0.076067
0.143900 0.600869 0.076138
0.146528 0.604067 0.076600
0.148818 0.604347 0.076675
0.150640 0.601032 0.076272
0.152847 0.600752 0.076273
0.155042 0.600396 0.076266
0.157941 0.604870 0.076905
0.160149 0.604453 0.076892
0.162432 0.604525 0.076945
0.164768 0.604904 0.077040
0.167147 0.605504 0.077166
0.169117 0.603638 0.076963
0.171058 0.601684 0.076749
0.175598 0.614326 0.078495
0.177086 0.609688 0.077924
0.179380 0.609533 0.077955
0.181883 0.610442 0.078131
0.184271 0.610703 0.078221
0.186230 0.608813 0.078023
0.187974 0.605949 0.077694
0.190771 0.608140 0.078049
0.193040 0.607779 0.078061
0.195399 0.607813 0.078128
0.197940 0.608612 0.078300
0.199709 0.606032 0.078016
0.202630 0.608378 0.078401
0.205227 0.609263 0.078590
0.207603 0.609190 0.078650
0.210578 0.611463 0.079032
0.212414 0.609186 0.078797
0.214811 0.609101 0.078861
0.217145 0.608752 0.078891
0.219540 0.608608 0.078951
0.221495 0.606849 0.078792
0.223825 0.606443 0.078819
0.226323 0.606603 0.078927
0.228858 0.606851 0.079048
0.231861 0.608624 0.079381
0.234326 0.608523 0.079459
0.236810 0.608455 0.079543
0.239387 0.608646 0.079665
0.241485 0.607294 0.079575
0.243220 0.604827 0.079332
0.246002 0.605585 0.079539
0.248977 0.606860 0.079819
0.252370 0.609289 0.080262
0.254953 0.609260 0.080366
0.257027 0.607747 0.080263
0.259929 0.608572 0.080490
0.261957 0.606920 0.080371
0.264093 0.605578 0.080296
0.266347 0.604563 0.080268
0.269146 0.604990 0.080444
0.272749 0.607474 0.080911
0.276256 0.609613 0.081333
0.278944 0.609592 0.081449
0.281828 0.610041 0.081633
0.284180 0.609147 0.081627
0.286543 0.608288 0.081625
0.288964 0.607578 0.081643
0.292209 0.608828 0.081941
0.294839 0.608602 0.082027
0.296976 0.607245 0.081949
0.299753 0.607382 0.082083
0.302087 0.606527 0.082072
0.306370 0.610027 0.082686
0.307974 0.607591 0.082441
0.309785 0.605683 0.082268
0.312010 0.604732 0.082228
0.315358 0.606207 0.082536
0.317716 0.605617 0.082538
0.320197 0.605336 0.082581
0.322265 0.604263 0.082501
0.324741 0.604090 0.082547
0.327921 0.605379 0.082799
0.331951 0.608384 0.083294
-0.218103 0.599156 0.075414
-0.217500 0.602464 0.075845
-0.215252 0.603300 0.075941
-0.212965 0.604139 0.076032
-0.210508 0.604770 0.076088
-0.208412 0.606039 0.076222
-0.203478 0.602736 0.075747
-0.202825 0.606465 0.076194
-0.198925 0.604886 0.075937
-0.196217 0.605308 0.075938
-0.193578 0.605876 0.075955
-0.190980 0.606543 0.075980
-0.188454 0.607362 0.076022
-0.186116 0.608534 0.076107
-0.182449 0.607373 0.075885
-0.179424 0.607336 0.075807
-0.177121 0.608607 0.075899
-0.172958 0.606476 0.075546
-0.170213 0.606920 0.075527
-0.168100 0.608548 0.075662
-0.165492 0.609252 0.075677
-0.163294 0.610742 0.075793
-0.158832 0.607827 0.075338
-0.156287 0.608597 0.075362
-0.153704 0.609284 0.075375
-0.150286 0.608266 0.075169
-0.147821 0.609145 0.075210
-0.145104 0.609487 0.075182
-0.142870 0.610819 0.075282
-0.139602 0.609954 0.075102
-0.135654 0.607569 0.074728
-0.132934 0.607762 0.074687
-0.130538 0.608637 0.074735
-0.127566 0.608211 0.074618
-0.124614 0.607782 0.074503
-0.122066 0.608231 0.074502
-0.119588 0.608818 0.074520
-0.116954 0.609018 0.074491
-0.114169 0.608824 0.074413
-0.111647 0.609225 0.074413
-0.109115 0.609577 0.074409
-0.106341 0.609301 0.074327
-0.103861 0.609721 0.074334
-0.101281 0.609864 0.074309
-0.098476 0.609392 0.074207
-0.095456 0.608309 0.074030
-0.092871 0.608319 0.073993
-0.090339 0.608440 0.073972
-0.088079 0.609277 0.074043
-0.085638 0.609603 0.074052
-0.082689 0.608472 0.073877
-0.080411 0.609199 0.073939
-0.078258 0.610281 0.074048
-0.075778 0.610401 0.074037
-0.073208 0.610223 0.073989
-0.070532 0.609689 0.073898
-0.068072 0.609777 0.073887
-0.065256 0.608721 0.073734
-0.063296 0.610340 0.073918
-0.060903 0.610577 0.073930
-0.057966 0.608997 0.073715
-0.055415 0.608635 0.073654
-0.053145 0.609198 0.073711
-0.050879 0.609768 0.073770
-0.048394 0.609555 0.073732
-0.046139 0.610144 0.073795
-0.043747 0.610226 0.073796
-0.041150 0.609521 0.073699
-0.038917 0.610155 0.073772
-0.035771 0.607247 0.073401
-0.035051 0.613801 0.074219
-0.032887 0.614770 0.074337
-0.030597 0.615236 0.074392
-0.028252 0.615467 0.074419
-0.025944 0.615851 0.074466
-0.023160 0.614142 0.074251
-0.019699 0.609307 0.073644
-0.017271 0.608968 0.073602
-0.015091 0.609753 0.073703
-0.012902 0.610516 0.073802
-0.010033 0.607959 0.073484
-0.007655 0.607726 0.073459
-0.005957 0.610969 0.073871
-0.003805 0.611957 0.074001
-0.001434 0.611795 0.073987
0.000905 0.611786 0.073993
0.003102 0.612569 0.074099
0.005853 0.610126 0.073800
0.008653 0.607228 0.073444
0.010809 0.608156 0.073570
0.013125 0.608087 0.073571
0.015541 0.607344 0.073487
0.017562 0.609238 0.073736
0.019976 0.608457 0.073649
0.022148 0.609381 0.073777
0.024560 0.608543 0.073684
0.026879 0.608352 0.073672
0.029223 0.607919 0.073631
0.031510 0.607927 0.073645
0.033635 0.609360 0.073840
0.035914 0.609473 0.073868
0.038074 0.610731 0.074041
0.040666 0.607707 0.073675
0.042885 0.608346 0.073771
0.044961 0.610631 0.074075
0.047377 0.609137 0.073902
0.049712 0.608447 0.073832
0.052061 0.607482 0.073726
0.054243 0.608738 0.073902
0.056419 0.610246 0.074110
0.058625 0.611487 0.074285
0.060813 0.613223 0.074522
0.062938 0.616479 0.074953
0.065529 0.610393 0.074202
0.067877 0.608719 0.074009
0.070120 0.609394 0.074114
0.072368 0.610096 0.074222
0.074615 0.611026 0.074360
0.079211 0.608689 0.074105
0.081475 0.608659 0.074122
0.083733 0.609217 0.074214
0.085988 0.611476 0.074523
0.088264 0.613133 0.074756
0.090543 0.612544 0.074703
0.092817 0.612046 0.074663
0.095092 0.611931 0.074672
0.097298 0.608230 0.074225
0.099575 0.609064 0.074355
0.101826 0.608673 0.074330
0.104154 0.610765 0.074621
0.106357 0.608998 0.074422
0.108635 0.609402 0.074499
0.110905 0.609558 0.074545
0.113164 0.609483 0.074563
0.115484 0.610478 0.074717
0.117762 0.610636 0.074765
0.119859 0.608016 0.074459
0.121883 0.604698 0.074064
0.124162 0.605178 0.074155
0.126501 0.606345 0.074334
0.128734 0.606115 0.074335
0.131121 0.607635 0.074561
0.133419 0.608039 0.074645
0.135648 0.607702 0.074634
0.137684 0.605505 0.074386
0.140118 0.607180 0.074635
0.142411 0.607445 0.074704
0.144636 0.607093 0.074694
0.146876 0.606885 0.074704
0.149327 0.608335 0.074928
0.151588 0.608219 0.074951
0.153762 0.607463 0.074893
0.155978 0.607036 0.074878
0.158226 0.606833 0.074893
0.160360 0.605874 0.074811
0.162466 0.604771 0.074711
0.164850 0.605451 0.074843
0.167128 0.605430 0.074885
0.169556 0.606270 0.075040
0.171928 0.606727 0.075146
0.174995 0.611020 0.075751
0.177013 0.609354 0.075585
0.179208 0.608693 0.075550
0.181726 0.609707 0.075734
0.184187 0.610364 0.075873
0.186602 0.610733 0.075976
0.188169 0.606986 0.075545
0.190554 0.607221 0.075633
0.193078 0.608063 0.075802
0.195465 0.608222 0.075883
0.197772 0.607992 0.075915
0.200141 0.608014 0.075982
0.202265 0.606971 0.075910
0.205019 0.608542 0.076183
0.207565 0.609175 0.076335
0.210479 0.611214 0.076673
0.213029 0.611725 0.076812
0.214889 0.609553 0.076601
0.217345 0.609660 0.076690
0.219628 0.609095 0.076693
0.221630 0.607501 0.076562
0.224062 0.607453 0.076636
0.226539 0.607530 0.076729
0.229331 0.608644 0.076962
0.231711 0.608303 0.077003
0.234087 0.607922 0.077041
0.236732 0.608393 0.077194
0.239299 0.608563 0.077309
0.241677 0.608094 0.077341
0.243922 0.607196 0.077317
0.246571 0.607519 0.077459
0.248716 0.606287 0.077393
0.249571 0.601261 0.076819
0.251885 0.600585 0.076831
0.256460 0.606345 0.077712
0.258657 0.605213 0.077666
0.260989 0.604457 0.077672
0.263887 0.605234 0.077886
0.266385 0.604885 0.077950
0.269252 0.605490 0.078145
0.274608 0.612542 0.079219
0.276937 0.611586 0.079205
0.278995 0.609943 0.079097
0.281631 0.609767 0.079190
0.284007 0.608937 0.079193
0.285658 0.606349 0.078954
0.288744 0.607261 0.079196
0.292477 0.609668 0.079644
0.294041 0.606940 0.079382
0.296016 0.605228 0.079258
0.299145 0.606189 0.079503
0.303334 0.609511 0.080073
0.306122 0.609655 0.080201
0.308800 0.609569 0.080294
0.309495 0.605212 0.079787
0.311510 0.603810 0.079687
0.315482 0.606607 0.080170
0.317881 0.606088 0.080185
0.320130 0.605312 0.080159
0.322875 0.605613 0.080277
0.325065 0.604834 0.080238
0.327208 0.604031 0.080190
0.329536 0.603671 0.080196
-0.217257 0.598003 0.072744
-0.217259 0.602254 0.073277
-0.214793 0.602757 0.073328
-0.212617 0.603778 0.073438
-0.210511 0.604977 0.073565
-0.207077 0.604092 0.073421
-0.204183 0.604112 0.073387
-0.200236 0.602425 0.073132
-0.198642 0.604660 0.073368
-0.196399 0.605869 0.073470
-0.193362 0.605772 0.073403
-0.190939 0.606746 0.073467
-0.188575 0.607852 0.073545
-0.186020 0.608654 0.073582
-0.182970 0.608592 0.073508
-0.179764 0.608247 0.073396
-0.176192 0.607220 0.073198
-0.174285 0.609226 0.073378
-0.171088 0.608861 0.073261
-0.167656 0.608027 0.073085
-0.165232 0.609075 0.073144
-0.161906 0.608387 0.072986
-0.158848 0.608178 0.072889
-0.156288 0.608921 0.072910
-0.152997 0.608193 0.072750
-0.149738 0.607481 0.072592
-0.147388 0.608581 0.072660
-0.144414 0.608383 0.072569
-0.141841 0.608984 0.072578
-0.138814 0.608604 0.072467
-0.135965 0.608559 0.072399
-0.133173 0.608602 0.072343
-0.130441 0.608742 0.072301
-0.127696 0.608819 0.072253
-0.124893 0.608730 0.072186
-0.121814 0.607969 0.072039
-0.119470 0.608858 0.072096
-0.116845 0.609073 0.072072
-0.114060 0.608874 0.071999
-0.111539 0.609274 0.072001
-0.109143 0.609954 0.072039
-0.106343 0.609613 0.071954
-0.103765 0.609783 0.071933
-0.101117 0.609748 0.071889
-0.097898 0.608196 0.071662
-0.095401 0.608464 0.071658
-0.093055 0.609106 0.071702
-0.090516 0.609213 0.071682
-0.087909 0.609106 0.071638
-0.085500 0.609512 0.071657
-0.083041 0.609757 0.071659
-0.080196 0.608872 0.071525
-0.078102 0.610116 0.071651
-0.075838 0.610865 0.071718
-0.073070 0.610096 0.071603
-0.070544 0.610010 0.071572
-0.068227 0.610541 0.071617
-0.065203 0.608835 0.071392
-0.063012 0.609710 0.071482
-0.060556 0.609728 0.071468
-0.057838 0.608854 0.071349
-0.055524 0.609279 0.071387
-0.053230 0.609763 0.071434
-0.050628 0.609169 0.071352
-0.048244 0.609300 0.071358
-0.046052 0.610105 0.071447
-0.043738 0.610469 0.071484
-0.041151 0.609802 0.071397
-0.038427 0.608564 0.071243
-0.035717 0.607311 0.071087
-0.034456 0.611723 0.071617
-0.032299 0.612671 0.071730
-0.030196 0.613860 0.071872
-0.028282 0.615872 0.072114
-0.026150 0.617015 0.072253
-0.023262 0.614869 0.071995
-0.019507 0.608727 0.071255
-0.017371 0.609701 0.071375
-0.014947 0.609357 0.071337
-0.012680 0.609730 0.071386
-0.010099 0.608564 0.071250
-0.007845 0.608963 0.071304
-0.005780 0.610343 0.071477
-0.004478 0.615801 0.072144
-0.001572 0.612833 0.071793
0.000692 0.613268 0.071854
0.002902 0.614014 0.071953
0.005554 0.612183 0.071740
0.008281 0.609783 0.071460
0.010619 0.609644 0.071453
0.012937 0.609609 0.071460
0.015280 0.609388 0.071444
0.017584 0.609405 0.071458
0.019884 0.609435 0.071474
0.022266 0.608850 0.071416
0.024605 0.608535 0.071391
0.026810 0.609234 0.071489
0.029140 0.608951 0.071468
0.031370 0.609476 0.071546
0.033624 0.609820 0.071603
0.035881 0.610153 0.071658
0.038336 0.608579 0.071482
0.040543 0.609354 0.071592
0.042919 0.608399 0.071492
0.045035 0.610229 0.071731
0.047359 0.609790 0.071694
0.049830 0.607438 0.071426
0.051906 0.610028 0.071758
0.054176 0.610204 0.071797
0.056405 0.611004 0.071912
0.058775 0.609590 0.071759
0.061035 0.609870 0.071811
0.063100 0.613978 0.072330
0.065604 0.609489 0.071803
0.067896 0.609036 0.071767
0.070207 0.607906 0.071650
0.072400 0.610068 0.071933
0.074647 0.610955 0.072062
0.076910 0.611493 0.072148
0.079234 0.609016 0.071867
0.081500 0.608886 0.071873
0.083763 0.609028 0.071912
0.086016 0.611311 0.072213
0.088290 0.612429 0.072372
0.090570 0.612621 0.072418
0.092844 0.612123 0.072381
0.095105 0.611106 0.072280
0.097388 0.611739 0.072382
0.099602 0.609200 0.072095
0.101838 0.608322 0.072012
0.104103 0.608553 0.072066
0.106428 0.610319 0.072307
0.108697 0.610405 0.072344
0.110948 0.610053 0.072327
0.113227 0.610320 0.072387
0.115614 0.612454 0.072677
0.117836 0.611568 0.072596
0.119926 0.608785 0.072282
0.122044 0.606754 0.072061
0.124274 0.606472 0.072056
0.126512 0.606306 0.072065
0.128660 0.605089 0.071946
0.131148 0.607806 0.072312
0.133483 0.608608 0.072442
0.135722 0.608338 0.072441
0.137935 0.607839 0.072413
0.140285 0.608646 0.072546
0.142487 0.608048 0.072507
0.144710 0.607671 0.072496
0.147009 0.607925 0.072563
0.149386 0.608763 0.072704
0.151621 0.608446 0.072702
0.153855 0.608125 0.072701
0.156039 0.607460 0.072658
0.158292 0.607285 0.072677
0.160631 0.607682 0.072767
0.162922 0.607725 0.072815
0.164863 0.605555 0.072588
0.167375 0.606961 0.072807
0.169708 0.607209 0.072883
0.171996 0.607161 0.072923
0.174443 0.607984 0.073073
0.176996 0.609320 0.073289
0.179163 0.608516 0.073238
0.181590 0.609074 0.073359
0.184134 0.610168 0.073549
0.186626 0.610933 0.073698
0.188121 0.606840 0.073240
0.190709 0.608043 0.073447
0.193135 0.608418 0.073552
0.195549 0.608701 0.073646
0.197886 0.608601 0.073694
0.200195 0.608359 0.073726
0.202485 0.608014 0.073746
0.204962 0.608430 0.073863
0.207562 0.609292 0.074039
0.210590 0.611788 0.074423
0.212695 0.610566 0.074338
0.215077 0.610413 0.074391
0.217574 0.610664 0.074496
0.219119 0.607375 0.074153
0.221706 0.607931 0.074300
0.224015 0.607448 0.074317
0.226663 0.608125 0.074484
0.228908 0.607367 0.074469
0.231633 0.608212 0.074661
0.233961 0.607681 0.074679
0.236262 0.607045 0.074685
0.239596 0.609692 0.075114
0.241535 0.607835 0.074967
0.244209 0.608273 0.075116
0.246865 0.608607 0.075255
0.248710 0.606464 0.075075
0.249844 0.602262 0.074628
0.253477 0.605397 0.075135
0.256128 0.605601 0.075263
0.258612 0.605292 0.075326
0.260883 0.604371 0.075310
0.263485 0.604346 0.075413
0.266450 0.605267 0.075641
0.268846 0.604624 0.075666
0.271029 0.603416 0.075617
0.274325 0.605077 0.075946
0.276848 0.604706 0.076009
0.279320 0.604197 0.076053
0.281507 0.602977 0.076004
0.283801 0.602035 0.075992
0.286111 0.601144 0.075985
0.289690 0.603269 0.076379
0.293043 0.604801 0.076693
0.297589 0.609043 0.077369
0.300484 0.609419 0.077529
0.301102 0.604672 0.077001
0.304592 0.606428 0.077340
0.308654 0.609410 0.077842
0.309534 0.605448 0.077408
0.311876 0.604734 0.077407
0.314936 0.605587 0.077612
0.317859 0.606165 0.077776
0.320157 0.605481 0.077765
0.322522 0.604991 0.077775
0.325182 0.605158 0.077867
0.327611 0.604912 0.077898
0.332752 0.610097 0.078660
-0.220031 0.602442 0.070767
-0.216881 0.601832 0.070687
-0.214957 0.603193 0.070841
-0.212444 0.603694 0.070884
-0.210018 0.604389 0.070945
-0.207615 0.605176 0.071011
-0.204799 0.605341 0.070997
-0.201961 0.605506 0.070978
-0.199197 0.605826 0.070973
-0.195872 0.605231 0.070853
-0.193410 0.606112 0.070909
-0.190724 0.606642 0.070918
-0.188415 0.607848 0.071006
-0.185818 0.608578 0.071035
-0.182277 0.607645 0.070860
-0.179638 0.608312 0.070877
-0.175795 0.606794 0.070630
-0.173517 0.608112 0.070722
-0.171013 0.609023 0.070765
-0.167865 0.608727 0.070663
-0.165084 0.609102 0.070641
-0.161804 0.608500 0.070502
-0.158941 0.608672 0.070456
-0.156135 0.608934 0.070422
-0.153707 0.609928 0.070475
-0.149421 0.607154 0.070081
-0.147136 0.608381 0.070164
-0.144416 0.608700 0.070140
-0.141555 0.608698 0.070079
-0.138815 0.608919 0.070046
-0.136109 0.609181 0.070020
-0.133386 0.609379 0.069987
-0.130550 0.609292 0.069922
-0.127722 0.609187 0.069857
-0.125090 0.609485 0.069841
-0.121246 0.606971 0.069496
-0.118832 0.607680 0.069531
-0.116735 0.609119 0.069654
-0.113882 0.608754 0.069567
-0.111452 0.609364 0.069596
-0.108709 0.609189 0.069534
-0.106121 0.609357 0.069515
-0.103756 0.610058 0.069559
-0.101202 0.610260 0.069547
-0.098001 0.608754 0.069337
-0.095399 0.608748 0.069303
-0.093112 0.609549 0.069366
-0.090771 0.610191 0.069411
-0.088153 0.610060 0.069368
-0.085535 0.609894 0.069322
-0.082887 0.609606 0.069264
-0.080370 0.609653 0.069246
-0.078061 0.610278 0.069296
-0.075711 0.610769 0.069333
-0.072942 0.609990 0.069223
-0.070205 0.609254 0.069120
-0.068092 0.610399 0.069236
-0.066041 0.611748 0.069378
-0.063030 0.610044 0.069166
-0.060644 0.610288 0.069181
-0.058033 0.609770 0.069109
-0.055430 0.609234 0.069037
-0.053177 0.609853 0.069099
-0.050378 0.608570 0.068942
-0.048152 0.609244 0.069013
-0.046017 0.610249 0.069124
-0.043744 0.610758 0.069178
-0.041174 0.610155 0.069104
-0.038442 0.608887 0.068953
-0.035794 0.607876 0.068834
-0.034522 0.612252 0.069340
-0.031969 0.611610 0.069265
-0.028933 0.608928 0.068954
-0.027785 0.614056 0.069551
-0.025894 0.616190 0.069800
-0.023331 0.615446 0.069717
-0.020463 0.613280 0.069469
-0.017094 0.608708 0.068943
-0.014864 0.609243 0.069010
-0.012584 0.609549 0.069051
-0.010432 0.610475 0.069165
-0.007946 0.609751 0.069088
-0.005594 0.609667 0.069085
-0.003335 0.610049 0.069138
-0.000890 0.609425 0.069074
0.000690 0.613567 0.069565
0.003005 0.613720 0.069592
0.005410 0.613330 0.069558
0.008177 0.610708 0.069264
0.010549 0.610383 0.069237
0.012966 0.609725 0.069173
0.015232 0.610012 0.069218
0.017600 0.609611 0.069185
0.020027 0.608745 0.069097
0.022270 0.609145 0.069157
0.024540 0.609358 0.069196
0.026848 0.609277 0.069201
0.029091 0.609702 0.069265
0.031392 0.609650 0.069274
0.033687 0.609627 0.069287
0.036073 0.608747 0.069200
0.038299 0.609329 0.069284
0.040674 0.608424 0.069195
0.043059 0.607317 0.069082
0.045217 0.608618 0.069251
0.047561 0.607837 0.069178
0.049725 0.609211 0.069356
0.051930 0.610202 0.069489
0.054048 0.612534 0.069780
0.056462 0.610666 0.069581
0.058757 0.610443 0.069573
0.061136 0.608672 0.069386
0.063340 0.609967 0.069557
0.065644 0.609349 0.069504
0.067940 0.608740 0.069453
0.070205 0.608807 0.069481
0.072433 0.609985 0.069640
0.074701 0.610111 0.069675
0.076990 0.609359 0.069608
0.079262 0.609084 0.069598
0.081525 0.609178 0.069630
0.083793 0.608746 0.069602
0.086037 0.612921 0.070114
0.088317 0.612722 0.070114
0.090587 0.610804 0.069912
0.092855 0.610678 0.069920
0.095142 0.611908 0.070089
0.097381 0.610086 0.069899
0.099614 0.608711 0.069761
0.101868 0.608578 0.069771
0.104171 0.609935 0.069956
0.106456 0.610498 0.070048
0.108735 0.610799 0.070109
0.111019 0.611139 0.070176
0.113241 0.610215 0.070094
0.115612 0.612083 0.070342
0.117977 0.613569 0.070546
0.120064 0.610618 0.070225
0.122212 0.608903 0.070051
0.124475 0.608933 0.070084
0.126684 0.608282 0.070037
0.128723 0.605674 0.069759
0.130968 0.605640 0.069785
0.133546 0.609145 0.070233
0.135796 0.608985 0.070246
0.137998 0.608353 0.070204
0.140406 0.609676 0.070394
0.142679 0.609678 0.070429
0.145082 0.610778 0.070595
0.147125 0.608823 0.070398
0.149361 0.608526 0.070399
0.151869 0.610297 0.070647
0.153905 0.608473 0.070468
0.156073 0.607683 0.070412
0.158309 0.607398 0.070418
0.160792 0.608750 0.070620
0.163122 0.609019 0.070694
0.165423 0.609070 0.070742
0.167696 0.608933 0.070769
0.169829 0.607953 0.070696
0.171975 0.607076 0.070637
0.174779 0.609905 0.071023
0.176707 0.607796 0.070817
0.178991 0.607661 0.070849
0.181470 0.608516 0.071002
0.184205 0.610596 0.071304
0.186593 0.610840 0.071386
0.187797 0.605356 0.070778
0.190693 0.608049 0.071157
0.192937 0.607597 0.071159
0.195418 0.608203 0.071289
0.198116 0.609714 0.071531
0.200368 0.609207 0.071530
0.202540 0.608355 0.071488
0.204812 0.607922 0.071499
0.207121 0.607624 0.071527
0.210601 0.611956 0.072121
0.212648 0.610509 0.072013
0.215081 0.610561 0.072089
0.217292 0.609744 0.072060
0.219323 0.608264 0.071952
0.221399 0.606968 0.071867
0.223441 0.605562 0.071771
0.226138 0.606449 0.071957
0.228789 0.607118 0.072118
0.231378 0.607518 0.072249
0.233817 0.607371 0.072313
0.236111 0.606725 0.072318
0.238951 0.607806 0.072538
0.241451 0.607746 0.072619
0.243820 0.607250 0.072648
0.246401 0.607376 0.072755
0.248594 0.606302 0.072715
0.250433 0.604183 0.072546
0.253613 0.605982 0.072867
0.256277 0.606218 0.072995
0.259182 0.607090 0.073204
0.261527 0.606350 0.073213
0.264790 0.608103 0.073536
0.267070 0.607132 0.073519
0.269373 0.606220 0.073509
0.272400 0.607193 0.073739
0.275385 0.608004 0.073949
0.277931 0.607652 0.074013
0.279480 0.604795 0.073759
0.283119 0.607149 0.074168
0.285601 0.606608 0.074209
0.287940 0.605722 0.074205
0.290853 0.606208 0.074376
0.295844 0.611531 0.075166
0.298657 0.611688 0.075295
0.299459 0.607260 0.074832
0.300159 0.602720 0.074351
0.304895 0.607262 0.075038
0.308405 0.609020 0.075365
0.309618 0.605777 0.075042
0.311988 0.605112 0.075048
0.315011 0.605874 0.075236
0.317864 0.606295 0.075376
0.320089 0.605449 0.075346
0.323094 0.606258 0.075526
0.324918 0.604712 0.075394
0.328115 0.605995 0.075626
0.332091 0.608852 0.076057
-0.218907 0.600859 0.068044
-0.217321 0.602683 0.068251
-0.215185 0.603728 0.068362
-0.212048 0.603252 0.068291
-0.209833 0.604291 0.068390
-0.207272 0.604830 0.068425
-0.204241 0.604647 0.068373
-0.201168 0.604424 0.068311
-0.198644 0.605141 0.068354
-0.196171 0.605981 0.068407
-0.193486 0.606497 0.068419
-0.190898 0.607203 0.068450
-0.187628 0.606745 0.068344
-0.185104 0.607595 0.068387
-0.181842 0.607149 0.068278
-0.178754 0.607004 0.068203
-0.176203 0.607824 0.068237
-0.173154 0.607734 0.068166
-0.170728 0.608788 0.068226
-0.168176 0.609611 0.068258
-0.164460 0.608211 0.068036
-0.161486 0.608187 0.067972
-0.158694 0.608493 0.067946
-0.155951 0.608873 0.067929
-0.152368 0.607553 0.067719
-0.149889 0.608406 0.067757
-0.146742 0.607877 0.067639
-0.144271 0.608704 0.067676
-0.141588 0.609074 0.067663
-0.138824 0.609243 0.067628
-0.136152 0.609578 0.067613
-0.133135 0.609133 0.067511
-0.130192 0.608804 0.067424
-0.127719 0.609482 0.067452
-0.125065 0.609729 0.067434
-0.122529 0.610215 0.067443
-0.119153 0.608724 0.067232
-0.116342 0.608487 0.067164
-0.113948 0.609204 0.067204
-0.111424 0.609589 0.067209
-0.108379 0.608668 0.067069
-0.106072 0.609525 0.067129
-0.103680 0.610154 0.067166
-0.100834 0.609607 0.067072
-0.097852 0.608653 0.066935
-0.095384 0.608992 0.066944
-0.092975 0.609465 0.066969
-0.090657 0.610163 0.067021
-0.088267 0.610652 0.067051
-0.085577 0.610289 0.066988
-0.082692 0.609329 0.066859
-0.080327 0.609806 0.066891
-0.077926 0.610158 0.066912
-0.075560 0.610595 0.066943
-0.073199 0.611032 0.066975
-0.069998 0.608891 0.066721
-0.067850 0.609918 0.066822
-0.065665 0.610833 0.066911
-0.062939 0.610018 0.066809
-0.060643 0.610551 0.066858
-0.057674 0.608848 0.066659
-0.055210 0.608760 0.066641
-0.052912 0.609213 0.066685
-0.050390 0.608874 0.066641
-0.048164 0.609550 0.066711
-0.046004 0.610466 0.066809
-0.043647 0.610668 0.066828
-0.040987 0.609719 0.066721
-0.038351 0.608803 0.066618
-0.036204 0.609732 0.066721
-0.034441 0.612198 0.066995
-0.032308 0.613246 0.067113
-0.029573 0.611828 0.066958
-0.027177 0.611764 0.066953
-0.025483 0.614691 0.067283
-0.023049 0.614478 0.067263
-0.019441 0.608965 0.066655
-0.017158 0.609267 0.066694
-0.014832 0.609364 0.066712
-0.012681 0.610286 0.066821
-0.010518 0.611170 0.066927
-0.007915 0.609870 0.066791
-0.005624 0.610095 0.066825
-0.003172 0.609467 0.066764
-0.001186 0.611314 0.066980
0.001015 0.612047 0.067072
0.003679 0.610149 0.066872
0.005610 0.612442 0.067139
0.008271 0.610437 0.066928
0.010727 0.609569 0.066843
0.013068 0.609374 0.066834
0.015271 0.610062 0.066924
0.017578 0.610070 0.066939
0.020300 0.607129 0.066625
0.022394 0.608559 0.066799
0.024592 0.609297 0.066896
0.026854 0.609567 0.066941
0.029150 0.609561 0.066956
0.031451 0.609495 0.066965
0.033908 0.608030 0.066817
0.036146 0.608451 0.066881
0.038371 0.609009 0.066960
0.040546 0.610122 0.067102
0.043061 0.607704 0.066849
0.045185 0.609397 0.067056
0.047500 0.609008 0.067031
0.049749 0.609377 0.067090
0.051962 0.610249 0.067207
0.054232 0.610425 0.067245
0.056453 0.611336 0.067367
0.058808 0.610182 0.067257
0.061045 0.610902 0.067358
0.063311 0.611168 0.067408
0.065689 0.609084 0.067194
0.067912 0.610170 0.067336
0.070179 0.610366 0.067379
0.072478 0.609580 0.067312
0.074741 0.609762 0.067354
0.077020 0.609352 0.067329
0.079291 0.609063 0.067319
0.081561 0.608656 0.067295
0.083815 0.609436 0.067405
0.086062 0.613345 0.067869
0.088345 0.613867 0.067951
0.090615 0.611081 0.067660
0.092961 0.618889 0.068565
0.095156 0.611176 0.067719
0.097393 0.609437 0.067547
0.099618 0.607886 0.067396
0.101907 0.609124 0.067561
0.104197 0.610035 0.067690
0.106463 0.610112 0.067724
0.108745 0.610519 0.067796
0.110906 0.608308 0.067572
0.113294 0.610861 0.067889
0.115563 0.610876 0.067918
0.117906 0.612107 0.068086
0.120219 0.612701 0.068182
0.122400 0.611337 0.068056
0.124626 0.610726 0.068016
0.126843 0.610080 0.067972
0.128805 0.606475 0.067592
0.131089 0.606846 0.067665
0.133678 0.610408 0.068102
0.135773 0.608623 0.067931
0.138083 0.609065 0.068014
0.140511 0.610552 0.068217
0.142768 0.610385 0.068232
0.145015 0.610132 0.068238
0.147219 0.609534 0.068205
0.149555 0.610002 0.068294
0.151826 0.609930 0.068323
0.153889 0.608318 0.068176
0.156169 0.608339 0.068216
0.158443 0.608304 0.068251
0.160709 0.608193 0.068279
0.163220 0.609654 0.068487
0.165534 0.609776 0.068543
0.167643 0.608626 0.068453
0.169735 0.607415 0.068357
0.171721 0.605645 0.068198
0.175725 0.615222 0.069348
0.177008 0.609474 0.068731
0.178801 0.606697 0.068458
0.181571 0.609089 0.068783
0.183863 0.608927 0.068815
0.186624 0.611060 0.069113
0.188017 0.606483 0.068634
0.190621 0.607788 0.068839
0.193086 0.608362 0.068960
0.195545 0.608860 0.069074
0.197978 0.609195 0.069170
0.200190 0.608533 0.069152
0.202694 0.609103 0.069278
0.205423 0.610550 0.069509
0.207335 0.608600 0.069344
0.210211 0.610521 0.069633
0.213036 0.612140 0.069888
0.214915 0.610048 0.069711
0.217330 0.610013 0.069776
0.219538 0.609186 0.069749
0.220971 0.605556 0.069394
0.223602 0.606269 0.069551
0.226224 0.606892 0.069699
0.229246 0.608826 0.070005
0.231384 0.607687 0.069949
0.233709 0.607168 0.069967
0.236440 0.607950 0.070142
0.239902 0.611007 0.070589
0.242854 0.612321 0.070831
0.243190 0.605470 0.070102
0.246640 0.608275 0.070525
0.248696 0.606780 0.070437
0.250542 0.604679 0.070277
0.253845 0.606833 0.070629
0.256310 0.606492 0.070683
0.259243 0.607445 0.070894
0.261783 0.607245 0.070969
0.264589 0.607743 0.071128
0.267450 0.608342 0.071302
0.269714 0.607309 0.071279
0.273108 0.609232 0.071616
0.275828 0.609333 0.071733
0.278297 0.608770 0.071770
0.280738 0.608130 0.071797
0.283496 0.608265 0.071920
0.285974 0.607700 0.071957
0.288471 0.607180 0.071999
0.291172 0.607145 0.072101
0.294146 0.607738 0.072279
0.298565 0.611647 0.072866
0.299698 0.607971 0.072515
0.301051 0.604887 0.072234
0.303295 0.603866 0.072206
0.307114 0.606337 0.072610
0.309774 0.606256 0.072694
0.311670 0.604564 0.072573
0.314750 0.605445 0.072770
0.317711 0.606089 0.072934
0.320825 0.607074 0.073136
0.322496 0.605131 0.072967
0.325257 0.605481 0.073079
0.328183 0.606206 0.073234
0.335085 0.614841 0.074377
-0.219630 0.602131 0.065655
-0.217189 0.602643 0.065708
-0.215027 0.603656 0.065812
-0.212413 0.604018 0.065837
-0.209078 0.603274 0.065736
-0.206787 0.604249 0.065819
-0.203738 0.604040 0.065768
-0.200734 0.603931 0.065723
-0.197688 0.603776 0.065669
-0.196376 0.606568 0.065937
-0.193550 0.606854 0.065925
-0.190658 0.607044 0.065900
-0.188506 0.608536 0.066015
-0.184395 0.606613 0.065753
-0.181968 0.607645 0.065814
-0.178779 0.607325 0.065725
-0.175907 0.607566 0.065696
-0.173229 0.608156 0.065705
-0.169589 0.606950 0.065517
-0.167519 0.608661 0.065647
-0.165130 0.609781 0.065713
-0.161291 0.608103 0.065474
-0.158156 0.607736 0.065378
-0.155618 0.608511 0.065407
-0.152755 0.608623 0.065364
-0.149776 0.608473 0.065294
-0.146829 0.608351 0.065229
-0.144070 0.608583 0.065202
-0.141495 0.609173 0.065215
-0.138683 0.609239 0.065173
-0.136338 0.610275 0.065237
-0.132620 0.608303 0.064978
-0.130046 0.608773 0.064984
-0.127579 0.609460 0.065014
-0.125244 0.610424 0.065076
-0.122113 0.609550 0.064941
-0.119598 0.610048 0.064956
-0.116544 0.609249 0.064832
-0.114025 0.609674 0.064842
-0.111600 0.610300 0.064875
-0.108916 0.610271 0.064839
-0.105686 0.608844 0.064654
-0.103303 0.609484 0.064693
-0.100446 0.608891 0.064601
-0.097987 0.609280 0.064616
-0.095343 0.609160 0.064577
-0.092696 0.608994 0.064535
-0.090272 0.609395 0.064556
-0.088071 0.610386 0.064640
-0.085080 0.609173 0.064491
-0.082592 0.609316 0.064487
-0.079810 0.608588 0.064392
-0.077770 0.609969 0.064524
-0.075460 0.610567 0.064572
-0.072894 0.610382 0.064539
-0.070219 0.609830 0.064468
-0.067623 0.609476 0.064419
-0.065132 0.609417 0.064403
-0.062861 0.610031 0.064459
-0.060309 0.609725 0.064419
-0.057766 0.609410 0.064378
-0.055157 0.608840 0.064312
-0.052664 0.608620 0.064284
-0.050710 0.610247 0.064453
-0.048235 0.610059 0.064430
-0.045993 0.610683 0.064494
-0.043724 0.611208 0.064549
-0.041095 0.610381 0.064461
-0.038255 0.608695 0.064282
-0.035879 0.608728 0.064287
-0.034228 0.611611 0.064596
-0.032587 0.614634 0.064921
-0.029768 0.612895 0.064740
-0.027211 0.612169 0.064667
-0.025292 0.614134 0.064882
-0.022877 0.613988 0.064872
-0.019423 0.609148 0.064363
-0.017153 0.609508 0.064409
-0.014889 0.609898 0.064458
-0.012577 0.610054 0.064483
-0.010247 0.610112 0.064498
-0.007543 0.608266 0.064311
-0.005787 0.611210 0.064635
-0.003224 0.610014 0.064518
-0.000758 0.609269 0.064450
0.001337 0.610531 0.064596
0.003346 0.612343 0.064802
0.005677 0.612340 0.064814
0.008190 0.611219 0.064708
0.010749 0.609727 0.064562
0.013118 0.609350 0.064536
0.015400 0.609514 0.064567
0.018185 0.606217 0.064230
0.019853 0.610606 0.064714
0.022505 0.608070 0.064458
0.024672 0.609016 0.064575
0.026934 0.609266 0.064618
0.029282 0.608820 0.064586
0.031474 0.609651 0.064692
0.033944 0.608074 0.064540
0.036214 0.608182 0.064569
0.038410 0.609018 0.064676
0.040611 0.609851 0.064784
0.042855 0.610307 0.064851
0.045218 0.609449 0.064777
0.047493 0.609519 0.064803
0.049861 0.608426 0.064705
0.051934 0.611102 0.065012
0.054190 0.611519 0.065076
0.056553 0.610337 0.064969
0.058760 0.611537 0.065118
0.060993 0.612432 0.065235
0.063281 0.612412 0.065253
0.065604 0.611596 0.065186
0.068030 0.608121 0.064833
0.070244 0.609449 0.064998
0.072463 0.610978 0.065184
0.074763 0.610066 0.065107
0.077041 0.609712 0.065091
0.079320 0.609119 0.065050
0.081583 0.609147 0.065075
0.083843 0.609502 0.065136
0.086098 0.611650 0.065392
0.088371 0.612373 0.065493
0.090659 0.614530 0.065750
0.092922 0.612164 0.065519
0.095174 0.610615 0.065375
0.097489 0.613159 0.065675
0.099661 0.608685 0.065216
0.101961 0.610207 0.065406
0.106454 0.609285 0.065358
0.108702 0.608998 0.065353
0.110990 0.609637 0.065449
0.113235 0.609321 0.065442
0.115561 0.610497 0.065597
0.117951 0.612530 0.065846
0.120353 0.614455 0.066084
0.122596 0.613865 0.066049
0.124754 0.612207 0.065898
0.126885 0.610407 0.065732
0.128788 0.606093 0.065291
0.131007 0.605763 0.065286
0.133447 0.607811 0.065540
0.135971 0.610502 0.065866
0.137862 0.606817 0.065496
0.140460 0.609978 0.065874
0.142795 0.610537 0.065969
0.144878 0.608888 0.065823
0.147297 0.610101 0.065991
0.149473 0.609304 0.065939
0.151656 0.608591 0.065897
0.153856 0.608038 0.065873
0.156296 0.609213 0.066040
0.158494 0.608629 0.066014
0.160709 0.608182 0.066004
0.163149 0.609186 0.066155
0.165433 0.609140 0.066191
0.167471 0.607589 0.066062
0.169700 0.607224 0.066064
0.171918 0.606797 0.066060
0.175611 0.614614 0.066969
0.177528 0.612336 0.066763
0.179344 0.609615 0.066509
0.181256 0.607504 0.066322
0.183459 0.606940 0.066308
0.186068 0.608376 0.066517
0.188499 0.608864 0.066622
0.190762 0.608515 0.066635
0.193171 0.608822 0.066723
0.195560 0.609003 0.066797
0.197890 0.608887 0.066840
0.200158 0.608481 0.066852
0.202542 0.608553 0.066918
0.205100 0.609309 0.067062
0.207806 0.610606 0.067269
0.210913 0.613410 0.067646
0.213443 0.613831 0.067758
0.215522 0.612481 0.067672
0.217145 0.609437 0.067396
0.219426 0.608894 0.067403
0.222439 0.610981 0.067709
0.223458 0.605886 0.067204
0.226714 0.608731 0.067599
0.229322 0.609224 0.067729
0.231400 0.607882 0.067652
0.234079 0.608536 0.067804
0.237272 0.610801 0.068142
0.239642 0.610327 0.068169
0.241092 0.606938 0.067865
0.243570 0.606801 0.067933
0.246860 0.609103 0.068282
0.249201 0.608457 0.068295
0.250251 0.603985 0.067870
0.253734 0.606679 0.068270
0.256602 0.607496 0.068456
0.259284 0.607731 0.068577
0.262135 0.608394 0.068748
0.264373 0.607326 0.068721
0.268324 0.610871 0.069230
0.269757 0.607601 0.068949
0.272546 0.607941 0.069088
0.275244 0.608009 0.069197
0.277463 0.606832 0.069161
0.280881 0.608664 0.069477
0.283467 0.608372 0.069546
0.286174 0.608363 0.069647
0.288597 0.607656 0.069667
0.291013 0.606938 0.069684
0.294546 0.608842 0.070011
0.298598 0.611889 0.070473
0.301245 0.611656 0.070546
0.301416 0.605859 0.069957
0.302928 0.603197 0.069736
0.306522 0.605179 0.070066
0.308514 0.603660 0.069976
0.312713 0.606924 0.070454
0.314526 0.605090 0.070320
0.316716 0.604120 0.070285
0.320495 0.606493 0.070647
0.322922 0.606093 0.070672
0.325208 0.605464 0.070664
0.327365 0.604641 0.070628
0.332020 0.608835 0.071191
-0.220403 0.603481 0.063262
-0.216594 0.601878 0.063091
-0.213800 0.601898 0.063086
-0.211527 0.602793 0.063168
-0.208851 0.603104 0.063184
-0.205640 0.602594 0.063109
-0.203881 0.604484 0.063282
-0.201135 0.604813 0.063287
-0.198894 0.606019 0.063380
-0.195284 0.604960 0.063233
-0.193176 0.606456 0.063350
-0.190692 0.607350 0.063402
-0.188135 0.608144 0.063441
-0.186063 0.609813 0.063569
-0.181486 0.607051 0.063233
-0.179132 0.608229 0.063307
-0.176033 0.608068 0.063240
-0.173172 0.608326 0.063216
-0.169486 0.607037 0.063031
-0.167267 0.608467 0.063128
-0.164927 0.609677 0.063203
-0.161651 0.609083 0.063090
-0.158004 0.607722 0.062898
-0.154634 0.606848 0.062757
-0.152696 0.608792 0.062909
-0.150145 0.609507 0.062935
-0.147178 0.609355 0.062871
-0.143733 0.608169 0.062702
-0.141059 0.608542 0.062695
-0.138580 0.609305 0.062730
-0.135651 0.609079 0.062663
-0.132806 0.608994 0.062613
-0.130004 0.608965 0.062570
-0.127494 0.609552 0.062591
-0.124978 0.610105 0.062610
-0.122391 0.610470 0.062611
-0.119434 0.609945 0.062523
-0.116730 0.609967 0.062492
-0.114126 0.610192 0.062483
-0.111530 0.610405 0.062474
-0.108781 0.610213 0.062426
-0.105645 0.609015 0.062276
-0.103490 0.610226 0.062373
-0.101238 0.611188 0.062447
-0.097970 0.609506 0.062252
-0.095328 0.609386 0.062217
-0.092643 0.609118 0.062169
-0.090203 0.609473 0.062186
-0.087751 0.609772 0.062199
-0.084964 0.609113 0.062115
-0.082682 0.609832 0.062172
-0.079913 0.609143 0.062088
-0.077557 0.609609 0.062122
-0.075342 0.610475 0.062198
-0.072430 0.609243 0.062062
-0.070224 0.610103 0.062140
-0.067571 0.609571 0.062077
-0.065115 0.609618 0.062075
-0.062581 0.609389 0.062045
-0.060033 0.609078 0.062008
-0.057805 0.609795 0.062076
-0.055530 0.610350 0.062129
-0.053001 0.610027 0.062094
-0.050446 0.609580 0.062046
-0.048298 0.610536 0.062143
-0.046013 0.611009 0.062191
-0.043666 0.611249 0.062216
-0.041392 0.611748 0.062269
-0.038333 0.609246 0.062017
-0.035410 0.607155 0.061808
-0.034115 0.611418 0.062245
-0.032281 0.613652 0.062477
-0.029457 0.611866 0.062301
-0.027418 0.613299 0.062453
-0.025490 0.615244 0.062657
-0.022967 0.614643 0.062604
-0.019476 0.609644 0.062103
-0.017091 0.609484 0.062096
-0.014647 0.609023 0.062058
-0.012473 0.609817 0.062149
-0.010063 0.609472 0.062124
-0.007696 0.609308 0.062118
-0.005828 0.611695 0.062373
-0.002913 0.608641 0.062073
-0.000535 0.608328 0.062054
0.001339 0.610800 0.062319
0.003344 0.612633 0.062519
0.005413 0.614183 0.062690
0.007284 0.617002 0.062992
0.009091 0.620378 0.063351
0.011032 0.623081 0.063642
0.012909 0.626368 0.063993
0.015989 0.621592 0.063522
0.018224 0.622473 0.063628
0.020590 0.622441 0.063642
0.023137 0.621017 0.063513
0.025535 0.620643 0.063492
0.027777 0.621502 0.063598
0.030088 0.621824 0.063649
0.032576 0.620592 0.063541
0.035032 0.619526 0.063450
0.037356 0.619629 0.063480
0.039405 0.622516 0.063794
0.042145 0.618303 0.063382
0.044155 0.621832 0.063763
0.046929 0.616665 0.063253
0.049218 0.616973 0.063305
0.051595 0.616126 0.063238
0.054198 0.611911 0.062826
0.056420 0.612909 0.062949
0.058808 0.611312 0.062805
0.061067 0.611710 0.062867
