ply
format ascii 1.0
comment ---
element vertex 1708
property float x
property float y
property float z
element face 0
property list uchar uint vertex_indices
end_header
0.574548 0.594460 -0.013050
0.578761 0.600319 -0.014255
0.582770 0.600898 -0.014523
0.586496 0.596089 -0.013830
0.590133 0.590518 -0.013001
0.594063 0.590333 -0.013136
0.598057 0.591090 -0.013442
0.601946 0.590262 -0.013467
0.606139 0.593439 -0.014212
0.609946 0.591507 -0.014042
0.613595 0.587949 -0.013581
0.618226 0.595429 -0.015111
0.622472 0.598149 -0.015787
0.626339 0.596835 -0.015737
0.630509 0.598466 -0.016221
0.634188 0.595483 -0.015873
0.638031 0.594132 -0.015822
0.641658 0.591054 -0.015458
0.646097 0.594691 -0.016318
0.650177 0.595257 -0.016622
0.653840 0.592644 -0.016349
0.657828 0.592512 -0.016530
0.662392 0.596363 -0.017443
0.666915 0.599663 -0.018259
0.670109 0.594046 -0.017444
0.673663 0.591015 -0.017104
0.677341 0.588888 -0.016932
0.681270 0.588346 -0.017053
0.685410 0.589027 -0.017403
0.689688 0.590416 -0.017887
0.693449 0.588855 -0.017828
0.697921 0.591141 -0.018485
0.702925 0.596056 -0.019635
0.706681 0.594344 -0.019559
0.710292 0.591957 -0.019360
0.713567 0.588016 -0.018873
0.717676 0.588169 -0.019152
0.722183 0.590124 -0.019772
0.727493 0.595586 -0.021054
0.732253 0.598339 -0.021835
0.735614 0.594872 -0.021453
0.739583 0.594091 -0.021578
0.743167 0.591700 -0.021403
0.748099 0.594854 -0.022279
0.749730 0.584664 -0.020635
0.754122 0.585636 -0.021106
0.760702 0.594937 -0.023165
0.765392 0.596720 -0.023804
0.769186 0.595081 -0.023797
0.773463 0.595210 -0.024131
0.776195 0.589782 -0.023406
0.780342 0.589453 -0.023662
0.784632 0.589586 -0.024011
0.788712 0.588955 -0.024218
0.793833 0.591761 -0.025094
0.796821 0.587450 -0.024602
0.801386 0.588305 -0.025113
0.806448 0.590656 -0.025921
0.810229 0.588891 -0.025937
0.814290 0.587991 -0.026125
0.820467 0.593446 -0.027563
0.824511 0.592351 -0.027727
0.827452 0.588012 -0.027261
0.831079 0.585727 -0.027201
0.836094 0.587390 -0.027925
0.841089 0.588895 -0.028626
0.846508 0.591467 -0.029547
0.849748 0.587999 -0.029277
0.854157 0.587701 -0.029643
0.858064 0.586031 -0.029741
0.865284 0.592954 -0.031566
0.868317 0.588908 -0.031202
0.872592 0.588052 -0.031484
0.876649 0.586620 -0.031655
0.883954 0.593147 -0.033444
0.888149 0.591905 -0.033670
0.891381 0.588336 -0.033426
0.895617 0.587176 -0.033678
0.899678 0.585580 -0.033845
0.905090 0.587076 -0.034652
0.910609 0.588720 -0.035498
0.912690 0.582575 -0.034741
0.917140 0.581769 -0.035089
0.924159 0.586534 -0.036599
0.929575 0.587682 -0.037365
0.937259 0.593575 -0.039130
0.940855 0.590692 -0.039063
0.943242 0.585329 -0.038473
0.951033 0.591132 -0.040236
0.956677 0.592413 -0.041049
0.963424 0.595837 -0.042320
0.961398 0.581808 -0.039874
0.969383 0.587642 -0.041654
0.975023 0.588794 -0.042434
0.982767 0.593920 -0.044066
0.990256 0.598438 -0.045567
0.993913 0.595701 -0.045497
1.000297 0.598059 -0.046520
1.000015 0.588210 -0.044881
1.004845 0.587815 -0.045279
1.009682 0.587461 -0.045673
1.016069 0.589879 -0.046659
1.021309 0.590276 -0.047187
1.031725 0.599658 -0.049676
1.034388 0.595619 -0.049193
1.034934 0.588122 -0.047921
1.041342 0.590674 -0.048846
1.046395 0.590986 -0.049253
1.050994 0.590613 -0.049484
1.057562 0.593533 -0.050422
1.062012 0.593053 -0.050577
1.065935 0.591820 -0.050538
1.070117 0.591106 -0.050586
1.075211 0.591928 -0.050950
1.080957 0.593845 -0.051531
1.086635 0.595720 -0.052074
0.103495 0.637907 -0.021254
0.134626 0.582204 -0.011585
0.132742 0.593832 -0.013931
0.145478 0.575300 -0.010846
0.158589 0.555739 -0.007545
0.160044 0.560711 -0.008632
0.159711 0.569742 -0.010431
0.162860 0.571510 -0.010902
0.165519 0.574502 -0.011575
0.168167 0.577693 -0.012263
0.173300 0.575478 -0.011954
0.177873 0.574582 -0.011865
0.175750 0.589140 -0.014554
0.179762 0.589869 -0.014722
0.186897 0.583346 -0.013559
0.189537 0.587449 -0.014304
0.194192 0.586858 -0.014184
0.197382 0.589890 -0.014705
0.201736 0.590172 -0.014715
0.205489 0.592017 -0.014996
0.209422 0.593490 -0.015198
0.215048 0.590665 -0.014613
0.216771 0.597993 -0.015854
0.222353 0.595306 -0.015278
0.227350 0.594123 -0.014967
0.234044 0.588274 -0.013810
0.238121 0.589497 -0.013925
0.242183 0.590787 -0.014047
0.245296 0.594815 -0.014660
0.250916 0.591667 -0.013979
0.255435 0.591642 -0.013860
0.259337 0.593430 -0.014066
0.265357 0.588795 -0.013120
0.270772 0.585835 -0.012476
0.275057 0.586292 -0.012447
0.278588 0.589131 -0.012847
0.282709 0.590098 -0.012913
0.287963 0.587300 -0.012310
0.291233 0.591029 -0.012876
0.294565 0.594629 -0.013422
0.297660 0.599127 -0.014132
0.302299 0.598242 -0.013885
0.308046 0.593257 -0.012913
0.313534 0.588976 -0.012071
0.318061 0.588088 -0.011839
0.321915 0.589680 -0.012053
0.325878 0.590849 -0.012197
0.330125 0.590872 -0.012141
0.334545 0.590126 -0.011955
0.337898 0.593726 -0.012545
0.340784 0.599402 -0.013509
0.345274 0.598303 -0.013275
0.351928 0.587503 -0.011323
0.356120 0.587314 -0.011261
0.359943 0.588765 -0.011496
0.364535 0.586579 -0.011089
0.367343 0.592897 -0.012197
0.372417 0.588184 -0.011353
0.376775 0.586837 -0.011110
0.380554 0.588386 -0.011387
0.383220 0.595932 -0.012732
0.387755 0.593529 -0.012316
0.390964 0.598445 -0.013205
0.395970 0.593127 -0.012281
0.399900 0.593891 -0.012442
0.403825 0.594675 -0.012610
0.407452 0.597347 -0.013118
0.411030 0.600457 -0.013709
0.415340 0.598771 -0.013452
0.420008 0.594416 -0.012725
0.423626 0.597308 -0.013289
0.428802 0.588692 -0.011812
0.432416 0.591518 -0.012372
0.436304 0.592297 -0.012573
0.440365 0.591654 -0.012525
0.444273 0.592243 -0.012699
0.448266 0.592069 -0.012741
0.452186 0.592534 -0.012901
0.456164 0.592414 -0.012960
0.459956 0.594190 -0.013360
0.463930 0.594110 -0.013433
0.467891 0.594129 -0.013527
0.472019 0.592072 -0.013252
0.475956 0.592208 -0.013373
0.479886 0.592416 -0.013510
0.483811 0.592696 -0.013662
0.487383 0.598588 -0.014824
0.491571 0.594833 -0.014259
0.495773 0.590112 -0.013523
0.499711 0.589861 -0.013591
0.503756 0.587118 -0.013214
0.507784 0.584128 -0.012795
0.511575 0.587088 -0.013449
0.515354 0.591345 -0.014340
0.519162 0.595991 -0.015305
0.523029 0.599862 -0.016134
0.526935 0.603531 -0.016930
0.530955 0.600377 -0.016496
0.534988 0.591102 -0.014954
0.538911 0.592535 -0.015353
0.542834 0.588773 -0.014812
0.546768 0.591317 -0.015417
0.550671 0.589106 -0.015161
0.554640 0.592133 -0.015859
0.558518 0.589466 -0.015524
0.562453 0.589935 -0.015762
0.566388 0.590215 -0.015967
0.570389 0.592267 -0.016499
0.574437 0.594960 -0.017151
0.578634 0.600421 -0.018312
0.582666 0.601439 -0.018664
0.586322 0.595246 -0.017695
0.590025 0.590816 -0.017050
0.593962 0.590715 -0.017202
0.597885 0.590384 -0.017313
0.601936 0.591813 -0.017750
0.606155 0.595218 -0.018555
0.610118 0.595076 -0.018709
0.614136 0.595550 -0.018978
0.617832 0.592411 -0.018581
0.622025 0.594726 -0.019196
0.626719 0.601754 -0.020689
0.630252 0.597122 -0.020021
0.634122 0.595914 -0.019991
0.637925 0.594184 -0.019865
0.641932 0.594260 -0.020077
0.645872 0.593759 -0.020185
0.649595 0.591589 -0.019982
0.653206 0.588705 -0.019648
0.656797 0.585835 -0.019317
0.661100 0.588081 -0.019948
0.665364 0.589889 -0.020500
0.670256 0.595654 -0.021801
0.674822 0.598968 -0.022646
0.677259 0.588969 -0.020983
0.681231 0.588675 -0.021152
0.685672 0.591083 -0.021835
0.689426 0.589443 -0.021756
0.693603 0.590183 -0.022130
0.698374 0.594029 -0.023099
0.703627 0.600165 -0.024509
0.706969 0.596227 -0.024006
0.709783 0.589825 -0.023033
0.713816 0.589598 -0.023241
0.717666 0.588475 -0.023281
0.721674 0.588100 -0.023468
0.728625 0.601032 -0.026216
0.732460 0.599557 -0.026203
0.736069 0.597125 -0.026008
0.739497 0.593989 -0.025680
0.743344 0.592677 -0.025708
0.746350 0.587955 -0.025078
0.748783 0.581090 -0.024033
0.753103 0.581838 -0.024469
0.757674 0.583481 -0.025085
0.764594 0.593876 -0.027416
0.769130 0.595020 -0.027950
0.772231 0.590865 -0.027451
0.775369 0.586948 -0.027001
0.780959 0.591713 -0.028262
0.785359 0.592172 -0.028683
0.790186 0.594010 -0.029383
0.794013 0.592414 -0.029410
0.796699 0.587093 -0.028702
0.801228 0.587824 -0.029200
0.805908 0.588956 -0.029784
0.810133 0.588588 -0.030076
0.814247 0.587842 -0.030298
0.820034 0.592111 -0.031532
0.824784 0.593117 -0.032121
0.827121 0.586990 -0.031280
0.830342 0.583538 -0.030980
0.836013 0.587079 -0.032099
0.840864 0.588172 -0.032733
0.845977 0.589896 -0.033502
0.850092 0.588812 -0.033708
0.854676 0.588955 -0.034171
0.861489 0.594909 -0.035832
0.863527 0.588239 -0.034913
0.870274 0.593753 -0.036504
0.872796 0.588393 -0.035862
0.879924 0.594588 -0.037615
0.885922 0.597785 -0.038759
0.889270 0.594417 -0.038546
0.889267 0.583074 -0.036670
0.892773 0.580253 -0.036573
0.899601 0.585179 -0.038107
0.909188 0.596258 -0.040949
0.910343 0.587883 -0.039700
0.911355 0.579352 -0.038413
0.918878 0.585368 -0.040213
0.924122 0.586212 -0.040922
0.929074 0.586358 -0.041488
0.935941 0.590528 -0.042920
0.939058 0.586677 -0.042635
0.938740 0.575755 -0.040821
0.946111 0.580815 -0.042454
0.958318 0.595510 -0.046185
0.960260 0.589290 -0.045381
0.962628 0.584036 -0.044777
0.969145 0.586985 -0.045962
0.974088 0.586810 -0.046459
0.984630 0.597311 -0.049304
0.988995 0.595914 -0.049526
0.995523 0.598580 -0.050638
1.000490 0.598313 -0.051092
1.004212 0.595790 -0.051032
1.006477 0.590710 -0.050386
1.009648 0.587379 -0.050110
1.018535 0.594245 -0.052104
1.023684 0.594469 -0.052594
1.027418 0.592281 -0.052521
1.028999 0.586500 -0.051614
1.032917 0.584849 -0.051615
1.041595 0.591283 -0.053426
1.046190 0.590868 -0.053661
1.051625 0.591915 -0.054204
1.056481 0.592071 -0.054519
1.061157 0.592013 -0.054758
1.065618 0.591694 -0.054910
1.070674 0.592412 -0.055270
1.075630 0.593050 -0.055585
1.079448 0.591990 -0.055482
1.085973 0.595236 -0.056338
0.145979 0.551898 -0.009733
0.133314 0.585060 -0.016111
0.137289 0.584556 -0.016293
0.136727 0.593634 -0.018220
0.150894 0.571975 -0.014453
0.156542 0.568133 -0.013948
0.164093 0.560241 -0.012671
0.167621 0.561036 -0.012979
0.163918 0.577831 -0.016235
0.167227 0.579538 -0.016674
0.170722 0.580969 -0.017042
0.173455 0.584263 -0.017736
0.177136 0.585550 -0.018038
0.179510 0.589997 -0.018909
0.185331 0.586524 -0.018289
0.190752 0.583996 -0.017827
0.193172 0.588709 -0.018696
0.196632 0.591067 -0.019112
0.201951 0.588940 -0.018680
0.205717 0.590700 -0.018958
0.209497 0.592511 -0.019233
0.214216 0.591985 -0.019064
0.217973 0.593984 -0.019354
0.222053 0.595200 -0.019490
0.228952 0.588887 -0.018222
0.234490 0.586101 -0.017604
0.237753 0.589531 -0.018132
0.241551 0.591551 -0.018395
0.245720 0.592564 -0.018468
0.250994 0.590384 -0.017949
0.253990 0.594815 -0.018650
0.256639 0.600399 -0.019562
0.263679 0.592781 -0.018038
0.272128 0.580525 -0.015663
0.276400 0.580938 -0.015625
0.279230 0.585927 -0.016431
0.282942 0.588175 -0.016734
0.287158 0.588786 -0.016738
0.289894 0.594345 -0.017654
0.293070 0.598544 -0.018323
0.297514 0.598417 -0.018202
0.303226 0.593730 -0.017249
0.307502 0.593999 -0.017210
0.312057 0.593193 -0.016978
0.317399 0.589341 -0.016193
0.321667 0.589388 -0.016128
0.325627 0.590582 -0.016277
0.329779 0.590996 -0.016288
0.334372 0.589577 -0.015970
0.337915 0.592388 -0.016429
0.341111 0.596730 -0.017173
0.345313 0.596846 -0.017150
0.351400 0.588565 -0.015601
0.355131 0.590507 -0.015922
0.359304 0.590432 -0.015880
0.363310 0.591086 -0.015976
0.366883 0.593811 -0.016456
0.371395 0.591946 -0.016103
0.377655 0.581030 -0.014106
0.380239 0.588693 -0.015500
0.382775 0.596957 -0.017008
0.385629 0.603852 -0.018272
0.390758 0.598218 -0.017258
0.394701 0.599102 -0.017435
0.399026 0.597701 -0.017201
0.402839 0.599307 -0.017520
0.407451 0.595901 -0.016930
0.410920 0.599695 -0.017657
0.414995 0.599596 -0.017678
0.419552 0.596082 -0.017081
0.425182 0.584535 -0.015020
0.429032 0.585411 -0.015231
0.432253 0.591180 -0.016341
0.436251 0.591093 -0.016384
0.440085 0.592325 -0.016673
0.444180 0.591347 -0.016561
0.448146 0.591403 -0.016642
0.452060 0.591916 -0.016811
0.455855 0.593617 -0.017201
0.460002 0.591777 -0.016945
0.463663 0.595028 -0.017626
0.467770 0.593450 -0.017426
0.471986 0.590317 -0.016942
0.475896 0.590718 -0.017110
0.479764 0.591725 -0.017393
0.483669 0.592277 -0.017596
0.487015 0.601726 -0.019440
0.491497 0.593249 -0.017987
0.495714 0.588176 -0.017162
0.499641 0.588013 -0.017244
0.503422 0.591058 -0.017921
0.507390 0.590112 -0.017865
0.511324 0.589827 -0.017933
0.515220 0.590683 -0.018215
0.519079 0.593277 -0.018822
0.522884 0.599550 -0.020114
0.526798 0.602711 -0.020833
0.530816 0.599591 -0.020390
0.534841 0.591357 -0.018997
0.538775 0.589144 -0.018725
0.542699 0.591687 -0.019339
0.546614 0.589338 -0.019045
0.550574 0.592766 -0.019830
0.554545 0.594845 -0.020367
0.558395 0.590114 -0.019635
0.562328 0.590335 -0.019829
0.566250 0.590093 -0.019939
0.570207 0.590856 -0.020239
0.574226 0.592980 -0.020797
0.578435 0.598888 -0.022069
0.582436 0.599396 -0.022331
0.586226 0.595849 -0.021832
0.590023 0.592953 -0.021456
0.593861 0.591085 -0.021275
0.597782 0.590687 -0.021374
0.601640 0.589423 -0.021310
0.605979 0.594510 -0.022451
0.610066 0.595906 -0.022896
0.613813 0.593199 -0.022567
0.617456 0.589583 -0.022066
0.621565 0.591146 -0.022550
0.626025 0.596013 -0.023667
0.630179 0.597511 -0.024146
0.634073 0.596488 -0.024147
0.638220 0.597715 -0.024580
0.641556 0.592029 -0.023694
0.644922 0.586993 -0.022932
0.648900 0.587033 -0.023144
0.652579 0.584798 -0.022922
0.656115 0.581653 -0.022526
0.660697 0.585976 -0.023570
0.664690 0.586015 -0.023792
0.669122 0.588888 -0.024565
0.674891 0.600022 -0.026938
0.677204 0.589211 -0.025074
0.681231 0.589222 -0.025304
0.685426 0.590174 -0.025719
0.689510 0.590413 -0.026000
0.693546 0.590344 -0.026225
0.699568 0.600881 -0.028521
0.703945 0.602255 -0.029037
0.706978 0.596681 -0.028199
0.709467 0.588635 -0.026878
0.713465 0.588252 -0.027058
0.717666 0.588814 -0.027428
0.721363 0.586980 -0.027330
0.728120 0.599051 -0.029976
0.732552 0.600254 -0.030488
0.736029 0.597220 -0.030168
0.740219 0.597304 -0.030468
0.744262 0.596730 -0.030641
0.746761 0.589841 -0.029564
0.749589 0.584504 -0.028796
0.752847 0.581013 -0.028397
0.758150 0.585471 -0.029589
0.762690 0.586843 -0.030171
0.769896 0.597984 -0.032719
0.771827 0.589513 -0.031339
0.776176 0.589927 -0.031747
0.781199 0.592639 -0.032625
0.784702 0.589978 -0.032425
0.790367 0.594676 -0.033718
0.794354 0.593586 -0.033847
0.796841 0.587579 -0.032981
0.801036 0.587213 -0.033266
0.805511 0.587697 -0.033730
0.809894 0.587827 -0.034129
0.814312 0.588010 -0.034545
0.821223 0.595649 -0.036501
0.825055 0.593861 -0.036528
0.826888 0.586234 -0.035354
0.830238 0.583151 -0.035121
0.835204 0.584686 -0.035850
0.840104 0.585938 -0.036528
0.844961 0.586978 -0.037171
0.849117 0.586032 -0.037407
0.854747 0.588995 -0.038469
0.859929 0.590640 -0.039264
0.864248 0.589939 -0.039573
0.867438 0.586313 -0.039272
0.874482 0.592458 -0.041043
0.876792 0.586592 -0.040278
0.885842 0.597377 -0.043058
0.885641 0.585410 -0.041001
0.889292 0.582910 -0.040963
0.893744 0.582311 -0.041336
0.900948 0.588074 -0.043085
0.909362 0.596410 -0.045403
0.914219 0.596416 -0.045934
0.913249 0.583339 -0.043628
0.918510 0.584302 -0.044369
0.924482 0.586742 -0.045438
0.929910 0.587905 -0.046235
0.937200 0.592952 -0.047890
0.938171 0.584565 -0.046593
0.939946 0.578013 -0.045692
0.950058 0.588663 -0.048598
0.955981 0.590546 -0.049568
0.960766 0.590081 -0.050016
0.963913 0.586365 -0.049734
0.969898 0.588259 -0.050702
0.977876 0.593940 -0.052520
0.984466 0.596833 -0.053710
0.984969 0.588174 -0.052282
0.987852 0.584150 -0.051887
0.995070 0.588217 -0.053316
1.003917 0.595178 -0.055399
1.005693 0.589252 -0.054529
1.013519 0.594275 -0.056147
1.015599 0.589075 -0.055405
1.019058 0.586432 -0.055228
1.023644 0.585838 -0.055502
1.030118 0.588538 -0.056516
1.034476 0.587652 -0.056679
1.042348 0.592747 -0.058206
1.046903 0.592293 -0.058422
1.051580 0.592119 -0.058677
1.055800 0.591280 -0.058750
1.060656 0.591564 -0.059058
1.064980 0.591071 -0.059156
1.070060 0.591878 -0.059530
1.076039 0.594177 -0.060224
1.080662 0.594408 -0.060407
1.086979 0.597358 -0.061197
0.101615 0.642213 -0.030567
0.134329 0.583177 -0.019763
0.140973 0.577088 -0.018898
0.148776 0.568587 -0.017552
0.147443 0.579292 -0.019820
0.158313 0.564359 -0.017206
0.165081 0.558059 -0.016203
0.169903 0.555969 -0.015976
0.166665 0.571635 -0.019110
0.166263 0.581456 -0.021113
0.168304 0.586117 -0.022114
0.173489 0.583855 -0.021774
0.179429 0.579901 -0.021091
0.182338 0.582985 -0.021732
0.182617 0.592411 -0.023566
0.191404 0.581904 -0.021574
0.193899 0.586363 -0.022425
0.197994 0.587097 -0.022549
0.201671 0.588942 -0.022869
0.206222 0.588697 -0.022778
0.210278 0.589747 -0.022921
0.214198 0.591211 -0.023131
0.217221 0.595084 -0.023791
0.222568 0.592939 -0.023294
0.228791 0.588392 -0.022332
0.233794 0.587044 -0.021974
0.237226 0.590000 -0.022430
0.241121 0.591739 -0.022648
0.245427 0.592351 -0.022649
0.249878 0.592546 -0.022568
0.252507 0.598080 -0.023497
0.253441 0.608829 -0.025413
0.257612 0.610069 -0.025525
0.273131 0.576300 -0.019011
0.277973 0.574858 -0.018621
0.278918 0.585754 -0.020565
0.282733 0.587670 -0.020813
0.287159 0.587586 -0.020685
0.290630 0.590659 -0.021155
0.294200 0.593449 -0.021575
0.299091 0.591689 -0.021142
0.304108 0.589363 -0.020606
0.307897 0.591326 -0.020882
0.311743 0.593095 -0.021125
0.316846 0.590162 -0.020490
0.321229 0.589801 -0.020343
0.325165 0.591113 -0.020514
0.329172 0.592134 -0.020637
0.333503 0.591821 -0.020514
0.337004 0.594871 -0.021026
0.340812 0.596693 -0.021314
0.345563 0.594453 -0.020846
0.350366 0.591826 -0.020310
0.354661 0.591313 -0.020176
0.358732 0.591755 -0.020226
0.362620 0.593015 -0.020435
0.365777 0.597822 -0.021312
0.370877 0.593165 -0.020424
0.375969 0.588258 -0.019494
0.379626 0.590523 -0.019911
0.383462 0.591893 -0.020166
0.386327 0.598609 -0.021425
0.390645 0.597440 -0.021215
0.395350 0.593908 -0.020567
0.398998 0.596421 -0.021055
0.403272 0.595186 -0.020847
0.407045 0.596988 -0.021211
0.411176 0.596523 -0.021156
0.415091 0.597426 -0.021361
0.418914 0.598975 -0.021692
0.423917 0.592092 -0.020447
0.427634 0.594251 -0.020900
0.431018 0.599101 -0.021863
0.436139 0.590337 -0.020276
0.440113 0.590395 -0.020348
0.443808 0.592834 -0.020871
0.447913 0.591730 -0.020732
0.451894 0.591648 -0.020789
0.455821 0.592060 -0.020942
0.459236 0.597777 -0.022097
0.463019 0.600024 -0.022604
0.467243 0.597399 -0.022198
0.471785 0.590569 -0.021001
0.475789 0.589809 -0.020951
0.479699 0.590209 -0.021123
0.483558 0.591370 -0.021442
0.487077 0.598027 -0.022802
0.491159 0.596137 -0.022552
0.495465 0.589731 -0.021450
0.499513 0.587309 -0.021103
0.503290 0.590395 -0.021802
0.507145 0.592229 -0.022267
0.511072 0.592514 -0.022441
0.515072 0.590433 -0.022170
0.518890 0.594596 -0.023087
0.522711 0.600460 -0.024330
0.526636 0.603285 -0.025001
0.530723 0.594785 -0.023518
0.534700 0.590556 -0.022849
0.538628 0.589699 -0.022824
0.542552 0.590267 -0.023074
0.546486 0.591479 -0.023449
0.550472 0.596203 -0.024499
0.554442 0.597088 -0.024818
0.558280 0.591200 -0.023842
0.562221 0.591501 -0.024054
0.566156 0.591431 -0.024196
0.570079 0.591033 -0.024278
0.574007 0.590787 -0.024392
0.578137 0.595144 -0.025394
0.582174 0.596704 -0.025861
0.586018 0.594360 -0.025577
0.589904 0.593086 -0.025502
0.593785 0.591878 -0.025441
0.597670 0.590853 -0.025418
0.601633 0.591024 -0.025628
0.605642 0.591718 -0.025943
0.609985 0.596397 -0.027034
0.613551 0.591531 -0.026273
0.617200 0.588061 -0.025785
0.621432 0.590964 -0.026539
0.625534 0.592274 -0.026987
0.629560 0.592715 -0.027268
0.634127 0.597993 -0.028498
0.638317 0.599525 -0.028999
0.641935 0.596111 -0.028534
0.645076 0.589087 -0.027361
0.648884 0.587712 -0.027298
0.653436 0.591971 -0.028347
0.657226 0.590393 -0.028249
0.660462 0.585026 -0.027407
0.664225 0.583531 -0.027329
0.668955 0.588418 -0.028516
0.673643 0.592711 -0.029591
0.676964 0.588298 -0.028945
0.681291 0.590119 -0.029538
0.685520 0.591234 -0.029995
0.689669 0.591803 -0.030347
0.693785 0.592120 -0.030652
0.699441 0.600639 -0.032600
0.703445 0.600062 -0.032737
0.706713 0.595726 -0.032123
0.709466 0.588999 -0.031031
0.713242 0.587519 -0.030994
0.717183 0.586852 -0.031123
0.721316 0.587067 -0.031433
0.728233 0.599855 -0.034288
0.732069 0.598384 -0.034270
0.736031 0.597482 -0.034371
0.740506 0.598757 -0.034919
0.744676 0.598670 -0.035194
0.748262 0.596159 -0.034981
0.749989 0.586281 -0.033267
0.754184 0.586413 -0.033598
0.757988 0.584994 -0.033616
0.763822 0.591240 -0.035210
0.768700 0.593673 -0.036031
0.772859 0.593359 -0.036294
0.775791 0.588635 -0.035652
0.781373 0.593315 -0.036956
0.785317 0.592147 -0.037058
0.787808 0.586055 -0.036144
0.794332 0.593533 -0.038052
0.796818 0.587509 -0.037159
0.800816 0.586498 -0.037314
0.805221 0.586758 -0.037741
0.809668 0.587088 -0.038189
0.814249 0.587764 -0.038717
0.818381 0.587018 -0.038952
0.824632 0.592527 -0.040515
0.831459 0.599499 -0.042399
0.838254 0.606110 -0.044221
0.840353 0.599160 -0.043173
0.840714 0.587510 -0.041124
0.843764 0.583545 -0.040712
0.849398 0.586641 -0.041815
0.854428 0.587979 -0.042551
0.859654 0.589739 -0.043388
0.863498 0.587807 -0.043436
0.867667 0.586703 -0.043669
0.871389 0.584444 -0.043657
0.876403 0.585409 -0.044352
0.883085 0.590383 -0.045929
0.885372 0.584527 -0.045150
0.889488 0.583140 -0.045351
0.894581 0.584037 -0.046059
0.900209 0.586103 -0.047032
0.909219 0.595821 -0.049707
0.914714 0.597274 -0.050565
0.914247 0.585307 -0.048446
0.920225 0.587822 -0.049547
0.925013 0.587633 -0.050051
0.930457 0.588816 -0.050866
0.936756 0.591743 -0.052078
0.940870 0.589972 -0.052235
0.943719 0.585585 -0.051799
0.948229 0.584672 -0.052146
0.956353 0.591060 -0.054155
0.960325 0.588971 -0.054234
0.968373 0.594962 -0.056158
0.973216 0.594538 -0.056612
0.980935 0.599660 -0.058338
0.988265 0.603915 -0.059863
0.985940 0.589863 -0.057145
0.987893 0.584108 -0.056326
0.993264 0.584793 -0.056989
0.995490 0.579741 -0.056300
1.009826 0.596672 -0.060735
1.009718 0.587485 -0.059048
1.013288 0.585022 -0.058913
1.016179 0.581462 -0.058498
1.027209 0.592105 -0.061413
1.034257 0.595765 -0.062663
1.038976 0.595462 -0.062955
1.042245 0.592790 -0.062659
1.047611 0.593727 -0.063194
1.051400 0.592120 -0.063098
1.056285 0.592409 -0.063424
1.060416 0.591555 -0.063451
1.065189 0.591828 -0.063718
1.070250 0.592642 -0.064085
1.075541 0.593894 -0.064529
1.080821 0.595201 -0.064957
1.086059 0.596515 -0.065357
0.132622 0.579520 -0.022724
0.133693 0.584703 -0.024046
0.139691 0.579911 -0.023417
0.148480 0.569326 -0.021639
0.154331 0.564848 -0.021020
0.157808 0.565453 -0.021366
0.163088 0.562311 -0.020960
0.162816 0.571274 -0.022893
0.168288 0.567931 -0.022404
0.168335 0.576661 -0.024253
0.167649 0.587331 -0.026463
0.176220 0.577349 -0.024611
0.181865 0.573948 -0.024025
0.183041 0.580933 -0.025454
0.182207 0.592896 -0.027841
0.187048 0.591735 -0.027637
0.196201 0.580240 -0.025389
0.198900 0.584258 -0.026167
0.202257 0.586814 -0.026642
0.205600 0.589529 -0.027134
0.210055 0.589540 -0.027084
0.213913 0.591128 -0.027329
0.217589 0.593264 -0.027672
0.220499 0.597513 -0.028417
0.226368 0.593965 -0.027629
0.232450 0.589741 -0.026702
0.236730 0.590375 -0.026719
0.240937 0.591231 -0.026774
0.244025 0.595290 -0.027449
0.248434 0.595644 -0.027398
0.252081 0.598225 -0.027778
0.251915 0.612237 -0.030380
0.258697 0.605613 -0.028966
0.265192 0.599622 -0.027677
0.273368 0.588130 -0.025322
0.277228 0.589957 -0.025556
0.281448 0.590634 -0.025568
0.286358 0.589017 -0.025139
0.291229 0.587423 -0.024717
0.295312 0.588413 -0.024798
0.299121 0.590336 -0.025064
0.303479 0.590334 -0.024961
0.307383 0.591911 -0.025167
0.312064 0.590640 -0.024828
0.316764 0.589188 -0.024458
0.320626 0.590817 -0.024688
0.324510 0.592369 -0.024908
0.328841 0.592144 -0.024790
0.332901 0.592949 -0.024876
0.336357 0.596229 -0.025442
0.340746 0.595641 -0.025270
0.346226 0.590259 -0.024182
0.350688 0.589070 -0.023906
0.354504 0.590677 -0.024172
0.358509 0.591429 -0.024279
0.362649 0.591520 -0.024265
0.364832 0.601012 -0.026061
0.370994 0.591204 -0.024156
0.375934 0.587056 -0.023344
0.380078 0.586776 -0.023279
0.383766 0.588858 -0.023673
0.387971 0.588163 -0.023539
0.391884 0.589017 -0.023707
0.395234 0.593127 -0.024505
0.399319 0.593033 -0.024501
0.403567 0.591886 -0.024300
0.407607 0.591930 -0.024332
0.410914 0.596695 -0.025275
0.414583 0.599285 -0.025806
0.419686 0.592029 -0.024449
0.423104 0.596337 -0.025319
0.426775 0.599018 -0.025880
0.431301 0.595246 -0.025206
0.435836 0.591070 -0.024457
0.439756 0.591636 -0.024624
0.443854 0.590663 -0.024499
0.447542 0.593263 -0.025066
0.451632 0.592256 -0.024942
0.455134 0.596916 -0.025915
0.459011 0.598104 -0.026222
0.462430 0.604362 -0.027511
0.467500 0.592293 -0.025267
0.471408 0.592922 -0.025477
0.475436 0.592037 -0.025398
0.479541 0.589933 -0.025086
0.483399 0.591123 -0.025415
0.487017 0.596235 -0.026506
0.491021 0.595554 -0.026480
0.495085 0.593639 -0.026217
0.499135 0.591593 -0.025931
0.503043 0.592255 -0.026173
0.506696 0.599375 -0.027674
0.510771 0.596472 -0.027230
0.514796 0.594270 -0.026925
0.518680 0.596650 -0.027515
0.522590 0.598835 -0.028070
0.526520 0.601008 -0.028626
0.530597 0.592709 -0.027141
0.534564 0.588826 -0.026519
0.538482 0.589569 -0.026802
0.542404 0.588556 -0.026745
0.546364 0.594824 -0.028117
0.550364 0.599298 -0.029141
0.554332 0.599064 -0.029246
0.558156 0.591919 -0.027996
0.562065 0.590766 -0.027923
0.566036 0.591984 -0.028320
0.569950 0.591171 -0.028319
0.573880 0.590923 -0.028432
0.578266 0.601059 -0.030596
0.581919 0.594160 -0.029401
0.585913 0.594816 -0.029701
0.589824 0.593884 -0.029688
0.593538 0.589943 -0.029082
0.597536 0.590706 -0.029409
0.601563 0.591748 -0.029795
0.605945 0.597239 -0.031068
0.610035 0.598480 -0.031500
0.613916 0.597134 -0.031420
0.617538 0.593046 -0.030795
0.621533 0.593225 -0.031022
0.625259 0.590666 -0.030705
0.629229 0.590634 -0.030895
0.633884 0.596795 -0.032329
0.638493 0.602015 -0.033580
0.641891 0.596642 -0.032708
0.645763 0.595469 -0.032681
0.649944 0.596735 -0.033148
0.654326 0.599393 -0.033898
0.658102 0.597449 -0.033725
0.660944 0.589078 -0.032253
0.664283 0.584571 -0.031563
0.668974 0.589158 -0.032716
0.673216 0.590590 -0.033235
0.676952 0.588781 -0.033100
0.681276 0.590556 -0.033696
0.685407 0.591077 -0.034040
0.689516 0.591411 -0.034351
0.694440 0.596177 -0.035571
0.699228 0.599927 -0.036589
0.703745 0.602037 -0.037278
0.706820 0.596652 -0.036433
0.709367 0.588865 -0.035095
0.713080 0.587068 -0.034989
0.717114 0.586839 -0.035209
0.721707 0.589177 -0.035964
0.726978 0.594444 -0.037331
0.731127 0.594464 -0.037618
0.734136 0.589493 -0.036874
0.738609 0.590916 -0.037461
0.744105 0.596493 -0.038918
0.747102 0.591611 -0.038202
0.749527 0.584597 -0.037043
0.753560 0.584114 -0.037250
0.758966 0.588885 -0.038564
0.763516 0.590200 -0.039161
0.766318 0.584958 -0.038384
0.770209 0.583813 -0.038473
0.775450 0.587485 -0.039584
0.779511 0.586842 -0.039790
0.785779 0.593773 -0.041609
0.789707 0.592501 -0.041696
0.793184 0.589722 -0.041467
0.796881 0.587705 -0.041404
0.800751 0.586265 -0.041470
0.805354 0.587138 -0.042036
0.809599 0.586819 -0.042354
0.813711 0.586051 -0.042582
0.820152 0.592274 -0.044324
0.825322 0.594478 -0.045210
0.831667 0.599996 -0.046824
0.837120 0.602722 -0.047843
0.840887 0.600536 -0.047804
0.843854 0.596127 -0.047284
0.843877 0.583697 -0.045013
0.849294 0.586188 -0.046008
0.853907 0.586405 -0.046513
0.858767 0.587211 -0.047155
0.863518 0.587655 -0.047726
0.867047 0.584901 -0.047596
0.871254 0.583881 -0.047856
0.878512 0.590423 -0.049805
0.883883 0.592098 -0.050683
0.885567 0.584750 -0.049549
0.891073 0.586671 -0.050494
0.896577 0.588479 -0.051422
0.901485 0.588801 -0.052024
0.909431 0.596033 -0.054196
0.912066 0.590999 -0.053598
0.915289 0.587361 -0.053316
0.919979 0.587003 -0.053783
0.925476 0.588367 -0.054647
0.930200 0.587988 -0.055117
0.936957 0.591897 -0.056576
0.942029 0.592136 -0.057194
0.944336 0.586603 -0.056476
0.948161 0.584279 -0.056497
0.955072 0.588228 -0.057974
0.959908 0.587908 -0.058457
0.968492 0.594979 -0.060669
0.972689 0.593307 -0.060830
0.979290 0.596302 -0.062082
0.988947 0.605053 -0.064691
0.993797 0.604542 -0.065107
0.992046 0.591738 -0.062591
0.994867 0.587662 -0.062125
1.001540 0.590719 -0.063345
1.006214 0.590128 -0.063679
1.010159 0.588277 -0.063694
1.008317 0.576280 -0.061249
1.014646 0.578857 -0.062283
1.025509 0.589277 -0.065191
1.035241 0.597605 -0.067581
1.037783 0.593630 -0.066973
1.042883 0.594095 -0.067414
1.046860 0.592753 -0.067390
1.051217 0.592134 -0.067514
1.055406 0.591332 -0.067565
1.060992 0.592887 -0.068162
1.065719 0.593120 -0.068409
1.070051 0.592808 -0.068493
1.074558 0.592868 -0.068638
1.078971 0.592870 -0.068740
1.082526 0.591632 -0.068510
0.151463 0.541531 -0.019160
0.141173 0.569618 -0.025042
0.138772 0.582010 -0.027810
0.135053 0.597504 -0.031182
0.147376 0.579603 -0.027889
0.157220 0.566748 -0.025570
0.154341 0.581103 -0.028657
0.152324 0.593993 -0.031435
0.158227 0.589890 -0.030795
0.166739 0.580026 -0.028976
0.169197 0.583628 -0.029832
0.173506 0.583216 -0.029862
0.182762 0.571552 -0.027611
0.184248 0.577736 -0.028923
0.183841 0.588599 -0.031157
0.189064 0.586432 -0.030753
0.193782 0.585502 -0.030581
0.197735 0.586484 -0.030775
0.201190 0.588783 -0.031218
0.205051 0.590187 -0.031466
0.209589 0.589960 -0.031372
0.213646 0.591006 -0.031522
0.217633 0.592298 -0.031709
0.220938 0.595457 -0.032260
0.224989 0.596728 -0.032422
0.231533 0.591273 -0.031229
0.236092 0.591142 -0.031096
0.240231 0.592180 -0.031192
0.244001 0.594297 -0.031499
0.246800 0.599270 -0.032372
0.250815 0.600818 -0.032557
0.256724 0.596753 -0.031619
0.260455 0.599120 -0.031965
0.264799 0.599649 -0.031943
0.269463 0.599161 -0.031719
0.274483 0.597484 -0.031259
0.280109 0.593745 -0.030392
0.285102 0.591921 -0.029909
0.290845 0.587469 -0.028907
0.295143 0.587734 -0.028846
0.299122 0.589066 -0.028999
0.300862 0.598305 -0.030723
0.307265 0.591048 -0.029182
0.311907 0.589921 -0.028860
0.315868 0.591235 -0.029026
0.320038 0.591746 -0.029037
0.324157 0.592419 -0.029086
0.328650 0.591573 -0.028839
0.332734 0.592290 -0.028907
0.335845 0.596993 -0.029766
0.340407 0.595718 -0.029450
0.346729 0.586738 -0.027621
0.350938 0.586609 -0.027543
0.354323 0.590124 -0.028189
0.358485 0.590163 -0.028155
0.362601 0.590360 -0.028157
0.363766 0.604746 -0.030959
0.369375 0.597805 -0.029566
0.376160 0.584501 -0.026926
0.379493 0.588398 -0.027678
0.383715 0.587699 -0.027531
0.387478 0.589418 -0.027864
0.389794 0.599306 -0.029811
0.394117 0.598095 -0.029578
0.398816 0.594525 -0.028886
0.403551 0.590475 -0.028104
0.407866 0.588766 -0.027787
0.409341 0.605365 -0.031080
0.413635 0.604062 -0.030854
0.419554 0.591348 -0.028384
0.423766 0.589955 -0.028147
0.427326 0.593256 -0.028841
0.431226 0.594134 -0.029061
0.435413 0.592733 -0.028837
0.439654 0.590726 -0.028497
0.443285 0.593778 -0.029159
0.447385 0.592822 -0.029034
0.451446 0.592102 -0.028960
0.455462 0.591712 -0.028955
0.458757 0.598692 -0.030410
0.462783 0.598405 -0.030433
0.466626 0.600134 -0.030859
0.471373 0.591074 -0.029153
0.475390 0.590257 -0.029081
0.479148 0.592836 -0.029685
0.483152 0.592129 -0.029642
0.486746 0.597695 -0.030847
0.490945 0.593902 -0.030198
0.494955 0.592863 -0.030099
0.498807 0.594793 -0.030593
0.502670 0.596829 -0.031111
0.506341 0.604054 -0.032666
0.510520 0.598922 -0.031765
0.514677 0.592943 -0.030696
0.518551 0.595512 -0.031334
0.522407 0.599983 -0.032355
0.526435 0.596838 -0.031858
0.530426 0.594280 -0.031481
0.534388 0.592236 -0.031209
0.538337 0.588626 -0.030625
0.542271 0.596096 -0.032264
0.546232 0.596811 -0.032552
0.550233 0.600513 -0.033443
0.554192 0.599270 -0.033345
0.557981 0.590213 -0.031676
0.561931 0.590908 -0.031971
0.565869 0.590936 -0.032134
0.569813 0.591116 -0.032330
0.573796 0.592196 -0.032710
0.578071 0.599652 -0.034382
0.581987 0.598240 -0.034266
0.585831 0.595693 -0.033922
0.589697 0.593895 -0.033731
0.593433 0.590271 -0.033171
0.597319 0.589332 -0.033157
0.601311 0.589947 -0.033463
0.605587 0.594162 -0.034503
0.609850 0.597683 -0.035407
0.613908 0.598417 -0.035746
0.617643 0.595484 -0.035340
0.621492 0.593992 -0.035229
0.625727 0.596460 -0.035931
0.629867 0.597766 -0.036399
0.634369 0.602214 -0.037515
0.637939 0.598136 -0.036884
0.641737 0.596247 -0.036705
0.645369 0.593138 -0.036276
0.650067 0.598496 -0.037595
0.653921 0.597123 -0.037529
0.658093 0.598103 -0.037953
0.662238 0.598795 -0.038320
0.665636 0.594359 -0.037628
0.668839 0.588886 -0.036723
0.674212 0.597489 -0.038742
0.676713 0.587852 -0.036974
0.681019 0.589537 -0.037563
0.685085 0.589693 -0.037837
0.689187 0.590012 -0.038150
0.693661 0.592326 -0.038883
0.699465 0.601617 -0.041084
0.703745 0.602435 -0.041516
0.707254 0.599234 -0.041108
0.710569 0.595186 -0.040525
0.715600 0.599634 -0.041733
0.720162 0.601607 -0.042426
0.722682 0.593976 -0.041094
0.725342 0.587285 -0.039960
0.729222 0.586256 -0.040028
0.733333 0.586230 -0.040312
0.737529 0.586527 -0.040670
0.743767 0.595271 -0.042834
0.747042 0.591534 -0.042344
0.748783 0.581770 -0.040567
0.753335 0.583365 -0.041222
0.760463 0.594753 -0.043986
0.763047 0.588531 -0.042977
0.766128 0.584334 -0.042404
0.771200 0.587480 -0.043419
0.775151 0.586465 -0.043543
0.780463 0.590212 -0.044704
0.785385 0.592434 -0.045543
0.790122 0.593908 -0.046227
0.793723 0.591500 -0.046073
0.796936 0.587858 -0.045653
0.801224 0.587744 -0.046009
0.805488 0.587504 -0.046344
0.809756 0.587236 -0.046679
0.814462 0.588266 -0.047307
0.821080 0.594970 -0.049195
0.826572 0.598075 -0.050301
0.830289 0.595844 -0.050234
0.834364 0.594655 -0.050403
0.838555 0.593776 -0.050648
0.842735 0.592839 -0.050886
0.844426 0.585030 -0.049592
0.849202 0.585752 -0.050212
0.854151 0.586858 -0.050926
0.857347 0.583263 -0.050589
0.861283 0.581635 -0.050700
0.866351 0.582892 -0.051470
0.871332 0.583840 -0.052179
0.878587 0.590359 -0.054166
0.884191 0.592597 -0.055189
0.887584 0.589367 -0.054969
0.890759 0.585650 -0.054640
0.897110 0.589458 -0.056046
0.903175 0.592448 -0.057274
0.906500 0.589025 -0.057026
0.909952 0.585927 -0.056854
0.914598 0.585529 -0.057312
0.920242 0.587294 -0.058279
0.924766 0.586532 -0.058660
0.930009 0.587294 -0.059400
0.937687 0.593166 -0.061349
0.942413 0.592666 -0.061800
0.944565 0.586812 -0.060982
0.947578 0.582832 -0.060600
0.954928 0.587691 -0.062319
0.959604 0.587068 -0.062730
0.964508 0.586896 -0.063244
0.969232 0.586361 -0.063666
0.976471 0.590684 -0.065250
0.981488 0.590668 -0.065784
0.985866 0.589452 -0.066016
0.990686 0.589095 -0.066444
0.995099 0.588011 -0.066681
0.999955 0.587780 -0.067110
1.006265 0.590203 -0.068173
1.011450 0.590599 -0.068723
1.009058 0.577640 -0.065973
1.015053 0.579657 -0.066876
1.027833 0.593429 -0.070659
1.034627 0.596724 -0.071841
1.038795 0.595558 -0.071897
1.041325 0.591729 -0.071267
1.046473 0.592401 -0.071724
1.050394 0.591113 -0.071666
1.054518 0.590258 -0.071688
1.060114 0.591886 -0.072298
1.064782 0.592079 -0.072522
1.069489 0.592418 -0.072753
1.073742 0.592125 -0.072797
1.077249 0.590759 -0.072543
1.081861 0.591224 -0.072717
0.133198 0.578964 -0.030496
0.143135 0.565866 -0.028184
0.138996 0.581773 -0.031738
0.137644 0.592273 -0.034181
0.142382 0.590254 -0.034054
0.151663 0.578647 -0.031944
0.151457 0.587320 -0.033954
0.150186 0.598598 -0.036480
0.158884 0.588355 -0.034574
0.165879 0.581784 -0.033395
0.166271 0.589980 -0.035225
0.174816 0.579983 -0.033294
0.180106 0.577323 -0.032849
0.184022 0.577884 -0.033045
0.184482 0.586657 -0.034912
0.188012 0.588440 -0.035321
0.190274 0.593393 -0.036364
0.195069 0.592377 -0.036160
0.200380 0.590129 -0.035685
0.205038 0.589515 -0.035530
0.208991 0.590724 -0.035737
0.213351 0.590965 -0.035731
0.216155 0.595302 -0.036556
0.222906 0.589377 -0.035257
0.227657 0.588659 -0.035021
0.231246 0.591093 -0.035424
0.235752 0.591083 -0.035317
0.239850 0.592216 -0.035439
0.243542 0.594538 -0.035798
0.245388 0.602243 -0.037256
0.251299 0.598273 -0.036317
0.254816 0.601281 -0.036805
0.262255 0.592505 -0.034882
0.265984 0.594815 -0.035225
0.268921 0.599639 -0.036081
0.273827 0.598338 -0.035687
0.279373 0.594884 -0.034856
0.284992 0.591028 -0.033945
0.290291 0.588064 -0.033220
0.294228 0.589577 -0.033410
0.297578 0.593132 -0.034017
0.300761 0.597351 -0.034762
0.305395 0.596462 -0.034473
0.311159 0.591341 -0.033330
0.315790 0.590201 -0.033000
0.319830 0.591205 -0.033109
0.324219 0.590833 -0.032944
0.328386 0.591269 -0.032948
0.332626 0.591365 -0.032889
0.335820 0.595720 -0.033696
0.339039 0.600098 -0.034512
0.344983 0.592877 -0.032989
0.349765 0.590387 -0.032428
0.354639 0.587312 -0.031755
0.358106 0.590504 -0.032353
0.362113 0.591243 -0.032461
0.364371 0.600386 -0.034271
0.368050 0.602896 -0.034747
0.373247 0.597801 -0.033693
0.377852 0.595458 -0.033201
0.382028 0.595217 -0.033138
0.386005 0.595986 -0.033284
0.389667 0.598514 -0.033791
0.393141 0.602206 -0.034537
0.397604 0.600187 -0.034136
0.402510 0.595292 -0.033160
0.406300 0.597063 -0.033534
0.409922 0.599986 -0.034145
0.415120 0.592483 -0.032657
0.419485 0.590195 -0.032226
0.423537 0.589944 -0.032211
0.427437 0.590742 -0.032412
0.430643 0.596887 -0.033697
0.434628 0.597239 -0.033817
0.439390 0.591125 -0.032635
0.443153 0.593083 -0.033088
0.447068 0.593791 -0.033293
0.451323 0.591321 -0.032859
0.455270 0.591609 -0.032986
0.459050 0.593602 -0.033463
0.462255 0.601983 -0.035239
0.466303 0.601598 -0.035243
0.471173 0.591199 -0.033220
0.475288 0.589176 -0.032898
0.479071 0.591364 -0.033433
0.482962 0.592241 -0.033707
0.486473 0.599153 -0.035211
0.490840 0.592685 -0.033998
0.494798 0.592552 -0.034077
0.498673 0.594023 -0.034486
0.502558 0.595536 -0.034906
0.506457 0.597039 -0.035328
0.510377 0.598302 -0.035705
0.514544 0.591991 -0.034539
0.518444 0.593478 -0.034967
0.522333 0.596071 -0.035625
0.526312 0.594859 -0.035508
0.530294 0.592483 -0.035155
0.534218 0.594508 -0.035707
0.538165 0.595581 -0.036066
0.542122 0.596111 -0.036317
0.546099 0.599149 -0.037087
0.550064 0.598394 -0.037080
0.554043 0.598912 -0.037338
0.557821 0.589273 -0.035506
0.561784 0.590588 -0.035932
0.565743 0.591323 -0.036242
0.569662 0.590672 -0.036268
0.573610 0.590850 -0.036468
0.577900 0.598803 -0.038279
0.582113 0.603569 -0.039437
0.585821 0.597947 -0.038445
0.589473 0.592233 -0.037434
0.593214 0.588765 -0.036890
0.597184 0.589159 -0.037151
0.601157 0.589505 -0.037404
0.605181 0.590449 -0.037785
0.609351 0.593026 -0.038510
0.613306 0.592801 -0.038653
0.617176 0.591615 -0.038598
0.621518 0.595465 -0.039600
0.625609 0.596412 -0.039997
0.629997 0.600064 -0.040966
0.634526 0.604654 -0.042136
0.638421 0.603291 -0.042060
0.641303 0.593499 -0.040211
0.645114 0.591912 -0.040090
0.648261 0.585256 -0.038902
0.652711 0.588803 -0.039869
0.656940 0.590468 -0.040443
0.660902 0.590125 -0.040595
0.665756 0.595807 -0.042029
0.670367 0.599494 -0.043045
0.674119 0.597467 -0.042852
0.676537 0.587302 -0.040928
0.680637 0.587753 -0.041266
0.684842 0.588757 -0.041726
0.688962 0.589190 -0.042068
0.693180 0.590100 -0.042516
0.698606 0.597411 -0.044341
0.703115 0.599515 -0.045056
0.707079 0.598700 -0.045149
0.711193 0.598626 -0.045405
0.715394 0.598944 -0.045751
0.720099 0.601598 -0.046605
0.723201 0.596654 -0.045822
0.725325 0.587450 -0.044116
0.729264 0.586667 -0.044237
0.733306 0.586318 -0.044457
0.738934 0.592689 -0.046145
0.744000 0.596415 -0.047265
0.747749 0.594572 -0.047176
0.750560 0.589008 -0.046277
0.754649 0.588630 -0.046516
0.759885 0.592630 -0.047721
0.763352 0.589762 -0.047425
0.766288 0.584991 -0.046712
0.770970 0.586692 -0.047430
0.775353 0.587221 -0.047896
0.780493 0.590332 -0.048942
0.784580 0.589663 -0.049157
0.789398 0.591444 -0.049922
0.794145 0.592876 -0.050618
0.797343 0.589143 -0.050168
0.801190 0.587575 -0.050205
0.805550 0.587628 -0.050612
0.809782 0.587230 -0.050924
0.816069 0.593082 -0.052652
0.821815 0.597070 -0.053971
0.826559 0.597903 -0.054588
0.829556 0.593557 -0.054037
0.830186 0.582482 -0.051959
0.836377 0.587439 -0.053532
0.841800 0.590048 -0.054580
0.847660 0.593726 -0.055884
0.852276 0.593873 -0.056389
0.854884 0.588598 -0.055653
0.856560 0.580967 -0.054375
0.860240 0.578696 -0.054336
0.867219 0.584867 -0.056259
0.873777 0.589749 -0.057897
0.875494 0.582405 -0.056698
0.881258 0.585131 -0.057851
0.886539 0.586559 -0.058710
0.890995 0.585928 -0.059093
0.895407 0.585159 -0.059448
0.900620 0.586216 -0.060241
0.905563 0.586579 -0.060875
0.908739 0.582884 -0.060551
0.914752 0.585573 -0.061747
0.919552 0.585474 -0.062285
0.924998 0.586740 -0.063153
0.930614 0.588300 -0.064095
0.938362 0.594310 -0.066114
0.943534 0.594735 -0.066792
0.948483 0.594654 -0.067347
0.953556 0.594803 -0.067957
0.959087 0.595849 -0.068783
0.963246 0.594111 -0.068927
0.964449 0.586562 -0.067639
0.969974 0.587613 -0.068447
0.976363 0.590299 -0.069653
0.981260 0.590081 -0.070134
0.985783 0.589167 -0.070433
0.990718 0.589055 -0.070917
0.995504 0.588688 -0.071323
1.001014 0.589673 -0.072050
1.005666 0.589117 -0.072376
1.011097 0.590001 -0.073044
1.010965 0.581077 -0.071230
1.012421 0.575158 -0.070141
1.023515 0.586100 -0.073273
1.034964 0.597489 -0.076502
1.036778 0.592364 -0.075541
1.041271 0.591909 -0.075732
1.046133 0.592149 -0.076071
1.049939 0.590719 -0.075959
1.053750 0.589402 -0.075845
1.059224 0.590886 -0.076414
1.063727 0.590869 -0.076571
1.067957 0.590505 -0.076611
1.072973 0.591479 -0.076962
1.077542 0.591827 -0.077123
1.085587 0.597666 -0.078654
0.162611 0.519499 -0.022097
0.138051 0.576592 -0.034287
0.142420 0.574941 -0.034281
0.142553 0.582228 -0.036115
0.146937 0.580805 -0.036114
0.150057 0.582165 -0.036671
0.150579 0.589254 -0.038406
0.156075 0.585801 -0.037911
0.161241 0.583118 -0.037553
0.165788 0.581863 -0.037471
0.168982 0.583723 -0.038021
0.172362 0.585306 -0.038490
0.176711 0.584809 -0.038500
0.180974 0.584597 -0.038548
0.184930 0.585194 -0.038746
0.185031 0.595044 -0.040875
0.189297 0.595211 -0.040942
0.194412 0.593390 -0.040572
0.200894 0.588226 -0.039479
0.204433 0.590339 -0.039904
0.208322 0.591677 -0.040150
0.212127 0.593318 -0.040446
0.217739 0.590348 -0.039757
0.223700 0.586407 -0.038853
0.227870 0.587172 -0.038929
0.231734 0.588810 -0.039179
0.235423 0.590993 -0.039536
0.239720 0.591549 -0.039543
0.243748 0.592888 -0.039709
0.244455 0.603825 -0.041884
0.257467 0.579104 -0.036572
0.258260 0.589889 -0.038707
0.262631 0.590199 -0.038643
0.267456 0.589101 -0.038283
0.271774 0.589517 -0.038240
0.275964 0.590317 -0.038277
0.280393 0.590341 -0.038153
0.284646 0.590900 -0.038142
0.288874 0.591519 -0.038146
0.293578 0.590493 -0.037809
0.297376 0.592521 -0.038112
0.300903 0.595525 -0.038621
0.305294 0.595485 -0.038500
0.310539 0.592270 -0.037723
0.315497 0.589946 -0.037136
0.319836 0.589822 -0.037012
0.324096 0.589945 -0.036943
0.328291 0.590270 -0.036922
0.332127 0.591995 -0.037195
0.334607 0.599316 -0.038634
0.339281 0.597665 -0.038218
0.344906 0.591797 -0.036934
0.349636 0.589540 -0.036405
0.353581 0.590641 -0.036576
0.357919 0.589930 -0.036377
0.361929 0.590665 -0.036483
0.365827 0.591917 -0.036702
0.368421 0.599589 -0.038253
0.372469 0.600247 -0.038359
0.377132 0.597692 -0.037807
0.381469 0.596683 -0.037580
0.385572 0.596834 -0.037598
0.389800 0.596235 -0.037466
0.393517 0.598488 -0.037929
0.397258 0.600670 -0.038383
0.401694 0.598690 -0.037981
0.406374 0.594997 -0.037231
0.410458 0.594889 -0.037226
0.414768 0.593198 -0.036900
0.419175 0.590680 -0.036407
0.423086 0.591476 -0.036603
0.426099 0.598927 -0.038181
0.429947 0.600460 -0.038539
0.434403 0.597226 -0.037917
0.439085 0.591820 -0.036848
0.443085 0.591796 -0.036898
0.446986 0.592611 -0.037126
0.451052 0.591898 -0.037041
0.454981 0.592417 -0.037216
0.457784 0.604528 -0.039798
0.461873 0.603928 -0.039750
0.466410 0.598112 -0.038623
0.470968 0.591338 -0.037300
0.474914 0.591521 -0.037425
0.478843 0.591911 -0.037596
0.482841 0.591312 -0.037566
0.486504 0.595810 -0.038599
0.490567 0.594251 -0.038376
0.494678 0.591525 -0.037913
0.498628 0.591436 -0.038002
0.502575 0.591373 -0.038099
0.506527 0.591148 -0.038167
0.510480 0.590786 -0.038209
0.514407 0.591095 -0.038394
0.518367 0.590290 -0.038349
0.522297 0.590439 -0.038507
0.526241 0.589801 -0.038503
0.530155 0.591089 -0.038906
0.534090 0.591338 -0.039094
0.538026 0.591704 -0.039309
0.541964 0.591050 -0.039314
0.545941 0.597611 -0.040838
0.549928 0.599446 -0.041372
0.553789 0.591890 -0.039933
0.557687 0.589657 -0.039615
0.561636 0.590282 -0.039902
0.565597 0.591076 -0.040229
0.569556 0.591551 -0.040490
0.573532 0.592323 -0.040818
0.577619 0.595422 -0.041641
0.581841 0.600698 -0.042929
0.585899 0.601894 -0.043357
0.589743 0.599142 -0.042950
0.593940 0.602442 -0.043831
0.597875 0.601317 -0.043775
0.601545 0.596617 -0.042959
0.605094 0.590877 -0.041923
0.608957 0.589642 -0.041848
0.612772 0.587946 -0.041677
0.616767 0.588379 -0.041963
0.621124 0.592528 -0.043049
0.624519 0.586640 -0.041987
0.628794 0.589648 -0.042835
0.633815 0.599167 -0.045086
0.638008 0.600617 -0.045610
0.641519 0.596186 -0.044870
0.644865 0.590727 -0.043910
0.648467 0.587631 -0.043460
0.652634 0.588961 -0.043969
0.656513 0.588075 -0.044002
0.660516 0.588083 -0.044232
0.666408 0.600846 -0.047232
0.670652 0.601958 -0.047711
0.673252 0.592513 -0.045899
0.676338 0.586595 -0.044853
0.680592 0.587978 -0.045400
0.684692 0.588346 -0.045729
0.688993 0.589802 -0.046301
0.693262 0.590962 -0.046812
0.698226 0.595763 -0.048127
0.701109 0.589382 -0.046993
0.705714 0.592074 -0.047854
0.709973 0.592870 -0.048305
0.714103 0.592962 -0.048604
0.718766 0.595544 -0.049459
0.723049 0.596203 -0.049894
0.725479 0.588381 -0.048455
0.729578 0.588271 -0.048727
0.734123 0.590058 -0.049425
0.738140 0.589487 -0.049605
0.743793 0.595705 -0.051304
0.748204 0.596565 -0.051816
0.752468 0.596757 -0.052184
0.756349 0.595395 -0.052209
0.759642 0.591781 -0.051733
0.763157 0.589095 -0.051469
0.765993 0.583946 -0.050653
0.770121 0.583641 -0.050933
0.775372 0.587303 -0.052116
0.780352 0.589838 -0.053054
0.784524 0.589454 -0.053336
0.789153 0.590581 -0.053969
0.793667 0.591240 -0.054503
0.797359 0.589135 -0.054412
0.801039 0.587013 -0.054322
0.805212 0.586467 -0.054599
0.809609 0.586583 -0.055035
0.814143 0.587066 -0.055562
0.821421 0.595746 -0.057991
0.826375 0.597209 -0.058765
0.829396 0.592929 -0.058215
0.830832 0.584168 -0.056626
0.835293 0.584182 -0.057081
0.842063 0.590581 -0.059035
0.848413 0.595581 -0.060676
0.852830 0.595147 -0.061055
0.854883 0.588361 -0.059945
0.857708 0.583744 -0.059347
0.862300 0.583784 -0.059853
0.868607 0.588152 -0.061392
0.874641 0.591654 -0.062738
0.878058 0.588498 -0.062509
0.876825 0.573978 -0.059566
0.883899 0.579883 -0.061506
0.889583 0.582262 -0.062612
0.894720 0.583239 -0.063390
0.901286 0.587457 -0.064958
0.906135 0.587580 -0.065545
0.909506 0.584310 -0.065312
0.914430 0.584545 -0.065932
0.920104 0.586383 -0.066948
0.926432 0.589558 -0.068297
0.931888 0.590737 -0.069162
0.937821 0.592866 -0.070263
0.945034 0.597591 -0.072009
0.949634 0.596760 -0.072384
0.955566 0.598648 -0.073431
0.959622 0.596680 -0.073517
0.961256 0.589902 -0.072394
0.964563 0.586574 -0.072121
0.969991 0.587452 -0.072892
0.975728 0.588903 -0.073800
0.980745 0.588953 -0.074345
0.986232 0.589895 -0.075105
0.991179 0.589824 -0.075595
0.995918 0.589392 -0.075979
1.000239 0.588233 -0.076160
1.005630 0.589060 -0.076829
1.014405 0.595953 -0.079031
1.017576 0.592841 -0.078654
1.018587 0.586066 -0.077311
1.024521 0.588005 -0.078179
1.034202 0.596391 -0.080686
1.039091 0.596541 -0.081047
1.040400 0.590738 -0.079843
1.045494 0.591422 -0.080285
1.049439 0.590272 -0.080224
1.054446 0.590962 -0.080610
1.059832 0.592339 -0.081145
1.064261 0.592236 -0.081266
1.068052 0.591207 -0.081117
1.071879 0.590341 -0.080979
1.077752 0.592788 -0.081673
1.079051 0.588169 -0.080500
0.130698 0.584775 -0.039563
0.138393 0.583561 -0.040037
0.143080 0.581361 -0.039901
0.146577 0.581747 -0.040293
0.148524 0.585559 -0.041396
0.151702 0.586915 -0.041952
0.155949 0.586095 -0.042019
0.160173 0.585424 -0.042094
0.164375 0.584900 -0.042177
0.168079 0.585592 -0.042498
0.172107 0.585672 -0.042664
0.175741 0.586758 -0.043025
0.178817 0.589265 -0.043671
0.183207 0.588845 -0.043664
0.189775 0.583335 -0.042537
0.189769 0.593566 -0.044788
0.196008 0.588945 -0.043813
0.200555 0.588444 -0.043710
0.204155 0.590360 -0.044112
0.207748 0.592403 -0.044525
0.212785 0.590856 -0.044147
0.217041 0.591337 -0.044194
0.221618 0.591028 -0.044058
0.226070 0.591074 -0.043987
