ply
format ascii 1.0
comment ---
element vertex 1708
property float x
property float y
property float z
element face 0
property list uchar uint vertex_indices
end_header
0.957495 0.595661 -0.045288
0.960694 0.592365 -0.045029
0.962351 0.585690 -0.044049
0.966692 0.584988 -0.044354
0.973184 0.588889 -0.045658
0.978828 0.590834 -0.046552
0.989080 0.602370 -0.049535
0.993745 0.601964 -0.049943
0.991588 0.587502 -0.047294
0.996730 0.588138 -0.047936
1.003795 0.592555 -0.049417
1.005250 0.585698 -0.048432
1.011254 0.587850 -0.049434
1.018130 0.591582 -0.050796
1.026985 0.598952 -0.052980
1.032491 0.599764 -0.053722
1.035442 0.595723 -0.053390
1.035976 0.587249 -0.052068
1.040645 0.586460 -0.052469
1.047889 0.590279 -0.053916
1.053134 0.590385 -0.054536
1.058358 0.590393 -0.055143
1.063629 0.590423 -0.055762
1.068443 0.589608 -0.056195
1.074289 0.590516 -0.057030
1.079764 0.590722 -0.057710
1.085378 0.591102 -0.058438
1.090569 0.590721 -0.058995
1.096114 0.590876 -0.059682
1.102821 0.592857 -0.060798
1.107864 0.592088 -0.061278
1.112699 0.590961 -0.061675
1.117752 0.590159 -0.062149
1.123408 0.590270 -0.062838
1.130321 0.592272 -0.063975
1.135435 0.591471 -0.064447
1.141872 0.592649 -0.065386
1.147514 0.592598 -0.066029
1.152968 0.592255 -0.066595
1.158151 0.591514 -0.067057
1.164299 0.592172 -0.067848
1.172660 0.595976 -0.069391
1.177311 0.594467 -0.069635
1.182107 0.593200 -0.069921
1.187226 0.592424 -0.070309
1.194840 0.595112 -0.071529
1.200249 0.594780 -0.071989
1.205533 0.594319 -0.072396
1.211066 0.594241 -0.072875
1.216464 0.594033 -0.073296
1.221794 0.593791 -0.073684
1.228689 0.595647 -0.074567
1.232709 0.593823 -0.074507
1.236965 0.592396 -0.074515
1.241270 0.591124 -0.074531
1.245554 0.589921 -0.074534
1.250374 0.589479 -0.074697
1.260213 0.595345 -0.076413
0.306739 0.534805 -0.010320
0.303811 0.551324 -0.013667
0.297889 0.576614 -0.018637
0.299137 0.582676 -0.020029
0.302067 0.584301 -0.020580
0.304548 0.587402 -0.021389
0.311367 0.578193 -0.019880
0.303804 0.611019 -0.026210
0.312680 0.596079 -0.023592
0.320023 0.585484 -0.021763
0.323704 0.585903 -0.021979
0.326182 0.590196 -0.022904
0.329752 0.591311 -0.023217
0.333679 0.591439 -0.023329
0.333995 0.603391 -0.025648
0.340280 0.596169 -0.024347
0.343673 0.598488 -0.024828
0.347302 0.600171 -0.025176
0.355262 0.586988 -0.022713
0.358687 0.589393 -0.023175
0.362333 0.591155 -0.023505
0.361915 0.607883 -0.026644
0.366288 0.607445 -0.026544
0.372509 0.600005 -0.025120
0.377411 0.597402 -0.024600
0.381888 0.596387 -0.024375
0.386693 0.594016 -0.023891
0.391583 0.591196 -0.023320
0.396008 0.590203 -0.023091
0.399120 0.594784 -0.023907
0.402304 0.599234 -0.024698
0.407910 0.592991 -0.023481
0.412359 0.591736 -0.023201
0.416852 0.590178 -0.022865
0.420145 0.594283 -0.023594
0.423799 0.596760 -0.024020
0.426677 0.603237 -0.025197
0.430631 0.604412 -0.025383
0.437488 0.590125 -0.022673
0.440993 0.593345 -0.023250
0.445000 0.593855 -0.023321
0.449088 0.593864 -0.023303
0.453149 0.593971 -0.023308
0.456467 0.598568 -0.024157
0.460384 0.599593 -0.024342
0.465024 0.595894 -0.023647
0.469441 0.593378 -0.023177
0.473806 0.590980 -0.022734
0.477650 0.592104 -0.022956
0.481904 0.590165 -0.022609
0.483703 0.607056 -0.025795
0.488573 0.600429 -0.024579
0.493331 0.594135 -0.023429
0.496882 0.597770 -0.024146
0.501412 0.592729 -0.023240
0.505342 0.592865 -0.023310
0.509171 0.593957 -0.023564
0.513137 0.593642 -0.023559
0.517102 0.593215 -0.023537
0.521189 0.591260 -0.023232
0.524490 0.598678 -0.024694
0.528575 0.596688 -0.024392
0.532670 0.594210 -0.024002
0.536531 0.594813 -0.024197
0.540248 0.597744 -0.024834
0.544337 0.594605 -0.024332
0.548283 0.593538 -0.024224
0.551679 0.603605 -0.026221
0.555962 0.595384 -0.024771
0.560004 0.591293 -0.024103
0.563794 0.593375 -0.024606
0.567685 0.592655 -0.024582
0.571570 0.591766 -0.024530
0.575434 0.591445 -0.024590
0.579052 0.606909 -0.027646
0.583169 0.589042 -0.024384
0.586932 0.602143 -0.027004
0.590846 0.593554 -0.025506
0.594703 0.592122 -0.025371
0.598561 0.592480 -0.025581
0.602413 0.592012 -0.025636
0.606396 0.599364 -0.027186
0.610393 0.604216 -0.028264
0.614081 0.595713 -0.026794
0.617858 0.592574 -0.026351
0.621827 0.595522 -0.027075
0.625718 0.595844 -0.027300
0.629709 0.598238 -0.027925
0.633571 0.597580 -0.027968
0.637581 0.599705 -0.028549
0.641666 0.602694 -0.029300
0.645865 0.606998 -0.030308
0.649272 0.599163 -0.028978
0.652958 0.596073 -0.028564
0.657139 0.599643 -0.029440
0.661408 0.603819 -0.030437
0.665334 0.603602 -0.030587
0.669004 0.600594 -0.030197
0.672661 0.597705 -0.029832
0.676549 0.597299 -0.029951
0.679941 0.592244 -0.029166
0.683900 0.592676 -0.029452
0.687923 0.593579 -0.029832
0.691941 0.594335 -0.030187
0.695910 0.594595 -0.030447
0.700943 0.602969 -0.032300
0.704975 0.603303 -0.032582
0.707994 0.596333 -0.031430
0.711201 0.591088 -0.030616
0.714973 0.589917 -0.030605
0.718784 0.589036 -0.030653
0.722507 0.587614 -0.030596
0.728558 0.600446 -0.033363
0.732666 0.600997 -0.033704
0.736235 0.598370 -0.033417
0.738990 0.591281 -0.032243
0.741967 0.585748 -0.031378
0.746973 0.591250 -0.032713
0.751978 0.596434 -0.033989
0.756996 0.601398 -0.035227
0.760096 0.596615 -0.034519
0.763653 0.594228 -0.034290
0.766750 0.589751 -0.033643
0.770834 0.589979 -0.033943
0.775232 0.591575 -0.034521
0.781894 0.603031 -0.037093
0.785920 0.602607 -0.037273
0.789437 0.600018 -0.037017
0.792447 0.595405 -0.036353
0.795607 0.591549 -0.035841
0.799599 0.591111 -0.036026
0.803580 0.590614 -0.036202
0.807576 0.590154 -0.036387
0.812373 0.592676 -0.037186
0.817271 0.595444 -0.038040
0.823961 0.604540 -0.040197
0.830086 0.611270 -0.041878
0.831348 0.600791 -0.040024
0.830942 0.584928 -0.037056
0.835917 0.587672 -0.037924
0.840248 0.588153 -0.038330
0.844489 0.588291 -0.038669
0.848426 0.587412 -0.038801
0.852888 0.588176 -0.039278
0.857116 0.588153 -0.039595
0.866167 0.602794 -0.042981
0.870253 0.602040 -0.043160
0.870238 0.589151 -0.040797
0.872696 0.583810 -0.040015
0.877502 0.585317 -0.040676
0.886467 0.586277 -0.041580
0.890733 0.586080 -0.041897
0.895669 0.587658 -0.042596
0.900038 0.587635 -0.042961
0.911517 0.606244 -0.047305
0.913751 0.600347 -0.046434
0.913652 0.588610 -0.044313
0.916749 0.585197 -0.043974
0.923077 0.589861 -0.045375
0.926988 0.588429 -0.045472
0.930567 0.586181 -0.045398
0.938943 0.595398 -0.047811
0.950057 0.610780 -0.051580
0.954558 0.610332 -0.051925
0.955642 0.601997 -0.050557
0.957264 0.595044 -0.049489
0.960106 0.590947 -0.049046
0.963099 0.587230 -0.048691
0.967004 0.585547 -0.048787
0.973943 0.590392 -0.050331
0.979937 0.593050 -0.051404
0.986987 0.597813 -0.052956
0.990356 0.594756 -0.052780
0.994419 0.593140 -0.052929
0.997109 0.588722 -0.052458
1.002537 0.589841 -0.053233
1.006864 0.588694 -0.053507
1.015038 0.595045 -0.055483
1.020375 0.595702 -0.056185
1.026317 0.597444 -0.057143
1.031867 0.598343 -0.057921
1.034422 0.593568 -0.057410
1.036040 0.587113 -0.056515
1.041419 0.587611 -0.057220
1.048289 0.590732 -0.058539
1.053708 0.591133 -0.059241
1.058912 0.591089 -0.059848
1.063916 0.590638 -0.060367
1.068456 0.589341 -0.060696
1.073708 0.589230 -0.061307
1.079903 0.590660 -0.062287
1.086222 0.592212 -0.063305
1.091020 0.591166 -0.063715
1.097002 0.592028 -0.064581
1.103103 0.593016 -0.065483
1.107735 0.591587 -0.065811
1.112510 0.590373 -0.066190
1.117783 0.589925 -0.066753
1.124618 0.591869 -0.067894
1.130514 0.592301 -0.068671
1.135958 0.592010 -0.069269
1.141681 0.592119 -0.069961
1.147804 0.592801 -0.070788
1.152861 0.591888 -0.071218
1.158108 0.591260 -0.071707
1.163803 0.591286 -0.072348
1.172449 0.595525 -0.074022
1.177515 0.594630 -0.074411
1.181827 0.592710 -0.074528
1.188842 0.594593 -0.075577
1.194483 0.594581 -0.076133
1.200110 0.594581 -0.076673
1.205281 0.594001 -0.077043
1.210619 0.593699 -0.077460
1.216378 0.594009 -0.078007
1.222710 0.595119 -0.078731
1.227718 0.594544 -0.078999
1.232051 0.593171 -0.079035
1.236027 0.591430 -0.078947
1.241052 0.591119 -0.079193
1.245468 0.590119 -0.079232
1.250036 0.589400 -0.079311
1.256235 0.590793 -0.079902
0.294626 0.567610 -0.020091
0.301740 0.557103 -0.018406
0.291660 0.593851 -0.025688
0.301925 0.574938 -0.022366
0.304139 0.578426 -0.023290
0.305749 0.583879 -0.024573
0.303820 0.599850 -0.027854
0.304457 0.608878 -0.029792
0.314255 0.591111 -0.026571
0.319924 0.585427 -0.025645
0.323222 0.586955 -0.026086
0.326564 0.588526 -0.026518
0.329839 0.590480 -0.027007
0.332775 0.593700 -0.027723
0.331617 0.610400 -0.031024
0.338569 0.601046 -0.029285
0.343502 0.598240 -0.028795
0.348012 0.596873 -0.028568
0.354678 0.588081 -0.026895
0.358051 0.590645 -0.027404
0.361367 0.593572 -0.027972
0.364918 0.595803 -0.028397
0.366572 0.605215 -0.030200
0.372145 0.600173 -0.029205
0.377312 0.596527 -0.028473
0.382208 0.593827 -0.027919
0.386448 0.593664 -0.027850
0.391081 0.591882 -0.027466
0.393650 0.598681 -0.028735
0.397457 0.600456 -0.029032
0.403013 0.594631 -0.027863
0.409174 0.585804 -0.026117
0.413291 0.585914 -0.026093
0.416157 0.591859 -0.027193
0.419917 0.593755 -0.027515
0.423080 0.598647 -0.028415
0.427347 0.598158 -0.028282
0.431889 0.596170 -0.027862
0.436518 0.593555 -0.027326
0.440673 0.593330 -0.027253
0.444683 0.593845 -0.027325
0.448851 0.593414 -0.027220
0.452924 0.593456 -0.027209
0.454736 0.607278 -0.029852
0.460856 0.594690 -0.027422
0.464432 0.597804 -0.028015
0.468782 0.595838 -0.027637
0.473849 0.588680 -0.026265
0.477415 0.591754 -0.026864
0.481384 0.591969 -0.026919
0.483252 0.608382 -0.030092
0.487950 0.603244 -0.029127
0.492561 0.598348 -0.028214
0.497709 0.588283 -0.026311
0.500713 0.596752 -0.027977
0.505032 0.593418 -0.027378
0.509264 0.590565 -0.026876
0.513066 0.591840 -0.027173
0.516778 0.594159 -0.027676
0.520585 0.595552 -0.028006
0.524692 0.593358 -0.027648
0.528299 0.597327 -0.028484
0.532488 0.593662 -0.027852
0.535942 0.600328 -0.029218
0.539799 0.601478 -0.029524
0.544083 0.595351 -0.028429
0.547944 0.596027 -0.028652
0.551766 0.597575 -0.029048
0.555870 0.592909 -0.028245
0.559854 0.590125 -0.027810
0.563669 0.591425 -0.028170
0.567513 0.592072 -0.028408
0.571387 0.591667 -0.028445
0.575201 0.593969 -0.029012
0.578802 0.611258 -0.032497
0.582821 0.604832 -0.031377
0.586765 0.600874 -0.030739
0.590678 0.591872 -0.029120
0.594536 0.592333 -0.029347
0.598385 0.591009 -0.029230
0.602233 0.590594 -0.029293
0.606327 0.604752 -0.032209
0.610183 0.601882 -0.031801
0.613961 0.597057 -0.031011
0.617772 0.594675 -0.030702
0.621664 0.595179 -0.030962
0.625385 0.591276 -0.030358
0.629282 0.592048 -0.030676
0.633363 0.596305 -0.031684
0.637477 0.600404 -0.032665
0.641679 0.605299 -0.033808
0.645493 0.603357 -0.033604
0.649099 0.598628 -0.032852
0.652645 0.593640 -0.032048
0.656806 0.597075 -0.032915
0.661207 0.602980 -0.034277
0.665332 0.605058 -0.034883
0.669130 0.603335 -0.034737
0.672711 0.599513 -0.034175
0.676374 0.596804 -0.033835
0.679693 0.591062 -0.032891
0.683837 0.593186 -0.033519
0.687787 0.593426 -0.033773
0.691732 0.593569 -0.034011
0.695890 0.595360 -0.034581
0.701938 0.611497 -0.038038
0.705049 0.604691 -0.036890
0.707482 0.593469 -0.034851
0.710951 0.590113 -0.034395
0.715037 0.591067 -0.034810
0.718764 0.589595 -0.034737
0.722511 0.588301 -0.034703
0.727886 0.596986 -0.036694
0.732233 0.599037 -0.037344
0.735623 0.595427 -0.036847
0.738491 0.589041 -0.035785
0.743533 0.594833 -0.037206
0.749010 0.602600 -0.039036
0.752783 0.601107 -0.038979
0.755152 0.592548 -0.037477
0.759242 0.592857 -0.037791
0.762901 0.591043 -0.037671
0.766436 0.588690 -0.037443
0.769782 0.585536 -0.037050
0.774156 0.587118 -0.037636
0.778821 0.589872 -0.038468
0.784737 0.597869 -0.040390
0.788906 0.598124 -0.040715
0.792149 0.594502 -0.040237
0.795869 0.592924 -0.040185
0.798914 0.588692 -0.039583
0.803034 0.588775 -0.039881
0.807223 0.589079 -0.040229
0.811635 0.590173 -0.040746
0.816881 0.594255 -0.041893
0.824590 0.607050 -0.044878
0.828875 0.607206 -0.045215
0.830480 0.597982 -0.043578
0.833312 0.593238 -0.042885
0.837035 0.591619 -0.042853
0.842247 0.594942 -0.043871
0.843749 0.586047 -0.042301
0.847985 0.586156 -0.042644
0.852622 0.587483 -0.043250
0.856856 0.587481 -0.043578
0.868042 0.608633 -0.048437
0.872137 0.607806 -0.048606
0.875762 0.605573 -0.048477
0.885673 0.608813 -0.049890
0.887426 0.601256 -0.048623
0.885942 0.584872 -0.045443
0.891384 0.587908 -0.046468
0.895842 0.588159 -0.046895
0.901544 0.591671 -0.048038
0.912002 0.595819 -0.049722
0.913611 0.588496 -0.048515
0.917006 0.585827 -0.048330
0.923268 0.590305 -0.049723
0.927107 0.588678 -0.049779
0.931154 0.587549 -0.049950
0.942235 0.603195 -0.053848
0.946738 0.602884 -0.054220
0.952115 0.604565 -0.055044
0.953680 0.597398 -0.053899
0.952893 0.585034 -0.051590
0.959449 0.589361 -0.053022
0.963887 0.588848 -0.053378
0.972464 0.597326 -0.055769
0.979606 0.602449 -0.057420
0.981393 0.595992 -0.056457
0.984226 0.591837 -0.056017
0.990967 0.595846 -0.057444
0.995523 0.595217 -0.057823
1.001513 0.597455 -0.058867
1.004596 0.593758 -0.058557
1.011747 0.598144 -0.060116
1.013586 0.591975 -0.059247
1.019162 0.593119 -0.060075
1.026356 0.597270 -0.061614
1.031566 0.597519 -0.062256
1.032632 0.589963 -0.061079
1.035694 0.586206 -0.060792
1.041895 0.588205 -0.061865
1.047570 0.589151 -0.062699
1.054291 0.591886 -0.063967
1.059231 0.591358 -0.064471
1.063855 0.590234 -0.064839
1.069052 0.590067 -0.065442
1.074725 0.590660 -0.066234
1.080456 0.591285 -0.067041
1.086014 0.591555 -0.067769
1.091254 0.591243 -0.068361
1.096708 0.591239 -0.069032
1.103074 0.592663 -0.070055
1.108101 0.591872 -0.070540
1.112784 0.590511 -0.070886
1.118071 0.590088 -0.071461
1.124317 0.591123 -0.072397
1.131287 0.593214 -0.073594
1.136398 0.592419 -0.074073
1.140898 0.590701 -0.074314
1.147801 0.592569 -0.075447
1.153895 0.593198 -0.076263
1.158688 0.591913 -0.076588
1.166343 0.594778 -0.077950
1.171650 0.594240 -0.078440
1.177068 0.593879 -0.078959
1.182840 0.594036 -0.079594
1.187838 0.593139 -0.079941
1.194331 0.594339 -0.080806
1.201467 0.596426 -0.081879
1.205435 0.594242 -0.081829
1.210148 0.593138 -0.082032
1.216440 0.594194 -0.082768
1.221841 0.594117 -0.083183
1.226964 0.593740 -0.083491
1.230806 0.591777 -0.083357
1.234961 0.590315 -0.083322
1.242046 0.592668 -0.084254
1.246199 0.591364 -0.084198
1.250785 0.590697 -0.084277
1.261875 0.598188 -0.086465
0.314998 0.512960 -0.013178
0.296766 0.570811 -0.024735
0.296997 0.579270 -0.026691
0.300861 0.577959 -0.026726
0.305177 0.575495 -0.026515
0.306916 0.580481 -0.027743
0.306426 0.592186 -0.030274
0.304382 0.608896 -0.033774
0.313504 0.593075 -0.030863
0.318799 0.588481 -0.030136
0.323218 0.586568 -0.029917
0.326566 0.588054 -0.030350
0.330027 0.589358 -0.030729
0.333464 0.590900 -0.031139
0.333294 0.604287 -0.033873
0.337528 0.603727 -0.033837
0.342961 0.599245 -0.033008
0.348393 0.594713 -0.032156
0.354219 0.588750 -0.031006
0.357457 0.591753 -0.031619
0.361239 0.592987 -0.031871
0.365061 0.594178 -0.032105
0.367315 0.601288 -0.033502
0.371488 0.601445 -0.033515
0.377113 0.596038 -0.032419
0.381196 0.596511 -0.032482
0.385022 0.598046 -0.032750
0.389496 0.596997 -0.032502
0.392925 0.600278 -0.033108
0.396878 0.601453 -0.033296
0.402772 0.594176 -0.031811
0.408007 0.589499 -0.030840
0.413126 0.585104 -0.029926
0.415680 0.592487 -0.031338
0.417794 0.602299 -0.033230
0.421261 0.605901 -0.033897
0.427552 0.595413 -0.031786
0.432193 0.592857 -0.031243
0.436195 0.593503 -0.031335
0.440353 0.593281 -0.031259
0.444401 0.593599 -0.031292
0.448673 0.592587 -0.031068
0.452627 0.593334 -0.031194
0.455688 0.599518 -0.032395
0.459393 0.601955 -0.032863
0.463739 0.600313 -0.032531
0.467803 0.600389 -0.032542
0.473166 0.591379 -0.030768
0.477131 0.591709 -0.030839
0.480942 0.593134 -0.031130
0.483887 0.601276 -0.032750
0.487947 0.601029 -0.032722
0.492734 0.594623 -0.031485
0.496753 0.594282 -0.031448
0.500826 0.593342 -0.031297
0.504414 0.596834 -0.032026
0.508719 0.593464 -0.031406
0.512867 0.591322 -0.031033
0.516507 0.594445 -0.031704
0.520258 0.596560 -0.032181
0.524170 0.596860 -0.032304
0.528344 0.593720 -0.031752
0.532209 0.594373 -0.031955
0.535672 0.600997 -0.033343
0.539453 0.603462 -0.033913
0.543669 0.598779 -0.033073
0.547806 0.594644 -0.032345
0.551476 0.599254 -0.033355
0.555377 0.599488 -0.033501
0.559660 0.590005 -0.031723
0.563495 0.590804 -0.031989
0.567321 0.592042 -0.032346
0.571175 0.592582 -0.032569
0.575045 0.592518 -0.032675
0.578569 0.614159 -0.037109
0.582633 0.605393 -0.035492
0.586607 0.597637 -0.034077
0.590500 0.594410 -0.033568
0.594358 0.589683 -0.032761
0.598213 0.590398 -0.033045
0.602061 0.589994 -0.033108
0.606016 0.596110 -0.034481
0.610021 0.601860 -0.035786
0.613868 0.599531 -0.035475
0.617643 0.595550 -0.034835
0.621519 0.595396 -0.034965
0.625277 0.592316 -0.034510
0.628888 0.586583 -0.033522
0.632904 0.590020 -0.034384
0.637223 0.598402 -0.036249
0.641338 0.601953 -0.037144
0.645302 0.602579 -0.037452
0.648700 0.594815 -0.036063
0.652362 0.591617 -0.035600
0.656216 0.591224 -0.035707
0.660691 0.598353 -0.037346
0.665037 0.603187 -0.038524
0.668985 0.603167 -0.038718
0.672619 0.599874 -0.038247
0.676170 0.596017 -0.037662
0.679558 0.590942 -0.036828
0.683607 0.592211 -0.037293
0.687587 0.592735 -0.037609
0.691430 0.592044 -0.037679
0.695837 0.595864 -0.038677
0.701720 0.610721 -0.041951
0.705148 0.606278 -0.041259
0.707775 0.596362 -0.039438
0.710977 0.591051 -0.038566
0.715096 0.592187 -0.039027
0.719150 0.592795 -0.039381
0.723113 0.592751 -0.039603
0.727312 0.594119 -0.040121
0.730712 0.590627 -0.039632
0.734721 0.590805 -0.039907
0.738728 0.590930 -0.040174
0.745792 0.607717 -0.043923
0.748635 0.601126 -0.042796
0.750526 0.589893 -0.040695
0.753425 0.584279 -0.039769
0.757886 0.586614 -0.040511
0.762382 0.588974 -0.041263
0.766832 0.590972 -0.041943
0.769699 0.585553 -0.041062
0.774031 0.586932 -0.041617
0.779414 0.592852 -0.043137
0.787933 0.612004 -0.047469
0.789432 0.600685 -0.045347
0.792992 0.598311 -0.045123
0.795886 0.593301 -0.044338
0.798045 0.585535 -0.042966
0.803354 0.590297 -0.044269
0.806982 0.588427 -0.044158
0.811088 0.588375 -0.044440
0.815944 0.591053 -0.045311
0.824222 0.605954 -0.048817
0.827353 0.602026 -0.048280
0.830692 0.598925 -0.047923
0.834220 0.596541 -0.047722
0.838083 0.595328 -0.047777
0.841626 0.593056 -0.047606
0.844275 0.587915 -0.046813
0.847716 0.585440 -0.046600
0.853111 0.589157 -0.047741
0.857147 0.588504 -0.047935
0.867539 0.607210 -0.052372
0.871002 0.604499 -0.052130
0.873140 0.597915 -0.051038
0.881462 0.609485 -0.053946
0.885464 0.608281 -0.054048
0.886651 0.599125 -0.052397
0.886173 0.585558 -0.049764
0.891597 0.588529 -0.050798
0.895735 0.587893 -0.051037
0.901000 0.590233 -0.051945
0.909876 0.601947 -0.054956
0.911309 0.594016 -0.053584
0.914464 0.590656 -0.053237
0.915759 0.582654 -0.051848
0.922381 0.588060 -0.053481
0.927044 0.588471 -0.053996
0.931275 0.587779 -0.054269
0.938069 0.593175 -0.055931
0.941249 0.589865 -0.055624
0.947383 0.593462 -0.056896
0.948980 0.586500 -0.055764
0.953107 0.585400 -0.055976
0.959459 0.589253 -0.057333
0.965552 0.592387 -0.058536
0.975652 0.604130 -0.061740
0.984371 0.602159 -0.062301
0.985581 0.594504 -0.061040
0.989251 0.592089 -0.061001
0.996749 0.597529 -0.062806
1.004222 0.602732 -0.064571
1.010314 0.604987 -0.065658
1.009716 0.593890 -0.063604
1.011241 0.587147 -0.062574
1.015932 0.586624 -0.063021
1.025634 0.595630 -0.065746
1.031376 0.596891 -0.066642
1.032644 0.589711 -0.065525
1.035785 0.586094 -0.065263
1.042257 0.588576 -0.066475
1.047822 0.589310 -0.067275
1.054484 0.591927 -0.068542
1.059265 0.591110 -0.068984
1.064230 0.590577 -0.069502
1.070161 0.591666 -0.070424
1.075260 0.591255 -0.070985
1.081181 0.592189 -0.071883
1.086315 0.591738 -0.072445
1.091166 0.590780 -0.072885
1.097388 0.592033 -0.073879
1.103211 0.592570 -0.074699
1.108892 0.592826 -0.075451
1.113697 0.591653 -0.075846
1.118543 0.590533 -0.076252
1.124924 0.591777 -0.077254
1.131906 0.593890 -0.078476
1.136549 0.592388 -0.078776
1.141635 0.591562 -0.079241
1.147613 0.592062 -0.080039
1.153706 0.592712 -0.080867
1.159655 0.593134 -0.081627
1.164981 0.592652 -0.082141
1.170196 0.592025 -0.082604
1.175747 0.591900 -0.083181
1.182620 0.593644 -0.084228
1.188185 0.593566 -0.084782
1.193863 0.593674 -0.085364
1.200393 0.594976 -0.086237
1.205478 0.594346 -0.086579
1.210475 0.593656 -0.086879
1.215498 0.593065 -0.087177
1.220729 0.592811 -0.087537
1.226450 0.593262 -0.088055
1.230943 0.592183 -0.088136
1.235475 0.591240 -0.088222
1.242048 0.592975 -0.088991
1.247179 0.592942 -0.089257
1.251636 0.592140 -0.089286
1.255773 0.591032 -0.089200
0.318991 0.502439 -0.014525
0.293851 0.578950 -0.030074
0.294950 0.585052 -0.031615
0.299219 0.582619 -0.031435
0.302437 0.583245 -0.031846
0.307482 0.578826 -0.031226
0.309297 0.583785 -0.032467
0.306727 0.601859 -0.036331
0.311843 0.597763 -0.035718
0.319701 0.585463 -0.033428
0.323148 0.586409 -0.033788
0.326447 0.587979 -0.034255
0.329949 0.589091 -0.034612
0.333433 0.590419 -0.034995
0.333301 0.603605 -0.037763
0.338161 0.600919 -0.037301
0.342610 0.599626 -0.037106
0.347121 0.598179 -0.036864
0.353629 0.589877 -0.035218
0.357731 0.589820 -0.035231
0.361123 0.592369 -0.035762
0.364937 0.593536 -0.036001
0.362745 0.617078 -0.040770
0.371549 0.600004 -0.037291
0.376770 0.596103 -0.036478
0.380201 0.599114 -0.037060
0.384052 0.600577 -0.037322
0.388763 0.598594 -0.036882
0.393325 0.597157 -0.036549
0.397427 0.597613 -0.036597
0.402007 0.595995 -0.036223
0.407067 0.592143 -0.035396
0.410337 0.596263 -0.036182
0.416199 0.588432 -0.034550
0.417594 0.601576 -0.037163
0.422223 0.599463 -0.036690
0.426932 0.596796 -0.036108
0.431424 0.595065 -0.035717
0.435978 0.592862 -0.035234
0.440084 0.592920 -0.035211
0.443730 0.595497 -0.035700
0.447661 0.596524 -0.035879
0.452222 0.593815 -0.035308
0.454905 0.602329 -0.037008
0.459044 0.602147 -0.036956
0.463257 0.601413 -0.036796
0.467780 0.598479 -0.036197
0.472835 0.591591 -0.034805
0.476817 0.591837 -0.034858
0.480609 0.593439 -0.035190
0.484161 0.596930 -0.035907
0.488009 0.598252 -0.036192
0.492288 0.596017 -0.035764
0.496574 0.593462 -0.035275
0.500087 0.597598 -0.036143
0.504098 0.597317 -0.036124
0.508134 0.596697 -0.036042
0.512224 0.595363 -0.035820
0.516320 0.593760 -0.035548
0.520177 0.594654 -0.035786
0.523804 0.598380 -0.036602
0.528056 0.594384 -0.035860
0.532059 0.593235 -0.035699
0.535752 0.596414 -0.036419
0.539374 0.601132 -0.037456
0.543346 0.600521 -0.037418
0.547316 0.599763 -0.037355
0.551147 0.601615 -0.037826
0.555093 0.601191 -0.037838
0.559450 0.590156 -0.035699
0.563231 0.592639 -0.036310
0.567113 0.592441 -0.036380
0.570997 0.591966 -0.036398
0.574868 0.591861 -0.036495
0.578392 0.613264 -0.040984
0.582507 0.600089 -0.038424
0.586420 0.598516 -0.038234
0.590325 0.593104 -0.037262
0.594181 0.588329 -0.036423
0.598034 0.589324 -0.036767
0.601914 0.591744 -0.037408
0.605815 0.594028 -0.038024
0.609863 0.602188 -0.039852
0.613551 0.593591 -0.038242
0.617428 0.593687 -0.038420
0.621470 0.598387 -0.039550
0.625349 0.597911 -0.039618
0.628851 0.589068 -0.037963
0.632898 0.592866 -0.038918
0.637051 0.597935 -0.040140
0.641195 0.601990 -0.041157
0.645041 0.600731 -0.041079
0.648321 0.591324 -0.039313
0.651850 0.586486 -0.038494
0.655778 0.587329 -0.038857
0.659703 0.588005 -0.039188
0.664800 0.601996 -0.042296
0.668960 0.604326 -0.042981
0.672595 0.600952 -0.042480
0.675874 0.594344 -0.041303
0.679422 0.590825 -0.040773
0.683543 0.592731 -0.041380
0.687417 0.592303 -0.041501
0.691324 0.592147 -0.041681
0.695235 0.591997 -0.041866
0.700623 0.603184 -0.044440
0.704601 0.603076 -0.044641
0.708133 0.599740 -0.044164
0.712351 0.601339 -0.044730
0.715764 0.597399 -0.044128
0.720223 0.600461 -0.045010
0.723986 0.598918 -0.044919
0.726212 0.588027 -0.042843
0.730541 0.590218 -0.043548
0.734509 0.590167 -0.043778
0.739117 0.593673 -0.044771
0.746097 0.609928 -0.048493
0.746871 0.592248 -0.044964
0.748754 0.581178 -0.042845
0.754010 0.587707 -0.044498
0.757850 0.586884 -0.044579
0.762783 0.591337 -0.045797
0.766222 0.588507 -0.045451
0.769764 0.586245 -0.045228
0.774365 0.588816 -0.046052
0.778997 0.591378 -0.046879
0.786098 0.604443 -0.049989
0.790565 0.605806 -0.050568
0.793627 0.601260 -0.049867
0.796036 0.594211 -0.048619
0.798760 0.588662 -0.047698
0.803243 0.590139 -0.048312
0.807442 0.590442 -0.048673
0.811563 0.590403 -0.048964
0.815684 0.590330 -0.049250
0.823486 0.603522 -0.052459
0.828432 0.606067 -0.053335
0.830930 0.599952 -0.052304
0.833973 0.595880 -0.051725
0.836825 0.591266 -0.051026
0.841473 0.592710 -0.051672
0.844785 0.589723 -0.051339
0.849472 0.591194 -0.052001
0.853193 0.589538 -0.051970
0.858147 0.591714 -0.052799
0.864971 0.599486 -0.054889
0.869468 0.599988 -0.055359
0.874321 0.601486 -0.056057
0.881986 0.611080 -0.058587
0.884772 0.606357 -0.057897
0.885834 0.596862 -0.056129
0.889504 0.594862 -0.056057
0.896047 0.600752 -0.057781
0.900485 0.600740 -0.058173
0.905651 0.602623 -0.059003
0.906102 0.592025 -0.056987
0.910716 0.592458 -0.057495
0.915297 0.592748 -0.057976
0.916272 0.583902 -0.056361
0.921342 0.585422 -0.057135
0.926579 0.587266 -0.057992
0.931938 0.589306 -0.058903
0.938790 0.594808 -0.060628
0.942875 0.593597 -0.060802
0.946660 0.591670 -0.060816
0.948740 0.585831 -0.059920
0.953743 0.586711 -0.060600
0.958259 0.586427 -0.061015
0.964477 0.589858 -0.062314
0.975037 0.602622 -0.065830
0.978441 0.599598 -0.065629
0.978969 0.590475 -0.063984
0.984274 0.591560 -0.064767
0.988791 0.590927 -0.065150
0.992615 0.588831 -0.065190
0.997334 0.588543 -0.065670
1.001582 0.587262 -0.065919
1.007033 0.588334 -0.066744
1.012796 0.589935 -0.067707
1.017063 0.588547 -0.067954
1.027122 0.598199 -0.070899
1.032614 0.598946 -0.071690
1.032895 0.589892 -0.070088
1.035934 0.586075 -0.069769
1.042985 0.589603 -0.071264
1.047987 0.589302 -0.071825
1.054942 0.592430 -0.073245
1.059340 0.590925 -0.073523
1.063182 0.588427 -0.073558
1.069391 0.590012 -0.074620
1.075647 0.591588 -0.075687
1.080995 0.591547 -0.076356
1.086602 0.591888 -0.077126
1.091511 0.591023 -0.077595
1.097378 0.591692 -0.078457
1.103621 0.592912 -0.079463
1.108643 0.592114 -0.079955
1.114110 0.591998 -0.080623
1.119049 0.591025 -0.081068
1.126328 0.593663 -0.082445
1.131495 0.592985 -0.082962
1.136769 0.592461 -0.083513
1.141998 0.591862 -0.084038
1.148056 0.592494 -0.084876
1.153403 0.592061 -0.085426
1.159679 0.592985 -0.086322
1.164613 0.591962 -0.086691
1.170662 0.592558 -0.087474
1.176378 0.592686 -0.088116
1.182525 0.593436 -0.088907
1.188075 0.593369 -0.089460
1.193545 0.593226 -0.089970
1.199664 0.594007 -0.090706
1.205182 0.594005 -0.091207
1.209821 0.592877 -0.091377
1.215135 0.592716 -0.091780
1.220883 0.593184 -0.092326
1.227434 0.594752 -0.093140
1.232266 0.594139 -0.093333
1.237352 0.593930 -0.093604
1.242251 0.593558 -0.093798
1.246796 0.592820 -0.093861
1.251590 0.592482 -0.094000
1.256402 0.592249 -0.094135
0.293095 0.572491 -0.032152
0.294529 0.577334 -0.033492
0.295382 0.584040 -0.035197
0.297872 0.586487 -0.036018
0.300115 0.589845 -0.037006
0.306147 0.582630 -0.035807
0.312040 0.575788 -0.034659
0.312912 0.583615 -0.036509
0.311049 0.599907 -0.040088
0.319559 0.585616 -0.037341
0.322892 0.586843 -0.037775
0.326138 0.588518 -0.038283
0.329610 0.589667 -0.038664
0.332667 0.592299 -0.039335
0.334404 0.599403 -0.040915
0.339831 0.594732 -0.040037
0.342748 0.598392 -0.040871
0.346345 0.599971 -0.041259
0.353976 0.587784 -0.038774
0.357487 0.589716 -0.039206
0.361157 0.591225 -0.039539
0.364812 0.592908 -0.039897
0.360874 0.622831 -0.046110
0.370482 0.602821 -0.041943
0.376085 0.597481 -0.040815
0.383023 0.586728 -0.038557
0.385289 0.594260 -0.040089
0.389494 0.594199 -0.040040
0.393946 0.593111 -0.039774
0.398701 0.590684 -0.039227
0.402708 0.591405 -0.039331
0.406723 0.592107 -0.039429
0.410988 0.591682 -0.039293
0.415291 0.591033 -0.039111
0.419680 0.589908 -0.038830
0.421910 0.599263 -0.040722
0.426270 0.598359 -0.040490
0.430402 0.598539 -0.040484
0.435278 0.594746 -0.039659
0.439901 0.592067 -0.039067
0.443384 0.595540 -0.039752
0.447328 0.596509 -0.039922
0.451908 0.593719 -0.039319
0.454825 0.600810 -0.040763
0.458713 0.602189 -0.041030
0.463042 0.600726 -0.040714
0.467694 0.596947 -0.039923
0.472541 0.591499 -0.038793
0.476586 0.591325 -0.038757
0.480273 0.593717 -0.039257
0.484112 0.595038 -0.039540
0.487361 0.601104 -0.040810
0.491484 0.600327 -0.040669
0.495651 0.599025 -0.040425
0.500576 0.590705 -0.038735
0.504389 0.592022 -0.039042
0.508039 0.595012 -0.039701
0.511935 0.595657 -0.039880
0.516042 0.594004 -0.039588
0.520178 0.591755 -0.039177
0.524148 0.591181 -0.039118
0.527960 0.592498 -0.039456
0.531865 0.592633 -0.039554
0.535983 0.589587 -0.038996
0.539901 0.589149 -0.038984
0.543201 0.599127 -0.041139
0.546943 0.602556 -0.041940
0.550831 0.603595 -0.042249
0.554900 0.600687 -0.041743
0.559058 0.594778 -0.040615
0.563020 0.592810 -0.040312
0.566918 0.592235 -0.040302
0.570814 0.591406 -0.040243
0.574669 0.592122 -0.040510
0.578161 0.615422 -0.045497
0.582331 0.598890 -0.042172
0.586241 0.597480 -0.042008
0.590131 0.598980 -0.042457
0.594030 0.599056 -0.042611
0.598002 0.609166 -0.044873
0.601844 0.600289 -0.043159
0.605668 0.595390 -0.042280
0.609490 0.592541 -0.041834
0.613348 0.592063 -0.041889
0.617179 0.590811 -0.041784
0.621851 0.613685 -0.046766
0.625332 0.601380 -0.044340
0.629205 0.600414 -0.044307
0.632997 0.597930 -0.043956
0.636834 0.596670 -0.043866
0.640939 0.600141 -0.044780
0.644813 0.599419 -0.044810
0.648184 0.591379 -0.043289
0.651912 0.589239 -0.043022
0.655748 0.588701 -0.043097
0.659636 0.588820 -0.043315
0.665040 0.606297 -0.047235
0.669014 0.606357 -0.047450
0.672806 0.604487 -0.047256
0.676479 0.601585 -0.046843
0.679274 0.590612 -0.044704
0.683373 0.592314 -0.045278
0.687657 0.595436 -0.046161
0.691365 0.593487 -0.045959
0.695093 0.591811 -0.045817
0.700286 0.601498 -0.048125
0.703763 0.597710 -0.047534
0.707480 0.595871 -0.047365
0.711547 0.596543 -0.047741
0.716010 0.599787 -0.048676
0.720006 0.599760 -0.048907
0.724106 0.600350 -0.049275
0.725929 0.586933 -0.046600
0.729962 0.587387 -0.046940
0.734471 0.590527 -0.047869
0.738482 0.590663 -0.048147
0.746741 0.592066 -0.048958
0.749912 0.587680 -0.048253
0.753381 0.584984 -0.047919
0.760713 0.601487 -0.051808
0.764216 0.598683 -0.051459
0.767638 0.595597 -0.051049
0.769662 0.586165 -0.049239
0.774981 0.591968 -0.050795
0.778874 0.591196 -0.050901
0.786073 0.604683 -0.054174
0.790863 0.607393 -0.055064
0.794023 0.603211 -0.054426
0.796376 0.595889 -0.053089
0.798601 0.588308 -0.051692
0.803679 0.592109 -0.052838
0.807614 0.591353 -0.052970
0.811613 0.590833 -0.053158
0.816498 0.593551 -0.054077
0.824750 0.608306 -0.057711
0.828674 0.607131 -0.057768
0.830715 0.599396 -0.056347
0.831547 0.587747 -0.054039
0.835552 0.587143 -0.054229
0.839349 0.585832 -0.054262
0.847619 0.599086 -0.057611
0.851010 0.596247 -0.057309
0.855531 0.597017 -0.057832
0.860274 0.598410 -0.058504
0.864670 0.598661 -0.058920
0.868402 0.596869 -0.058872
0.873632 0.599520 -0.059849
0.876792 0.596022 -0.059417
0.881460 0.596910 -0.060000
0.883841 0.591268 -0.059078
0.887288 0.588719 -0.058874
0.894501 0.596525 -0.061078
0.900646 0.601175 -0.062562
0.903056 0.595701 -0.061694
0.906715 0.593613 -0.061618
0.910874 0.592835 -0.061853
0.915925 0.594309 -0.062623
0.916727 0.584993 -0.060862
0.921302 0.585257 -0.061357
0.927366 0.589117 -0.062709
0.931099 0.587188 -0.062701
0.939619 0.596685 -0.065411
0.945648 0.600015 -0.066672
0.948906 0.596769 -0.066374
0.949177 0.586701 -0.064448
0.953125 0.585166 -0.064565
0.958863 0.587622 -0.065646
0.964225 0.589134 -0.066512
0.967086 0.585101 -0.066047
0.972632 0.586896 -0.066998
0.977048 0.586190 -0.067351
0.981015 0.584502 -0.067473
0.988184 0.589446 -0.069221
0.993477 0.590368 -0.070000
0.996429 0.586471 -0.069604
1.000266 0.584379 -0.069657
1.014465 0.602778 -0.074776
1.017113 0.598105 -0.074216
1.021505 0.596852 -0.074507
1.028230 0.600026 -0.075909
1.033194 0.599743 -0.076460
1.033072 0.589920 -0.074627
1.035829 0.585573 -0.074166
1.042646 0.588671 -0.075583
1.048382 0.589692 -0.076488
1.054248 0.590866 -0.077441
1.059162 0.590281 -0.077955
1.064113 0.589717 -0.078481
1.069800 0.590380 -0.079328
1.075063 0.590256 -0.079978
1.081058 0.591315 -0.080939
1.086040 0.590615 -0.081452
1.091506 0.590679 -0.082166
1.098068 0.592487 -0.083337
1.103048 0.591660 -0.083825
1.108535 0.591621 -0.084519
1.114321 0.592021 -0.085328
1.119690 0.591726 -0.085954
1.125549 0.592167 -0.086772
1.130752 0.591572 -0.087310
1.137090 0.592687 -0.088298
1.141968 0.591575 -0.088686
1.147338 0.591206 -0.089262
1.154038 0.592792 -0.090353
1.159347 0.592325 -0.090881
1.165412 0.592961 -0.091692
1.171362 0.593432 -0.092444
1.177191 0.593739 -0.093134
1.182426 0.593233 -0.093584
1.187628 0.592719 -0.094010
1.193514 0.593187 -0.094682
1.199352 0.593620 -0.095320
1.204252 0.592826 -0.095595
1.209839 0.593013 -0.096113
1.214980 0.592659 -0.096454
1.221493 0.594174 -0.097282
1.227342 0.594859 -0.097852
1.232473 0.594673 -0.098148
1.238099 0.595191 -0.098609
1.241969 0.593543 -0.098435
1.246025 0.592229 -0.098321
1.250828 0.591946 -0.098461
1.259704 0.596807 -0.100005
0.291631 0.576756 -0.036735
0.294840 0.576749 -0.037102
0.297011 0.579756 -0.038079
0.299223 0.582872 -0.039063
0.300587 0.588602 -0.040577
0.301994 0.594506 -0.042112
0.314567 0.568446 -0.036908
0.312035 0.586074 -0.040869
0.314871 0.588396 -0.041592
0.318385 0.588895 -0.041911
0.322496 0.587733 -0.041859
0.325870 0.588956 -0.042292
0.329273 0.590263 -0.042723
0.332653 0.591811 -0.043187
0.335916 0.593908 -0.043750
0.340514 0.591813 -0.043406
0.344683 0.591192 -0.043358
0.344604 0.605049 -0.046369
0.354287 0.585837 -0.042341
0.357503 0.588717 -0.042991
0.361120 0.590343 -0.043363
0.364851 0.591689 -0.043664
0.360605 0.622651 -0.050249
0.367748 0.611917 -0.047961
0.373466 0.606285 -0.046749
0.382711 0.586656 -0.042555
0.385773 0.590968 -0.043443
0.389284 0.593648 -0.043978
0.393442 0.593758 -0.043963
0.398145 0.591556 -0.043453
0.402237 0.591912 -0.043483
0.406162 0.593019 -0.043671
0.410295 0.593212 -0.043665
0.414887 0.591252 -0.043200
0.418580 0.593460 -0.043620
0.421000 0.601955 -0.045374
0.424906 0.603405 -0.045635
0.429737 0.600132 -0.044896
0.434310 0.598002 -0.044403
0.439109 0.594478 -0.043617
0.443518 0.592880 -0.043243
0.447634 0.592806 -0.043195
0.451649 0.593262 -0.043263
0.455008 0.597670 -0.044171
0.458177 0.603464 -0.045376
0.462432 0.602560 -0.045169
0.467170 0.598303 -0.044256
0.472362 0.590573 -0.042613
0.476366 0.590690 -0.042636
0.480321 0.591106 -0.042726
0.483347 0.598595 -0.044319
0.486684 0.604117 -0.045500
0.490468 0.606309 -0.045981
0.495173 0.600664 -0.044809
0.500448 0.589338 -0.042440
0.504351 0.589800 -0.042570
0.508040 0.592324 -0.043143
0.511941 0.592840 -0.043295
0.515925 0.592439 -0.043258
0.519868 0.592370 -0.043296
0.523862 0.591607 -0.043192
0.527752 0.592002 -0.043339
0.531581 0.593210 -0.043663
0.535584 0.591946 -0.043467
0.539741 0.588015 -0.042709
0.543211 0.595014 -0.044278
0.546807 0.600848 -0.045605
0.550575 0.604228 -0.046416
0.554690 0.600472 -0.045714
0.558912 0.593077 -0.044241
0.562824 0.592411 -0.044203
0.566765 0.590491 -0.043903
0.570589 0.592303 -0.044402
0.574480 0.591695 -0.044390
0.578049 0.610075 -0.048437
0.582140 0.598776 -0.046150
0.586032 0.600404 -0.046629
0.589934 0.603383 -0.047402
0.593861 0.604668 -0.047816
0.597791 0.604860 -0.048001
0.601697 0.602866 -0.047720
0.605470 0.593830 -0.045930
0.609323 0.592645 -0.045827
0.613175 0.591786 -0.045798
0.617035 0.591447 -0.045885
0.621790 0.616644 -0.051478
0.625288 0.604305 -0.048987
0.628960 0.598426 -0.047890
0.632929 0.599680 -0.048335
0.636879 0.600322 -0.048652
0.640850 0.601171 -0.049016
0.644725 0.600357 -0.049024
0.648139 0.592826 -0.047577
0.651846 0.590265 -0.047210
0.655716 0.590075 -0.047360
0.659699 0.591247 -0.047809
0.665061 0.608123 -0.051685
0.668857 0.606116 -0.051452
0.672463 0.602305 -0.050827
0.675656 0.594730 -0.049379
0.679258 0.591651 -0.048915
0.683007 0.590133 -0.048794
0.687333 0.593694 -0.049790
0.691187 0.593018 -0.049860
0.694897 0.591191 -0.049679
0.700490 0.603987 -0.052722
0.703586 0.597262 -0.051468
0.706686 0.590988 -0.050313
0.710795 0.592102 -0.050791
0.714875 0.592910 -0.051205
0.719372 0.596345 -0.052204
0.723039 0.594298 -0.051992
0.726070 0.588436 -0.050932
0.729843 0.587289 -0.050922
0.734375 0.590556 -0.051898
0.739071 0.594532 -0.053037
0.744992 0.604971 -0.055625
0.747358 0.595867 -0.053849
0.750582 0.591648 -0.053165
0.755557 0.596481 -0.054513
0.760367 0.600226 -0.055623
0.764542 0.600691 -0.056000
0.767950 0.597478 -0.055551
0.771994 0.597306 -0.055790
0.776744 0.600290 -0.056746
0.782299 0.606655 -0.058472
0.786292 0.605974 -0.058608
0.790164 0.604767 -0.058628
0.793789 0.602556 -0.058422
0.795394 0.592198 -0.056361
0.798806 0.589401 -0.056022
0.803551 0.591871 -0.056889
0.807684 0.591871 -0.057195
0.811825 0.591861 -0.057503
0.815983 0.591878 -0.057821
0.823609 0.604393 -0.061019
0.827895 0.604562 -0.061385
0.829848 0.596554 -0.059867
0.831162 0.586596 -0.057896
0.835143 0.585921 -0.058072
0.839805 0.587484 -0.058772
0.847410 0.598539 -0.061684
0.852580 0.601391 -0.062699
0.855786 0.597928 -0.062248
0.860223 0.598347 -0.062706
0.863688 0.595748 -0.062463
0.868689 0.597802 -0.063314
0.872169 0.595255 -0.063091
0.874984 0.590804 -0.062422
0.876951 0.584018 -0.061203
0.881184 0.583789 -0.061535
0.885734 0.584408 -0.062072
0.892100 0.589943 -0.063784
0.896424 0.589755 -0.064145
0.901778 0.592273 -0.065158
0.908399 0.598002 -0.066946
0.912570 0.597181 -0.067178
0.914189 0.589818 -0.065846
0.917385 0.586581 -0.065505
0.922068 0.587081 -0.066068
0.927073 0.588308 -0.066815
0.931614 0.588331 -0.067278
0.940386 0.598400 -0.070188
0.946378 0.601609 -0.071447
0.949051 0.596969 -0.070804
0.950104 0.588680 -0.069270
0.955818 0.591107 -0.070361
0.960907 0.592024 -0.071092
0.962351 0.584816 -0.069830
0.967170 0.585093 -0.070416
0.972926 0.587327 -0.071496
0.977769 0.587510 -0.072078
0.983384 0.589257 -0.073058
0.988731 0.590347 -0.073885
0.992847 0.588833 -0.074071
0.997104 0.587584 -0.074329
1.002306 0.588198 -0.075064
1.011369 0.596377 -0.077718
1.017039 0.597675 -0.078651
1.015292 0.584560 -0.075935
1.029323 0.601810 -0.080941
1.033458 0.599930 -0.081096
1.034620 0.592493 -0.079833
1.036346 0.586207 -0.078862
1.043699 0.590263 -0.080556
1.048434 0.589453 -0.081006
1.053972 0.590037 -0.081824
1.060112 0.591612 -0.082908
1.065239 0.591335 -0.083518
1.070254 0.590816 -0.084070
1.075245 0.590219 -0.084606
1.080393 0.589848 -0.085207
1.085787 0.589847 -0.085909
1.092254 0.591571 -0.087072
1.097157 0.590663 -0.087540
1.102826 0.590970 -0.088333
1.108617 0.591428 -0.089167
1.114821 0.592494 -0.090164
1.120326 0.592416 -0.090853
1.125218 0.591365 -0.091276
1.132382 0.593790 -0.092634
1.137251 0.592672 -0.093027
1.142146 0.591602 -0.093422
1.148629 0.592903 -0.094455
1.153950 0.592468 -0.095003
1.159523 0.592410 -0.095640
1.165641 0.593146 -0.096481
1.171736 0.593849 -0.097298
1.177517 0.594115 -0.097976
1.182464 0.593234 -0.098314
1.187631 0.592704 -0.098728
1.193203 0.592775 -0.099285
1.198882 0.593033 -0.099869
1.204746 0.593582 -0.100509
1.209450 0.592620 -0.100697
1.215960 0.594125 -0.101549
1.221501 0.594391 -0.102024
1.226637 0.594186 -0.102335
1.231689 0.593944 -0.102603
1.236470 0.593429 -0.102761
1.240576 0.592135 -0.102666
1.244767 0.591042 -0.102594
1.250319 0.591748 -0.103001
1.253791 0.589934 -0.102657
0.291689 0.576947 -0.040482
0.292458 0.583540 -0.042269
0.296088 0.582542 -0.042422
0.299246 0.582988 -0.042865
0.300813 0.588087 -0.044285
0.301697 0.595410 -0.046166
0.304420 0.597752 -0.046960
0.308902 0.595164 -0.046674
0.312726 0.594609 -0.046804
0.319739 0.584612 -0.044874
0.322726 0.586748 -0.045541
0.326096 0.587902 -0.045977
0.329158 0.590192 -0.046640
0.332774 0.590919 -0.046945
0.335624 0.594271 -0.047801
0.339075 0.595881 -0.048262
0.343229 0.595314 -0.048233
0.347154 0.595612 -0.048375
0.354853 0.583034 -0.045703
0.358043 0.585900 -0.046373
0.360999 0.589780 -0.047250
0.364709 0.591144 -0.047567
0.362403 0.614844 -0.052731
0.367396 0.612029 -0.052118
0.372291 0.609530 -0.051565
0.381843 0.588759 -0.047030
0.384895 0.593119 -0.047953
0.388378 0.595930 -0.048532
0.392757 0.595149 -0.048326
0.397672 0.592063 -0.047615
0.401720 0.592608 -0.047690
0.405603 0.593904 -0.047925
0.409675 0.594386 -0.047982
0.413902 0.594155 -0.047883
0.417989 0.594551 -0.047920
0.420585 0.602205 -0.049532
0.424824 0.601995 -0.049439
0.428691 0.603645 -0.049751
0.433895 0.598302 -0.048549
0.440022 0.587639 -0.046197
0.443135 0.593067 -0.047335
0.447245 0.593052 -0.047297
0.451430 0.592538 -0.047155
0.455461 0.592871 -0.047200
0.457498 0.605586 -0.049930
0.461967 0.603404 -0.049438
0.467134 0.596367 -0.047900
0.472258 0.589086 -0.046314
0.476347 0.588583 -0.046200
0.480204 0.589686 -0.046439
0.483678 0.593716 -0.047317
0.486264 0.605025 -0.049775
0.490236 0.605736 -0.049944
0.494944 0.600102 -0.048744
0.500350 0.587664 -0.046076
0.504013 0.590336 -0.046685
0.507901 0.590977 -0.046859
0.511660 0.592943 -0.047326
0.515624 0.592800 -0.047341
0.519576 0.592716 -0.047373
0.523526 0.592556 -0.047394
0.527460 0.592510 -0.047445
0.531367 0.592743 -0.047562
0.535227 0.593605 -0.047820
0.539217 0.592485 -0.047652
0.542644 0.600634 -0.049503
0.546670 0.599092 -0.049254
0.550494 0.601245 -0.049813
0.554410 0.601715 -0.050011
0.558770 0.591198 -0.047821
0.562555 0.593978 -0.048530
0.566440 0.594255 -0.048698
0.570408 0.591343 -0.048176
0.574303 0.590513 -0.048111
0.577848 0.609983 -0.052484
0.581856 0.606022 -0.051746
0.585821 0.602720 -0.051155
0.589744 0.603228 -0.051401
0.593669 0.602646 -0.051412
0.597577 0.600590 -0.051105
0.601469 0.598776 -0.050853
0.605273 0.592509 -0.049626
0.609133 0.591788 -0.049620
0.613021 0.592382 -0.049907
0.616910 0.592818 -0.050163
0.621027 0.599615 -0.051824
0.624870 0.597867 -0.051607
0.628885 0.600343 -0.052325
0.632682 0.597844 -0.051948
0.636642 0.598777 -0.052333
0.640609 0.599657 -0.052709
0.644534 0.599689 -0.052901
0.648188 0.595701 -0.052205
0.651670 0.589804 -0.051086
0.655772 0.592622 -0.051906
0.660075 0.597521 -0.053192
0.664564 0.604000 -0.054837
0.668429 0.602941 -0.054806
0.671977 0.598652 -0.054056
0.675544 0.594911 -0.053430
0.679112 0.591488 -0.052876
0.683022 0.591407 -0.053072
0.687017 0.592035 -0.053430
0.690852 0.591242 -0.053472
0.694784 0.591245 -0.053696
0.701091 0.609552 -0.058044
0.704122 0.602126 -0.056604
0.707756 0.599505 -0.056247
0.710218 0.588874 -0.054081
0.714438 0.590715 -0.054735
0.718412 0.590804 -0.054995
0.722275 0.590144 -0.055089
0.728314 0.602831 -0.058216
0.732450 0.603419 -0.058603
0.736328 0.602443 -0.058637
0.740501 0.603141 -0.059054
0.744238 0.601381 -0.058914
0.748203 0.600889 -0.059066
0.749760 0.587858 -0.056349
0.756075 0.599574 -0.059302
0.759851 0.598118 -0.059241
0.763374 0.595475 -0.058909
0.768430 0.600150 -0.060264
0.773488 0.604587 -0.061570
0.778384 0.608058 -0.062660
0.782546 0.608102 -0.062963
0.786450 0.606996 -0.063002
0.788423 0.597727 -0.061150
0.793201 0.600424 -0.062077
0.795575 0.593220 -0.060703
0.798882 0.589973 -0.060251
0.803272 0.591040 -0.060808
0.807696 0.592154 -0.061380
0.811694 0.591595 -0.061565
0.817366 0.597186 -0.063197
0.822183 0.599439 -0.064053
0.826280 0.599018 -0.064285
0.829151 0.594298 -0.063506
0.831221 0.586954 -0.062109
0.835884 0.588562 -0.062828
0.840136 0.588714 -0.063208
0.845378 0.592046 -0.064349
0.852369 0.600828 -0.066794
0.855318 0.596550 -0.066137
0.858640 0.593527 -0.065782
0.863051 0.593878 -0.066237
0.868598 0.597589 -0.067503
0.874885 0.603331 -0.069265
0.879110 0.602852 -0.069541
0.878055 0.587208 -0.066164
0.881287 0.584092 -0.065806
0.886039 0.585257 -0.066488
0.890070 0.584366 -0.066677
0.895379 0.586908 -0.067707
0.899806 0.586986 -0.068145
0.911491 0.606074 -0.073231
0.914255 0.601486 -0.072550
0.913416 0.587775 -0.069634
0.917103 0.585793 -0.069593
0.921948 0.586691 -0.070266
0.928092 0.590700 -0.071715
0.932282 0.589830 -0.071969
0.938856 0.594621 -0.073633
0.945081 0.598413 -0.075062
0.947125 0.592341 -0.074045
0.950505 0.589439 -0.073821
0.955384 0.589952 -0.074456
0.959918 0.589628 -0.074890
0.961837 0.583488 -0.073868
0.969559 0.590096 -0.076064
0.973750 0.588884 -0.076298
0.978478 0.588791 -0.076823
0.982285 0.586710 -0.076850
0.989121 0.590908 -0.078485
0.994757 0.592490 -0.079466
0.998980 0.591115 -0.079700
1.004418 0.592146 -0.080560
1.009545 0.592483 -0.081250
1.015866 0.595083 -0.082536
1.022436 0.598049 -0.083930
1.028498 0.599917 -0.085051
1.032917 0.598586 -0.085349
1.033876 0.590777 -0.083958
1.037433 0.587877 -0.083852
1.045536 0.593270 -0.085933
1.049701 0.591391 -0.086110
1.055026 0.591565 -0.086835
1.060324 0.591632 -0.087539
1.065748 0.591865 -0.088294
1.070438 0.590777 -0.088703
1.075570 0.590416 -0.089309
1.080825 0.590221 -0.089965
1.086898 0.591347 -0.090981
1.092040 0.590869 -0.091567
1.097088 0.590208 -0.092105
1.104250 0.592931 -0.093565
1.109135 0.591927 -0.094011
1.114904 0.592309 -0.094833
1.120258 0.592005 -0.095465
1.126666 0.593313 -0.096537
1.132338 0.593447 -0.097281
1.137208 0.592351 -0.097675
1.143566 0.593494 -0.098683
1.148826 0.592982 -0.099220
1.153941 0.592265 -0.099685
1.159427 0.592107 -0.100293
1.166804 0.594686 -0.101656
1.172252 0.594480 -0.102218
1.177432 0.593923 -0.102660
1.182921 0.593833 -0.103213
1.188371 0.593726 -0.103737
1.193309 0.592953 -0.104047
1.198368 0.592403 -0.104394
1.203961 0.592630 -0.104936
1.209455 0.592773 -0.105425
1.215124 0.593203 -0.105967
1.220845 0.593754 -0.106513
1.226409 0.594156 -0.106986
1.230639 0.592893 -0.106946
1.234726 0.591537 -0.106846
1.239028 0.590549 -0.106818
1.245061 0.591835 -0.107416
1.250659 0.592635 -0.107840
1.257921 0.595569 -0.108851
0.286921 0.590198 -0.047056
0.291520 0.586430 -0.046640
0.295497 0.584446 -0.046590
0.298642 0.584890 -0.047049
0.302444 0.583641 -0.047118
0.301500 0.596065 -0.050165
0.304732 0.596878 -0.050649
0.308812 0.595383 -0.050606
0.313803 0.591307 -0.049971
0.319185 0.586097 -0.049063
0.322943 0.585835 -0.049225
0.326123 0.587492 -0.049790
0.329697 0.588101 -0.050104
0.331563 0.594291 -0.051635
0.331359 0.607475 -0.054699
0.334770 0.609353 -0.055241
0.338484 0.610404 -0.055580
0.345937 0.598954 -0.053127
0.355181 0.581073 -0.049226
0.354951 0.595807 -0.052555
0.360950 0.588979 -0.051079
0.364851 0.589586 -0.051243
0.367823 0.593711 -0.052176
0.372280 0.592473 -0.051906
0.376419 0.592461 -0.051899
0.380596 0.592340 -0.051859
0.384444 0.593565 -0.052110
0.388259 0.595004 -0.052402
0.392339 0.595422 -0.052461
0.397076 0.593081 -0.051903
0.401422 0.592341 -0.051696
0.405405 0.593175 -0.051836
0.409234 0.594734 -0.052135
0.413672 0.593527 -0.051819
0.418165 0.591977 -0.051426
0.422564 0.590785 -0.051113
0.424899 0.599791 -0.053063
0.429479 0.597741 -0.052561
0.432491 0.603769 -0.053853
0.439027 0.591086 -0.050998
0.442573 0.594212 -0.051652
0.446643 0.594478 -0.051674
0.451207 0.591808 -0.051049
0.455372 0.591325 -0.050913
0.457032 0.606337 -0.054211
0.462247 0.599421 -0.052658
0.466930 0.595514 -0.051777
0.472058 0.588229 -0.050152
0.476228 0.587161 -0.049908
0.480107 0.588072 -0.050107
0.483839 0.590109 -0.050560
0.486343 0.601930 -0.053184
0.490543 0.600687 -0.052921
0.494976 0.597261 -0.052181
0.499867 0.589382 -0.050459
0.503748 0.590136 -0.050653
0.507463 0.592507 -0.051212
0.511307 0.593712 -0.051517
0.515313 0.593214 -0.051450
0.519284 0.592985 -0.051448
0.523205 0.593252 -0.051561
0.527161 0.593020 -0.051568
0.531069 0.593342 -0.051704
0.535032 0.592812 -0.051655
0.538807 0.595074 -0.052231
0.542695 0.595689 -0.052447
0.546522 0.597459 -0.052924
0.550350 0.599451 -0.053456
0.554223 0.600781 -0.053846
0.558515 0.592014 -0.051993
0.562352 0.593518 -0.052430
0.566238 0.593817 -0.052604
0.570181 0.591979 -0.052306
0.574107 0.590035 -0.051988
0.577632 0.610471 -0.056670
0.581644 0.606741 -0.055964
0.585625 0.602484 -0.055143
0.589559 0.599619 -0.054636
0.593468 0.597659 -0.054336
0.597351 0.594665 -0.053807
0.601227 0.593545 -0.053701
0.605092 0.592383 -0.053589
0.608965 0.592166 -0.053693
0.612850 0.592456 -0.053914
0.616816 0.595340 -0.054723
0.620711 0.595366 -0.054893
0.624958 0.604297 -0.057074
