ply
format ascii 1.0
comment ---
element vertex 1737
property float x
property float y
property float z
element face 0
property list uchar uint vertex_indices
end_header
0.238395 0.591274 0.096163
0.239022 0.585968 0.094956
0.242969 0.588684 0.095452
0.256655 0.614181 0.100802
0.252989 0.598996 0.097432
0.257038 0.601858 0.097903
0.253989 0.588619 0.094921
0.254055 0.582692 0.093487
0.254613 0.578028 0.092308
-0.286868 0.601669 0.101158
-0.284839 0.603097 0.101646
-0.282673 0.604308 0.102069
-0.280140 0.604780 0.102312
-0.275543 0.600664 0.101528
-0.272812 0.600764 0.101652
-0.270793 0.602557 0.102130
-0.268818 0.604542 0.102633
-0.266062 0.604786 0.102734
-0.263064 0.604509 0.102701
-0.259459 0.602814 0.102338
-0.257446 0.605002 0.102812
-0.255180 0.606661 0.103153
-0.251583 0.605088 0.102763
-0.249148 0.606449 0.103002
-0.246211 0.606602 0.102959
-0.242662 0.605212 0.102560
-0.239558 0.604986 0.102401
-0.236277 0.604319 0.102131
-0.233347 0.604607 0.102056
-0.230292 0.604588 0.101900
-0.226804 0.603397 0.101475
-0.223726 0.603343 0.101286
-0.221535 0.605828 0.101640
-0.219163 0.607880 0.101888
-0.216075 0.607911 0.101684
-0.212186 0.605570 0.100956
-0.208780 0.604624 0.100524
-0.205613 0.604387 0.100238
-0.202740 0.605060 0.100143
-0.200002 0.606180 0.100137
-0.197131 0.606907 0.100040
-0.194155 0.607309 0.099869
-0.190396 0.605115 0.099137
-0.187646 0.606244 0.099114
-0.184171 0.604910 0.098562
-0.181189 0.605240 0.098364
-0.177970 0.604719 0.097984
-0.174973 0.604967 0.097766
-0.172130 0.605775 0.097667
-0.169239 0.606411 0.097530
-0.165607 0.604204 0.096795
-0.162808 0.605144 0.096725
-0.160503 0.608070 0.097072
-0.157394 0.607811 0.096752
-0.154218 0.607237 0.096368
-0.151402 0.608138 0.096295
-0.148278 0.607712 0.095948
-0.145222 0.607533 0.095655
-0.142265 0.607767 0.095452
-0.139064 0.606851 0.095014
-0.135722 0.605187 0.094426
-0.132754 0.605225 0.094195
-0.129657 0.604594 0.093829
-0.127268 0.607500 0.094195
-0.124296 0.607471 0.093961
-0.121314 0.607354 0.093714
-0.118286 0.606943 0.093411
-0.115443 0.607519 0.093315
-0.112566 0.607895 0.093181
-0.109739 0.608552 0.093110
-0.106532 0.606878 0.092569
-0.103864 0.608473 0.092697
-0.101036 0.609091 0.092631
-0.098165 0.609421 0.092511
-0.095137 0.608642 0.092172
-0.092011 0.607070 0.091679
-0.089101 0.606959 0.091485
-0.086209 0.606937 0.091314
-0.083438 0.607855 0.091336
-0.080621 0.608416 0.091291
-0.077714 0.608205 0.091096
-0.074807 0.607942 0.090896
-0.071812 0.606793 0.090523
-0.068866 0.605981 0.090223
-0.066079 0.606694 0.090232
-0.063322 0.607779 0.090319
-0.060474 0.607894 0.090218
-0.057586 0.607499 0.090020
-0.054691 0.606934 0.089792
-0.051856 0.607072 0.089710
-0.049032 0.607356 0.089660
-0.046200 0.607515 0.089590
-0.043396 0.608148 0.089618
-0.040612 0.609204 0.089734
-0.037866 0.611183 0.090037
-0.035177 0.614808 0.090668
-0.032437 0.617946 0.091207
-0.029567 0.618244 0.091190
-0.026415 0.609559 0.089408
-0.023446 0.604689 0.088383
-0.020660 0.606032 0.088586
-0.017855 0.606944 0.088708
-0.015037 0.607467 0.088758
-0.012199 0.606042 0.088429
-0.009385 0.607779 0.088726
-0.006552 0.612512 0.089616
-0.003692 0.614345 0.089939
-0.000842 0.613556 0.089753
0.001976 0.611139 0.089251
0.004812 0.610732 0.089149
0.007641 0.610174 0.089021
0.010692 0.617433 0.090430
0.013635 0.619442 0.090814
0.016391 0.616056 0.090144
0.019115 0.612611 0.089468
0.021854 0.610129 0.088985
0.024471 0.605715 0.088127
0.027487 0.609033 0.088789
0.030698 0.614995 0.089975
0.033694 0.616831 0.090356
0.036626 0.617494 0.090512
0.039239 0.613796 0.089816
0.042062 0.613131 0.089720
0.044966 0.613463 0.089824
0.046998 0.603956 0.088000
0.050427 0.610236 0.089281
0.053046 0.607669 0.088829
0.056385 0.612285 0.089794
0.059436 0.613784 0.090150
0.062153 0.612174 0.089900
0.064194 0.604900 0.088538
0.066988 0.604322 0.088499
0.070283 0.607695 0.089243
0.073087 0.607067 0.089204
0.075920 0.606658 0.089212
0.078773 0.606387 0.089252
0.081849 0.607636 0.089597
0.085388 0.611841 0.090533
0.089028 0.616405 0.091546
0.091767 0.615036 0.091388
0.094179 0.611730 0.090850
0.096072 0.605515 0.089737
0.097849 0.598942 0.088554
0.101962 0.605721 0.090034
0.104930 0.605892 0.090202
0.106610 0.599204 0.089006
0.110043 0.601861 0.089679
0.113640 0.605185 0.090491
0.115727 0.600897 0.089784
0.119478 0.604761 0.090714
0.123767 0.610943 0.092115
0.126671 0.610465 0.092184
0.129210 0.608341 0.091925
0.132226 0.608366 0.092102
0.132962 0.598573 0.090298
0.134526 0.592638 0.089273
0.138008 0.594818 0.089890
0.143227 0.603896 0.091912
0.144690 0.597727 0.090842
0.147388 0.596561 0.090789
0.151595 0.601161 0.091913
0.154633 0.601201 0.092109
0.156730 0.597761 0.091595
0.162957 0.609300 0.094146
0.167025 0.612775 0.095051
0.166133 0.598874 0.092389
0.168489 0.596525 0.092093
0.171668 0.597007 0.092377
0.174619 0.596708 0.092499
0.177259 0.595397 0.092408
0.181912 0.600551 0.093651
0.184684 0.599621 0.093632
0.187198 0.597921 0.093448
0.190299 0.598058 0.093640
0.193311 0.597925 0.093769
0.195716 0.596007 0.093520
0.198058 0.593968 0.093237
0.203601 0.601181 0.094875
0.209815 0.610094 0.096863
0.210415 0.603122 0.095522
0.213813 0.604050 0.095822
0.219383 0.610863 0.097343
0.221334 0.607834 0.096791
0.219747 0.595572 0.094289
0.220150 0.588843 0.092932
0.222718 0.587881 0.092771
0.225853 0.588416 0.092908
0.227706 0.585756 0.092361
0.234910 0.596455 0.094602
0.238147 0.597223 0.094743
0.233051 0.577855 0.090642
0.237426 0.581625 0.091380
0.250398 0.605681 0.096353
0.254309 0.608062 0.096762
0.257790 0.609442 0.096943
0.257701 0.602674 0.095402
0.254492 0.589035 0.092412
0.253060 0.579710 0.090310
0.252019 0.571493 0.088428
0.259942 0.583173 0.090671
0.270070 0.599471 0.093848
0.278219 0.611245 0.096058
0.279346 0.607872 0.095109
-0.290184 0.601986 0.098473
-0.287817 0.602660 0.098795
-0.285619 0.603771 0.099193
-0.282729 0.603432 0.099262
-0.278930 0.601121 0.098887
-0.276680 0.602297 0.099245
-0.273901 0.602352 0.099342
-0.271538 0.603415 0.099639
-0.269158 0.604511 0.099924
-0.267290 0.606889 0.100467
-0.264415 0.606975 0.100498
-0.260326 0.604196 0.099891
-0.257666 0.604873 0.100012
-0.256065 0.608212 0.100690
-0.253412 0.609057 0.100812
-0.248944 0.605390 0.099945
-0.246122 0.605871 0.099955
-0.242884 0.605323 0.099727
-0.239391 0.604128 0.099346
-0.236607 0.604811 0.099354
-0.233794 0.605461 0.099341
-0.230864 0.605839 0.099255
-0.227013 0.603702 0.098619
-0.223747 0.603164 0.098314
-0.220893 0.603801 0.098249
-0.218974 0.607165 0.098754
-0.216143 0.607972 0.098704
-0.212365 0.605998 0.098055
-0.209077 0.605445 0.097700
-0.205314 0.603423 0.097028
-0.203102 0.606163 0.097357
-0.200346 0.607271 0.097335
-0.197149 0.606989 0.097014
-0.193734 0.605980 0.096538
-0.190562 0.605734 0.096219
-0.187304 0.605175 0.095832
-0.184491 0.606117 0.095757
-0.180889 0.604310 0.095108
-0.177703 0.603905 0.094750
-0.174888 0.604808 0.094664
-0.172622 0.607755 0.095000
-0.168836 0.605067 0.094171
-0.165633 0.604484 0.093780
-0.163370 0.607535 0.094137
-0.160390 0.607818 0.093925
-0.157282 0.607563 0.093606
-0.154484 0.608557 0.093545
-0.151506 0.608797 0.093332
-0.148195 0.607571 0.092824
-0.145265 0.607950 0.092647
-0.142185 0.607633 0.092331
-0.138903 0.606329 0.091821
-0.135663 0.605133 0.091337
-0.132870 0.606014 0.091276
-0.129911 0.606078 0.091054
-0.126867 0.605680 0.090744
-0.124052 0.606417 0.090666
-0.121220 0.607071 0.090575
-0.118536 0.608536 0.090651
-0.115440 0.607713 0.090274
-0.112650 0.608588 0.090240
-0.109712 0.608589 0.090037
-0.106800 0.608714 0.089863
-0.103656 0.607345 0.089398
-0.100947 0.608690 0.089475
-0.097980 0.608342 0.089223
-0.095065 0.608307 0.089036
-0.092107 0.607912 0.088784
-0.089179 0.607681 0.088569
-0.086313 0.607874 0.088443
-0.083481 0.608312 0.088368
-0.080653 0.608785 0.088305
-0.077831 0.609318 0.088259
-0.074811 0.608063 0.087868
-0.071818 0.606913 0.087503
-0.068907 0.606426 0.087272
-0.066150 0.607461 0.087342
-0.063379 0.608403 0.087397
-0.060471 0.607844 0.087166
-0.057540 0.606896 0.086865
-0.054603 0.605726 0.086525
-0.051802 0.606235 0.086515
-0.049112 0.608388 0.086826
-0.046246 0.608069 0.086664
-0.043416 0.608269 0.086607
-0.040625 0.609180 0.086691
-0.037899 0.611514 0.087053
-0.035279 0.616654 0.087959
-0.032256 0.612980 0.087174
-0.029340 0.611281 0.086773
-0.026522 0.612215 0.086882
-0.023557 0.607891 0.085987
-0.020663 0.604930 0.085357
-0.017886 0.607040 0.085706
-0.015068 0.607460 0.085734
-0.012241 0.607219 0.085639
-0.009414 0.606174 0.085395
-0.006588 0.613009 0.086663
-0.003716 0.616955 0.087382
-0.000832 0.618406 0.087628
0.001944 0.611780 0.086333
0.004669 0.605650 0.085138
0.007598 0.610267 0.086002
0.010569 0.614839 0.086861
0.013479 0.616274 0.087125
0.016297 0.614947 0.086865
0.019104 0.613601 0.086606
0.021934 0.612978 0.086489
0.024618 0.609621 0.085854
0.027067 0.602654 0.084534
0.029990 0.604430 0.084889
0.033318 0.612075 0.086370
0.036222 0.612680 0.086510
0.038987 0.611326 0.086279
0.041835 0.611144 0.086277
0.044505 0.608839 0.085873
0.047990 0.615883 0.087264
0.049637 0.602611 0.084768
0.053655 0.614625 0.087120
0.056279 0.612012 0.086675
0.059324 0.613498 0.087020
0.061812 0.609877 0.086390
0.064071 0.604567 0.085439
0.067015 0.605244 0.085642
0.070130 0.607187 0.086093
0.072969 0.606858 0.086112
0.075831 0.606683 0.086165
0.078854 0.607635 0.086440
0.081705 0.607310 0.086473
0.085861 0.615644 0.088183
0.088875 0.616077 0.088373
0.091828 0.616067 0.088483
0.094150 0.612197 0.087850
0.096205 0.606925 0.086949
0.098478 0.603168 0.086345
0.101625 0.604457 0.086723
0.104692 0.605209 0.087001
0.107525 0.604651 0.087030
0.110267 0.603617 0.086970
0.114419 0.609703 0.088303
0.117118 0.608322 0.088184
0.120164 0.608637 0.088401
0.123800 0.611677 0.089156
0.125954 0.607745 0.088549
0.128397 0.605249 0.088225
0.131600 0.606168 0.088576
0.136166 0.612877 0.090071
0.137173 0.604297 0.088558
0.140327 0.604890 0.088855
0.142433 0.601196 0.088306
0.144509 0.597497 0.087758
0.146960 0.595378 0.087522
0.150861 0.598833 0.088395
0.153778 0.598457 0.088510
0.155029 0.591955 0.087404
0.161417 0.604179 0.090034
0.167637 0.615351 0.092463
0.166562 0.600748 0.089734
0.170443 0.603564 0.090491
0.174463 0.606737 0.091320
0.173599 0.593658 0.088879
0.178149 0.598582 0.090057
0.183143 0.604757 0.091487
0.184951 0.600707 0.090850
0.187230 0.598238 0.090527
0.190436 0.598664 0.090785
0.193667 0.599154 0.091050
0.196532 0.598546 0.091086
0.198067 0.594091 0.090332
0.201764 0.595973 0.090859
0.203673 0.592757 0.090338
0.208039 0.596490 0.091227
0.212563 0.600567 0.092177
0.214759 0.598241 0.091807
0.216852 0.595721 0.091386
0.218232 0.591412 0.090584
0.220474 0.589483 0.090257
0.226535 0.597452 0.091947
0.229361 0.597036 0.091902
0.227955 0.586057 0.089676
0.231790 0.588357 0.090158
0.234655 0.588268 0.090135
0.232721 0.576617 0.087724
0.236164 0.578127 0.087997
0.245939 0.594603 0.091322
0.253161 0.604790 0.093338
0.254447 0.601086 0.092489
0.255318 0.596562 0.091455
0.253222 0.585475 0.089064
0.253754 0.580550 0.087918
0.258508 0.585126 0.088695
0.264807 0.593052 0.090134
0.271870 0.602533 0.091867
0.276935 0.607587 0.092677
0.276049 0.599921 0.090890
0.271364 0.584437 0.087511
-0.292987 0.601214 0.095547
-0.290764 0.602167 0.095927
-0.288123 0.602291 0.096116
-0.285620 0.602773 0.096361
-0.282852 0.602739 0.096479
-0.279875 0.602295 0.096492
-0.276607 0.601242 0.096358
-0.274196 0.602166 0.096622
-0.271958 0.603560 0.096967
-0.269513 0.604554 0.097209
-0.267492 0.606615 0.097658
-0.264809 0.607202 0.097777
-0.260517 0.603991 0.097074
-0.258137 0.605392 0.097329
-0.256217 0.607999 0.097820
-0.253254 0.608117 0.097769
-0.249049 0.605152 0.097050
-0.246066 0.605263 0.096964
-0.243196 0.605703 0.096932
-0.239546 0.604148 0.096465
-0.236596 0.604433 0.096372
-0.234269 0.606427 0.096623
-0.231432 0.607112 0.096586
-0.228173 0.606669 0.096301
-0.223880 0.603334 0.095401
-0.221344 0.604914 0.095518
-0.218106 0.604523 0.095214
-0.215383 0.605640 0.095214
-0.212504 0.606330 0.095118
-0.209408 0.606392 0.094884
-0.206431 0.606821 0.094719
-0.203358 0.606962 0.094489
-0.200081 0.606456 0.094122
-0.196778 0.605845 0.093729
-0.193766 0.606154 0.093522
-0.190556 0.605799 0.093176
-0.187483 0.605887 0.092919
-0.184152 0.605071 0.092477
-0.181429 0.606338 0.092458
-0.177999 0.605108 0.091931
-0.175270 0.606357 0.091907
-0.172302 0.606747 0.091709
-0.169246 0.606793 0.091444
-0.166347 0.607418 0.091295
-0.162883 0.605829 0.090705
-0.160182 0.607194 0.090709
-0.157236 0.607587 0.090520
-0.154520 0.608922 0.090522
-0.151233 0.607854 0.090048
-0.148396 0.608664 0.089951
-0.145210 0.607928 0.089552
-0.142211 0.607972 0.089310
-0.139105 0.607488 0.088969
-0.136053 0.607207 0.088671
-0.133050 0.607110 0.088415
-0.130108 0.607279 0.088215
-0.126940 0.606270 0.087789
-0.123951 0.606103 0.087533
-0.121209 0.607223 0.087532
-0.118506 0.608573 0.087579
-0.115581 0.608712 0.087396
-0.112561 0.608264 0.087103
-0.109639 0.608341 0.086917
-0.106623 0.607810 0.086618
-0.103654 0.607501 0.086368
-0.100589 0.606513 0.085991
-0.097744 0.606909 0.085886
-0.094906 0.607344 0.085793
-0.091974 0.607088 0.085572
-0.089147 0.607568 0.085497
-0.086465 0.609162 0.085639
-0.083568 0.609120 0.085473
-0.080561 0.608114 0.085128
-0.077638 0.607715 0.084904
-0.074758 0.607644 0.084746
-0.071794 0.606729 0.084434
-0.069063 0.608001 0.084541
-0.066303 0.609054 0.084610
-0.063475 0.609437 0.084557
-0.060566 0.608904 0.084335
-0.057567 0.607171 0.083892
-0.054740 0.607411 0.083825
-0.051982 0.608574 0.083937
-0.049112 0.608246 0.083772
-0.046266 0.608188 0.083662
-0.043439 0.608407 0.083609
-0.040644 0.609239 0.083675
-0.037804 0.609255 0.083592
-0.035148 0.613319 0.084272
-0.032323 0.614101 0.084340
-0.029337 0.610565 0.083605
-0.026458 0.609385 0.083315
-0.023570 0.607397 0.082878
-0.020751 0.607635 0.082862
-0.017942 0.608578 0.082982
-0.015117 0.608827 0.082976
-0.012285 0.608529 0.082873
-0.009474 0.613230 0.083706
-0.006626 0.612337 0.083499
-0.003728 0.621675 0.085204
-0.000839 0.621699 0.085176
0.001941 0.614396 0.083787
0.004703 0.609617 0.082874
0.007608 0.612536 0.083398
0.010517 0.614646 0.083776
0.013374 0.614618 0.083760
0.016289 0.616050 0.084019
0.019201 0.617107 0.084214
0.021989 0.615277 0.083875
0.024695 0.612179 0.083304
0.027531 0.611860 0.083254
0.030027 0.606000 0.082177
0.033192 0.611094 0.083145
0.036157 0.612654 0.083458
0.038996 0.612304 0.083420
0.041831 0.611929 0.083382
0.045135 0.617103 0.084382
0.047709 0.613517 0.083754
0.051544 0.623712 0.085701
0.052569 0.604345 0.082136
0.056547 0.615354 0.084245
0.059391 0.614846 0.084208
0.061918 0.611534 0.083652
0.064199 0.606353 0.082750
0.067213 0.607551 0.083045
0.070113 0.607728 0.083154
0.072897 0.606975 0.083093
0.075929 0.608072 0.083383
0.078822 0.608063 0.083471
0.081598 0.607223 0.083407
0.085054 0.610926 0.084202
0.088531 0.614506 0.084980
0.091313 0.613486 0.084897
0.093759 0.610446 0.084437
0.096144 0.607189 0.083940
0.098503 0.603920 0.083444
0.101431 0.603980 0.083581
0.104438 0.604431 0.083797
0.107434 0.604762 0.083995
0.110463 0.605218 0.084221
0.114091 0.608638 0.085014
0.117117 0.608900 0.085214
0.120738 0.611974 0.085953
0.123488 0.610782 0.085884
0.125566 0.606526 0.085233
0.127299 0.600870 0.084316
0.130762 0.603032 0.084898
0.134146 0.604734 0.085397
0.138114 0.608788 0.086352
0.140041 0.604230 0.085655
0.142481 0.601895 0.085387
0.145252 0.600937 0.085386
0.148059 0.600129 0.085417
0.151503 0.601749 0.085919
0.152844 0.595420 0.084882
0.155180 0.592949 0.084593
0.158440 0.593879 0.084965
0.165067 0.606675 0.087653
0.170344 0.614304 0.089340
0.172488 0.610936 0.088881
0.176115 0.612651 0.089415
0.178955 0.611690 0.089424
0.180252 0.605732 0.088448
0.182471 0.602904 0.088082
0.184663 0.600071 0.087711
0.187274 0.598616 0.087607
0.190539 0.599194 0.087900
0.194623 0.602207 0.088671
0.197370 0.601179 0.088636
0.200149 0.600277 0.088619
0.202698 0.598744 0.088469
0.204147 0.594154 0.087701
0.206174 0.591313 0.087272
0.208799 0.590211 0.087179
0.212414 0.591834 0.087620
0.215635 0.592379 0.087834
0.219038 0.593413 0.088136
0.223860 0.598134 0.089164
0.228799 0.603061 0.090220
0.229659 0.597544 0.089171
0.229027 0.588458 0.087390
0.231466 0.587230 0.087169
0.236184 0.591637 0.088064
0.234309 0.580051 0.085734
0.240489 0.588009 0.087309
0.247572 0.597960 0.089266
0.251641 0.600696 0.089758
0.251169 0.592936 0.088130
0.250621 0.585217 0.086494
0.250291 0.578206 0.084985
0.252297 0.576612 0.084544
0.256291 0.579498 0.084980
0.266034 0.594969 0.087904
0.268259 0.593883 0.087508
0.262490 0.575705 0.083701
0.266848 0.579467 0.084239
0.270681 0.582105 0.084535
0.269901 0.575116 0.082911
-0.296139 0.601194 0.092774
-0.293674 0.601609 0.093042
-0.291457 0.602616 0.093414
-0.288870 0.602903 0.093620
-0.285993 0.602621 0.093690
-0.283229 0.602638 0.093803
-0.280714 0.603263 0.094023
-0.277619 0.602657 0.093970
-0.274668 0.602416 0.093972
-0.272133 0.603178 0.094164
-0.269679 0.604194 0.094389
-0.267412 0.605720 0.094702
-0.264732 0.606351 0.094810
-0.261418 0.605525 0.094599
-0.258715 0.606206 0.094682
-0.256243 0.607514 0.094876
-0.252965 0.606891 0.094655
-0.249247 0.605184 0.094194
-0.246404 0.605696 0.094175
-0.243166 0.605237 0.093941
-0.239917 0.604768 0.093691
-0.237179 0.605668 0.093708
-0.234609 0.607064 0.093813
-0.231645 0.607452 0.093699
-0.228434 0.607183 0.093439
-0.225126 0.606652 0.093115
-0.221705 0.605799 0.092717
-0.218204 0.604696 0.092259
-0.215666 0.606387 0.092361
-0.212572 0.606482 0.092131
-0.209682 0.607195 0.092020
-0.206460 0.606908 0.091701
-0.203172 0.606406 0.091334
-0.200236 0.606991 0.091181
-0.196816 0.606032 0.090716
-0.193577 0.605617 0.090357
-0.190907 0.607069 0.090369
-0.187748 0.606901 0.090057
-0.184363 0.605928 0.089583
-0.181088 0.605290 0.089177
-0.178500 0.607052 0.089246
-0.175541 0.607510 0.089057
-0.172542 0.607813 0.088838
-0.169383 0.607495 0.088499
-0.166038 0.606425 0.088015
-0.163031 0.606609 0.087779
-0.160065 0.606930 0.087572
-0.157165 0.607505 0.087417
-0.154126 0.607496 0.087152
-0.151768 0.610346 0.087443
-0.148133 0.607740 0.086683
-0.145096 0.607641 0.086411
-0.142105 0.607710 0.086176
-0.139230 0.608286 0.086042
-0.136226 0.608240 0.085793
-0.133228 0.608189 0.085547
-0.130212 0.608009 0.085281
-0.127122 0.607404 0.084939
-0.124028 0.606708 0.084585
-0.121385 0.608361 0.084681
-0.118499 0.608732 0.084539
-0.115634 0.609196 0.084418
-0.112545 0.608355 0.084056
-0.109575 0.608135 0.083816
-0.106657 0.608187 0.083632
-0.103796 0.608562 0.083514
-0.100785 0.607950 0.083215
-0.097783 0.607314 0.082917
-0.094879 0.607289 0.082738
-0.091946 0.607008 0.082517
-0.089001 0.606590 0.082274
-0.086595 0.610271 0.082799
-0.083006 0.604691 0.081607
-0.080519 0.607840 0.082041
-0.077635 0.607753 0.081878
-0.074795 0.608020 0.081786
-0.071978 0.608501 0.081738
-0.069091 0.608285 0.081566
-0.066367 0.609713 0.081701
-0.063551 0.610244 0.081675
-0.060629 0.609573 0.081432
-0.057696 0.608662 0.081150
-0.054813 0.608244 0.080962
-0.051996 0.608631 0.080928
-0.049183 0.609110 0.080914
-0.046304 0.608570 0.080717
-0.043452 0.608372 0.080588
-0.040586 0.607853 0.080404
-0.037841 0.609630 0.080644
-0.035251 0.615143 0.081569
-0.032462 0.616976 0.081827
-0.029612 0.617554 0.081859
-0.026527 0.610782 0.080556
-0.023629 0.608601 0.080095
-0.020793 0.608263 0.079973
-0.017988 0.609467 0.080136
-0.015154 0.609261 0.080047
-0.012330 0.609993 0.080132
-0.009502 0.611227 0.080312
-0.006662 0.612516 0.080507
-0.003800 0.615731 0.081054
-0.000867 0.622920 0.082327
0.001983 0.620012 0.081771
0.004753 0.614385 0.080726
0.007544 0.611736 0.080226
0.010403 0.612300 0.080313
0.013188 0.610475 0.079971
0.016134 0.613282 0.080472
0.019019 0.614030 0.080604
0.021968 0.615972 0.080957
0.024802 0.615296 0.080839
0.027445 0.611339 0.080131
0.030317 0.611692 0.080208
0.033192 0.612006 0.080283
0.035820 0.608739 0.079712
0.038858 0.611315 0.080205
0.042071 0.615759 0.081041
0.044573 0.611240 0.080256
0.047475 0.611667 0.080372
0.050999 0.618662 0.081685
0.053263 0.612135 0.080547
0.056250 0.613194 0.080791
0.059319 0.614893 0.081156
0.061863 0.611746 0.080645
0.064213 0.607154 0.079873
0.067208 0.608181 0.080129
0.070014 0.607609 0.080099
0.072878 0.607490 0.080155
0.075713 0.607126 0.080171
0.078613 0.607219 0.080275
0.081710 0.608629 0.080625
0.084895 0.610495 0.081063
0.088080 0.612223 0.081481
0.090995 0.612115 0.081567
0.093538 0.609715 0.081238
0.095804 0.605784 0.080630
0.098470 0.604331 0.080482
0.101294 0.603804 0.080508
0.104309 0.604317 0.080731
0.107277 0.604515 0.080900
0.110390 0.605423 0.081205
0.115557 0.616619 0.083419
0.117138 0.609579 0.082263
0.120491 0.611359 0.082745
0.123426 0.611057 0.082845
0.125203 0.605412 0.081956
0.127539 0.602495 0.081576
0.129773 0.599220 0.081131
0.134681 0.607568 0.082860
0.137836 0.608148 0.083145
0.141308 0.609978 0.083667
0.142532 0.602609 0.082467
0.144755 0.599463 0.082059
0.148264 0.601412 0.082612
0.149876 0.596020 0.081784
0.152864 0.595954 0.081962
0.156041 0.596560 0.082268
0.158993 0.596306 0.082414
0.167666 0.616312 0.086409
0.169257 0.610935 0.085588
0.172266 0.610574 0.085721
0.176650 0.614828 0.086734
0.179002 0.612204 0.086434
0.179111 0.602358 0.084747
0.182073 0.601942 0.084862
0.184746 0.600619 0.084800
0.187491 0.599551 0.084784
0.191379 0.601993 0.085440
0.194831 0.603042 0.085824
0.197524 0.601817 0.085764
0.199873 0.599624 0.085510
0.205826 0.607839 0.087267
0.206571 0.601096 0.086116
0.206284 0.591672 0.084432
0.207566 0.586839 0.083629
0.210022 0.585333 0.083462
0.215970 0.593220 0.085117
0.219358 0.594163 0.085409
0.223605 0.597339 0.086125
0.227511 0.599579 0.086646
0.231089 0.600959 0.086986
0.231752 0.595035 0.085882
0.234539 0.594541 0.085826
0.236388 0.591802 0.085315
0.240667 0.595036 0.085958
0.245462 0.599464 0.086819
0.249894 0.602975 0.087484
0.252469 0.602120 0.087275
0.250991 0.591985 0.085233
0.251610 0.586900 0.084164
0.251548 0.580438 0.082809
0.251218 0.573560 0.081358
0.254695 0.575290 0.081571
0.263370 0.588403 0.083984
0.255887 0.566315 0.079524
0.257547 0.564319 0.078963
0.264534 0.573728 0.080597
0.269654 0.579084 0.081424
0.272472 0.579597 0.081295
0.278363 0.586501 0.082380
-0.299137 0.600858 0.089928
-0.296807 0.601532 0.090250
-0.294123 0.601527 0.090417
-0.291982 0.602736 0.090810
-0.289329 0.602924 0.090979
-0.286684 0.603192 0.091146
-0.283775 0.602941 0.091189
-0.281233 0.603553 0.091387
-0.278832 0.604551 0.091644
-0.275594 0.603729 0.091515
-0.272217 0.602622 0.091308
-0.269454 0.602962 0.091376
-0.267037 0.604172 0.091601
-0.264769 0.605807 0.091893
-0.261859 0.605991 0.091874
-0.259003 0.606354 0.091873
-0.256160 0.606798 0.091872
-0.252938 0.606352 0.091674
-0.249701 0.605895 0.091457
-0.246853 0.606448 0.091429
-0.243930 0.606855 0.091357
-0.240088 0.604899 0.090796
-0.237495 0.606226 0.090881
-0.234900 0.607602 0.090963
-0.231430 0.606656 0.090568
-0.228399 0.606913 0.090403
-0.225214 0.606756 0.090145
-0.222005 0.606540 0.089867
-0.218937 0.606728 0.089661
-0.215022 0.604448 0.088959
-0.213041 0.607846 0.089374
-0.209773 0.607464 0.089035
-0.206198 0.606127 0.088504
-0.203241 0.606662 0.088337
-0.200144 0.606764 0.088081
-0.197226 0.607431 0.087933
-0.194054 0.607277 0.087623
-0.191002 0.607501 0.087384
-0.188007 0.607906 0.087180
-0.184818 0.607636 0.086844
-0.181309 0.606218 0.086288
-0.178344 0.606660 0.086091
-0.175585 0.607844 0.086038
-0.172442 0.607624 0.085717
-0.169142 0.606779 0.085278
-0.165968 0.606354 0.084922
-0.162905 0.606317 0.084644
-0.160006 0.606900 0.084486
-0.157187 0.607803 0.084391
-0.154471 0.609140 0.084381
-0.151277 0.608470 0.083995
-0.148199 0.608241 0.083697
-0.145108 0.607905 0.083383
-0.142091 0.607860 0.083127
-0.139157 0.608159 0.082941
-0.136344 0.609008 0.082861
-0.133396 0.609210 0.082664
-0.130390 0.609094 0.082413
-0.127069 0.607331 0.081862
-0.124377 0.608726 0.081901
-0.121508 0.609212 0.081775
-0.118577 0.609342 0.081588
-0.115450 0.608332 0.081197
-0.112551 0.608557 0.081038
-0.109613 0.608525 0.080836
-0.106793 0.609179 0.080764
-0.103958 0.609737 0.080680
-0.100959 0.609219 0.080404
-0.097976 0.608747 0.080141
-0.095072 0.608749 0.079969
-0.092121 0.608378 0.079735
-0.089104 0.607457 0.079405
-0.086098 0.606506 0.079075
-0.083644 0.609884 0.079533
-0.080513 0.607844 0.079016
-0.077784 0.609091 0.079097
-0.074974 0.609677 0.079063
-0.072000 0.608716 0.078755
-0.069177 0.609129 0.078699
-0.066322 0.609224 0.078590
-0.063486 0.609482 0.078514
-0.060621 0.609411 0.078384
-0.057749 0.609205 0.078234
-0.054846 0.608538 0.078006
-0.052022 0.608843 0.077956
-0.049182 0.608907 0.077867
-0.046307 0.608390 0.077679
-0.043441 0.607914 0.077503
-0.040662 0.608915 0.077593
-0.037893 0.610274 0.077751
-0.035161 0.612693 0.078101
-0.032605 0.619938 0.079311
-0.029658 0.618143 0.078920
-0.026679 0.614783 0.078256
-0.023722 0.611046 0.077530
-0.020820 0.608157 0.076959
-0.018001 0.608467 0.076958
-0.015181 0.608889 0.076981
-0.012356 0.609097 0.076971
-0.009533 0.610369 0.077152
-0.006695 0.616336 0.078166
-0.003828 0.617444 0.078326
-0.000938 0.619906 0.078728
0.001940 0.619962 0.078710
0.004749 0.616388 0.078055
0.007550 0.613827 0.077583
0.010369 0.612719 0.077371
0.013172 0.611412 0.077129
0.015993 0.610848 0.077021
0.018872 0.611751 0.077177
0.021890 0.615419 0.077823
0.024803 0.616364 0.077994
0.027414 0.611763 0.077191
0.030235 0.611272 0.077116
0.032901 0.608459 0.076636
0.035469 0.604594 0.075974
0.038559 0.608146 0.076625
0.041718 0.612124 0.077356
0.044551 0.611761 0.077324
0.047290 0.610339 0.077110
0.050108 0.609876 0.077070
0.052925 0.609412 0.077033
0.055442 0.606046 0.076487
0.058723 0.610051 0.077249
0.061394 0.608243 0.076988
0.064082 0.606699 0.076777
0.067088 0.607852 0.077048
0.070014 0.608258 0.077191
0.072701 0.606776 0.077004
0.075577 0.606757 0.077081
0.078565 0.607500 0.077297
0.081680 0.609043 0.077661
0.084777 0.610326 0.077984
0.087704 0.610399 0.078096
0.090894 0.612087 0.078500
0.093458 0.609827 0.078205
0.095366 0.603780 0.077237
0.098311 0.603998 0.077392
0.101293 0.604383 0.077581
0.104427 0.605536 0.077914
0.107301 0.605213 0.077986
0.110069 0.604326 0.077961
0.115053 0.614650 0.079959
0.117769 0.613256 0.079854
0.119872 0.608938 0.079225
0.122842 0.608863 0.079365
0.125526 0.607444 0.079266
0.127715 0.603823 0.078771
0.131180 0.605947 0.079322
0.131082 0.592590 0.077063
0.134977 0.596608 0.077964
0.140417 0.606816 0.080001
0.141437 0.598678 0.078695
0.144978 0.600843 0.079274
0.147044 0.597150 0.078782
0.149436 0.594813 0.078541
0.153185 0.597621 0.079247
0.156926 0.600266 0.079927
0.163331 0.612411 0.082364
0.163855 0.603238 0.080869
0.167440 0.605027 0.081400
0.171210 0.607366 0.082035
0.174531 0.608092 0.082372
0.176364 0.603851 0.081785
0.179039 0.602472 0.081728
0.181638 0.600878 0.081629
0.184970 0.601629 0.081966
0.187972 0.601322 0.082103
0.191014 0.601136 0.082259
0.194571 0.602497 0.082703
0.196748 0.599726 0.082364
0.199785 0.599545 0.082508
0.206828 0.610862 0.084819
0.208299 0.606096 0.084085
0.207448 0.594999 0.082141
0.207651 0.587119 0.080793
0.209658 0.584360 0.080406
0.216776 0.595354 0.082625
0.219646 0.594864 0.082651
0.223655 0.597369 0.083236
0.227882 0.600395 0.083909
0.230995 0.600541 0.084021
0.233621 0.599495 0.083890
0.234276 0.593634 0.082825
0.237162 0.593397 0.082820
0.241619 0.596992 0.083532
0.244435 0.596630 0.083471
0.249511 0.601642 0.084422
0.248869 0.593261 0.082794
0.249956 0.589096 0.081956
0.252894 0.589285 0.081933
0.253188 0.583560 0.080763
0.253144 0.577251 0.079466
0.255547 0.576526 0.079218
0.256047 0.571706 0.078174
0.255887 0.565610 0.076871
0.260809 0.570567 0.077653
0.266381 0.576862 0.078668
0.270696 0.580448 0.079150
0.274233 0.582404 0.079304
0.280045 0.589071 0.080328
-0.299885 0.601346 0.087428
-0.297378 0.601692 0.087667
-0.295509 0.603445 0.088165
-0.291714 0.601197 0.087857
-0.289183 0.601675 0.088067
-0.287095 0.603182 0.088461
-0.284719 0.604146 0.088729
-0.281858 0.604111 0.088781
-0.279372 0.604968 0.088990
-0.276836 0.605784 0.089172
-0.273078 0.603878 0.088796
-0.270037 0.603640 0.088732
-0.267622 0.604906 0.088946
-0.264890 0.605500 0.089009
-0.262219 0.606298 0.089094
-0.259111 0.606099 0.088965
-0.255980 0.605882 0.088816
-0.253100 0.606320 0.088779
-0.250240 0.606851 0.088745
-0.247412 0.607513 0.088722
-0.244491 0.607981 0.088645
-0.240861 0.606636 0.088200
-0.239634 0.611640 0.088985
-0.234337 0.605878 0.087652
-0.231495 0.606655 0.087587
-0.228588 0.607287 0.087483
-0.225528 0.607520 0.087292
-0.222068 0.606631 0.086874
-0.218544 0.605536 0.086411
-0.214976 0.604282 0.085911
-0.212371 0.605849 0.085948
-0.209137 0.605563 0.085624
-0.206944 0.608453 0.085904
-0.203482 0.607473 0.085439
-0.200303 0.607344 0.085134
-0.197082 0.607065 0.084798
-0.194152 0.607708 0.084636
-0.191018 0.607678 0.084345
-0.188086 0.608311 0.084179
-0.184981 0.608349 0.083900
-0.181679 0.607674 0.083489
-0.178506 0.607409 0.083156
-0.175448 0.607526 0.082896
-0.172252 0.607108 0.082539
-0.169262 0.607419 0.082320
-0.166140 0.607209 0.082006
-0.162696 0.605695 0.081455
-0.160084 0.607416 0.081505
-0.157202 0.608071 0.081361
-0.154183 0.608148 0.081114
-0.151466 0.609480 0.081101
-0.148335 0.609036 0.080766
-0.145104 0.608094 0.080344
-0.142432 0.609611 0.080376
-0.139294 0.608995 0.080023
-0.136091 0.608006 0.079608
-0.133685 0.610810 0.079884
-0.130628 0.610470 0.079595
-0.127455 0.609484 0.079195
-0.124385 0.608951 0.078882
-0.121477 0.609221 0.078717
-0.118510 0.609141 0.078495
-0.115365 0.608012 0.078090
-0.112475 0.608272 0.077939
-0.109680 0.609069 0.077888
-0.106830 0.609545 0.077784
-0.103957 0.609859 0.077656
-0.100976 0.609454 0.077405
-0.098058 0.609411 0.077224
-0.095287 0.610353 0.077221
-0.092337 0.610028 0.076998
-0.089196 0.608222 0.076519
-0.086332 0.608384 0.076393
-0.083616 0.609715 0.076476
-0.080720 0.609615 0.076312
-0.077861 0.609787 0.076200
-0.074994 0.609863 0.076076
-0.072084 0.609511 0.075882
-0.069146 0.608806 0.075630
-0.066315 0.609106 0.075558
-0.063424 0.608745 0.075375
-0.060567 0.608706 0.075253
-0.057790 0.609587 0.075295
-0.054928 0.609452 0.075165
-0.052025 0.608710 0.074933
-0.049131 0.607946 0.074702
-0.046295 0.607957 0.074609
-0.043477 0.608238 0.074567
-0.040746 0.610116 0.074806
-0.037921 0.610434 0.074778
-0.035206 0.613202 0.075178
-0.032592 0.619021 0.076107
-0.029730 0.619445 0.076108
-0.026720 0.615257 0.075319
-0.023736 0.610543 0.074444
-0.020845 0.607996 0.073946
-0.018035 0.608676 0.074008
-0.015214 0.608959 0.074006
-0.012385 0.608606 0.073898
-0.009567 0.609935 0.074083
-0.006733 0.614421 0.074814
-0.003870 0.616850 0.075195
-0.000998 0.617912 0.075345
0.001859 0.617219 0.075198
0.004689 0.615453 0.074871
0.007459 0.611844 0.074231
0.010349 0.613605 0.074517
0.013159 0.612395 0.074296
0.015862 0.608639 0.073643
0.018722 0.609388 0.073767
0.021921 0.617175 0.075101
0.024677 0.614944 0.074722
0.027556 0.615234 0.074779
0.030150 0.610780 0.074026
0.033091 0.612230 0.074289
0.035703 0.608762 0.073713
0.038596 0.609446 0.073854
0.041704 0.612726 0.074444
0.044564 0.612663 0.074464
0.047346 0.611699 0.074334
0.049998 0.609411 0.073980
0.052455 0.605317 0.073320
0.055396 0.606282 0.073533
0.058202 0.605872 0.073514
0.061031 0.605660 0.073534
0.063939 0.606121 0.073673
0.066910 0.607025 0.073894
0.069867 0.607723 0.074083
0.072649 0.607001 0.074032
0.075539 0.607087 0.074124
0.078676 0.608900 0.074520
0.081688 0.609698 0.074745
0.084698 0.610397 0.074957
0.088212 0.614285 0.075728
0.091196 0.614576 0.075879
0.093943 0.613369 0.075776
0.096311 0.609954 0.075293
0.098317 0.604603 0.074477
0.101511 0.606168 0.074867
0.104479 0.606383 0.075028
0.107450 0.606571 0.075189
0.110866 0.609019 0.075749
0.114747 0.613661 0.076699
0.118182 0.615851 0.077226
0.120643 0.613201 0.076910
0.123146 0.610841 0.076647
0.124920 0.605188 0.075808
0.127876 0.605080 0.075948
0.130531 0.603613 0.075852
0.131073 0.593063 0.074154
0.133947 0.592765 0.074269
0.136845 0.592550 0.074403
0.140586 0.595729 0.075143
0.144453 0.599249 0.075949
0.147374 0.598914 0.076074
0.149401 0.595149 0.075589
0.154242 0.602048 0.077012
0.159139 0.608866 0.078428
0.159987 0.600780 0.077175
0.162587 0.599171 0.077083
0.165928 0.600179 0.077463
0.169593 0.602236 0.078035
0.173278 0.604269 0.078605
0.176450 0.604512 0.078853
0.179036 0.602820 0.078748
0.182550 0.604136 0.079190
0.185041 0.602172 0.079033
0.187835 0.601194 0.079053
0.191124 0.601748 0.079351
0.193737 0.600241 0.079268
0.196803 0.600115 0.079434
0.199966 0.600267 0.079646
0.207721 0.613599 0.082280
0.210173 0.611540 0.082077
0.209713 0.601423 0.080378
0.209657 0.592709 0.078926
0.213799 0.595626 0.079615
0.217741 0.597939 0.080183
0.220912 0.598173 0.080358
0.223337 0.596475 0.080162
0.227978 0.600536 0.081025
0.232553 0.604348 0.081831
0.234725 0.602076 0.081491
0.236431 0.598737 0.080937
0.241077 0.602691 0.081729
0.242708 0.599313 0.081138
0.245332 0.598419 0.080994
0.244264 0.588890 0.079223
0.246691 0.587760 0.079003
0.248673 0.585674 0.078587
0.252896 0.588782 0.079123
0.256751 0.591043 0.079483
0.259023 0.589775 0.079167
0.259159 0.583876 0.077973
0.260884 0.581617 0.077439
0.265188 0.585029 0.077941
0.271696 0.593140 0.079295
0.272068 0.588150 0.078202
0.272882 0.584238 0.077292
0.278982 0.591444 0.078419
0.279939 0.587977 0.077559
0.280093 0.582992 0.076405
-0.303913 0.603111 0.084972
-0.300387 0.601349 0.084809
-0.298554 0.603139 0.085310
-0.296346 0.604233 0.085659
-0.292053 0.600982 0.085152
-0.289452 0.601352 0.085324
-0.287542 0.603283 0.085778
-0.285632 0.605311 0.086231
-0.283055 0.605960 0.086399
-0.279655 0.604843 0.086207
-0.276830 0.605052 0.086252
-0.274137 0.605618 0.086347
-0.270943 0.605091 0.086211
-0.268468 0.606282 0.086390
-0.265980 0.607514 0.086557
-0.262470 0.606376 0.086250
-0.259249 0.605955 0.086064
-0.256239 0.606076 0.085966
-0.253491 0.606887 0.085984
-0.250741 0.607747 0.085997
-0.247641 0.607770 0.085834
-0.244318 0.607247 0.085552
-0.241808 0.608856 0.085666
-0.238115 0.607400 0.085181
-0.234727 0.606743 0.084839
-0.231605 0.606802 0.084623
-0.228800 0.607752 0.084566
-0.225775 0.608119 0.084390
-0.222445 0.607640 0.084045
-0.219568 0.608453 0.083938
-0.216176 0.607782 0.083545
-0.212483 0.606193 0.082976
-0.209602 0.607001 0.082851
-0.206334 0.606636 0.082504
-0.203930 0.608941 0.082651
-0.200524 0.608135 0.082216
-0.197285 0.607824 0.081872
-0.193829 0.606774 0.081391
-0.190906 0.607440 0.081226
-0.187883 0.607770 0.081000
-0.184801 0.607886 0.080734
-0.181687 0.607866 0.080445
-0.178516 0.607616 0.080116
-0.175530 0.608004 0.079905
-0.172635 0.608710 0.079753
-0.169409 0.608164 0.079377
-0.166045 0.607037 0.078900
-0.163176 0.607774 0.078763
-0.160162 0.607924 0.078523
-0.156835 0.606773 0.078053
-0.153960 0.607421 0.077910
-0.151391 0.609361 0.078001
-0.148236 0.608807 0.077651
-0.145379 0.609511 0.077529
-0.142085 0.608230 0.077059
-0.139711 0.611120 0.077332
-0.136651 0.610852 0.077051
-0.133230 0.608779 0.076457
-0.130755 0.611281 0.076672
-0.127562 0.610204 0.076263
-0.124301 0.608679 0.075782
-0.121424 0.609097 0.075645
-0.118438 0.608897 0.075405
-0.115353 0.608092 0.075065
-0.112247 0.607083 0.074695
-0.109730 0.609500 0.074924
-0.106742 0.609125 0.074674
-0.103793 0.608935 0.074460
-0.100898 0.609051 0.074304
-0.098141 0.610067 0.074308
-0.095370 0.611015 0.074304
-0.092333 0.610076 0.073980
-0.089235 0.608574 0.073565
-0.086392 0.608904 0.073469
-0.083530 0.609060 0.073347
-0.080710 0.609549 0.073287
-0.077818 0.609423 0.073126
-0.074907 0.609072 0.072931
-0.072121 0.609835 0.072930
-0.069315 0.610434 0.072905
-0.066282 0.608701 0.072489
-0.063342 0.607769 0.072213
-0.060633 0.609354 0.072368
-0.057812 0.609731 0.072322
-0.054925 0.609255 0.072137
-0.051903 0.606848 0.071629
-0.049171 0.608310 0.071779
-0.046356 0.608655 0.071744
-0.043582 0.609693 0.071829
-0.040792 0.610602 0.071897
-0.037998 0.611536 0.071972
-0.035358 0.616035 0.072650
-0.032651 0.619874 0.073219
-0.029744 0.619122 0.073022
-0.026694 0.613548 0.072022
-0.023727 0.609149 0.071223
-0.020844 0.606607 0.070740
-0.018067 0.608764 0.071046
-0.015246 0.608944 0.071026
-0.012423 0.609058 0.070998
-0.009604 0.610447 0.071186
-0.006769 0.615101 0.071924
-0.003921 0.614482 0.071785
-0.001063 0.615281 0.071886
0.001804 0.616251 0.072019
0.004619 0.614023 0.071623
0.007439 0.612802 0.071398
0.010342 0.614918 0.071734
0.013170 0.614127 0.071589
0.015903 0.610969 0.071053
0.018585 0.607285 0.070434
0.021758 0.614765 0.071678
0.024916 0.620574 0.072648
0.027521 0.615564 0.071820
0.030360 0.615128 0.071757
0.033155 0.614051 0.071591
0.035887 0.612188 0.071298
0.038840 0.613489 0.071537
0.041699 0.613424 0.071552
0.044691 0.614918 0.071830
0.047463 0.613745 0.071668
0.050033 0.610486 0.071162
0.052774 0.609250 0.070997
0.055634 0.609258 0.071045
0.058380 0.608177 0.070914
0.061112 0.607023 0.070775
0.063708 0.604767 0.070455
0.066667 0.605640 0.070664
0.069676 0.606818 0.070927
0.072663 0.607710 0.071148
0.075630 0.608355 0.071332
0.078687 0.609572 0.071616
0.081664 0.610122 0.071793
0.084682 0.610876 0.072009
0.088937 0.619562 0.073565
0.091073 0.614378 0.072791
0.093795 0.613036 0.072668
0.096354 0.610775 0.072394
0.098527 0.606373 0.071762
0.101344 0.605784 0.071778
0.104318 0.606056 0.071944
0.107398 0.606842 0.072202
0.110784 0.609138 0.072722
0.114308 0.611990 0.073342
0.118358 0.617267 0.074380
0.121738 0.619027 0.074826
0.123382 0.612487 0.073860
0.125189 0.606956 0.073068
0.128181 0.606977 0.073229
0.130463 0.603831 0.072851
0.133213 0.602806 0.072839
0.135786 0.601040 0.072704
0.139592 0.604416 0.073458
0.141887 0.601494 0.073130
0.144114 0.598388 0.072773
0.147961 0.601682 0.073526
0.151075 0.602021 0.073772
0.154550 0.603667 0.074248
0.158135 0.605632 0.074784
0.160217 0.602059 0.074358
0.162312 0.598629 0.073956
0.164722 0.596394 0.073764
0.169602 0.602680 0.075067
0.173293 0.604719 0.075629
0.176263 0.604276 0.075755
0.179743 0.605490 0.076175
0.182077 0.602971 0.075934
0.184704 0.601441 0.075867
0.187670 0.600995 0.075990
0.190911 0.601386 0.076259
0.193992 0.601273 0.076437
0.196811 0.600380 0.076472
0.199642 0.599543 0.076512
0.205387 0.607090 0.078050
0.210915 0.613803 0.079437
0.211933 0.607747 0.078526
0.212741 0.601286 0.077532
0.215647 0.600704 0.077587
0.218346 0.599593 0.077537
0.221553 0.599862 0.077727
0.225241 0.601393 0.078135
0.229554 0.604508 0.078820
0.231731 0.602152 0.078501
0.236980 0.607565 0.079579
0.240604 0.608857 0.079897
0.242936 0.606993 0.079627
0.246128 0.607285 0.079733
0.242535 0.591443 0.076890
0.242618 0.584665 0.075678
0.245636 0.584913 0.075728
0.249383 0.586877 0.076073
0.251084 0.584187 0.075555
0.258687 0.594885 0.077454
0.263353 0.598861 0.078111
0.263210 0.592212 0.076821
0.267418 0.595239 0.077270
0.270207 0.595195 0.077142
0.279653 0.609430 0.079581
0.276506 0.596797 0.077139
0.274992 0.587888 0.075357
0.279129 0.590932 0.075716
0.284311 0.596126 0.076442
0.274612 0.570951 0.071699
0.275488 0.567643 0.070873
-0.306394 0.601716 0.081900
-0.304378 0.603024 0.082324
-0.302220 0.604121 0.082691
-0.299403 0.603930 0.082798
-0.296710 0.604056 0.082945
-0.294341 0.604928 0.083213
-0.290281 0.602258 0.082796
-0.288421 0.604347 0.083255
-0.286772 0.606998 0.083801
-0.283480 0.606135 0.083666
-0.279843 0.604538 0.083372
-0.277606 0.606116 0.083659
-0.274562 0.605943 0.083596
-0.271467 0.605696 0.083500
-0.268687 0.606227 0.083533
-0.266884 0.609121 0.083992
-0.262829 0.606748 0.083443
-0.259610 0.606379 0.083254
-0.256630 0.606626 0.083164
-0.253698 0.607030 0.083089
-0.250779 0.607511 0.083013
-0.247582 0.607326 0.082798
-0.244592 0.607695 0.082674
-0.241558 0.607980 0.082521
-0.238592 0.608473 0.082395
-0.234914 0.607085 0.081910
-0.232031 0.607834 0.081811
-0.229042 0.608322 0.081655
-0.225968 0.608592 0.081450
-0.222967 0.609079 0.081278
-0.219851 0.609252 0.081042
-0.215112 0.604675 0.079931
-0.212823 0.607231 0.080121
-0.209627 0.607123 0.079821
-0.206559 0.607393 0.079586
-0.203686 0.608265 0.079458
-0.200662 0.608671 0.079243
-0.197435 0.608420 0.078908
-0.194271 0.608348 0.078605
-0.190669 0.606791 0.078037
-0.187603 0.606972 0.077781
-0.184615 0.607404 0.077571
-0.181329 0.606778 0.077175
-0.178389 0.607338 0.076991
-0.175553 0.608267 0.076874
-0.172600 0.608767 0.076683
-0.169687 0.609404 0.076519
-0.166247 0.608006 0.076001
-0.163309 0.608486 0.075816
-0.160591 0.609837 0.075786
-0.157105 0.608069 0.075216
-0.154049 0.607986 0.074944
-0.150985 0.607828 0.074664
-0.148208 0.608874 0.074597
-0.145286 0.609287 0.074423
-0.142426 0.609959 0.074299
-0.139213 0.608990 0.073897
-0.136268 0.609210 0.073704
-0.133626 0.610877 0.073763
-0.130604 0.610693 0.073510
-0.127340 0.609228 0.073044
-0.124430 0.609504 0.072880
-0.121383 0.609023 0.072591
-0.118376 0.608696 0.072334
-0.115405 0.608522 0.072108
-0.112466 0.608479 0.071909
-0.109639 0.609075 0.071822
-0.106776 0.609442 0.071701
-0.103775 0.608920 0.071435
-0.100916 0.609255 0.071318
-0.098129 0.610064 0.071285
-0.095314 0.610691 0.071226
-0.092437 0.610880 0.071097
-0.089318 0.609241 0.070669
-0.086409 0.609064 0.070490
-0.083441 0.608368 0.070228
-0.080581 0.608481 0.070106
-0.077714 0.608503 0.069973
-0.075067 0.610494 0.070169
-0.072205 0.610579 0.070054
-0.069287 0.610090 0.069849
-0.066279 0.608583 0.069481
-0.063431 0.608634 0.069374
-0.060634 0.609240 0.069362
-0.057830 0.609794 0.069345
-0.054893 0.608661 0.069055
-0.051919 0.606853 0.068660
-0.049128 0.607443 0.068661
-0.046423 0.609407 0.068891
-0.043613 0.609895 0.068883
-0.040802 0.610387 0.068879
-0.038069 0.612513 0.069145
-0.035464 0.617857 0.069939
-0.032736 0.621343 0.070434
-0.029702 0.617214 0.069692
-0.026701 0.612902 0.068924
-0.023773 0.609800 0.068358
-0.020844 0.605304 0.067570
-0.018081 0.607803 0.067923
-0.015282 0.609229 0.068104
-0.012462 0.609683 0.068131
-0.009639 0.610640 0.068243
-0.006805 0.615420 0.068978
-0.003952 0.615745 0.068995
-0.001123 0.613148 0.068542
0.001698 0.611706 0.068280
0.004541 0.612081 0.068316
0.007346 0.610676 0.068067
0.010260 0.613571 0.068519
0.013178 0.615722 0.068853
0.015895 0.611995 0.068240
0.018842 0.614490 0.068637
0.021879 0.618394 0.069266
0.024857 0.620413 0.069593
0.027784 0.621165 0.069720
0.030472 0.617854 0.069193
0.033081 0.613749 0.068541
0.035963 0.614072 0.068610
0.038923 0.615375 0.068841
0.041933 0.617124 0.069149
0.044747 0.616299 0.069043
0.047596 0.615942 0.069017
0.050419 0.615305 0.068950
0.053227 0.614545 0.068867
0.056134 0.614789 0.068951
0.059259 0.617009 0.069359
0.061451 0.610677 0.068384
0.063711 0.605399 0.067583
0.066549 0.605271 0.067622
0.069846 0.608765 0.068255
0.072702 0.608591 0.068295
0.075643 0.609034 0.068440
0.078518 0.608940 0.068502
0.081606 0.610285 0.068803
0.084657 0.611271 0.069051
0.087745 0.612403 0.069327
0.090858 0.613588 0.069616
0.093705 0.613043 0.069627
0.096199 0.610399 0.069299
0.098426 0.606328 0.068740
0.101243 0.605758 0.068759
0.104195 0.605918 0.068903
0.107107 0.605821 0.069009
0.110528 0.608341 0.069551
0.114274 0.612348 0.070344
0.118636 0.619176 0.071610
0.120900 0.615510 0.071146
0.123209 0.612193 0.070744
0.126364 0.612891 0.071011
0.128682 0.609750 0.070644
0.130967 0.606563 0.070273
0.135873 0.614797 0.071809
0.139444 0.617009 0.072348
0.141325 0.612091 0.071699
0.142904 0.606110 0.070873
0.145698 0.605170 0.070895
0.148689 0.605001 0.071049
0.151133 0.602712 0.070849
0.153780 0.601240 0.070790
0.157343 0.603167 0.071308
0.160349 0.602980 0.071471
0.162765 0.600674 0.071277
0.166088 0.601586 0.071632
0.169868 0.604008 0.072246
0.173585 0.606106 0.072809
0.176818 0.606507 0.073084
0.179325 0.604503 0.072947
0.181628 0.601891 0.072705
0.184338 0.600627 0.072693
0.187621 0.601165 0.072990
0.190918 0.601710 0.073287
0.194112 0.601917 0.073525
0.196937 0.601012 0.073567
0.199914 0.600568 0.073685
0.206871 0.611566 0.075792
0.209650 0.610410 0.075780
0.211608 0.606995 0.075367
0.214113 0.605183 0.075227
0.216396 0.602826 0.074982
0.218177 0.599199 0.074506
0.220939 0.598270 0.074493
0.224111 0.598446 0.074664
0.227567 0.599360 0.074956
0.230884 0.599920 0.075174
0.236778 0.606938 0.076521
0.240046 0.607315 0.076683
0.238123 0.595050 0.074594
0.236952 0.584930 0.072867
0.242008 0.589910 0.073799
0.242939 0.585105 0.072983
0.247717 0.589399 0.073762
0.251332 0.590961 0.074042
0.253415 0.589052 0.073689
0.255270 0.586717 0.073243
0.262467 0.596361 0.074902
0.268334 0.602926 0.075996
0.269783 0.599783 0.075353
0.272108 0.598647 0.075047
0.272360 0.593165 0.073957
0.279476 0.602352 0.075435
0.277646 0.592693 0.073574
0.280065 0.592085 0.073291
0.279960 0.586362 0.072093
0.275000 0.570917 0.069181
0.276289 0.568408 0.068522
0.283732 0.578308 0.070010
-0.308672 0.599948 0.078764
-0.306871 0.601641 0.079256
-0.305210 0.603708 0.079799
-0.303009 0.604765 0.080139
-0.300681 0.605638 0.080427
-0.297666 0.605146 0.080445
-0.294679 0.604765 0.080465
-0.293883 0.609119 0.081335
-0.289532 0.605941 0.080802
-0.286931 0.606574 0.080949
-0.282817 0.603941 0.080476
-0.281153 0.606768 0.080988
-0.278349 0.607138 0.081030
-0.275292 0.606993 0.080957
-0.271363 0.604883 0.080505
-0.268641 0.605586 0.080552
-0.266240 0.607107 0.080731
-0.263174 0.607117 0.080616
-0.260166 0.607309 0.080517
-0.256732 0.606498 0.080219
-0.253469 0.606125 0.079987
-0.250375 0.606196 0.079821
-0.247568 0.607025 0.079780
-0.244609 0.607507 0.079663
-0.241401 0.607373 0.079422
-0.237325 0.604959 0.078758
-0.235005 0.607197 0.078926
-0.232486 0.608968 0.078999
-0.229469 0.609425 0.078826
-0.226006 0.608650 0.078424
-0.222866 0.608771 0.078177
-0.218217 0.604541 0.077148
-0.215561 0.606010 0.077133
-0.212650 0.606760 0.076985
-0.209743 0.607537 0.076837
-0.206783 0.608160 0.076660
-0.203759 0.608587 0.076445
-0.200590 0.608553 0.076148
-0.197533 0.608858 0.075911
-0.194290 0.608545 0.075564
-0.190875 0.607622 0.075113
-0.187719 0.607519 0.074806
-0.184456 0.607018 0.074432
-0.181533 0.607661 0.074258
-0.178650 0.608441 0.074110
-0.175219 0.607229 0.073620
-0.172612 0.608989 0.073645
-0.169550 0.609070 0.073384
-0.166586 0.609494 0.073185
-0.163589 0.609771 0.072965
-0.160533 0.609790 0.072704
-0.157134 0.608371 0.072204
-0.154155 0.608608 0.071989
-0.151174 0.608810 0.071773
-0.148217 0.609092 0.071574
-0.145377 0.609865 0.071462
-0.142222 0.609205 0.071114
-0.139247 0.609317 0.070901
-0.136412 0.610056 0.070796
-0.133602 0.610920 0.070716
-0.130608 0.610865 0.070489
-0.127487 0.610126 0.070153
-0.124469 0.609851 0.069899
-0.121397 0.609229 0.069593
-0.118414 0.609031 0.069362
-0.115473 0.609024 0.069167
-0.112626 0.609521 0.069059
-0.109758 0.609885 0.068934
-0.107007 0.610958 0.068929
-0.103896 0.609769 0.068560
-0.100908 0.609278 0.068310
-0.098072 0.609737 0.068219
-0.095320 0.610786 0.068228
-0.092359 0.610353 0.068001
-0.089195 0.608349 0.067525
-0.086621 0.610716 0.067759
-0.083705 0.610489 0.067579
-0.080678 0.609278 0.067245
-0.078064 0.611519 0.067470
-0.075156 0.611254 0.067297
-0.072138 0.609886 0.066951
-0.069169 0.608849 0.066663
-0.066356 0.609283 0.066615
-0.063487 0.609121 0.066475
-0.060663 0.609433 0.066415
-0.057849 0.609860 0.066377
-0.054864 0.608096 0.065994
-0.052027 0.608098 0.065897
-0.049323 0.610018 0.066108
-0.046446 0.609470 0.065930
-0.043589 0.609132 0.065790
-0.040777 0.609536 0.065772
-0.037977 0.610208 0.065799
-0.035409 0.616092 0.066654
-0.032646 0.618506 0.066963
-0.029757 0.617979 0.066811
-0.026797 0.615049 0.066283
-0.023807 0.609965 0.065421
-0.020877 0.605417 0.064647
-0.018119 0.608123 0.065020
-0.015316 0.609310 0.065157
-0.012498 0.610016 0.065222
-0.009675 0.610958 0.065327
-0.006841 0.617092 0.066252
-0.003994 0.614885 0.065869
-0.001207 0.608603 0.064850
0.001638 0.610347 0.065095
0.004447 0.609304 0.064906
0.007265 0.609023 0.064841
0.010199 0.612947 0.065439
0.013113 0.615102 0.065763
0.016050 0.617336 0.066103
0.018890 0.616745 0.066003
0.021683 0.615243 0.065764
0.024762 0.619548 0.066439
0.027779 0.621992 0.066827
0.030559 0.620138 0.066543
0.032996 0.613265 0.065476
0.036305 0.619745 0.066508
0.038924 0.616137 0.065960
0.041723 0.615198 0.065836
0.044702 0.616469 0.066062
0.047594 0.616604 0.066114
0.050398 0.615741 0.066012
0.053465 0.617627 0.066347
0.056677 0.620723 0.066877
0.059366 0.618630 0.066594
