ply
format ascii 1.0
comment ---
element vertex 1708
property float x
property float y
property float z
element face 0
property list uchar uint vertex_indices
end_header
0.061607 0.592855 -0.282911
0.073297 0.579484 -0.278703
0.074430 0.586458 -0.280974
0.076913 0.590979 -0.282456
0.081556 0.591332 -0.282603
0.085884 0.592366 -0.282961
0.090902 0.592035 -0.282879
0.097199 0.589063 -0.281949
0.102235 0.588670 -0.281839
0.106394 0.590127 -0.282316
0.109151 0.594630 -0.283763
0.107778 0.608236 -0.288114
0.114010 0.605391 -0.287212
0.123831 0.594414 -0.283714
0.129908 0.591599 -0.282820
0.135067 0.590781 -0.282564
0.135819 0.600168 -0.285565
0.140582 0.600294 -0.285611
0.150024 0.589172 -0.282068
0.153079 0.593198 -0.283360
0.154890 0.600350 -0.285653
0.156671 0.607727 -0.288019
0.166843 0.593986 -0.283644
0.171796 0.593207 -0.283411
0.178122 0.588763 -0.282008
0.181388 0.592233 -0.283135
0.182009 0.602862 -0.286551
0.186204 0.603991 -0.286936
0.194622 0.593377 -0.283572
0.198078 0.596349 -0.284551
0.203462 0.593831 -0.283778
0.208309 0.592734 -0.283462
0.212329 0.593981 -0.283897
0.216454 0.594889 -0.284227
0.218766 0.601300 -0.286319
0.222866 0.602317 -0.286689
0.225911 0.606638 -0.288119
0.231178 0.603910 -0.287298
0.236337 0.601381 -0.286543
0.244181 0.589781 -0.282887
0.247472 0.593108 -0.284010
0.251916 0.592532 -0.283886
0.255589 0.594582 -0.284606
0.259191 0.596907 -0.285416
0.264272 0.593883 -0.284516
0.267904 0.596063 -0.285285
0.270632 0.601700 -0.287165
0.273915 0.605368 -0.288418
0.278086 0.605637 -0.288583
0.283839 0.599513 -0.286699
0.289110 0.595062 -0.285353
0.293734 0.593080 -0.284801
0.297662 0.593951 -0.285168
0.299819 0.602562 -0.288022
0.302893 0.607416 -0.289674
0.306009 0.612262 -0.291326
0.313667 0.596007 -0.286195
0.317695 0.596351 -0.286402
0.321570 0.597419 -0.286844
0.326421 0.593589 -0.285712
0.330405 0.594000 -0.285946
0.333323 0.600062 -0.288003
0.337472 0.599704 -0.287993
0.341953 0.597431 -0.287368
0.344293 0.607332 -0.290671
0.347393 0.613282 -0.292703
0.352242 0.608858 -0.291389
0.355321 0.615294 -0.293583
0.362522 0.595278 -0.287232
0.366393 0.596306 -0.287680
0.370344 0.596814 -0.287962
0.374427 0.596382 -0.287941
0.378575 0.595412 -0.287747
0.382445 0.596492 -0.288218
0.386473 0.596364 -0.288299
0.390548 0.595811 -0.288243
0.394748 0.594087 -0.287809
0.398743 0.594067 -0.287928
0.402692 0.594467 -0.288185
0.405599 0.605347 -0.291847
0.409888 0.602746 -0.291132
0.414229 0.599261 -0.290130
0.418410 0.597243 -0.289605
0.421934 0.603173 -0.291667
0.425600 0.607983 -0.293367
0.428875 0.619011 -0.297096
0.434658 0.593280 -0.288847
0.438582 0.594150 -0.289266
0.442539 0.594556 -0.289535
0.446486 0.595256 -0.289900
0.450656 0.591193 -0.288711
0.454242 0.600476 -0.291882
0.458292 0.599390 -0.291667
0.462390 0.596424 -0.290837
0.466111 0.606763 -0.294362
0.470020 0.612989 -0.296545
0.474369 0.596183 -0.291183
0.478219 0.608508 -0.295367
0.482372 0.593341 -0.290538
0.486347 0.595480 -0.291383
0.490336 0.594742 -0.291286
0.494329 0.595401 -0.291648
0.498316 0.595009 -0.291665
0.502289 0.593993 -0.291477
0.506285 0.594325 -0.291733
0.510255 0.593604 -0.291644
0.514243 0.593574 -0.291782
0.518239 0.593745 -0.291988
0.522192 0.592832 -0.291836
0.526705 0.603906 -0.295641
0.529978 0.589119 -0.290911
0.533923 0.588595 -0.290889
0.538526 0.598736 -0.294392
0.542776 0.602083 -0.295653
0.547052 0.605315 -0.296878
0.551803 0.614273 -0.300001
0.554477 0.596731 -0.294348
0.558518 0.596921 -0.294568
0.562596 0.597465 -0.294906
0.566525 0.596384 -0.294706
0.570672 0.597530 -0.295245
0.574805 0.598411 -0.295698
0.579515 0.604378 -0.297843
0.583628 0.604665 -0.298101
0.587078 0.599443 -0.296528
0.590982 0.598206 -0.296280
0.595472 0.601490 -0.297539
0.598773 0.595789 -0.295805
0.602734 0.595127 -0.295750
0.606777 0.595051 -0.295893
0.610950 0.595813 -0.296316
0.614895 0.595037 -0.296227
0.618964 0.595057 -0.296405
0.622868 0.594048 -0.296239
0.626927 0.593978 -0.296389
0.631262 0.595450 -0.297058
0.635644 0.597074 -0.297779
0.639715 0.596909 -0.297902
0.644174 0.598748 -0.298700
0.648063 0.597558 -0.298482
0.652124 0.597256 -0.298564
0.656433 0.598136 -0.299045
0.660695 0.598718 -0.299428
0.666079 0.604424 -0.301540
0.670603 0.605958 -0.302249
0.672498 0.595780 -0.299010
0.676594 0.595518 -0.299116
0.680539 0.594592 -0.298999
0.684280 0.592828 -0.298601
0.687973 0.590905 -0.298150
0.693628 0.596804 -0.300349
0.698798 0.600547 -0.301824
0.703335 0.601686 -0.302419
0.706915 0.599170 -0.301777
0.709995 0.594878 -0.300533
0.713706 0.592973 -0.300101
0.717535 0.591511 -0.299821
0.724112 0.599586 -0.302790
0.729825 0.604386 -0.304651
0.734023 0.603905 -0.304716
0.738396 0.603972 -0.304972
0.744669 0.610126 -0.307310
0.744377 0.595176 -0.302440
0.749300 0.596962 -0.303291
0.757500 0.608700 -0.307554
0.761588 0.607586 -0.307423
0.764428 0.602746 -0.306017
0.766968 0.597130 -0.304345
0.772401 0.599967 -0.305579
0.776286 0.598275 -0.305260
0.778680 0.592415 -0.303509
0.784879 0.597141 -0.305406
0.789660 0.597826 -0.305918
0.793779 0.596669 -0.305797
0.797811 0.595259 -0.305592
0.801476 0.592880 -0.305056
0.805302 0.590922 -0.304668
0.809946 0.591019 -0.304995
0.816735 0.596372 -0.307152
0.822865 0.599903 -0.308684
0.828724 0.602619 -0.309940
0.828805 0.591457 -0.306370
0.832678 0.589431 -0.305981
0.837472 0.589530 -0.306336
0.844717 0.595157 -0.308628
0.849650 0.595367 -0.309034
0.855365 0.597244 -0.310028
0.856548 0.589073 -0.307505
0.863477 0.593490 -0.309399
0.868689 0.594062 -0.309949
0.873375 0.593453 -0.310089
0.878838 0.594416 -0.310785
0.883814 0.594299 -0.311105
0.889495 0.595561 -0.311916
0.894250 0.594885 -0.312045
0.898809 0.593786 -0.312026
0.904949 0.595758 -0.313098
0.910638 0.596768 -0.313832
0.915171 0.595509 -0.313760
0.920114 0.595019 -0.313963
0.924722 0.593887 -0.313936
0.929177 0.592474 -0.313807
0.937989 0.598997 -0.316512
0.944012 0.600343 -0.317367
0.946467 0.595314 -0.315936
0.949185 0.590859 -0.314703
0.954149 0.590414 -0.314901
0.959276 0.590274 -0.315203
0.966401 0.593554 -0.316728
0.974352 0.598182 -0.318735
0.978752 0.596847 -0.318583
0.982688 0.594824 -0.318172
0.987461 0.594261 -0.318276
0.991970 0.593346 -0.318240
0.997026 0.593393 -0.318539
1.002559 0.594270 -0.319125
1.007768 0.594707 -0.319537
0.058273 0.540753 -0.269898
0.039263 0.582122 -0.283405
0.039132 0.590329 -0.286174
0.043293 0.590978 -0.286485
0.048045 0.590650 -0.286469
0.052384 0.591174 -0.286719
0.058978 0.587550 -0.285614
0.062333 0.590086 -0.286497
0.074989 0.583952 -0.284603
0.076099 0.591137 -0.286971
0.080872 0.591233 -0.287032
0.085348 0.591965 -0.287293
0.089652 0.593090 -0.287677
0.096287 0.589443 -0.286507
0.102292 0.587031 -0.285733
0.106072 0.589275 -0.286468
0.108897 0.593622 -0.287883
0.111849 0.597794 -0.289239
0.110974 0.610488 -0.293359
0.122711 0.595336 -0.288439
0.128090 0.594131 -0.288046
0.133895 0.591884 -0.287315
0.138563 0.592178 -0.287408
0.143573 0.591629 -0.287229
0.148615 0.590943 -0.287006
0.152079 0.594013 -0.288003
0.153011 0.603344 -0.291035
0.154002 0.612743 -0.294089
0.166687 0.592764 -0.287610
0.170844 0.594037 -0.288031
0.177553 0.588635 -0.286288
0.180958 0.591752 -0.287312
0.182472 0.599979 -0.289999
0.185292 0.604834 -0.291593
0.193989 0.593509 -0.287936
0.198487 0.593570 -0.287979
0.201891 0.596695 -0.289020
0.207867 0.592393 -0.287651
0.212633 0.591456 -0.287378
0.216162 0.594135 -0.288282
0.219100 0.598643 -0.289784
0.221663 0.604398 -0.291695
0.225411 0.606555 -0.292439
0.229613 0.607274 -0.292719
0.234871 0.604512 -0.291870
0.243637 0.589960 -0.287190
0.247299 0.592061 -0.287927
0.251413 0.592624 -0.288166
0.255487 0.593297 -0.288444
0.256644 0.604338 -0.292100
0.262604 0.598297 -0.290199
0.268902 0.590713 -0.287796
0.270308 0.601252 -0.291299
0.272863 0.607737 -0.293484
0.276595 0.609808 -0.294235
0.283774 0.598095 -0.290495
0.289294 0.592632 -0.288793
0.293592 0.591997 -0.288667
0.297986 0.590880 -0.288386
0.299278 0.603213 -0.292498
0.301734 0.610860 -0.295084
0.305630 0.612242 -0.295627
0.313453 0.595283 -0.290180
0.317564 0.595244 -0.290261
0.321468 0.596175 -0.290662
0.325590 0.596014 -0.290708
0.330076 0.593937 -0.290128
0.333224 0.598793 -0.291820
0.337476 0.597877 -0.291624
0.340349 0.604584 -0.293927
0.344114 0.606508 -0.294666
0.347559 0.610409 -0.296056
0.351292 0.612754 -0.296937
0.356276 0.607349 -0.295278
0.362178 0.595605 -0.291537
0.366189 0.595735 -0.291695
0.370129 0.596340 -0.292010
0.374215 0.595912 -0.291987
0.378190 0.596257 -0.292220
0.381916 0.598519 -0.293085
0.386228 0.596240 -0.292457
0.390310 0.595665 -0.292391
0.394525 0.593860 -0.291920
0.398523 0.593850 -0.292042
0.402382 0.595144 -0.292595
0.405708 0.601891 -0.294949
0.409466 0.604760 -0.296026
0.413694 0.602706 -0.295478
0.417592 0.604281 -0.296131
0.421788 0.602318 -0.295615
0.424647 0.617830 -0.300879
0.428286 0.624405 -0.303193
0.434293 0.595837 -0.293874
0.438420 0.593639 -0.293281
0.442366 0.594292 -0.293634
0.446278 0.595736 -0.294250
0.450256 0.596035 -0.294487
0.453889 0.604833 -0.297546
0.458258 0.595635 -0.294633
0.461945 0.605394 -0.298015
0.465921 0.607840 -0.298971
0.470089 0.602445 -0.297321
0.474193 0.597807 -0.295921
0.478210 0.596730 -0.295707
0.482224 0.594532 -0.295119
0.486215 0.594258 -0.295172
0.490208 0.595454 -0.295716
0.494229 0.598634 -0.296923
0.498213 0.596396 -0.296323
0.502140 0.592094 -0.295034
0.506201 0.595541 -0.296334
0.510142 0.593373 -0.295758
0.514093 0.592081 -0.295475
0.518388 0.600332 -0.298387
0.522516 0.602666 -0.299320
0.526638 0.604357 -0.300040
0.530574 0.602119 -0.299444
0.534395 0.598233 -0.298294
0.538508 0.599632 -0.298918
0.542439 0.598089 -0.298555
0.546708 0.601425 -0.299832
0.550751 0.601356 -0.299967
0.554382 0.596232 -0.298401
0.558428 0.596446 -0.298630
0.562486 0.596749 -0.298891
0.566443 0.595944 -0.298780
0.569787 0.589151 -0.296649
0.574890 0.599498 -0.300301
0.579622 0.605555 -0.302509
0.583966 0.607748 -0.303415
0.586774 0.597061 -0.299969
0.590704 0.596074 -0.299801
0.594602 0.594898 -0.299569
0.598467 0.593536 -0.299275
0.602667 0.594615 -0.299809
0.607336 0.598802 -0.301398
0.611574 0.599835 -0.301920
0.615691 0.600002 -0.302150
0.619686 0.599367 -0.302108
0.622011 0.588693 -0.298656
0.626682 0.592323 -0.300065
0.631445 0.596243 -0.301577
0.635515 0.596091 -0.301704
0.640127 0.598825 -0.302817
0.643406 0.594414 -0.301496
0.647783 0.595796 -0.302151
0.652211 0.597327 -0.302860
0.657274 0.601831 -0.304587
0.661958 0.604295 -0.305621
0.667104 0.608741 -0.307335
0.670665 0.605798 -0.306524
0.672412 0.594950 -0.303005
0.676410 0.594256 -0.302965
0.680491 0.593910 -0.303045
0.684571 0.593536 -0.303118
0.688146 0.591094 -0.302483
0.693615 0.596226 -0.304454
0.699519 0.602798 -0.306925
0.704265 0.604668 -0.307783
0.707149 0.599472 -0.306208
0.709854 0.593775 -0.304462
0.713782 0.592648 -0.304292
0.717573 0.591035 -0.303957
0.724668 0.600881 -0.307585
0.729913 0.604038 -0.308908
0.734423 0.604583 -0.309331
0.738957 0.605140 -0.309762
0.741770 0.600078 -0.308248
0.745198 0.597091 -0.307454
0.750193 0.599042 -0.308377
0.755575 0.602070 -0.309681
0.761253 0.605837 -0.311247
0.764078 0.600961 -0.309808
0.768442 0.600688 -0.309974
0.772644 0.599901 -0.309965
0.775521 0.595331 -0.308638
0.779557 0.594081 -0.308473
0.784001 0.593931 -0.308697
0.791510 0.602022 -0.311812
0.793580 0.595319 -0.309749
0.797527 0.593683 -0.309464
0.801553 0.592244 -0.309252
0.805813 0.591381 -0.309246
0.810999 0.592810 -0.310051
0.816615 0.595201 -0.311201
0.822084 0.597108 -0.312187
0.825589 0.594168 -0.311466
0.829553 0.592338 -0.311141
0.833285 0.589951 -0.310621
0.837780 0.589330 -0.310731
0.844684 0.594154 -0.312778
0.850354 0.596012 -0.313779
0.853078 0.591222 -0.312421
0.858735 0.592917 -0.313374
0.863828 0.593290 -0.313861
0.871018 0.598066 -0.315926
0.876416 0.598886 -0.316584
0.879607 0.595036 -0.315575
0.883506 0.592683 -0.315103
0.887676 0.590885 -0.314831
0.893942 0.593276 -0.316066
0.899335 0.593829 -0.316645
0.905515 0.595863 -0.317759
0.911550 0.597523 -0.318743
0.915433 0.595007 -0.318220
0.920053 0.593902 -0.318207
0.924818 0.593065 -0.318289
0.930061 0.593102 -0.318686
0.939021 0.599872 -0.321527
0.943844 0.599046 -0.321610
0.946794 0.594909 -0.320483
0.950820 0.592757 -0.320071
0.953808 0.588860 -0.319014
0.959875 0.590350 -0.319916
0.967335 0.594195 -0.321674
0.974429 0.597375 -0.323183
0.979354 0.596925 -0.323354
0.982645 0.593849 -0.322548
0.987579 0.593565 -0.322755
0.990892 0.590739 -0.322014
0.997220 0.592849 -0.323074
1.002214 0.592891 -0.323359
1.004150 0.588232 -0.321894
0.060543 0.535605 -0.272413
0.037674 0.583736 -0.288376
0.038588 0.590047 -0.290567
0.043420 0.589457 -0.290474
0.044462 0.595927 -0.292697
0.051645 0.591207 -0.291221
0.054853 0.593942 -0.292192
0.063357 0.586751 -0.289879
0.071871 0.579450 -0.287520
0.072869 0.586651 -0.289936
0.073012 0.595751 -0.292972
0.077367 0.596733 -0.293322
0.084303 0.592575 -0.291969
0.088457 0.594015 -0.292458
0.098655 0.583036 -0.288843
0.100054 0.590176 -0.291204
0.103167 0.593873 -0.292425
0.109202 0.591402 -0.291607
0.114289 0.590911 -0.291440
0.117129 0.595332 -0.292892
0.118467 0.603195 -0.295480
0.127348 0.594204 -0.292503
0.132871 0.592622 -0.291973
0.137211 0.593703 -0.292321
0.141115 0.595798 -0.293004
0.148116 0.590516 -0.291253
0.150985 0.595031 -0.292737
0.152322 0.603386 -0.295490
0.157301 0.602858 -0.295313
0.165051 0.595261 -0.292805
0.170241 0.593945 -0.292372
0.176113 0.590754 -0.291322
0.179619 0.593651 -0.292285
0.182705 0.597700 -0.293630
0.186798 0.599073 -0.294094
0.193372 0.593572 -0.292293
0.197828 0.593775 -0.292377
0.202172 0.594244 -0.292552
0.206731 0.594041 -0.292508
0.213000 0.588739 -0.290783
0.216876 0.590355 -0.291345
0.219611 0.595432 -0.293053
0.222409 0.600424 -0.294737
0.227828 0.597284 -0.293738
0.228623 0.608760 -0.297570
0.235396 0.601131 -0.295094
0.241831 0.594294 -0.292881
0.245887 0.595166 -0.293219
0.250229 0.595033 -0.293227
0.255114 0.592944 -0.292591
0.256265 0.604004 -0.296307
0.259946 0.606261 -0.297116
0.265920 0.600072 -0.295132
0.269529 0.602502 -0.296003
0.273979 0.601745 -0.295821
0.278745 0.599667 -0.295205
0.283087 0.599149 -0.295108
0.288695 0.593392 -0.293277
0.293325 0.591417 -0.292701
0.297550 0.591040 -0.292656
0.298560 0.604611 -0.297240
0.301317 0.610966 -0.299435
0.305717 0.610081 -0.299231
0.312768 0.596743 -0.294895
0.317128 0.595575 -0.294599
0.320981 0.596798 -0.295100
0.325613 0.594127 -0.294308
0.329696 0.594115 -0.294402
0.333516 0.595450 -0.294947
0.336291 0.602492 -0.297391
0.339286 0.608667 -0.299551
0.342768 0.612364 -0.300889
0.347951 0.606199 -0.298945
0.353324 0.598470 -0.296481
0.357927 0.595057 -0.295454
0.361891 0.595537 -0.295726
0.365647 0.597413 -0.296466
0.369694 0.597374 -0.296568
0.373874 0.596353 -0.296345
0.377824 0.596934 -0.296657
0.381649 0.598505 -0.297302
0.385648 0.598778 -0.297515
0.389440 0.600778 -0.298307
0.393628 0.599478 -0.297996
0.397723 0.598887 -0.297924
0.401427 0.601942 -0.299074
0.405360 0.602990 -0.299553
0.409204 0.605064 -0.300378
0.413133 0.606403 -0.300958
0.417456 0.603263 -0.300037
0.421402 0.604415 -0.300556
0.424935 0.611170 -0.302960
0.428437 0.619280 -0.305821
0.434108 0.595616 -0.298003
0.438191 0.594205 -0.297664
0.442206 0.593766 -0.297653
0.446093 0.595736 -0.298453
0.450096 0.595617 -0.298551
0.453802 0.602653 -0.301062
0.457662 0.607379 -0.302797
0.461648 0.609539 -0.303669
0.465919 0.601804 -0.301202
0.470093 0.595068 -0.299070
0.474102 0.594207 -0.298922
0.478108 0.593037 -0.298670
0.482073 0.596066 -0.299839
0.486075 0.596395 -0.300096
0.490083 0.597685 -0.300679
0.494118 0.600620 -0.301821
0.498181 0.603439 -0.302925
0.502200 0.602087 -0.302616
0.506123 0.597059 -0.301060
0.510112 0.596151 -0.300902
0.514372 0.603886 -0.303681
0.518231 0.598759 -0.302090
0.522397 0.602052 -0.303363
0.526618 0.605807 -0.304795
0.530661 0.605409 -0.304815
0.534729 0.605464 -0.304990
0.538595 0.602238 -0.304047
0.542467 0.599523 -0.303278
0.546274 0.596263 -0.302323
0.554245 0.595205 -0.302278
0.558407 0.596776 -0.302974
0.562405 0.596348 -0.302988
0.566352 0.595411 -0.302829
0.570327 0.594803 -0.302782
0.575297 0.603591 -0.305956
0.579978 0.608978 -0.307969
0.584113 0.609171 -0.308202
0.586670 0.596318 -0.303959
0.590605 0.595360 -0.303797
0.594438 0.593676 -0.303387
0.598276 0.592119 -0.303020
0.603294 0.599005 -0.305560
0.607922 0.602730 -0.307015
0.611981 0.602409 -0.307079
0.616212 0.603191 -0.307524
0.619616 0.598758 -0.306173
0.623836 0.599473 -0.306597
0.627436 0.596503 -0.305751
0.631701 0.597439 -0.306255
0.636534 0.601434 -0.307819
0.638237 0.588373 -0.303484
0.643923 0.596793 -0.306583
0.649114 0.602228 -0.308654
0.653268 0.602210 -0.308838
0.657414 0.602122 -0.308999
0.661904 0.603630 -0.309717
0.667209 0.608798 -0.311709
0.671141 0.607501 -0.311458
0.672492 0.594844 -0.307256
0.676419 0.593821 -0.307101
0.680878 0.595048 -0.307731
0.684681 0.593483 -0.307391
0.688345 0.591377 -0.306864
0.694965 0.601029 -0.310444
0.701144 0.608545 -0.313285
0.704733 0.605873 -0.312569
0.706486 0.596409 -0.309479
0.710059 0.593928 -0.308831
0.714596 0.594960 -0.309417
0.718249 0.592796 -0.308885
0.724175 0.598531 -0.311128
0.728353 0.598077 -0.311203
0.732579 0.597751 -0.311327
0.736646 0.596872 -0.311258
0.740693 0.595911 -0.311164
0.744647 0.594640 -0.310963
0.748902 0.594299 -0.311093
0.753661 0.595467 -0.311760
0.757684 0.594327 -0.311616
0.761724 0.593221 -0.311486
0.769740 0.603706 -0.315465
0.771896 0.596971 -0.313351
0.776038 0.596007 -0.313284
0.777622 0.587889 -0.310680
0.783766 0.592476 -0.312592
0.793429 0.606378 -0.317826
0.793659 0.594695 -0.313960
0.797573 0.592962 -0.313639
0.801691 0.591747 -0.313506
0.806544 0.592380 -0.314037
0.811870 0.594122 -0.314970
0.817784 0.597209 -0.316392
0.821609 0.595048 -0.315939
0.826348 0.595089 -0.316279
0.830053 0.592611 -0.315719
0.834478 0.591822 -0.315770
0.839611 0.592627 -0.316400
0.846153 0.596557 -0.318161
0.850112 0.594514 -0.317775
0.855216 0.595004 -0.318307
0.860093 0.594922 -0.318637
0.863280 0.591131 -0.317629
0.867953 0.590546 -0.317784
0.874747 0.594378 -0.319546
0.881091 0.597121 -0.320921
0.884494 0.593710 -0.320061
0.888607 0.591768 -0.319737
0.895709 0.595797 -0.321594
0.901015 0.596133 -0.322107
0.905813 0.595426 -0.322241
0.911204 0.595836 -0.322785
0.915694 0.594485 -0.322685
0.920277 0.593307 -0.322647
0.924848 0.592108 -0.322600
0.932081 0.595800 -0.324352
0.939557 0.599829 -0.326231
0.945783 0.601514 -0.327245
0.948500 0.596938 -0.325940
0.953036 0.595655 -0.325846
0.956877 0.593207 -0.325313
0.961480 0.592137 -0.325282
0.964910 0.589130 -0.324522
0.972997 0.594029 -0.326692
0.981438 0.599454 -0.329052
0.984882 0.596611 -0.328322
0.987033 0.591785 -0.326835
0.989613 0.587809 -0.325650
0.996654 0.591093 -0.327163
1.001959 0.591652 -0.327643
0.984687 0.557001 -0.314912
0.033514 0.582197 -0.292194
0.034196 0.588710 -0.294501
0.036102 0.593260 -0.296140
0.041793 0.591125 -0.295527
0.046021 0.591736 -0.295822
0.047416 0.597712 -0.297905
0.053126 0.595807 -0.297335
0.064126 0.583905 -0.293400
0.070617 0.580456 -0.292290
0.071484 0.587904 -0.294827
0.071703 0.596848 -0.297858
0.077838 0.594303 -0.297026
0.082971 0.593746 -0.296855
0.088403 0.592598 -0.296478
0.094736 0.589584 -0.295470
0.099508 0.589765 -0.295530
0.102611 0.593477 -0.296771
0.108259 0.591841 -0.296213
0.114358 0.589174 -0.295307
0.116733 0.594595 -0.297114
0.120395 0.597275 -0.297998
0.126105 0.595383 -0.297348
0.131235 0.594733 -0.297114
0.135992 0.594892 -0.297152
0.141949 0.592196 -0.296233
0.145615 0.594832 -0.297103
0.152815 0.588962 -0.295121
0.155482 0.593977 -0.296791
0.159812 0.594948 -0.297108
0.164292 0.595517 -0.297291
0.169055 0.595318 -0.297219
0.172447 0.598614 -0.298321
0.177770 0.596862 -0.297733
0.182305 0.597100 -0.297815
0.186918 0.597076 -0.297812
0.191164 0.597995 -0.298128
0.197520 0.592974 -0.296455
0.201831 0.593547 -0.296661
0.206285 0.593666 -0.296718
0.212620 0.588199 -0.294904
0.216669 0.589315 -0.295302
0.219224 0.594936 -0.297214
0.224030 0.593742 -0.296843
0.224911 0.604760 -0.300573
0.228567 0.607242 -0.301443
0.233543 0.605464 -0.300885
0.240706 0.596337 -0.297863
0.245239 0.595671 -0.297685
0.249578 0.595587 -0.297704
0.254437 0.593626 -0.297097
0.259051 0.592411 -0.296742
0.263050 0.593322 -0.297105
0.266613 0.595819 -0.298004
0.270323 0.597810 -0.298736
0.274361 0.598571 -0.299057
0.279846 0.593648 -0.297469
0.283565 0.595528 -0.298172
0.287664 0.595885 -0.298366
0.292352 0.593760 -0.297726
0.295945 0.596156 -0.298611
0.298817 0.601744 -0.300574
0.301839 0.606876 -0.302387
0.305543 0.609095 -0.303221
0.311035 0.603056 -0.301274
0.316583 0.596413 -0.299124
0.320593 0.596916 -0.299386
0.324751 0.596663 -0.299395
0.329537 0.593135 -0.298300
0.333508 0.593681 -0.298583
0.336807 0.597860 -0.300094
0.338486 0.611250 -0.304723
0.342768 0.610473 -0.304566
0.349451 0.595455 -0.299594
0.353700 0.594283 -0.299305
0.358000 0.592688 -0.298874
0.361594 0.595516 -0.299943
0.364776 0.601262 -0.302002
0.368525 0.603454 -0.302860
0.373091 0.599928 -0.301782
0.377191 0.599573 -0.301779
0.380520 0.605097 -0.303773
0.385351 0.599021 -0.301832
0.389403 0.598915 -0.301918
0.393224 0.600771 -0.302672
0.397265 0.600779 -0.302800
0.400965 0.604001 -0.304022
0.404970 0.604482 -0.304314
0.408999 0.604750 -0.304535
0.413038 0.604911 -0.304721
0.416966 0.606371 -0.305350
0.421043 0.606156 -0.305410
0.424931 0.608383 -0.306304
0.428939 0.609212 -0.306722
0.433500 0.601774 -0.304320
0.437978 0.594496 -0.301971
0.441930 0.595295 -0.302380
0.445996 0.594018 -0.302081
0.449971 0.594427 -0.302359
0.453575 0.603862 -0.305727
0.457568 0.605204 -0.306329
0.461572 0.606633 -0.306961
0.465497 0.611518 -0.308779
0.469957 0.594156 -0.302971
0.473987 0.592119 -0.302415
0.477981 0.591495 -0.302345
0.481924 0.597138 -0.304428
0.485931 0.599702 -0.305455
0.489965 0.602617 -0.306605
0.494021 0.604604 -0.307437
0.498065 0.603974 -0.307371
0.502096 0.602932 -0.307163
0.506121 0.601970 -0.306983
0.510144 0.601262 -0.306890
0.514164 0.600637 -0.306827
0.518284 0.602811 -0.307731
0.522220 0.600087 -0.306944
0.526323 0.601428 -0.307562
0.530448 0.602926 -0.308236
0.534491 0.602684 -0.308309
0.538380 0.599952 -0.307521
0.542208 0.596679 -0.306546
0.546790 0.604349 -0.309362
0.551396 0.611322 -0.311940
0.554382 0.597549 -0.307325
0.558388 0.597121 -0.307338
0.562444 0.597253 -0.307545
0.566393 0.596232 -0.307354
0.570331 0.595178 -0.307151
0.575324 0.604123 -0.310427
0.579856 0.608097 -0.311978
0.583761 0.606311 -0.311525
0.586637 0.596148 -0.308153
0.590505 0.594627 -0.307792
0.594437 0.593685 -0.307634
0.598579 0.594326 -0.308028
0.603689 0.601749 -0.310793
0.607791 0.601738 -0.310965
0.611581 0.599639 -0.310407
0.615818 0.600512 -0.310891
0.621096 0.607755 -0.313606
0.625922 0.611814 -0.315211
0.629479 0.608196 -0.314127
0.632711 0.602908 -0.312457
0.636477 0.600830 -0.311914
0.642081 0.608696 -0.314864
0.645185 0.603052 -0.313072
0.647921 0.595797 -0.310711
0.651790 0.594493 -0.310444
0.656272 0.596192 -0.311236
0.661281 0.600269 -0.312869
0.666793 0.606434 -0.315242
0.671650 0.609334 -0.316468
0.672479 0.594320 -0.311371
0.676711 0.594595 -0.311672
0.680812 0.594268 -0.311764
0.684775 0.593352 -0.311649
0.689030 0.593613 -0.311952
0.694651 0.599235 -0.314159
0.700662 0.606100 -0.316813
0.704477 0.604311 -0.316400
0.708058 0.601674 -0.315689
0.712955 0.603909 -0.316711
0.718480 0.608274 -0.318496
0.720285 0.599329 -0.315546
0.722606 0.592451 -0.313331
0.727216 0.593548 -0.313960
0.731723 0.594217 -0.314440
0.735941 0.593869 -0.314561
0.740229 0.593710 -0.314753
0.744146 0.592337 -0.314513
0.748146 0.591216 -0.314367
0.752891 0.592366 -0.315039
0.757328 0.592498 -0.315350
0.761628 0.592170 -0.315499
0.769929 0.603470 -0.319834
0.775769 0.607296 -0.321490
0.772401 0.584920 -0.313715
0.776198 0.583118 -0.313347
0.785309 0.595882 -0.318240
0.793095 0.604625 -0.321695
0.794226 0.595353 -0.318644
0.798478 0.594475 -0.318631
0.803264 0.594941 -0.319108
0.807926 0.595015 -0.319449
0.812839 0.595659 -0.320002
0.817176 0.594799 -0.320014
0.822853 0.597168 -0.321205
0.825937 0.593174 -0.320085
0.830843 0.593550 -0.320561
0.835253 0.592691 -0.320591
0.840239 0.593122 -0.321097
0.847964 0.599710 -0.323863
0.852869 0.599730 -0.324232
0.854989 0.593521 -0.322320
0.857498 0.588262 -0.320756
0.865150 0.594172 -0.323302
0.867546 0.588683 -0.321658
0.874326 0.592484 -0.323440
0.881653 0.597270 -0.325593
0.887337 0.598512 -0.326445
0.893600 0.600841 -0.327703
0.898318 0.599976 -0.327782
0.902756 0.598534 -0.327649
0.907616 0.597904 -0.327819
0.911532 0.595432 -0.327303
0.916348 0.594695 -0.327433
0.920568 0.592823 -0.327139
0.925259 0.591844 -0.327176
0.935848 0.601676 -0.331256
0.943350 0.605673 -0.333158
0.949613 0.607348 -0.334188
0.953950 0.605574 -0.333921
0.953664 0.595754 -0.330619
0.961202 0.599706 -0.332489
0.965954 0.598822 -0.332531
0.967240 0.592117 -0.330366
0.969085 0.586528 -0.328607
0.979557 0.595398 -0.332303
0.984274 0.594697 -0.332370
0.986348 0.589777 -0.330822
0.990562 0.588462 -0.330625
0.997674 0.591860 -0.332203
1.007259 0.599170 -0.335254
1.008625 0.593596 -0.333390
0.027043 0.592413 -0.300128
0.032021 0.591351 -0.299897
0.036459 0.591351 -0.300014
0.040864 0.591521 -0.300176
0.045467 0.591429 -0.300236
0.045933 0.599100 -0.302929
0.048267 0.603525 -0.304506
0.058467 0.593231 -0.301053
0.068552 0.583004 -0.297611
0.070178 0.588988 -0.299688
0.070179 0.598351 -0.302908
0.077784 0.592910 -0.301071
0.082655 0.592861 -0.301066
0.087301 0.593299 -0.301220
0.095032 0.587431 -0.299217
0.100063 0.587046 -0.299080
0.105014 0.586828 -0.298995
0.108354 0.590043 -0.300077
0.113463 0.589508 -0.299878
0.117432 0.591441 -0.300518
0.118436 0.599985 -0.303411
0.125329 0.595487 -0.301855
0.130641 0.594438 -0.301475
0.135768 0.593754 -0.301219
0.140521 0.593886 -0.301243
0.145043 0.594526 -0.301440
0.149219 0.595971 -0.301912
0.155338 0.592658 -0.300765
0.159708 0.593531 -0.301046
0.164357 0.593673 -0.301080
0.168499 0.595057 -0.301539
0.172416 0.597004 -0.302193
0.176119 0.599515 -0.303041
0.180976 0.598958 -0.302847
0.185805 0.598401 -0.302656
0.192207 0.593434 -0.300965
0.197050 0.592607 -0.300688
0.201095 0.593954 -0.301155
0.205627 0.593878 -0.301140
0.211770 0.589016 -0.299498
0.213619 0.596722 -0.302141
0.219332 0.592923 -0.300867
0.222394 0.597091 -0.302313
0.226783 0.597190 -0.302374
0.229104 0.603814 -0.304663
0.233262 0.604659 -0.304986
0.238630 0.601485 -0.303941
0.244673 0.595875 -0.302068
0.249495 0.594170 -0.301530
0.253944 0.593647 -0.301398
0.258312 0.593335 -0.301341
0.262279 0.594406 -0.301759
0.266372 0.594999 -0.302017
0.270208 0.596525 -0.302597
0.274328 0.596976 -0.302813
0.279074 0.594948 -0.302184
0.283726 0.593164 -0.301642
0.287401 0.595229 -0.302418
0.291950 0.593704 -0.301969
0.296350 0.592697 -0.301699
0.300352 0.593327 -0.301992
0.301216 0.607861 -0.307046
0.305173 0.608986 -0.307515
0.309857 0.606742 -0.306833
0.316369 0.595648 -0.303122
0.320384 0.596144 -0.303382
0.324679 0.595219 -0.303157
0.329116 0.593486 -0.302657
0.333471 0.592051 -0.302261
0.336108 0.599789 -0.305013
0.338494 0.609319 -0.308385
0.343749 0.602959 -0.306306
0.349265 0.594662 -0.303561
0.353273 0.594966 -0.303772
0.357389 0.594582 -0.303748
0.361218 0.595994 -0.304343
0.364222 0.602962 -0.306851
0.367982 0.605167 -0.307724
0.372384 0.602927 -0.307069
0.376147 0.605224 -0.307978
0.379957 0.607300 -0.308812
0.384308 0.605198 -0.308209
0.388379 0.605228 -0.308342
0.392708 0.603005 -0.307699
0.397328 0.597926 -0.306071
0.400842 0.602824 -0.307887
0.405164 0.600160 -0.307094
0.409424 0.597847 -0.306423
0.412990 0.602897 -0.308299
0.416950 0.603933 -0.308789
0.420737 0.607211 -0.310056
0.424623 0.609587 -0.311013
0.429026 0.605030 -0.309570
0.433340 0.601112 -0.308348
0.437653 0.596586 -0.306915
0.441570 0.598270 -0.307636
0.445825 0.593706 -0.306190
0.449839 0.593352 -0.306206
0.453557 0.600004 -0.308656
0.457493 0.602528 -0.309675
0.461505 0.603416 -0.310126
0.465424 0.608122 -0.311908
0.469803 0.594060 -0.307158
0.473817 0.593220 -0.307009
0.477831 0.591823 -0.306667
0.481775 0.598070 -0.308990
0.485789 0.601384 -0.310293
0.489837 0.604765 -0.311622
0.493881 0.603086 -0.311186
0.497908 0.601317 -0.310718
0.501932 0.600269 -0.310503
0.505989 0.601165 -0.310968
0.510003 0.600052 -0.310731
0.514033 0.599784 -0.310790
0.518040 0.598901 -0.310635
0.522151 0.600671 -0.311410
0.526164 0.599932 -0.311307
0.529970 0.595326 -0.309848
0.533916 0.593931 -0.309515
0.537921 0.593697 -0.309590
0.542130 0.596540 -0.310747
0.546583 0.602353 -0.312950
0.551500 0.613456 -0.317019
0.554159 0.595467 -0.310850
0.558412 0.597950 -0.311887
0.562467 0.597975 -0.312059
0.566346 0.596140 -0.311577
0.570238 0.594591 -0.311196
0.575196 0.603185 -0.314396
0.579129 0.601765 -0.314063
0.582622 0.596663 -0.312430
0.586800 0.597595 -0.312929
0.591050 0.599003 -0.313599
0.595760 0.603782 -0.315464
0.599675 0.602350 -0.315132
0.603160 0.597935 -0.313743
0.606780 0.594725 -0.312781
0.610548 0.592676 -0.312231
0.615304 0.597054 -0.313964
0.620948 0.606644 -0.317553
0.626151 0.612965 -0.319986
0.630185 0.612066 -0.319854
0.633432 0.606720 -0.318139
0.637205 0.604544 -0.317554
0.641721 0.606438 -0.318420
0.643923 0.596116 -0.314931
0.647780 0.594717 -0.314624
0.651601 0.593172 -0.314267
0.655389 0.591517 -0.313871
0.662738 0.606721 -0.319508
0.665061 0.598001 -0.316591
0.672396 0.612224 -0.321890
0.672612 0.594424 -0.315719
0.676698 0.594041 -0.315789
0.680633 0.593001 -0.315626
0.684604 0.592117 -0.315521
0.689127 0.593457 -0.316218
0.694956 0.599874 -0.318744
0.699625 0.601496 -0.319551
0.703856 0.601352 -0.319725
0.707882 0.600404 -0.319612
0.714364 0.608427 -0.322740
0.718714 0.608465 -0.322990
0.720656 0.599981 -0.320164
0.722861 0.592668 -0.317760
0.727356 0.593346 -0.318249
0.731671 0.593352 -0.318497
0.736199 0.594010 -0.318986
0.740315 0.593269 -0.318971
0.744097 0.591451 -0.318568
0.748855 0.592681 -0.319277
0.752721 0.591089 -0.318963
0.757307 0.591668 -0.319443
0.761491 0.590985 -0.319467
0.770460 0.604213 -0.324573
0.773931 0.601204 -0.323760
0.774362 0.589649 -0.319825
0.777041 0.584643 -0.318283
0.786762 0.599015 -0.323842
0.792799 0.602963 -0.325593
0.794624 0.595544 -0.323180
0.798759 0.594331 -0.323046
0.803110 0.593651 -0.323112
0.808005 0.594315 -0.323678
0.812734 0.594483 -0.324067
0.817850 0.595540 -0.324789
0.822701 0.595862 -0.325246
0.828374 0.598085 -0.326412
0.831660 0.594531 -0.325445
0.835442 0.592173 -0.324924
0.840964 0.593823 -0.325894
0.849199 0.601530 -0.329121
0.854182 0.601678 -0.329549
0.855691 0.594077 -0.327093
0.860880 0.594646 -0.327684
0.865352 0.593595 -0.327675
0.872687 0.598596 -0.329934
0.877848 0.598851 -0.330423
0.882939 0.598896 -0.330839
0.888361 0.599564 -0.331492
0.894177 0.600956 -0.332422
0.899717 0.601714 -0.333118
0.905337 0.602562 -0.333850
0.909250 0.600028 -0.333309
0.912702 0.596629 -0.332440
0.916777 0.594459 -0.332033
0.921306 0.593162 -0.331955
0.925427 0.591114 -0.331589
0.935491 0.599975 -0.335366
0.943172 0.604302 -0.337423
0.950554 0.607988 -0.339237
0.955123 0.606615 -0.339120
0.958539 0.603265 -0.338240
0.963309 0.602343 -0.338279
0.967831 0.601040 -0.338163
0.969663 0.595247 -0.336314
0.975007 0.595490 -0.336767
0.979377 0.594159 -0.336604
0.983784 0.592972 -0.336482
0.991143 0.596656 -0.338221
0.997285 0.598381 -0.339193
1.008958 0.608940 -0.343558
1.008847 0.600827 -0.340703
1.013367 0.600177 -0.340709
0.028583 0.588498 -0.303301
0.031856 0.590411 -0.304095
0.034108 0.594307 -0.305562
0.039761 0.592226 -0.304948
0.044783 0.591360 -0.304740
0.046802 0.596128 -0.306472
0.047897 0.602816 -0.308856
0.054267 0.599762 -0.307854
0.066548 0.585416 -0.302926
0.069390 0.589059 -0.304223
0.067751 0.601605 -0.308596
0.078598 0.589793 -0.304517
0.082157 0.592330 -0.305404
0.086424 0.593528 -0.305821
0.092686 0.590688 -0.304830
0.098766 0.588170 -0.303946
0.106537 0.582040 -0.301805
0.107834 0.589544 -0.304387
0.111775 0.591531 -0.305053
0.117472 0.589721 -0.304401
0.119353 0.596293 -0.306651
0.123956 0.596910 -0.306837
0.128848 0.596854 -0.306788
0.135380 0.592978 -0.305416
0.140166 0.593038 -0.305408
0.144471 0.594198 -0.305782
0.148436 0.596162 -0.306435
0.152708 0.597382 -0.306832
0.159420 0.592550 -0.305135
0.164566 0.591453 -0.304734
0.167733 0.595306 -0.306050
0.172702 0.594560 -0.305775
0.177090 0.595255 -0.306001
0.179773 0.600449 -0.307789
0.182954 0.604396 -0.309147
0.186379 0.607733 -0.310297
0.196570 0.592243 -0.304934
0.200278 0.594564 -0.305739
0.204653 0.594977 -0.305887
0.209876 0.592860 -0.305163
0.213228 0.596171 -0.306321
0.216929 0.598477 -0.307135
0.222522 0.594988 -0.305945
0.226297 0.596996 -0.306663
0.229536 0.600716 -0.307977
0.232469 0.605493 -0.309660
0.238226 0.601090 -0.308168
0.244267 0.595517 -0.306273
0.248975 0.594232 -0.305867
0.252820 0.595836 -0.306465
0.257386 0.594897 -0.306185
0.261708 0.594744 -0.306181
0.265774 0.595470 -0.306484
0.269934 0.595822 -0.306661
0.274232 0.595609 -0.306645
0.279386 0.591998 -0.305453
0.283499 0.592333 -0.305633
0.287039 0.594953 -0.306608
0.290829 0.596605 -0.307251
0.296075 0.592111 -0.305763
0.298250 0.600670 -0.308810
0.302347 0.601060 -0.309024
0.305357 0.606344 -0.310941
0.309027 0.608779 -0.311871
0.316109 0.595085 -0.307195
0.320209 0.595187 -0.307318
0.324334 0.595123 -0.307386
0.328711 0.593731 -0.306993
0.332661 0.594473 -0.307346
0.335699 0.600130 -0.309412
0.338339 0.608272 -0.312348
0.341828 0.612004 -0.313751
0.348738 0.595853 -0.308225
0.352973 0.594855 -0.307981
0.357261 0.593435 -0.307592
0.361336 0.593264 -0.307641
0.364139 0.601502 -0.310627
0.367914 0.603595 -0.311471
0.372115 0.602776 -0.311300
0.375610 0.607079 -0.312921
0.379367 0.609672 -0.313946
0.383160 0.612156 -0.314936
0.387217 0.612643 -0.315229
0.392296 0.604311 -0.312435
0.396843 0.600021 -0.311057
0.401511 0.594161 -0.309128
0.405457 0.594850 -0.309495
0.409303 0.596637 -0.310249
0.413148 0.598608 -0.311070
0.417096 0.599602 -0.311549
0.420754 0.604256 -0.313316
0.424677 0.606023 -0.314070
0.428979 0.602730 -0.313048
0.433249 0.599401 -0.312012
0.437468 0.596359 -0.311078
0.441496 0.596157 -0.311144
0.445409 0.598132 -0.311977
0.449583 0.594936 -0.310990
0.453495 0.597222 -0.311936
0.457435 0.599385 -0.312840
0.461320 0.603903 -0.314577
0.465250 0.608448 -0.316327
0.469635 0.594501 -0.311545
0.473643 0.594474 -0.311680
0.477630 0.596170 -0.312425
0.481634 0.597842 -0.313163
0.485655 0.599652 -0.313952
0.489697 0.602273 -0.315029
0.493752 0.603111 -0.315476
0.497715 0.595638 -0.312978
0.501750 0.596599 -0.313470
0.505769 0.596330 -0.313526
0.509803 0.596692 -0.313807
0.513829 0.596639 -0.313942
0.517862 0.596744 -0.314134
0.521948 0.598042 -0.314751
0.525909 0.596374 -0.314314
0.529933 0.596207 -0.314411
0.533725 0.591941 -0.313049
0.537794 0.592822 -0.313522
0.542256 0.599459 -0.316048
0.546135 0.596977 -0.315324
0.550797 0.605035 -0.318363
0.554126 0.595711 -0.315196
0.558165 0.595646 -0.315337
0.562253 0.596105 -0.315666
0.566269 0.595728 -0.315697
0.570116 0.593700 -0.315137
0.575439 0.605727 -0.319614
0.579009 0.600890 -0.318051
0.582461 0.595417 -0.316260
0.586916 0.598652 -0.317593
0.591891 0.605721 -0.320305
0.596803 0.611738 -0.322643
0.601020 0.612192 -0.322986
0.602732 0.594832 -0.316920
0.606669 0.593854 -0.316747
0.610776 0.594040 -0.316993
0.615260 0.596604 -0.318098
0.620041 0.600814 -0.319800
0.624890 0.605150 -0.321551
0.629564 0.608176 -0.322832
0.633766 0.608329 -0.323078
0.637731 0.607134 -0.322839
0.640469 0.599388 -0.320231
0.643662 0.594398 -0.318619
0.647625 0.593550 -0.318507
0.651533 0.592442 -0.318303
0.655320 0.590769 -0.317895
0.661877 0.602214 -0.322251
0.666649 0.604859 -0.323418
0.671973 0.609835 -0.325436
0.672928 0.595326 -0.320371
0.676698 0.593531 -0.319929
0.680631 0.592467 -0.319756
0.684502 0.591153 -0.319493
0.688600 0.590773 -0.319573
0.694680 0.598206 -0.322508
0.699195 0.599236 -0.323111
0.702670 0.596237 -0.322244
0.706747 0.595556 -0.322227
0.712173 0.599782 -0.324010
0.717562 0.603675 -0.325676
0.720566 0.598996 -0.324204
0.723486 0.594150 -0.322671
0.727354 0.592648 -0.322367
0.731406 0.591763 -0.322293
0.735875 0.592229 -0.322720
0.740416 0.592861 -0.323212
0.744986 0.593517 -0.323717
0.748828 0.591839 -0.323366
0.753793 0.593596 -0.324286
0.757350 0.591013 -0.323607
0.762450 0.593025 -0.324631
0.769374 0.600232 -0.327585
0.773342 0.598686 -0.327304
0.776514 0.594890 -0.326191
0.781620 0.596525 -0.327098
0.787922 0.601322 -0.329187
0.793691 0.604484 -0.330676
0.794818 0.595176 -0.327525
0.798728 0.593355 -0.327166
0.802884 0.592166 -0.327046
0.807162 0.591259 -0.327035
0.812823 0.593778 -0.328312
0.818755 0.596833 -0.329797
0.824848 0.600131 -0.331381
0.830076 0.601200 -0.332136
0.833413 0.597706 -0.331182
0.837213 0.595326 -0.330650
0.845525 0.603324 -0.334032
0.850225 0.602850 -0.334230
0.854374 0.601089 -0.333947
0.860546 0.603784 -0.335352
0.863266 0.598820 -0.333865
0.867487 0.597157 -0.333630
0.873587 0.599464 -0.334905
0.878965 0.600142 -0.335568
0.883513 0.599028 -0.335553
0.887230 0.596192 -0.334884
0.893959 0.599449 -0.336542
0.899810 0.600827 -0.337488
0.904196 0.599245 -0.337304
0.910338 0.601068 -0.338426
0.913644 0.597367 -0.337432
0.917696 0.595136 -0.336998
0.922152 0.593685 -0.336863
0.927073 0.593104 -0.337060
0.934152 0.596466 -0.338775
0.939930 0.597384 -0.339547
0.945026 0.597058 -0.339835
0.950444 0.597307 -0.340340
0.954981 0.596022 -0.340244
0.960983 0.597310 -0.341138
0.966770 0.598228 -0.341881
0.971644 0.597612 -0.342018
0.976122 0.596389 -0.341906
0.981326 0.596439 -0.342278
0.987003 0.597317 -0.342959
0.991361 0.596102 -0.342809
0.996064 0.595535 -0.342895
1.002406 0.597659 -0.344018
1.007856 0.598422 -0.344591
1.008138 0.591208 -0.342017
0.031451 0.582265 -0.305625
0.031362 0.590059 -0.308500
0.035358 0.590803 -0.308883
0.039727 0.590993 -0.309058
0.044738 0.590119 -0.308844
0.049335 0.590088 -0.308913
0.054234 0.589586 -0.308803
0.061880 0.583970 -0.306880
0.067210 0.582725 -0.306484
0.068050 0.590184 -0.309144
0.066016 0.603482 -0.313850
0.076229 0.592961 -0.310157
0.081253 0.592600 -0.310034
0.086126 0.592571 -0.310021
0.091475 0.591593 -0.309667
0.096508 0.591264 -0.309535
0.104177 0.585404 -0.307450
0.106857 0.590002 -0.309045
0.111307 0.590903 -0.309334
0.113693 0.596320 -0.311210
0.112877 0.608940 -0.315620
0.123504 0.596242 -0.311114
0.129277 0.594189 -0.310356
0.134775 0.592682 -0.309790
0.138977 0.594119 -0.310260
0.142812 0.596421 -0.311035
0.146884 0.598174 -0.311618
0.151749 0.597997 -0.311523
0.155750 0.599898 -0.312161
0.162897 0.593920 -0.310030
0.167321 0.594631 -0.310255
0.172161 0.594231 -0.310091
0.179861 0.586275 -0.307273
0.180929 0.595640 -0.310548
0.182427 0.604073 -0.313498
0.186335 0.606100 -0.314200
0.196302 0.591267 -0.308977
0.199532 0.594946 -0.310266
0.203798 0.595703 -0.310531
0.208799 0.594280 -0.310033
0.212837 0.595601 -0.310504
0.217455 0.595157 -0.310357
0.221585 0.596129 -0.310712
0.226340 0.595129 -0.310377
0.228776 0.601383 -0.312597
0.231860 0.605704 -0.314141
0.235844 0.607164 -0.314682
0.244028 0.594582 -0.310287
0.248319 0.594730 -0.310374
0.252708 0.594488 -0.310326
0.256855 0.595032 -0.310559
0.261391 0.594145 -0.310291
0.265404 0.595084 -0.310669
0.269131 0.597077 -0.311422
0.273917 0.595060 -0.310765
0.278770 0.592649 -0.309973
0.283665 0.589923 -0.309073
0.284992 0.601483 -0.313209
0.288721 0.603554 -0.314005
0.292728 0.604489 -0.314405
0.298161 0.599261 -0.312634
0.302589 0.598188 -0.312330
0.306768 0.598149 -0.312394
0.309935 0.602746 -0.314097
0.315464 0.596333 -0.311916
0.319732 0.595678 -0.311770
0.323950 0.595203 -0.311690
0.328264 0.594176 -0.311416
0.332261 0.594710 -0.311697
0.334945 0.602302 -0.314476
0.337717 0.609794 -0.317223
0.342283 0.607475 -0.316503
0.348544 0.595067 -0.312214
0.352723 0.594424 -0.312090
0.357152 0.592158 -0.311392
0.361260 0.591777 -0.311363
0.363817 0.601616 -0.314959
0.367659 0.603297 -0.315666
0.371928 0.602030 -0.315331
0.375088 0.608798 -0.317848
0.379802 0.604190 -0.316330
0.383365 0.608327 -0.317918
0.387688 0.606505 -0.317392
0.392760 0.598045 -0.314507
0.396558 0.600273 -0.315422
0.400872 0.597833 -0.314679
0.405178 0.595207 -0.313870
0.409161 0.595645 -0.314153
0.412892 0.598866 -0.315428
0.417258 0.595089 -0.314212
0.421566 0.591552 -0.313082
0.424875 0.600594 -0.316438
0.429032 0.599027 -0.316013
0.433159 0.597667 -0.315663
0.437344 0.595125 -0.314891
0.441330 0.595655 -0.315216
0.445323 0.596118 -0.315520
0.449366 0.595626 -0.315483
0.453339 0.596678 -0.316000
0.457320 0.597775 -0.316533
0.461233 0.601320 -0.317946
0.465034 0.610266 -0.321296
0.469458 0.595338 -0.316090
0.473493 0.594291 -0.315860
0.477533 0.592086 -0.315214
0.481494 0.597361 -0.317255
0.485525 0.596396 -0.317057
0.489561 0.601479 -0.319032
0.493637 0.605167 -0.320510
0.497622 0.598099 -0.318119
0.501580 0.593580 -0.316644
0.505609 0.594205 -0.317022
0.509654 0.595186 -0.317528
0.513667 0.594770 -0.317533
0.517715 0.595410 -0.317919
0.521775 0.596134 -0.318336
0.525774 0.595380 -0.318221
0.529670 0.592736 -0.317424
0.533686 0.592622 -0.317541
0.537889 0.595563 -0.318765
0.542339 0.601736 -0.321160
0.546535 0.603465 -0.321949
0.550749 0.605173 -0.322733
0.553950 0.594194 -0.318919
0.558041 0.594769 -0.319292
0.562103 0.594920 -0.319513
0.566141 0.594789 -0.319633
0.570236 0.595206 -0.319953
0.575330 0.604961 -0.323669
0.579616 0.606537 -0.324415
0.583482 0.604343 -0.323791
0.587308 0.601969 -0.323102
0.592139 0.607728 -0.325377
0.596764 0.611444 -0.326911
0.600961 0.611713 -0.327190
0.602785 0.595131 -0.321320
0.606790 0.594569 -0.321295
0.610965 0.595143 -0.321687
0.615265 0.596455 -0.322350
0.619930 0.599912 -0.323801
0.623936 0.599171 -0.323718
0.628769 0.603267 -0.325409
0.633151 0.604548 -0.326071
0.637738 0.606849 -0.327110
0.640450 0.598945 -0.324406
0.643706 0.594266 -0.322885
0.647530 0.592684 -0.322502
0.651455 0.591649 -0.322321
0.656211 0.594646 -0.323627
0.662081 0.602724 -0.326808
0.666431 0.603385 -0.327261
0.670469 0.602577 -0.327175
0.672950 0.594919 -0.324563
0.676684 0.592951 -0.324052
0.680619 0.591880 -0.323874
0.684801 0.591834 -0.324077
0.688943 0.591588 -0.324209
0.695846 0.602221 -0.328374
0.699695 0.600565 -0.327992
0.702262 0.594068 -0.325816
0.705897 0.591760 -0.325195
0.710535 0.593154 -0.325951
0.715822 0.596777 -0.327541
0.720518 0.598142 -0.328297
0.724343 0.596412 -0.327903
0.729144 0.598003 -0.328751
0.733722 0.598752 -0.329289
0.738629 0.600498 -0.330204
0.742601 0.599135 -0.329962
0.746634 0.597962 -0.329794
0.750935 0.597611 -0.329938
0.756741 0.601811 -0.331792
0.761073 0.601400 -0.331922
0.765496 0.601215 -0.332143
0.770675 0.603182 -0.333176
0.774420 0.600929 -0.332628
0.778269 0.598982 -0.332199
0.783178 0.599979 -0.332883
0.790133 0.606479 -0.335650
0.794345 0.605343 -0.335542
0.795134 0.595111 -0.331999
0.799086 0.593379 -0.331670
0.803100 0.591799 -0.331404
0.807240 0.590526 -0.331257
0.814017 0.595816 -0.333608
0.819968 0.598860 -0.335115
0.826122 0.602250 -0.336762
0.830447 0.601102 -0.336688
0.833877 0.597810 -0.335801
0.840003 0.600824 -0.337325
0.846887 0.605433 -0.339468
0.850877 0.603299 -0.339038
0.855133 0.601751 -0.338836
0.860038 0.601615 -0.339180
0.864492 0.600442 -0.339131
0.867716 0.596594 -0.338056
0.872642 0.596397 -0.338388
0.877821 0.596677 -0.338909
0.882650 0.596171 -0.339132
0.887465 0.595595 -0.339330
0.892343 0.595112 -0.339566
0.897672 0.595488 -0.340139
0.901734 0.593321 -0.339726
0.907079 0.593656 -0.340286
0.913534 0.596070 -0.341658
0.918437 0.595458 -0.341852
0.923850 0.595784 -0.342410
0.929604 0.596710 -0.343203
0.934672 0.596345 -0.343489
0.939961 0.596377 -0.343927
0.944503 0.595069 -0.343834
0.949591 0.594759 -0.344126
0.955618 0.596101 -0.345062
0.961601 0.597356 -0.345957
0.967044 0.597688 -0.346479
0.971747 0.596797 -0.346508
0.976377 0.595844 -0.346500
0.981596 0.595932 -0.346890
0.987063 0.596481 -0.347448
0.991667 0.595687 -0.347459
0.996797 0.595823 -0.347822
1.001952 0.596072 -0.348213
1.006599 0.595604 -0.348299
1.014603 0.600462 -0.350488
0.026740 0.589351 -0.312643
0.030326 0.590671 -0.313255
0.035318 0.589617 -0.313003
0.039883 0.589422 -0.313043
0.044037 0.590077 -0.313373
0.048882 0.589573 -0.313274
0.054044 0.588557 -0.312978
0.060499 0.585170 -0.311821
0.066531 0.582592 -0.310941
0.066253 0.592177 -0.314401
0.069445 0.595285 -0.315534
0.075230 0.593406 -0.314872
0.080459 0.592639 -0.314599
0.085267 0.592738 -0.314628
0.090656 0.591680 -0.314236
0.096204 0.590288 -0.313717
0.103543 0.585123 -0.311844
0.108292 0.585323 -0.311885
0.110120 0.591804 -0.314170
0.111539 0.599335 -0.316827
0.113702 0.605408 -0.318959
0.123139 0.595361 -0.315325
0.128492 0.594268 -0.314892
0.133684 0.593483 -0.314569
0.137886 0.594943 -0.315049
0.140353 0.600500 -0.316993
0.145070 0.600782 -0.317053
0.149448 0.601848 -0.317394
0.154417 0.601437 -0.317209
0.155197 0.611428 -0.320743
0.167675 0.591991 -0.313767
0.172303 0.592125 -0.313785
0.178493 0.588121 -0.312328
0.182085 0.590827 -0.313270
0.184340 0.597153 -0.315508
0.186449 0.604014 -0.317940
0.194715 0.593934 -0.314327
0.199309 0.593824 -0.314277
0.203429 0.595011 -0.314693
0.208922 0.592174 -0.313677
0.213379 0.592247 -0.313703
0.216927 0.594996 -0.314688
0.220965 0.596276 -0.315153
0.224511 0.599065 -0.316160
0.228456 0.600632 -0.316734
0.231202 0.606049 -0.318687
0.235378 0.606913 -0.319018
0.243656 0.594070 -0.314458
0.248007 0.594036 -0.314475
0.253002 0.591718 -0.313681
0.256801 0.593466 -0.314342
0.260785 0.594562 -0.314773
0.264841 0.595382 -0.315109
0.269087 0.595469 -0.315187
0.273753 0.593915 -0.314682
0.277997 0.593881 -0.314723
0.282405 0.593147 -0.314517
0.283779 0.604589 -0.318669
0.287253 0.607810 -0.319885
0.292438 0.603900 -0.318552
0.298427 0.596310 -0.315905
0.303273 0.593365 -0.314923
0.306108 0.599307 -0.317124
0.310130 0.600008 -0.317453
0.315069 0.596364 -0.316228
0.319135 0.596732 -0.316442
0.323451 0.595832 -0.316205
0.327841 0.594467 -0.315803
0.331939 0.594523 -0.315913
0.333006 0.610810 -0.321849
0.337144 0.611022 -0.322021
0.342231 0.605828 -0.320255
0.348164 0.595354 -0.316594
0.352622 0.593081 -0.315879
0.357005 0.591104 -0.315271
0.360881 0.592218 -0.315777
0.363032 0.604775 -0.320400
0.367134 0.604817 -0.320526
0.371276 0.604555 -0.320544
0.376004 0.599942 -0.318998
0.379570 0.603799 -0.320503
0.383802 0.602662 -0.320211
0.387993 0.601750 -0.320001
0.392529 0.597766 -0.318685
0.396773 0.596026 -0.318180
0.400684 0.597232 -0.318738
0.404719 0.597310 -0.318891
0.408666 0.598281 -0.319369
0.412541 0.600125 -0.320163
0.416916 0.596400 -0.318946
0.421414 0.590698 -0.317014
0.425093 0.594902 -0.318666
0.428819 0.599018 -0.320289
0.432955 0.597604 -0.319912
0.437164 0.594787 -0.319027
0.441179 0.594859 -0.319190
0.445130 0.596156 -0.319798
0.449159 0.596075 -0.319908
0.453107 0.597885 -0.320706
0.457321 0.593070 -0.319098
0.460865 0.607387 -0.324443
0.464780 0.613396 -0.326774
0.469349 0.593107 -0.319541
0.473383 0.591803 -0.319211
0.477408 0.590241 -0.318788
0.481407 0.590036 -0.318860
0.485380 0.598582 -0.322123
0.489426 0.601800 -0.323446
0.493516 0.606395 -0.325275
0.497478 0.596465 -0.321803
0.501490 0.595263 -0.321517
0.505484 0.593670 -0.321088
0.509502 0.593545 -0.321196
0.513585 0.595448 -0.322047
0.517700 0.597687 -0.323023
0.521642 0.595186 -0.322265
0.525673 0.595096 -0.322391
0.529537 0.591757 -0.321326
0.533584 0.592202 -0.321648
0.537959 0.597880 -0.323893
0.542446 0.604368 -0.326438
0.546430 0.602882 -0.326057
0.550748 0.605920 -0.327340
0.554024 0.595753 -0.323768
0.558063 0.595570 -0.323868
0.562075 0.595077 -0.323854
0.566104 0.594784 -0.323916
0.570311 0.596255 -0.324628
0.575358 0.605466 -0.328197
0.579747 0.607909 -0.329273
0.582198 0.593429 -0.324104
0.587376 0.602618 -0.327674
0.592261 0.608724 -0.330109
0.596611 0.610266 -0.330861
0.599849 0.603498 -0.328539
0.603571 0.600610 -0.327653
0.607538 0.599560 -0.327448
0.611739 0.600106 -0.327836
0.616893 0.606680 -0.330463
0.620633 0.604047 -0.329676
0.625040 0.605557 -0.330428
0.628411 0.600902 -0.328892
0.632533 0.600738 -0.329026
0.636196 0.598024 -0.328213
0.641268 0.602978 -0.330256
0.644451 0.597780 -0.328521
0.648844 0.598966 -0.329166
0.653084 0.599301 -0.329496
0.657675 0.601283 -0.330444
