ply
format ascii 1.0
comment ---
element vertex 1771
property float x
property float y
property float z
element face 0
property list uchar uint vertex_indices
end_header
0.829869 0.603992 0.148875
0.832756 0.603245 0.148867
0.838197 0.606474 0.149391
0.842567 0.607945 0.149681
0.845265 0.606793 0.149622
0.847735 0.605283 0.149514
0.851259 0.605354 0.149619
0.851849 0.601031 0.149133
0.856010 0.602014 0.149362
0.862815 0.606794 0.150104
0.863155 0.602125 0.149571
0.862118 0.595550 0.148780
0.868885 0.600101 0.149494
0.872955 0.600754 0.149683
0.878440 0.603321 0.150132
0.883577 0.605326 0.150507
0.890367 0.609505 0.151179
0.895703 0.611611 0.151571
0.894687 0.605181 0.150798
0.892271 0.596996 0.149782
0.890348 0.589578 0.148869
0.891761 0.586585 0.148562
0.912058 0.607808 0.151585
0.919141 0.611824 0.152247
0.921915 0.610314 0.152150
0.923753 0.607632 0.151891
0.920901 0.599184 0.150834
0.923458 0.597465 0.150706
0.928265 0.598465 0.150956
0.931490 0.597517 0.150937
0.934045 0.595755 0.150805
0.936748 0.594166 0.150697
0.944228 0.598132 0.151366
0.942703 0.591603 0.150569
0.957294 0.603572 0.152363
0.960820 0.602758 0.152368
0.959956 0.597001 0.151679
0.965973 0.598957 0.152075
0.972567 0.601474 0.152552
0.986920 0.612366 0.154216
0.989317 0.610105 0.154024
0.988003 0.603875 0.153268
0.987981 0.599092 0.152716
0.992153 0.598763 0.152797
0.999539 0.601746 0.153352
1.005416 0.603079 0.153673
1.007793 0.600772 0.153476
1.007950 0.596222 0.152957
1.011962 0.595579 0.152999
1.015642 0.594578 0.152990
1.022372 0.596556 0.153411
1.031106 0.600411 0.154107
1.037040 0.601447 0.154397
1.040434 0.599991 0.154329
1.043347 0.598062 0.154192
1.049044 0.598740 0.154436
1.053892 0.598571 0.154558
1.057917 0.597602 0.154565
1.063878 0.598373 0.154828
1.070250 0.599457 0.155140
1.073656 0.597814 0.155052
1.077464 0.596512 0.155016
1.081810 0.595658 0.155047
1.090746 0.598777 0.155668
1.095026 0.597764 0.155680
1.099361 0.596767 0.155696
1.105051 0.596887 0.155879
1.110891 0.597080 0.156076
1.115119 0.595874 0.156066
1.122816 0.597499 0.156482
1.127369 0.596470 0.156503
1.134530 0.597516 0.156838
1.138206 0.595691 0.156743
1.145405 0.596643 0.157070
1.149886 0.595380 0.157064
1.157627 0.596622 0.157441
1.164606 0.597192 0.157720
1.169510 0.596105 0.157748
1.180286 0.599420 0.158454
1.184216 0.597475 0.158357
1.187827 0.595266 0.158221
1.193884 0.594832 0.158361
1.201306 0.595333 0.158649
1.207762 0.595058 0.158820
1.213540 0.594237 0.158909
1.223977 0.596653 0.159508
1.227889 0.594382 0.159378
1.235004 0.594302 0.159594
1.239871 0.592605 0.159560
1.247111 0.592478 0.159776
1.253458 0.591676 0.159890
1.263973 0.593584 0.160438
1.272745 0.594224 0.160790
1.279602 0.593521 0.160933
1.289922 0.594983 0.161428
1.294019 0.592356 0.161270
1.301672 0.591945 0.161472
1.312836 0.593649 0.162023
1.321387 0.593612 0.162297
1.329926 0.593479 0.162561
1.336607 0.592133 0.162631
1.351514 0.595650 0.163505
1.357374 0.593639 0.163477
1.371080 0.596175 0.164205
1.377910 0.594576 0.164254
1.389527 0.595661 0.164755
1.395481 0.593418 0.164706
1.414200 0.598284 0.165855
1.419537 0.595533 0.165730
1.435360 0.598495 0.166576
1.443507 0.597140 0.166696
1.453608 0.596771 0.166989
1.463642 0.596287 0.167266
1.476197 0.597046 0.167762
1.488590 0.597622 0.168232
1.499397 0.597293 0.168550
1.512437 0.598024 0.169057
1.520742 0.596302 0.169138
1.527827 0.593950 0.169108
1.538417 0.593301 0.169379
1.554456 0.595239 0.170111
1.565145 0.594533 0.170376
1.580790 0.596133 0.171054
1.590291 0.594798 0.171206
1.599429 0.593295 0.171325
1.603977 0.589710 0.171063
0.559272 0.596735 0.139296
0.561415 0.596597 0.139328
0.563756 0.597944 0.139533
0.566077 0.598698 0.139668
0.568402 0.599148 0.139768
0.570638 0.598568 0.139748
0.572604 0.595671 0.139457
0.575100 0.596792 0.139635
0.577606 0.597719 0.139790
0.580336 0.600002 0.140105
0.582766 0.599927 0.140143
0.584820 0.597239 0.139875
0.587662 0.599661 0.140206
0.590237 0.600168 0.140313
0.592916 0.601197 0.140481
0.595498 0.601517 0.140566
0.597237 0.596953 0.140076
0.600664 0.601940 0.140710
0.603176 0.601675 0.140727
0.605403 0.599897 0.140564
0.608089 0.600520 0.140686
0.610856 0.601490 0.140848
0.613579 0.602175 0.140978
0.616231 0.602470 0.141061
0.618769 0.602210 0.141079
0.621517 0.602898 0.141209
0.624015 0.602436 0.141204
0.626016 0.599836 0.140944
0.628752 0.600449 0.141067
0.631110 0.599464 0.140999
0.634385 0.602234 0.141379
0.636938 0.602012 0.141403
0.639320 0.601127 0.141349
0.641768 0.600524 0.141328
0.644560 0.601225 0.141463
0.647373 0.601969 0.141604
0.649729 0.601027 0.141543
0.652203 0.600531 0.141536
0.655440 0.602703 0.141849
0.658151 0.602988 0.141937
0.660561 0.602238 0.141901
0.663021 0.601673 0.141887
0.665812 0.602187 0.142003
0.668651 0.602827 0.142135
0.670972 0.601807 0.142067
0.674963 0.605971 0.142625
0.677448 0.605405 0.142613
0.679672 0.604056 0.142507
0.681989 0.603009 0.142438
0.684452 0.602402 0.142421
0.687353 0.603051 0.142558
0.689966 0.602848 0.142591
0.692339 0.601967 0.142543
0.694700 0.601060 0.142492
0.697494 0.601328 0.142583
0.700785 0.602893 0.142834
0.703527 0.602951 0.142901
0.706021 0.602344 0.142888
0.708100 0.600672 0.142745
0.711360 0.601998 0.142968
0.713881 0.601428 0.142961
0.716422 0.600899 0.142958
0.719369 0.601344 0.143075
0.722376 0.601894 0.143206
0.725390 0.602424 0.143335
0.728376 0.602848 0.143452
0.731356 0.603224 0.143563
0.733989 0.602776 0.143573
0.737090 0.603361 0.143711
0.739934 0.603337 0.143775
0.743520 0.604909 0.144036
0.746612 0.605347 0.144158
0.750059 0.606504 0.144369
0.752203 0.604858 0.144234
0.754742 0.604046 0.144202
0.760048 0.608921 0.144878
0.762344 0.607529 0.144775
0.764486 0.605828 0.144634
0.768875 0.608605 0.145052
0.771097 0.607030 0.144927
0.773545 0.605899 0.144858
0.778116 0.608843 0.145300
0.780870 0.608237 0.145297
0.784432 0.609133 0.145484
0.787466 0.608995 0.145542
0.790337 0.608531 0.145559
0.794421 0.610250 0.145851
0.798487 0.611866 0.146131
0.802411 0.613164 0.146372
0.807081 0.615713 0.146773
0.800916 0.599334 0.144781
0.803631 0.598549 0.144758
0.806551 0.598098 0.144779
0.810726 0.599737 0.145065
0.812697 0.597640 0.144878
0.814027 0.594497 0.144557
0.817527 0.594927 0.144691
0.829823 0.609516 0.146632
0.832696 0.608716 0.146613
0.835319 0.607506 0.146541
0.839076 0.608060 0.146696
0.845824 0.613203 0.147440
0.845078 0.606720 0.146694
0.848062 0.605996 0.146686
0.850522 0.604466 0.146575
0.852920 0.602841 0.146452
0.857703 0.604725 0.146782
0.861492 0.605089 0.146917
0.864249 0.603926 0.146855
0.869507 0.606322 0.147254
0.872235 0.605061 0.147181
0.876398 0.605800 0.147367
0.880096 0.605846 0.147464
0.884857 0.607314 0.147747
0.887922 0.606416 0.147723
0.892581 0.607647 0.147977
0.898119 0.609990 0.148378
0.898886 0.605958 0.147946
0.904358 0.608118 0.148325
0.901229 0.599071 0.147233
0.907772 0.602558 0.147787
0.920944 0.614360 0.149439
0.924141 0.613359 0.149407
0.925422 0.609957 0.149059
0.920632 0.599097 0.147723
0.923719 0.598030 0.147681
0.928097 0.598510 0.147845
0.932206 0.598623 0.147961
0.933170 0.594967 0.147577
0.940025 0.598270 0.148119
0.937329 0.590350 0.147166
0.939875 0.588592 0.147034
0.957668 0.604261 0.149236
0.960229 0.602351 0.149087
0.960983 0.598414 0.148667
0.964681 0.597784 0.148690
0.985218 0.615669 0.151210
0.980031 0.605126 0.149901
0.984957 0.605667 0.150087
0.987806 0.603937 0.149967
0.990051 0.601559 0.149759
0.993650 0.600610 0.149745
0.995893 0.598227 0.149537
1.006668 0.604649 0.150530
1.013162 0.606539 0.150907
1.009963 0.598539 0.149934
1.007922 0.591807 0.149132
1.016934 0.596145 0.149847
1.023715 0.598164 0.150248
1.031360 0.600949 0.150755
1.037474 0.602159 0.151049
1.040724 0.600562 0.150956
1.042968 0.597996 0.150729
1.046686 0.596819 0.150696
1.051806 0.596926 0.150842
1.058774 0.598693 0.151220
1.062444 0.597364 0.151169
1.068979 0.598611 0.151479
1.073069 0.597594 0.151475
1.077068 0.596467 0.151455
1.084276 0.598141 0.151831
1.090373 0.598765 0.152062
1.094660 0.597763 0.152065
1.100540 0.598095 0.152259
1.105651 0.597717 0.152353
1.110422 0.597008 0.152403
1.114742 0.595884 0.152395
1.120889 0.596236 0.152599
1.126875 0.596396 0.152778
1.132192 0.595955 0.152873
1.139346 0.596940 0.153175
1.145083 0.596724 0.153307
1.150755 0.596404 0.153426
1.159203 0.598194 0.153853
1.163816 0.596929 0.153840
1.169443 0.596402 0.153937
1.174173 0.595142 0.153929
1.182755 0.596734 0.154339
1.188223 0.595917 0.154401
1.193340 0.594791 0.154420
1.202401 0.596494 0.154857
1.207190 0.595012 0.154829
1.212741 0.594035 0.154878
1.222347 0.595874 0.155346
1.229246 0.595708 0.155522
1.233867 0.593892 0.155454
1.242254 0.594623 0.155770
1.249044 0.594177 0.155914
1.252388 0.591343 0.155702
1.264005 0.593998 0.156319
1.268553 0.591858 0.156217
1.277827 0.592763 0.156579
1.287419 0.593772 0.156962
1.294701 0.593199 0.157109
1.302496 0.592876 0.157298
1.311018 0.592927 0.157549
1.322234 0.594557 0.158047
1.328613 0.593099 0.158075
1.335751 0.592041 0.158168
1.349947 0.595145 0.158912
1.355387 0.592897 0.158829
1.369371 0.595615 0.159526
1.375838 0.593820 0.159522
1.391088 0.597007 0.160307
1.400113 0.596499 0.160516
1.410745 0.596808 0.160858
1.419631 0.596049 0.161037
1.433197 0.597779 0.161617
1.440678 0.596079 0.161654
1.452201 0.596493 0.162034
1.463097 0.596478 0.162350
1.476583 0.597733 0.162877
1.484064 0.595768 0.162884
1.498404 0.597277 0.163462
1.509043 0.596804 0.163719
1.519494 0.596176 0.163953
1.526362 0.593725 0.163888
1.543044 0.596062 0.164618
1.552675 0.594886 0.164767
1.566159 0.595524 0.165220
1.578268 0.595456 0.165556
1.591138 0.595706 0.165947
1.597437 0.592889 0.165816
1.604149 0.590300 0.165720
0.559357 0.597408 0.137080
0.561385 0.596147 0.136983
0.563670 0.597002 0.137121
0.565958 0.597502 0.137221
0.568296 0.598104 0.137331
0.570629 0.598361 0.137404
0.572958 0.598331 0.137444
0.575154 0.597085 0.137347
0.577662 0.598017 0.137495
0.580290 0.599569 0.137713
0.582842 0.600351 0.137845
0.585298 0.600318 0.137885
0.587924 0.601263 0.138035
0.590272 0.600316 0.137972
0.593028 0.601806 0.138185
0.595475 0.601325 0.138174
0.598007 0.601292 0.138215
0.600585 0.601459 0.138278
0.603094 0.601202 0.138294
0.605570 0.600743 0.138286
0.608177 0.600949 0.138354
0.610855 0.601469 0.138458
0.613501 0.601787 0.138539
0.616058 0.601646 0.138568
0.618843 0.602559 0.138718
0.621337 0.602090 0.138710
0.624176 0.603165 0.138878
0.626372 0.601396 0.138723
0.628777 0.600583 0.138676
0.631525 0.601214 0.138795
0.634104 0.601131 0.138832
0.636876 0.601809 0.138956
0.639481 0.601804 0.139003
0.641897 0.601067 0.138966
0.645161 0.603532 0.139296
0.647299 0.601756 0.139140
0.649785 0.601294 0.139135
0.652404 0.601314 0.139186
0.655558 0.603186 0.139450
0.658104 0.602904 0.139467
0.660579 0.602380 0.139456
0.663194 0.602328 0.139500
0.666380 0.604123 0.139757
0.668546 0.602585 0.139630
0.670930 0.601771 0.139586
0.674948 0.606023 0.140129
0.677268 0.604959 0.140057
0.679780 0.604486 0.140054
0.682266 0.603937 0.140043
0.684632 0.603038 0.139990
0.687286 0.602973 0.140035
0.690035 0.603160 0.140110
0.693477 0.605252 0.140407
0.695602 0.603655 0.140275
0.698274 0.603560 0.140318
0.700807 0.603080 0.140316
0.703533 0.603096 0.140372
0.705956 0.602307 0.140335
0.708617 0.602126 0.140369
0.711527 0.602557 0.140475
0.713916 0.601656 0.140426
0.716410 0.601012 0.140406
0.718826 0.600173 0.140364
0.722290 0.601835 0.140617
0.725168 0.602049 0.140699
0.728137 0.602443 0.140804
0.730590 0.601616 0.140765
0.733821 0.602549 0.140934
0.736480 0.602151 0.140946
0.739880 0.603375 0.141150
0.742531 0.602905 0.141154
0.745176 0.602406 0.141156
0.748286 0.602884 0.141273
0.751042 0.602575 0.141298
0.753785 0.602220 0.141317
0.756380 0.601537 0.141298
0.759451 0.601812 0.141393
0.762666 0.602341 0.141519
0.766664 0.604386 0.141826
0.767528 0.600192 0.141389
0.771067 0.601263 0.141581
0.774257 0.601610 0.141687
0.777189 0.601428 0.141730
0.780047 0.601080 0.141754
0.783499 0.601814 0.141908
0.786348 0.601392 0.141924
0.789682 0.601830 0.142043
0.792864 0.601955 0.142126
0.795580 0.601218 0.142104
0.798352 0.600562 0.142093
0.801057 0.599773 0.142066
0.803685 0.598838 0.142022
0.807310 0.599586 0.142182
0.810542 0.599626 0.142257
0.813345 0.598919 0.142241
0.815586 0.597268 0.142111
0.819240 0.597925 0.142262
0.824350 0.600887 0.142695
0.827151 0.600065 0.142667
0.830028 0.599348 0.142653
0.835883 0.603276 0.143207
0.839225 0.603197 0.143272
0.840801 0.600378 0.143001
0.844898 0.601410 0.143203
0.847863 0.600688 0.143190
0.849682 0.598243 0.142965
0.857439 0.604557 0.143820
0.860677 0.604124 0.143845
0.865235 0.605571 0.144102
0.868756 0.605476 0.144170
0.869993 0.602117 0.143833
0.875395 0.604623 0.144224
0.880012 0.605959 0.144471
0.882707 0.604596 0.144383
0.885419 0.603247 0.144297
0.888519 0.602415 0.144276
0.893334 0.603850 0.144538
0.900847 0.608784 0.145239
0.902009 0.605288 0.144887
0.904941 0.604113 0.144825
0.908104 0.603224 0.144799
0.909970 0.600671 0.144565
0.922180 0.611142 0.145969
0.924787 0.609415 0.145841
0.920812 0.599564 0.144687
0.923998 0.598616 0.144656
0.927232 0.597710 0.144630
0.930550 0.596887 0.144616
0.936055 0.598642 0.144929
0.942342 0.601247 0.145351
0.945460 0.600077 0.145295
0.950309 0.600889 0.145491
0.956930 0.603677 0.145941
0.960775 0.603230 0.145980
0.963022 0.600962 0.145786
0.982809 0.613288 0.147562
0.977683 0.602832 0.146318
0.977218 0.597571 0.145740
0.984480 0.600645 0.146236
0.994401 0.606447 0.147087
0.992427 0.599598 0.146304
0.993876 0.596400 0.145992
1.006613 0.604872 0.147195
1.012399 0.606041 0.147453
1.012848 0.601741 0.147000
1.012541 0.596721 0.146452
1.016512 0.596006 0.146466
1.023545 0.598281 0.146872
1.031004 0.600889 0.147324
1.036063 0.601085 0.147461
1.039044 0.599243 0.147332
1.043074 0.598388 0.147333
1.047201 0.597597 0.147343
1.052463 0.597834 0.147490
1.057756 0.598051 0.147636
1.061910 0.597176 0.147638
1.067272 0.597366 0.147783
1.072876 0.597724 0.147952
1.077141 0.596837 0.147956
1.083562 0.597820 0.148211
1.087573 0.596631 0.148178
1.092123 0.595880 0.148204
1.099089 0.597166 0.148505
1.106227 0.598523 0.148818
1.109476 0.596531 0.148682
1.115232 0.596613 0.148827
1.120433 0.596183 0.148904
1.126191 0.596162 0.149038
1.133256 0.597146 0.149311
1.139521 0.597413 0.149488
1.144984 0.596980 0.149572
1.151569 0.597381 0.149772
1.157986 0.597585 0.149948
1.163733 0.597206 0.150045
1.169293 0.596631 0.150118
1.173956 0.595324 0.150092
1.181230 0.595939 0.150332
1.187288 0.595574 0.150440
1.194360 0.595896 0.150646
1.201320 0.596064 0.150833
1.206504 0.594877 0.150834
1.213668 0.595060 0.151028
1.219265 0.594059 0.151059
1.227543 0.594885 0.151349
1.233472 0.593990 0.151401
1.239915 0.593391 0.151496
1.248495 0.594183 0.151791
1.252333 0.591686 0.151623
1.265125 0.595131 0.152303
1.270128 0.593285 0.152233
1.278648 0.593692 0.152488
1.285400 0.592864 0.152569
1.293591 0.592889 0.152776
1.306999 0.596129 0.153451
1.311943 0.593913 0.153343
1.318357 0.592566 0.153363
1.331008 0.594982 0.153934
1.337311 0.593405 0.153928
1.348686 0.594813 0.154362
1.357836 0.594777 0.154589
1.368087 0.595294 0.154902
1.376474 0.594624 0.155045
1.387627 0.595463 0.155415
1.402147 0.598100 0.156058
1.410035 0.596860 0.156128
1.420373 0.596914 0.156396
1.428717 0.595780 0.156490
1.439327 0.595808 0.156762
1.450603 0.596103 0.157079
1.460531 0.595588 0.157277
1.474282 0.597003 0.157773
1.482722 0.595550 0.157835
1.493178 0.595084 0.158050
1.508900 0.597218 0.158670
1.516719 0.595277 0.158664
1.526874 0.594469 0.158834
1.540584 0.595356 0.159271
1.552079 0.595096 0.159531
1.564128 0.595056 0.159826
1.577574 0.595632 0.160221
1.591057 0.596175 0.160611
1.596640 0.593028 0.160415
1.589441 0.584094 0.159290
0.559572 0.599383 0.135001
0.561515 0.597241 0.134809
0.563665 0.596815 0.134802
0.566025 0.597961 0.134964
0.568378 0.598682 0.135081
0.570707 0.598883 0.135142
0.573032 0.598813 0.135174
0.575358 0.598534 0.135183
0.577795 0.598907 0.135263
0.580265 0.599312 0.135347
0.582714 0.599404 0.135397
0.585148 0.599261 0.135422
0.587666 0.599547 0.135493
0.590510 0.601752 0.135772
0.592967 0.601397 0.135775
0.595588 0.601955 0.135876
0.598211 0.602427 0.135969
0.600601 0.601525 0.135912
0.603125 0.601351 0.135935
0.605865 0.602283 0.136078
0.608610 0.603159 0.136215
0.610898 0.601691 0.136097
0.613457 0.601586 0.136127
0.616119 0.601955 0.136210
0.618807 0.602413 0.136302
0.620820 0.599778 0.136056
0.623286 0.599257 0.136042
0.626713 0.602911 0.136484
0.629164 0.602264 0.136456
0.631738 0.602147 0.136486
0.634404 0.602399 0.136557
0.637026 0.602461 0.136607
0.639434 0.601682 0.136565
0.642142 0.602070 0.136651
0.644557 0.601340 0.136615
0.647862 0.603903 0.136941
0.649734 0.601189 0.136687
0.652127 0.600413 0.136645
0.655687 0.603721 0.137055
0.658099 0.602975 0.137017
0.660596 0.602530 0.137013
0.663266 0.602660 0.137073
0.665877 0.602587 0.137110
0.668806 0.603517 0.137259
0.671064 0.602296 0.137170
0.674050 0.603353 0.137333
0.676761 0.603524 0.137398
0.679902 0.604966 0.137605
0.682037 0.603375 0.137475
0.684692 0.603330 0.137518
0.687369 0.603331 0.137565
0.690265 0.603933 0.137680
0.692814 0.603535 0.137684
0.695464 0.603406 0.137717
0.698423 0.604094 0.137843
0.700853 0.603336 0.137807
0.703332 0.602703 0.137785
0.706392 0.603576 0.137932
0.709076 0.603439 0.137966
0.711511 0.602658 0.137928
0.713897 0.601752 0.137876
0.716395 0.601120 0.137855
0.719432 0.601786 0.137981
0.721832 0.600890 0.137931
0.725192 0.602258 0.138136
0.728037 0.602363 0.138200
0.730629 0.601860 0.138195
0.733103 0.601075 0.138158
0.736278 0.601858 0.138299
0.739676 0.603086 0.138491
0.742373 0.602724 0.138503
0.745121 0.602452 0.138525
0.747994 0.602427 0.138576
0.750782 0.602197 0.138604
0.753495 0.601786 0.138612
0.756193 0.601325 0.138614
0.758986 0.601040 0.138637
0.762253 0.601685 0.138766
0.764385 0.600029 0.138632
0.768050 0.601397 0.138845
0.772243 0.603731 0.139168
0.774209 0.601698 0.138993
0.776841 0.600949 0.138964
0.780542 0.602195 0.139165
0.783445 0.601901 0.139189
0.786522 0.601901 0.139248
0.788963 0.600713 0.139170
0.792601 0.601673 0.139339
0.795947 0.602062 0.139444
0.798596 0.601185 0.139403
0.800543 0.599073 0.139219
0.804742 0.600853 0.139485
0.807454 0.600030 0.139451
0.810524 0.599796 0.139485
0.813708 0.599726 0.139539
0.817079 0.599933 0.139625
0.819675 0.598839 0.139561
0.823646 0.599956 0.139754
0.826683 0.599525 0.139767
0.829388 0.598545 0.139717
0.832970 0.598926 0.139826
0.837482 0.600707 0.140099
0.839418 0.598470 0.139902
0.842980 0.598713 0.139996
0.845906 0.597962 0.139974
0.849684 0.598462 0.140100
0.853017 0.598265 0.140143
0.856148 0.597742 0.140149
0.859508 0.597529 0.140192
0.863349 0.597973 0.140313
0.866593 0.597531 0.140330
0.870296 0.597708 0.140420
0.873413 0.597035 0.140410
0.876363 0.596113 0.140371
0.883090 0.600312 0.140940
0.884900 0.597773 0.140710
0.887645 0.596497 0.140630
0.891074 0.596115 0.140657
0.895477 0.596982 0.140834
0.898766 0.596354 0.140832
0.902758 0.596606 0.140936
0.907812 0.598170 0.141198
0.911220 0.597597 0.141205
0.917724 0.600860 0.141672
0.920838 0.599840 0.141627
0.923661 0.598450 0.141537
0.926874 0.597524 0.141503
0.931454 0.598220 0.141665
0.937072 0.600101 0.141972
0.938483 0.596958 0.141672
0.944241 0.598909 0.141988
0.950728 0.601628 0.142399
0.953227 0.599698 0.142247
0.956239 0.598349 0.142165
0.962353 0.600471 0.142507
0.965257 0.598947 0.142405
0.968136 0.597386 0.142299
0.971564 0.596417 0.142266
0.977115 0.597724 0.142512
0.982737 0.599046 0.142761
0.986020 0.597822 0.142698
0.990379 0.597714 0.142773
0.995052 0.597896 0.142885
1.000621 0.598962 0.143106
1.004805 0.598551 0.143146
1.011073 0.600221 0.143444
1.015701 0.600172 0.143531
1.018571 0.598335 0.143398
1.023157 0.598182 0.143473
1.031662 0.601817 0.144021
1.035894 0.601209 0.144042
1.037954 0.598487 0.143800
1.040173 0.595922 0.143578
1.047707 0.598365 0.143983
1.051593 0.597316 0.143952
1.056989 0.597638 0.144094
1.061935 0.597496 0.144179
1.068002 0.598328 0.144387
1.071863 0.597115 0.144340
1.076724 0.596769 0.144402
1.084718 0.599145 0.144810
1.088176 0.597465 0.144706
1.090209 0.594532 0.144443
1.094519 0.593557 0.144430
1.104793 0.597619 0.145059
1.110220 0.597473 0.145155
1.110594 0.593063 0.144706
1.122198 0.597962 0.145450
1.125827 0.596186 0.145340
1.132669 0.596995 0.145564
1.137918 0.596453 0.145616
1.144010 0.596535 0.145750
1.150613 0.596960 0.145930
1.156428 0.596703 0.146023
1.162171 0.596336 0.146104
1.169517 0.597143 0.146339
1.173836 0.595574 0.146267
1.181992 0.596857 0.146568
1.185045 0.594252 0.146363
1.196420 0.597764 0.146962
1.199556 0.595129 0.146756
1.206414 0.595167 0.146903
1.209690 0.592571 0.146705
1.217151 0.592921 0.146898
1.224705 0.593257 0.147091
1.233428 0.594326 0.147384
1.241887 0.595117 0.147643
1.245593 0.592579 0.147461
1.254634 0.593611 0.147758
1.264899 0.595360 0.148155
1.270874 0.594159 0.148158
1.276675 0.592788 0.148141
1.283478 0.592009 0.148206
1.291610 0.592012 0.148380
1.304036 0.594650 0.148915
1.310788 0.593589 0.148951
1.322807 0.595729 0.149426
1.329124 0.594234 0.149409
1.336069 0.593062 0.149438
1.350618 0.596388 0.150090
1.359901 0.596422 0.150293
1.369942 0.596807 0.150548
1.377186 0.595465 0.150567
1.386925 0.595491 0.150780
1.398759 0.596613 0.151149
1.406515 0.595323 0.151185
1.420389 0.597368 0.151692
1.428007 0.595838 0.151701
1.437256 0.595136 0.151829
1.445107 0.593609 0.151843
1.460979 0.596286 0.152458
1.472436 0.596500 0.152727
1.484132 0.596750 0.153004
1.494698 0.596335 0.153190
1.508132 0.597307 0.153577
1.516966 0.595880 0.153622
1.524649 0.593850 0.153579
1.538468 0.594807 0.153973
1.550012 0.594586 0.154197
1.558029 0.592633 0.154168
1.568438 0.591812 0.154304
1.582268 0.592570 0.154675
1.595599 0.593049 0.155006
1.616705 0.597045 0.155861
0.559402 0.597551 0.132514
0.561635 0.598256 0.132620
0.563917 0.599002 0.132731
0.566086 0.598395 0.132703
0.568476 0.599412 0.132842
0.570733 0.599006 0.132836
0.573009 0.598549 0.132824
0.575461 0.599247 0.132932
0.577833 0.599122 0.132956
0.580251 0.599164 0.132996
0.582646 0.598894 0.133005
0.585136 0.599139 0.133067
0.587707 0.599780 0.133171
0.590271 0.600236 0.133256
0.592696 0.599743 0.133242
0.595483 0.601329 0.133444
0.598314 0.603007 0.133657
0.600590 0.601466 0.133535
0.603124 0.601355 0.133562
0.606020 0.603114 0.133783
0.608562 0.602935 0.133803
0.610947 0.601961 0.133741
0.613485 0.601751 0.133758
0.616138 0.602083 0.133831
0.618686 0.601891 0.133850
0.621410 0.602498 0.133953
0.623214 0.598989 0.133625
0.626778 0.603246 0.134110
0.629220 0.602560 0.134077
0.631660 0.601886 0.134046
0.634569 0.603138 0.134217
0.636949 0.602229 0.134162
0.639497 0.602001 0.134177
0.641880 0.601147 0.134128
0.644743 0.602119 0.134270
0.647258 0.601766 0.134273
0.650598 0.604399 0.134590
0.653002 0.603608 0.134548
0.655511 0.603203 0.134545
0.658138 0.603205 0.134586
0.660510 0.602341 0.134536
0.663011 0.601923 0.134532
0.665818 0.602500 0.134634
0.668633 0.603074 0.134736
0.671415 0.603511 0.134824
0.673690 0.602353 0.134742
0.676736 0.603565 0.134913
0.679358 0.603454 0.134943
0.682042 0.603513 0.134991
0.684431 0.602697 0.134946
0.687500 0.603834 0.135109
0.690192 0.603858 0.135154
0.692748 0.603482 0.135157
0.695297 0.603082 0.135157
0.698033 0.603176 0.135210
0.700657 0.602951 0.135229
0.703281 0.602711 0.135246
0.706259 0.603374 0.135361
0.708850 0.603007 0.135365
0.711147 0.601886 0.135289
0.713776 0.601597 0.135302
0.716751 0.602143 0.135405
0.719684 0.602550 0.135493
0.722375 0.602341 0.135515
0.725126 0.602258 0.135551
0.728272 0.603069 0.135683
0.730947 0.602750 0.135694
0.733559 0.602272 0.135688
0.736260 0.601979 0.135702
0.739063 0.601891 0.135739
0.742366 0.602876 0.135892
0.745016 0.602395 0.135886
0.747839 0.602265 0.135919
0.750642 0.602072 0.135945
0.753297 0.601545 0.135935
0.755965 0.601027 0.135927
0.758912 0.601063 0.135978
0.762513 0.602386 0.136170
0.765530 0.602485 0.136230
0.768611 0.602680 0.136300
0.771540 0.602545 0.136334
0.774398 0.602245 0.136351
0.776830 0.601113 0.136276
0.780037 0.601433 0.136361
0.783841 0.602824 0.136564
0.786024 0.601174 0.136433
0.789265 0.601452 0.136515
0.792543 0.601761 0.136600
0.795717 0.601848 0.136661
0.798897 0.601910 0.136719
0.801776 0.601417 0.136717
0.803979 0.599737 0.136584
0.806539 0.598670 0.136519
0.810518 0.599986 0.136717
0.813418 0.599443 0.136710
0.816788 0.599655 0.136787
0.820767 0.600825 0.136971
0.823926 0.600614 0.137002
0.826397 0.599274 0.136908
0.829295 0.598606 0.136889
0.832664 0.598656 0.136950
0.836224 0.598969 0.137040
0.838824 0.597771 0.136963
0.842718 0.598528 0.137104
0.845578 0.597685 0.137066
0.850528 0.599936 0.137375
0.853546 0.599261 0.137357
0.856398 0.598325 0.137311
0.859364 0.597541 0.137281
0.863154 0.597917 0.137382
0.866153 0.597132 0.137353
0.870001 0.597519 0.137456
0.873153 0.596900 0.137446
0.876361 0.596337 0.137443
0.879359 0.595465 0.137405
0.885543 0.598870 0.137851
0.888050 0.597268 0.137732
0.892843 0.598686 0.137954
0.896170 0.598122 0.137953
0.899666 0.597757 0.137975
0.903538 0.597845 0.138048
0.907415 0.597904 0.138119
0.911439 0.598113 0.138207
0.917832 0.601238 0.138628
0.920682 0.599893 0.138541
0.923166 0.598090 0.138401
0.926336 0.597118 0.138357
0.929724 0.596391 0.138341
0.934594 0.597405 0.138524
0.938731 0.597501 0.138603
0.942463 0.597087 0.138624
0.946634 0.597152 0.138701
0.951854 0.598383 0.138912
0.954433 0.596558 0.138772
0.959390 0.597402 0.138941
0.964702 0.598590 0.139149
0.967779 0.597254 0.139067
0.971110 0.596184 0.139016
0.976083 0.596872 0.139169
0.981038 0.597491 0.139314
0.983657 0.595579 0.139167
0.990435 0.598043 0.139528
0.993733 0.596792 0.139459
0.998871 0.597427 0.139609
1.003142 0.597124 0.139651
1.006729 0.596093 0.139608
1.013436 0.598175 0.139931
1.018626 0.598669 0.140068
1.021801 0.597125 0.139967
1.026626 0.597181 0.140055
1.033500 0.599177 0.140372
1.037446 0.598286 0.140350
1.042946 0.598845 0.140499
1.047415 0.598380 0.140529
1.051952 0.597942 0.140562
1.056398 0.597384 0.140582
1.059698 0.595742 0.140474
1.066294 0.597075 0.140720
1.071147 0.596770 0.140772
1.076686 0.597035 0.140893
1.080205 0.595466 0.140796
1.087843 0.597478 0.141129
1.091663 0.596097 0.141056
1.097796 0.596677 0.141219
1.103217 0.596590 0.141303
1.107107 0.595163 0.141228
1.110608 0.593386 0.141110
1.121560 0.597751 0.141735
1.126214 0.596822 0.141722
1.131688 0.596520 0.141786
1.137025 0.596058 0.141832
1.143214 0.596226 0.141956
1.148937 0.595966 0.142029
1.155678 0.596448 0.142194
1.161732 0.596329 0.142287
1.168253 0.596509 0.142418
1.174415 0.596351 0.142509
1.180483 0.596062 0.142586
1.184622 0.594278 0.142479
1.193123 0.595679 0.142767
1.200523 0.596183 0.142946
1.203984 0.593760 0.142765
1.210651 0.593610 0.142866
1.216826 0.593045 0.142918
1.223156 0.592527 0.142977
1.236726 0.596979 0.143658
1.240625 0.594612 0.143491
1.246588 0.593622 0.143497
1.255419 0.594509 0.143740
1.262255 0.593968 0.143806
1.270084 0.594012 0.143948
1.274853 0.591974 0.143829
1.282732 0.591906 0.143962
1.296096 0.595270 0.144532
1.302390 0.593996 0.144516
1.310451 0.593770 0.144636
1.318985 0.593753 0.144785
1.330208 0.595298 0.145137
1.335032 0.592833 0.144978
1.346792 0.594497 0.145352
1.354275 0.593490 0.145384
1.367507 0.595792 0.145848
1.375507 0.594907 0.145902
1.387562 0.596280 0.146252
1.394436 0.594581 0.146206
1.407916 0.596542 0.146640
1.419315 0.597207 0.146909
1.428658 0.596635 0.147018
1.435827 0.594801 0.146964
1.445650 0.594346 0.147093
1.460067 0.596253 0.147539
1.470852 0.596124 0.147718
1.484932 0.597625 0.148118
1.495690 0.597308 0.148278
1.506956 0.597179 0.148465
1.514888 0.595310 0.148420
1.525883 0.594935 0.148578
1.539050 0.595571 0.148875
1.554700 0.597338 0.149328
1.557164 0.592703 0.148911
1.564966 0.590656 0.148845
1.577554 0.590855 0.149088
1.590707 0.591281 0.149362
1.588392 0.584600 0.148656
0.559369 0.597100 0.130181
0.561754 0.599271 0.130424
0.563893 0.598682 0.130395
0.566150 0.598867 0.130444
0.568332 0.598114 0.130400
0.570604 0.597891 0.130409
0.572912 0.597731 0.130425
0.575445 0.599073 0.130589
0.577875 0.599391 0.130653
0.580214 0.598868 0.130635
0.582740 0.599515 0.130732
0.585265 0.599980 0.130811
0.587747 0.600033 0.130851
0.590086 0.599085 0.130791
0.593035 0.601795 0.131094
0.595464 0.601228 0.131073
0.597829 0.600265 0.131012
0.600383 0.600345 0.131055
0.603058 0.601032 0.131158
0.605600 0.600942 0.131185
0.607903 0.599605 0.131087
0.610843 0.601486 0.131310
0.613424 0.601503 0.131347
0.616024 0.601595 0.131392
0.618635 0.601716 0.131440
0.621197 0.601598 0.131464
0.624048 0.602750 0.131615
0.626731 0.603117 0.131688
0.629381 0.603319 0.131744
0.632127 0.603903 0.131839
0.634181 0.601645 0.131649
0.636531 0.600650 0.131585
0.639212 0.600981 0.131655
0.641996 0.601684 0.131761
0.644645 0.601846 0.131814
0.647307 0.602043 0.131870
0.650378 0.603707 0.132073
0.652937 0.603482 0.132087
0.655481 0.603204 0.132096
0.657974 0.602753 0.132087
0.660453 0.602260 0.132073
0.663088 0.602293 0.132113
0.665836 0.602676 0.132188
0.668640 0.603216 0.132279
0.671395 0.603571 0.132352
0.674111 0.603780 0.132410
0.676763 0.603775 0.132446
0.679131 0.602901 0.132394
0.681534 0.602141 0.132354
0.684603 0.603328 0.132511
0.687446 0.603813 0.132598
0.690014 0.603490 0.132602
0.692435 0.602751 0.132564
0.694965 0.602310 0.132557
0.697861 0.602854 0.132649
0.700467 0.602589 0.132660
0.703198 0.602638 0.132702
0.705849 0.602457 0.132722
0.708492 0.602241 0.132737
0.711024 0.601727 0.132722
0.713633 0.601393 0.132726
0.717087 0.603122 0.132941
0.719858 0.603126 0.132980
0.722330 0.602391 0.132943
0.725599 0.603532 0.133099
0.728249 0.603176 0.133101
0.730973 0.602974 0.133119
0.733679 0.602708 0.133131
0.736247 0.602115 0.133109
0.739179 0.602315 0.133169
0.741994 0.602229 0.133200
0.744881 0.602271 0.133244
0.747495 0.601703 0.133225
0.750320 0.601564 0.133251
0.753078 0.601261 0.133259
0.755880 0.601028 0.133276
0.758965 0.601349 0.133350
0.762841 0.603226 0.133585
0.765590 0.602785 0.133580
0.768753 0.603142 0.133659
0.771604 0.602853 0.133670
0.774422 0.602476 0.133673
0.777292 0.602177 0.133683
0.779990 0.601531 0.133658
0.782910 0.601282 0.133675
0.785936 0.601201 0.133709
0.789219 0.601560 0.133789
0.792388 0.601675 0.133844
0.795190 0.601104 0.133828
0.799083 0.602433 0.134010
0.802066 0.602119 0.134021
0.804443 0.600734 0.133920
0.806446 0.598710 0.133752
0.810242 0.599722 0.133902
0.813374 0.599571 0.133931
0.816301 0.599055 0.133922
0.819708 0.599301 0.133993
0.823205 0.599655 0.134076
0.826152 0.599090 0.134062
0.829176 0.598625 0.134059
0.832115 0.598005 0.134040
0.835334 0.597800 0.134065
0.839355 0.598798 0.134217
0.842075 0.597766 0.134155
0.846819 0.599766 0.134415
0.850193 0.599653 0.134451
0.853643 0.599624 0.134496
0.856963 0.599370 0.134517
0.860300 0.599114 0.134539
0.863252 0.598279 0.134499
0.866623 0.598019 0.134521
0.869623 0.597214 0.134485
0.875467 0.600339 0.134868
0.877730 0.598445 0.134717
0.879416 0.595770 0.134481
0.882146 0.594522 0.134399
0.888764 0.598453 0.134871
0.891573 0.597240 0.134793
0.896137 0.598314 0.134961
0.899808 0.598176 0.134998
0.903730 0.598329 0.135068
0.907153 0.597810 0.135065
0.910410 0.597057 0.135038
0.916426 0.599727 0.135380
0.919586 0.598782 0.135333
0.923749 0.599048 0.135417
0.926404 0.597446 0.135299
0.929519 0.596391 0.135240
0.934337 0.597348 0.135400
0.938889 0.597937 0.135521
0.942496 0.597377 0.135517
0.947118 0.597965 0.135638
0.950704 0.597320 0.135626
0.955105 0.597576 0.135712
0.960703 0.599135 0.135941
0.963874 0.597927 0.135869
0.968326 0.598117 0.135949
0.971907 0.597315 0.135922
0.978344 0.599584 0.136231
0.981741 0.598510 0.136175
0.984353 0.596585 0.136025
0.990619 0.598505 0.136299
0.993684 0.597011 0.136197
0.998569 0.597386 0.136302
1.002804 0.597050 0.136328
1.007228 0.596872 0.136373
1.012561 0.597572 0.136515
1.017490 0.597816 0.136608
1.020830 0.596445 0.136522
1.028523 0.599317 0.136907
1.032077 0.598082 0.136838
1.036779 0.597930 0.136889
1.042925 0.599112 0.137089
1.047439 0.598690 0.137112
1.051278 0.597602 0.137060
1.057047 0.598275 0.137206
1.059462 0.595817 0.137002
1.064089 0.595367 0.137023
1.070394 0.596389 0.137210
1.075883 0.596618 0.137309
1.082891 0.598137 0.137554
1.087109 0.597138 0.137517
1.093473 0.597969 0.137686
1.098594 0.597667 0.137729
1.103051 0.596756 0.137703
1.107746 0.596010 0.137697
1.111944 0.594811 0.137639
1.121301 0.597851 0.138064
1.125842 0.596832 0.138029
1.130531 0.595898 0.138004
1.138125 0.597262 0.138243
1.144145 0.597290 0.138330
1.149788 0.596961 0.138377
1.153231 0.594861 0.138222
1.160307 0.595553 0.138388
1.165899 0.595034 0.138416
1.176658 0.598388 0.138890
1.179635 0.595759 0.138678
1.185521 0.595284 0.138714
1.192642 0.595664 0.138850
1.197747 0.594497 0.138809
1.202969 0.593369 0.138773
1.211967 0.594899 0.139047
1.216310 0.593026 0.138926
1.222127 0.592154 0.138923
1.234575 0.595838 0.139453
1.241354 0.595471 0.139513
1.247110 0.594337 0.139483
1.255386 0.594850 0.139649
1.265187 0.596291 0.139925
1.268681 0.593453 0.139699
1.276141 0.593186 0.139778
1.281251 0.591319 0.139669
1.289269 0.591272 0.139776
1.301407 0.593752 0.140185
1.310305 0.594062 0.140340
1.320355 0.594991 0.140570
1.330300 0.595746 0.140782
1.335114 0.593276 0.140610
1.342714 0.592442 0.140636
1.352015 0.592546 0.140776
1.367232 0.596036 0.141326
1.372910 0.593805 0.141190
1.386160 0.595887 0.141576
1.397763 0.596891 0.141836
1.408693 0.597400 0.142038
1.417513 0.596631 0.142087
1.429076 0.597294 0.142313
1.437258 0.596012 0.142304
1.449588 0.596900 0.142562
1.460511 0.596931 0.142718
1.472029 0.597188 0.142905
1.484349 0.597773 0.143134
1.494543 0.597174 0.143219
1.502497 0.595375 0.143157
1.513479 0.595065 0.143282
1.524160 0.594546 0.143382
1.540628 0.596815 0.143833
1.550944 0.595995 0.143899
1.558443 0.593793 0.143793
1.562818 0.590117 0.143500
1.583974 0.594345 0.144207
1.592077 0.592404 0.144134
1.612024 0.595903 0.144754
0.559739 0.600663 0.128231
0.561621 0.597907 0.127997
0.563851 0.598217 0.128051
0.566037 0.597800 0.128038
0.568317 0.597922 0.128075
0.570471 0.596756 0.127993
0.572792 0.596748 0.128020
0.575255 0.597609 0.128129
0.577831 0.599051 0.128293
0.580241 0.599055 0.128323
0.582681 0.599111 0.128358
0.585242 0.599838 0.128457
0.587601 0.599112 0.128419
0.590707 0.602976 0.128815
0.593216 0.602923 0.128842
0.595512 0.601549 0.128743
0.597924 0.600845 0.128709
0.600414 0.600564 0.128714
0.602874 0.600094 0.128702
0.605412 0.600016 0.128727
0.608116 0.600760 0.128830
0.610833 0.601505 0.128933
0.613226 0.600613 0.128881
0.615803 0.600619 0.128914
0.618436 0.600872 0.128971
0.621214 0.601754 0.129087
0.623959 0.602440 0.129185
0.626598 0.602628 0.129236
0.629460 0.603745 0.129375
0.631559 0.601642 0.129207
0.634187 0.601765 0.129251
0.636707 0.601450 0.129254
0.639420 0.601892 0.129328
0.642050 0.601996 0.129371
0.644555 0.601615 0.129367
0.647243 0.601919 0.129428
0.650256 0.603378 0.129600
0.652777 0.603028 0.129599
0.655086 0.601945 0.129527
0.657869 0.602514 0.129614
0.660678 0.603140 0.129706
0.663306 0.603136 0.129738
0.665876 0.602931 0.129750
0.668745 0.603679 0.129854
0.671473 0.603947 0.129912
0.674092 0.603853 0.129935
0.676648 0.603558 0.129938
0.679092 0.602920 0.129909
0.681438 0.601996 0.129851
0.684702 0.603755 0.130053
0.687226 0.603324 0.130044
0.689614 0.602504 0.129996
0.692316 0.602562 0.130034
0.695324 0.603440 0.130151
0.697674 0.602495 0.130091
0.701023 0.604218 0.130290
0.703162 0.602694 0.130174
0.705708 0.602244 0.130162
0.708463 0.602319 0.130201
0.711057 0.601965 0.130199
0.713787 0.601935 0.130228
0.717061 0.603216 0.130385
0.719777 0.603090 0.130405
0.722481 0.602914 0.130420
0.724522 0.601151 0.130280
0.727677 0.602007 0.130396
0.730697 0.602503 0.130477
0.733435 0.602321 0.130491
0.736242 0.602273 0.130519
0.738969 0.602019 0.130527
0.741912 0.602219 0.130579
0.744608 0.601853 0.130576
0.747628 0.602160 0.130639
0.750302 0.601702 0.130627
0.752747 0.600747 0.130567
0.756148 0.601758 0.130699
0.759188 0.601983 0.130755
0.762085 0.601884 0.130778
0.764968 0.601730 0.130797
0.767791 0.601430 0.130801
0.770414 0.600720 0.130765
0.774590 0.602985 0.131022
0.777258 0.602301 0.130989
0.779865 0.601485 0.130943
0.782964 0.601573 0.130986
0.786176 0.601834 0.131046
0.789707 0.602642 0.131161
0.792266 0.601650 0.131098
0.794762 0.600536 0.131023
0.796994 0.598951 0.130901
0.802397 0.602892 0.131327
0.804570 0.601151 0.131190
0.807212 0.600215 0.131133
0.810412 0.600210 0.131168
0.813387 0.599795 0.131163
0.816455 0.599512 0.131171
0.819934 0.599875 0.131244
0.822998 0.599526 0.131246
0.825720 0.598606 0.131191
0.828680 0.598048 0.131173
0.832331 0.598555 0.131260
0.835108 0.597661 0.131209
0.839248 0.598846 0.131365
0.842226 0.598208 0.131339
0.845394 0.597838 0.131340
0.848988 0.598076 0.131403
0.853571 0.599736 0.131608
0.856885 0.599475 0.131621
0.860672 0.599872 0.131700
0.863729 0.599182 0.131670
0.866927 0.598673 0.131659
0.870085 0.598086 0.131639
0.873910 0.598402 0.131712
0.877792 0.598758 0.131788
0.879498 0.596109 0.131561
0.882207 0.594831 0.131473
0.888017 0.597687 0.131803
0.891988 0.598021 0.131878
0.895696 0.597971 0.131915
0.899939 0.598582 0.132019
0.903858 0.598729 0.132077
0.907090 0.597968 0.132042
0.910063 0.596859 0.131972
0.914988 0.598173 0.132149
0.918350 0.597496 0.132124
0.921847 0.596963 0.132113
0.926827 0.598204 0.132284
0.930218 0.597476 0.132255
0.935032 0.598422 0.132396
0.939189 0.598540 0.132453
0.942624 0.597777 0.132421
0.946279 0.597247 0.132412
0.950151 0.596940 0.132427
0.954438 0.597073 0.132487
0.958682 0.597119 0.132538
0.964934 0.599366 0.132817
0.968638 0.598722 0.132798
0.974005 0.599870 0.132964
0.977255 0.598667 0.132889
0.981131 0.598120 0.132881
0.984735 0.597256 0.132841
0.988403 0.596437 0.132805
0.994746 0.598387 0.133057
0.998340 0.597419 0.133006
1.002603 0.597115 0.133025
1.006905 0.596817 0.133045
1.011652 0.596931 0.133108
1.016127 0.596734 0.133139
1.020570 0.596466 0.133163
1.025097 0.596244 0.133192
1.031715 0.598012 0.133430
1.035585 0.597067 0.133384
1.042513 0.599005 0.133641
1.046878 0.598448 0.133637
1.050024 0.596718 0.133510
1.056221 0.597800 0.133679
1.060394 0.596962 0.133647
1.065909 0.597312 0.133739
1.072401 0.598489 0.133920
1.075508 0.596578 0.133776
1.081964 0.597615 0.133943
1.086572 0.596967 0.133932
1.093427 0.598231 0.134125
1.098148 0.597588 0.134116
1.104095 0.597949 0.134214
1.109146 0.597497 0.134226
1.114833 0.597533 0.134291
1.119162 0.596391 0.134231
1.126356 0.597566 0.134418
1.131722 0.597179 0.134440
1.137195 0.596830 0.134466
1.141366 0.595392 0.134376
1.148951 0.596621 0.134572
1.155231 0.596747 0.134651
1.160476 0.596008 0.134638
1.166047 0.595473 0.134647
1.172729 0.595731 0.134742
1.178778 0.595444 0.134779
1.183416 0.594047 0.134698
1.192626 0.595986 0.134976
1.198092 0.595085 0.134950
1.202674 0.593492 0.134849
1.212880 0.595894 0.135181
1.216567 0.593551 0.135000
1.225087 0.594579 0.135186
1.228538 0.591985 0.134978
1.238876 0.594115 0.135286
1.245859 0.593837 0.135333
1.250457 0.591877 0.135196
1.262223 0.594669 0.135581
1.270144 0.594781 0.135673
1.277320 0.594322 0.135704
1.283451 0.593110 0.135654
1.288214 0.590963 0.135501
1.301426 0.594138 0.135935
1.307201 0.592487 0.135840
1.318998 0.594527 0.136152
1.325961 0.593461 0.136124
1.334770 0.593451 0.136213
1.342666 0.592801 0.136232
1.354537 0.594438 0.136508
1.368633 0.597258 0.136917
1.374689 0.595240 0.136789
1.386593 0.596541 0.137033
1.397356 0.597068 0.137193
1.407749 0.597282 0.137319
1.417020 0.596772 0.137366
1.424913 0.595422 0.137319
1.441883 0.598954 0.137825
1.448492 0.596738 0.137684
1.454494 0.594162 0.137503
1.470838 0.596999 0.137938
1.481776 0.596877 0.138039
1.492134 0.596381 0.138099
1.502083 0.595613 0.138129
1.515032 0.596298 0.138328
1.522721 0.594289 0.138219
1.539250 0.596603 0.138608
1.548062 0.595065 0.138557
1.556097 0.593138 0.138461
1.566708 0.592433 0.138507
1.584619 0.595128 0.138949
1.595691 0.594562 0.139014
1.618631 0.599422 0.139713
0.559434 0.597535 0.125654
0.561527 0.596930 0.125619
0.563619 0.596025 0.125559
0.565971 0.597168 0.125682
0.568440 0.598930 0.125862
0.570488 0.596873 0.125701
0.572794 0.596754 0.125714
0.575209 0.597254 0.125783
0.577566 0.597119 0.125796
0.580152 0.598438 0.125940
0.582595 0.598548 0.125976
0.584976 0.598110 0.125964
0.587396 0.597835 0.125967
0.589879 0.597871 0.125998
0.592593 0.599213 0.126146
0.595477 0.601402 0.126371
0.597976 0.601208 0.126383
0.600448 0.600824 0.126377
0.602565 0.598498 0.126197
0.605213 0.599050 0.126276
0.608219 0.601367 0.126514
0.610537 0.600114 0.126430
0.613164 0.600404 0.126486
0.615610 0.599797 0.126460
0.618419 0.600888 0.126589
0.621144 0.601539 0.126677
0.623592 0.600918 0.126650
0.626290 0.601400 0.126723
0.628645 0.600399 0.126661
0.631082 0.599771 0.126633
0.633888 0.600663 0.126743
0.636798 0.601928 0.126887
0.639460 0.602168 0.126938
0.641710 0.600812 0.126843
0.645152 0.603977 0.127160
0.647260 0.602105 0.127018
0.650244 0.603460 0.127169
0.652660 0.602742 0.127132
0.654988 0.601732 0.127068
0.657587 0.601678 0.127091
0.660104 0.601341 0.127088
0.663180 0.602853 0.127254
0.665974 0.603386 0.127330
0.669904 0.607527 0.127737
0.671399 0.603852 0.127428
0.673549 0.602312 0.127314
0.676291 0.602612 0.127369
0.678644 0.601717 0.127313
0.681497 0.602315 0.127395
0.684621 0.603666 0.127546
0.687109 0.603135 0.127524
0.689469 0.602242 0.127468
0.692617 0.603551 0.127615
0.695189 0.603222 0.127612
0.698457 0.604766 0.127780
0.700942 0.604159 0.127751
0.702863 0.602063 0.127584
0.705714 0.602417 0.127643
0.708361 0.602216 0.127650
0.711087 0.602197 0.127675
0.714072 0.602803 0.127757
0.716024 0.600831 0.127600
0.719679 0.603017 0.127829
0.722213 0.602437 0.127801
0.724301 0.600795 0.127675
0.726388 0.599167 0.127550
0.730413 0.602018 0.127840
0.733013 0.601531 0.127821
0.735821 0.601497 0.127843
0.738859 0.601948 0.127911
0.741694 0.601916 0.127934
0.744487 0.601766 0.127946
0.747628 0.602336 0.128025
0.750189 0.601640 0.127986
0.752802 0.601040 0.127957
0.756015 0.601664 0.128041
0.759024 0.601828 0.128082
0.761979 0.601852 0.128111
0.764718 0.601414 0.128096
0.767054 0.600164 0.128006
0.770722 0.601506 0.128157
0.773948 0.601937 0.128224
0.776549 0.601139 0.128176
0.779824 0.601597 0.128245
0.782599 0.601083 0.128224
0.786320 0.602292 0.128364
0.789263 0.602028 0.128366
0.792187 0.601703 0.128362
0.794720 0.600658 0.128291
0.797203 0.599515 0.128211
0.801311 0.601199 0.128397
0.804405 0.601067 0.128412
0.806916 0.599912 0.128330
0.810119 0.599917 0.128358
0.813338 0.599917 0.128386
0.816269 0.599409 0.128366
0.820032 0.600240 0.128472
0.822955 0.599663 0.128446
0.825871 0.599055 0.128417
0.828772 0.598403 0.128383
0.832394 0.598864 0.128455
0.835906 0.599111 0.128507
0.838768 0.598322 0.128461
0.841870 0.597882 0.128449
0.844903 0.597313 0.128424
0.848171 0.597075 0.128430
0.851883 0.597463 0.128496
0.856956 0.599799 0.128747
0.859981 0.599095 0.128710
0.864118 0.599962 0.128822
0.867233 0.599332 0.128793
0.870344 0.598674 0.128760
0.873301 0.597782 0.128706
0.876170 0.596753 0.128638
0.880857 0.598188 0.128806
0.884080 0.597587 0.128779
0.887511 0.597243 0.128778
0.891276 0.597312 0.128816
0.895587 0.598062 0.128919
0.900229 0.599193 0.129058
0.903516 0.598528 0.129027
0.906685 0.597690 0.128979
0.911406 0.598791 0.129116
0.914557 0.597877 0.129061
0.917747 0.596992 0.129009
0.922448 0.597942 0.129133
0.926498 0.598050 0.129177
0.930707 0.598310 0.129235
0.935410 0.599120 0.129346
0.939466 0.599116 0.129380
0.942727 0.598148 0.129321
0.946308 0.597531 0.129295
0.949482 0.596425 0.129223
0.954138 0.596986 0.129312
0.957510 0.596056 0.129257
0.961554 0.595856 0.129272
0.968517 0.598847 0.129597
0.972431 0.598409 0.129590
0.977083 0.598742 0.129658
0.980226 0.597411 0.129565
0.983816 0.596542 0.129517
0.987291 0.595530 0.129455
0.994332 0.598222 0.129753
0.997566 0.596887 0.129660
1.002481 0.597260 0.129733
1.006788 0.596969 0.129742
1.012288 0.597844 0.129865
1.016205 0.597085 0.129829
1.020085 0.596262 0.129786
1.025818 0.597227 0.129919
1.031248 0.597839 0.130017
1.034902 0.596690 0.129944
1.038488 0.595455 0.129862
1.046227 0.598118 0.130162
1.050854 0.597780 0.130168
1.056290 0.598151 0.130244
1.060027 0.596913 0.130163
1.064042 0.595904 0.130104
1.071682 0.598134 0.130364
1.075783 0.597117 0.130304
1.081752 0.597723 0.130405
1.086953 0.597597 0.130434
1.091290 0.596675 0.130385
1.097993 0.597754 0.130533
1.105335 0.599308 0.130729
1.108888 0.597583 0.130601
1.113436 0.596670 0.130554
1.118730 0.596339 0.130564
1.126539 0.598025 0.130775
1.131212 0.597075 0.130724
1.136028 0.596202 0.130681
1.141230 0.595597 0.130665
1.146185 0.594751 0.130626
1.156326 0.597921 0.130986
1.160207 0.596119 0.130852
1.167638 0.597016 0.130987
1.171926 0.595443 0.130876
1.176893 0.594349 0.130813
1.182813 0.593923 0.130817
1.191478 0.595468 0.131019
1.198491 0.595708 0.131090
1.207329 0.597197 0.131288
1.211962 0.595572 0.131173
1.215635 0.593225 0.130986
1.224762 0.594690 0.131182
1.231957 0.594707 0.131234
1.238238 0.594019 0.131214
1.244710 0.593399 0.131202
1.250671 0.592369 0.131149
1.259132 0.592954 0.131260
1.268314 0.593925 0.131410
1.273844 0.592400 0.131308
1.282978 0.593163 0.131439
1.291836 0.593647 0.131542
1.300829 0.594123 0.131645
1.305861 0.592012 0.131485
1.317992 0.594272 0.131771
1.323351 0.592229 0.131620
1.334949 0.593937 0.131851
1.349303 0.597177 0.132241
1.353043 0.593932 0.131968
1.366183 0.596204 0.132261
1.375945 0.596363 0.132338
1.384718 0.595855 0.132348
1.398206 0.597952 0.132627
1.407258 0.597408 0.132635
1.416769 0.597039 0.132663
1.423848 0.595245 0.132544
1.438982 0.597790 0.132874
1.447337 0.596535 0.132813
1.458630 0.596785 0.132909
1.470533 0.597266 0.133031
1.480585 0.596690 0.133044
1.490533 0.595994 0.133045
1.502688 0.596361 0.133159
1.514556 0.596504 0.133251
1.527205 0.596966 0.133378
1.537769 0.596331 0.133392
1.546500 0.594766 0.133310
1.556587 0.593836 0.133296
1.572528 0.595662 0.133573
1.586906 0.596676 0.133766
1.593830 0.594179 0.133591
1.600138 0.591430 0.133391
0.559430 0.597405 0.123361
0.561497 0.596574 0.123305
0.563738 0.597065 0.123362
0.565949 0.596941 0.123369
0.568260 0.597385 0.123424
0.570684 0.598465 0.123535
0.572937 0.597880 0.123505
0.575118 0.596589 0.123416
0.576784 0.591419 0.122998
0.580124 0.598282 0.123604
0.582523 0.598101 0.123611
0.584930 0.597862 0.123614
0.587354 0.597630 0.123619
0.589867 0.597863 0.123663
0.592357 0.597860 0.123688
0.594971 0.598513 0.123769
0.597224 0.597011 0.123666
0.599742 0.597002 0.123691
0.602405 0.597730 0.123779
0.605063 0.598360 0.123859
0.607778 0.599218 0.123959
0.610469 0.599882 0.124042
0.612740 0.598448 0.123945
0.615232 0.598117 0.123943
0.618283 0.600374 0.124163
0.620694 0.599615 0.124124
0.623883 0.602330 0.124383
0.625606 0.598558 0.124085
0.628319 0.599139 0.124161
0.631077 0.599878 0.124250
0.633573 0.599512 0.124244
0.636125 0.599378 0.124257
0.639026 0.600605 0.124388
0.641473 0.600039 0.124364
0.643883 0.599349 0.124329
0.646743 0.600337 0.124439
0.650478 0.604445 0.124818
0.652055 0.600730 0.124521
0.655152 0.602443 0.124693
0.657489 0.601485 0.124634
0.659908 0.600822 0.124600
0.662436 0.600534 0.124598
0.664721 0.599452 0.124528
0.668621 0.603566 0.124907
0.670834 0.602221 0.124813
0.673376 0.601925 0.124810
0.675943 0.601698 0.124813
0.678446 0.601272 0.124798
0.681572 0.602688 0.124943
0.684594 0.603740 0.125056
0.687037 0.603084 0.125020
0.689614 0.602808 0.125018
0.692489 0.603352 0.125086
0.694950 0.602723 0.125053
0.698033 0.603778 0.125166
0.700644 0.603523 0.125164
0.702882 0.602272 0.125076
0.705293 0.601486 0.125028
0.708116 0.601751 0.125071
0.711398 0.603148 0.125213
0.713302 0.601052 0.125050
0.715898 0.600687 0.125038
0.718419 0.600127 0.125009
0.721435 0.600743 0.125083
0.723383 0.598795 0.124932
0.726298 0.599126 0.124980
0.730377 0.602106 0.125261
0.732912 0.601473 0.125225
0.735268 0.600429 0.125152
0.737815 0.599806 0.125117
0.741107 0.600805 0.125224
0.744323 0.601587 0.125311
0.747367 0.601955 0.125363
0.750066 0.601558 0.125347
0.752789 0.601194 0.125334
0.754644 0.599015 0.125161
0.757925 0.599768 0.125246
0.761113 0.600289 0.125311
