ply
format ascii 1.0
comment ---
element vertex 1740
property float x
property float y
property float z
element face 0
property list uchar uint vertex_indices
end_header
0.003671 0.620544 0.336023
0.006755 0.620155 0.335877
0.009715 0.614689 0.333862
0.012852 0.617241 0.334800
0.015989 0.619018 0.335453
0.019021 0.617621 0.334938
0.022032 0.616049 0.334360
0.025131 0.616603 0.334564
0.028079 0.614191 0.333678
0.031388 0.618359 0.335214
0.034290 0.615449 0.334145
0.037475 0.617072 0.334746
0.040556 0.617047 0.334740
0.043700 0.617816 0.335028
0.046828 0.618291 0.335208
0.049948 0.618598 0.335327
0.053409 0.622501 0.336770
0.056794 0.625232 0.337783
0.059497 0.621080 0.336263
0.062432 0.619436 0.335666
0.065554 0.619573 0.335726
0.068154 0.615268 0.334151
0.071145 0.614467 0.333867
0.074020 0.612803 0.333266
0.077198 0.613519 0.333543
0.080186 0.612795 0.333290
0.083003 0.610907 0.332609
0.085882 0.609548 0.332125
0.089226 0.611290 0.332783
0.092694 0.613685 0.333683
0.095480 0.611746 0.332988
0.099987 0.620106 0.336088
0.103476 0.622102 0.336845
0.105004 0.612982 0.333506
0.107899 0.611787 0.333089
0.110853 0.610941 0.332802
0.113851 0.610347 0.332609
0.116690 0.608966 0.332127
0.120734 0.613535 0.333841
0.126214 0.624721 0.337997
0.129328 0.624310 0.337878
0.131865 0.621259 0.336786
0.133764 0.615475 0.334687
0.137080 0.616097 0.334953
0.140491 0.617072 0.335351
0.143882 0.617894 0.335695
0.147281 0.618686 0.336029
0.149962 0.616546 0.335282
0.152795 0.615059 0.334778
0.155378 0.612640 0.333932
0.158094 0.610789 0.333297
0.161986 0.613316 0.334282
0.165358 0.613831 0.334525
0.167935 0.611472 0.333708
0.171114 0.611265 0.333689
0.173930 0.609792 0.333203
0.177039 0.609317 0.333089
0.181529 0.613392 0.334662
0.187501 0.622095 0.337951
0.193217 0.629651 0.340820
0.190247 0.609664 0.333488
0.193596 0.609797 0.333611
0.197464 0.611460 0.334304
0.200368 0.610155 0.333899
0.203224 0.608711 0.333445
0.206046 0.607171 0.332959
0.211144 0.612115 0.334881
0.214800 0.612825 0.335236
0.219002 0.614978 0.336129
0.226025 0.624684 0.339835
0.224472 0.611107 0.334887
0.227462 0.609863 0.334526
0.230195 0.607944 0.333917
0.232966 0.606134 0.333351
0.235774 0.604424 0.332824
0.242686 0.612922 0.336106
0.247238 0.615345 0.337128
0.250507 0.614556 0.336954
0.253369 0.612773 0.336414
0.254621 0.607208 0.334461
0.257969 0.606606 0.334365
0.261223 0.605762 0.334182
0.264618 0.605212 0.334110
0.267784 0.604125 0.333840
0.273372 0.608340 0.335559
0.278710 0.611859 0.337021
0.280876 0.608460 0.335892
0.283793 0.606697 0.335377
0.288263 0.608172 0.336080
0.293020 0.610167 0.336980
0.297481 0.611474 0.337624
0.301084 0.610996 0.337598
0.307140 0.615359 0.339396
0.310821 0.614941 0.339394
0.309709 0.605251 0.335894
0.314877 0.607764 0.336994
0.318890 0.608023 0.337243
0.322000 0.606584 0.336849
0.324536 0.604117 0.336063
0.331506 0.609778 0.338347
0.335580 0.610104 0.338612
0.338475 0.608335 0.338077
0.345100 0.613187 0.340047
0.344766 0.605844 0.337388
0.349260 0.607001 0.337944
0.352096 0.605343 0.337426
0.354056 0.602286 0.336366
0.361304 0.608159 0.338691
0.363931 0.606335 0.338082
0.359210 0.592592 0.332932
0.362396 0.591980 0.332762
0.380620 0.615565 0.341786
-0.365988 0.606745 0.335589
-0.363714 0.608717 0.336290
-0.358501 0.605749 0.335124
-0.356008 0.607526 0.335730
-0.353015 0.608535 0.336036
-0.350746 0.610916 0.336848
-0.346271 0.609453 0.336207
-0.343007 0.610208 0.336390
-0.339147 0.609938 0.336181
-0.335451 0.610007 0.336091
-0.331818 0.610234 0.336054
-0.328459 0.611016 0.336218
-0.325654 0.612904 0.336790
-0.321792 0.612800 0.336612
-0.315330 0.607590 0.334523
-0.313520 0.611521 0.335846
-0.310020 0.612141 0.335928
-0.306373 0.612470 0.335900
-0.303099 0.613570 0.336157
-0.298900 0.612742 0.335696
-0.294835 0.612159 0.335325
-0.291021 0.612074 0.335140
-0.287446 0.612479 0.335136
-0.283406 0.611838 0.334746
-0.279838 0.612201 0.334729
-0.275785 0.611438 0.334296
-0.272065 0.611379 0.334126
-0.268640 0.611965 0.334197
-0.264961 0.611925 0.334037
-0.261320 0.611930 0.333898
-0.258027 0.612737 0.334056
-0.253891 0.611440 0.333440
-0.249917 0.610465 0.332946
-0.246269 0.610238 0.332731
-0.243494 0.612210 0.333330
-0.239238 0.610315 0.332505
-0.236425 0.612150 0.333059
-0.232242 0.610292 0.332255
-0.229552 0.612422 0.332922
-0.225881 0.611840 0.332594
-0.222207 0.611182 0.332241
-0.219140 0.612199 0.332507
-0.215550 0.611674 0.332209
-0.212172 0.611715 0.332122
-0.208619 0.611181 0.331827
-0.205363 0.611494 0.331845
-0.202029 0.611531 0.331765
-0.199104 0.612821 0.332147
-0.195852 0.613057 0.332145
-0.192470 0.612830 0.331977
-0.188920 0.611990 0.331586
-0.185564 0.611736 0.331413
-0.182622 0.612870 0.331750
-0.179147 0.612124 0.331402
-0.175980 0.612415 0.331436
-0.172812 0.612676 0.331460
-0.169713 0.613165 0.331571
-0.166521 0.613284 0.331548
-0.163082 0.612409 0.331165
-0.159897 0.612471 0.331126
-0.156917 0.613328 0.331379
-0.153973 0.614339 0.331691
-0.150876 0.614714 0.331772
-0.147646 0.614492 0.331637
-0.144320 0.613807 0.331336
-0.141029 0.613217 0.331071
-0.137924 0.613428 0.331100
-0.134736 0.613222 0.330979
-0.131873 0.614563 0.331422
-0.128539 0.613592 0.331026
-0.125505 0.614074 0.331160
-0.122285 0.613578 0.330940
-0.119306 0.614333 0.331177
-0.116313 0.615024 0.331391
-0.113141 0.614702 0.331239
-0.109771 0.613181 0.330652
-0.106636 0.612958 0.330538
-0.103568 0.613122 0.330566
-0.100424 0.612778 0.330411
-0.097455 0.613557 0.330666
-0.094453 0.614139 0.330849
-0.091405 0.614413 0.330922
-0.088174 0.613332 0.330504
-0.085018 0.612728 0.330260
-0.081957 0.612810 0.330267
-0.079009 0.613820 0.330612
-0.075933 0.613788 0.330579
-0.072847 0.613644 0.330506
-0.069869 0.614496 0.330796
-0.066800 0.614508 0.330782
-0.063701 0.614178 0.330645
-0.060575 0.613508 0.330384
-0.057547 0.613888 0.330506
-0.054441 0.613333 0.330289
-0.051374 0.613197 0.330226
-0.048352 0.613687 0.330390
-0.045291 0.613616 0.330351
-0.042238 0.613663 0.330356
-0.039214 0.614239 0.330553
-0.036103 0.613162 0.330151
-0.032822 0.608142 0.328319
-0.030016 0.613569 0.330279
-0.027106 0.617571 0.331722
-0.024186 0.622520 0.333510
-0.021149 0.624827 0.334339
-0.017997 0.622709 0.333563
-0.014781 0.615176 0.330822
-0.011711 0.614200 0.330462
-0.008651 0.613414 0.330171
-0.005596 0.609543 0.328761
-0.002559 0.610833 0.329225
0.000522 0.615573 0.330941
0.003634 0.619140 0.332231
0.006677 0.617144 0.331504
0.009706 0.615362 0.330855
0.012794 0.616250 0.331175
0.015955 0.619016 0.332177
0.018974 0.617406 0.331592
0.022085 0.618239 0.331894
0.025112 0.617154 0.331501
0.028077 0.615100 0.330757
0.030958 0.611941 0.329612
0.034157 0.614270 0.330459
0.037272 0.615029 0.330737
0.040544 0.617809 0.331749
0.043715 0.618922 0.332156
0.046690 0.617541 0.331660
0.049862 0.618527 0.332023
0.053610 0.625570 0.334585
0.056785 0.626054 0.334767
0.059553 0.622527 0.333494
0.062557 0.621499 0.333129
0.065662 0.621431 0.333113
0.068723 0.620981 0.332959
0.070995 0.614144 0.330487
0.073991 0.613466 0.330252
0.077023 0.613102 0.330132
0.080070 0.612849 0.330053
0.082972 0.611585 0.329608
0.085652 0.608885 0.328642
0.089076 0.611208 0.329500
0.092607 0.614037 0.330544
0.096475 0.618732 0.332267
0.099730 0.619493 0.332562
0.102559 0.617724 0.331939
0.104734 0.612373 0.330016
0.107771 0.611989 0.329899
0.110836 0.611757 0.329837
0.113662 0.610276 0.329324
0.116119 0.606992 0.328155
0.121667 0.619026 0.332556
0.125636 0.622888 0.333988
0.128372 0.620774 0.333250
0.131347 0.619825 0.332936
0.134771 0.620897 0.333359
0.136520 0.614584 0.331098
0.139838 0.615220 0.331365
0.143876 0.618809 0.332708
0.146193 0.615182 0.331428
0.149159 0.614274 0.331138
0.152618 0.615310 0.331558
0.155551 0.614250 0.331217
0.158039 0.611527 0.330271
0.161563 0.612705 0.330748
0.164935 0.613254 0.330998
0.168534 0.614560 0.331526
0.172084 0.615615 0.331965
0.175091 0.614734 0.331701
0.178191 0.614163 0.331551
0.181967 0.615815 0.332215
0.188160 0.625234 0.335715
0.194668 0.635299 0.339455
0.190516 0.611493 0.330834
0.193339 0.609991 0.330355
0.196842 0.610566 0.330638
0.200114 0.610393 0.330649
0.203177 0.609570 0.330426
0.205619 0.606934 0.329543
0.210080 0.610095 0.330781
0.214311 0.612471 0.331737
0.219696 0.617920 0.333820
0.225554 0.624448 0.336304
0.224629 0.612556 0.332042
0.227296 0.610458 0.331371
0.229779 0.607897 0.330531
0.232534 0.606062 0.329960
0.235185 0.603971 0.329298
0.242479 0.613460 0.332891
0.244412 0.609472 0.331538
0.247365 0.608017 0.331117
0.250556 0.607125 0.330906
0.254343 0.607615 0.331207
0.257914 0.607542 0.331303
0.261376 0.607177 0.331294
0.263858 0.604564 0.330459
0.266427 0.602167 0.329705
0.271622 0.605567 0.331093
0.275992 0.607045 0.331774
0.280054 0.607782 0.332184
0.281376 0.602666 0.330433
0.286820 0.606245 0.331898
0.290497 0.606055 0.331971
0.294039 0.605560 0.331933
0.297557 0.604997 0.331870
0.304264 0.610748 0.334149
0.312801 0.619914 0.337699
0.310220 0.607311 0.333168
0.314143 0.607432 0.333359
0.318620 0.608580 0.333931
0.320990 0.605757 0.333024
0.323177 0.602658 0.332011
0.330981 0.609872 0.334836
0.333853 0.608033 0.334286
0.339141 0.610552 0.335357
0.344779 0.613648 0.336639
0.345632 0.608356 0.334785
0.348848 0.607283 0.334498
0.352256 0.606592 0.334347
0.354630 0.604212 0.333557
0.355166 0.598855 0.331644
0.356530 0.595027 0.330293
0.357330 0.590409 0.328636
0.358117 0.585919 0.327016
0.366298 0.593456 0.329891
-0.365804 0.607248 0.332276
-0.362691 0.607806 0.332442
-0.360298 0.609696 0.333089
-0.356220 0.608766 0.332683
-0.353174 0.609702 0.332958
-0.350057 0.610599 0.333208
-0.346852 0.611418 0.333420
-0.342374 0.609997 0.332797
-0.338686 0.610041 0.332708
-0.335034 0.610197 0.332653
-0.331608 0.610816 0.332762
-0.328311 0.611723 0.332972
-0.325318 0.613260 0.333407
-0.320767 0.611817 0.332742
-0.315965 0.609852 0.331881
-0.312851 0.611211 0.332240
-0.309909 0.612949 0.332735
-0.305746 0.612228 0.332325
-0.301438 0.611174 0.331791
-0.298114 0.612140 0.331998
-0.293632 0.610651 0.331305
-0.290303 0.611578 0.331497
-0.285509 0.609304 0.330518
-0.282454 0.610784 0.330913
-0.279284 0.612012 0.331217
-0.275673 0.612233 0.331154
-0.271732 0.611661 0.330803
-0.267591 0.610564 0.330262
-0.264340 0.611500 0.330466
-0.260733 0.611564 0.330353
-0.257106 0.611537 0.330210
-0.253677 0.611949 0.330229
-0.249938 0.611548 0.329955
-0.246243 0.611201 0.329702
-0.242668 0.611103 0.329544
-0.239455 0.611903 0.329715
-0.235702 0.611244 0.329358
-0.232755 0.612691 0.329768
-0.229727 0.613913 0.330099
-0.226139 0.613564 0.329864
-0.222379 0.612669 0.329433
-0.218148 0.610341 0.328487
-0.215041 0.611179 0.328690
-0.211808 0.611620 0.328752
-0.208497 0.611793 0.328720
-0.205012 0.611394 0.328484
-0.201983 0.612360 0.328743
-0.198862 0.613021 0.328895
-0.195409 0.612587 0.328654
-0.192166 0.612787 0.328645
-0.188675 0.612121 0.328325
-0.185491 0.612436 0.328362
-0.182160 0.612211 0.328207
-0.179051 0.612722 0.328319
-0.175795 0.612681 0.328235
-0.172247 0.611530 0.327753
-0.169149 0.611979 0.327850
-0.166135 0.612732 0.328058
-0.163119 0.613469 0.328262
-0.159955 0.613612 0.328255
-0.156848 0.613957 0.328322
-0.153463 0.613128 0.327969
-0.150427 0.613709 0.328125
-0.147520 0.614842 0.328481
-0.144323 0.614712 0.328385
-0.140835 0.613221 0.327802
-0.137679 0.613172 0.327738
-0.134758 0.614206 0.328065
-0.131720 0.614691 0.328197
-0.128686 0.615193 0.328336
-0.125366 0.614226 0.327949
-0.122190 0.613941 0.327809
-0.119093 0.614041 0.327808
-0.115782 0.612924 0.327372
-0.112909 0.614231 0.327808
-0.109661 0.613378 0.327469
-0.106520 0.613096 0.327337
-0.103410 0.612966 0.327260
-0.100510 0.614167 0.327662
-0.097444 0.614314 0.327687
-0.094426 0.614781 0.327828
-0.091313 0.614578 0.327730
-0.088154 0.614002 0.327499
-0.084863 0.612340 0.326880
-0.081886 0.613046 0.327111
-0.078974 0.614331 0.327550
-0.075873 0.614070 0.327436
-0.072836 0.614338 0.327512
-0.069756 0.614214 0.327449
-0.066729 0.614578 0.327562
-0.063633 0.614251 0.327427
-0.060551 0.614023 0.327330
-0.057471 0.613766 0.327222
-0.054444 0.614131 0.327338
-0.051318 0.613217 0.326997
-0.048365 0.614615 0.327484
-0.045264 0.613951 0.327233
-0.042183 0.613491 0.327057
-0.039142 0.613655 0.327104
-0.036098 0.613791 0.327142
-0.032873 0.609950 0.325758
-0.029901 0.611405 0.326269
-0.027011 0.615560 0.327746
-0.024064 0.619185 0.329035
-0.021143 0.625227 0.331188
-0.017819 0.614679 0.327408
-0.014758 0.614210 0.327233
-0.011709 0.614308 0.327262
-0.008656 0.614061 0.327168
-0.005601 0.609253 0.325443
-0.002571 0.610162 0.325763
0.000512 0.615952 0.327830
0.003605 0.618264 0.328653
0.006673 0.618049 0.328573
0.009734 0.617609 0.328413
0.012894 0.620778 0.329544
0.015864 0.617326 0.328308
0.018786 0.613514 0.326943
0.021970 0.616560 0.328032
0.025050 0.616830 0.328128
0.028007 0.614720 0.327374
0.030916 0.612134 0.326451
0.033960 0.612077 0.326432
0.037120 0.613712 0.327018
0.040578 0.619182 0.328977
0.043748 0.620251 0.329363
0.046739 0.619032 0.328931
0.049686 0.617438 0.328365
0.052878 0.618624 0.328794
0.056364 0.622671 0.330247
0.059557 0.623468 0.330539
0.062851 0.625115 0.331135
0.066215 0.627218 0.331895
0.068598 0.620816 0.329614
0.070888 0.614154 0.327240
0.073877 0.613460 0.327001
0.076785 0.612194 0.326559
0.079771 0.611561 0.326345
0.082753 0.610937 0.326134
0.085418 0.608187 0.325163
0.088739 0.609886 0.325785
0.092698 0.615502 0.327810
0.096353 0.618885 0.329037
0.099622 0.619746 0.329362
0.102440 0.617933 0.328732
0.104549 0.612224 0.326707
0.107686 0.612421 0.326798
0.110742 0.612151 0.326723
0.112867 0.607057 0.324921
0.115790 0.606228 0.324648
0.121911 0.621137 0.330013
0.125075 0.621115 0.330032
0.127384 0.617067 0.328609
0.130188 0.615442 0.328057
0.133444 0.615891 0.328248
0.137661 0.620492 0.329929
0.140302 0.618126 0.329115
0.142187 0.612677 0.327197
0.146028 0.615433 0.328221
0.148997 0.614556 0.327945
0.152241 0.614761 0.328059
0.155019 0.613139 0.327519
0.158579 0.614498 0.328050
0.160545 0.609875 0.326436
0.164296 0.611881 0.327203
0.167654 0.612377 0.327430
0.172453 0.617861 0.329451
0.175242 0.616212 0.328912
0.177897 0.614132 0.328220
0.181184 0.614189 0.328298
0.186765 0.621675 0.331049
0.189947 0.610673 0.327219
0.193385 0.611106 0.327441
0.196428 0.610285 0.327214
0.199814 0.610478 0.327354
0.202785 0.609400 0.327039
0.205421 0.607346 0.326375
0.208298 0.606006 0.325970
0.214886 0.615093 0.329327
0.219488 0.618362 0.330590
0.223161 0.618959 0.330893
0.225329 0.615454 0.329718
0.226023 0.608110 0.327159
0.228926 0.606692 0.326741
0.231980 0.605658 0.326464
0.234526 0.603324 0.325720
0.241646 0.612422 0.329113
0.244463 0.610634 0.328572
0.245655 0.604910 0.326609
0.248747 0.603840 0.326332
0.252846 0.605131 0.326913
0.258027 0.608855 0.328380
0.261308 0.608074 0.328216
0.263671 0.605191 0.327292
0.265985 0.602231 0.326341
0.269844 0.602709 0.326640
0.273893 0.603546 0.327073
0.276750 0.601758 0.326553
0.281777 0.604574 0.327711
0.282449 0.598172 0.325513
0.287685 0.601316 0.326794
0.291754 0.601970 0.327170
0.296129 0.603188 0.327753
0.303581 0.610462 0.330549
0.312227 0.619874 0.334130
0.308711 0.605448 0.328997
0.314041 0.608296 0.330179
0.317803 0.608091 0.330243
0.320646 0.606161 0.329673
0.322966 0.603303 0.328761
0.328434 0.606258 0.329977
0.334156 0.609609 0.331337
0.339901 0.612933 0.332684
0.347413 0.619317 0.335152
0.345579 0.609264 0.331575
0.347638 0.606178 0.330550
0.351356 0.606027 0.330599
0.351025 0.599071 0.328135
0.353614 0.597191 0.327530
0.352137 0.588662 0.324468
0.354658 0.586916 0.323894
0.360033 0.589897 0.325053
0.351613 0.570699 0.318025
-0.367165 0.610370 0.329921
-0.362593 0.608473 0.329188
-0.359142 0.608553 0.329166
-0.356283 0.609744 0.329538
-0.352770 0.609878 0.329516
-0.349041 0.609693 0.329369
-0.343520 0.606341 0.328061
-0.341352 0.609068 0.328957
-0.338008 0.609739 0.329098
-0.334991 0.611074 0.329474
-0.331943 0.612417 0.329845
-0.328647 0.613346 0.330061
-0.324290 0.612274 0.329547
-0.321050 0.613369 0.329813
-0.316108 0.611140 0.328873
-0.312612 0.611747 0.328957
-0.308549 0.611220 0.328628
-0.304657 0.611022 0.328417
-0.301004 0.611302 0.328377
-0.297119 0.611082 0.328156
-0.293690 0.611807 0.328276
-0.290153 0.612290 0.328309
-0.285416 0.610134 0.327391
-0.282269 0.611412 0.327711
-0.279075 0.612580 0.327992
-0.275800 0.613559 0.328207
-0.271957 0.613215 0.327946
-0.267724 0.611905 0.327342
-0.264021 0.611775 0.327163
-0.260515 0.612068 0.327138
-0.256614 0.611361 0.326757
-0.253407 0.612301 0.326969
-0.250069 0.612897 0.327059
-0.246140 0.611952 0.326601
-0.242973 0.612904 0.326824
-0.239326 0.612573 0.326590
-0.235795 0.612495 0.326450
-0.232350 0.612597 0.326378
-0.228543 0.611657 0.325935
-0.225505 0.612787 0.326235
-0.222038 0.612688 0.326098
-0.218077 0.611117 0.325439
-0.214795 0.611433 0.325456
-0.211651 0.612124 0.325609
-0.208283 0.612113 0.325515
-0.204981 0.612259 0.325479
-0.201691 0.612406 0.325446
-0.198600 0.613142 0.325625
-0.195073 0.612451 0.325299
-0.191947 0.613013 0.325421
-0.188815 0.613531 0.325529
-0.185214 0.612426 0.325064
-0.182178 0.613205 0.325269
-0.178990 0.613434 0.325282
-0.175616 0.612959 0.325047
-0.172115 0.611959 0.324628
-0.168944 0.612121 0.324624
-0.165978 0.613037 0.324889
-0.162914 0.613573 0.325020
-0.159827 0.614000 0.325115
-0.156529 0.613554 0.324903
-0.153312 0.613393 0.324794
-0.150068 0.613073 0.324630
-0.146772 0.612484 0.324373
-0.143800 0.613270 0.324604
-0.140705 0.613505 0.324642
-0.137626 0.613793 0.324700
-0.134555 0.614108 0.324769
-0.131222 0.613128 0.324382
-0.128426 0.614753 0.324917
-0.125227 0.614371 0.324745
-0.122093 0.614281 0.324676
-0.118941 0.614062 0.324564
-0.115552 0.612490 0.323975
-0.112394 0.612121 0.323812
-0.109437 0.612887 0.324052
-0.106499 0.613799 0.324344
-0.103539 0.614606 0.324601
-0.100336 0.613866 0.324312
-0.097386 0.614748 0.324597
-0.094356 0.615116 0.324701
-0.091159 0.614290 0.324385
-0.087990 0.613590 0.324115
-0.084968 0.613954 0.324221
-0.081819 0.613308 0.323971
-0.078756 0.613306 0.323950
-0.075830 0.614487 0.324347
-0.072509 0.612147 0.323503
-0.069583 0.613347 0.323908
-0.066527 0.613343 0.323890
-0.063577 0.614436 0.324259
-0.060498 0.614202 0.324161
-0.057400 0.613696 0.323967
-0.054340 0.613595 0.323917
-0.051379 0.614786 0.324324
-0.048333 0.614904 0.324352
-0.045155 0.613020 0.323676
-0.042091 0.612691 0.323548
-0.039093 0.613494 0.323820
-0.035999 0.612521 0.323467
-0.032869 0.610541 0.322759
-0.029882 0.611614 0.323127
-0.026926 0.613817 0.323895
-0.024089 0.620625 0.326287
-0.021076 0.623200 0.327186
-0.017846 0.616536 0.324830
-0.014754 0.614411 0.324075
-0.011707 0.614465 0.324087
-0.008660 0.614537 0.324107
-0.005606 0.609529 0.322337
-0.002568 0.613139 0.323604
0.000490 0.614879 0.324213
0.003583 0.617967 0.325297
0.006678 0.619464 0.325821
0.009807 0.621757 0.326626
0.012862 0.620682 0.326245
0.015892 0.619135 0.325698
0.018878 0.616844 0.324889
0.021922 0.616397 0.324731
0.025039 0.617533 0.325131
0.028032 0.616113 0.324630
0.030936 0.613398 0.323674
0.033926 0.612446 0.323339
0.037156 0.615140 0.324290
0.040439 0.618190 0.325367
0.043487 0.617808 0.325235
0.046581 0.618032 0.325317
0.049481 0.615998 0.324604
0.052650 0.617064 0.324984
0.056053 0.620388 0.326161
0.059373 0.622579 0.326938
0.062783 0.625385 0.327933
0.066120 0.627275 0.328606
0.068844 0.623794 0.327388
0.070679 0.613333 0.323709
0.073692 0.612896 0.323564
0.076695 0.612390 0.323395
0.079689 0.611842 0.323213
0.082767 0.611911 0.323248
0.085250 0.607922 0.321854
0.088592 0.609803 0.322530
0.092646 0.616054 0.324748
0.096330 0.619633 0.326025
0.099606 0.620543 0.326362
0.102598 0.619742 0.326096
0.104242 0.611381 0.323165
0.107279 0.611081 0.323078
0.110411 0.611277 0.323167
0.113025 0.608759 0.322300
0.115316 0.604716 0.320895
0.122325 0.624087 0.327754
0.124121 0.617442 0.325433
0.127620 0.619079 0.326037
0.130518 0.617858 0.325634
0.134669 0.622280 0.327223
0.136332 0.615594 0.324893
0.139931 0.617456 0.325582
0.142642 0.615495 0.324922
0.145776 0.615321 0.324895
0.148882 0.615012 0.324822
0.151683 0.613490 0.324322
0.154555 0.612273 0.323931
0.157529 0.611461 0.323684
0.160997 0.612477 0.324086
0.161759 0.603587 0.320986
0.165587 0.605936 0.321863
0.170723 0.612748 0.324320
0.174566 0.614836 0.325109
0.177643 0.614225 0.324945
0.181282 0.615466 0.325438
0.186041 0.620285 0.327200
0.194517 0.636818 0.333116
0.189634 0.610647 0.323905
0.192728 0.610035 0.323751
0.196121 0.610317 0.323915
0.199215 0.609654 0.323747
0.202467 0.609436 0.323739
0.204638 0.606048 0.322608
0.206669 0.602323 0.321359
0.210086 0.602575 0.321524
0.217664 0.614311 0.325771
0.223222 0.620137 0.327924
0.226690 0.620122 0.328004
0.225446 0.607581 0.323632
0.228666 0.607017 0.323521
0.231276 0.604855 0.322843
0.233699 0.602234 0.322004
0.240562 0.610738 0.325130
0.244710 0.612270 0.325776
0.246040 0.606866 0.323952
0.247575 0.602056 0.322342
0.251733 0.603530 0.322975
0.256373 0.606039 0.323981
0.262383 0.611585 0.326075
0.264717 0.608601 0.325126
0.267761 0.607239 0.324757
0.271125 0.606575 0.324640
0.274231 0.605324 0.324314
0.275578 0.600281 0.322632
0.276685 0.594819 0.320799
0.280688 0.595523 0.321178
0.286805 0.600542 0.323107
0.293156 0.605878 0.325154
0.297118 0.606230 0.325413
0.303648 0.611655 0.327497
0.313865 0.624168 0.332134
0.308955 0.606969 0.326079
0.312841 0.607042 0.326239
0.316758 0.607154 0.326412
0.319823 0.605655 0.326003
0.323366 0.605069 0.325921
0.328210 0.606872 0.326699
0.333748 0.609894 0.327915
0.338215 0.610938 0.328414
0.344670 0.615487 0.330176
0.343583 0.606767 0.327135
0.346085 0.604470 0.326409
0.349317 0.603504 0.326159
0.353887 0.604860 0.326744
0.356715 0.603312 0.326269
0.348648 0.583774 0.319262
0.353085 0.585213 0.319852
0.361114 0.592525 0.322564
0.350626 0.569936 0.314416
-0.365885 0.609018 0.325936
-0.362328 0.608853 0.325835
-0.358992 0.609144 0.325887
-0.355967 0.610059 0.326154
-0.353108 0.611356 0.326549
-0.348216 0.609120 0.325670
-0.344455 0.608933 0.325517
-0.340482 0.608406 0.325235
-0.337628 0.609976 0.325696
-0.334754 0.611585 0.326165
-0.331095 0.611783 0.326124
-0.327959 0.613009 0.326445
-0.323869 0.612444 0.326122
-0.319175 0.610699 0.325374
-0.316052 0.612025 0.325719
-0.312651 0.612828 0.325874
-0.307656 0.610418 0.324884
-0.304213 0.611122 0.325000
-0.300278 0.610808 0.324753
-0.297004 0.611858 0.324991
-0.293605 0.612646 0.325135
-0.290052 0.613096 0.325159
-0.286171 0.612809 0.324922
-0.281673 0.611111 0.324186
-0.278935 0.613288 0.324824
-0.274964 0.612679 0.324477
-0.271183 0.612449 0.324265
-0.267185 0.611662 0.323859
-0.264013 0.612772 0.324125
-0.259482 0.610593 0.323231
-0.256234 0.611441 0.323409
-0.253022 0.612357 0.323613
-0.249457 0.612361 0.323497
-0.246252 0.613238 0.323692
-0.242643 0.613046 0.323512
-0.239001 0.612712 0.323285
-0.235004 0.611373 0.322706
-0.231513 0.611313 0.322581
-0.228430 0.612326 0.322836
-0.224930 0.612156 0.322677
-0.221785 0.612943 0.322858
-0.218358 0.612892 0.322746
-0.214710 0.612145 0.322392
-0.211517 0.612682 0.322492
-0.208197 0.612807 0.322449
-0.204844 0.612788 0.322359
-0.201644 0.613203 0.322423
-0.197987 0.612131 0.321969
-0.194984 0.613098 0.322231
-0.191840 0.613591 0.322329
-0.188102 0.612065 0.321723
-0.184842 0.612078 0.321658
-0.182223 0.614280 0.322361
-0.178995 0.614364 0.322325
-0.175109 0.612034 0.321447
-0.172169 0.613065 0.321746
-0.168961 0.613086 0.321694
-0.165838 0.613401 0.321747
-0.162870 0.614294 0.322004
-0.159587 0.613934 0.321824
-0.156457 0.614148 0.321847
-0.153186 0.613749 0.321658
-0.149861 0.613068 0.321373
-0.146733 0.613184 0.321366
-0.143656 0.613498 0.321431
-0.140642 0.614082 0.321591
-0.137496 0.614052 0.321539
-0.134326 0.613873 0.321436
-0.130915 0.612479 0.320912
-0.128239 0.614668 0.321637
-0.124927 0.613675 0.321255
-0.121866 0.613927 0.321308
-0.118893 0.614640 0.321523
-0.115706 0.614179 0.321331
-0.112286 0.612325 0.320655
-0.109218 0.612421 0.320658
-0.106505 0.614659 0.321409
-0.103384 0.614452 0.321309
-0.100216 0.613905 0.321093
-0.097135 0.613881 0.321059
-0.094001 0.613466 0.320890
-0.090941 0.613530 0.320889
-0.087928 0.613933 0.321007
-0.084891 0.614159 0.321064
-0.081919 0.614905 0.321303
-0.078737 0.613934 0.320945
-0.075627 0.613498 0.320775
-0.072533 0.613144 0.320634
-0.069472 0.613054 0.320585
-0.066410 0.612939 0.320529
-0.063405 0.613389 0.320669
-0.060386 0.613709 0.320765
-0.057307 0.613357 0.320629
-0.054287 0.613677 0.320726
-0.051264 0.613994 0.320823
-0.048120 0.612604 0.320328
-0.045009 0.611497 0.319931
-0.042133 0.614101 0.320824
-0.039078 0.613920 0.320751
-0.036014 0.613517 0.320600
-0.032862 0.611078 0.319744
-0.029869 0.611964 0.320042
-0.026989 0.616252 0.321522
-0.024118 0.622225 0.323589
-0.021078 0.623880 0.324155
-0.017951 0.622116 0.323535
-0.014744 0.614210 0.320783
-0.011708 0.614832 0.320993
-0.008659 0.614320 0.320810
-0.005613 0.611251 0.319739
-0.002580 0.612421 0.320140
0.000490 0.616392 0.321514
0.003562 0.617658 0.321950
0.006670 0.620179 0.322821
0.009771 0.621322 0.323215
0.012836 0.620781 0.323024
0.015853 0.618988 0.322399
0.018926 0.619069 0.322426
0.021969 0.618433 0.322203
0.025012 0.617912 0.322022
0.027967 0.615812 0.321292
0.030912 0.613900 0.320629
0.033960 0.613885 0.320624
0.037058 0.614605 0.320875
0.040235 0.616297 0.321464
0.043237 0.615500 0.321189
0.046196 0.614277 0.320767
0.049387 0.615815 0.321304
0.052818 0.619759 0.322677
0.056025 0.620991 0.323109
0.058960 0.619449 0.322579
0.061714 0.616352 0.321509
0.065771 0.625068 0.324541
0.068347 0.620453 0.322946
0.070555 0.613193 0.320432
0.073428 0.611692 0.319919
0.076531 0.612022 0.320043
0.079733 0.613034 0.320403
0.082446 0.610525 0.319542
0.085259 0.608844 0.318969
0.088926 0.612856 0.320375
0.092881 0.618423 0.322321
0.096414 0.621035 0.323242
0.099878 0.623057 0.323959
0.102729 0.621389 0.323395
0.104154 0.611765 0.320068
0.107169 0.611357 0.319944
0.110110 0.610555 0.319683
0.113064 0.609841 0.319454
0.115107 0.604530 0.317629
0.118137 0.604333 0.317582
0.124184 0.618640 0.322578
0.128119 0.622323 0.323882
0.131396 0.622789 0.324070
0.131425 0.608651 0.319180
0.136864 0.618824 0.322746
0.139522 0.616610 0.322005
0.142550 0.616013 0.321828
0.145639 0.615665 0.321739
0.148462 0.614235 0.321275
0.152442 0.617393 0.322409
0.155555 0.617049 0.322326
0.157584 0.612583 0.320809
0.159564 0.608077 0.319280
0.163247 0.609915 0.319961
0.165555 0.606736 0.318897
0.170300 0.612195 0.320844
0.173634 0.612561 0.321018
0.177132 0.613436 0.321371
0.181576 0.617388 0.322800
0.186315 0.622135 0.324509
0.189451 0.621535 0.324355
0.189323 0.610615 0.320601
0.192337 0.609771 0.320365
0.195654 0.609845 0.320452
0.199050 0.610115 0.320609
0.202104 0.609326 0.320398
0.205002 0.608067 0.320026
0.206504 0.602810 0.318257
0.209825 0.602803 0.318326
0.214162 0.605576 0.319370
0.223287 0.621313 0.324953
0.227937 0.624485 0.326145
0.225503 0.608721 0.320708
0.228666 0.608007 0.320542
0.232136 0.608060 0.320647
0.234056 0.604130 0.319359
0.240683 0.612049 0.322228
0.244494 0.612751 0.322569
0.246508 0.609013 0.321354
0.247680 0.603314 0.319453
0.250037 0.600529 0.318575
0.258773 0.612660 0.322944
0.262067 0.611888 0.322781
0.266043 0.612643 0.323157
0.267751 0.608248 0.321722
0.270342 0.605877 0.321001
0.274528 0.607004 0.321514
0.277018 0.604408 0.320717
0.277295 0.597132 0.318269
0.280335 0.595801 0.317919
0.289420 0.606988 0.321993
0.293886 0.608410 0.322621
0.296160 0.605334 0.321659
0.300735 0.606894 0.322337
0.308352 0.606832 0.322570
0.311918 0.606301 0.322509
0.316070 0.606878 0.322840
0.319651 0.606356 0.322779
0.322694 0.604840 0.322365
0.326758 0.605227 0.322623
0.332673 0.608959 0.324069
0.338472 0.612405 0.325411
0.341233 0.610405 0.324812
0.343535 0.607665 0.323944
0.346328 0.605860 0.323403
0.350349 0.606228 0.323631
0.352855 0.604054 0.322946
0.357788 0.606043 0.323739
0.357411 0.599218 0.321379
0.357546 0.593426 0.319379
0.355415 0.584116 0.316113
0.365044 0.594017 0.319699
-0.366348 0.610622 0.323018
-0.361605 0.608446 0.322208
-0.358463 0.609077 0.322379
-0.356212 0.611353 0.323122
-0.352026 0.610325 0.322691
-0.348613 0.610721 0.322754
-0.344506 0.609929 0.322391
-0.340508 0.609370 0.322104
-0.337421 0.610525 0.322413
-0.334310 0.611699 0.322723
-0.330788 0.612156 0.322776
-0.326811 0.611782 0.322532
-0.322313 0.610408 0.321932
-0.319409 0.612134 0.322418
-0.316206 0.613316 0.322710
-0.312586 0.613691 0.322716
-0.307287 0.610663 0.321527
-0.303648 0.610961 0.321503
-0.300169 0.611583 0.321592
-0.296707 0.612238 0.321691
-0.293350 0.613109 0.321866
-0.289916 0.613811 0.321981
-0.285740 0.612872 0.321524
-0.281788 0.612374 0.321222
-0.277807 0.611759 0.320881
-0.274378 0.612347 0.320960
-0.270658 0.612239 0.320799
-0.267127 0.612529 0.320778
-0.263417 0.612355 0.320597
-0.259760 0.612259 0.320445
-0.255954 0.611749 0.320152
-0.252464 0.611962 0.320113
-0.249021 0.612254 0.320103
-0.245717 0.612859 0.320204
-0.242306 0.613155 0.320200
-0.238503 0.612380 0.319827
-0.234877 0.612006 0.319595
-0.231501 0.612250 0.319581
-0.228100 0.612383 0.319530
-0.224770 0.612671 0.319536
-0.220088 0.609075 0.318200
-0.217265 0.610687 0.318669
-0.214673 0.612986 0.319377
-0.211384 0.613232 0.319377
-0.208166 0.613655 0.319442
-0.204821 0.613654 0.319361
-0.201270 0.612961 0.319045
-0.197516 0.611555 0.318485
-0.194611 0.612810 0.318845
-0.191216 0.612451 0.318651
-0.187681 0.611562 0.318276
-0.184830 0.612947 0.318687
-0.181299 0.611966 0.318285
-0.178848 0.614745 0.319180
-0.175110 0.612937 0.318497
-0.171907 0.612991 0.318457
-0.169135 0.614630 0.318965
-0.165839 0.614287 0.318793
-0.162111 0.612206 0.318024
-0.159431 0.614187 0.318654
-0.155899 0.612744 0.318109
-0.152968 0.613710 0.318394
-0.149815 0.613740 0.318358
-0.146699 0.613898 0.318368
-0.143674 0.614437 0.318510
-0.140273 0.613257 0.318064
-0.137288 0.613931 0.318255
-0.134233 0.614272 0.318334
-0.130964 0.613558 0.318052
-0.127646 0.612533 0.317665
-0.124603 0.612843 0.317737
-0.121676 0.613750 0.318015
-0.118476 0.613206 0.317797
-0.115620 0.614524 0.318218
-0.112206 0.612688 0.317559
-0.109126 0.612694 0.317533
-0.106225 0.613768 0.317874
-0.103152 0.613804 0.317860
-0.100096 0.613930 0.317878
-0.097078 0.614295 0.317979
-0.093940 0.613838 0.317799
-0.090745 0.612915 0.317460
-0.087692 0.612961 0.317454
-0.084806 0.614284 0.317887
-0.081562 0.612820 0.317366
-0.078726 0.614624 0.317965
-0.075691 0.614833 0.318018
-0.072599 0.614519 0.317893
-0.069445 0.613561 0.317549
-0.066387 0.613466 0.317500
-0.063344 0.613498 0.317496
-0.060301 0.613518 0.317488
-0.057248 0.613403 0.317435
-0.054210 0.613452 0.317438
-0.051177 0.613567 0.317465
-0.048112 0.613216 0.317332
-0.045077 0.613259 0.317335
-0.042077 0.613882 0.317538
-0.039119 0.615376 0.318038
-0.035984 0.613619 0.317427
-0.032800 0.610383 0.316310
-0.029858 0.612336 0.316969
-0.027041 0.618344 0.319016
-0.024141 0.623584 0.320800
-0.021094 0.625083 0.321305
-0.017942 0.622208 0.320315
-0.014745 0.614679 0.317733
-0.011692 0.613571 0.317347
-0.008654 0.613192 0.317212
-0.005618 0.611644 0.316677
-0.002582 0.614155 0.317531
0.000507 0.619747 0.319439
0.003587 0.620682 0.319754
0.006632 0.619283 0.319272
0.009718 0.620140 0.319561
0.012757 0.619046 0.319184
0.015786 0.617963 0.318811
0.018901 0.619371 0.319291
0.021979 0.619612 0.319371
0.024975 0.618072 0.318844
0.027890 0.615282 0.317889
0.030846 0.613672 0.317338
0.033954 0.614699 0.317689
0.036883 0.612929 0.317084
0.039941 0.613147 0.317160
0.042823 0.611079 0.316454
0.045931 0.611958 0.316757
0.049208 0.614655 0.317682
0.052799 0.620434 0.319661
0.055909 0.620682 0.319749
0.058888 0.619621 0.319390
0.061916 0.619102 0.319218
0.065111 0.620086 0.319559
0.067987 0.618268 0.318944
0.070311 0.612066 0.316829
0.073177 0.610588 0.316331
0.076360 0.611593 0.316682
0.079430 0.611693 0.316725
0.082304 0.610387 0.316287
0.085286 0.609887 0.316126
0.088461 0.610672 0.316405
0.092677 0.617999 0.318924
0.096341 0.621460 0.320120
0.099279 0.620359 0.319757
0.102508 0.620985 0.319985
0.104158 0.612654 0.317149
0.107048 0.611562 0.316791
0.110040 0.611046 0.316632
0.112719 0.608914 0.315920
0.115369 0.606725 0.315189
0.120371 0.616235 0.318464
0.123776 0.617560 0.318939
0.125489 0.610846 0.316662
0.128671 0.611170 0.316797
0.132000 0.612112 0.317143
0.135234 0.612570 0.317326
0.139325 0.616661 0.318755
0.142043 0.614780 0.318139
0.144796 0.613099 0.317593
0.147927 0.612982 0.317583
0.151971 0.616444 0.318803
0.156071 0.619955 0.320040
0.157550 0.613361 0.317815
0.160520 0.612536 0.317569
0.164848 0.616662 0.319023
0.167325 0.613980 0.318144
0.170364 0.613338 0.317966
0.174023 0.614825 0.318520
0.176387 0.611838 0.317540
0.179834 0.612525 0.317823
0.185121 0.619177 0.320157
0.188618 0.619805 0.320424
0.189470 0.612016 0.317802
0.191735 0.608839 0.316765
0.195357 0.609880 0.317179
0.198634 0.609810 0.317214
0.202441 0.611272 0.317778
0.205097 0.609297 0.317162
0.207456 0.606488 0.316260
0.210974 0.607000 0.316504
0.215499 0.610251 0.317693
0.222876 0.621177 0.321530
0.228707 0.627559 0.323806
0.225500 0.609689 0.317724
0.228542 0.608661 0.317448
0.231277 0.606826 0.316897
0.234184 0.605438 0.316502
0.239826 0.610898 0.318474
0.243470 0.611221 0.318674
0.246715 0.610518 0.318524
0.247699 0.604353 0.316486
0.249764 0.600874 0.315378
0.257580 0.610887 0.318941
0.263493 0.616196 0.320881
0.263649 0.608218 0.318223
0.265016 0.603126 0.316563
0.269615 0.605283 0.317418
0.272696 0.604022 0.317091
0.278085 0.607727 0.318488
0.281156 0.606361 0.318127
0.284653 0.605883 0.318077
0.287819 0.604695 0.317780
0.292542 0.606687 0.318591
0.294845 0.603699 0.317670
0.299135 0.604724 0.318147
0.309071 0.616834 0.322488
0.307829 0.606836 0.319124
0.310518 0.604626 0.318474
0.314919 0.605708 0.318971
0.319074 0.606287 0.319292
0.322562 0.605601 0.319170
0.325906 0.604665 0.318958
0.332766 0.610129 0.320982
0.337686 0.611994 0.321746
0.342010 0.612773 0.322127
0.344038 0.609523 0.321091
0.346596 0.607287 0.320406
0.349726 0.606110 0.320086
0.352489 0.604372 0.319563
0.356077 0.604097 0.319546
0.361304 0.606602 0.320499
0.357448 0.594150 0.316192
0.365703 0.601753 0.318920
0.364667 0.594266 0.316338
-0.366087 0.610998 0.319666
-0.359940 0.606419 0.318034
-0.357338 0.607973 0.318522
-0.354835 0.609804 0.319099
-0.352649 0.612304 0.319899
-0.348218 0.610904 0.319339
-0.344014 0.609939 0.318923
-0.340440 0.610158 0.318911
-0.336949 0.610577 0.318963
-0.334130 0.612299 0.319460
-0.329203 0.610106 0.318597
-0.325349 0.609939 0.318431
-0.321974 0.610713 0.318587
-0.318986 0.612274 0.319011
-0.315991 0.613866 0.319443
-0.311933 0.613362 0.319148
-0.307185 0.611437 0.318363
-0.303521 0.611683 0.318325
-0.299874 0.611957 0.318296
-0.296358 0.612493 0.318357
-0.293035 0.613432 0.318556
-0.288005 0.610666 0.317481
-0.284879 0.611977 0.317809
-0.281400 0.612503 0.317868
-0.277464 0.611978 0.317567
-0.273894 0.612234 0.317536
-0.270353 0.612523 0.317517
-0.266886 0.612951 0.317547
-0.263380 0.613253 0.317536
-0.259022 0.611460 0.316810
-0.255666 0.612025 0.316893
-0.252120 0.612083 0.316805
-0.248478 0.611856 0.316622
-0.245266 0.612675 0.316798
-0.241558 0.612180 0.316528
-0.238169 0.612463 0.316525
-0.234836 0.612855 0.316563
-0.231226 0.612458 0.316333
-0.227641 0.612068 0.316108
-0.223973 0.611385 0.315786
-0.219955 0.609635 0.315104
-0.216805 0.610292 0.315243
-0.214095 0.612223 0.315818
-0.211313 0.613950 0.316325
-0.207618 0.612919 0.315897
-0.204233 0.612762 0.315768
-0.200224 0.610594 0.314958
-0.197639 0.612860 0.315657
-0.194050 0.611896 0.315260
-0.190631 0.611421 0.315032
-0.187402 0.611524 0.315003
-0.183902 0.610662 0.314647
-0.180793 0.611091 0.314732
-0.177892 0.612237 0.315062
-0.175292 0.614479 0.315765
-0.172014 0.614268 0.315638
-0.168504 0.613133 0.315200
-0.165230 0.612825 0.315044
-0.161778 0.611769 0.314636
-0.158606 0.611753 0.314582
-0.155502 0.611985 0.314614
-0.152397 0.612187 0.314637
-0.149554 0.613481 0.315032
-0.146655 0.614558 0.315354
-0.143455 0.614310 0.315229
-0.140121 0.613405 0.314884
-0.137038 0.613602 0.314913
-0.133858 0.613319 0.314781
-0.130577 0.612493 0.314467
-0.127717 0.613716 0.314846
-0.124633 0.613818 0.314848
-0.121254 0.612340 0.314317
-0.118075 0.611842 0.314118
-0.115196 0.612970 0.314470
-0.112231 0.613641 0.314669
-0.109198 0.613922 0.314736
-0.105996 0.613175 0.314458
-0.102944 0.613294 0.314473
-0.100037 0.614346 0.314804
-0.097004 0.614592 0.314864
-0.093743 0.613260 0.314392
-0.090673 0.613183 0.314345
-0.087806 0.614594 0.314801
-0.084389 0.611834 0.313850
-0.081680 0.614539 0.314743
-0.078703 0.615202 0.314948
-0.075660 0.615329 0.314974
-0.072464 0.614048 0.314525
-0.069394 0.613833 0.314436
-0.066386 0.614204 0.314546
-0.063360 0.614411 0.314601
-0.060252 0.613708 0.314350
-0.057202 0.613598 0.314299
-0.054165 0.613626 0.314296
-0.051135 0.613721 0.314316
-0.048076 0.613411 0.314199
-0.044986 0.612567 0.313903
-0.042014 0.613531 0.314218
-0.038965 0.613273 0.314120
-0.035900 0.612614 0.313888
-0.032772 0.610414 0.313138
-0.029844 0.612636 0.313878
-0.026987 0.617468 0.315497
-0.024130 0.623818 0.317628
-0.021107 0.626147 0.318405
-0.017853 0.618396 0.315787
-0.014748 0.615304 0.314739
-0.011711 0.615549 0.314815
-0.008647 0.611804 0.313547
-0.005623 0.610704 0.313171
-0.002597 0.612574 0.313796
0.000518 0.622490 0.317131
0.003567 0.620512 0.316460
0.006567 0.616917 0.315246
0.009656 0.618571 0.315799
0.012746 0.619697 0.316175
0.015771 0.618486 0.315764
0.018886 0.619964 0.316259
0.022008 0.621232 0.316684
0.024807 0.615509 0.314756
0.027802 0.614550 0.314431
0.030919 0.615834 0.314863
0.033890 0.614571 0.314437
0.037204 0.618542 0.315774
0.039771 0.611693 0.313468
0.042852 0.612318 0.313680
0.045910 0.612575 0.313768
0.048959 0.612681 0.313805
0.052242 0.615298 0.314689
0.055633 0.618727 0.315847
0.058699 0.618648 0.315823
0.061867 0.619510 0.316118
0.064987 0.619856 0.316239
0.067681 0.616521 0.315121
0.070226 0.612230 0.313681
0.073216 0.611748 0.313525
0.076282 0.611860 0.313570
0.079322 0.611760 0.313543
0.082298 0.611199 0.313363
0.085266 0.610606 0.313172
0.088625 0.612604 0.313854
0.092562 0.618132 0.315727
0.095180 0.615168 0.314740
0.099235 0.620967 0.316706
0.102669 0.622795 0.317334
0.103801 0.611498 0.313541
0.107048 0.612420 0.313867
0.109904 0.611187 0.313466
0.112679 0.609569 0.312937
0.115442 0.607952 0.312409
0.120870 0.619576 0.316346
0.123244 0.615875 0.315118
0.126245 0.615280 0.314938
0.128978 0.613456 0.314344
0.132072 0.613313 0.314318
0.135435 0.614333 0.314686
0.138673 0.614743 0.314850
0.141838 0.614807 0.314898
0.144882 0.614343 0.314769
0.147985 0.614107 0.314718
0.151479 0.615397 0.315183
0.154012 0.612886 0.314368
0.157176 0.612840 0.314385
0.161214 0.616020 0.315493
0.164065 0.614712 0.315087
0.167181 0.614371 0.315010
0.171163 0.617061 0.315958
0.175061 0.619328 0.316765
0.175873 0.611006 0.313995
0.178747 0.609820 0.313638
0.184119 0.616825 0.316052
0.187998 0.618745 0.316750
0.189775 0.613910 0.315164
0.191855 0.610139 0.313940
0.194837 0.609220 0.313682
0.197859 0.608410 0.313463
0.201229 0.608620 0.313591
0.204064 0.607224 0.313177
0.207305 0.606994 0.313160
0.212124 0.611198 0.314648
0.216508 0.614017 0.315669
0.220234 0.614904 0.316039
0.229055 0.629489 0.321057
0.225075 0.609523 0.314356
0.228174 0.608663 0.314138
0.230912 0.606850 0.313599
0.233757 0.605318 0.313157
0.238239 0.607894 0.314114
0.242379 0.609507 0.314746
0.245724 0.609087 0.314689
0.249396 0.609419 0.314891
0.252654 0.608715 0.314742
0.257482 0.611658 0.315837
0.261598 0.612829 0.316332
0.264509 0.611179 0.315868
0.265820 0.605930 0.314177
0.267825 0.602315 0.313045
0.271743 0.602938 0.313360
0.274416 0.600811 0.312739
0.280616 0.606219 0.314693
0.284896 0.607406 0.315208
0.287991 0.606061 0.314858
0.290602 0.603718 0.314168
0.294037 0.603071 0.314058
0.301178 0.609822 0.316484
0.305691 0.611182 0.317065
0.308808 0.609758 0.316692
0.311498 0.607522 0.316039
0.315287 0.607414 0.316116
0.318643 0.606477 0.315906
0.321737 0.605063 0.315532
0.324714 0.603463 0.315091
0.331601 0.609004 0.317105
0.336961 0.611682 0.318132
0.341381 0.612639 0.318565
0.346187 0.614268 0.319225
0.343963 0.603668 0.315664
0.348804 0.605470 0.316374
0.352087 0.604620 0.316163
0.355217 0.603569 0.315877
0.361260 0.607441 0.317285
0.370071 0.615854 0.320255
0.376034 0.613509 0.319550
-0.362796 0.606213 0.314555
-0.360068 0.607464 0.314941
-0.356779 0.607844 0.315021
-0.353948 0.609107 0.315394
-0.350933 0.610136 0.315680
-0.347019 0.609640 0.315439
-0.344642 0.611972 0.316155
-0.339477 0.609299 0.315160
-0.336711 0.611052 0.315667
-0.332966 0.611048 0.315570
-0.329027 0.610707 0.315354
-0.324879 0.609979 0.315003
-0.321446 0.610638 0.315120
-0.318540 0.612356 0.315594
-0.315136 0.613132 0.315745
-0.311368 0.613196 0.315652
-0.307082 0.612198 0.315198
-0.302919 0.611417 0.314816
-0.299345 0.611829 0.314838
-0.295844 0.612385 0.314909
-0.292399 0.613050 0.315016
-0.288489 0.612695 0.314778
-0.284830 0.612850 0.314714
-0.281357 0.613389 0.314780
-0.277257 0.612488 0.314361
-0.273421 0.612127 0.314126
-0.269915 0.612482 0.314134
-0.266479 0.612967 0.314187
-0.263108 0.613577 0.314285
-0.258558 0.611304 0.313412
-0.255134 0.611681 0.313435
-0.251432 0.611333 0.313215
-0.247815 0.611141 0.313050
-0.244453 0.611546 0.313089
-0.241034 0.611768 0.313067
-0.237531 0.611725 0.312960
-0.234028 0.611633 0.312837
-0.230405 0.611162 0.312590
-0.227276 0.611996 0.312783
-0.223836 0.611931 0.312677
-0.220499 0.612112 0.312655
-0.216593 0.610603 0.312069
-0.213498 0.611385 0.312254
-0.210418 0.612193 0.312448
-0.207261 0.612744 0.312559
-0.204093 0.613238 0.312653
-0.200752 0.613159 0.312557
-0.197211 0.612392 0.312233
-0.194094 0.612938 0.312350
-0.190614 0.612257 0.312059
-0.187324 0.612148 0.311961
-0.183906 0.611557 0.311704
-0.181054 0.612885 0.312090
-0.177944 0.613299 0.312172
-0.174831 0.613682 0.312246
-0.171705 0.613996 0.312298
-0.168247 0.613030 0.311925
-0.164942 0.612576 0.311725
-0.161760 0.612553 0.311670
-0.158725 0.613083 0.311800
-0.155635 0.613377 0.311854
-0.152372 0.612926 0.311661
-0.149098 0.612376 0.311437
-0.146407 0.614317 0.312043
-0.143253 0.614244 0.311980
-0.140016 0.613760 0.311781
-0.136802 0.613330 0.311602
-0.133737 0.613563 0.311645
-0.130346 0.612179 0.311151
-0.127523 0.613561 0.311579
-0.124537 0.614141 0.311741
-0.121181 0.612764 0.311253
-0.117928 0.611850 0.310920
-0.115177 0.613663 0.311495
-0.112286 0.614756 0.311831
-0.109170 0.614556 0.311739
-0.106104 0.614627 0.311738
-0.102979 0.614304 0.311607
-0.099923 0.614390 0.311612
-0.096766 0.613779 0.311387
-0.093770 0.614225 0.311514
-0.090622 0.613588 0.311282
-0.087414 0.612443 0.310881
-0.084561 0.613932 0.311357
-0.081356 0.612696 0.310929
-0.078517 0.614403 0.311478
-0.075293 0.612868 0.310952
-0.072263 0.612960 0.310966
-0.069273 0.613420 0.311103
-0.066343 0.614521 0.311454
-0.063318 0.614707 0.311501
-0.060206 0.613936 0.311232
-0.057110 0.613245 0.310989
-0.054121 0.613794 0.311159
-0.051120 0.614239 0.311294
-0.048023 0.613368 0.310994
-0.044929 0.612401 0.310662
-0.041917 0.612613 0.310722
-0.038915 0.613049 0.310856
-0.035869 0.612670 0.310721
-0.032793 0.611548 0.310340
-0.029873 0.614006 0.311146
-0.027008 0.618687 0.312691
-0.024063 0.622224 0.313856
-0.021100 0.626457 0.315252
-0.017865 0.619464 0.312926
-0.014751 0.615877 0.311729
-0.011720 0.616585 0.311958
-0.008640 0.610294 0.309865
-0.005627 0.609513 0.309600
-0.002622 0.608470 0.309250
0.000475 0.619132 0.312780
0.003490 0.616119 0.311777
0.006523 0.615689 0.311630
0.009632 0.618626 0.312600
0.012701 0.619122 0.312761
0.015804 0.620457 0.313200
0.018901 0.621299 0.313477
0.021955 0.620940 0.313355
0.024905 0.618467 0.312533
0.027840 0.616163 0.311768
0.031021 0.618477 0.312534
0.034187 0.620178 0.313097
0.036945 0.615615 0.311583
0.040164 0.617981 0.312368
0.043031 0.615491 0.311543
0.045886 0.613148 0.310767
0.048940 0.613330 0.310829
0.052180 0.615486 0.311545
0.055190 0.615055 0.311404
0.058176 0.614403 0.311191
0.061534 0.617275 0.312146
0.065039 0.621188 0.313448
0.067833 0.618678 0.312620
0.070258 0.613346 0.310856
0.073202 0.612487 0.310577
0.076179 0.611933 0.310399
0.079235 0.611978 0.310421
0.082183 0.611242 0.310184
0.085075 0.610154 0.309831
0.088786 0.614517 0.311286
0.092193 0.616641 0.312000
0.095594 0.618583 0.312654
0.099077 0.620882 0.313428
0.102667 0.623648 0.314357
0.103785 0.612263 0.310592
0.106645 0.611062 0.310207
0.109999 0.612551 0.310715
0.112295 0.608422 0.309360
0.115237 0.607767 0.309158
0.120496 0.618596 0.312768
0.124177 0.621250 0.313667
0.126166 0.615773 0.311868
0.128793 0.613471 0.311123
0.132098 0.614297 0.311418
0.135090 0.613688 0.311238
0.138414 0.614504 0.311532
0.141494 0.614235 0.311467
0.144446 0.613425 0.311223
0.148132 0.615580 0.311966
0.151038 0.614538 0.311647
0.153388 0.611352 0.310618
0.156730 0.612032 0.310874
0.160822 0.615451 0.312043
0.163621 0.613985 0.311589
0.166903 0.614271 0.311719
0.172184 0.621562 0.314180
0.174249 0.617429 0.312843
0.176452 0.613876 0.311701
0.179060 0.611768 0.311041
0.183770 0.616596 0.312690
0.188103 0.620006 0.313870
0.189941 0.615354 0.312368
0.191513 0.609990 0.310629
0.194608 0.609435 0.310494
0.197619 0.608607 0.310269
0.201204 0.609471 0.310610
0.205008 0.610908 0.311145
0.205930 0.603970 0.308888
0.212571 0.613403 0.312094
0.216831 0.615865 0.312977
0.222009 0.620733 0.314665
0.226551 0.623692 0.315720
0.224556 0.609089 0.310912
0.227392 0.607563 0.310471
0.230950 0.607903 0.310657
0.234004 0.606904 0.310396
0.237458 0.606895 0.310469
0.241245 0.607665 0.310805
0.245483 0.609470 0.311490
0.249667 0.611050 0.312101
0.253479 0.611653 0.312389
0.255414 0.607794 0.311183
0.260576 0.611458 0.312501
0.264672 0.612542 0.312957
0.267138 0.609883 0.312158
0.269477 0.606968 0.311275
0.271250 0.602843 0.309987
0.274418 0.601799 0.309734
0.276114 0.597597 0.308421
0.283407 0.605266 0.311102
0.288742 0.608623 0.312335
0.289630 0.602715 0.310451
0.294489 0.604982 0.311320
0.300033 0.608532 0.312624
0.306235 0.613266 0.314328
0.309149 0.611429 0.313817
0.309351 0.604372 0.311543
0.314405 0.606724 0.312444
0.318042 0.606332 0.312418
0.321016 0.604703 0.311973
0.323998 0.603121 0.311541
0.330211 0.607455 0.313109
0.336316 0.611499 0.314578
0.341826 0.614404 0.315659
0.347267 0.617139 0.316680
0.344301 0.605199 0.312721
0.347738 0.604572 0.312593
0.350889 0.603504 0.312309
0.354514 0.603297 0.312312
0.364306 0.613432 0.315821
0.364245 0.607139 0.313745
0.362884 0.593086 0.309069
-0.364590 0.610082 0.312415
-0.360793 0.609538 0.312191
-0.357126 0.609285 0.312057
-0.353108 0.608483 0.311732
-0.349826 0.609037 0.311855
-0.346904 0.610310 0.312212
-0.343443 0.610688 0.312263
-0.338665 0.608707 0.311518
-0.336224 0.611057 0.312219
-0.332709 0.611484 0.312271
-0.328447 0.610531 0.311856
-0.324333 0.609862 0.311534
-0.321563 0.611803 0.312081
-0.318127 0.612491 0.312206
-0.314634 0.613086 0.312298
-0.310550 0.612504 0.311994
-0.306323 0.611609 0.311585
-0.302612 0.611744 0.311519
-0.298887 0.611833 0.311438
-0.295448 0.612510 0.311551
-0.292019 0.613201 0.311670
-0.288244 0.613129 0.311535
-0.284724 0.613584 0.311575
-0.279789 0.610854 0.310558
-0.276221 0.611107 0.310533
-0.272450 0.610861 0.310345
-0.269381 0.612202 0.310684
-0.265744 0.612195 0.310578
-0.262275 0.612545 0.310591
-0.258026 0.610966 0.309967
-0.254826 0.611875 0.310170
-0.251153 0.611583 0.309976
-0.247761 0.611946 0.310002
-0.244289 0.612066 0.309949
-0.240739 0.611937 0.309816
-0.237269 0.611965 0.309736
-0.233744 0.611801 0.309596
-0.230386 0.612036 0.309589
-0.226727 0.611398 0.309296
-0.223777 0.612686 0.309642
-0.220820 0.613944 0.309979
-0.216447 0.611087 0.308960
-0.213252 0.611565 0.309044
-0.210211 0.612476 0.309273
-0.207098 0.613149 0.309425
-0.203955 0.613709 0.309542
-0.200151 0.612157 0.308965
-0.197189 0.613210 0.309248
-0.193254 0.611081 0.308486
-0.190543 0.612900 0.309024
-0.187437 0.613407 0.309133
-0.184218 0.613502 0.309107
-0.180734 0.612633 0.308767
-0.177959 0.614218 0.309235
-0.174604 0.613722 0.309021
-0.171364 0.613592 0.308928
-0.168100 0.613329 0.308794
-0.164818 0.612950 0.308623
-0.161697 0.613154 0.308645
-0.158700 0.613826 0.308822
-0.155765 0.614752 0.309084
-0.152653 0.614938 0.309104
-0.148789 0.611886 0.308064
-0.145722 0.612155 0.308114
