ply
format ascii 1.0
comment ---
element vertex 1697
property float x
property float y
property float z
element face 0
property list uchar uint vertex_indices
end_header
0.614352 0.594874 -0.470388
0.618647 0.593772 -0.470175
0.623061 0.593105 -0.470208
0.627740 0.593342 -0.470756
0.632323 0.593237 -0.471103
0.636743 0.592592 -0.471137
0.641564 0.593252 -0.471913
0.646576 0.594487 -0.473013
0.650924 0.593629 -0.472901
0.654868 0.591579 -0.472092
0.659794 0.592556 -0.473014
0.664296 0.592271 -0.473196
0.668583 0.591400 -0.473026
0.673059 0.591126 -0.473183
0.677755 0.591518 -0.473708
0.682309 0.591547 -0.474003
0.686880 0.591675 -0.474336
0.692058 0.593475 -0.475616
0.696289 0.592788 -0.475432
0.700832 0.593000 -0.475745
0.705852 0.594497 -0.476776
0.710265 0.594498 -0.476914
0.714482 0.594091 -0.476787
0.719041 0.594622 -0.477176
0.722615 0.592840 -0.476194
0.726350 0.591582 -0.475484
0.730772 0.592076 -0.475761
0.735366 0.593061 -0.476291
0.739529 0.593129 -0.476257
0.743914 0.593806 -0.476545
0.748066 0.594049 -0.476549
0.752043 0.594002 -0.476353
0.755795 0.593569 -0.475902
0.759924 0.594079 -0.475966
0.763202 0.592847 -0.474991
0.767431 0.593785 -0.475240
0.771928 0.595385 -0.475842
0.775716 0.595572 -0.475597
-0.175187 0.587807 -0.476738
-0.171300 0.588345 -0.477442
-0.166750 0.588018 -0.477608
-0.162543 0.588266 -0.478078
-0.158926 0.589465 -0.479071
-0.155825 0.591527 -0.480538
-0.152135 0.592827 -0.481525
-0.148317 0.594037 -0.482425
-0.143567 0.593935 -0.482520
-0.138621 0.593609 -0.482449
-0.133346 0.592845 -0.482085
-0.128551 0.592886 -0.482161
-0.122402 0.590872 -0.480994
-0.117310 0.590563 -0.480795
-0.113329 0.592093 -0.481644
-0.110430 0.595465 -0.483541
-0.106387 0.597094 -0.484383
-0.101883 0.598048 -0.484798
-0.096169 0.597052 -0.484039
-0.090649 0.596409 -0.483459
-0.085832 0.596991 -0.483571
-0.079585 0.595156 -0.482241
-0.074132 0.594696 -0.481694
-0.069632 0.595932 -0.482117
-0.064816 0.596654 -0.482218
-0.059004 0.595613 -0.481269
-0.053243 0.594653 -0.480351
-0.048271 0.595134 -0.480259
-0.042887 0.594860 -0.479712
-0.038007 0.595530 -0.479703
-0.032750 0.595488 -0.479268
-0.027557 0.595558 -0.478889
-0.022796 0.596464 -0.478988
-0.017976 0.597255 -0.479012
-0.012636 0.596997 -0.478423
-0.006957 0.596015 -0.477412
-0.001960 0.596389 -0.477183
0.003030 0.596755 -0.476947
0.008258 0.596589 -0.476404
0.013520 0.596308 -0.475796
0.018762 0.596025 -0.475188
0.023901 0.595918 -0.474684
0.029217 0.595368 -0.473929
0.034929 0.593855 -0.472625
0.040304 0.593030 -0.471722
0.044264 0.595448 -0.472686
0.048788 0.596544 -0.472895
0.053791 0.596469 -0.472439
0.059033 0.595753 -0.471622
0.064184 0.595190 -0.470901
0.069198 0.594902 -0.470345
0.074685 0.593343 -0.469070
0.079425 0.593620 -0.468852
0.083980 0.594345 -0.468897
0.088993 0.593805 -0.468229
0.093548 0.594446 -0.468242
0.097965 0.595435 -0.468459
0.102961 0.594768 -0.467744
0.107961 0.594014 -0.466989
0.112918 0.593304 -0.466267
0.117651 0.593182 -0.465887
0.122246 0.593416 -0.465719
0.126376 0.595033 -0.466340
0.131167 0.594590 -0.465804
0.136482 0.592406 -0.464292
0.141200 0.592027 -0.463810
0.145463 0.593084 -0.464147
0.149880 0.593607 -0.464191
0.154402 0.593740 -0.464022
0.158946 0.593750 -0.463792
0.164291 0.590854 -0.461931
0.168964 0.590235 -0.461363
0.172574 0.593486 -0.462982
0.177382 0.592283 -0.462100
0.181757 0.592658 -0.462114
0.185836 0.594170 -0.462775
0.190311 0.594098 -0.462552
0.195318 0.591772 -0.461069
0.199641 0.592188 -0.461136
0.204094 0.592012 -0.460876
0.208545 0.591794 -0.460600
0.212867 0.592099 -0.460624
0.217239 0.592146 -0.460510
0.221779 0.591340 -0.459925
0.226123 0.591411 -0.459839
0.230426 0.591651 -0.459853
0.234695 0.592036 -0.459955
0.238836 0.593079 -0.460432
0.243159 0.593139 -0.460365
0.247700 0.591924 -0.459589
0.251728 0.593589 -0.460433
0.255741 0.595406 -0.461368
0.260214 0.594438 -0.460749
0.264714 0.593188 -0.459978
0.269212 0.591813 -0.459144
0.273412 0.592361 -0.459392
0.277598 0.593011 -0.459703
0.282028 0.591847 -0.459004
0.286409 0.590930 -0.458450
0.290595 0.591469 -0.458715
0.294683 0.592856 -0.459461
0.299033 0.592000 -0.458958
0.303098 0.593673 -0.459874
0.307344 0.593705 -0.459879
0.311497 0.594662 -0.460406
0.315769 0.594393 -0.460254
0.319975 0.594815 -0.460493
0.324345 0.593235 -0.459618
0.328644 0.592344 -0.459134
0.332939 0.591318 -0.458580
0.337043 0.593021 -0.459558
0.341267 0.592985 -0.459569
0.345482 0.593067 -0.459652
0.349687 0.593348 -0.459851
0.353865 0.594252 -0.460404
0.358005 0.596325 -0.461617
0.362296 0.594600 -0.460711
0.366624 0.590982 -0.458751
0.370806 0.591835 -0.459300
0.375009 0.592047 -0.459494
0.379196 0.593622 -0.460458
0.383428 0.591662 -0.459448
0.387634 0.591858 -0.459652
0.391840 0.590639 -0.459068
0.396035 0.589622 -0.458604
0.400227 0.589074 -0.458408
0.404444 0.590196 -0.459155
0.408706 0.592619 -0.460638
0.412903 0.591831 -0.460326
0.417086 0.590781 -0.459874
0.421334 0.591634 -0.460495
0.425557 0.591653 -0.460655
0.429741 0.590804 -0.460335
0.434065 0.592615 -0.461515
0.438305 0.592650 -0.461704
0.442574 0.593057 -0.462109
0.446832 0.593193 -0.462370
0.451074 0.593034 -0.462470
0.455218 0.591620 -0.461871
0.459474 0.591623 -0.462077
0.463729 0.591545 -0.462244
0.467999 0.591572 -0.462478
0.472233 0.591180 -0.462482
0.476404 0.590187 -0.462155
0.480951 0.592555 -0.463732
0.485186 0.592012 -0.463673
0.489436 0.591571 -0.463679
0.493745 0.591563 -0.463938
0.497990 0.591016 -0.463899
0.502306 0.590965 -0.464148
0.506716 0.591503 -0.464739
0.511023 0.591253 -0.464890
0.515388 0.591336 -0.465239
0.519768 0.591445 -0.465609
0.524081 0.591086 -0.465721
0.528415 0.590811 -0.465888
0.532885 0.591264 -0.466477
0.537334 0.591514 -0.466958
0.541470 0.590023 -0.466454
0.546148 0.591364 -0.467571
0.550661 0.591743 -0.468147
0.555141 0.591890 -0.468597
0.559674 0.592221 -0.469159
0.563975 0.591411 -0.469075
0.568550 0.591825 -0.469696
0.573763 0.594976 -0.471893
0.577939 0.593474 -0.471428
0.582329 0.592891 -0.471494
0.586732 0.592346 -0.471585
0.591215 0.592101 -0.471851
0.595729 0.591949 -0.472174
0.600447 0.592552 -0.472934
0.605172 0.593117 -0.473673
0.609933 0.593760 -0.474460
0.614960 0.595312 -0.475771
0.619157 0.593844 -0.475336
0.623799 0.593955 -0.475812
0.628283 0.593510 -0.475962
0.632878 0.593441 -0.476325
0.637677 0.594033 -0.477066
0.642097 0.593384 -0.477079
0.646837 0.593770 -0.477686
0.651234 0.593090 -0.477662
0.655556 0.592221 -0.477517
0.659523 0.590342 -0.476770
0.664075 0.590264 -0.477057
0.668587 0.590108 -0.477283
0.674050 0.592692 -0.479091
0.678431 0.592212 -0.479093
0.682815 0.591804 -0.479117
0.687576 0.592482 -0.479754
0.692134 0.592658 -0.480075
0.696535 0.592480 -0.480164
0.700636 0.591596 -0.479815
0.706236 0.594650 -0.481745
0.710054 0.593200 -0.481011
0.714508 0.593458 -0.481247
0.718479 0.592607 -0.480805
0.722912 0.592994 -0.481058
0.727188 0.593086 -0.481108
0.730993 0.592162 -0.480531
0.735128 0.592131 -0.480446
0.739635 0.593064 -0.480893
0.742970 0.591405 -0.479791
0.747740 0.593125 -0.480636
0.751810 0.593356 -0.480577
0.755431 0.592696 -0.479965
0.759008 0.592063 -0.479339
0.762349 0.591043 -0.478456
0.766315 0.591488 -0.478399
0.770107 0.591667 -0.478157
-0.171435 0.588116 -0.482114
-0.166562 0.587280 -0.482001
-0.159071 0.582711 -0.479646
-0.160190 0.590748 -0.484718
-0.156986 0.592620 -0.486110
-0.152772 0.593102 -0.486644
-0.148065 0.592931 -0.486758
-0.142776 0.591956 -0.486360
-0.139381 0.593932 -0.487677
-0.135650 0.595502 -0.488719
-0.129230 0.592994 -0.487306
-0.123702 0.591909 -0.486703
-0.118783 0.591837 -0.486666
-0.114684 0.593142 -0.487414
-0.110296 0.594068 -0.487904
-0.106676 0.596324 -0.489151
-0.101400 0.595954 -0.488808
-0.096308 0.595932 -0.488642
-0.091126 0.595808 -0.488385
-0.085549 0.595051 -0.487726
-0.079967 0.594307 -0.487049
-0.074459 0.593710 -0.486434
-0.070022 0.595013 -0.486921
-0.065683 0.596545 -0.487520
-0.060737 0.597039 -0.487484
-0.055450 0.596939 -0.487079
-0.048903 0.594526 -0.485292
-0.043094 0.593435 -0.484271
-0.038890 0.595350 -0.485009
-0.034941 0.597796 -0.486044
-0.027765 0.594049 -0.483426
-0.022619 0.594176 -0.483078
-0.017740 0.594819 -0.483025
-0.013456 0.596655 -0.483665
-0.009040 0.598247 -0.484156
-0.003099 0.596708 -0.482809
0.002624 0.595554 -0.481686
0.007849 0.595392 -0.481142
0.012896 0.595572 -0.480799
0.017665 0.596323 -0.480789
0.023497 0.594710 -0.479403
0.028647 0.594536 -0.478859
0.034214 0.593369 -0.477741
0.039207 0.593440 -0.477348
0.043633 0.594795 -0.477704
0.047982 0.596322 -0.478164
0.053191 0.595776 -0.477427
0.058447 0.595048 -0.476591
0.063547 0.594634 -0.475945
0.068599 0.594275 -0.475337
0.073477 0.594298 -0.474958
0.079325 0.591751 -0.473104
0.083633 0.593128 -0.473521
0.087656 0.595258 -0.474379
0.093783 0.591679 -0.471957
0.097825 0.593695 -0.472764
0.102586 0.593702 -0.472424
0.107683 0.592693 -0.471508
0.112335 0.592892 -0.471295
0.116966 0.593102 -0.471096
0.121491 0.593587 -0.471063
0.125923 0.594320 -0.471180
0.130399 0.594887 -0.471211
0.135530 0.593345 -0.470042
0.140535 0.592099 -0.469053
0.145123 0.592122 -0.468798
0.149482 0.592869 -0.468964
0.154022 0.592971 -0.468770
0.157893 0.595360 -0.469889
0.162551 0.594992 -0.469442
0.168244 0.590799 -0.466824
0.172142 0.593036 -0.467879
0.176396 0.593967 -0.468196
0.180908 0.593894 -0.467949
0.185211 0.594593 -0.468150
0.190000 0.593315 -0.467233
0.194510 0.593077 -0.466916
0.199002 0.592859 -0.466617
0.203290 0.593463 -0.466793
0.207837 0.592904 -0.466314
0.212105 0.593537 -0.466520
0.216442 0.593834 -0.466542
0.221254 0.591830 -0.465266
0.226029 0.589854 -0.464013
0.230391 0.589807 -0.463861
0.234205 0.592548 -0.465295
0.238174 0.594581 -0.466335
0.242687 0.593701 -0.465729
0.247106 0.593259 -0.465380
0.250947 0.596111 -0.466900
0.255202 0.596610 -0.467096
0.259592 0.596263 -0.466818
0.264113 0.595006 -0.466031
0.268896 0.591875 -0.464191
0.273226 0.591598 -0.463972
0.277444 0.592061 -0.464177
0.281806 0.591439 -0.463775
0.286071 0.591487 -0.463757
0.290065 0.593683 -0.464959
0.294439 0.592821 -0.464439
0.298729 0.592589 -0.464281
0.302966 0.592782 -0.464369
0.307211 0.592871 -0.464403
0.311532 0.592149 -0.463985
0.315696 0.593022 -0.464474
0.319953 0.592884 -0.464398
0.324244 0.592265 -0.464055
0.328471 0.592374 -0.464129
0.332653 0.593091 -0.464554
0.337062 0.590439 -0.463078
0.341227 0.591318 -0.463605
0.345400 0.592175 -0.464126
0.349596 0.592728 -0.464480
0.353824 0.592657 -0.464487
0.357967 0.594687 -0.465689
0.362234 0.593680 -0.465179
0.366514 0.591884 -0.464227
0.370699 0.593191 -0.465038
0.374925 0.593062 -0.465042
0.379154 0.592630 -0.464880
0.383377 0.592386 -0.464831
0.387601 0.591001 -0.464142
0.391817 0.591636 -0.464602
0.396009 0.588203 -0.462764
0.400228 0.589581 -0.463658
0.404481 0.591982 -0.465138
0.408688 0.591217 -0.464831
0.412894 0.590626 -0.464628
0.417134 0.591178 -0.465080
0.421361 0.591153 -0.465211
0.425599 0.591342 -0.465470
0.429880 0.592272 -0.466157
0.434120 0.592231 -0.466300
0.438464 0.593846 -0.467390
0.442773 0.594612 -0.468006
0.446897 0.592579 -0.467037
0.451176 0.592807 -0.467360
0.455390 0.592141 -0.467182
0.459545 0.590817 -0.466636
0.463803 0.590696 -0.466782
0.468144 0.591390 -0.467400
0.472764 0.594678 -0.469505
0.477012 0.594118 -0.469424
0.481100 0.592141 -0.468540
0.485277 0.591022 -0.468154
0.489684 0.591804 -0.468861
0.493825 0.590396 -0.468323
0.498050 0.589665 -0.468180
0.502431 0.590052 -0.468684
0.506705 0.589605 -0.468718
0.511176 0.590438 -0.469493
0.515673 0.591320 -0.470305
0.519958 0.590774 -0.470304
0.524428 0.591310 -0.470933
0.528652 0.590321 -0.470693
0.533124 0.590735 -0.471267
0.537712 0.591698 -0.472164
0.541893 0.590392 -0.471762
0.546191 0.589705 -0.471722
0.550644 0.589774 -0.472125
0.555388 0.591204 -0.473320
0.560109 0.592397 -0.474386
0.564325 0.591146 -0.474045
0.569135 0.592582 -0.475263
0.573920 0.593787 -0.476355
0.578649 0.594647 -0.477252
0.583058 0.594086 -0.477329
0.586955 0.591408 -0.476180
0.591239 0.590362 -0.475979
0.595894 0.590772 -0.476628
0.601036 0.592997 -0.478335
0.605723 0.593393 -0.478978
0.610203 0.592984 -0.479153
0.614789 0.592945 -0.479541
0.620372 0.596400 -0.481971
0.624490 0.594648 -0.481354
0.628751 0.593433 -0.481045
0.633324 0.593293 -0.481359
0.637561 0.592059 -0.481025
0.641903 0.591210 -0.480907
0.646485 0.591151 -0.481244
0.651866 0.593574 -0.483028
0.655771 0.591452 -0.482129
0.659919 0.590151 -0.481697
0.664648 0.590627 -0.482296
0.669585 0.591719 -0.483241
0.674516 0.592799 -0.484163
0.679023 0.592710 -0.484374
0.683852 0.593558 -0.485119
0.688208 0.593159 -0.485105
0.692293 0.592108 -0.484681
0.696444 0.591330 -0.484393
0.701214 0.592252 -0.485084
0.704576 0.589623 -0.483648
0.710274 0.593040 -0.485759
0.714215 0.592081 -0.485253
0.718670 0.592496 -0.485530
0.724044 0.595222 -0.487144
0.728299 0.595297 -0.487158
0.732030 0.594231 -0.486465
0.736025 0.593907 -0.486181
0.740212 0.594140 -0.486193
0.744548 0.594809 -0.486431
0.748706 0.595170 -0.486455
0.752077 0.593874 -0.485469
0.754802 0.591288 -0.483690
0.757954 0.589794 -0.482527
0.761801 0.589944 -0.482303
0.766677 0.592404 -0.483412
0.770350 0.592369 -0.483019
-0.161778 0.579963 -0.482441
-0.160549 0.584382 -0.485451
-0.159083 0.588602 -0.488313
-0.158312 0.593997 -0.491850
-0.152864 0.592607 -0.491292
-0.145733 0.588752 -0.489223
-0.141904 0.589899 -0.490115
-0.139751 0.593702 -0.492565
-0.136594 0.596103 -0.494140
-0.129739 0.592878 -0.492307
-0.124132 0.591621 -0.491618
-0.118891 0.590988 -0.491270
-0.113839 0.590713 -0.491102
-0.109579 0.591774 -0.491703
-0.106132 0.594241 -0.493114
-0.100940 0.593941 -0.492834
-0.096833 0.595496 -0.493635
-0.091631 0.595292 -0.493351
-0.086275 0.594866 -0.492906
-0.080218 0.593269 -0.491732
-0.074748 0.592692 -0.491144
-0.069783 0.593023 -0.491074
-0.065882 0.595276 -0.492131
-0.061771 0.597229 -0.492986
-0.056416 0.596983 -0.492506
-0.051073 0.596767 -0.492025
-0.044710 0.594658 -0.490400
-0.040264 0.596112 -0.490884
-0.035788 0.597542 -0.491340
-0.029259 0.595043 -0.489445
-0.023305 0.593595 -0.488167
-0.018134 0.593648 -0.487774
-0.014769 0.597305 -0.489511
-0.010262 0.598718 -0.489908
-0.003648 0.595811 -0.487741
0.001656 0.595528 -0.487126
0.007112 0.594887 -0.486298
0.011912 0.595601 -0.486270
0.016594 0.596556 -0.486383
0.021574 0.596843 -0.486102
0.028068 0.593719 -0.483815
0.033488 0.592895 -0.482887
0.038734 0.592402 -0.482157
0.043000 0.594134 -0.482739
0.047132 0.596186 -0.483511
0.052033 0.596407 -0.483213
0.057732 0.594640 -0.481757
0.063188 0.593371 -0.480600
0.068059 0.593481 -0.480257
0.073077 0.593167 -0.479674
0.078303 0.592251 -0.478746
0.083200 0.592121 -0.478285
0.086894 0.595143 -0.479669
0.092916 0.591893 -0.477406
0.097902 0.591341 -0.476724
0.100859 0.596405 -0.479315
0.106938 0.592684 -0.476807
0.111816 0.592265 -0.476228
0.116287 0.592978 -0.476313
0.120812 0.593499 -0.476296
0.125663 0.592991 -0.475690
0.130410 0.592734 -0.475238
0.135099 0.592597 -0.474865
0.139931 0.591940 -0.474199
0.144701 0.591409 -0.473616
0.149441 0.590910 -0.473058
0.153432 0.592891 -0.473942
0.157486 0.594681 -0.474722
0.161886 0.595260 -0.474811
0.167110 0.592831 -0.473174
0.171608 0.592932 -0.473004
0.176100 0.593011 -0.472829
0.180709 0.592590 -0.472375
0.184997 0.593366 -0.472616
0.189177 0.594564 -0.473108
0.193954 0.593307 -0.472196
0.198353 0.593537 -0.472146
0.203080 0.592313 -0.471269
0.207332 0.593082 -0.471543
0.211827 0.592741 -0.471188
0.216203 0.592890 -0.471121
0.220633 0.592741 -0.470890
0.225637 0.589731 -0.469025
0.230139 0.589033 -0.468495
0.234582 0.588557 -0.468097
0.238290 0.591914 -0.469903
0.242090 0.594917 -0.471511
0.246457 0.594863 -0.471375
0.250766 0.595105 -0.471415
0.254933 0.596165 -0.471930
0.259206 0.596592 -0.472088
0.263550 0.596552 -0.471986
0.268698 0.591127 -0.468810
0.273107 0.590353 -0.468301
0.276739 0.595023 -0.470911
0.281161 0.594156 -0.470361
0.285742 0.591942 -0.469047
0.289988 0.592199 -0.469152
0.294317 0.591749 -0.468859
0.298723 0.590522 -0.468127
0.303012 0.590230 -0.467936
0.307143 0.591391 -0.468582
0.311451 0.590837 -0.468253
0.315684 0.590975 -0.468325
0.319909 0.591200 -0.468454
0.324131 0.591440 -0.468597
0.328365 0.591526 -0.468657
0.332515 0.592770 -0.469386
0.336823 0.591760 -0.468832
0.341147 0.590299 -0.468026
0.345313 0.591369 -0.468673
0.349450 0.593186 -0.469753
0.353690 0.593144 -0.469776
0.357931 0.592991 -0.469741
0.362192 0.592205 -0.469351
0.366418 0.592337 -0.469492
0.370634 0.592860 -0.469862
0.374863 0.592999 -0.470019
0.379110 0.591953 -0.469504
0.383336 0.592083 -0.469669
0.387563 0.592573 -0.470045
0.391792 0.590896 -0.469187
0.396018 0.591156 -0.469444
0.400250 0.591593 -0.469810
0.404489 0.592006 -0.470168
0.408680 0.590115 -0.469212
0.412914 0.590370 -0.469493
0.417181 0.591442 -0.470249
0.421403 0.590996 -0.470141
0.425654 0.591250 -0.470442
0.429909 0.591465 -0.470726
0.434238 0.592922 -0.471732
0.438497 0.592878 -0.471883
0.442740 0.592549 -0.471877
0.446951 0.591748 -0.471606
0.451170 0.591105 -0.471434
0.455467 0.591428 -0.471824
0.459681 0.590698 -0.471615
0.463960 0.590701 -0.471835
0.468326 0.591533 -0.472541
0.472764 0.592927 -0.473579
0.477152 0.593650 -0.474238
0.481035 0.589778 -0.472253
0.485298 0.589402 -0.472293
0.489991 0.592470 -0.474329
0.494316 0.592376 -0.474547
0.498357 0.590111 -0.473517
0.502598 0.589393 -0.473389
0.507246 0.591471 -0.474887
0.511624 0.591542 -0.475231
0.515960 0.591279 -0.475389
0.520479 0.592109 -0.476189
0.525193 0.593995 -0.477611
0.529217 0.591703 -0.476612
0.533455 0.590692 -0.476364
0.538156 0.592212 -0.477596
0.542385 0.591085 -0.477294
0.546353 0.588634 -0.476226
0.551060 0.589949 -0.477359
0.555864 0.591612 -0.478703
0.560677 0.593179 -0.479999
0.564908 0.591937 -0.479658
0.569553 0.592563 -0.480415
0.574244 0.593315 -0.481251
0.578920 0.593922 -0.482006
0.583404 0.593659 -0.482256
0.587698 0.592587 -0.482032
0.592220 0.592439 -0.482354
0.596788 0.592443 -0.482765
0.601864 0.594353 -0.484301
0.606216 0.593450 -0.484180
0.610695 0.593020 -0.484336
0.615605 0.594135 -0.485402
0.620449 0.594956 -0.486292
0.624647 0.593508 -0.485837
0.628961 0.592496 -0.485634
0.633429 0.592031 -0.485746
0.637975 0.591837 -0.486012
0.641942 0.589808 -0.485179
0.646936 0.591084 -0.486296
0.651835 0.592038 -0.487210
0.656648 0.592720 -0.487950
0.661004 0.592045 -0.487869
0.665492 0.591812 -0.488034
0.670497 0.593117 -0.489097
0.675061 0.593172 -0.489396
0.679500 0.592927 -0.489496
0.684015 0.592953 -0.489735
0.688639 0.593335 -0.490163
0.692740 0.592375 -0.489765
0.696850 0.591539 -0.489415
0.701026 0.590970 -0.489197
0.704878 0.589669 -0.488514
0.709203 0.589681 -0.488587
0.714203 0.591457 -0.489684
0.719531 0.594081 -0.491258
0.723953 0.594539 -0.491507
0.728312 0.594931 -0.491684
0.732379 0.594725 -0.491472
0.736131 0.593887 -0.490851
0.740179 0.593857 -0.490681
0.744600 0.594786 -0.491052
0.748173 0.593883 -0.490297
0.751354 0.592233 -0.489066
0.753785 0.589071 -0.486903
0.757558 0.589013 -0.486562
0.762970 0.592610 -0.488366
0.767750 0.594890 -0.489353
-0.164048 0.589020 -0.493052
-0.159675 0.588983 -0.493394
-0.156946 0.591446 -0.495216
-0.153258 0.592604 -0.496216
-0.144589 0.586399 -0.492726
-0.141305 0.588304 -0.494109
-0.139336 0.592319 -0.496737
-0.135289 0.593287 -0.497485
-0.129201 0.591182 -0.496335
-0.124049 0.590574 -0.496058
-0.118085 0.588741 -0.495004
-0.113570 0.589252 -0.495336
-0.109803 0.591043 -0.496411
-0.105617 0.592250 -0.497099
-0.101636 0.593878 -0.498009
-0.096489 0.593657 -0.497767
-0.091233 0.593299 -0.497411
-0.086570 0.593989 -0.497660
-0.080849 0.592922 -0.496818
-0.074885 0.591450 -0.495703
-0.069419 0.590852 -0.495093
-0.065821 0.593583 -0.496472
-0.061915 0.595850 -0.497545
-0.056867 0.596118 -0.497389
-0.052072 0.596874 -0.497508
-0.046280 0.595809 -0.496510
-0.040972 0.595637 -0.496035
-0.035946 0.595999 -0.495867
-0.030909 0.596346 -0.495677
-0.025219 0.595423 -0.494712
-0.020023 0.595443 -0.494304
-0.015180 0.596156 -0.494303
-0.010572 0.597347 -0.494581
-0.005461 0.597515 -0.494239
0.000909 0.595045 -0.492314
0.005763 0.595675 -0.492242
0.011217 0.595012 -0.491396
0.016013 0.595721 -0.491367
0.021418 0.595076 -0.490532
0.026613 0.594845 -0.489944
0.031861 0.594447 -0.489259
0.038017 0.591915 -0.487309
0.042201 0.593849 -0.488018
0.046553 0.595396 -0.488499
0.051381 0.595805 -0.488308
0.056972 0.594327 -0.487005
0.062850 0.592044 -0.485233
0.067574 0.592530 -0.485107
0.072206 0.593216 -0.485105
0.077590 0.591930 -0.483944
0.082212 0.592548 -0.483916
0.086595 0.593770 -0.484251
0.090884 0.595235 -0.484735
0.096184 0.593911 -0.483585
0.101529 0.592364 -0.482313
0.105759 0.593883 -0.482852
0.110537 0.593813 -0.482465
0.115520 0.593087 -0.481701
0.120204 0.593172 -0.481423
0.124752 0.593624 -0.481367
0.130125 0.591481 -0.479801
0.133828 0.594478 -0.481252
0.138751 0.593608 -0.480448
0.144200 0.590931 -0.478597
0.148761 0.591063 -0.478398
0.152853 0.592743 -0.479109
0.157155 0.593712 -0.479414
0.161684 0.593861 -0.479248
0.166653 0.592376 -0.478138
0.171155 0.592501 -0.477975
0.175637 0.592655 -0.477836
0.180624 0.590825 -0.476552
0.184779 0.592134 -0.477101
0.189232 0.592252 -0.476966
0.193482 0.593160 -0.477297
0.197710 0.594158 -0.477688
0.202011 0.594837 -0.477900
0.207052 0.592240 -0.476219
0.211704 0.591223 -0.475463
0.216215 0.590765 -0.475038
0.220551 0.591064 -0.475060
0.224677 0.592356 -0.475665
0.229162 0.591871 -0.475246
0.233958 0.589714 -0.473867
0.237856 0.592145 -0.475151
0.241874 0.594024 -0.476123
0.246236 0.594032 -0.476018
0.250685 0.593494 -0.475602
0.254786 0.594958 -0.476353
0.259074 0.595322 -0.476474
0.263556 0.594425 -0.475871
0.268139 0.592754 -0.474827
0.272418 0.593001 -0.474900
0.276499 0.594635 -0.475780
0.280793 0.594776 -0.475804
0.285193 0.594076 -0.475348
0.289566 0.593485 -0.474961
0.294187 0.590724 -0.473326
0.298732 0.588323 -0.471906
0.302852 0.589570 -0.472600
0.307161 0.589068 -0.472290
0.311010 0.593175 -0.474649
0.315339 0.592528 -0.474266
0.319761 0.590702 -0.473209
0.324000 0.590826 -0.473285
0.328203 0.591398 -0.473626
0.332535 0.590214 -0.472958
0.336662 0.591907 -0.473958
0.340922 0.591674 -0.473852
0.345137 0.592155 -0.474165
0.349347 0.592814 -0.474586
0.353587 0.592936 -0.474703
0.357899 0.591244 -0.473778
0.362093 0.592422 -0.474518
0.366326 0.592650 -0.474715
0.370586 0.591874 -0.474338
0.374824 0.591817 -0.474383
0.379060 0.591826 -0.474473
0.383295 0.592013 -0.474672
0.387538 0.590627 -0.473967
0.391770 0.590423 -0.473952
0.396000 0.590198 -0.473932
0.400249 0.591490 -0.474797
0.404473 0.590589 -0.474398
0.408714 0.590723 -0.474606
0.412973 0.591344 -0.475102
0.417312 0.594085 -0.476836
0.421499 0.592116 -0.475845
0.425741 0.591805 -0.475821
0.430067 0.593171 -0.476779
0.434246 0.591516 -0.475990
0.438594 0.592906 -0.476976
0.442795 0.591761 -0.476497
0.446945 0.590006 -0.475671
0.451202 0.589837 -0.475773
0.455566 0.590940 -0.476622
0.459903 0.591529 -0.477180
0.464205 0.591609 -0.477450
0.468490 0.591444 -0.477584
0.472869 0.592147 -0.478232
0.477205 0.592318 -0.478578
0.481445 0.591574 -0.478398
0.485808 0.591863 -0.478828
0.490115 0.591613 -0.478950
0.494430 0.591383 -0.479093
0.498628 0.590253 -0.478716
0.503285 0.592411 -0.480271
0.507551 0.591664 -0.480133
0.512013 0.592213 -0.480763
0.516212 0.590979 -0.480354
0.520574 0.590782 -0.480561
0.525339 0.592936 -0.482156
0.529626 0.592139 -0.482025
0.534097 0.592362 -0.482501
0.538498 0.592138 -0.482721
0.542884 0.591788 -0.482873
0.547077 0.590420 -0.482431
0.551710 0.591265 -0.483300
0.556482 0.592685 -0.484515
0.560731 0.591511 -0.484203
0.565565 0.593042 -0.485496
0.569989 0.592611 -0.485633
0.574439 0.592268 -0.485827
0.578989 0.592329 -0.486263
0.583520 0.592266 -0.486628
0.588486 0.593937 -0.488026
0.593032 0.593831 -0.488371
0.597426 0.593102 -0.488346
0.602451 0.594781 -0.489754
0.607127 0.595063 -0.490330
0.611292 0.593446 -0.489773
0.615706 0.592768 -0.489771
0.620309 0.592765 -0.490167
0.624940 0.592850 -0.490612
0.629059 0.591204 -0.490014
0.633663 0.591221 -0.490402
0.638270 0.591253 -0.490791
0.642864 0.591252 -0.491149
0.647388 0.591045 -0.491372
0.652104 0.591458 -0.491955
0.657082 0.592676 -0.493006
0.661588 0.592481 -0.493193
0.666409 0.593248 -0.493941
0.671180 0.593890 -0.494596
0.675876 0.594349 -0.495119
0.679646 0.592266 -0.494090
0.684381 0.592953 -0.494706
0.688808 0.592851 -0.494822
0.693261 0.592889 -0.494997
0.697353 0.592051 -0.494617
0.701257 0.590829 -0.493978
0.704917 0.589100 -0.493003
0.708835 0.588151 -0.492470
0.714443 0.591515 -0.494510
0.719105 0.592562 -0.495121
0.723185 0.592272 -0.494893
0.727896 0.593596 -0.495608
0.732056 0.593684 -0.495546
0.735659 0.592573 -0.494729
0.739835 0.592913 -0.494754
0.744186 0.593750 -0.495048
0.748070 0.593619 -0.494726
0.751394 0.592348 -0.493687
0.754757 0.591298 -0.492751
0.758190 0.590527 -0.491953
0.763666 0.594302 -0.493857
-0.164366 0.589084 -0.497901
-0.160424 0.589632 -0.498627
-0.157769 0.592163 -0.500530
-0.151933 0.590092 -0.499590
-0.145160 0.586662 -0.497784
-0.141448 0.587872 -0.498780
-0.138983 0.591077 -0.500963
-0.134840 0.591837 -0.501616
-0.128379 0.589092 -0.500088
-0.122920 0.587936 -0.499497
-0.117927 0.587565 -0.499353
-0.114824 0.590266 -0.501056
-0.112037 0.593595 -0.503110
-0.108081 0.595150 -0.504044
-0.101258 0.592093 -0.502119
-0.096476 0.592413 -0.502231
-0.091142 0.591868 -0.501782
-0.086634 0.592761 -0.502183
-0.082016 0.593531 -0.502480
-0.076858 0.593424 -0.502211
-0.072149 0.594138 -0.502418
-0.066683 0.593561 -0.501811
-0.060880 0.592396 -0.500821
-0.057208 0.595086 -0.502163
-0.052772 0.596460 -0.502679
-0.047593 0.596506 -0.502366
-0.040995 0.593900 -0.500420
-0.035432 0.593205 -0.499622
-0.030771 0.594225 -0.499855
-0.026005 0.595065 -0.499965
-0.020926 0.595301 -0.499695
-0.015165 0.594174 -0.498590
-0.010281 0.594774 -0.498523
-0.006187 0.596991 -0.499429
-0.001620 0.598264 -0.499756
0.005174 0.594863 -0.497251
0.010683 0.594079 -0.496328
0.016089 0.593469 -0.495509
0.020795 0.594340 -0.495583
0.026194 0.593659 -0.494721
0.031060 0.594122 -0.494550
0.035997 0.594398 -0.494268
0.041061 0.594343 -0.493789
0.045714 0.595209 -0.493867
0.051199 0.594073 -0.492748
0.056620 0.593008 -0.491677
0.062226 0.591410 -0.490294
0.067194 0.591308 -0.489813
0.071411 0.593054 -0.490442
0.076101 0.593588 -0.490353
0.081479 0.592287 -0.489176
0.085968 0.593256 -0.489360
0.090503 0.594079 -0.489464
0.095219 0.594378 -0.489263
0.100427 0.593264 -0.488230
0.105288 0.593042 -0.487736
0.109914 0.593437 -0.487616
0.114820 0.592971 -0.486993
0.119635 0.592706 -0.486499
0.124416 0.592481 -0.486037
0.128557 0.594172 -0.486718
0.133350 0.593823 -0.486199
0.137756 0.594646 -0.486382
0.142852 0.593194 -0.485229
0.147706 0.592435 -0.484495
0.152425 0.592056 -0.483994
0.156527 0.593747 -0.484723
0.161124 0.593703 -0.484435
0.166055 0.592403 -0.483417
0.170829 0.591578 -0.482687
0.175203 0.592163 -0.482796
0.179591 0.592674 -0.482869
0.183775 0.593955 -0.483402
0.188796 0.591888 -0.481975
0.193130 0.592496 -0.482129
0.197273 0.593881 -0.482747
0.201790 0.593677 -0.482439
0.206491 0.592610 -0.481632
0.211415 0.590432 -0.480181
0.216024 0.589555 -0.479502
0.220295 0.590184 -0.479713
0.224328 0.591959 -0.480603
0.228657 0.592307 -0.480664
0.233123 0.591919 -0.480301
0.237488 0.591999 -0.480218
0.241789 0.592387 -0.480324
0.246155 0.592389 -0.480210
0.250445 0.592786 -0.480335
0.254636 0.593754 -0.480799
0.258983 0.593781 -0.480721
0.263444 0.593037 -0.480198
0.267948 0.591911 -0.479458
0.272274 0.591882 -0.479367
0.276476 0.592687 -0.479770
0.280798 0.592625 -0.479672
0.285041 0.593120 -0.479907
0.289350 0.593086 -0.479839
0.293775 0.592037 -0.479184
0.298232 0.590572 -0.478292
0.302648 0.589303 -0.477522
0.306565 0.592676 -0.479469
0.310926 0.591860 -0.478976
0.315191 0.591940 -0.479012
0.319589 0.590459 -0.478144
0.323875 0.590124 -0.477950
0.328159 0.589727 -0.477727
0.332277 0.591558 -0.478811
0.336526 0.591665 -0.478895
0.340770 0.591833 -0.479021
0.345010 0.592062 -0.479188
0.349264 0.592041 -0.479216
0.353465 0.593159 -0.479916
0.357699 0.593699 -0.480284
0.361994 0.592634 -0.479721
0.366268 0.591876 -0.479344
0.370533 0.591136 -0.478983
0.374778 0.591047 -0.479010
0.379012 0.591652 -0.479448
0.383265 0.590864 -0.479079
0.387513 0.589449 -0.478349
0.391759 0.594021 -0.481130
0.396008 0.592446 -0.480320
0.400217 0.588828 -0.478320
0.404480 0.590247 -0.479276
0.408735 0.590603 -0.479616
0.413017 0.591697 -0.480396
0.417281 0.591855 -0.480635
0.421513 0.591063 -0.480324
0.425791 0.591419 -0.480693
0.430106 0.592390 -0.481430
0.434441 0.593459 -0.482232
0.438656 0.592296 -0.481732
0.442879 0.591371 -0.481377
0.447060 0.589922 -0.480723
0.451371 0.590322 -0.481161
0.455795 0.591983 -0.482350
0.460096 0.591959 -0.482555
0.464342 0.591287 -0.482386
0.468649 0.591254 -0.482602
0.473003 0.591610 -0.483053
0.477349 0.591796 -0.483413
0.481748 0.592368 -0.484008
0.485981 0.591433 -0.483722
0.490274 0.590992 -0.483735
0.494422 0.589424 -0.483089
0.499205 0.592601 -0.485256
0.503317 0.590710 -0.484433
0.507757 0.591142 -0.484993
0.512086 0.590756 -0.485076
0.516380 0.590110 -0.485012
0.520741 0.589864 -0.485192
0.525664 0.592921 -0.487340
0.530066 0.592722 -0.487564
0.534292 0.591498 -0.487184
0.539093 0.593407 -0.488675
0.543591 0.593557 -0.489126
0.547509 0.590679 -0.487780
0.552096 0.591235 -0.488484
0.556837 0.592459 -0.489593
0.561207 0.591820 -0.489596
0.565371 0.590223 -0.489030
0.570069 0.591049 -0.489916
0.574600 0.591064 -0.490322
0.578859 0.589882 -0.490013
0.583692 0.591102 -0.491146
0.588796 0.593336 -0.492890
0.593310 0.593091 -0.493149
0.597877 0.593033 -0.493519
0.602659 0.593771 -0.494368
0.607603 0.595061 -0.495548
0.612084 0.594592 -0.495667
0.615845 0.591554 -0.494231
0.620465 0.591636 -0.494671
0.625305 0.592463 -0.495555
0.629727 0.591853 -0.495564
0.633822 0.590190 -0.494925
0.638572 0.590719 -0.495603
0.643458 0.591676 -0.496529
0.647820 0.590978 -0.496439
0.652867 0.592435 -0.497643
0.656952 0.590969 -0.497056
0.662120 0.592801 -0.498455
0.667492 0.595209 -0.500187
0.672102 0.595397 -0.500550
0.675775 0.592982 -0.499307
0.680422 0.593410 -0.499772
0.684958 0.593581 -0.500056
0.689536 0.593929 -0.500422
0.693886 0.593729 -0.500429
0.698176 0.593457 -0.500363
0.701875 0.591743 -0.499390
0.704703 0.587938 -0.497114
0.708770 0.587439 -0.496823
0.714210 0.590454 -0.498643
0.718783 0.591358 -0.499145
0.722714 0.590783 -0.498715
0.727637 0.592691 -0.499767
0.731487 0.592119 -0.499275
0.734823 0.590464 -0.498092
0.738810 0.590451 -0.497878
0.744042 0.593385 -0.499425
0.748295 0.594149 -0.499619
0.752264 0.594368 -0.499451
0.755174 0.592349 -0.497893
0.758549 0.591495 -0.497014
0.763355 0.593860 -0.498058
-0.162095 0.591668 -0.504703
-0.157167 0.590824 -0.504567
-0.152390 0.590269 -0.504575
-0.146241 0.587729 -0.503325
-0.142225 0.588441 -0.504047
-0.139172 0.590707 -0.505696
-0.135653 0.592370 -0.506939
-0.128611 0.588684 -0.504839
-0.122595 0.586605 -0.503697
-0.118569 0.587698 -0.504482
-0.116972 0.592746 -0.507682
-0.113281 0.594592 -0.508867
-0.107268 0.592769 -0.507745
-0.101390 0.591194 -0.506743
-0.096373 0.591068 -0.506607
-0.092070 0.592190 -0.507211
-0.086709 0.591600 -0.506723
-0.082419 0.592872 -0.507359
-0.077869 0.593768 -0.507732
-0.072656 0.593565 -0.507399
-0.067313 0.593164 -0.506916
-0.062988 0.594603 -0.507546
-0.057136 0.593346 -0.506487
-0.053297 0.595759 -0.507671
-0.048312 0.596128 -0.507572
-0.041857 0.593768 -0.505774
-0.035651 0.591835 -0.504223
-0.030321 0.591536 -0.503664
-0.026542 0.594242 -0.504938
-0.021790 0.595100 -0.505062
-0.015658 0.593225 -0.503497
-0.010748 0.593755 -0.503399
-0.006912 0.596477 -0.504635
-0.002005 0.597036 -0.504538
0.003696 0.595922 -0.503412
0.010171 0.593108 -0.501245
0.015150 0.593412 -0.500982
0.020382 0.593143 -0.500367
0.025392 0.593324 -0.500025
0.030434 0.593400 -0.499620
0.035107 0.594283 -0.499707
0.039943 0.594774 -0.499557
0.044827 0.595125 -0.499324
0.050243 0.594177 -0.498306
0.055958 0.592433 -0.496813
0.061150 0.591872 -0.496041
0.066588 0.590634 -0.494866
0.070896 0.592167 -0.495372
0.075626 0.592613 -0.495228
0.080952 0.591469 -0.494129
0.085722 0.591712 -0.493876
0.089856 0.593622 -0.494633
0.094857 0.593168 -0.493973
0.099445 0.593798 -0.493973
0.104637 0.592690 -0.492937
0.109559 0.592265 -0.492320
0.114381 0.592063 -0.491845
0.119400 0.591219 -0.490994
0.124067 0.591356 -0.490739
0.128316 0.592732 -0.491235
0.132355 0.594765 -0.492131
0.137343 0.593787 -0.491234
0.141832 0.594342 -0.491262
0.146718 0.593550 -0.490494
0.151723 0.592272 -0.489445
0.156272 0.592463 -0.489282
0.160703 0.593027 -0.489349
0.165460 0.592390 -0.488709
0.170480 0.590709 -0.487457
0.174867 0.591278 -0.487552
0.179157 0.592192 -0.487861
0.183722 0.592021 -0.487532
0.188121 0.592454 -0.487570
0.192401 0.593346 -0.487890
0.196979 0.592978 -0.487468
0.201721 0.591844 -0.486600
0.206429 0.590758 -0.485768
0.210953 0.590394 -0.485373
0.215357 0.590519 -0.485276
0.219797 0.590431 -0.485060
0.223939 0.591734 -0.485676
0.228137 0.592787 -0.486151
0.232717 0.591888 -0.485476
0.237104 0.591912 -0.485356
0.241536 0.591651 -0.485075
0.245871 0.591867 -0.485083
0.250063 0.592873 -0.485565
0.254251 0.593930 -0.486084
0.258627 0.593849 -0.485936
0.263133 0.592894 -0.485280
0.267759 0.591039 -0.484098
0.272182 0.590388 -0.483635
0.276437 0.590833 -0.483826
0.280694 0.591258 -0.484013
0.284943 0.591729 -0.484233
0.289254 0.591708 -0.484169
0.293546 0.591802 -0.484179
0.298112 0.589474 -0.482767
0.302072 0.592428 -0.484479
0.306251 0.593533 -0.485107
0.310617 0.592815 -0.484664
0.315103 0.590677 -0.483389
0.319450 0.589837 -0.482887
0.323816 0.588619 -0.482168
0.327727 0.593095 -0.484819
0.332013 0.592962 -0.484754
0.336410 0.591114 -0.483683
0.340651 0.591448 -0.483907
0.344916 0.591388 -0.483904
0.349097 0.592940 -0.484860
0.353363 0.592943 -0.484909
0.357613 0.593343 -0.485198
0.361887 0.593107 -0.485117
0.366238 0.590193 -0.483461
0.370473 0.590749 -0.483862
0.374715 0.591263 -0.484245
0.378972 0.591089 -0.484228
0.383234 0.590139 -0.483759
0.387480 0.590962 -0.484345
0.391742 0.594032 -0.486268
0.396014 0.594054 -0.486394
0.400246 0.590735 -0.484550
0.404490 0.589970 -0.484224
0.408773 0.591113 -0.485035
0.413013 0.590272 -0.484677
0.417263 0.589919 -0.484617
0.421545 0.590380 -0.485045
0.425836 0.590874 -0.485501
0.430096 0.590564 -0.485487
0.434458 0.592097 -0.486574
0.438752 0.592171 -0.486803
0.442912 0.590126 -0.485781
0.447187 0.589944 -0.485872
0.451583 0.591301 -0.486887
0.455933 0.591848 -0.487427
0.460144 0.590671 -0.486949
0.464314 0.589135 -0.486266
0.468640 0.589287 -0.486594
0.473049 0.590163 -0.487361
0.477480 0.591097 -0.488172
0.481935 0.592096 -0.489029
0.486372 0.592786 -0.489710
0.490490 0.590794 -0.488799
0.495119 0.592836 -0.490304
0.499522 0.592987 -0.490688
0.503399 0.589336 -0.488804
0.507738 0.589052 -0.488941
0.512280 0.590067 -0.489864
0.516614 0.589626 -0.489922
0.521259 0.591072 -0.491119
0.526192 0.594072 -0.493257
0.529949 0.590068 -0.491198
0.534264 0.589364 -0.491125
0.539278 0.592429 -0.493325
0.543789 0.592620 -0.493805
0.547954 0.590985 -0.493190
0.552247 0.590024 -0.492986
0.557106 0.591800 -0.494437
0.561774 0.592539 -0.495268
0.565429 0.588555 -0.493251
0.570095 0.589245 -0.494060
0.574599 0.589154 -0.494400
0.579297 0.589854 -0.495221
0.584507 0.592612 -0.497293
0.588852 0.591703 -0.497143
0.593304 0.591231 -0.497258
0.598065 0.591950 -0.498096
0.602877 0.592812 -0.499019
0.607878 0.594321 -0.500335
0.612410 0.594049 -0.500564
0.616677 0.592834 -0.500211
0.620594 0.590436 -0.499131
0.625634 0.591979 -0.500447
0.629905 0.590881 -0.500142
0.634222 0.589983 -0.499949
0.640538 0.595596 -0.503728
0.644892 0.594796 -0.503572
0.648534 0.591830 -0.502074
0.652657 0.590466 -0.501540
0.657436 0.591159 -0.502251
0.662121 0.591590 -0.502783
0.667569 0.594276 -0.504679
0.671745 0.593277 -0.504293
0.675774 0.591952 -0.503683
0.680632 0.593029 -0.504526
0.685673 0.594640 -0.505672
0.690012 0.594382 -0.505643
0.694120 0.593590 -0.505259
0.698811 0.594426 -0.505848
0.702310 0.592240 -0.504547
0.704782 0.587583 -0.501697
0.708446 0.586138 -0.500793
0.714142 0.589862 -0.503040
0.718503 0.590316 -0.503243
0.722659 0.590358 -0.503161
0.726869 0.590630 -0.503188
0.731220 0.591327 -0.503446
0.734177 0.588855 -0.501723
0.738854 0.590512 -0.502507
0.743793 0.592833 -0.503667
0.748686 0.595106 -0.504764
0.752972 0.596079 -0.505032
0.753178 0.588120 -0.499795
0.758502 0.591624 -0.501555
-0.156017 0.588724 -0.508095
-0.151498 0.588489 -0.508325
-0.146896 0.588202 -0.508489
-0.143085 0.589180 -0.509409
-0.139589 0.590728 -0.510651
-0.136080 0.592358 -0.511911
-0.130022 0.590147 -0.510737
-0.123020 0.586496 -0.508627
-0.121948 0.592190 -0.512324
-0.118412 0.594141 -0.513647
-0.113549 0.594067 -0.513669
-0.107529 0.592182 -0.512524
-0.101849 0.590877 -0.511708
-0.098881 0.594090 -0.513685
-0.093468 0.593341 -0.513151
-0.087557 0.591788 -0.512083
-0.083174 0.592860 -0.512626
-0.077967 0.592578 -0.512293
-0.072511 0.591900 -0.511683
-0.068443 0.593691 -0.512589
-0.063853 0.594624 -0.512933
-0.058264 0.593810 -0.512161
-0.053045 0.593675 -0.511790
-0.048178 0.594208 -0.511815
-0.042582 0.593409 -0.510989
-0.036190 0.591101 -0.509207
-0.031772 0.592518 -0.509726
-0.027278 0.593829 -0.510163
-0.022120 0.593870 -0.509796
-0.017944 0.595858 -0.510625
-0.012824 0.595991 -0.510292
-0.007773 0.596254 -0.510030
-0.002245 0.595524 -0.509145
0.003430 0.594449 -0.508041
0.008465 0.594680 -0.507740
0.014201 0.593384 -0.506492
0.019197 0.593635 -0.506198
0.024416 0.593370 -0.505583
0.029322 0.593769 -0.505376
0.034605 0.593283 -0.504626
0.039261 0.594190 -0.504733
0.044578 0.593539 -0.503886
0.050214 0.592069 -0.502539
0.054773 0.593108 -0.502735
0.059845 0.592878 -0.502157
0.065250 0.591769 -0.501047
0.070338 0.591376 -0.500381
0.075377 0.591047 -0.499760
0.080652 0.590048 -0.498737
0.085077 0.591210 -0.499039
0.089391 0.592657 -0.499520
0.093785 0.593882 -0.499872
0.098926 0.593024 -0.498964
0.103762 0.592947 -0.498539
0.108676 0.592590 -0.497952
0.113638 0.592027 -0.497249
0.118483 0.591737 -0.496720
0.123396 0.591181 -0.496038
0.127486 0.593083 -0.496854
0.131910 0.593953 -0.497051
0.136474 0.594359 -0.496976
0.141410 0.593516 -0.496155
0.145480 0.595460 -0.497026
0.151131 0.592084 -0.494694
0.156425 0.589755 -0.493004
0.160760 0.590648 -0.493266
0.164873 0.592317 -0.494004
0.169558 0.591917 -0.493503
0.174584 0.590173 -0.492203
0.179007 0.590601 -0.492218
0.183235 0.591761 -0.492681
0.187541 0.592607 -0.492963
0.192065 0.592558 -0.492716
0.196606 0.592383 -0.492400
0.201435 0.590919 -0.491320
0.206237 0.589454 -0.490247
0.210242 0.591441 -0.491254
0.214590 0.591908 -0.491355
0.219164 0.591281 -0.490810
0.223585 0.591311 -0.490665
0.228018 0.591240 -0.490468
0.231882 0.594026 -0.491988
0.236497 0.592974 -0.491218
0.241059 0.592097 -0.490561
0.245488 0.591870 -0.490300
0.249787 0.592324 -0.490453
0.254013 0.593200 -0.490866
0.258417 0.592996 -0.490641
0.262903 0.592215 -0.490077
0.267357 0.591542 -0.489586
0.271865 0.590408 -0.488826
0.275969 0.591999 -0.489702
0.280216 0.592617 -0.490002
0.284779 0.590832 -0.488874
0.289047 0.591206 -0.489043
0.293429 0.590616 -0.488643
0.297399 0.593522 -0.490336
0.301730 0.593368 -0.490210
0.306114 0.592650 -0.489753
0.310483 0.591964 -0.489323
0.314743 0.592337 -0.489531
0.319209 0.590364 -0.488346
0.323301 0.592617 -0.489690
0.327586 0.592659 -0.489721
0.331975 0.591217 -0.488872
0.336342 0.589845 -0.488072
0.340589 0.590138 -0.488273
0.344704 0.592812 -0.489901
0.349012 0.592222 -0.489588
0.353326 0.591317 -0.489093
0.357622 0.590619 -0.488729
0.361795 0.593182 -0.490319
0.366185 0.589331 -0.488085
0.370411 0.590500 -0.488856
0.374636 0.592355 -0.490044
0.378929 0.590796 -0.489199
0.383190 0.591049 -0.489444
0.387455 0.590990 -0.489509
0.391723 0.592136 -0.490302
0.395996 0.592081 -0.490384
0.400247 0.590298 -0.489439
0.404510 0.590110 -0.489455
0.408809 0.591434 -0.490383
0.413095 0.591731 -0.490705
0.417291 0.589225 -0.489354
0.421626 0.590848 -0.490484
0.425939 0.591530 -0.491059
0.430264 0.592241 -0.491658
0.434417 0.589622 -0.490268
0.438724 0.589926 -0.490637
0.443037 0.590217 -0.491007
0.447433 0.591573 -0.492025
0.451733 0.591410 -0.492137
0.456075 0.591718 -0.492541
0.460230 0.589772 -0.491598
0.464430 0.588484 -0.491056
0.468610 0.587064 -0.490443
0.473107 0.588798 -0.491736
0.477681 0.591003 -0.493321
0.482092 0.591510 -0.493893
0.486464 0.591589 -0.494213
0.490997 0.592880 -0.495274
0.495423 0.593181 -0.495745
0.499680 0.592159 -0.495425
0.503619 0.588909 -0.493764
0.508084 0.589419 -0.494384
0.512684 0.590724 -0.495492
0.517213 0.591428 -0.496245
0.521746 0.592052 -0.496957
0.526282 0.592601 -0.497631
0.530110 0.588998 -0.495791
0.534228 0.587173 -0.495035
0.539410 0.591145 -0.497808
0.543982 0.591638 -0.498474
0.548203 0.590271 -0.498013
0.552667 0.590131 -0.498304
0.557376 0.591133 -0.499296
0.561974 0.591520 -0.499917
0.566382 0.590973 -0.499972
0.570408 0.588716 -0.498984
0.575307 0.590322 -0.500361
0.579905 0.590545 -0.500893
0.584431 0.590422 -0.501215
0.588889 0.590005 -0.501357
0.593458 0.590018 -0.501761
0.598188 0.590631 -0.502532
0.603080 0.591811 -0.503651
0.607905 0.592683 -0.504577
0.612385 0.592255 -0.504698
0.616527 0.590632 -0.504078
0.621731 0.592775 -0.505770
0.625861 0.591171 -0.505144
0.630409 0.591033 -0.505412
0.634710 0.590103 -0.505180
0.640331 0.593482 -0.507599
0.645324 0.594772 -0.508714
0.649533 0.593604 -0.508293
0.653173 0.590767 -0.506821
0.657775 0.590960 -0.507207
0.662342 0.591084 -0.507531
0.666690 0.590616 -0.507466
0.671212 0.590716 -0.507732
0.675755 0.590927 -0.508044
0.680398 0.591475 -0.508540
0.685436 0.593151 -0.509712
0.689883 0.593260 -0.509883
0.693604 0.591515 -0.508875
0.698189 0.592161 -0.509323
0.702228 0.591462 -0.508907
0.705027 0.587714 -0.506565
0.710265 0.590281 -0.508118
0.715073 0.591809 -0.508994
0.718717 0.590544 -0.508102
0.722127 0.588841 -0.506908
0.725846 0.588017 -0.506229
0.729637 0.587482 -0.505697
0.733776 0.587874 -0.505710
0.737643 0.587731 -0.505360
0.742661 0.590323 -0.506673
0.747240 0.591970 -0.507369
0.749300 0.588060 -0.504594
0.753612 0.589313 -0.504985
-0.148487 0.583614 -0.510086
-0.144376 0.583975 -0.510681
-0.140470 0.584728 -0.511490
-0.137798 0.587441 -0.513502
-0.134673 0.589582 -0.515120
-0.128642 0.587340 -0.513940
-0.125953 0.590344 -0.516036
-0.123201 0.593375 -0.518115
-0.119942 0.595725 -0.519731
-0.114058 0.593979 -0.518724
-0.108363 0.592571 -0.517896
-0.104587 0.594335 -0.519039
-0.100445 0.595592 -0.519827
-0.094802 0.594428 -0.519053
-0.089009 0.593041 -0.518106
-0.084084 0.593155 -0.518076
-0.079178 0.593353 -0.518069
-0.074343 0.593721 -0.518139
-0.068921 0.593107 -0.517561
-0.064668 0.594595 -0.518283
-0.058772 0.593192 -0.517156
-0.053666 0.593225 -0.516910
-0.048150 0.592526 -0.516181
-0.042312 0.591231 -0.515056
-0.036766 0.590470 -0.514248
-0.033007 0.593113 -0.515563
-0.028161 0.593728 -0.515585
-0.022532 0.592829 -0.514641
-0.018479 0.595031 -0.515629
-0.013982 0.596389 -0.516075
-0.008515 0.595805 -0.515292
-0.002401 0.593860 -0.513650
0.002975 0.593387 -0.512922
0.007670 0.594322 -0.513068
0.012740 0.594457 -0.512708
0.018476 0.593122 -0.511429
0.023679 0.592895 -0.510838
0.028987 0.592396 -0.510077
0.033970 0.592585 -0.509743
0.039256 0.592048 -0.508960
0.044040 0.592630 -0.508872
0.049468 0.591665 -0.507826
0.054215 0.592262 -0.507753
0.057996 0.595193 -0.509127
0.064526 0.591362 -0.506320
0.069534 0.591192 -0.505784
0.074292 0.591608 -0.505616
0.079483 0.590869 -0.504740
0.083221 0.593881 -0.506184
0.088331 0.593273 -0.505402
0.093385 0.592742 -0.504675
0.098247 0.592676 -0.504241
0.103503 0.591448 -0.503101
0.108008 0.592274 -0.503231
0.112347 0.593558 -0.503650
0.116871 0.594288 -0.503735
0.121902 0.593464 -0.502877
0.126632 0.593480 -0.502542
0.131309 0.593608 -0.502283
0.136252 0.592846 -0.501489
0.140319 0.594838 -0.502386
0.145024 0.594746 -0.502019
0.150230 0.592911 -0.500597
0.156282 0.588048 -0.497338
0.160605 0.588994 -0.497631
0.164639 0.590957 -0.498552
0.169516 0.589877 -0.497627
0.174323 0.588959 -0.496810
0.178825 0.589109 -0.496652
0.182835 0.591133 -0.497641
0.187279 0.591468 -0.497612
0.191702 0.591853 -0.497621
0.196528 0.590529 -0.496600
0.200710 0.591839 -0.497186
0.204166 0.596326 -0.499707
0.209056 0.594581 -0.498455
0.213996 0.592466 -0.496988
0.218756 0.591036 -0.495946
0.223389 0.590097 -0.495209
0.227360 0.592344 -0.496408
0.231552 0.593544 -0.496981
0.236186 0.592442 -0.496168
0.240708 0.591839 -0.495666
0.245080 0.591980 -0.495621
0.249491 0.591869 -0.495431
0.254113 0.590448 -0.494456
0.258421 0.590813 -0.494569
0.262710 0.591272 -0.494746
0.267027 0.591543 -0.494816
0.271295 0.592117 -0.495076
0.275508 0.593082 -0.495579
0.279986 0.592137 -0.494937
0.284550 0.590411 -0.493829
0.288972 0.589624 -0.493297
0.293028 0.591772 -0.494542
0.297335 0.591886 -0.494567
0.301563 0.592700 -0.495020
0.305820 0.593274 -0.495336
0.310177 0.592853 -0.495059
0.314398 0.593802 -0.495615
0.318869 0.591991 -0.494513
0.323532 0.587590 -0.491855
0.327561 0.590714 -0.493744
0.331875 0.590327 -0.493522
0.336131 0.590698 -0.493764
0.340361 0.591530 -0.494290
0.344642 0.591566 -0.494343
0.348906 0.591927 -0.494600
0.353296 0.589554 -0.493213
0.357577 0.589260 -0.493088
0.361806 0.590309 -0.493780
0.366074 0.590439 -0.493925
0.370344 0.590499 -0.494034
0.374583 0.592202 -0.495143
0.378858 0.592620 -0.495483
0.383151 0.591527 -0.494917
0.387431 0.591160 -0.494797
0.391707 0.590534 -0.494528
0.395987 0.591089 -0.494979
0.400247 0.589540 -0.494166
0.404527 0.589884 -0.494504
0.408847 0.591701 -0.495741
0.413148 0.592102 -0.496130
0.417426 0.591606 -0.495982
0.421676 0.590457 -0.495447
0.426002 0.591220 -0.496077
0.430293 0.591051 -0.496150
0.434640 0.591851 -0.496818
0.438828 0.589816 -0.495775
0.443147 0.590023 -0.496099
0.447489 0.590473 -0.496578
0.451951 0.592340 -0.497925
0.456202 0.591336 -0.497538
0.460557 0.591575 -0.497913
0.464742 0.589903 -0.497134
0.469166 0.590774 -0.497909
0.473602 0.591606 -0.498669
0.477921 0.591219 -0.498695
0.482328 0.591585 -0.499187
0.486750 0.591969 -0.499698
0.491072 0.591467 -0.499677
0.495585 0.592403 -0.500541
0.500036 0.592760 -0.501059
0.504289 0.591623 -0.500673
0.508851 0.592610 -0.501592
0.513002 0.590784 -0.500797
0.517333 0.590164 -0.500746
0.521834 0.590565 -0.501328
0.526262 0.590456 -0.501604
0.530633 0.589974 -0.501657
0.534862 0.588681 -0.501219
0.539754 0.590987 -0.502996
0.544425 0.591950 -0.503956
0.548709 0.590850 -0.503651
0.553108 0.590328 -0.503707
0.557533 0.589916 -0.503833
0.562154 0.590403 -0.504518
0.566911 0.591445 -0.505549
0.571819 0.593066 -0.506942
0.576243 0.592477 -0.506970
0.580498 0.591168 -0.506555
0.584418 0.588511 -0.505303
0.588928 0.588328 -0.505581
0.593615 0.588833 -0.506284
0.598556 0.590274 -0.507567
0.603369 0.591159 -0.508502
0.607817 0.590645 -0.508563
0.612332 0.590386 -0.508777
0.616335 0.588320 -0.507858
0.620605 0.587269 -0.507562
0.626609 0.592174 -0.510969
0.631646 0.593672 -0.512244
0.635265 0.590476 -0.510577
0.639790 0.590337 -0.510803
0.645143 0.592851 -0.512673
0.649171 0.591189 -0.511916
0.653849 0.591604 -0.512441
0.659161 0.593955 -0.514159
0.663124 0.592287 -0.513340
0.666535 0.589123 -0.511561
0.671483 0.590511 -0.512611
0.676391 0.591807 -0.513579
0.680564 0.591087 -0.513258
0.684925 0.590976 -0.513293
0.689417 0.591295 -0.513569
0.693114 0.589575 -0.512538
0.696330 0.586726 -0.510769
0.700683 0.586975 -0.510915
0.706186 0.590231 -0.512918
0.711761 0.593671 -0.515004
0.716039 0.593904 -0.515047
0.719220 0.591540 -0.513430
0.722177 0.588793 -0.511542
0.725412 0.586873 -0.510142
0.729468 0.587038 -0.510018
0.733445 0.587115 -0.509807
0.736979 0.586272 -0.508990
0.740483 0.585480 -0.508174
0.746288 0.590003 -0.510650
0.750218 0.590345 -0.510482
-0.145501 0.578825 -0.511823
-0.141918 0.579891 -0.512892
-0.138037 0.580600 -0.513703
-0.135577 0.583551 -0.515909
-0.132134 0.585122 -0.517204
-0.129613 0.588217 -0.519437
-0.125201 0.588492 -0.519840
-0.123032 0.592368 -0.522505
-0.119135 0.593646 -0.523479
-0.113489 0.592212 -0.522690
-0.108862 0.592466 -0.522942
-0.104863 0.593815 -0.523859
