ply
format ascii 1.0
comment ---
element vertex 1708
property float x
property float y
property float z
element face 0
property list uchar uint vertex_indices
end_header
0.484124 0.593970 -0.318381
0.487969 0.595106 -0.319672
0.489498 0.586646 -0.316589
0.492019 0.582449 -0.315436
0.495760 0.583146 -0.316517
0.499623 0.584222 -0.317776
0.503396 0.584864 -0.318839
0.506792 0.584037 -0.319227
0.510181 0.583166 -0.319596
0.514444 0.585379 -0.321397
0.517948 0.584828 -0.321922
0.521369 0.583973 -0.322308
0.524438 0.581928 -0.322140
0.527841 0.581017 -0.322504
0.534945 0.592047 -0.328483
0.537848 0.589334 -0.328019
0.540531 0.585992 -0.327257
0.544459 0.586541 -0.328336
0.548619 0.587733 -0.329729
0.552224 0.587213 -0.330317
0.556002 0.587177 -0.331141
0.559879 0.587394 -0.332095
0.563122 0.585784 -0.332179
0.567735 0.587989 -0.334103
0.571743 0.588442 -0.335195
0.579489 0.598895 -0.341135
0.584326 0.601294 -0.343203
0.587329 0.598806 -0.342910
0.588223 0.590945 -0.339997
0.593440 0.594214 -0.342517
0.598119 0.596014 -0.344334
0.599037 0.588488 -0.341577
0.602471 0.587231 -0.341902
0.606236 0.586768 -0.342625
0.611748 0.590393 -0.345385
0.614419 0.587286 -0.344815
0.618235 0.586851 -0.345579
0.622221 0.586774 -0.346531
0.626907 0.588222 -0.348258
0.631854 0.590169 -0.350251
0.635694 0.589624 -0.351002
0.638623 0.587105 -0.350760
0.644027 0.589843 -0.353193
0.647385 0.588203 -0.353413
0.651552 0.588230 -0.354492
0.655455 0.587681 -0.355285
0.659750 0.587894 -0.356480
0.664795 0.589549 -0.358431
0.668970 0.589418 -0.359472
0.672518 0.588034 -0.359875
0.677054 0.588532 -0.361264
0.682308 0.590330 -0.363347
0.685165 0.587573 -0.363057
0.688986 0.586615 -0.363716
0.693637 0.587150 -0.365171
0.698046 0.587193 -0.366380
0.702131 0.586616 -0.367272
0.707207 0.587749 -0.369085
0.711725 0.587844 -0.370360
0.716112 0.587666 -0.371500
0.721102 0.588471 -0.373182
0.725005 0.587389 -0.373859
0.729574 0.587391 -0.375133
0.734772 0.588379 -0.376957
0.737686 0.585593 -0.376735
0.742185 0.585366 -0.377919
0.746674 0.585081 -0.379083
0.752838 0.587384 -0.381691
0.758242 0.588410 -0.383613
0.762364 0.587398 -0.384419
0.766297 0.586072 -0.385059
0.769623 0.583815 -0.385186
0.774597 0.584008 -0.386697
0.781266 0.586638 -0.389602
0.786379 0.586899 -0.391188
0.790805 0.586118 -0.392198
0.795987 0.586379 -0.393816
0.800684 0.585900 -0.395025
0.806489 0.586926 -0.397116
0.812115 0.587630 -0.399041
0.816711 0.586865 -0.400133
0.821676 0.586560 -0.401507
0.826472 0.585983 -0.402737
0.834490 0.589625 -0.406461
0.839131 0.588720 -0.407538
0.843298 0.587166 -0.408243
0.848124 0.586434 -0.409449
0.853868 0.586827 -0.411342
0.860073 0.587733 -0.413564
0.865258 0.587300 -0.415003
0.871077 0.587598 -0.416902
0.876765 0.587674 -0.418689
0.882622 0.587893 -0.420584
0.887470 0.586849 -0.421726
0.893693 0.587389 -0.423861
0.899981 0.587934 -0.426023
0.905216 0.587192 -0.427411
0.911220 0.587285 -0.429339
0.918354 0.588594 -0.432054
0.925601 0.589943 -0.434825
0.931893 0.590141 -0.436900
0.936828 0.588780 -0.438012
0.943252 0.589004 -0.440152
0.951245 0.590848 -0.443359
0.957732 0.590984 -0.445504
0.963213 0.589988 -0.446944
0.969347 0.589630 -0.448820
0.976704 0.590474 -0.451509
0.984393 0.591573 -0.454401
0.990205 0.590677 -0.456013
0.996760 0.590476 -0.458110
1.002914 0.589809 -0.459926
1.011313 0.591289 -0.463210
1.018177 0.591174 -0.465461
1.025248 0.591187 -0.467832
1.033711 0.592450 -0.471089
1.039510 0.591098 -0.472599
1.048130 0.592334 -0.475916
1.054673 0.591544 -0.477877
1.061942 0.591356 -0.480288
1.069056 0.590952 -0.482584
1.076368 0.590652 -0.484990
1.083573 0.590183 -0.487312
1.090803 0.589662 -0.489634
1.099659 0.590483 -0.492953
1.109288 0.591867 -0.496725
1.117046 0.591543 -0.499316
1.126409 0.592494 -0.502873
1.134586 0.592347 -0.505679
1.142145 0.591604 -0.508089
1.151985 0.592652 -0.511865
1.162143 0.593844 -0.515803
1.169228 0.592462 -0.517865
1.176959 0.591529 -0.520300
1.185583 0.591223 -0.523250
1.198073 0.593828 -0.528468
1.203573 0.590923 -0.529519
1.209504 0.588312 -0.530815
1.219204 0.588496 -0.534310
1.229322 0.588893 -0.538019
1.243124 0.591898 -0.543837
1.250146 0.589813 -0.545687
1.258081 0.588338 -0.548046
1.267122 0.587589 -0.551019
1.272959 0.584510 -0.552135
1.283994 0.585028 -0.556195
1.294457 0.585054 -0.559895
1.301437 0.582616 -0.561594
1.324054 0.590695 -0.572059
1.336300 0.591595 -0.576629
1.344379 0.589643 -0.578833
1.353299 0.588204 -0.581478
1.362084 0.586632 -0.584018
1.377475 0.589240 -0.590161
1.390151 0.590005 -0.594756
1.396917 0.586991 -0.596074
1.416525 0.591920 -0.604351
1.421520 0.587741 -0.604632
1.426229 0.583422 -0.604743
1.443083 0.586414 -0.611358
1.454300 0.585955 -0.614888
1.468277 0.587078 -0.619841
1.482795 0.588450 -0.625022
1.492980 0.587269 -0.627852
1.501437 0.585098 -0.629730
1.511840 0.584037 -0.632592
1.522773 0.583268 -0.635685
1.532418 0.581785 -0.638064
1.543488 0.581091 -0.641138
1.556076 0.581216 -0.644947
1.576375 0.585450 -0.652657
1.587980 0.584993 -0.655841
1.602810 0.586231 -0.660616
1.614225 0.585674 -0.663601
1.628044 0.586364 -0.667752
1.631244 0.581642 -0.666516
1.643529 0.581597 -0.669812
1.654146 0.580729 -0.672229
1.656400 0.575750 -0.670465
0.387229 0.576727 -0.287415
0.389873 0.579476 -0.289548
0.392370 0.580133 -0.290802
0.394935 0.580970 -0.292127
0.397125 0.577862 -0.291773
0.398930 0.571127 -0.289858
0.401512 0.571195 -0.290823
0.403402 0.565108 -0.289141
0.406405 0.568071 -0.291327
0.409636 0.572301 -0.294060
0.413684 0.582116 -0.299214
0.416639 0.582997 -0.300506
0.418875 0.578400 -0.299405
0.421276 0.574934 -0.298776
0.424921 0.579723 -0.301748
0.428607 0.584245 -0.304605
0.431364 0.582392 -0.304655
0.434379 0.581994 -0.305335
0.438166 0.585997 -0.307956
0.440620 0.581848 -0.306954
0.444072 0.583347 -0.308453
0.447579 0.584889 -0.309967
0.450928 0.585330 -0.310983
0.455103 0.589889 -0.313847
0.458260 0.588901 -0.314214
0.461402 0.587745 -0.314496
0.464059 0.584171 -0.313676
0.467265 0.583235 -0.314041
0.471075 0.585009 -0.315634
0.474847 0.586425 -0.317066
0.478856 0.588721 -0.318901
0.483616 0.594043 -0.322129
0.488645 0.600177 -0.325742
0.490462 0.592781 -0.323124
0.491694 0.583276 -0.319512
0.495131 0.582774 -0.320056
0.499012 0.583943 -0.321375
0.502735 0.584406 -0.322371
0.505998 0.583097 -0.322541
0.509535 0.582782 -0.323177
0.514113 0.586130 -0.325535
0.518185 0.587538 -0.326992
0.520670 0.583422 -0.325847
0.525200 0.586282 -0.328000
0.530231 0.590646 -0.330878
0.535312 0.594977 -0.333755
0.537180 0.588902 -0.331686
0.540059 0.586160 -0.331202
0.543355 0.584755 -0.331358
0.547921 0.587197 -0.333367
0.551285 0.585955 -0.333612
0.554952 0.585603 -0.334292
0.558733 0.585555 -0.335126
0.562940 0.586677 -0.336536
0.566854 0.586917 -0.337526
0.573475 0.594521 -0.342122
0.578298 0.597012 -0.344242
0.580394 0.592162 -0.342773
0.583524 0.590125 -0.342684
0.587352 0.589908 -0.343497
0.589711 0.585942 -0.342462
0.594030 0.586952 -0.343896
0.597728 0.586370 -0.344549
0.601496 0.585936 -0.345284
0.606778 0.589102 -0.347831
0.610332 0.588070 -0.348287
0.614027 0.587357 -0.348911
0.617726 0.586637 -0.349539
0.622159 0.587559 -0.351006
0.626533 0.588289 -0.352389
0.630778 0.588676 -0.353610
0.635225 0.589455 -0.355043
0.639356 0.589497 -0.356110
0.643598 0.589734 -0.357288
0.647429 0.589068 -0.358013
0.650992 0.587826 -0.358447
0.654980 0.587441 -0.359333
0.659107 0.587306 -0.360359
0.664333 0.589314 -0.362516
0.668675 0.589501 -0.363735
0.672336 0.588320 -0.364248
0.676359 0.587822 -0.365128
0.680612 0.587728 -0.366232
0.685374 0.588542 -0.367829
0.689069 0.587329 -0.368361
0.693486 0.587416 -0.369596
0.697130 0.586066 -0.370072
0.701960 0.586814 -0.371684
0.706261 0.586572 -0.372777
0.710891 0.586863 -0.374170
0.716186 0.588245 -0.376170
0.720363 0.587652 -0.377111
0.725215 0.588161 -0.378665
0.729880 0.588301 -0.380032
0.733747 0.587082 -0.380662
0.738365 0.587064 -0.381967
0.741829 0.585148 -0.382230
0.747491 0.586716 -0.384441
0.751819 0.586108 -0.385456
0.756466 0.585963 -0.386741
0.762115 0.587310 -0.388882
0.766115 0.586075 -0.389582
0.769411 0.583761 -0.389679
0.776096 0.586486 -0.392652
0.780650 0.585969 -0.393798
0.785843 0.586344 -0.395468
0.790773 0.586281 -0.396904
0.794924 0.585061 -0.397686
0.799159 0.583934 -0.398533
0.805563 0.585803 -0.401137
0.811005 0.586254 -0.402937
0.816473 0.586681 -0.404741
0.821967 0.587080 -0.406549
0.826554 0.586208 -0.407622
0.832351 0.586899 -0.409639
0.837510 0.586688 -0.411139
0.842748 0.586529 -0.412688
0.847842 0.586135 -0.414112
0.854539 0.587726 -0.416755
0.859980 0.587652 -0.418415
0.866686 0.589096 -0.421019
0.870806 0.587274 -0.421651
0.877623 0.588714 -0.424301
0.882211 0.587381 -0.425266
0.887640 0.587021 -0.426850
0.893759 0.587423 -0.428929
0.900355 0.588314 -0.431338
0.904932 0.586793 -0.432260
0.909813 0.585590 -0.433396
0.917411 0.587429 -0.436480
0.926009 0.590289 -0.440249
0.932697 0.590909 -0.442626
0.938083 0.590022 -0.444063
0.944770 0.590503 -0.446405
0.950341 0.589708 -0.447949
0.956304 0.589281 -0.449755
0.963378 0.589968 -0.452316
0.970436 0.590559 -0.454846
0.976219 0.589750 -0.456484
0.981632 0.588510 -0.457859
0.990640 0.590868 -0.461662
0.997665 0.591118 -0.464095
1.003819 0.590427 -0.465927
1.010683 0.590376 -0.468221
1.018030 0.590721 -0.470818
1.026377 0.591949 -0.474057
1.033451 0.591863 -0.476434
1.040207 0.591402 -0.478585
1.047895 0.591744 -0.481329
1.055660 0.592072 -0.484103
1.062939 0.591869 -0.486543
1.069333 0.590789 -0.488398
1.076181 0.590057 -0.490532
1.084434 0.590504 -0.493545
1.090634 0.589057 -0.495237
1.098998 0.589437 -0.498282
1.107660 0.589979 -0.501491
1.118343 0.592147 -0.505938
1.123716 0.589709 -0.507052
1.133748 0.591119 -0.511041
1.144180 0.592741 -0.515246
1.153717 0.593510 -0.518870
1.161973 0.593138 -0.521684
1.170779 0.593122 -0.524812
1.177794 0.591599 -0.526833
1.185818 0.590805 -0.529447
1.198903 0.593858 -0.535077
1.206762 0.592748 -0.537540
1.211469 0.589177 -0.538109
1.222165 0.590083 -0.542221
1.230296 0.588974 -0.544788
1.241743 0.590233 -0.549279
1.251574 0.590198 -0.552788
1.262300 0.590717 -0.556787
1.267627 0.587294 -0.557620
1.272454 0.583502 -0.558154
1.296447 0.593047 -0.569705
1.295425 0.585073 -0.566827
1.306778 0.585614 -0.571026
1.326946 0.592002 -0.580194
1.331487 0.587753 -0.580437
1.343349 0.588344 -0.584795
1.351501 0.586425 -0.587026
1.366482 0.588880 -0.593046
1.377177 0.588475 -0.596620
1.386751 0.587301 -0.599530
1.394428 0.584904 -0.601357
1.416978 0.591688 -0.611332
1.421912 0.587498 -0.611565
1.428749 0.584494 -0.612816
1.440601 0.584504 -0.616765
1.459081 0.588393 -0.624248
1.473000 0.589485 -0.629194
1.484801 0.589288 -0.632945
1.491667 0.586228 -0.634008
1.500474 0.584303 -0.636076
1.509712 0.582633 -0.638334
1.520644 0.581916 -0.641445
1.529467 0.580034 -0.643402
1.537972 0.578001 -0.645155
1.554590 0.580374 -0.651096
1.571967 0.583096 -0.657358
1.587258 0.584657 -0.662469
1.599349 0.584507 -0.665871
1.611029 0.584148 -0.669012
1.623103 0.584002 -0.672307
1.628963 0.580700 -0.672400
1.633686 0.576894 -0.671898
1.638002 0.572965 -0.671178
1.641728 0.568826 -0.670150
0.389803 0.578988 -0.292406
0.392374 0.580566 -0.294074
0.394915 0.581332 -0.295391
0.398911 0.595147 -0.302306
0.401182 0.592156 -0.302016
0.400730 0.565391 -0.291436
0.402937 0.562306 -0.291038
0.405745 0.563937 -0.292675
0.408910 0.567943 -0.295344
0.412840 0.577172 -0.300303
0.415855 0.578791 -0.301937
0.417112 0.567478 -0.297868
0.420800 0.573367 -0.301363
0.424860 0.581136 -0.305698
0.428014 0.582284 -0.307101
0.430904 0.581447 -0.307612
0.433895 0.581044 -0.308306
0.437965 0.586879 -0.311790
0.440628 0.584010 -0.311363
0.443321 0.581262 -0.310976
0.446935 0.583541 -0.312848
0.449666 0.580790 -0.312437
0.454298 0.587941 -0.316518
0.458557 0.592683 -0.319510
0.461163 0.588831 -0.318576
0.463414 0.583310 -0.316862
0.466496 0.581859 -0.317002
0.470266 0.583533 -0.318575
0.474130 0.585444 -0.320258
0.478787 0.590659 -0.323473
0.482950 0.593420 -0.325559
0.484122 0.583377 -0.321684
0.490268 0.594172 -0.327517
0.491640 0.585192 -0.324115
0.494778 0.583486 -0.324107
0.500533 0.591892 -0.328854
0.503682 0.590034 -0.328779
0.506237 0.585989 -0.327667
0.510727 0.589080 -0.329932
0.516536 0.596704 -0.334363
0.519433 0.593803 -0.333799
0.521226 0.587184 -0.331454
0.524861 0.586963 -0.332163
0.530874 0.594566 -0.336634
0.533666 0.591399 -0.335942
0.535858 0.586397 -0.334363
0.539066 0.584714 -0.334383
0.543331 0.586300 -0.335991
0.547086 0.586255 -0.336816
0.550697 0.585747 -0.337422
0.554503 0.585793 -0.338304
0.558081 0.585145 -0.338854
0.562352 0.586444 -0.340366
0.566092 0.586189 -0.341124
0.568892 0.583332 -0.340603
0.573392 0.585115 -0.342382
0.578772 0.589149 -0.345293
0.582524 0.588764 -0.346021
0.587203 0.590747 -0.347941
0.590373 0.588803 -0.347907
0.593475 0.586714 -0.347804
0.596993 0.585673 -0.348232
0.601541 0.587132 -0.349930
0.605810 0.587844 -0.351264
0.609621 0.587419 -0.352030
0.613591 0.587338 -0.352982
0.617613 0.587345 -0.353988
0.621615 0.587266 -0.354960
0.625949 0.587898 -0.356307
0.629950 0.587738 -0.357258
0.634458 0.588649 -0.358773
0.638587 0.588684 -0.359847
0.641779 0.586692 -0.359877
0.647209 0.589395 -0.362363
0.650576 0.587729 -0.362579
0.654224 0.586638 -0.363104
0.658635 0.587071 -0.364439
0.662876 0.587113 -0.365581
0.667863 0.588579 -0.367489
0.671996 0.588311 -0.368491
0.675673 0.587137 -0.369019
0.680964 0.589001 -0.371183
0.684671 0.587818 -0.371728
0.689155 0.588054 -0.373045
0.692844 0.586793 -0.373566
0.697891 0.587966 -0.375415
0.701956 0.587318 -0.376290
0.706218 0.586988 -0.377348
0.711130 0.587753 -0.379018
0.715477 0.587484 -0.380135
0.720267 0.587929 -0.381658
0.724673 0.587673 -0.382807
0.729243 0.587651 -0.384099
0.734035 0.587946 -0.385581
0.737637 0.586257 -0.385967
0.743201 0.587708 -0.388125
0.746969 0.586229 -0.388649
0.751212 0.585482 -0.389597
0.756267 0.585964 -0.391253
0.761083 0.586021 -0.392684
0.765777 0.585843 -0.393996
0.770783 0.586090 -0.395566
0.776037 0.586650 -0.397332
0.779631 0.584709 -0.397668
0.786352 0.587308 -0.400650
0.789864 0.585182 -0.400903
0.793864 0.583746 -0.401567
0.801230 0.587033 -0.405017
0.806475 0.587242 -0.406682
0.808887 0.583489 -0.406018
0.818085 0.589021 -0.410876
0.821259 0.586251 -0.410821
0.826323 0.586012 -0.412287
0.831668 0.586096 -0.413965
0.836726 0.585748 -0.415401
0.841406 0.584864 -0.416528
0.847701 0.586013 -0.418909
0.854174 0.587309 -0.421406
0.858998 0.586453 -0.422607
0.864526 0.586432 -0.424339
0.871657 0.588326 -0.427279
0.876405 0.587224 -0.428384
0.882104 0.587232 -0.430200
0.888032 0.587454 -0.432172
0.893491 0.587058 -0.433778
0.899243 0.586954 -0.435589
0.904935 0.586722 -0.437342
0.910265 0.586019 -0.438817
0.918506 0.588566 -0.442399
0.924774 0.588787 -0.444520
0.930710 0.588573 -0.446386
0.938885 0.590758 -0.449839
0.945969 0.591648 -0.452485
0.950580 0.589792 -0.453359
0.957079 0.589920 -0.455560
0.964325 0.590766 -0.458266
0.970154 0.590048 -0.459964
0.976061 0.589356 -0.461704
0.981977 0.588618 -0.463439
0.990835 0.590805 -0.467180
0.997332 0.590510 -0.469279
1.003452 0.589774 -0.471107
1.009846 0.589249 -0.473108
1.016903 0.589307 -0.475541
1.024881 0.590174 -0.478572
1.033106 0.591185 -0.481744
1.039149 0.590041 -0.483447
1.046266 0.589845 -0.485847
1.057692 0.593556 -0.491056
1.062562 0.591116 -0.491943
1.068453 0.589570 -0.493491
1.077672 0.590957 -0.497182
1.086403 0.591799 -0.500529
1.094269 0.591782 -0.503298
1.099276 0.589198 -0.504224
1.106182 0.588215 -0.506353
1.119338 0.592484 -0.512414
1.129694 0.594221 -0.516664
1.136075 0.592522 -0.518395
1.144663 0.592589 -0.521489
1.152953 0.592323 -0.524375
1.160681 0.591519 -0.526892
1.171473 0.593090 -0.531276
1.181118 0.593630 -0.534922
1.186301 0.590577 -0.535819
1.198268 0.592748 -0.540829
1.206879 0.592211 -0.543769
1.214493 0.590838 -0.546085
1.222756 0.589889 -0.548772
1.231321 0.589092 -0.551617
1.246274 0.592910 -0.558231
1.256396 0.593048 -0.561932
1.264249 0.591463 -0.564262
1.271440 0.589353 -0.566183
1.280328 0.588392 -0.569075
1.290959 0.588578 -0.572953
1.298934 0.586846 -0.575254
1.310146 0.587273 -0.579400
1.322759 0.588552 -0.584308
1.334077 0.588861 -0.588428
1.343750 0.588003 -0.591566
1.357054 0.589455 -0.596730
1.368622 0.589685 -0.600859
1.377616 0.588199 -0.603493
1.389828 0.588710 -0.607897
1.401211 0.588630 -0.611788
1.411443 0.587782 -0.614991
1.420181 0.585983 -0.617325
1.429409 0.584467 -0.619894
1.444635 0.586522 -0.625717
1.461570 0.589503 -0.632409
1.472128 0.588645 -0.635553
1.485525 0.589415 -0.640191
1.492187 0.586273 -0.641134
1.500284 0.583981 -0.642820
1.508211 0.581617 -0.644379
1.520268 0.581576 -0.648107
1.530029 0.580254 -0.650563
1.540860 0.579527 -0.653542
1.555406 0.580809 -0.658430
1.566410 0.580166 -0.661399
1.575805 0.578680 -0.663482
1.590976 0.580246 -0.668526
1.609212 0.583375 -0.675091
1.622375 0.583840 -0.678966
1.627273 0.580093 -0.678551
1.631279 0.575973 -0.677664
1.628579 0.568587 -0.673359
0.391601 0.573097 -0.293936
0.394216 0.575004 -0.295758
0.399032 0.596842 -0.306228
0.402013 0.600336 -0.308770
0.403366 0.589082 -0.304872
0.403005 0.563829 -0.294795
0.405419 0.562372 -0.295103
0.408635 0.566980 -0.298076
0.411798 0.570575 -0.300605
0.414164 0.567768 -0.300291
0.417864 0.574367 -0.304153
0.421992 0.583247 -0.309044
0.424642 0.581390 -0.309136
0.427504 0.580756 -0.309765
0.430879 0.583156 -0.311751
0.433984 0.583521 -0.312814
0.436918 0.582613 -0.313291
0.440086 0.582898 -0.314301
0.443193 0.582621 -0.315046
0.446473 0.583119 -0.316137
0.450005 0.584762 -0.317748
0.453421 0.585544 -0.318959
0.458621 0.595242 -0.324281
0.461977 0.595118 -0.325075
0.463091 0.583964 -0.320744
0.465766 0.580616 -0.320012
0.468903 0.579447 -0.320284
0.472508 0.580333 -0.321510
0.478169 0.590157 -0.326927
0.479553 0.580971 -0.323426
0.484576 0.587467 -0.327294
0.488914 0.590766 -0.329664
0.492679 0.591527 -0.330839
0.496596 0.592780 -0.332249
0.498919 0.587735 -0.330663
0.502348 0.587029 -0.331138
0.506369 0.588495 -0.332651
0.512056 0.595914 -0.337027
0.517573 0.602387 -0.340969
0.519775 0.596936 -0.339178
0.520835 0.587713 -0.335552
0.527842 0.598858 -0.341783
0.528570 0.588750 -0.337716
0.531469 0.586023 -0.337225
0.535444 0.586794 -0.338441
0.540206 0.589967 -0.340842
0.543585 0.588723 -0.341087
0.546698 0.586679 -0.340942
0.550029 0.585316 -0.341134
0.554120 0.586193 -0.342438
0.558252 0.587121 -0.343777
0.561809 0.586352 -0.344281
0.565203 0.585117 -0.344558
0.569738 0.587021 -0.346411
0.574005 0.588107 -0.347867
0.576960 0.585632 -0.347542
0.582098 0.588920 -0.350126
0.586474 0.590104 -0.351664
0.589926 0.588871 -0.351988
0.593247 0.587308 -0.352150
0.597149 0.587192 -0.353055
0.601256 0.587540 -0.354207
0.604646 0.586124 -0.354464
0.608882 0.586713 -0.355758
0.612919 0.586784 -0.356797
0.617030 0.586986 -0.357914
0.621579 0.588141 -0.359536
0.625791 0.588473 -0.360743
0.629992 0.588731 -0.361924
0.635144 0.591019 -0.364179
0.637767 0.587769 -0.363542
0.640906 0.585661 -0.363508
0.643894 0.583253 -0.363320
0.649579 0.586442 -0.366102
0.653481 0.585871 -0.366906
0.657473 0.585454 -0.367801
0.661446 0.584972 -0.368672
0.665730 0.585071 -0.369864
0.670946 0.586936 -0.372020
0.675535 0.587511 -0.373497
0.679093 0.586077 -0.373898
0.683524 0.586269 -0.375191
0.688158 0.586790 -0.376677
0.693343 0.588260 -0.378696
0.699008 0.590519 -0.381166
0.702829 0.589393 -0.381791
0.706229 0.587509 -0.382006
0.710430 0.587017 -0.382999
0.715063 0.587236 -0.384400
0.719443 0.586975 -0.385546
0.723790 0.586618 -0.386650
0.729269 0.588105 -0.388804
0.733482 0.587434 -0.389759
0.737692 0.586725 -0.390704
0.741308 0.585030 -0.391100
0.746210 0.585370 -0.392664
0.751064 0.585580 -0.394169
0.755751 0.585478 -0.395511
0.760794 0.585877 -0.397156
0.765004 0.584952 -0.398051
0.771449 0.587361 -0.400895
0.775230 0.585705 -0.401393
0.780125 0.585675 -0.402853
0.786044 0.587085 -0.405174
0.789830 0.585343 -0.405658
0.794061 0.584224 -0.406519
0.800309 0.585918 -0.409066
0.805449 0.585980 -0.410662
0.812043 0.587995 -0.413447
0.816292 0.586714 -0.414276
0.821768 0.587065 -0.416102
0.825651 0.585226 -0.416620
0.831795 0.586362 -0.418959
0.836642 0.585722 -0.420237
0.841317 0.584820 -0.421370
0.849480 0.588350 -0.425251
0.853299 0.586244 -0.425679
0.858530 0.585895 -0.427211
0.864582 0.586518 -0.429368
0.869774 0.586014 -0.430842
0.875560 0.586185 -0.432761
0.882476 0.587655 -0.435524
0.887856 0.587205 -0.437098
0.892764 0.586148 -0.438305
0.899119 0.586743 -0.440589
0.906788 0.588783 -0.443830
0.912452 0.588427 -0.445558
0.918057 0.587950 -0.447230
0.923694 0.587454 -0.448912
0.932577 0.590507 -0.452945
0.938606 0.590300 -0.454875
0.945135 0.590575 -0.457150
0.951118 0.590192 -0.459016
0.957373 0.590040 -0.461063
0.963756 0.589957 -0.463185
0.970992 0.590700 -0.465893
0.976637 0.589714 -0.467463
0.983603 0.590030 -0.469946
0.990538 0.590237 -0.472387
0.996693 0.589587 -0.474273
1.003509 0.589534 -0.476598
1.009961 0.589051 -0.478659
1.016484 0.588573 -0.480754
1.022797 0.587829 -0.482693
1.031032 0.588853 -0.485912
1.038697 0.589244 -0.488725
1.047000 0.590144 -0.491941
1.056938 0.592457 -0.496218
1.062590 0.590726 -0.497631
1.068236 0.588943 -0.499032
1.079254 0.591927 -0.503938
1.087260 0.592098 -0.506844
1.094213 0.591258 -0.509047
1.100600 0.589860 -0.510870
1.106289 0.587805 -0.512233
1.117707 0.590579 -0.517249
1.124895 0.589650 -0.519535
1.134785 0.590903 -0.523515
1.143612 0.591166 -0.526794
1.151091 0.590236 -0.529202
1.159116 0.589677 -0.531934
1.171444 0.592475 -0.537321
1.185010 0.596102 -0.543430
1.189811 0.592711 -0.544086
1.200040 0.593498 -0.548069
1.206705 0.591450 -0.549840
1.214278 0.590042 -0.552151
1.223301 0.589659 -0.555320
1.233309 0.589923 -0.559057
1.244451 0.590925 -0.563443
1.254474 0.591003 -0.567120
1.267027 0.592807 -0.572272
1.272686 0.589591 -0.573286
1.278711 0.586613 -0.574504
1.287109 0.585264 -0.577103
1.296983 0.584874 -0.580539
1.312522 0.588265 -0.587247
1.322959 0.588072 -0.590926
1.339494 0.591863 -0.598095
1.348406 0.590480 -0.600801
1.363791 0.593269 -0.607189
1.364937 0.586757 -0.605373
1.379097 0.588611 -0.610968
1.386153 0.585882 -0.612476
1.397371 0.585749 -0.616306
1.405841 0.583866 -0.618543
1.417780 0.584089 -0.622689
1.432271 0.585799 -0.628205
1.444610 0.586143 -0.632462
1.456904 0.586410 -0.636640
1.468294 0.586105 -0.640267
1.476142 0.583720 -0.641900
1.489414 0.584464 -0.646461
1.497373 0.582151 -0.648075
1.505403 0.579902 -0.649693
1.520031 0.581348 -0.654831
1.533861 0.582309 -0.659476
1.544461 0.581479 -0.662334
1.552081 0.579047 -0.663562
1.558664 0.576102 -0.664208
1.571452 0.576494 -0.668100
1.589312 0.579536 -0.674600
1.609417 0.583687 -0.682195
1.614810 0.580198 -0.682049
1.625091 0.579271 -0.684417
1.635278 0.578321 -0.686696
0.391688 0.574060 -0.297392
0.395424 0.586906 -0.304024
0.398532 0.592623 -0.307564
0.400720 0.589307 -0.307138
0.401911 0.577173 -0.302801
0.404628 0.578284 -0.304290
0.406188 0.569571 -0.301406
0.409141 0.572040 -0.303477
0.412514 0.577233 -0.306767
0.414676 0.572853 -0.305764
0.419164 0.585091 -0.312226
0.422870 0.590879 -0.315800
0.424434 0.581602 -0.312551
0.427461 0.582171 -0.313746
0.430322 0.581392 -0.314317
0.433307 0.581188 -0.315140
0.435991 0.578946 -0.315019
0.439730 0.582781 -0.317680
0.443099 0.584096 -0.319180
0.445638 0.580546 -0.318423
0.449334 0.583240 -0.320547
0.453606 0.588645 -0.323933
0.457457 0.591459 -0.326116
0.462527 0.600068 -0.331013
0.462523 0.583377 -0.324049
0.465528 0.581660 -0.324085
0.473074 0.600999 -0.334049
0.474302 0.590648 -0.330008
0.476378 0.584421 -0.327894
0.479704 0.583785 -0.328420
0.482390 0.580372 -0.327618
0.487336 0.586385 -0.331312
0.493181 0.595703 -0.336605
0.496257 0.593555 -0.336408
0.499399 0.591684 -0.336340
0.502033 0.587881 -0.335334
0.505915 0.588824 -0.336618
0.511829 0.597099 -0.341466
0.515492 0.596927 -0.342225
0.518173 0.593249 -0.341275
0.520019 0.586785 -0.338956
0.523899 0.587393 -0.340093
0.526779 0.584613 -0.339569
0.530409 0.584334 -0.340277
0.534234 0.584650 -0.341283
0.538667 0.586824 -0.343215
0.542230 0.586194 -0.343766
0.545552 0.584812 -0.343947
0.549519 0.585370 -0.345099
0.553534 0.586009 -0.346300
0.557785 0.587275 -0.347825
0.561170 0.585999 -0.348080
0.564981 0.585921 -0.348945
0.569274 0.587136 -0.350472
0.573122 0.587072 -0.351361
0.577299 0.587855 -0.352689
0.582015 0.589991 -0.354718
0.585219 0.588116 -0.354710
0.588654 0.586852 -0.355018
0.592648 0.586990 -0.356054
0.596655 0.587121 -0.357096
0.600410 0.586599 -0.357810
0.604875 0.587762 -0.359407
0.608037 0.585769 -0.359373
0.612242 0.586231 -0.360626
0.616323 0.586358 -0.361715
0.621162 0.588165 -0.363697
0.625368 0.588469 -0.364903
0.630848 0.591541 -0.367583
0.633863 0.589118 -0.367371
0.637746 0.588587 -0.368169
0.640922 0.586528 -0.368161
0.644471 0.585268 -0.368584
0.649023 0.586076 -0.370124
0.652656 0.584945 -0.370635
0.656609 0.584448 -0.371495
0.660743 0.584284 -0.372546
0.664649 0.583634 -0.373344
0.669669 0.585124 -0.375317
0.674137 0.585478 -0.376686
0.678176 0.584965 -0.377593
0.682445 0.584856 -0.378733
0.687698 0.586524 -0.380867
0.692511 0.587307 -0.382528
0.697806 0.588897 -0.384653
0.701807 0.588099 -0.385465
0.705608 0.586921 -0.386075
0.709613 0.586083 -0.386884
0.715045 0.587675 -0.389073
0.718892 0.586489 -0.389710
0.723352 0.586316 -0.390931
0.728904 0.587916 -0.393175
0.732570 0.586335 -0.393621
0.735797 0.584026 -0.393658
0.740561 0.584194 -0.395125
0.745774 0.585026 -0.396990
0.750720 0.585372 -0.398592
0.755831 0.585920 -0.400328
0.759524 0.584227 -0.400773
0.764315 0.584191 -0.402197
0.769864 0.585249 -0.404280
0.775005 0.585626 -0.405981
0.780799 0.586907 -0.408235
0.786548 0.588046 -0.410428
0.790758 0.586893 -0.411272
0.794740 0.585387 -0.411917
0.799911 0.585539 -0.413571
0.805959 0.586859 -0.415947
0.811368 0.587218 -0.417765
0.815896 0.586313 -0.418833
0.819932 0.584710 -0.419487
0.826980 0.587113 -0.422612
0.831704 0.586339 -0.423809
0.835858 0.584779 -0.424536
0.840777 0.584188 -0.425876
0.849863 0.588896 -0.430540
0.854231 0.587466 -0.431402
0.859549 0.587201 -0.433011
0.864684 0.586657 -0.434463
0.869638 0.585845 -0.435764
0.874899 0.585365 -0.437294
0.883179 0.588473 -0.441141
0.887278 0.586473 -0.441744
0.891710 0.584848 -0.442600
0.899715 0.587367 -0.446160
0.906784 0.588693 -0.448982
0.912481 0.588361 -0.450750
0.917730 0.587464 -0.452171
0.925121 0.588926 -0.455171
0.932598 0.590387 -0.458206
0.939149 0.590739 -0.460536
0.945219 0.590494 -0.462498
0.950216 0.589035 -0.463668
0.955989 0.588364 -0.465391
0.962969 0.588912 -0.467968
0.970681 0.590145 -0.471045
0.977288 0.590141 -0.473314
0.983318 0.589478 -0.475159
0.989744 0.589158 -0.477269
0.996409 0.589013 -0.479531
1.003762 0.589481 -0.482256
1.011116 0.589866 -0.484959
1.017691 0.589412 -0.487106
1.023027 0.587702 -0.488391
1.031673 0.589100 -0.491923
1.039803 0.589906 -0.495078
1.048370 0.591027 -0.498502
1.057459 0.592527 -0.502250
1.062372 0.590102 -0.503180
1.068567 0.588804 -0.504958
1.076585 0.589084 -0.507933
1.085908 0.590431 -0.511743
1.093181 0.589870 -0.514180
1.099900 0.588757 -0.516240
1.109143 0.589748 -0.519923
1.115819 0.588453 -0.521919
1.127638 0.591421 -0.527210
1.132280 0.588270 -0.527861
1.141269 0.588677 -0.531283
1.150276 0.589000 -0.534689
1.157670 0.587929 -0.537049
1.168454 0.589495 -0.541524
1.181134 0.592434 -0.547149
1.191532 0.593441 -0.551304
1.200640 0.593339 -0.554624
1.207358 0.591322 -0.556439
1.213578 0.588880 -0.557931
1.224064 0.589593 -0.562026
1.231062 0.587619 -0.563956
1.240403 0.587316 -0.567292
1.250726 0.587643 -0.571191
1.268814 0.593443 -0.579735
1.271046 0.587788 -0.578686
1.276208 0.584224 -0.579392
1.293193 0.588862 -0.587124
1.298782 0.585493 -0.588029
1.303247 0.581353 -0.588256
1.330656 0.592646 -0.601959
1.340695 0.592073 -0.605370
1.350071 0.591004 -0.608357
1.355013 0.587003 -0.608733
1.374760 0.592550 -0.617650
1.377028 0.586783 -0.616419
1.383718 0.583865 -0.617719
1.386735 0.578662 -0.616896
1.399756 0.579686 -0.621750
1.421537 0.585983 -0.631505
1.428347 0.583063 -0.632722
1.438096 0.581917 -0.635560
1.449466 0.581714 -0.639261
1.459565 0.580736 -0.642204
1.478949 0.585123 -0.650246
1.485975 0.582310 -0.651381
1.495050 0.580691 -0.653612
1.501989 0.577885 -0.654634
1.518996 0.580714 -0.661109
1.533502 0.582096 -0.666151
1.542801 0.580601 -0.668317
1.546783 0.576258 -0.667585
1.557804 0.575755 -0.670605
1.570208 0.575991 -0.674315
1.589575 0.579872 -0.681665
1.601676 0.579910 -0.685094
1.604982 0.575426 -0.683848
1.612209 0.573030 -0.684646
1.634666 0.578377 -0.693355
0.396535 0.597728 -0.311915
0.397475 0.583065 -0.306483
0.400537 0.565800 -0.300848
0.404016 0.573841 -0.305449
0.406793 0.575319 -0.307117
0.408954 0.571522 -0.306403
0.411502 0.570591 -0.306967
0.418028 0.598835 -0.320763
0.418675 0.582896 -0.314513
0.421639 0.583736 -0.315873
0.425049 0.587259 -0.318457
0.426932 0.580293 -0.316219
0.429809 0.579793 -0.316934
0.432519 0.578045 -0.317062
0.436336 0.582832 -0.320208
0.439645 0.584161 -0.321749
0.442372 0.581887 -0.321604
0.444905 0.578447 -0.320898
0.448151 0.578861 -0.321984
0.451100 0.577508 -0.322232
0.455900 0.585569 -0.326914
0.459727 0.588196 -0.329037
0.464512 0.595235 -0.333256
0.468072 0.595942 -0.334472
0.471517 0.595949 -0.335350
0.474062 0.591733 -0.334202
0.477136 0.589944 -0.334203
0.479764 0.586191 -0.333252
0.483237 0.586098 -0.334053
0.486216 0.583856 -0.333812
0.490194 0.585691 -0.335541
0.495772 0.593739 -0.340294
0.498893 0.591795 -0.340196
0.502170 0.590450 -0.340386
0.504672 0.586197 -0.339148
0.508429 0.586649 -0.340211
0.511397 0.584188 -0.339843
0.514732 0.583060 -0.340129
0.519363 0.586404 -0.342629
0.522657 0.585032 -0.342800
0.526684 0.586110 -0.344191
0.528991 0.581473 -0.342737
0.533311 0.583424 -0.344571
0.537463 0.584734 -0.346094
0.541102 0.584365 -0.346782
0.544824 0.584222 -0.347588
0.550114 0.588742 -0.350757
0.553967 0.588838 -0.351702
0.556871 0.586149 -0.351240
0.560444 0.585413 -0.351773
0.564205 0.585191 -0.352574
0.568563 0.586585 -0.354210
0.572577 0.586967 -0.355338
0.576859 0.588018 -0.356820
0.580143 0.586372 -0.356920
0.584080 0.586435 -0.357909
0.587679 0.585595 -0.358439
0.591446 0.585169 -0.359191
0.595685 0.585888 -0.360549
0.599676 0.585944 -0.361571
0.603951 0.586644 -0.362942
0.608552 0.588062 -0.364703
0.611537 0.585623 -0.364441
0.615803 0.586170 -0.365763
0.619761 0.585964 -0.366698
0.624240 0.586897 -0.368248
0.628677 0.587670 -0.369728
0.633346 0.588892 -0.371461
0.636820 0.587468 -0.371786
0.640417 0.586303 -0.372257
0.644101 0.585312 -0.372830
0.648874 0.586563 -0.374628
0.652861 0.586134 -0.375527
0.656979 0.585943 -0.376565
0.661344 0.586206 -0.377864
0.665581 0.586170 -0.379011
0.669396 0.585271 -0.379694
0.673308 0.584540 -0.380479
0.678243 0.585727 -0.382338
0.682373 0.585332 -0.383333
0.686681 0.585237 -0.384506
0.690942 0.585012 -0.385619
0.696406 0.586923 -0.387946
0.700993 0.587180 -0.389359
0.704399 0.585302 -0.389578
0.708862 0.585268 -0.390850
0.714009 0.586368 -0.392782
0.718645 0.586527 -0.394194
0.723470 0.586955 -0.395774
0.728503 0.587673 -0.397538
0.732201 0.586131 -0.398012
0.734803 0.582795 -0.397453
0.741411 0.585932 -0.400664
0.745997 0.585736 -0.401954
0.750892 0.585980 -0.403518
0.754901 0.584795 -0.404256
0.758947 0.583644 -0.405025
0.763997 0.583996 -0.406695
0.769074 0.584333 -0.408375
0.773855 0.584173 -0.409774
0.780757 0.587089 -0.413034
0.786356 0.587994 -0.415113
0.790370 0.586546 -0.415791
0.794758 0.585611 -0.416791
0.800405 0.586419 -0.418865
0.806023 0.587116 -0.420894
0.811186 0.587121 -0.422518
0.815159 0.585445 -0.423125
0.819469 0.584208 -0.424015
0.826098 0.586044 -0.426825
0.830539 0.584893 -0.427802
0.835397 0.584257 -0.429114
0.840988 0.584529 -0.431015
0.847079 0.585380 -0.433303
0.854612 0.587988 -0.436730
0.860052 0.587857 -0.438448
0.865230 0.587346 -0.439944
0.870163 0.586486 -0.441235
0.877558 0.588581 -0.444451
0.882755 0.587928 -0.445920
0.886787 0.585841 -0.446475
0.891969 0.585092 -0.447918
0.899880 0.587484 -0.451442
0.905407 0.587010 -0.453116
0.913348 0.589247 -0.456607
0.918858 0.588622 -0.458234
0.924487 0.588080 -0.459938
0.932386 0.590003 -0.463323
0.938669 0.590048 -0.465479
0.944705 0.589758 -0.467436
0.950027 0.588639 -0.468855
0.954960 0.587062 -0.469983
0.961560 0.587205 -0.472314
0.971665 0.590933 -0.477156
0.977449 0.590055 -0.478852
0.983334 0.589227 -0.480610
0.989817 0.588950 -0.482781
0.995941 0.588248 -0.484684
1.004339 0.589740 -0.488172
1.012674 0.591066 -0.491586
1.018742 0.590090 -0.493397
1.028052 0.592174 -0.497439
1.034501 0.591417 -0.499478
1.040001 0.589705 -0.500852
1.047177 0.589511 -0.503363
1.056016 0.590777 -0.506984
1.063071 0.590308 -0.509372
1.070150 0.589789 -0.511758
1.079939 0.591623 -0.515942
1.085748 0.589814 -0.517440
1.091732 0.588112 -0.519047
1.100503 0.588778 -0.522483
1.108343 0.588546 -0.525280
1.123644 0.594567 -0.532934
1.130456 0.593246 -0.534998
1.137749 0.592265 -0.537360
1.143940 0.590310 -0.538993
1.149388 0.587702 -0.540138
1.160280 0.589445 -0.544755
1.171229 0.591110 -0.549371
1.178781 0.589971 -0.551796
1.188076 0.590129 -0.555302
1.198132 0.590780 -0.559255
1.205857 0.589547 -0.561716
1.218675 0.592102 -0.567328
1.223861 0.588807 -0.568159
1.233157 0.588535 -0.571518
1.247210 0.591662 -0.577771
1.256006 0.590831 -0.580750
1.260376 0.586761 -0.581001
1.274863 0.589864 -0.587387
1.289165 0.592688 -0.593601
1.294457 0.589122 -0.594333
1.292623 0.580663 -0.590781
1.308819 0.584547 -0.598011
1.328944 0.590911 -0.607506
1.336363 0.588626 -0.609391
1.345503 0.587451 -0.612264
1.354583 0.586195 -0.615064
1.362583 0.584206 -0.617197
1.388097 0.593345 -0.629489
1.391756 0.588471 -0.628999
1.391121 0.580971 -0.626020
1.415533 0.589015 -0.637439
1.416757 0.582700 -0.635478
1.426794 0.581793 -0.638537
1.434226 0.579308 -0.640073
1.445125 0.578887 -0.643535
1.461703 0.581763 -0.650141
1.474929 0.582610 -0.654793
1.488540 0.583634 -0.659599
1.496577 0.581453 -0.661249
1.503110 0.578451 -0.662031
1.517957 0.580115 -0.667362
1.528064 0.579124 -0.670027
1.535842 0.576873 -0.671378
1.546364 0.576138 -0.674186
1.560718 0.577463 -0.679020
1.571848 0.577052 -0.682056
1.580590 0.575397 -0.683765
1.586149 0.572122 -0.683741
1.590097 0.568083 -0.682842
1.596736 0.565496 -0.683355
0.405787 0.589314 -0.315571
0.406978 0.577532 -0.311268
0.407952 0.564446 -0.306326
0.411909 0.574645 -0.311985
0.415733 0.582938 -0.316792
0.418663 0.584004 -0.318289
0.421998 0.587544 -0.320924
0.424093 0.582193 -0.319442
0.426458 0.578658 -0.318778
0.429442 0.579019 -0.319912
0.432772 0.581259 -0.321917
0.436080 0.583014 -0.323691
0.439035 0.582367 -0.324332
0.441694 0.579850 -0.324080
0.444558 0.578405 -0.324320
0.446394 0.571264 -0.321843
0.450195 0.574694 -0.324372
0.454194 0.578804 -0.327227
0.456656 0.574823 -0.326213
0.460224 0.576306 -0.327804
0.465611 0.586289 -0.333486
0.469908 0.590568 -0.336435
0.472732 0.587799 -0.335977
0.475902 0.586576 -0.336258
0.480426 0.591200 -0.339377
0.483318 0.588556 -0.338959
0.486527 0.587254 -0.339186
0.489988 0.586941 -0.339894
0.492614 0.583223 -0.338924
0.495880 0.582082 -0.339214
0.499262 0.581360 -0.339709
0.503227 0.582782 -0.341264
0.507084 0.583684 -0.342565
0.510657 0.583467 -0.343312
0.514041 0.582528 -0.343700
0.517828 0.582969 -0.344779
0.521928 0.584407 -0.346363
0.525215 0.583024 -0.346533
0.529192 0.583908 -0.347848
0.532648 0.583035 -0.348281
0.536704 0.584045 -0.349672
0.540375 0.583781 -0.350422
0.544266 0.584157 -0.351504
0.549384 0.588163 -0.354449
0.553198 0.588145 -0.355348
0.556274 0.585947 -0.355134
0.559629 0.584580 -0.355348
0.563795 0.585496 -0.356746
0.567900 0.586179 -0.358033
0.571433 0.585245 -0.358491
0.574957 0.584279 -0.358937
0.579272 0.585394 -0.360476
0.582977 0.584855 -0.361160
0.587120 0.585414 -0.362429
0.590922 0.585063 -0.363229
0.594660 0.584526 -0.363938
0.598953 0.585324 -0.365364
0.603813 0.587431 -0.367497
0.607373 0.586352 -0.367948
0.611324 0.586183 -0.368893
0.614931 0.585184 -0.369402
0.619521 0.586416 -0.371118
0.623726 0.586711 -0.372343
0.628009 0.587133 -0.373649
0.632125 0.587140 -0.374742
0.636549 0.587773 -0.376186
0.639829 0.585912 -0.376283
0.645220 0.588497 -0.378819
0.648481 0.586557 -0.378890
0.652108 0.585378 -0.379385
0.656322 0.585374 -0.380538
0.660575 0.585406 -0.381722
0.665220 0.586170 -0.383325
0.669327 0.585826 -0.384325
0.673690 0.585942 -0.385593
0.677897 0.585716 -0.386683
0.682533 0.586257 -0.388216
0.685946 0.584475 -0.388452
0.689319 0.582621 -0.388652
0.695022 0.584983 -0.391257
0.698761 0.583734 -0.391823
0.703929 0.584994 -0.393835
0.708557 0.585237 -0.395281
0.712533 0.584304 -0.396063
0.718147 0.586143 -0.398459
0.723236 0.587007 -0.400311
0.728283 0.587736 -0.402102
0.731374 0.585180 -0.401989
0.735169 0.583782 -0.402560
0.740928 0.585530 -0.404993
0.745594 0.585451 -0.406368
0.749662 0.584385 -0.407173
0.755939 0.586734 -0.410021
0.760747 0.586721 -0.411485
0.765483 0.586549 -0.412868
0.769475 0.585213 -0.413566
0.773068 0.583261 -0.413902
0.777925 0.583163 -0.415371
0.784210 0.585098 -0.418095
0.789459 0.585447 -0.419874
0.795079 0.586265 -0.421961
0.800007 0.586040 -0.423427
0.805257 0.586216 -0.425158
0.809685 0.585202 -0.426169
0.814495 0.584676 -0.427498
0.819790 0.584765 -0.429229
0.824151 0.583550 -0.430159
0.830384 0.584782 -0.432647
0.835636 0.584648 -0.434296
0.841108 0.584748 -0.436114
0.847302 0.585717 -0.438507
0.852754 0.585666 -0.440274
0.859844 0.587616 -0.443351
0.865531 0.587726 -0.445269
0.870783 0.587240 -0.446824
0.876475 0.587241 -0.448716
0.881955 0.586927 -0.450426
0.887610 0.586769 -0.452260
0.891205 0.584124 -0.452472
0.898517 0.585811 -0.455572
0.906514 0.588194 -0.459172
0.913120 0.588875 -0.461670
0.918983 0.588638 -0.463582
0.925021 0.588539 -0.465611
0.932345 0.589802 -0.468594
0.939026 0.590270 -0.471070
0.944285 0.589116 -0.472464
0.949940 0.588346 -0.474145
0.955575 0.587502 -0.475798
0.966276 0.591944 -0.481159
0.972269 0.591317 -0.483033
0.977940 0.590301 -0.484661
0.984439 0.590081 -0.486877
0.990937 0.589793 -0.489076
0.997122 0.589124 -0.491035
1.006433 0.591493 -0.495203
1.012326 0.590389 -0.496919
1.020523 0.591468 -0.500245
1.028155 0.591905 -0.503148
1.035146 0.591649 -0.505583
1.040691 0.589959 -0.506998
1.049408 0.591179 -0.510593
1.056183 0.590505 -0.512827
1.063448 0.590212 -0.515380
1.073417 0.592285 -0.519753
1.080715 0.591846 -0.522282
1.087899 0.591234 -0.524717
1.094335 0.589895 -0.526632
1.100448 0.588221 -0.528319
1.110798 0.590129 -0.532810
1.121444 0.592162 -0.537459
1.129860 0.592196 -0.540603
1.137544 0.591533 -0.543242
1.144593 0.590276 -0.545447
1.154386 0.591189 -0.549417
1.164111 0.591940 -0.553310
1.169441 0.589087 -0.554342
1.177514 0.588368 -0.557125
1.185770 0.587717 -0.560000
1.198597 0.590519 -0.565755
1.202032 0.586005 -0.565519
1.212540 0.586841 -0.569739
1.225731 0.589576 -0.575603
1.234187 0.588667 -0.578458
1.245400 0.589708 -0.583000
1.256144 0.590302 -0.587209
1.262607 0.587737 -0.588739
1.280248 0.593058 -0.597110
1.285711 0.589655 -0.597962
1.283307 0.580794 -0.594012
1.307890 0.590545 -0.606440
1.308205 0.583556 -0.604111
1.321574 0.585402 -0.609634
1.330508 0.584195 -0.612447
1.336270 0.580863 -0.613334
1.351384 0.583613 -0.619747
1.367733 0.587038 -0.626823
1.385619 0.591310 -0.634728
1.394205 0.589583 -0.637103
1.402453 0.587630 -0.639244
1.408766 0.584477 -0.640226
1.418464 0.583408 -0.643139
1.425275 0.580578 -0.644346
1.432228 0.577853 -0.645605
1.452222 0.582855 -0.654277
1.461272 0.581324 -0.656635
1.468478 0.578728 -0.657908
1.479537 0.578369 -0.661320
1.497410 0.581859 -0.668503
1.505220 0.579612 -0.669983
1.515273 0.578641 -0.672676
1.525685 0.577875 -0.675523
1.535911 0.577013 -0.678221
1.541562 0.573691 -0.678365
1.562406 0.578553 -0.686785
1.571380 0.577035 -0.688656
1.576368 0.573454 -0.688332
1.576432 0.567383 -0.685337
1.580682 0.563585 -0.684596
0.403659 0.593662 -0.319658
0.407549 0.604582 -0.325736
0.408558 0.590978 -0.320585
0.409797 0.579699 -0.316455
0.410941 0.568060 -0.312115
0.415532 0.582403 -0.319779
0.421630 0.606433 -0.331987
0.422609 0.592997 -0.326771
0.423388 0.578686 -0.321097
0.426022 0.577149 -0.321371
0.429387 0.580120 -0.323757
0.432564 0.581507 -0.325393
0.435530 0.581303 -0.326271
0.438382 0.580212 -0.326718
0.441340 0.579573 -0.327368
0.443932 0.576714 -0.326945
0.450490 0.595391 -0.336843
0.453466 0.593935 -0.337094
0.450372 0.560977 -0.322124
0.454908 0.567968 -0.326397
0.460112 0.577751 -0.332038
0.464365 0.582352 -0.335176
0.468633 0.586669 -0.338183
0.471479 0.584138 -0.337842
0.474691 0.583241 -0.338291
0.477628 0.581062 -0.338103
0.481094 0.581135 -0.339017
0.484615 0.581333 -0.339989
0.488435 0.582656 -0.341517
0.491808 0.582038 -0.342081
0.494888 0.580216 -0.342041
0.498580 0.580745 -0.343171
0.502076 0.580438 -0.343884
0.506549 0.583676 -0.346378
0.509894 0.582646 -0.346730
0.513552 0.582705 -0.347631
0.517301 0.583017 -0.348662
0.520761 0.582278 -0.349163
0.524816 0.583507 -0.350668
0.528398 0.583084 -0.351336
0.532007 0.582715 -0.352034
0.535689 0.582546 -0.352838
0.539767 0.583570 -0.354261
0.543511 0.583495 -0.355125
0.548025 0.585696 -0.357172
0.551934 0.585993 -0.358244
0.555452 0.585101 -0.358705
0.558964 0.584184 -0.359157
0.562929 0.584531 -0.360274
0.566926 0.584919 -0.361422
0.570254 0.583432 -0.361592
0.573930 0.582889 -0.362265
0.578720 0.585267 -0.364488
0.582726 0.585498 -0.365589
0.586525 0.585154 -0.366393
0.591331 0.587324 -0.368546
0.594356 0.584966 -0.368294
0.597946 0.584022 -0.368803
0.601953 0.584077 -0.369855
0.606443 0.585241 -0.371515
0.610629 0.585624 -0.372768
0.614753 0.585814 -0.373926
0.619219 0.586741 -0.375497
0.623228 0.586574 -0.376485
0.627167 0.586221 -0.377381
0.631049 0.585713 -0.378201
0.636010 0.587510 -0.380301
0.639800 0.586724 -0.380991
0.643686 0.586119 -0.381790
0.647940 0.586257 -0.383012
0.651269 0.584453 -0.383164
0.655371 0.584220 -0.384199
0.660680 0.586363 -0.386578
0.666529 0.589477 -0.389524
0.669467 0.586799 -0.389224
0.672927 0.585150 -0.389509
0.677777 0.586141 -0.391300
0.682643 0.587096 -0.393088
0.685886 0.584975 -0.393133
0.690804 0.585930 -0.394948
0.694397 0.584420 -0.395361
0.697856 0.582661 -0.395638
0.704600 0.586707 -0.399286
0.708057 0.584872 -0.399544
0.712948 0.585510 -0.401251
0.716575 0.583932 -0.401677
0.721976 0.585334 -0.403862
0.726108 0.584545 -0.404776
0.731412 0.585657 -0.406826
0.735558 0.584812 -0.407733
0.739565 0.583713 -0.408501
0.743409 0.582334 -0.409111
0.750664 0.586309 -0.412945
0.755454 0.586307 -0.414416
0.760449 0.586574 -0.416066
0.765521 0.586903 -0.417770
0.769918 0.586159 -0.418839
0.775654 0.587374 -0.421120
0.779320 0.585464 -0.421505
0.783271 0.583959 -0.422147
0.788544 0.584342 -0.423968
0.794429 0.585538 -0.426313
0.800103 0.586360 -0.428449
0.804224 0.584942 -0.429206
0.808617 0.583879 -0.430197
0.813840 0.583920 -0.431898
0.819431 0.584403 -0.433899
0.825115 0.584946 -0.435960
0.829859 0.584180 -0.437209
0.835670 0.584770 -0.439343
0.841119 0.584826 -0.441157
0.846760 0.585069 -0.443114
0.853365 0.586474 -0.445847
0.859852 0.587644 -0.448458
0.865680 0.587913 -0.450507
0.870095 0.586383 -0.451398
0.874935 0.585341 -0.452625
0.880607 0.585263 -0.454510
0.886819 0.585770 -0.456809
0.892951 0.586113 -0.459025
0.899111 0.586419 -0.461244
0.906212 0.587745 -0.464179
0.912523 0.588077 -0.466474
0.918951 0.588471 -0.468841
0.926319 0.589847 -0.471909
0.932973 0.590337 -0.474405
0.938003 0.588971 -0.475650
0.944273 0.588913 -0.477823
0.949859 0.588053 -0.479466
0.957683 0.589524 -0.482768
0.965866 0.591275 -0.486309
0.972503 0.591309 -0.488678
0.978180 0.590282 -0.490323
0.985391 0.590771 -0.493079
0.991107 0.589667 -0.494727
0.998631 0.590322 -0.497671
1.006229 0.590963 -0.500646
1.013367 0.591066 -0.503267
1.019237 0.589862 -0.504966
1.027870 0.591258 -0.508612
1.035246 0.591354 -0.511342
1.043926 0.592599 -0.514967
1.050416 0.591699 -0.517033
1.057063 0.590883 -0.519194
1.063793 0.590080 -0.521398
1.072395 0.590901 -0.524874
1.082974 0.593387 -0.529676
1.089337 0.592015 -0.531565
1.096313 0.591124 -0.533858
1.102501 0.589485 -0.535602
1.109838 0.588780 -0.538106
1.119151 0.589678 -0.541913
1.127892 0.589993 -0.545308
1.136619 0.590203 -0.548666
1.144559 0.589675 -0.551478
1.153890 0.590203 -0.555181
1.161931 0.589594 -0.558009
1.170148 0.589052 -0.560929
1.177893 0.588062 -0.563518
1.186440 0.587630 -0.566603
1.196635 0.588390 -0.570718
1.202539 0.585775 -0.572053
1.208129 0.582893 -0.573174
1.222758 0.586734 -0.580015
1.234390 0.588195 -0.584903
1.240911 0.585808 -0.586531
1.251653 0.586439 -0.590783
1.263421 0.587709 -0.595632
1.271906 0.586548 -0.598396
1.279962 0.585036 -0.600866
1.295850 0.588900 -0.608123
1.303738 0.587128 -0.610409
1.313111 0.586327 -0.613572
1.317524 0.582149 -0.613685
1.329322 0.582890 -0.618251
1.334946 0.579499 -0.619047
1.344824 0.578880 -0.622374
1.362943 0.583509 -0.630578
1.373407 0.583120 -0.634146
1.387616 0.585041 -0.639883
1.395710 0.583068 -0.641951
1.403288 0.580771 -0.643680
1.417119 0.582290 -0.649029
1.426160 0.580850 -0.651527
1.437857 0.580988 -0.655522
1.446170 0.579092 -0.657511
1.459937 0.580394 -0.662593
1.469300 0.579095 -0.665094
1.478723 0.577834 -0.667585
1.496053 0.581062 -0.674515
1.508867 0.581675 -0.678814
1.518492 0.580488 -0.681263
1.526046 0.578173 -0.682512
1.535962 0.577183 -0.685043
1.540486 0.573294 -0.684542
1.556195 0.575459 -0.690197
1.580625 0.582202 -0.700571
1.586245 0.578948 -0.700547
1.579576 0.569366 -0.693815
0.399370 0.578004 -0.314535
0.403752 0.594617 -0.323269
0.406797 0.598555 -0.326194
0.409021 0.595195 -0.325740
0.411944 0.597239 -0.327784
0.412811 0.583072 -0.322257
0.415191 0.580689 -0.322199
0.419880 0.594794 -0.329877
0.421346 0.585224 -0.326423
0.423353 0.579597 -0.324798
0.425927 0.577767 -0.324949
0.428992 0.578930 -0.326512
0.431890 0.578740 -0.327423
0.434836 0.578610 -0.328354
0.437989 0.579481 -0.329757
0.441278 0.580868 -0.331403
0.444736 0.582927 -0.333369
0.451308 0.601672 -0.343429
0.453719 0.597143 -0.342209
0.452756 0.575156 -0.332447
0.457230 0.581584 -0.336524
0.461404 0.586061 -0.339653
0.464184 0.583453 -0.339301
0.467438 0.583057 -0.340026
0.471099 0.584409 -0.341610
0.474023 0.582266 -0.341458
0.477031 0.580467 -0.341466
0.480359 0.580011 -0.342135
0.483879 0.580278 -0.343161
0.488294 0.584106 -0.345972
0.491254 0.581830 -0.345719
0.494291 0.579869 -0.345616
0.497390 0.578144 -0.345627
0.501359 0.579696 -0.347294
0.505637 0.582258 -0.349479
0.509578 0.583430 -0.350962
0.512022 0.579166 -0.349672
0.517338 0.585024 -0.353558
0.520509 0.583264 -0.353548
0.524051 0.582756 -0.354182
0.527547 0.582065 -0.354722
0.531050 0.581373 -0.355264
0.535470 0.583571 -0.357309
0.539168 0.583389 -0.358125
0.542680 0.582599 -0.358629
0.546684 0.583276 -0.359904
0.550584 0.583582 -0.360992
0.554320 0.583355 -0.361806
0.558125 0.583294 -0.362715
0.562186 0.583919 -0.363993
0.565894 0.583501 -0.364727
0.569801 0.583606 -0.365746
0.573663 0.583546 -0.366685
0.577905 0.584457 -0.368151
0.582658 0.586633 -0.370307
0.586652 0.586756 -0.371375
0.590042 0.585313 -0.371607
0.593240 0.583395 -0.371587
0.596941 0.582732 -0.372252
0.601986 0.585302 -0.374682
0.606462 0.586403 -0.376329
0.610647 0.586753 -0.377579
0.613684 0.584392 -0.377354
0.617935 0.584834 -0.378673
0.622477 0.585881 -0.380339
0.626214 0.585071 -0.380991
0.630125 0.584626 -0.381854
0.634262 0.584641 -0.382983
0.638313 0.584434 -0.383999
0.642406 0.584282 -0.385057
0.647204 0.585559 -0.386930
0.651676 0.586094 -0.388400
0.655647 0.585560 -0.389280
0.660380 0.586522 -0.391019
0.665444 0.588071 -0.393107
0.669635 0.587838 -0.394197
0.672191 0.584418 -0.393473
0.678628 0.588425 -0.397016
0.682735 0.587912 -0.397982
0.686930 0.587532 -0.399037
0.690466 0.585908 -0.399381
0.694057 0.584380 -0.399788
0.697140 0.581933 -0.399667
0.703335 0.585007 -0.402785
0.708295 0.585803 -0.404590
0.711654 0.583770 -0.404742
0.717227 0.585520 -0.407142
0.721596 0.585151 -0.408304
0.725056 0.583227 -0.408551
0.731063 0.585502 -0.411318
0.735838 0.585670 -0.412845
0.740043 0.584867 -0.413802
0.744722 0.584791 -0.415211
0.749148 0.584268 -0.416365
0.754550 0.585231 -0.418438
0.759516 0.585452 -0.420077
0.766052 0.588010 -0.423169
0.770288 0.586996 -0.424089
