ply
format ascii 1.0
comment ---
element vertex 1708
property float x
property float y
property float z
element face 0
property list uchar uint vertex_indices
end_header
0.575022 0.591314 -0.148407
0.578479 0.598268 -0.150339
0.582117 0.602796 -0.151669
0.585932 0.604228 -0.152227
0.590283 0.592405 -0.149456
0.594019 0.594942 -0.150296
0.597879 0.594124 -0.150294
0.601722 0.593568 -0.150361
0.605482 0.596751 -0.151375
0.609166 0.606546 -0.154063
0.613078 0.604144 -0.153673
0.616975 0.600560 -0.152986
0.620834 0.598956 -0.152802
0.624667 0.593715 -0.151696
0.628465 0.590218 -0.151032
0.632327 0.594409 -0.152325
0.636181 0.595755 -0.152897
0.639974 0.593659 -0.152596
0.643812 0.593959 -0.152906
0.647748 0.597183 -0.153967
0.651715 0.600378 -0.155024
0.655665 0.602344 -0.155770
0.659409 0.599351 -0.155248
0.663090 0.595624 -0.154538
0.666920 0.595171 -0.154670
0.671080 0.600224 -0.156219
0.675104 0.602383 -0.157028
0.678563 0.596073 -0.155657
0.682396 0.595554 -0.155778
0.686257 0.595402 -0.155996
0.690016 0.593989 -0.155890
0.693649 0.591265 -0.155445
0.697851 0.594850 -0.156636
0.701559 0.593013 -0.156424
0.706027 0.598654 -0.158157
0.710022 0.599374 -0.158613
0.713437 0.594849 -0.157704
0.717278 0.594273 -0.157825
0.721082 0.593386 -0.157866
0.725377 0.596376 -0.158923
0.729762 0.599778 -0.160092
0.733895 0.601059 -0.160708
0.737974 0.601830 -0.161192
0.742157 0.603217 -0.161841
0.745743 0.600532 -0.161420
0.749047 0.596181 -0.160558
0.752664 0.593986 -0.160264
0.757428 0.598766 -0.161816
0.761136 0.597078 -0.161660
0.764721 0.594739 -0.161331
0.768466 0.593374 -0.161261
0.772068 0.591276 -0.160996
0.776414 0.593134 -0.161785
0.780453 0.593300 -0.162126
0.785468 0.598266 -0.163752
0.790735 0.604175 -0.165635
0.794257 0.601510 -0.165227
0.796745 0.594148 -0.163558
0.800589 0.593208 -0.163611
0.805026 0.594895 -0.164371
0.809184 0.595267 -0.164781
0.813050 0.594354 -0.164846
0.817229 0.594735 -0.165262
0.821386 0.594980 -0.165642
0.825100 0.593416 -0.165535
0.829829 0.595833 -0.166509
0.835634 0.602227 -0.168568
0.839914 0.602631 -0.169004
0.842157 0.595495 -0.167386
0.845460 0.592412 -0.166872
0.849632 0.592484 -0.167219
0.853404 0.591128 -0.167178
0.859296 0.597028 -0.169128
0.863925 0.598445 -0.169853
0.869165 0.601795 -0.171114
0.874496 0.605292 -0.172421
0.880614 0.611146 -0.174384
0.882723 0.604194 -0.172815
0.885437 0.599299 -0.171813
0.887383 0.592192 -0.170196
0.891690 0.592327 -0.170586
0.895507 0.590984 -0.170569
0.899228 0.589364 -0.170475
0.903810 0.590214 -0.171073
0.909130 0.593075 -0.172236
0.914119 0.594895 -0.173114
0.917160 0.591312 -0.172482
0.921309 0.590773 -0.172705
0.925723 0.590914 -0.173122
0.930493 0.591940 -0.173792
0.935211 0.592763 -0.174410
0.943177 0.601772 -0.177347
0.946485 0.598827 -0.176911
0.946836 0.588620 -0.174416
0.950295 0.586219 -0.174134
0.955857 0.588893 -0.175298
0.962623 0.594312 -0.177252
0.965870 0.591308 -0.176810
0.970782 0.592187 -0.177481
0.975080 0.591595 -0.177736
0.979593 0.591459 -0.178126
0.982186 0.587016 -0.177281
0.987392 0.588370 -0.178108
0.992568 0.589581 -0.178901
0.996689 0.588455 -0.179025
1.001026 0.587765 -0.179279
1.007747 0.592024 -0.180976
1.016892 0.601128 -0.184096
1.024463 0.606755 -0.186217
1.028528 0.605136 -0.186233
1.029833 0.598011 -0.184641
1.031721 0.592146 -0.183416
1.035609 0.590251 -0.183359
1.041024 0.591280 -0.184168
1.046407 0.592167 -0.184945
1.050938 0.591380 -0.185233
1.055510 0.590631 -0.185540
1.060879 0.591301 -0.186275
1.065153 0.589915 -0.186405
1.071447 0.592121 -0.187615
1.076123 0.591349 -0.187944
1.081074 0.591017 -0.188412
1.085827 0.590286 -0.188767
1.091980 0.591910 -0.189840
1.097406 0.592204 -0.190522
1.102382 0.591674 -0.190963
1.107174 0.590786 -0.191303
1.112648 0.590972 -0.191977
1.118017 0.590920 -0.192588
1.123144 0.590417 -0.193068
1.127937 0.589330 -0.193378
1.135200 0.592080 -0.194875
1.140629 0.591857 -0.195467
1.146189 0.591778 -0.196112
1.151825 0.591753 -0.196781
1.157201 0.591274 -0.197316
1.163104 0.591530 -0.198088
1.169298 0.592147 -0.198979
1.174979 0.591945 -0.199622
1.180678 0.591718 -0.200262
1.186528 0.591655 -0.200959
1.195032 0.595287 -0.202830
1.200400 0.594415 -0.203282
1.205753 0.593493 -0.203720
1.211392 0.592939 -0.204275
1.217377 0.592827 -0.204972
1.223274 0.592564 -0.205620
1.230024 0.593409 -0.206623
1.235305 0.592283 -0.206988
1.241174 0.591925 -0.207596
1.246761 0.591199 -0.208078
1.254272 0.592933 -0.209351
1.260404 0.592892 -0.210040
1.266081 0.592290 -0.210534
1.271889 0.591874 -0.211075
1.277730 0.591526 -0.211624
1.283626 0.591278 -0.212190
1.289571 0.591128 -0.212770
1.295675 0.591211 -0.213408
1.301977 0.591573 -0.214118
1.308760 0.592547 -0.215010
1.314213 0.592016 -0.215378
1.319521 0.591389 -0.215689
1.322211 0.587847 -0.214998
0.347925 0.556960 -0.135549
0.344551 0.576189 -0.140525
0.345348 0.584068 -0.142714
0.346632 0.590898 -0.144637
0.352433 0.584714 -0.143347
0.355179 0.587679 -0.144296
0.358263 0.589853 -0.145038
0.361681 0.591203 -0.145566
0.365047 0.592895 -0.146167
0.369616 0.590939 -0.145856
0.374024 0.589559 -0.145676
0.377646 0.590833 -0.146143
0.382096 0.589480 -0.145949
0.386608 0.587959 -0.145705
0.391504 0.585136 -0.145130
0.395962 0.583823 -0.144922
0.397213 0.594029 -0.147570
0.401048 0.595221 -0.147974
0.404056 0.599576 -0.149160
0.410764 0.590076 -0.146894
0.413390 0.596032 -0.148472
0.417852 0.594982 -0.148303
0.421842 0.595795 -0.148596
0.425404 0.598402 -0.149336
0.429573 0.598546 -0.149460
0.433723 0.598758 -0.149601
0.438779 0.594958 -0.148740
0.442929 0.595033 -0.148847
0.447122 0.594870 -0.148895
0.451603 0.593291 -0.148591
0.455378 0.595008 -0.149112
0.459598 0.594540 -0.149089
0.462895 0.598703 -0.150227
0.466870 0.599472 -0.150518
0.471470 0.596862 -0.149965
0.475700 0.596078 -0.149872
0.480743 0.590564 -0.148596
0.484461 0.592404 -0.149166
0.487664 0.597386 -0.150530
0.491382 0.599402 -0.151153
0.496196 0.594450 -0.150027
0.500480 0.592600 -0.149684
0.505402 0.586173 -0.148192
0.509031 0.588392 -0.148879
0.512447 0.592252 -0.149983
0.516108 0.594455 -0.150675
0.520093 0.594187 -0.150747
0.523733 0.596655 -0.151514
0.528001 0.593874 -0.150958
0.532144 0.591889 -0.150606
0.536071 0.591664 -0.150703
0.539681 0.594446 -0.151564
0.542927 0.601163 -0.153428
0.546889 0.600757 -0.153491
0.551102 0.597373 -0.152800
0.555334 0.593290 -0.151934
0.559044 0.595320 -0.152625
0.562897 0.595594 -0.152872
0.566706 0.596458 -0.153273
0.570708 0.594357 -0.152922
0.574650 0.592874 -0.152730
0.578199 0.598291 -0.154304
0.581802 0.603599 -0.155856
0.585751 0.602236 -0.155706
0.589910 0.595201 -0.154104
0.593809 0.593576 -0.153890
0.597605 0.594785 -0.154405
0.601468 0.593754 -0.154348
0.605271 0.595074 -0.154898
0.609032 0.599766 -0.156320
0.612834 0.604566 -0.157775
0.616750 0.599122 -0.156592
0.620607 0.597949 -0.156512
0.624450 0.595889 -0.156204
0.628276 0.594055 -0.155956
0.632094 0.592938 -0.155895
0.635943 0.594225 -0.156460
0.639686 0.589999 -0.155596
0.643516 0.590494 -0.155960
0.647503 0.595792 -0.157577
0.651355 0.595900 -0.157846
0.655343 0.599256 -0.158965
0.659203 0.599027 -0.159152
0.662842 0.594421 -0.158196
0.666658 0.593748 -0.158269
0.670721 0.597254 -0.159439
0.674731 0.599360 -0.160247
0.678356 0.595588 -0.159513
0.682099 0.593838 -0.159310
0.686044 0.594802 -0.159823
0.689914 0.594718 -0.160063
0.693610 0.592624 -0.159773
0.698105 0.599242 -0.161788
0.702638 0.605549 -0.163727
0.706321 0.602977 -0.163317
0.710062 0.601126 -0.163099
0.714000 0.601130 -0.163375
0.718288 0.604057 -0.164431
0.721576 0.598549 -0.163243
0.725034 0.594750 -0.162508
0.729091 0.595716 -0.163046
0.733021 0.595635 -0.163306
0.736957 0.595570 -0.163572
0.741789 0.601564 -0.165464
0.746371 0.605477 -0.166804
0.749964 0.602793 -0.166374
0.753240 0.598266 -0.165447
0.757236 0.598297 -0.165748
0.761506 0.599879 -0.166470
0.764952 0.596659 -0.165896
0.768318 0.593131 -0.165238
0.772402 0.593611 -0.165665
0.776430 0.593733 -0.165998
0.780279 0.592897 -0.166071
0.785573 0.599252 -0.168104
0.790172 0.601883 -0.169128
0.793546 0.598555 -0.168528
0.796985 0.595646 -0.168043
0.800614 0.593689 -0.167818
0.804618 0.593438 -0.168061
0.808801 0.593937 -0.168511
0.812948 0.594224 -0.168905
0.816983 0.594000 -0.169161
0.821136 0.594231 -0.169544
0.824832 0.592596 -0.169414
0.829313 0.594054 -0.170139
0.834751 0.599071 -0.171854
0.838930 0.599143 -0.172203
0.841870 0.594624 -0.171280
0.845456 0.592563 -0.171038
0.849557 0.592372 -0.171319
0.853450 0.591425 -0.171390
0.857770 0.591937 -0.171870
0.863355 0.596641 -0.173526
0.868827 0.600778 -0.175030
0.873675 0.602713 -0.175922
0.876858 0.599236 -0.175297
0.881273 0.599701 -0.175782
0.885083 0.598249 -0.175729
0.887865 0.593686 -0.174799
0.891766 0.592573 -0.174844
0.895926 0.592221 -0.175106
0.899469 0.590055 -0.174856
0.904479 0.592104 -0.175806
0.908284 0.590665 -0.175768
0.913651 0.593557 -0.176966
0.916670 0.589924 -0.176307
0.921434 0.591045 -0.177009
0.925880 0.591252 -0.177453
0.930526 0.591938 -0.178038
0.935198 0.592630 -0.178630
0.942165 0.599090 -0.180888
0.950042 0.607608 -0.183750
0.949056 0.593969 -0.180221
0.951729 0.589568 -0.179358
0.957058 0.591625 -0.180367
0.962310 0.593402 -0.181301
0.965456 0.590162 -0.180782
0.970045 0.590295 -0.181248
0.974510 0.590097 -0.181623
0.978424 0.588620 -0.181627
0.983071 0.588762 -0.182111
0.987811 0.589059 -0.182645
0.992732 0.589693 -0.183284
0.996915 0.588686 -0.183446
1.000774 0.586970 -0.183403
1.009266 0.594917 -0.186225
1.015799 0.598582 -0.187792
1.020806 0.599000 -0.188405
1.024179 0.596068 -0.188027
1.028278 0.594595 -0.188087
1.031092 0.590579 -0.187392
1.035980 0.590631 -0.187918
1.040781 0.590459 -0.188384
1.046886 0.592712 -0.189587
1.051706 0.592446 -0.190040
1.056329 0.591763 -0.190375
1.060672 0.590526 -0.190548
1.065316 0.589805 -0.190885
1.071330 0.591492 -0.191961
1.076846 0.592202 -0.192750
1.081768 0.591792 -0.193206
1.087175 0.592172 -0.193911
1.092549 0.592424 -0.194587
1.097344 0.591628 -0.194948
1.102405 0.591232 -0.195440
1.107122 0.590210 -0.195747
1.112447 0.590143 -0.196357
1.117821 0.590094 -0.196982
1.124523 0.592110 -0.198259
1.129957 0.592007 -0.198886
1.135942 0.592707 -0.199773
1.141748 0.593051 -0.200557
1.146661 0.591953 -0.200895
1.152378 0.592036 -0.201613
1.157967 0.591863 -0.202258
1.163996 0.592286 -0.203099
1.169675 0.592127 -0.203763
1.175819 0.592590 -0.204631
1.181588 0.592447 -0.205312
1.188349 0.593666 -0.206436
1.195080 0.594766 -0.207528
1.200595 0.594100 -0.208055
1.205902 0.593113 -0.208479
1.211696 0.592773 -0.209114
1.217857 0.592897 -0.209900
1.223907 0.592838 -0.210626
1.229609 0.592290 -0.211189
1.236087 0.592750 -0.212080
1.241647 0.591991 -0.212564
1.247825 0.592030 -0.213304
1.256013 0.594626 -0.214885
1.261985 0.594376 -0.215514
1.267735 0.593862 -0.216043
1.272620 0.592301 -0.216207
1.278461 0.591965 -0.216765
1.284724 0.592174 -0.217488
1.289771 0.590952 -0.217711
1.294555 0.589480 -0.217828
1.301781 0.590972 -0.218924
1.308052 0.591370 -0.219628
1.313132 0.590438 -0.219857
1.318232 0.589609 -0.220094
1.327594 0.593738 -0.221994
0.336574 0.588030 -0.147067
0.343322 0.578838 -0.145047
0.344461 0.585713 -0.147031
0.347336 0.587876 -0.147825
0.352564 0.583311 -0.146917
0.354945 0.587303 -0.148144
0.358257 0.588734 -0.148716
0.361504 0.590553 -0.149374
0.364284 0.594028 -0.150438
0.367778 0.595473 -0.150980
0.371808 0.595359 -0.151117
0.375350 0.596952 -0.151675
0.378805 0.598997 -0.152338
0.383210 0.597982 -0.152219
0.391665 0.583022 -0.148559
0.394638 0.586875 -0.149655
0.397956 0.589698 -0.150483
0.400904 0.594028 -0.151689
0.405026 0.594201 -0.151835
0.408336 0.597488 -0.152768
0.412915 0.596021 -0.152491
0.417472 0.594596 -0.152220
0.421838 0.593887 -0.152129
0.424968 0.598225 -0.153320
0.428853 0.599569 -0.153749
0.433913 0.595902 -0.152902
0.438321 0.594904 -0.152733
0.442593 0.594445 -0.152702
0.446877 0.593863 -0.152641
0.451003 0.593962 -0.152754
0.454864 0.595292 -0.153183
0.458010 0.600184 -0.154522
0.461877 0.601603 -0.154979
0.466365 0.599799 -0.154615
0.471248 0.595717 -0.153671
0.475456 0.595060 -0.153604
0.479965 0.592586 -0.153075
0.483465 0.595784 -0.154000
0.486911 0.599428 -0.155044
0.491050 0.598936 -0.155032
0.495343 0.597347 -0.154742
0.500210 0.591785 -0.153436
0.504851 0.587316 -0.152412
0.509005 0.585897 -0.152174
0.512433 0.589613 -0.153259
0.515728 0.594533 -0.154658
0.519092 0.599212 -0.156000
0.523160 0.598415 -0.155938
0.526902 0.600253 -0.156558
0.531055 0.598518 -0.156260
0.535360 0.595127 -0.155539
0.539357 0.594341 -0.155492
0.542665 0.600444 -0.157229
0.546288 0.603727 -0.158243
0.550782 0.597386 -0.156770
0.554877 0.595041 -0.156334
0.558663 0.596261 -0.156824
0.562529 0.596489 -0.157060
0.566426 0.596211 -0.157169
0.570439 0.594020 -0.156784
0.574342 0.593246 -0.156769
0.578037 0.596076 -0.157696
0.581649 0.601060 -0.159189
0.585563 0.600323 -0.159195
0.589632 0.595461 -0.158127
0.593473 0.595664 -0.158383
0.597364 0.594255 -0.158220
0.601225 0.593408 -0.158206
0.605017 0.595359 -0.158929
0.608841 0.596410 -0.159420
0.612695 0.595729 -0.159458
0.616552 0.593633 -0.159127
0.620387 0.592242 -0.158983
0.624215 0.592847 -0.159367
0.628066 0.595881 -0.160395
0.631898 0.594808 -0.160342
0.635708 0.592987 -0.160094
0.639519 0.591997 -0.160067
0.643427 0.594954 -0.161087
0.647085 0.588912 -0.159725
0.650985 0.591147 -0.160559
0.654882 0.592758 -0.161231
0.658799 0.594388 -0.161912
0.662602 0.593392 -0.161896
0.666343 0.591368 -0.161607
0.670360 0.594256 -0.162631
0.674507 0.598669 -0.164067
0.678121 0.594725 -0.163271
0.681953 0.594183 -0.163385
0.685897 0.595070 -0.163886
0.689763 0.594880 -0.164099
0.693603 0.594364 -0.164226
0.697403 0.593427 -0.164241
0.702243 0.603124 -0.167126
0.706148 0.602787 -0.167310
0.709547 0.597734 -0.166220
0.713927 0.601785 -0.167594
0.718585 0.607821 -0.169510
0.722207 0.604855 -0.168988
0.725889 0.602549 -0.168646
0.728687 0.593664 -0.166514
0.732604 0.593551 -0.166767
0.736454 0.592925 -0.166882
0.741380 0.599631 -0.169002
0.746261 0.605570 -0.170918
0.750232 0.605276 -0.171133
0.753359 0.599726 -0.169908
0.757122 0.598293 -0.169811
0.761270 0.599145 -0.170344
0.765009 0.597590 -0.170216
0.768315 0.593692 -0.169442
0.772331 0.593772 -0.169766
0.776323 0.593685 -0.170045
0.780328 0.593632 -0.170336
0.784958 0.596652 -0.171480
0.789562 0.599364 -0.172542
0.793710 0.599747 -0.172962
0.796013 0.591531 -0.170989
0.800638 0.594159 -0.172035
0.804566 0.593551 -0.172181
0.808472 0.592836 -0.172299
0.812720 0.593561 -0.172822
0.817218 0.595260 -0.173620
0.820932 0.593666 -0.173497
0.825460 0.595342 -0.174294
0.830288 0.598080 -0.175394
0.833467 0.594379 -0.174682
0.838551 0.597920 -0.176015
0.841636 0.593943 -0.175227
0.845179 0.591730 -0.174937
0.849581 0.592606 -0.175523
0.853841 0.592919 -0.175953
0.857775 0.592071 -0.176056
0.863322 0.596635 -0.177702
0.869723 0.603826 -0.180104
0.872945 0.600420 -0.179487
0.876157 0.597061 -0.178883
0.880638 0.597758 -0.179441
0.885273 0.598872 -0.180123
0.887924 0.593890 -0.179055
0.891741 0.592510 -0.179024
0.896254 0.593185 -0.179587
0.901042 0.594599 -0.180367
0.906231 0.597074 -0.181460
0.910393 0.596555 -0.181690
0.913180 0.592206 -0.180810
0.917989 0.593458 -0.181560
0.921992 0.592470 -0.181662
0.925972 0.591413 -0.181746
0.930038 0.590567 -0.181895
0.934973 0.591944 -0.182697
0.941080 0.596217 -0.184355
0.945305 0.595618 -0.184590
0.954504 0.607275 -0.188436
0.953649 0.594090 -0.184974
0.956877 0.591026 -0.184492
0.961574 0.591483 -0.185053
0.964664 0.588123 -0.184489
0.970241 0.590551 -0.185644
0.974475 0.589809 -0.185865
0.978318 0.588161 -0.185820
0.982558 0.587393 -0.186040
0.987968 0.589161 -0.187025
0.993005 0.590032 -0.187748
0.996936 0.588466 -0.187747
1.004550 0.594672 -0.190088
1.012949 0.602315 -0.192876
1.016081 0.598863 -0.192328
1.020366 0.597792 -0.192503
1.023857 0.595097 -0.192190
1.026331 0.590391 -0.191269
1.030964 0.589984 -0.191660
1.035892 0.590106 -0.192218
1.040748 0.590034 -0.192725
1.047168 0.592870 -0.194130
1.051469 0.591615 -0.194290
1.056272 0.591260 -0.194733
1.061179 0.591046 -0.195227
1.066624 0.591753 -0.196014
1.071128 0.590701 -0.196265
1.076273 0.590744 -0.196862
1.081681 0.591187 -0.197593
1.087205 0.591760 -0.198374
1.091913 0.590861 -0.198704
1.096692 0.590041 -0.199065
1.102642 0.591135 -0.200036
1.108047 0.591240 -0.200706
1.113091 0.590686 -0.201177
1.118623 0.590871 -0.201890
1.124141 0.590965 -0.202583
1.130591 0.592472 -0.203736
1.136691 0.593332 -0.204692
1.141687 0.592399 -0.205085
1.147224 0.592252 -0.205737
1.151964 0.590836 -0.205987
1.158609 0.592249 -0.207157
1.164062 0.591801 -0.207733
1.170133 0.592213 -0.208596
1.176736 0.593332 -0.209695
1.182113 0.592607 -0.210201
1.187837 0.592340 -0.210859
1.194444 0.593272 -0.211916
1.200253 0.593024 -0.212589
1.205735 0.592288 -0.213103
1.212263 0.592955 -0.214081
1.218588 0.593297 -0.214953
1.224234 0.592693 -0.215509
1.230379 0.592736 -0.216279
1.237239 0.593695 -0.217350
1.242675 0.592770 -0.217786
1.250757 0.595258 -0.219362
1.256522 0.594744 -0.219919
1.262433 0.594425 -0.220532
1.267429 0.592981 -0.220749
1.273004 0.592298 -0.221208
1.279067 0.592248 -0.221867
1.285291 0.592426 -0.222586
1.290270 0.591140 -0.222783
1.295448 0.590156 -0.223062
1.301820 0.590651 -0.223826
1.308203 0.591207 -0.224588
1.313899 0.591015 -0.225067
1.318103 0.589173 -0.224947
1.326403 0.592116 -0.226459
0.337383 0.584978 -0.150201
0.340925 0.584806 -0.150444
0.343148 0.588592 -0.151683
0.346501 0.589353 -0.152137
0.351606 0.585131 -0.151302
0.355051 0.585918 -0.151735
0.358491 0.586897 -0.152204
0.361630 0.588978 -0.152943
0.364146 0.593208 -0.154223
0.367759 0.594224 -0.154666
0.369812 0.600427 -0.156433
0.373063 0.603022 -0.157262
0.378358 0.599002 -0.156376
0.385058 0.590183 -0.154241
0.389259 0.589760 -0.154261
0.393221 0.590234 -0.154505
0.396482 0.593296 -0.155411
0.401414 0.590446 -0.154783
0.404601 0.594005 -0.155806
0.408426 0.595325 -0.156246
0.412208 0.596888 -0.156746
0.417242 0.593602 -0.155986
0.421257 0.594284 -0.156250
0.424331 0.598854 -0.157522
0.427208 0.604438 -0.159056
0.433649 0.594977 -0.156686
0.438080 0.593875 -0.156484
0.441835 0.595720 -0.157047
0.446388 0.593958 -0.156674
0.450588 0.593722 -0.156698
0.454196 0.596285 -0.157452
0.457321 0.601317 -0.158850
0.461217 0.602641 -0.159286
0.465728 0.600776 -0.158895
0.470875 0.595347 -0.157578
0.475346 0.593269 -0.157135
0.479031 0.595442 -0.157803
0.483407 0.593652 -0.157441
0.486848 0.597283 -0.158496
0.490535 0.599554 -0.159201
0.495049 0.596622 -0.158550
0.499638 0.592927 -0.157703
0.504151 0.589424 -0.156908
0.507869 0.591192 -0.157496
0.511634 0.592669 -0.158011
0.515531 0.593181 -0.158278
0.519483 0.593221 -0.158425
0.522831 0.598116 -0.159849
0.526443 0.601098 -0.160777
0.530388 0.601300 -0.160979
0.534836 0.596776 -0.159942
0.538963 0.594860 -0.159593
0.542296 0.600771 -0.161309
0.545778 0.605625 -0.162752
0.549951 0.603114 -0.162258
0.554642 0.594050 -0.160037
0.558430 0.595251 -0.160527
0.562284 0.595638 -0.160806
0.566173 0.595504 -0.160951
0.570122 0.594338 -0.160826
0.574175 0.591167 -0.160172
0.577679 0.597389 -0.162013
0.581453 0.599333 -0.162723
0.585279 0.600461 -0.163221
0.589238 0.598484 -0.162896
0.593127 0.597900 -0.162945
0.597016 0.597051 -0.162925
0.600884 0.596617 -0.163019
0.604764 0.595390 -0.162904
0.608632 0.594117 -0.162779
0.612501 0.591638 -0.162334
0.616329 0.591505 -0.162518
0.620162 0.588966 -0.162060
0.623980 0.590629 -0.162731
0.627826 0.593893 -0.163836
0.631671 0.594377 -0.164198
0.635549 0.596530 -0.165012
0.639511 0.601604 -0.166617
0.643219 0.594994 -0.165075
0.647029 0.593711 -0.164970
0.650855 0.593149 -0.165062
0.654694 0.592987 -0.165265
0.658555 0.593282 -0.165593
0.662316 0.591476 -0.165354
0.666230 0.592717 -0.165944
0.670290 0.596160 -0.167136
0.674170 0.596238 -0.167416
0.677965 0.595022 -0.167345
0.681784 0.594238 -0.167394
0.685705 0.594794 -0.167810
0.689540 0.594210 -0.167917
0.693377 0.593650 -0.168032
0.697217 0.593136 -0.168161
0.700621 0.588181 -0.167072
0.704636 0.589582 -0.167730
0.709185 0.595778 -0.169711
0.713840 0.602329 -0.171796
0.718115 0.605059 -0.172833
0.722067 0.604874 -0.173068
0.724981 0.596491 -0.171035
0.728725 0.594974 -0.170901
0.732384 0.592903 -0.170615
0.736216 0.592149 -0.170694
0.741357 0.600336 -0.173263
0.745711 0.602759 -0.174233
0.749389 0.600659 -0.173945
0.752652 0.596074 -0.172964
0.756952 0.597958 -0.173790
0.761302 0.599983 -0.174659
0.764906 0.597617 -0.174300
0.768128 0.593235 -0.173375
0.772135 0.593266 -0.173689
0.776229 0.593712 -0.174121
0.780213 0.593535 -0.174381
0.784367 0.594177 -0.174873
0.789137 0.597739 -0.176193
0.793125 0.597387 -0.176410
0.796078 0.592222 -0.175264
0.800288 0.592940 -0.175786
0.804320 0.592804 -0.176067
0.808511 0.593326 -0.176538
0.812514 0.592989 -0.176767
0.816769 0.593680 -0.177290
0.821270 0.595301 -0.178083
0.825873 0.597227 -0.178965
0.830319 0.598428 -0.179644
0.836594 0.606540 -0.182311
0.839549 0.601854 -0.181306
0.841754 0.594553 -0.179547
0.844950 0.591061 -0.178882
0.849689 0.593133 -0.179824
0.853774 0.592814 -0.180079
0.858002 0.592964 -0.180471
0.863948 0.598840 -0.182528
0.869424 0.602927 -0.184072
0.873312 0.601685 -0.184073
0.877328 0.600856 -0.184195
0.881512 0.600548 -0.184472
0.885132 0.598471 -0.184234
0.887809 0.593557 -0.183166
0.891715 0.592438 -0.183210
0.895932 0.592230 -0.183524
0.900205 0.592157 -0.183881
0.905635 0.595343 -0.185201
0.912549 0.602567 -0.187720
0.913333 0.592572 -0.185158
0.917355 0.591663 -0.185281
0.921611 0.591368 -0.185590
0.925696 0.590591 -0.185758
0.929796 0.589834 -0.185936
0.935198 0.592410 -0.187111
0.940723 0.595185 -0.188352
0.948299 0.602973 -0.191100
0.948439 0.592155 -0.188285
0.951965 0.589830 -0.188013
0.956808 0.590689 -0.188700
0.960272 0.588212 -0.188389
0.966877 0.593104 -0.190304
0.971855 0.594070 -0.191042
0.976061 0.593205 -0.191232
0.984288 0.601361 -0.194164
0.990461 0.604702 -0.195647
0.995366 0.605130 -0.196252
0.999687 0.604237 -0.196461
1.005065 0.605574 -0.197356
1.009540 0.604922 -0.197651
1.011343 0.598664 -0.196229
1.015105 0.596541 -0.196079
1.020789 0.598332 -0.197139
1.024482 0.596021 -0.196941
1.025581 0.588558 -0.195153
1.031275 0.590242 -0.196199
1.035940 0.589834 -0.196605
1.042000 0.592058 -0.197838
1.046204 0.590654 -0.197948
1.051382 0.591052 -0.198629
1.056171 0.590663 -0.199071
1.061710 0.591597 -0.199936
1.066655 0.591376 -0.200448
1.072520 0.592747 -0.201470
1.076602 0.590872 -0.201475
1.081251 0.589969 -0.201795
1.086100 0.589373 -0.202219
1.091716 0.590038 -0.203054
1.098284 0.592236 -0.204388
1.103516 0.592090 -0.204984
1.108169 0.590923 -0.205261
1.112981 0.589979 -0.205617
1.119128 0.591152 -0.206663
1.124990 0.591779 -0.207544
1.131707 0.593684 -0.208850
1.136402 0.592315 -0.209102
1.141387 0.591363 -0.209497
1.146559 0.590654 -0.209977
1.153747 0.592957 -0.211453
1.159206 0.592554 -0.212050
1.164354 0.591640 -0.212485
1.170533 0.592200 -0.213413
1.176617 0.592554 -0.214281
1.182921 0.593163 -0.215239
1.188359 0.592474 -0.215770
1.193912 0.591914 -0.216347
1.199809 0.591798 -0.217075
1.205560 0.591442 -0.217724
1.211884 0.591835 -0.218626
1.218452 0.592516 -0.219626
1.225088 0.593245 -0.220642
1.231644 0.593829 -0.221608
1.237668 0.593684 -0.222320
1.245125 0.595390 -0.223660
1.250197 0.593988 -0.223928
1.256201 0.593800 -0.224602
1.261534 0.592774 -0.224975
1.267045 0.592003 -0.225421
1.272906 0.591698 -0.226012
1.279262 0.592030 -0.226808
1.285821 0.592634 -0.227680
1.291744 0.592501 -0.228275
1.297123 0.591767 -0.228638
1.303371 0.592124 -0.229359
1.308753 0.591517 -0.229718
1.313183 0.589876 -0.229685
1.319783 0.590829 -0.230538
1.326699 0.592201 -0.231512
0.331616 0.600358 -0.158091
0.340634 0.584807 -0.154350
0.344119 0.584921 -0.154660
0.345025 0.592705 -0.156956
0.350999 0.585925 -0.155441
0.354889 0.585347 -0.155529
0.358768 0.584941 -0.155647
0.362211 0.586014 -0.156138
0.364583 0.590603 -0.157538
0.367053 0.595157 -0.158918
0.368965 0.601781 -0.160831
0.373830 0.599077 -0.160286
0.380118 0.591666 -0.158492
0.384902 0.589189 -0.157982
0.388473 0.590886 -0.158561
0.391614 0.594232 -0.159566
0.396279 0.592334 -0.159182
0.400762 0.591086 -0.158963
0.404795 0.591501 -0.159176
0.408031 0.594982 -0.160193
0.412453 0.594065 -0.160045
0.416793 0.593452 -0.159974
0.420881 0.593834 -0.160162
0.422496 0.604356 -0.163029
0.426563 0.605076 -0.163304
0.431901 0.600374 -0.162144
0.437209 0.595575 -0.160957
0.441440 0.595337 -0.160976
0.445535 0.595683 -0.161151
0.450030 0.594125 -0.160822
0.454047 0.594747 -0.161071
0.457334 0.598945 -0.162271
0.461264 0.600057 -0.162655
0.465488 0.599646 -0.162638
0.468972 0.603094 -0.163647
0.474114 0.597589 -0.162282
0.478596 0.595421 -0.161806
0.482688 0.595320 -0.161882
0.487450 0.591140 -0.160876
0.491382 0.591738 -0.161144
0.495769 0.589414 -0.160637
0.499117 0.593678 -0.161888
0.503215 0.593061 -0.161844
0.507105 0.593792 -0.162162
0.511237 0.592736 -0.162007
0.515438 0.591004 -0.161676
0.519321 0.591543 -0.161954
0.522907 0.594470 -0.162874
0.526872 0.594348 -0.162984
0.530946 0.593172 -0.162816
0.535144 0.590665 -0.162294
0.539045 0.590721 -0.162462
0.541669 0.603655 -0.166089
0.545528 0.604682 -0.166528
0.549949 0.599407 -0.165278
0.554150 0.596058 -0.164547
0.558214 0.593971 -0.164158
0.562002 0.595239 -0.164676
0.565887 0.595209 -0.164848
0.569877 0.593480 -0.164565
0.573865 0.591439 -0.164200
0.577366 0.597791 -0.166106
0.581199 0.598687 -0.166543
0.585286 0.594115 -0.165502
0.588965 0.598401 -0.166864
0.592883 0.597148 -0.166728
0.596709 0.598344 -0.167260
0.600580 0.598245 -0.167444
0.604516 0.595033 -0.166784
0.608393 0.593381 -0.166550
0.612236 0.593204 -0.166720
0.616099 0.590047 -0.166080
0.619920 0.591241 -0.166630
0.623753 0.593250 -0.167405
0.627615 0.596569 -0.168543
0.631477 0.597016 -0.168899
0.635346 0.597641 -0.169307
0.639241 0.599160 -0.169963
0.643041 0.596355 -0.169435
0.646824 0.593814 -0.168980
0.650659 0.593389 -0.169108
0.654482 0.592683 -0.169162
0.658331 0.592677 -0.169411
0.662261 0.594241 -0.170096
0.666049 0.592870 -0.169972
0.670032 0.594944 -0.170804
0.674078 0.597651 -0.171815
0.677721 0.594075 -0.171086
0.681736 0.595958 -0.171874
0.685425 0.593416 -0.171433
0.689350 0.593945 -0.171850
0.693237 0.593938 -0.172119
0.697103 0.593645 -0.172310
0.700639 0.589968 -0.171557
0.704609 0.590820 -0.172071
0.709484 0.599976 -0.174916
0.713664 0.602097 -0.175795
0.717675 0.602560 -0.176211
0.721132 0.598387 -0.175325
0.724690 0.595292 -0.174741
0.728481 0.594151 -0.174709
0.732276 0.593081 -0.174698
0.736111 0.592321 -0.174775
0.740749 0.597052 -0.176409
0.745064 0.599302 -0.177345
0.748560 0.596125 -0.176743
0.752361 0.594997 -0.176723
0.756835 0.597941 -0.177864
0.761193 0.600003 -0.178758
0.765232 0.600090 -0.179090
0.768024 0.593243 -0.177444
0.771876 0.592422 -0.177518
0.775934 0.592682 -0.177904
0.779823 0.592035 -0.178031
0.784728 0.596437 -0.179611
0.789311 0.599023 -0.180673
0.792998 0.597197 -0.180468
0.796557 0.594826 -0.180106
0.799988 0.591944 -0.179597
0.804332 0.593196 -0.180284
0.808612 0.594080 -0.180867
0.812232 0.592096 -0.180621
0.815563 0.588957 -0.180040
0.819969 0.590279 -0.180756
0.824413 0.591662 -0.181494
0.830017 0.597478 -0.183528
0.834867 0.600146 -0.184650
0.839667 0.602487 -0.185681
0.842478 0.597387 -0.184535
0.844977 0.591315 -0.183101
0.849115 0.591237 -0.183428
0.853409 0.591671 -0.183907
0.857903 0.592734 -0.184575
0.862761 0.594949 -0.185586
0.867546 0.596809 -0.186498
0.871879 0.597102 -0.186949
0.876491 0.598241 -0.187655
0.881197 0.599599 -0.188430
0.885159 0.598580 -0.188502
0.887875 0.593773 -0.187447
0.891993 0.593272 -0.187676
0.895685 0.591493 -0.187526
0.899976 0.591467 -0.187903
0.906032 0.596438 -0.189782
0.909909 0.595101 -0.189774
0.913014 0.591627 -0.189126
0.916725 0.589872 -0.188996
0.920773 0.589030 -0.189144
0.925374 0.589639 -0.189734
0.930242 0.590887 -0.190522
0.934693 0.590986 -0.190967
0.942423 0.599362 -0.193933
0.946648 0.598694 -0.194158
0.947561 0.589829 -0.191887
0.951809 0.589281 -0.192152
0.956468 0.589690 -0.192715
0.960111 0.587638 -0.192528
0.967720 0.594872 -0.195197
0.971067 0.592035 -0.194780
0.977353 0.595919 -0.196437
0.984882 0.602454 -0.198924
0.989854 0.603099 -0.199601
0.993886 0.601621 -0.199626
1.002318 0.609651 -0.202610
1.009041 0.613783 -0.204396
1.009347 0.604214 -0.201921
1.011315 0.598293 -0.200580
1.015267 0.596554 -0.200548
1.020314 0.597031 -0.201217
1.023545 0.593792 -0.200725
1.028544 0.594091 -0.201351
1.033825 0.594882 -0.202139
1.035933 0.589444 -0.200965
1.041082 0.589908 -0.201664
1.046684 0.591164 -0.202622
1.052236 0.592239 -0.203533
1.057155 0.592061 -0.204053
1.061866 0.591448 -0.204443
1.066568 0.590773 -0.204820
1.072574 0.592385 -0.205940
1.077009 0.591124 -0.206145
1.081259 0.589506 -0.206242
1.087072 0.590565 -0.207212
1.092418 0.590738 -0.207905
1.097618 0.590600 -0.208506
1.103902 0.592212 -0.209688
1.108346 0.590685 -0.209854
1.114053 0.591191 -0.210694
1.120493 0.592810 -0.211909
1.127173 0.594711 -0.213229
1.131063 0.592094 -0.213069
1.136078 0.591231 -0.213494
1.140961 0.590118 -0.213843
1.148672 0.593300 -0.215629
1.154641 0.593712 -0.216504
1.159600 0.592541 -0.216857
1.164482 0.591221 -0.217166
1.171333 0.592761 -0.218441
1.176729 0.592101 -0.218983
1.183365 0.593183 -0.220118
1.188973 0.592728 -0.220739
1.194112 0.591577 -0.221125
1.200145 0.591649 -0.221930
1.206958 0.592754 -0.223090
1.212909 0.592623 -0.223828
1.218794 0.592372 -0.224524
1.225258 0.592874 -0.225478
1.232263 0.594058 -0.226665
1.238163 0.593754 -0.227331
1.244519 0.594035 -0.228195
1.249801 0.592927 -0.228565
1.255414 0.592261 -0.229077
1.261037 0.591629 -0.229587
1.267112 0.591588 -0.230290
1.273248 0.591642 -0.231011
1.279806 0.592239 -0.231906
1.286325 0.592812 -0.232775
1.292205 0.592647 -0.233360
1.298312 0.592802 -0.234037
1.304828 0.593489 -0.234879
1.308938 0.591406 -0.234706
1.314230 0.590793 -0.235030
1.321010 0.591972 -0.235968
1.324161 0.589058 -0.235408
0.337505 0.583119 -0.157507
0.341621 0.581209 -0.157305
0.345015 0.581489 -0.157667
0.347244 0.585328 -0.158961
0.348391 0.592621 -0.161160
0.352644 0.591004 -0.160977
0.355160 0.594759 -0.162211
0.356762 0.601579 -0.164249
0.365323 0.587067 -0.160583
0.369532 0.586018 -0.160494
0.373079 0.587191 -0.160986
0.376140 0.590113 -0.161934
0.379466 0.592360 -0.162691
0.383351 0.592903 -0.162982
0.386293 0.596792 -0.164161
0.390655 0.595944 -0.164061
0.395268 0.594242 -0.163723
0.399592 0.593587 -0.163659
0.403157 0.595765 -0.164349
0.408476 0.591464 -0.163292
0.412263 0.592910 -0.163775
0.416767 0.591623 -0.163519
0.420704 0.592567 -0.163860
0.422549 0.602099 -0.166512
0.425555 0.607200 -0.167969
0.432219 0.596907 -0.165278
0.436899 0.594789 -0.164788
0.441048 0.594917 -0.164903
0.445370 0.594224 -0.164797
0.449884 0.592568 -0.164432
0.454019 0.592602 -0.164523
0.457300 0.596786 -0.165738
0.461093 0.598554 -0.166303
0.464951 0.600025 -0.166789
0.468889 0.601092 -0.167170
0.473182 0.600210 -0.167026
0.477837 0.597187 -0.166305
0.482247 0.595334 -0.165904
0.486652 0.593327 -0.165463
0.490983 0.591581 -0.165096
0.494881 0.592393 -0.165427
0.499375 0.589284 -0.164697
0.503029 0.591569 -0.165434
0.507477 0.588385 -0.164690
0.511665 0.586778 -0.164378
0.515464 0.587903 -0.164812
0.519046 0.590722 -0.165711
0.522324 0.596143 -0.167323
0.526645 0.593141 -0.166647
0.530546 0.593497 -0.166888
0.534709 0.591390 -0.166462
0.538527 0.592338 -0.166873
0.541637 0.600452 -0.169246
0.545369 0.602712 -0.170025
0.549833 0.596941 -0.168612
0.554033 0.593550 -0.167852
0.557799 0.595139 -0.168459
0.561670 0.595431 -0.168715
0.565574 0.595225 -0.168838
0.569505 0.594506 -0.168823
0.573452 0.593322 -0.168684
0.577271 0.594159 -0.169104
0.581357 0.589840 -0.168107
0.585207 0.589668 -0.168256
0.588900 0.593177 -0.169423
0.592569 0.598215 -0.171017
0.596418 0.599004 -0.171443
0.600315 0.598222 -0.171438
0.604275 0.594167 -0.170529
0.608131 0.593824 -0.170650
0.611992 0.592742 -0.170570
0.615825 0.593835 -0.171095
0.619678 0.591628 -0.170707
0.623528 0.599679 -0.173175
0.627404 0.599860 -0.173458
0.631212 0.593832 -0.172013
0.635062 0.593945 -0.172281
0.638954 0.595933 -0.173076
0.642792 0.595035 -0.173068
0.646626 0.594255 -0.173094
0.650447 0.593224 -0.173053
0.654255 0.592097 -0.172986
0.658126 0.592535 -0.173361
0.662090 0.594738 -0.174236
0.665965 0.594838 -0.174522
0.669864 0.595285 -0.174908
0.673776 0.595816 -0.175320
0.677743 0.597036 -0.175930
0.681529 0.595564 -0.175782
0.685403 0.595348 -0.175990
0.689225 0.594481 -0.176016
0.693183 0.595214 -0.176498
0.697111 0.595498 -0.176855
0.701185 0.597199 -0.177617
0.705646 0.602469 -0.179400
0.709564 0.602157 -0.179596
0.713318 0.600354 -0.179368
0.717131 0.599169 -0.179318
0.720730 0.596268 -0.178777
0.724428 0.594337 -0.178514
0.728245 0.593399 -0.178537
0.732059 0.592466 -0.178563
0.735977 0.592290 -0.178808
0.740761 0.598007 -0.180753
0.744334 0.595302 -0.180274
0.748246 0.594889 -0.180457
0.752447 0.596263 -0.181159
0.756740 0.598064 -0.181988
0.761041 0.599768 -0.182791
0.764959 0.599161 -0.182927
0.767755 0.592335 -0.181255
0.771645 0.591728 -0.181391
0.775494 0.590895 -0.181463
0.779726 0.592027 -0.182110
0.785047 0.598487 -0.184318
0.789957 0.602603 -0.185847
0.793932 0.602042 -0.186010
0.796095 0.593071 -0.183705
0.800194 0.593239 -0.184081
0.804708 0.595202 -0.184989
0.808342 0.593232 -0.184741
0.812269 0.592550 -0.184873
0.817815 0.598578 -0.186992
0.818965 0.586457 -0.183743
0.824172 0.590941 -0.185410
0.828722 0.592647 -0.186259
0.833549 0.595310 -0.187396
0.837494 0.594527 -0.187512
0.841798 0.595056 -0.188020
0.845337 0.592769 -0.187691
0.848601 0.589554 -0.187084
0.853540 0.592248 -0.188248
0.857764 0.592368 -0.188644
0.862068 0.592713 -0.189111
0.866071 0.592020 -0.189269
0.869965 0.590958 -0.189317
0.874740 0.592706 -0.190216
0.878811 0.592148 -0.190423
0.882707 0.591033 -0.190463
0.889295 0.598092 -0.192985
0.893324 0.597243 -0.193114
0.897933 0.598087 -0.193762
0.903700 0.602221 -0.195416
0.907035 0.599253 -0.194910
0.909150 0.592913 -0.193375
0.912132 0.589117 -0.192616
0.916184 0.588315 -0.192775
0.920128 0.587204 -0.192842
0.925556 0.590015 -0.194119
0.929883 0.589832 -0.194481
0.935612 0.593220 -0.195949
0.941420 0.596673 -0.197446
0.945841 0.596520 -0.197834
0.948742 0.592577 -0.197050
0.951721 0.588890 -0.196346
0.956406 0.589354 -0.196936
0.961634 0.591046 -0.197915
0.967371 0.593841 -0.199247
0.968708 0.586367 -0.197370
0.974470 0.589116 -0.198698
0.984401 0.601122 -0.202946
0.987762 0.598192 -0.202509
0.991847 0.596877 -0.202585
0.998570 0.601252 -0.204464
1.005500 0.605912 -0.206446
1.010085 0.605458 -0.206816
1.011653 0.598675 -0.205180
1.016693 0.599154 -0.205857
1.019599 0.595230 -0.205135
1.022110 0.590552 -0.204174
1.027021 0.590700 -0.204762
1.033304 0.593480 -0.206204
1.036241 0.589653 -0.205529
1.040894 0.589147 -0.205929
1.047466 0.592232 -0.207498
1.052853 0.592968 -0.208318
1.057536 0.592330 -0.208700
1.061818 0.590912 -0.208837
1.067650 0.592270 -0.209886
1.071470 0.589941 -0.209739
1.077211 0.590999 -0.210709
1.082172 0.590608 -0.211214
1.087552 0.590890 -0.211948
1.092656 0.590631 -0.212513
1.097906 0.590561 -0.213151
1.104216 0.592201 -0.214364
1.109517 0.592073 -0.215002
1.114557 0.591460 -0.215486
1.119755 0.591051 -0.216048
1.126238 0.592640 -0.217288
1.131630 0.592408 -0.217927
1.135922 0.590397 -0.217975
1.140719 0.589148 -0.218285
1.150252 0.595112 -0.221048
1.153936 0.592032 -0.220754
1.158640 0.590485 -0.220985
1.164546 0.590695 -0.221821
1.171222 0.591973 -0.223030
1.178026 0.593355 -0.224283
1.183481 0.592718 -0.224848
1.189240 0.592477 -0.225553
1.195297 0.592614 -0.226392
1.201015 0.592232 -0.227053
1.207831 0.593332 -0.228232
1.213561 0.592893 -0.228874
1.219729 0.593021 -0.229713
1.225934 0.593172 -0.230558
1.231771 0.592812 -0.231218
1.237994 0.592949 -0.232048
1.243629 0.592312 -0.232595
1.250286 0.592995 -0.233601
1.256230 0.592762 -0.234271
1.260953 0.591006 -0.234382
1.268428 0.592729 -0.235722
1.274105 0.592223 -0.236247
1.279829 0.591813 -0.236788
1.286077 0.592081 -0.237552
1.291645 0.591569 -0.238011
1.297879 0.591907 -0.238755
1.304258 0.592466 -0.239554
1.309311 0.591521 -0.239780
1.315462 0.591931 -0.240471
1.322454 0.593372 -0.241511
1.324386 0.589083 -0.240425
0.336914 0.584042 -0.161647
0.344378 0.572626 -0.158882
0.348122 0.571747 -0.158939
0.345630 0.589106 -0.163912
0.344129 0.604174 -0.168262
0.356226 0.579296 -0.161778
0.357617 0.586231 -0.163897
0.357608 0.597811 -0.167268
0.363341 0.592017 -0.165906
0.369119 0.586047 -0.164479
0.371614 0.590554 -0.165890
0.375833 0.589708 -0.165832
0.377775 0.596495 -0.167844
0.380928 0.599537 -0.168824
0.384184 0.602430 -0.169755
0.388786 0.600817 -0.169445
0.393618 0.598405 -0.168908
0.395553 0.606448 -0.171223
0.401956 0.598387 -0.169124
0.406957 0.595327 -0.168387
0.411847 0.592606 -0.167737
0.416181 0.591977 -0.167655
0.420033 0.593261 -0.168094
0.422730 0.599311 -0.169837
0.426519 0.601079 -0.170405
0.431766 0.596715 -0.169288
0.436340 0.595063 -0.168914
0.440610 0.594670 -0.168885
0.444811 0.594540 -0.168928
0.449183 0.593575 -0.168743
0.453428 0.593125 -0.168700
0.457214 0.594858 -0.169259
0.460190 0.600700 -0.170951
0.464920 0.597753 -0.170227
0.469408 0.595867 -0.169796
0.473256 0.597301 -0.170283
0.477370 0.597262 -0.170367
0.481541 0.596830 -0.170346
0.486208 0.593358 -0.169490
0.490384 0.592600 -0.169385
0.494515 0.592015 -0.169331
0.497802 0.596805 -0.170766
0.502685 0.591103 -0.169305
0.506924 0.589416 -0.168958
0.511070 0.588200 -0.168744
0.514946 0.588841 -0.169048
0.518269 0.593743 -0.170536
0.521668 0.598346 -0.171947
0.526142 0.594210 -0.170940
0.530058 0.594532 -0.171173
0.534110 0.593558 -0.171049
0.538062 0.593376 -0.171150
0.541702 0.596227 -0.172098
0.545322 0.599517 -0.173174
0.549432 0.597606 -0.172805
0.553739 0.593091 -0.171714
0.557554 0.594096 -0.172165
0.561419 0.594480 -0.172447
0.565253 0.595299 -0.172854
0.569205 0.594336 -0.172768
0.573145 0.593361 -0.172681
0.577127 0.591380 -0.172315
0.581062 0.589880 -0.172087
0.585006 0.587803 -0.171700
0.588557 0.594619 -0.173813
0.592265 0.598882 -0.175215
0.595918 0.606030 -0.177434
0.599904 0.603394 -0.176905
0.604012 0.594156 -0.174517
0.607880 0.593408 -0.174523
0.611705 0.595348 -0.175291
0.615586 0.592648 -0.174751
0.619412 0.598248 -0.176561
0.623295 0.605676 -0.178896
0.627158 0.598347 -0.177053
0.630946 0.590613 -0.175095
0.634833 0.593755 -0.176224
0.638815 0.600022 -0.178247
0.642673 0.598989 -0.178199
0.646345 0.592028 -0.176463
0.650264 0.594000 -0.177274
0.654070 0.592590 -0.177123
0.657890 0.591766 -0.177141
0.661805 0.592970 -0.177742
0.665961 0.598365 -0.179547
0.669771 0.596945 -0.179403
0.673558 0.595341 -0.179208
0.677303 0.593274 -0.178880
0.681310 0.595014 -0.179650
0.685161 0.594504 -0.179775
0.689062 0.594590 -0.180074
0.693007 0.595127 -0.180505
0.697078 0.596927 -0.181305
0.701832 0.605506 -0.184071
0.705812 0.605658 -0.184402
0.709107 0.599346 -0.182858
0.712499 0.594395 -0.181708
0.716289 0.593233 -0.181659
0.720193 0.593048 -0.181896
0.724208 0.593712 -0.182383
0.728152 0.593742 -0.182687
0.731854 0.591949 -0.182460
0.735725 0.591437 -0.182608
0.740073 0.594180 -0.183713
0.744190 0.595173 -0.184309
0.748118 0.594849 -0.184520
0.751952 0.593924 -0.184555
0.755655 0.592222 -0.184363
0.760229 0.595676 -0.185693
0.764424 0.596737 -0.186321
0.767762 0.592960 -0.185520
0.771420 0.591066 -0.185276
0.775469 0.591287 -0.185661
0.779426 0.590983 -0.185891
0.785000 0.598721 -0.188516
0.789771 0.602139 -0.189862
0.793729 0.601493 -0.190001
0.795979 0.592918 -0.187773
0.800115 0.593243 -0.188202
0.804223 0.593396 -0.188582
0.808427 0.593915 -0.189074
0.812246 0.592747 -0.189062
0.816947 0.595253 -0.190157
0.820022 0.591005 -0.189222
0.823783 0.589629 -0.189151
0.828494 0.591977 -0.190207
0.832751 0.592459 -0.190703
0.836378 0.590521 -0.190469
0.840742 0.591338 -0.191071
0.844225 0.588900 -0.190688
0.849231 0.591921 -0.191966
0.853524 0.592310 -0.192448
0.857828 0.592687 -0.192929
0.862194 0.593224 -0.193463
0.866379 0.593106 -0.193799
0.870260 0.591971 -0.193826
0.874363 0.591546 -0.194074
0.878434 0.590994 -0.194285
0.882645 0.590856 -0.194627
0.889306 0.598127 -0.197257
0.894313 0.600186 -0.198287
0.900005 0.604156 -0.199915
0.905080 0.606178 -0.200946
0.908781 0.604183 -0.200736
0.909283 0.593222 -0.197739
0.912071 0.588873 -0.196795
0.916117 0.588043 -0.196949
0.921510 0.590814 -0.198231
0.925519 0.589804 -0.198336
0.929530 0.588786 -0.198443
0.934279 0.589654 -0.199145
0.942352 0.598885 -0.202485
0.947180 0.599705 -0.203188
0.948812 0.592574 -0.201386
0.952500 0.590597 -0.201212
0.957637 0.592108 -0.202146
0.962835 0.593681 -0.203107
0.968487 0.596224 -0.204384
0.971742 0.593130 -0.203873
0.976613 0.593747 -0.204549
0.982203 0.595920 -0.205729
0.985127 0.592074 -0.204989
0.990330 0.593268 -0.205870
0.996177 0.595779 -0.207181
1.004307 0.603053 -0.210038
1.007450 0.599575 -0.209438
1.013252 0.601673 -0.210645
1.015347 0.596040 -0.209355
1.020423 0.596549 -0.210061
1.021013 0.587983 -0.207820
1.025302 0.586909 -0.208020
1.031334 0.589225 -0.209334
1.036215 0.589201 -0.209893
1.042509 0.591826 -0.211330
1.047576 0.592013 -0.211977
1.052651 0.592152 -0.212616
1.057533 0.591874 -0.213126
1.062525 0.591743 -0.213693
1.067113 0.590826 -0.214008
1.071360 0.589261 -0.214115
1.077747 0.591451 -0.215481
1.082998 0.591545 -0.216159
1.088013 0.591168 -0.216689
1.093769 0.592003 -0.217635
1.098886 0.591678 -0.218201
1.104361 0.591893 -0.218958
1.109665 0.591758 -0.219606
1.114675 0.591083 -0.220080
1.120418 0.591543 -0.220949
1.126919 0.593141 -0.222217
1.131460 0.591542 -0.222402
1.135992 0.589903 -0.222579
1.142478 0.591258 -0.223793
1.148421 0.591691 -0.224699
1.153698 0.591047 -0.225241
1.158136 0.589102 -0.225338
1.166710 0.593266 -0.227565
1.172291 0.592901 -0.228225
1.177919 0.592558 -0.228898
1.182913 0.591263 -0.229241
1.190005 0.592922 -0.230626
1.195792 0.592670 -0.231342
1.201625 0.592444 -0.232069
1.208257 0.593284 -0.233174
1.214389 0.593393 -0.234021
1.220895 0.593974 -0.235034
1.226635 0.593497 -0.235666
1.231465 0.591808 -0.235857
1.236591 0.590527 -0.236185
1.243718 0.591854 -0.237443
1.251421 0.593893 -0.238951
1.257466 0.593793 -0.239675
1.263710 0.593955 -0.240479
1.269455 0.593512 -0.241047
1.274791 0.592595 -0.241424
1.280605 0.592312 -0.242011
1.286018 0.591584 -0.242413
1.290835 0.590198 -0.242548
1.298411 0.592171 -0.243896
1.303763 0.591539 -0.244257
1.309785 0.591763 -0.244907
1.317194 0.593658 -0.246149
1.321521 0.592045 -0.246060
1.329536 0.594743 -0.247543
0.335151 0.588252 -0.166698
0.347127 0.564100 -0.160391
0.351666 0.560791 -0.159782
0.344183 0.592406 -0.168772
0.351995 0.580104 -0.165660
0.356734 0.576780 -0.165003
0.358624 0.582116 -0.166722
0.359167 0.591882 -0.169655
0.361698 0.595909 -0.170989
0.367191 0.590859 -0.169795
0.370885 0.591553 -0.170178
0.374085 0.593998 -0.171035
0.377611 0.595568 -0.171637
0.380655 0.598918 -0.172723
0.384123 0.601034 -0.173456
0.388506 0.600135 -0.173340
0.393657 0.596558 -0.172469
0.397787 0.596603 -0.172598
0.401586 0.597929 -0.173076
0.406767 0.594177 -0.172132
0.411068 0.593678 -0.172089
0.415506 0.592655 -0.171894
0.419572 0.593091 -0.172103
0.422653 0.597561 -0.173436
0.426748 0.598019 -0.173645
0.431428 0.596007 -0.173162
0.435877 0.594894 -0.172930
0.439943 0.595411 -0.173152
0.444270 0.594745 -0.173043
0.448545 0.594250 -0.172983
0.452982 0.592925 -0.172691
0.456900 0.594024 -0.173079
0.461067 0.593884 -0.173122
0.465519 0.592220 -0.172739
0.469868 0.590952 -0.172470
0.472984 0.596250 -0.174045
0.476645 0.598742 -0.174837
0.480950 0.597612 -0.174616
0.485774 0.593282 -0.173499
0.489827 0.593318 -0.173611
0.493794 0.593822 -0.173858
0.497855 0.593676 -0.173926
0.501580 0.595703 -0.174610
0.506228 0.591383 -0.173511
0.510602 0.588651 -0.172862
0.514332 0.590437 -0.173490
0.517671 0.595314 -0.174995
0.520954 0.600943 -0.176717
0.525629 0.595304 -0.175263
0.529658 0.594736 -0.175244
0.533824 0.592790 -0.174840
0.537784 0.592554 -0.174923
0.541457 0.595096 -0.175796
0.545079 0.598354 -0.176877
0.548694 0.601954 -0.178061
0.552736 0.600876 -0.177923
0.557263 0.593575 -0.176021
0.561030 0.595297 -0.176684
0.564989 0.594470 -0.176627
0.568932 0.593697 -0.176589
0.572903 0.592253 -0.176363
0.576574 0.595818 -0.177568
0.580509 0.594846 -0.177484
0.584406 0.594417 -0.177558
0.588213 0.595964 -0.178200
0.591773 0.604467 -0.180836
0.595587 0.607565 -0.181933
0.599537 0.606727 -0.181907
0.603754 0.593735 -0.178398
0.607600 0.594420 -0.178812
0.611444 0.595572 -0.179364
0.615327 0.593386 -0.178959
0.619173 0.595510 -0.179798
0.623049 0.606981 -0.183334
0.626943 0.602762 -0.182354
0.630731 0.592273 -0.179564
0.634784 0.605498 -0.183625
0.638657 0.603443 -0.183276
0.642476 0.599996 -0.182526
0.646375 0.600301 -0.182864
0.650011 0.592842 -0.180951
0.653879 0.593028 -0.181258
0.657670 0.591407 -0.181042
0.661923 0.599471 -0.183649
0.665914 0.601163 -0.184405
0.669631 0.597868 -0.183710
0.673316 0.594492 -0.182991
0.677225 0.594848 -0.183364
0.681005 0.593319 -0.183188
0.684922 0.593711 -0.183576
0.688834 0.593932 -0.183917
0.692783 0.594510 -0.184366
0.696818 0.595913 -0.185059
0.701638 0.605216 -0.188084
0.706168 0.610730 -0.190000
0.708512 0.595247 -0.185721
0.711956 0.590900 -0.184726
0.716092 0.592820 -0.185585
0.720188 0.594202 -0.186289
0.724182 0.594631 -0.186713
0.728104 0.594435 -0.186953
0.731948 0.593633 -0.187015
0.735547 0.591108 -0.186566
0.740318 0.596748 -0.188552
0.745365 0.603803 -0.190968
0.749696 0.605772 -0.191869
0.751311 0.590674 -0.187664
0.755109 0.589622 -0.187661
0.759683 0.593134 -0.189029
0.764081 0.595408 -0.190030
0.767519 0.592201 -0.189385
0.771640 0.592808 -0.189889
0.775778 0.593427 -0.190399
0.779942 0.594117 -0.190933
0.784741 0.597897 -0.192405
0.788959 0.598628 -0.192959
0.792085 0.594094 -0.191918
0.796182 0.594243 -0.192298
0.799953 0.592870 -0.192217
0.804121 0.593280 -0.192681
0.808290 0.593638 -0.193131
0.811957 0.591817 -0.192919
0.817073 0.596050 -0.194559
0.819363 0.588578 -0.192620
0.823495 0.588716 -0.193011
0.829725 0.596994 -0.195906
0.834376 0.598875 -0.196842
0.837380 0.594461 -0.195843
0.841301 0.593558 -0.195926
0.844208 0.588984 -0.194877
0.848354 0.588937 -0.195227
0.853512 0.592380 -0.196661
0.857698 0.592339 -0.197021
0.862233 0.593437 -0.197738
0.866548 0.593731 -0.198208
0.870250 0.591992 -0.198047
0.874309 0.591411 -0.198250
0.878594 0.591519 -0.198671
0.882660 0.590915 -0.198872
0.887701 0.593250 -0.199999
0.894311 0.600162 -0.202570
0.899431 0.602438 -0.203692
0.903600 0.601847 -0.203917
0.907790 0.601298 -0.204157
0.909784 0.594556 -0.202443
0.913074 0.591564 -0.201914
0.917495 0.591704 -0.202379
0.921314 0.590180 -0.202321
0.925477 0.589570 -0.202556
0.929661 0.588993 -0.202805
0.936016 0.593974 -0.204835
0.942503 0.599109 -0.206923
0.947803 0.601089 -0.208011
0.953299 0.603455 -0.209231
0.955731 0.598262 -0.208026
0.959088 0.595381 -0.207566
0.965365 0.599448 -0.209351
0.972491 0.605345 -0.211739
0.977230 0.605538 -0.212292
0.980540 0.602426 -0.211777
0.983036 0.597520 -0.210682
0.985050 0.591621 -0.209263
0.989553 0.591273 -0.209655
0.996759 0.596728 -0.211953
1.002656 0.599203 -0.213288
1.005926 0.596029 -0.212777
1.008462 0.591351 -0.211774
1.013364 0.591604 -0.212398
1.017115 0.589458 -0.212238
1.022023 0.589634 -0.212851
1.024848 0.585620 -0.212081
1.031248 0.588655 -0.213658
1.036290 0.588931 -0.214329
1.041999 0.590424 -0.215414
1.047890 0.592167 -0.216594
1.052646 0.591691 -0.217040
1.057520 0.591386 -0.217552
1.062653 0.591502 -0.218214
1.067329 0.590730 -0.218586
1.073004 0.591699 -0.219555
1.078934 0.593036 -0.220660
1.083732 0.592304 -0.221073
1.088790 0.591977 -0.221632
1.093649 0.591254 -0.222064
1.099078 0.591446 -0.222819
1.104313 0.591248 -0.223449
1.110619 0.592757 -0.224677
1.115289 0.591502 -0.224962
1.119413 0.589328 -0.224936
1.126582 0.591999 -0.226599
1.131591 0.591140 -0.227046
1.136636 0.590292 -0.227504
1.143018 0.591466 -0.228678
1.148200 0.590721 -0.229188
1.154364 0.591417 -0.230212
1.160640 0.592207 -0.231278
1.167600 0.593936 -0.232684
1.172589 0.592688 -0.233044
1.177610 0.591459 -0.233413
1.184290 0.592584 -0.234625
