ply
format ascii 1.0
comment ---
element vertex 1684
property float x
property float y
property float z
element face 0
property list uchar uint vertex_indices
end_header
0.106017 0.606241 -0.289683
0.108621 0.597795 -0.286453
0.111476 0.592114 -0.284333
0.116180 0.601592 -0.288311
0.119828 0.602224 -0.288734
0.123714 0.604533 -0.289834
0.127609 0.606714 -0.290885
0.131163 0.606375 -0.290922
0.135293 0.609847 -0.292499
0.138787 0.608988 -0.292330
0.142268 0.608079 -0.292143
0.145284 0.604393 -0.290834
0.149312 0.606808 -0.291993
0.154182 0.613833 -0.295021
0.158311 0.616349 -0.296229
0.159358 0.602183 -0.290677
0.163092 0.602759 -0.291100
0.166952 0.603913 -0.291760
0.170567 0.603769 -0.291895
0.174235 0.603857 -0.292127
0.178617 0.607275 -0.293716
0.182444 0.607948 -0.294191
0.185597 0.605534 -0.293412
0.188516 0.602170 -0.292247
0.192626 0.604038 -0.293217
0.196452 0.604596 -0.293656
0.199669 0.602601 -0.293055
0.203531 0.603246 -0.293535
0.207657 0.604873 -0.294420
0.212741 0.610092 -0.296779
0.215379 0.605828 -0.295260
0.218989 0.605296 -0.295271
0.223405 0.607675 -0.296480
0.225834 0.602848 -0.294734
0.230913 0.607436 -0.296858
0.234229 0.605762 -0.296413
0.236844 0.601746 -0.295006
0.241109 0.603299 -0.295895
0.244612 0.602281 -0.295728
0.248359 0.602040 -0.295886
0.254133 0.608133 -0.298665
0.258736 0.610363 -0.299855
0.261263 0.606174 -0.298393
0.264865 0.605288 -0.298301
0.268784 0.605321 -0.298594
0.272579 0.604949 -0.298724
0.277107 0.606630 -0.299711
0.278939 0.600660 -0.297522
0.283419 0.602135 -0.298433
0.286870 0.600722 -0.298146
0.291741 0.603103 -0.299447
0.296804 0.605872 -0.300917
0.301460 0.607453 -0.301898
0.305777 0.608073 -0.302483
0.308221 0.603900 -0.301066
0.311604 0.602129 -0.300659
0.315666 0.602020 -0.300954
0.319625 0.601617 -0.301130
0.324033 0.602239 -0.301744
0.328934 0.603950 -0.302823
0.333464 0.604701 -0.303505
0.338563 0.606679 -0.304712
0.341176 0.602949 -0.303512
0.344237 0.600259 -0.302754
0.348558 0.600349 -0.303179
0.351935 0.598343 -0.302720
0.357493 0.600993 -0.304244
0.362237 0.601805 -0.304994
0.368075 0.604817 -0.306690
0.372505 0.604810 -0.307104
0.376071 0.602998 -0.306753
0.380765 0.603439 -0.307368
0.386075 0.605038 -0.308486
0.390456 0.604734 -0.308793
0.393319 0.601466 -0.307828
0.395416 0.596776 -0.306250
0.398553 0.594112 -0.305544
0.402838 0.593609 -0.305769
0.405922 0.590877 -0.305032
0.409559 0.589180 -0.304741
0.414775 0.590324 -0.305680
0.424210 0.598888 -0.309846
0.428649 0.598486 -0.310118
0.432019 0.596226 -0.309577
0.437788 0.598112 -0.310840
0.441466 0.596411 -0.310532
0.446956 0.597778 -0.311559
0.450797 0.596392 -0.311374
0.455529 0.596507 -0.311838
0.460338 0.596760 -0.312353
0.464401 0.595837 -0.312339
0.468057 0.594320 -0.312050
0.471555 0.592622 -0.311666
0.475478 0.591661 -0.311591
0.479765 0.591328 -0.311777
0.484627 0.591930 -0.312359
0.492029 0.596410 -0.314641
0.497811 0.598452 -0.315827
0.500578 0.596069 -0.315030
0.501565 0.591194 -0.313104
0.504492 0.589303 -0.312480
-0.349948 0.597735 -0.282735
-0.348215 0.601165 -0.284260
-0.344753 0.601498 -0.284541
-0.341395 0.602142 -0.284929
-0.338006 0.602843 -0.285324
-0.335134 0.604667 -0.286150
-0.331439 0.605002 -0.286368
-0.328178 0.606300 -0.286954
-0.323991 0.605843 -0.286828
-0.320152 0.606163 -0.286997
-0.316613 0.607184 -0.287432
-0.312985 0.608105 -0.287815
-0.307335 0.604836 -0.286518
-0.303653 0.605746 -0.286875
-0.300136 0.607080 -0.287391
-0.296807 0.608895 -0.288089
-0.292761 0.609194 -0.288176
-0.288864 0.609859 -0.288401
-0.284926 0.610461 -0.288596
-0.280439 0.609818 -0.288290
-0.274959 0.606827 -0.287047
-0.271235 0.607927 -0.287427
-0.267842 0.609844 -0.288129
-0.263671 0.609898 -0.288088
-0.258802 0.608199 -0.287350
-0.255138 0.609461 -0.287787
-0.249885 0.606668 -0.286615
-0.246674 0.609057 -0.287500
-0.242467 0.608859 -0.287359
-0.238413 0.609024 -0.287364
-0.234423 0.609324 -0.287424
-0.230537 0.609878 -0.287587
-0.226273 0.609340 -0.287319
-0.222303 0.609577 -0.287362
-0.217890 0.608483 -0.286880
-0.213998 0.608841 -0.286976
-0.210032 0.608932 -0.286971
-0.206024 0.608850 -0.286900
-0.202278 0.609521 -0.287131
-0.198191 0.609082 -0.286926
-0.194283 0.609150 -0.286926
-0.190613 0.609943 -0.287217
-0.186536 0.609359 -0.286966
-0.182144 0.607626 -0.286264
-0.178188 0.607282 -0.286117
-0.174149 0.606577 -0.285830
-0.170188 0.606072 -0.285627
-0.166601 0.606858 -0.285939
-0.163134 0.608074 -0.286425
-0.158977 0.606659 -0.285873
-0.155681 0.608475 -0.286605
-0.151769 0.607880 -0.286385
-0.148341 0.609163 -0.286913
-0.144647 0.609353 -0.287012
-0.140839 0.609022 -0.286909
-0.136859 0.607882 -0.286488
-0.133062 0.607454 -0.286353
-0.129333 0.607268 -0.286318
-0.125404 0.606097 -0.285895
-0.121916 0.606918 -0.286266
-0.118175 0.606508 -0.286152
-0.114762 0.607668 -0.286663
-0.111145 0.607805 -0.286772
-0.107540 0.607969 -0.286896
-0.104046 0.608701 -0.287247
-0.100240 0.607704 -0.286916
-0.096580 0.607443 -0.286879
-0.092841 0.606660 -0.286638
-0.089494 0.608177 -0.287314
-0.085977 0.608689 -0.287593
-0.082171 0.607331 -0.287132
-0.078689 0.608015 -0.287485
-0.075099 0.607962 -0.287547
-0.071524 0.607982 -0.287642
-0.067844 0.607193 -0.287416
-0.064199 0.606584 -0.287264
-0.060551 0.605875 -0.287075
-0.057048 0.606289 -0.287336
-0.053518 0.606476 -0.287508
-0.050107 0.607737 -0.288111
-0.046534 0.607555 -0.288140
-0.043025 0.607965 -0.288408
-0.039481 0.608022 -0.288537
-0.035757 0.606060 -0.287862
-0.032406 0.608251 -0.288847
-0.028925 0.609081 -0.289291
-0.025367 0.608957 -0.289355
-0.021789 0.608504 -0.289290
-0.018480 0.612137 -0.290861
-0.014961 0.612850 -0.291266
-0.011286 0.610815 -0.290573
-0.007651 0.609187 -0.290044
-0.004019 0.607243 -0.289389
-0.000471 0.606910 -0.289381
0.003071 0.606663 -0.289409
0.006674 0.604292 -0.288586
0.010234 0.602743 -0.288094
0.013571 0.611682 -0.291815
0.017222 0.605441 -0.289441
0.020709 0.609588 -0.291242
0.024257 0.610071 -0.291573
0.027810 0.608973 -0.291268
0.031358 0.608948 -0.291397
0.034918 0.609960 -0.291945
0.038454 0.608591 -0.291534
0.041929 0.604849 -0.290169
0.045483 0.605678 -0.290646
0.048970 0.603947 -0.290092
0.052575 0.606027 -0.291077
0.056179 0.607508 -0.291823
0.059871 0.610585 -0.293216
0.063487 0.611489 -0.293732
0.066955 0.609513 -0.293084
0.070286 0.605523 -0.291622
0.073779 0.604629 -0.291413
0.077308 0.604324 -0.291444
0.080941 0.605422 -0.292045
0.084629 0.607039 -0.292858
0.088178 0.606787 -0.292915
0.090856 0.596884 -0.289052
0.094160 0.594576 -0.288274
0.097928 0.597091 -0.289457
0.101749 0.599842 -0.290738
0.105367 0.600482 -0.291163
0.108637 0.598007 -0.290320
0.111303 0.590704 -0.287510
0.116262 0.602233 -0.292378
0.120064 0.603983 -0.293263
0.123818 0.605210 -0.293936
0.127496 0.605788 -0.294347
0.131350 0.607503 -0.295224
0.135354 0.610067 -0.296452
0.138987 0.610060 -0.296630
0.142499 0.609271 -0.296489
0.146256 0.609981 -0.296964
0.150011 0.610605 -0.297406
0.154060 0.612827 -0.298507
0.158114 0.614929 -0.299561
0.159472 0.602441 -0.294623
0.163101 0.602432 -0.294812
0.167030 0.603916 -0.295618
0.170742 0.604221 -0.295940
0.174876 0.606519 -0.297087
0.178736 0.607388 -0.297648
0.182273 0.606693 -0.297567
0.185649 0.605282 -0.297192
0.189128 0.604355 -0.297019
0.192718 0.603914 -0.297049
0.196413 0.603900 -0.297258
0.200166 0.604092 -0.297555
0.203617 0.603032 -0.297337
0.207918 0.605321 -0.298510
0.212003 0.606652 -0.299290
0.214509 0.601936 -0.297562
0.217648 0.599711 -0.296870
0.221536 0.600256 -0.297332
0.224699 0.598161 -0.296698
0.230389 0.604940 -0.299765
0.235446 0.609262 -0.301815
0.236732 0.600685 -0.298489
0.241562 0.604102 -0.300170
0.245204 0.603497 -0.300176
0.248622 0.602156 -0.299878
0.252066 0.600906 -0.299621
0.255799 0.600544 -0.299741
0.259805 0.600985 -0.300200
0.263728 0.601118 -0.300536
0.267605 0.601070 -0.300800
0.271145 0.600005 -0.300641
0.275828 0.602181 -0.301851
0.280426 0.604004 -0.302919
0.287406 0.612290 -0.306721
0.290608 0.610024 -0.306078
0.292460 0.604169 -0.303920
0.296444 0.604055 -0.304193
0.300934 0.605204 -0.305006
0.304096 0.602880 -0.304353
0.306951 0.599799 -0.303381
0.311872 0.601883 -0.304609
0.315741 0.601281 -0.304702
0.319903 0.601354 -0.305087
0.324060 0.601361 -0.305450
0.329057 0.603283 -0.306637
0.333641 0.604145 -0.307379
0.338902 0.606473 -0.308756
0.341521 0.602740 -0.307542
0.344739 0.600382 -0.306920
0.348330 0.598851 -0.306658
0.353621 0.600980 -0.307976
0.358342 0.601784 -0.308731
0.363073 0.602537 -0.309470
0.367862 0.603336 -0.310237
0.371645 0.602000 -0.310084
0.374749 0.599271 -0.309332
0.379577 0.600008 -0.310086
0.385185 0.602218 -0.311486
0.389383 0.601576 -0.311652
0.392832 0.599464 -0.311179
0.396733 0.598219 -0.311086
0.400270 0.596279 -0.310690
0.404205 0.595088 -0.310621
0.406850 0.591525 -0.309512
0.410079 0.589073 -0.308888
0.416385 0.592157 -0.310696
0.424873 0.599004 -0.314165
0.428623 0.597392 -0.313908
0.433341 0.597472 -0.314395
0.437518 0.596619 -0.314463
0.442937 0.597877 -0.315461
0.448828 0.599895 -0.316792
0.452891 0.598858 -0.316760
0.456008 0.596311 -0.316045
0.459914 0.595113 -0.315918
0.463452 0.593379 -0.315538
0.468687 0.594397 -0.316373
0.473549 0.594848 -0.316941
0.474741 0.589647 -0.314963
0.479719 0.590408 -0.315636
0.493092 0.603972 -0.322036
0.490816 0.593779 -0.317759
0.495957 0.594907 -0.318543
0.500092 0.594599 -0.318661
0.501932 0.591012 -0.317280
0.510867 0.597865 -0.320580
-0.351248 0.599183 -0.287249
-0.348281 0.600285 -0.287864
-0.344384 0.599761 -0.287808
-0.341180 0.600655 -0.288307
-0.338832 0.603322 -0.289503
-0.335555 0.604334 -0.290017
-0.331958 0.604833 -0.290308
-0.328184 0.605082 -0.290482
-0.324692 0.605990 -0.290908
-0.320747 0.606077 -0.290987
-0.316942 0.606525 -0.291199
-0.312860 0.606477 -0.291198
-0.308011 0.604868 -0.290554
-0.304320 0.605745 -0.290903
-0.301083 0.607671 -0.291665
-0.297286 0.608458 -0.291958
-0.293394 0.609087 -0.292179
-0.289244 0.609174 -0.292174
-0.285143 0.609395 -0.292216
-0.280834 0.609149 -0.292064
-0.276166 0.608061 -0.291568
-0.272032 0.608209 -0.291567
-0.268448 0.609675 -0.292094
-0.264670 0.610694 -0.292439
-0.259606 0.608539 -0.291503
-0.255750 0.609334 -0.291755
-0.251700 0.609630 -0.291805
-0.247918 0.610597 -0.292127
-0.243486 0.609847 -0.291758
-0.238853 0.608501 -0.291150
-0.234889 0.608884 -0.291239
-0.230700 0.608615 -0.291069
-0.226735 0.608919 -0.291132
-0.222860 0.609441 -0.291285
-0.218543 0.608652 -0.290914
-0.214618 0.608939 -0.290979
-0.210671 0.609116 -0.291002
-0.206692 0.609150 -0.290973
-0.202615 0.608831 -0.290804
-0.198326 0.607776 -0.290344
-0.194611 0.608467 -0.290590
-0.190804 0.608829 -0.290707
-0.186949 0.608990 -0.290747
-0.183156 0.609311 -0.290856
-0.178838 0.607785 -0.290227
-0.174562 0.606290 -0.289615
-0.170651 0.605991 -0.289487
-0.166940 0.606356 -0.289629
-0.163379 0.607240 -0.289984
-0.159738 0.607802 -0.290214
-0.155968 0.607836 -0.290236
-0.152592 0.609378 -0.290868
-0.148591 0.608413 -0.290496
-0.144746 0.608000 -0.290350
-0.140731 0.606800 -0.289892
-0.136821 0.605952 -0.289579
-0.133240 0.606467 -0.289817
-0.129764 0.607434 -0.290241
-0.126091 0.607493 -0.290303
-0.122462 0.607714 -0.290434
-0.118631 0.606923 -0.290162
-0.115031 0.607199 -0.290322
-0.111503 0.607818 -0.290623
-0.107888 0.607963 -0.290737
-0.104193 0.607653 -0.290671
-0.100513 0.607367 -0.290618
-0.096856 0.607151 -0.290595
-0.093317 0.607584 -0.290838
-0.089717 0.607634 -0.290929
-0.086061 0.607302 -0.290869
-0.082718 0.608933 -0.291602
-0.079015 0.608233 -0.291400
-0.075380 0.607928 -0.291359
-0.071771 0.607753 -0.291373
-0.068201 0.607814 -0.291485
-0.064489 0.606770 -0.291153
-0.060920 0.606749 -0.291237
-0.057329 0.606517 -0.291237
-0.053835 0.607081 -0.291562
-0.050357 0.607806 -0.291954
-0.046867 0.608474 -0.292325
-0.043330 0.608711 -0.292525
-0.039685 0.607808 -0.292265
-0.036039 0.606771 -0.291953
-0.032599 0.608012 -0.292565
-0.029210 0.610043 -0.293499
-0.025667 0.610265 -0.293703
-0.022082 0.609889 -0.293666
-0.018568 0.610538 -0.294047
-0.014932 0.609251 -0.293644
-0.011333 0.608385 -0.293414
-0.007761 0.607885 -0.293334
-0.004176 0.606961 -0.293083
-0.000613 0.606355 -0.292962
0.002938 0.605933 -0.292918
0.006504 0.604871 -0.292614
0.010029 0.605028 -0.292808
0.013451 0.610471 -0.295155
0.016981 0.612322 -0.296043
0.020539 0.613303 -0.296578
0.024107 0.614325 -0.297132
0.027686 0.611280 -0.296030
0.031249 0.610651 -0.295913
0.034831 0.612561 -0.296834
0.038368 0.610078 -0.295963
0.041837 0.605398 -0.294195
0.045392 0.605951 -0.294565
0.048936 0.605903 -0.294691
0.052386 0.603135 -0.293705
0.056106 0.607786 -0.295757
0.059842 0.611690 -0.297506
0.063444 0.612116 -0.297833
0.066919 0.610097 -0.297159
0.070175 0.604733 -0.295113
0.073685 0.604079 -0.294999
0.077271 0.604565 -0.295355
0.080908 0.605622 -0.295946
0.084503 0.606007 -0.296263
0.088147 0.606883 -0.296784
0.091705 0.606673 -0.296860
0.094203 0.595319 -0.292348
0.097681 0.594859 -0.292320
0.101410 0.596795 -0.293282
0.105247 0.599507 -0.294566
0.108635 0.598061 -0.294137
0.111608 0.593262 -0.292324
0.116197 0.601702 -0.295981
0.120051 0.603823 -0.297030
0.123822 0.605153 -0.297755
0.127501 0.605697 -0.298157
0.131095 0.605595 -0.298294
0.134848 0.606525 -0.298860
0.138613 0.607442 -0.299423
0.142421 0.608540 -0.300064
0.146055 0.608497 -0.300232
0.149926 0.609806 -0.300965
0.152922 0.606057 -0.299598
0.156060 0.603271 -0.298631
0.159435 0.601878 -0.298245
0.163279 0.602972 -0.298896
0.167148 0.604112 -0.299570
0.171440 0.607252 -0.301081
0.175469 0.608935 -0.301987
0.179005 0.608187 -0.301882
0.182752 0.608417 -0.302187
0.185849 0.605683 -0.301256
0.189126 0.603836 -0.300696
0.192758 0.603561 -0.300798
0.196531 0.603851 -0.301138
0.200088 0.603216 -0.301094
0.203875 0.603492 -0.301435
0.207838 0.604417 -0.302052
0.211952 0.605854 -0.302887
0.214927 0.602899 -0.301879
0.217813 0.599694 -0.300767
0.221980 0.601225 -0.301653
0.228908 0.612485 -0.306647
0.231050 0.606576 -0.304404
0.234236 0.604424 -0.303749
0.238045 0.604407 -0.303998
0.241716 0.603899 -0.304045
0.245308 0.603110 -0.303975
0.248954 0.602479 -0.303976
0.252281 0.600831 -0.303549
0.256866 0.603075 -0.304780
0.260638 0.602737 -0.304918
0.264855 0.603694 -0.305612
0.268259 0.602191 -0.305263
0.271947 0.601514 -0.305271
0.275644 0.600836 -0.305282
0.281466 0.606076 -0.307827
0.286901 0.610041 -0.309837
0.291222 0.610819 -0.310490
0.292481 0.603354 -0.307616
0.294453 0.597936 -0.305619
0.303155 0.610061 -0.311160
0.304169 0.602161 -0.308105
0.307290 0.599739 -0.307407
0.312140 0.601619 -0.308567
0.315873 0.600667 -0.308513
0.319778 0.600105 -0.308632
0.324502 0.601451 -0.309582
0.328688 0.601446 -0.309955
0.332182 0.599792 -0.309619
0.337227 0.601660 -0.310817
0.341581 0.601872 -0.311302
0.345295 0.600607 -0.311151
0.349559 0.600525 -0.311521
0.353619 0.599948 -0.311681
0.358394 0.600861 -0.312497
0.362366 0.600005 -0.312545
0.365943 0.598302 -0.312227
0.370013 0.597599 -0.312352
0.373945 0.596585 -0.312344
0.379667 0.599121 -0.313902
0.386212 0.603167 -0.316134
0.389074 0.599897 -0.315145
0.390903 0.594678 -0.313294
0.396929 0.597512 -0.315006
0.401225 0.596995 -0.315237
0.403946 0.593534 -0.314163
0.407008 0.590747 -0.313385
0.410992 0.589663 -0.313362
0.416636 0.591546 -0.314661
0.424181 0.596717 -0.317431
0.428537 0.596185 -0.317653
0.433821 0.597252 -0.318587
0.438725 0.597639 -0.319213
0.442323 0.595814 -0.318840
0.448838 0.598895 -0.320665
0.452683 0.597513 -0.320474
0.455559 0.594598 -0.319580
0.459217 0.593028 -0.319279
0.463222 0.592072 -0.319242
0.467781 0.592045 -0.319610
0.473657 0.594119 -0.320916
0.476709 0.591824 -0.320225
0.482274 0.593480 -0.321309
0.490407 0.599059 -0.324161
0.489965 0.591702 -0.321108
0.494975 0.592672 -0.321822
0.501407 0.595795 -0.323499
0.504068 0.593424 -0.322647
0.505371 0.589204 -0.320927
-0.353344 0.602113 -0.292390
-0.348537 0.599775 -0.291616
-0.344993 0.599885 -0.291823
-0.341336 0.599888 -0.291969
-0.338929 0.602400 -0.293124
-0.335938 0.603931 -0.293861
-0.331714 0.603168 -0.293643
-0.328270 0.604030 -0.294074
-0.324859 0.605063 -0.294560
-0.320747 0.604780 -0.294492
-0.316993 0.605298 -0.294738
-0.313061 0.605528 -0.294852
-0.309084 0.605732 -0.294943
-0.305218 0.606231 -0.295144
-0.301889 0.607948 -0.295832
-0.298063 0.608667 -0.296101
-0.293477 0.607751 -0.295692
-0.289655 0.608554 -0.295979
-0.285427 0.608474 -0.295898
-0.280591 0.607004 -0.295242
-0.276845 0.608043 -0.295607
-0.272684 0.608131 -0.295579
-0.268945 0.609227 -0.295960
-0.264809 0.609373 -0.295950
-0.260123 0.608151 -0.295379
-0.256397 0.609276 -0.295766
-0.252710 0.610508 -0.296196
-0.248276 0.609816 -0.295841
-0.243908 0.609243 -0.295534
-0.239744 0.609160 -0.295429
-0.235352 0.608414 -0.295055
-0.231357 0.608694 -0.295102
-0.227058 0.608089 -0.294791
-0.223255 0.608823 -0.295028
-0.219327 0.609172 -0.295111
-0.215219 0.608956 -0.294967
-0.211267 0.609147 -0.294992
-0.206964 0.608226 -0.294567
-0.203080 0.608511 -0.294638
-0.199102 0.608459 -0.294575
-0.194834 0.607426 -0.294117
-0.191041 0.607844 -0.294254
-0.187344 0.608540 -0.294508
-0.182879 0.606618 -0.293701
-0.179261 0.607478 -0.294030
-0.175666 0.608397 -0.294387
-0.172505 0.610847 -0.295372
-0.167718 0.607425 -0.293971
-0.163595 0.606277 -0.293499
-0.159890 0.606608 -0.293634
-0.156548 0.608308 -0.294330
-0.152902 0.608824 -0.294548
-0.148968 0.608153 -0.294287
-0.145272 0.608382 -0.294396
-0.141358 0.607655 -0.294121
-0.136997 0.604926 -0.293033
-0.133545 0.606018 -0.293506
-0.130183 0.607522 -0.294150
-0.126693 0.608462 -0.294568
-0.123022 0.608547 -0.294642
-0.119256 0.608132 -0.294515
-0.115381 0.607112 -0.294146
-0.111877 0.607884 -0.294510
-0.108116 0.607311 -0.294329
-0.104481 0.607345 -0.294399
-0.100906 0.607670 -0.294591
-0.097184 0.607135 -0.294436
-0.093581 0.607232 -0.294541
-0.089976 0.607285 -0.294632
-0.086640 0.608975 -0.295393
-0.082753 0.607203 -0.294744
-0.079129 0.607021 -0.294748
-0.075519 0.606887 -0.294773
-0.072018 0.607493 -0.295104
-0.068468 0.607747 -0.295293
-0.064910 0.607927 -0.295455
-0.061258 0.607342 -0.295307
-0.057615 0.606755 -0.295160
-0.054045 0.606718 -0.295240
-0.050612 0.607901 -0.295822
-0.047116 0.608565 -0.296195
-0.043483 0.607909 -0.296029
-0.039966 0.608367 -0.296321
-0.036314 0.607367 -0.296019
-0.032847 0.608399 -0.296551
-0.029478 0.610757 -0.297629
-0.025947 0.611257 -0.297948
-0.022263 0.609628 -0.297395
-0.018677 0.609243 -0.297354
-0.015162 0.609957 -0.297767
-0.011569 0.609354 -0.297640
-0.007939 0.607906 -0.297167
-0.004336 0.606729 -0.296807
-0.000741 0.605425 -0.296395
0.002771 0.606149 -0.296821
0.006313 0.606082 -0.296922
0.009862 0.605737 -0.296911
0.013327 0.609419 -0.298561
0.016881 0.609672 -0.298800
0.020402 0.613430 -0.300486
0.023973 0.614931 -0.301245
0.027561 0.612750 -0.300483
0.031117 0.608181 -0.298736
0.034680 0.608827 -0.299144
0.038255 0.609825 -0.299700
0.041739 0.605641 -0.298113
0.045398 0.610154 -0.300128
0.048792 0.604191 -0.297804
0.052404 0.606188 -0.298780
0.056054 0.608580 -0.299922
0.059742 0.611234 -0.301175
0.063357 0.611854 -0.301585
0.066606 0.605652 -0.299164
0.070114 0.604770 -0.298952
0.073670 0.604748 -0.299099
0.077204 0.604367 -0.299098
0.080789 0.604685 -0.299390
0.084369 0.604867 -0.299626
0.087890 0.604313 -0.299557
0.091384 0.603476 -0.299371
0.094383 0.597502 -0.297043
0.097625 0.594529 -0.295967
0.101434 0.597190 -0.297243
0.105358 0.600634 -0.298851
0.108854 0.600029 -0.298768
0.112469 0.600428 -0.299106
0.116489 0.604007 -0.300778
0.119960 0.603063 -0.300558
0.123720 0.604299 -0.301253
0.127387 0.604752 -0.301622
0.130946 0.604406 -0.301658
0.134540 0.604284 -0.301790
0.138171 0.604382 -0.302016
0.141804 0.604455 -0.302233
0.145194 0.603035 -0.301825
0.149156 0.605007 -0.302845
0.152701 0.604477 -0.302815
0.155909 0.602092 -0.302005
0.161119 0.610517 -0.305755
0.165543 0.614374 -0.307585
0.169789 0.617090 -0.308937
0.172117 0.610162 -0.306217
0.175098 0.606694 -0.304959
0.178494 0.605313 -0.304584
0.182556 0.607024 -0.305521
0.186037 0.606019 -0.305311
0.189020 0.602852 -0.304186
0.192742 0.602953 -0.304449
0.196435 0.602899 -0.304649
0.200168 0.602974 -0.304907
0.203847 0.602795 -0.305060
0.207718 0.603345 -0.305527
0.212079 0.605726 -0.306777
0.216079 0.606611 -0.307395
0.219809 0.606430 -0.307561
0.223885 0.607474 -0.308255
0.227291 0.606058 -0.307901
0.230774 0.604924 -0.307671
0.234033 0.603030 -0.307119
0.237664 0.602414 -0.307116
0.241590 0.602756 -0.307529
0.245679 0.603576 -0.308151
0.249438 0.603274 -0.308297
0.253259 0.603135 -0.308516
0.257625 0.604638 -0.309447
0.261299 0.603951 -0.309440
0.264785 0.602684 -0.309187
0.268740 0.602789 -0.309531
0.272383 0.601947 -0.309469
0.276504 0.602440 -0.309991
0.281424 0.605104 -0.311458
0.285910 0.606445 -0.312359
0.289731 0.605898 -0.312448
0.291812 0.600682 -0.310513
0.295435 0.599621 -0.310387
0.301359 0.604495 -0.312849
0.307796 0.610483 -0.315808
0.308244 0.601205 -0.312116
0.312558 0.601712 -0.312696
0.316041 0.600126 -0.312368
0.320871 0.601771 -0.313459
0.324212 0.599788 -0.312967
0.328729 0.600555 -0.313686
0.331706 0.597699 -0.312820
0.335059 0.595723 -0.312345
0.341896 0.601562 -0.315318
0.346172 0.601524 -0.315710
0.349858 0.600143 -0.315515
0.353984 0.599695 -0.315737
0.357987 0.598943 -0.315830
0.361267 0.596641 -0.315241
0.365726 0.596791 -0.315743
0.370674 0.597884 -0.316672
0.375643 0.598941 -0.317590
0.379618 0.597942 -0.317597
0.385096 0.599879 -0.318920
0.389190 0.599032 -0.319003
0.389713 0.591310 -0.316007
0.392573 0.588167 -0.315059
0.396893 0.587794 -0.315355
0.405658 0.595617 -0.319342
0.408955 0.593227 -0.318736
0.412949 0.592123 -0.318707
0.418036 0.592972 -0.319559
0.424730 0.596613 -0.321675
0.428996 0.595920 -0.321828
0.434381 0.597161 -0.322854
0.439013 0.597084 -0.323277
0.444234 0.598001 -0.324146
0.446145 0.593389 -0.322486
0.449616 0.591460 -0.322037
0.455282 0.593164 -0.323237
0.459709 0.592859 -0.323507
0.463127 0.590982 -0.323043
0.467765 0.591103 -0.323479
0.471114 0.589249 -0.322993
0.475345 0.588846 -0.323154
0.482320 0.592705 -0.325261
0.487899 0.594431 -0.326367
0.487817 0.587686 -0.323546
0.493241 0.589329 -0.324573
0.499341 0.592012 -0.326058
0.501859 0.589488 -0.325116
0.498249 0.578215 -0.320098
-0.350765 0.596403 -0.293997
-0.350218 0.601935 -0.296473
-0.346163 0.601073 -0.296287
-0.342511 0.601069 -0.296437
-0.339366 0.602146 -0.297018
-0.336192 0.603287 -0.297609
-0.332239 0.603024 -0.297600
-0.328665 0.603599 -0.297922
-0.325678 0.605453 -0.298759
-0.321269 0.604548 -0.298435
-0.318581 0.607229 -0.299585
-0.313379 0.604827 -0.298611
-0.309447 0.605097 -0.298733
-0.306759 0.608078 -0.299968
-0.302491 0.607781 -0.299830
-0.298384 0.607871 -0.299843
-0.294402 0.608275 -0.299977
-0.291156 0.610366 -0.300801
-0.287020 0.610515 -0.300813
-0.281667 0.607886 -0.299666
-0.276990 0.606769 -0.299141
-0.273379 0.608140 -0.299643
-0.269477 0.608849 -0.299866
-0.265478 0.609333 -0.299994
-0.260709 0.607916 -0.299331
-0.256822 0.608644 -0.299556
-0.253331 0.610376 -0.300196
-0.249550 0.611382 -0.300534
-0.244587 0.609295 -0.299593
-0.240620 0.609753 -0.299706
-0.235991 0.608398 -0.299071
-0.232366 0.609713 -0.299542
-0.227862 0.608577 -0.299003
-0.223947 0.609025 -0.299120
-0.220152 0.609784 -0.299369
-0.216106 0.609787 -0.299309
-0.211837 0.609073 -0.298956
-0.207769 0.608891 -0.298826
-0.203582 0.608285 -0.298525
-0.199381 0.607559 -0.298178
-0.195582 0.608036 -0.298333
-0.191784 0.608477 -0.298476
-0.187612 0.607645 -0.298098
-0.183862 0.608147 -0.298275
-0.179689 0.607166 -0.297845
-0.175865 0.607310 -0.297882
-0.172341 0.608472 -0.298344
-0.167969 0.606552 -0.297539
-0.164514 0.607894 -0.298084
-0.160241 0.606147 -0.297359
-0.156777 0.607396 -0.297874
-0.153024 0.607507 -0.297924
-0.149281 0.607612 -0.297976
-0.145602 0.607936 -0.298121
-0.141908 0.608156 -0.298228
-0.137414 0.604909 -0.296909
-0.134138 0.606811 -0.297718
-0.130571 0.607447 -0.298009
-0.126953 0.607831 -0.298199
-0.123335 0.608188 -0.298383
-0.119770 0.608773 -0.298663
-0.116146 0.609052 -0.298822
-0.112381 0.608586 -0.298676
-0.108784 0.608930 -0.298869
-0.104893 0.607672 -0.298402
-0.101387 0.608426 -0.298771
-0.097370 0.606288 -0.297948
-0.093739 0.606239 -0.297991
-0.090429 0.608080 -0.298818
-0.086654 0.607108 -0.298486
-0.082855 0.605887 -0.298054
-0.079221 0.605643 -0.298028
-0.075764 0.606557 -0.298485
-0.072210 0.606818 -0.298674
-0.068712 0.607481 -0.299033
-0.065089 0.607203 -0.299005
-0.061471 0.606911 -0.298973
-0.057892 0.606886 -0.299055
-0.054327 0.606960 -0.299180
-0.050677 0.606242 -0.298979
-0.047181 0.606880 -0.299343
-0.043724 0.607953 -0.299890
-0.040134 0.607713 -0.299894
-0.036556 0.607562 -0.299938
-0.032994 0.607561 -0.300046
-0.029763 0.611650 -0.301856
-0.026145 0.611128 -0.301752
-0.022403 0.608754 -0.300880
-0.018981 0.610896 -0.301888
-0.015420 0.611083 -0.302085
-0.011836 0.610861 -0.302114
-0.008151 0.608575 -0.301284
-0.004510 0.606753 -0.300649
-0.000963 0.606805 -0.300796
0.002592 0.606627 -0.300849
0.006150 0.606324 -0.300852
0.009741 0.604569 -0.300250
0.013275 0.604780 -0.300470
0.016820 0.604464 -0.300472
0.020355 0.604784 -0.300741
0.023896 0.604854 -0.300907
0.027438 0.605968 -0.301512
0.030990 0.606645 -0.301936
0.034533 0.605562 -0.301624
0.038064 0.604271 -0.301227
0.041776 0.612856 -0.304971
0.045424 0.615254 -0.306125
0.049164 0.619929 -0.308237
0.052719 0.617845 -0.307514
0.056227 0.615056 -0.306495
0.059715 0.612413 -0.305538
0.063080 0.607772 -0.303741
0.066496 0.604888 -0.302683
0.070081 0.605292 -0.303009
0.073597 0.604518 -0.302841
0.077160 0.604496 -0.302991
0.080666 0.603695 -0.302814
0.084244 0.603850 -0.303041
0.087781 0.603475 -0.303046
0.090800 0.597363 -0.300629
0.094053 0.594325 -0.299510
0.097463 0.593136 -0.299173
0.101266 0.595761 -0.300451
0.105166 0.599000 -0.301992
0.109100 0.602216 -0.303526
0.112365 0.599581 -0.302583
0.116439 0.603574 -0.304452
0.119958 0.602977 -0.304377
0.123513 0.602662 -0.304423
0.127193 0.603233 -0.304847
0.130912 0.604001 -0.305356
0.134653 0.604826 -0.305893
0.138199 0.604325 -0.305868
0.142088 0.605954 -0.306751
0.145673 0.605630 -0.306805
0.149169 0.604772 -0.306634
0.152614 0.603646 -0.306349
0.156075 0.602643 -0.306119
0.161410 0.611689 -0.310185
0.165920 0.615926 -0.312201
0.169358 0.614473 -0.311789
0.172560 0.611903 -0.310899
0.175617 0.608728 -0.309752
0.178742 0.606000 -0.308796
0.182367 0.605660 -0.308867
0.185579 0.603452 -0.308138
0.189174 0.602995 -0.308164
0.192727 0.602341 -0.308107
0.196546 0.602798 -0.308531
0.200293 0.602904 -0.308806
0.204187 0.603564 -0.309325
0.207611 0.602314 -0.309023
0.211274 0.602001 -0.309128
0.215781 0.604847 -0.310601
0.220850 0.609616 -0.312912
0.224473 0.608928 -0.312868
0.226716 0.603329 -0.310701
0.230046 0.601691 -0.310250
0.236517 0.610816 -0.314472
0.237429 0.600901 -0.310437
0.241947 0.603196 -0.311705
0.246034 0.603973 -0.312320
0.249698 0.603336 -0.312323
0.254121 0.605053 -0.313357
0.257828 0.604469 -0.313394
0.261366 0.603350 -0.313200
0.264985 0.602463 -0.313113
0.268874 0.602354 -0.313370
0.272938 0.602704 -0.313833
0.276852 0.602572 -0.314090
0.281326 0.603962 -0.315021
0.284593 0.601947 -0.314463
0.288272 0.601061 -0.314405
0.292178 0.600757 -0.314608
0.297330 0.603681 -0.316239
0.303090 0.608039 -0.318512
0.307245 0.608134 -0.318912
0.308764 0.601562 -0.316371
0.312300 0.600115 -0.316097
0.316944 0.601355 -0.317020
0.320709 0.600401 -0.316976
0.325028 0.600729 -0.317507
0.330176 0.602934 -0.318881
0.332805 0.599221 -0.317627
0.335361 0.595392 -0.316323
0.342811 0.602579 -0.319942
0.346324 0.600817 -0.319573
0.350251 0.599950 -0.319609
0.354460 0.599661 -0.319909
0.357905 0.597705 -0.319467
0.361664 0.596406 -0.319323
0.365654 0.595565 -0.319390
0.371768 0.599034 -0.321404
0.375711 0.597988 -0.321390
0.380399 0.598404 -0.322040
0.383503 0.595649 -0.321259
0.389312 0.598166 -0.322869
0.392184 0.594953 -0.321883
0.391935 0.585871 -0.318225
0.401148 0.594659 -0.322701
0.405452 0.594137 -0.322940
0.410955 0.595783 -0.324171
0.415849 0.596263 -0.324870
0.419823 0.595072 -0.324802
0.425398 0.596707 -0.326028
0.430191 0.596928 -0.326602
0.434699 0.596645 -0.326941
0.440569 0.598679 -0.328341
0.443664 0.596002 -0.327562
0.444673 0.589925 -0.325199
0.448413 0.588484 -0.324965
0.452900 0.588308 -0.325305
0.458723 0.590311 -0.326643
0.466624 0.595612 -0.329503
0.464930 0.585719 -0.325283
0.460680 0.572085 -0.319293
0.465858 0.573332 -0.320212
0.482956 0.592837 -0.329637
0.487225 0.592595 -0.329832
0.485042 0.582744 -0.325512
0.489625 0.583202 -0.325987
0.497455 0.588507 -0.328711
0.496439 0.580882 -0.325355
0.493055 0.570043 -0.320463
-0.353967 0.601393 -0.300031
-0.350788 0.602029 -0.300494
-0.347160 0.601943 -0.300637
-0.343116 0.601174 -0.300474
-0.339781 0.601855 -0.300903
-0.336535 0.602825 -0.301434
-0.333033 0.603413 -0.301788
-0.328995 0.603046 -0.301723
-0.325488 0.603824 -0.302123
-0.322581 0.605918 -0.303060
-0.318844 0.606440 -0.303321
-0.315350 0.607551 -0.303815
-0.311154 0.607283 -0.303714
-0.306682 0.606481 -0.303376
-0.302748 0.606870 -0.303527
-0.299006 0.607730 -0.303865
-0.295323 0.608781 -0.304274
-0.291449 0.609464 -0.304518
-0.287160 0.609250 -0.304377
-0.282958 0.609248 -0.304318
-0.278718 0.609168 -0.304220
-0.274395 0.608891 -0.304035
-0.270416 0.609431 -0.304188
-0.266262 0.609552 -0.304162
-0.261294 0.607661 -0.303289
-0.257313 0.608163 -0.303419
-0.253741 0.609690 -0.303978
-0.250036 0.610895 -0.304402
-0.245306 0.609428 -0.303704
-0.241217 0.609582 -0.303688
-0.236878 0.609030 -0.303377
-0.233205 0.610241 -0.303807
-0.229216 0.610569 -0.303868
-0.224885 0.609896 -0.303513
-0.220804 0.609874 -0.303434
-0.216086 0.607941 -0.302557
-0.212053 0.607925 -0.302487
-0.208171 0.608315 -0.302590
-0.204111 0.608118 -0.302452
-0.199837 0.607193 -0.302012
-0.196167 0.608100 -0.302344
-0.192551 0.609161 -0.302744
-0.188333 0.608223 -0.302312
-0.184017 0.606869 -0.301710
-0.180119 0.606836 -0.301666
-0.176218 0.606736 -0.301598
-0.172375 0.606786 -0.301596
-0.168536 0.606800 -0.301585
-0.165431 0.609467 -0.302687
-0.160969 0.607083 -0.301680
-0.156982 0.606371 -0.301378
-0.153423 0.607258 -0.301749
-0.149614 0.607126 -0.301698
-0.145914 0.607389 -0.301816
-0.142255 0.607782 -0.301992
-0.138321 0.606967 -0.301668
-0.134371 0.605997 -0.301283
-0.130893 0.607047 -0.301747
-0.127334 0.607726 -0.302060
-0.123677 0.607935 -0.302180
-0.120149 0.608730 -0.302549
-0.116634 0.609586 -0.302947
-0.112822 0.608937 -0.302719
-0.108667 0.606429 -0.301717
-0.105189 0.607356 -0.302156
-0.101571 0.607523 -0.302280
-0.098030 0.608098 -0.302578
-0.093894 0.605205 -0.301428
-0.090640 0.607388 -0.302407
-0.086936 0.606885 -0.302263
-0.083219 0.606230 -0.302060
-0.079707 0.606845 -0.302391
-0.076279 0.608046 -0.302971
-0.072680 0.608090 -0.303069
-0.069101 0.608254 -0.303221
-0.065344 0.607032 -0.302793
-0.061790 0.607295 -0.302992
-0.058182 0.607102 -0.303001
-0.054525 0.606446 -0.302819
-0.050987 0.606773 -0.303052
-0.047417 0.606801 -0.303162
-0.043868 0.607009 -0.303350
-0.040359 0.607639 -0.303718
-0.036701 0.606660 -0.303412
-0.033090 0.606111 -0.303288
-0.029991 0.611805 -0.305796
-0.026172 0.608721 -0.304609
-0.022513 0.607438 -0.304183
-0.019177 0.610865 -0.305744
-0.015534 0.609777 -0.305404
-0.011608 0.603404 -0.302835
-0.008239 0.606739 -0.304365
-0.004781 0.608856 -0.305383
-0.001115 0.606390 -0.304467
0.002428 0.606635 -0.304698
0.005978 0.606752 -0.304877
0.009554 0.605928 -0.304659
0.013106 0.605851 -0.304760
0.016629 0.607625 -0.305645
0.020181 0.608371 -0.306097
0.023757 0.606360 -0.305384
0.027312 0.606602 -0.305626
0.030866 0.605887 -0.305463
0.034421 0.605902 -0.305612
0.037946 0.603741 -0.304839
0.041646 0.611644 -0.308341
0.045371 0.617223 -0.310860
0.049039 0.618947 -0.311745
0.052577 0.616369 -0.310801
0.055958 0.610430 -0.308428
0.059486 0.609070 -0.308003
0.063061 0.608888 -0.308081
0.066506 0.606338 -0.307151
0.069981 0.604687 -0.306605
0.073651 0.606257 -0.307434
0.077231 0.606288 -0.307608
0.080724 0.605106 -0.307266
0.084101 0.602598 -0.306358
0.087691 0.602867 -0.306638
0.090836 0.598114 -0.304771
0.094106 0.595163 -0.303675
0.097415 0.592871 -0.302861
0.101287 0.596117 -0.304421
0.104992 0.597522 -0.305196
0.108387 0.596092 -0.304756
0.112316 0.599185 -0.306259
0.116200 0.601636 -0.307489
0.119969 0.602989 -0.308251
0.123461 0.602170 -0.308081
0.127147 0.602757 -0.308517
0.131147 0.605425 -0.309852
0.134816 0.605696 -0.310158
0.138414 0.605460 -0.310247
0.142237 0.606610 -0.310936
0.145839 0.606328 -0.311010
0.149154 0.604360 -0.310357
0.152535 0.602852 -0.309905
0.155955 0.601616 -0.309571
0.161952 0.614190 -0.315217
0.164928 0.610345 -0.313761
0.168328 0.608818 -0.313310
0.172372 0.610514 -0.314259
0.176254 0.611316 -0.314823
0.179705 0.610025 -0.314482
0.181915 0.603078 -0.311684
0.185413 0.602186 -0.311518
0.189186 0.602502 -0.311881
0.193255 0.604036 -0.312778
0.197054 0.604344 -0.313144
0.200765 0.604241 -0.313335
0.204429 0.603925 -0.313436
0.208131 0.603732 -0.313594
0.211010 0.600353 -0.312362
0.213913 0.597163 -0.311214
0.220951 0.609313 -0.316786
0.225002 0.610154 -0.317414
0.227725 0.606210 -0.315947
0.230801 0.603609 -0.315071
0.233836 0.600920 -0.314158
0.237605 0.600756 -0.314359
0.242321 0.603675 -0.315921
0.246274 0.603985 -0.316340
0.250255 0.604329 -0.316779
0.253697 0.602936 -0.316456
0.257947 0.604027 -0.317235
0.261316 0.602378 -0.316807
0.265141 0.602097 -0.316989
0.269155 0.602331 -0.317405
0.273139 0.602426 -0.317764
0.276919 0.601893 -0.317850
0.281081 0.602398 -0.318402
0.284367 0.600434 -0.317861
0.288115 0.599734 -0.317888
0.293604 0.603632 -0.319971
0.299810 0.609244 -0.322829
0.302104 0.604544 -0.321089
0.305628 0.603060 -0.320789
0.309501 0.602443 -0.320883
0.313330 0.601684 -0.320919
0.316999 0.600504 -0.320772
0.321559 0.601443 -0.321582
0.325109 0.599912 -0.321288
0.330173 0.601904 -0.322587
0.333491 0.599771 -0.322033
0.337007 0.598094 -0.321689
0.341282 0.598106 -0.322113
0.346203 0.599490 -0.323166
0.350843 0.600173 -0.323909
0.354803 0.599323 -0.323963
0.358624 0.598149 -0.323874
0.362606 0.597292 -0.323934
0.367854 0.599018 -0.325177
0.373186 0.600822 -0.326464
0.377998 0.601484 -0.327235
0.379900 0.596301 -0.325333
0.386703 0.600817 -0.327880
0.390866 0.600061 -0.328014
0.395292 0.599785 -0.328371
0.400147 0.600286 -0.329089
0.401587 0.594367 -0.326844
0.405464 0.593051 -0.326721
0.410041 0.593011 -0.327188
0.417070 0.597358 -0.329689
0.421510 0.596976 -0.329998
0.425309 0.595460 -0.329776
0.430906 0.597088 -0.331013
0.434254 0.594811 -0.330424
0.439640 0.596041 -0.331465
0.443903 0.595363 -0.331607
0.448400 0.595096 -0.331932
0.453281 0.595481 -0.332551
0.457105 0.594163 -0.332359
0.460958 0.592946 -0.332200
0.459086 0.582681 -0.327763
0.455794 0.570435 -0.322364
0.463620 0.575803 -0.325251
0.469351 0.577881 -0.326570
0.479611 0.586893 -0.331151
0.491176 0.597765 -0.336601
0.487158 0.585147 -0.330907
0.491642 0.585458 -0.331312
0.498040 0.588654 -0.333062
0.498681 0.583475 -0.330814
0.495944 0.573584 -0.326300
-0.354168 0.600848 -0.303775
-0.350548 0.600629 -0.303887
-0.347074 0.600788 -0.304142
-0.343796 0.601431 -0.304584
-0.340660 0.602465 -0.305174
-0.336796 0.602215 -0.305199
-0.332831 0.601860 -0.305161
-0.329143 0.602142 -0.305377
-0.325790 0.603188 -0.305901
-0.322410 0.604292 -0.306433
-0.319042 0.605525 -0.307005
-0.315419 0.606333 -0.307380
-0.311182 0.605946 -0.307230
-0.307110 0.605958 -0.307237
-0.303319 0.606631 -0.307513
-0.299638 0.607606 -0.307907
-0.296070 0.608894 -0.308423
-0.292032 0.609203 -0.308511
-0.287632 0.608730 -0.308258
-0.283270 0.608351 -0.308038
-0.279202 0.608657 -0.308103
-0.275014 0.608694 -0.308047
-0.270760 0.608577 -0.307921
-0.266560 0.608580 -0.307843
-0.261962 0.607598 -0.307342
-0.258119 0.608447 -0.307619
-0.254296 0.609355 -0.307920
-0.250308 0.609839 -0.308039
-0.246172 0.609926 -0.307990
-0.241537 0.608660 -0.307366
-0.237535 0.609020 -0.307434
-0.233504 0.609270 -0.307458
-0.229646 0.609967 -0.307673
-0.225441 0.609665 -0.307466
-0.221007 0.608651 -0.306960
-0.216673 0.607846 -0.306546
-0.212408 0.607170 -0.306191
-0.208554 0.607657 -0.306332
-0.205077 0.609261 -0.306951
-0.200041 0.606015 -0.305517
-0.196860 0.608479 -0.306508
-0.193222 0.609504 -0.306894
-0.188702 0.607613 -0.306047
-0.184361 0.606199 -0.305407
-0.180276 0.605548 -0.305095
-0.176970 0.607525 -0.305902
-0.172751 0.606292 -0.305352
-0.169147 0.607179 -0.305706
-0.165190 0.606746 -0.305504
-0.161401 0.606871 -0.305544
-0.157626 0.607007 -0.305592
-0.153825 0.606991 -0.305581
-0.150075 0.607128 -0.305639
-0.146309 0.607156 -0.305655
-0.142584 0.607304 -0.305726
-0.138823 0.607258 -0.305719
-0.134843 0.606200 -0.305288
-0.131537 0.608060 -0.306097
-0.127792 0.607953 -0.306076
-0.124404 0.609466 -0.306747
-0.120728 0.609626 -0.306848
-0.117025 0.609616 -0.306880
-0.113281 0.609354 -0.306810
-0.109070 0.606611 -0.305692
-0.105337 0.606225 -0.305576
-0.101879 0.607278 -0.306074
-0.098345 0.607928 -0.306405
-0.094387 0.606115 -0.305694
-0.090897 0.606947 -0.306110
-0.087419 0.607874 -0.306568
-0.083552 0.606339 -0.305985
-0.079999 0.606739 -0.306226
-0.076449 0.607152 -0.306477
-0.072927 0.607755 -0.306811
-0.069274 0.607411 -0.306745
-0.065730 0.607834 -0.307009
-0.062146 0.607942 -0.307142
-0.058564 0.608046 -0.307275
-0.054858 0.607063 -0.306949
-0.051330 0.607565 -0.307257
-0.047677 0.606910 -0.307075
-0.044145 0.607360 -0.307367
-0.040534 0.607008 -0.307319
-0.036983 0.607240 -0.307522
-0.033246 0.605323 -0.306812
-0.029699 0.605495 -0.306994
-0.026263 0.607130 -0.307803
-0.022661 0.606626 -0.307701
-0.019177 0.607828 -0.308330
-0.016185 0.617272 -0.312483
-0.011907 0.605409 -0.307534
-0.008380 0.605946 -0.307885
-0.004918 0.607987 -0.308882
-0.001268 0.605952 -0.308137
0.002270 0.606452 -0.308479
0.005820 0.606716 -0.308722
0.009351 0.607813 -0.309323
0.012916 0.607844 -0.309470
0.016502 0.606561 -0.309055
0.020058 0.606975 -0.309369
0.023618 0.607417 -0.309697
0.027185 0.606671 -0.309517
0.030747 0.606526 -0.309597
0.034302 0.605625 -0.309353
0.037849 0.604736 -0.309115
0.041530 0.611160 -0.312026
0.045125 0.611321 -0.312244
0.048726 0.611608 -0.312519
0.052357 0.612636 -0.313114
0.055724 0.606656 -0.310691
0.059347 0.607732 -0.311310
0.063039 0.609955 -0.312426
0.066568 0.608756 -0.312067
0.069963 0.605462 -0.310804
0.073591 0.606243 -0.311303
0.077157 0.605990 -0.311356
0.080609 0.604212 -0.310751
0.084233 0.604787 -0.311165
0.087723 0.603680 -0.310853
0.090923 0.599448 -0.309188
0.094057 0.594927 -0.307397
0.097383 0.592759 -0.306627
0.101000 0.593543 -0.307138
0.104711 0.595079 -0.307978
0.108279 0.595205 -0.308208
0.112215 0.598347 -0.309752
0.116216 0.601720 -0.311399
0.120002 0.603154 -0.312206
0.123806 0.604591 -0.313016
0.127398 0.604380 -0.313112
0.131166 0.605363 -0.313730
0.134893 0.605983 -0.314192
0.138936 0.608548 -0.315506
0.142793 0.609772 -0.316238
0.146782 0.611685 -0.317273
0.150327 0.610862 -0.317116
0.153814 0.609729 -0.316824
0.157682 0.610725 -0.317467
0.159290 0.599559 -0.312782
0.163644 0.603242 -0.314606
0.167364 0.603487 -0.314926
0.170179 0.599228 -0.313270
0.176936 0.614106 -0.320027
0.179123 0.606788 -0.317032
0.182298 0.604309 -0.316166
0.186145 0.604918 -0.316661
0.189197 0.601997 -0.315603
0.193155 0.603039 -0.316296
0.197157 0.604185 -0.317039
0.200905 0.604209 -0.317289
0.204688 0.604339 -0.317590
0.209000 0.606497 -0.318793
0.214170 0.611825 -0.321404
0.215921 0.604048 -0.318214
0.220816 0.608126 -0.320282
0.224844 0.608878 -0.320880
0.227917 0.606176 -0.319948
0.232255 0.607940 -0.321004
0.234159 0.601288 -0.318319
0.238837 0.604133 -0.319865
0.242737 0.604277 -0.320214
0.246302 0.603294 -0.320064
0.250082 0.602983 -0.320219
0.254085 0.603339 -0.320676
0.257596 0.602130 -0.320438
0.261575 0.602326 -0.320834
0.265064 0.601021 -0.320562
0.269110 0.601341 -0.321023
0.273046 0.601285 -0.321322
0.276678 0.600329 -0.321221
0.280736 0.600540 -0.321651
0.285312 0.602114 -0.322701
0.289242 0.601854 -0.322930
0.295574 0.607927 -0.326028
0.299729 0.608076 -0.326457
0.299722 0.597446 -0.322012
0.304608 0.599500 -0.323313
0.309655 0.601845 -0.324754
0.313567 0.601274 -0.324880
0.318126 0.602238 -0.325709
0.321961 0.601390 -0.325721
0.325825 0.600579 -0.325755
0.330670 0.602023 -0.326825
0.334383 0.600776 -0.326673
0.337958 0.599195 -0.326373
0.341403 0.597314 -0.325940
0.347123 0.600445 -0.327813
0.351413 0.600329 -0.328203
0.355409 0.599533 -0.328285
0.359395 0.598685 -0.328350
0.364402 0.599942 -0.329390
0.369686 0.601685 -0.330663
0.375192 0.603786 -0.332110
0.378519 0.601406 -0.331486
0.382784 0.600900 -0.331734
0.386461 0.599210 -0.331435
0.391678 0.600498 -0.332524
0.395974 0.599953 -0.332763
0.400270 0.599385 -0.332993
0.403551 0.596903 -0.332328
0.406422 0.593694 -0.331320
0.410437 0.592616 -0.331307
0.416658 0.595501 -0.333154
0.423497 0.599396 -0.335479
0.426382 0.596246 -0.334485
0.430718 0.595673 -0.334699
0.436491 0.597574 -0.336075
0.443195 0.601007 -0.338173
0.446609 0.598854 -0.337619
0.452479 0.600833 -0.339013
0.459381 0.604476 -0.341190
0.462145 0.601353 -0.340138
0.466921 0.601554 -0.340651
0.473969 0.605395 -0.342887
0.468264 0.589153 -0.335514
0.476038 0.594262 -0.338317
0.482013 0.596548 -0.339756
0.485625 0.595245 -0.339455
0.488594 0.593058 -0.338707
0.492864 0.592928 -0.338923
0.496918 0.592552 -0.338997
0.499809 0.590550 -0.338264
0.504982 0.591987 -0.339160
0.517079 0.603482 -0.344874
-0.351710 0.595424 -0.305417
-0.350265 0.599164 -0.307242
-0.347514 0.600635 -0.308072
-0.344227 0.601228 -0.308505
-0.340767 0.601608 -0.308827
-0.337168 0.601829 -0.309062
-0.333113 0.601266 -0.308940
-0.330012 0.602670 -0.309648
-0.326110 0.602599 -0.309702
-0.322666 0.603537 -0.310175
-0.319706 0.605568 -0.311103
-0.315558 0.605268 -0.311008
-0.311644 0.605521 -0.311136
-0.307660 0.605696 -0.311217
-0.304256 0.607173 -0.311847
-0.300307 0.607558 -0.311993
-0.296231 0.607715 -0.312029
-0.292264 0.608156 -0.312177
-0.287994 0.607956 -0.312039
-0.284242 0.608955 -0.312411
-0.279445 0.607580 -0.311750
-0.274994 0.606985 -0.311421
-0.270705 0.606764 -0.311247
-0.266870 0.607627 -0.311538
-0.263002 0.608427 -0.311797
-0.259061 0.609055 -0.311981
-0.254879 0.609074 -0.311899
-0.250736 0.609171 -0.311850
-0.246467 0.608915 -0.311649
-0.242306 0.608903 -0.311554
-0.237924 0.608267 -0.311190
-0.233906 0.608562 -0.311230
-0.229945 0.608984 -0.311326
-0.226200 0.609981 -0.311671
-0.221488 0.608205 -0.310826
-0.217548 0.608565 -0.310903
-0.213299 0.607976 -0.310576
-0.209177 0.607698 -0.310385
-0.205259 0.607979 -0.310440
-0.201400 0.608404 -0.310559
-0.197285 0.607981 -0.310319
-0.193603 0.608884 -0.310652
-0.189426 0.608143 -0.310284
-0.185656 0.608678 -0.310468
-0.182181 0.610183 -0.311073
-0.177939 0.609034 -0.310543
-0.173690 0.607763 -0.309965
-0.169315 0.605933 -0.309152
-0.166101 0.608236 -0.310118
-0.161911 0.606930 -0.309539
-0.158108 0.606991 -0.309551
-0.154358 0.607210 -0.309636
-0.150451 0.606762 -0.309440
-0.146753 0.607095 -0.309582
-0.142990 0.607121 -0.309598
-0.139290 0.607369 -0.309713
-0.135664 0.607897 -0.309952
-0.131835 0.607501 -0.309800
-0.128426 0.608950 -0.310443
-0.124647 0.608699 -0.310361
-0.121026 0.609144 -0.310582
-0.117247 0.608788 -0.310463
-0.113335 0.607698 -0.310032
-0.109615 0.607502 -0.309989
-0.105858 0.607052 -0.309842
-0.102184 0.606991 -0.309864
-0.098602 0.607406 -0.310095
-0.094943 0.607354 -0.310129
-0.091237 0.606982 -0.310028
-0.087602 0.606985 -0.310092
-0.084292 0.609016 -0.311032
-0.080557 0.608352 -0.310816
-0.076761 0.607195 -0.310392
-0.073016 0.606274 -0.310071
-0.069515 0.607039 -0.310479
-0.065958 0.607399 -0.310716
-0.062429 0.607986 -0.311054
-0.058732 0.607203 -0.310805
-0.055138 0.607205 -0.310896
-0.051582 0.607515 -0.311123
-0.048098 0.608508 -0.311647
-0.044375 0.607214 -0.311187
-0.040811 0.607402 -0.311370
-0.037170 0.606747 -0.311191
-0.033512 0.605793 -0.310885
-0.029914 0.605441 -0.310841
-0.026407 0.606215 -0.311286
-0.022847 0.606316 -0.311443
-0.019306 0.606713 -0.311729
-0.015848 0.608525 -0.312630
-0.012279 0.608654 -0.312806
-0.008729 0.609171 -0.313152
-0.005074 0.607504 -0.312554
-0.001378 0.604417 -0.311342
0.002175 0.604451 -0.311484
0.005665 0.606515 -0.312509
0.009211 0.607192 -0.312934
0.012776 0.607324 -0.313125
0.016352 0.606881 -0.313068
0.019928 0.606089 -0.312861
0.023491 0.606303 -0.313093
0.027056 0.607082 -0.313572
0.030623 0.606367 -0.313404
0.034178 0.604929 -0.312922
0.037738 0.604774 -0.313000
0.041277 0.603572 -0.312624
0.044839 0.603756 -0.312852
0.048392 0.603506 -0.312894
0.051918 0.602500 -0.312607
0.055751 0.609521 -0.315826
0.059452 0.611920 -0.317030
0.063098 0.612680 -0.317521
0.066518 0.609122 -0.316126
0.069899 0.605464 -0.314687
0.073485 0.605517 -0.314873
0.077140 0.606516 -0.315475
0.080665 0.605609 -0.315244
0.084209 0.605023 -0.315154
0.087790 0.604913 -0.315275
0.090990 0.600545 -0.313529
0.093930 0.593866 -0.310769
0.097133 0.590470 -0.309448
0.101198 0.595574 -0.311865
0.104737 0.595399 -0.311964
0.108609 0.598106 -0.313332
0.112482 0.600555 -0.314591
0.116118 0.600886 -0.314920
0.119919 0.602432 -0.315786
0.123663 0.603405 -0.316403
0.127466 0.604698 -0.317163
0.131127 0.604894 -0.317442
0.136734 0.617932 -0.323398
0.140439 0.617904 -0.323586
0.143751 0.615414 -0.322687
0.146803 0.611490 -0.321154
0.149926 0.608181 -0.319893
0.153563 0.607938 -0.319992
0.157281 0.608131 -0.320287
0.160106 0.603505 -0.318446
0.163881 0.604036 -0.318896
0.167682 0.604641 -0.319381
0.171456 0.605053 -0.319784
0.176259 0.610349 -0.322364
0.178926 0.605348 -0.320363
0.183070 0.607306 -0.321464
0.186480 0.605863 -0.321053
0.189798 0.604051 -0.320479
0.193410 0.603540 -0.320489
0.197226 0.603869 -0.320877
0.201244 0.604972 -0.321615
0.205028 0.605059 -0.321903
0.208923 0.605542 -0.322372
0.212851 0.606096 -0.322877
0.216404 0.605179 -0.322726
0.220177 0.605077 -0.322944
0.224705 0.607662 -0.324375
0.227563 0.604195 -0.323089
0.231305 0.603894 -0.323230
0.234625 0.602125 -0.322713
0.238741 0.603043 -0.323412
0.242780 0.603638 -0.323971
0.246322 0.602563 -0.323780
0.250072 0.602144 -0.323890
0.254468 0.603710 -0.324903
0.258289 0.603417 -0.325081
0.261084 0.600000 -0.323846
0.265127 0.600347 -0.324322
0.269148 0.600576 -0.324751
0.272992 0.600244 -0.324931
0.276600 0.599209 -0.324796
0.283193 0.606455 -0.328443
0.285330 0.601237 -0.326411
0.290666 0.604749 -0.328371
0.295345 0.606361 -0.329472
0.299261 0.605882 -0.329622
0.300516 0.598518 -0.326620
0.305685 0.601245 -0.328251
0.310165 0.602121 -0.329041
0.315136 0.604126 -0.330358
0.319031 0.603412 -0.330430
0.322142 0.600790 -0.329628
0.325650 0.599124 -0.329271
0.330427 0.600404 -0.330282
0.335209 0.601604 -0.331264
0.339393 0.601369 -0.331589
0.346351 0.607272 -0.334772
0.350988 0.607856 -0.335495
0.354051 0.604955 -0.334601
0.356416 0.600582 -0.333023
0.360625 0.600172 -0.333297
0.365708 0.601542 -0.334409
0.371087 0.603437 -0.335774
0.375409 0.603086 -0.336094
0.379786 0.602807 -0.336452
0.383818 0.601804 -0.336473
0.386973 0.599068 -0.335680
0.390756 0.597570 -0.335472
0.394930 0.596817 -0.335615
0.400034 0.597795 -0.336580
0.404517 0.597561 -0.336973
0.408568 0.596508 -0.336976
0.412454 0.595154 -0.336835
0.417066 0.595111 -0.337314
0.422475 0.596465 -0.338457
0.426903 0.596053 -0.338755
0.431971 0.596751 -0.339578
0.436742 0.596920 -0.340142
0.443045 0.599681 -0.341942
0.447606 0.599471 -0.342310
0.451498 0.598171 -0.342142
0.456617 0.598929 -0.342951
0.460905 0.598350 -0.343103
0.464748 0.597100 -0.342916
0.468133 0.595188 -0.342390
0.473687 0.596765 -0.343533
0.477243 0.595252 -0.343162
0.482480 0.596411 -0.344064
0.485949 0.594914 -0.343657
0.488718 0.592453 -0.342757
0.492928 0.592263 -0.342937
0.496079 0.590579 -0.342365
0.501161 0.591839 -0.343201
0.507192 0.594537 -0.344714
0.510333 0.593102 -0.344187
-0.352538 0.596070 -0.309651
-0.351202 0.599983 -0.311582
-0.347984 0.600554 -0.312038
-0.344817 0.601339 -0.312567
-0.341195 0.601377 -0.312751
-0.337354 0.601097 -0.312776
-0.334701 0.603229 -0.313838
-0.331632 0.604685 -0.314585
-0.326743 0.602641 -0.313781
-0.323559 0.604075 -0.314483
-0.320206 0.605279 -0.315067
-0.316444 0.605748 -0.315312
-0.312010 0.604900 -0.314963
-0.308184 0.605379 -0.315182
-0.304333 0.605876 -0.315395
