ply
format ascii 1.0
comment ---
element vertex 1675
property float x
property float y
property float z
element face 0
property list uchar uint vertex_indices
end_header
-0.335083 0.606773 -0.206509
-0.332178 0.607843 -0.206773
-0.328887 0.608258 -0.206845
-0.325387 0.608323 -0.206813
-0.321975 0.608582 -0.206832
-0.319069 0.609842 -0.207135
-0.316312 0.611437 -0.207531
-0.311469 0.608966 -0.206759
-0.308412 0.610003 -0.206991
-0.305280 0.610908 -0.207183
-0.301625 0.610762 -0.207073
-0.297869 0.610388 -0.206896
-0.294361 0.610508 -0.206861
-0.291005 0.610934 -0.206912
-0.287611 0.611263 -0.206936
-0.283483 0.609971 -0.206497
-0.279942 0.609914 -0.206411
-0.276992 0.611144 -0.206693
-0.273257 0.610589 -0.206467
-0.270152 0.611431 -0.206640
-0.267027 0.612209 -0.206796
-0.262971 0.610764 -0.206319
-0.259690 0.611097 -0.206350
-0.256755 0.612233 -0.206612
-0.253736 0.613152 -0.206813
-0.250010 0.612284 -0.206507
-0.246471 0.611820 -0.206317
-0.242913 0.611244 -0.206098
-0.239432 0.610809 -0.205920
-0.236158 0.610864 -0.205884
-0.232748 0.610505 -0.205731
-0.230394 0.612975 -0.206384
-0.226220 0.610428 -0.205614
-0.223371 0.611489 -0.205870
-0.219937 0.610864 -0.205649
-0.216737 0.610854 -0.205605
-0.213798 0.611567 -0.205767
-0.211043 0.612813 -0.206082
-0.207210 0.610773 -0.205467
-0.204342 0.611609 -0.205669
-0.201308 0.611911 -0.205722
-0.198156 0.611802 -0.205659
-0.194993 0.611616 -0.205576
-0.191816 0.611333 -0.205467
-0.188883 0.611826 -0.205580
-0.186116 0.612868 -0.205849
-0.182524 0.611027 -0.205304
-0.179945 0.612685 -0.205751
-0.176812 0.612358 -0.205637
-0.173984 0.613113 -0.205831
-0.170933 0.613021 -0.205786
-0.167753 0.612395 -0.205592
-0.164789 0.612560 -0.205622
-0.161809 0.612632 -0.205628
-0.158795 0.612536 -0.205588
-0.155873 0.612789 -0.205647
-0.152905 0.612827 -0.205646
-0.150083 0.613471 -0.205818
-0.146939 0.612681 -0.205586
-0.144024 0.612871 -0.205632
-0.141111 0.613048 -0.205675
-0.138309 0.613735 -0.205864
-0.135282 0.613335 -0.205746
-0.132322 0.613221 -0.205709
-0.129276 0.612637 -0.205541
-0.126189 0.611780 -0.205297
-0.123355 0.612221 -0.205420
-0.120577 0.612973 -0.205633
-0.117782 0.613646 -0.205823
-0.114927 0.613986 -0.205921
-0.111937 0.613512 -0.205788
-0.109101 0.613937 -0.205911
-0.106147 0.613621 -0.205825
-0.103209 0.613363 -0.205757
-0.100256 0.612967 -0.205649
-0.097341 0.612799 -0.205607
-0.094569 0.613649 -0.205854
-0.091668 0.613558 -0.205835
-0.088782 0.613567 -0.205844
-0.085927 0.613809 -0.205921
-0.083048 0.613856 -0.205942
-0.080181 0.613997 -0.205991
-0.077222 0.613271 -0.205795
-0.074388 0.613679 -0.205920
-0.071478 0.613346 -0.205836
-0.068594 0.613241 -0.205817
-0.065736 0.613404 -0.205875
-0.062903 0.613879 -0.206021
-0.059994 0.613416 -0.205902
-0.057052 0.612431 -0.205635
-0.054202 0.612658 -0.205712
-0.051352 0.612887 -0.205790
-0.048513 0.613354 -0.205936
-0.045758 0.615443 -0.206542
-0.042888 0.615584 -0.206596
-0.039855 0.612036 -0.205606
-0.036981 0.611666 -0.205516
-0.034366 0.618780 -0.207546
-0.031462 0.618355 -0.207441
-0.028554 0.617623 -0.207249
-0.025645 0.616415 -0.206923
-0.022728 0.613923 -0.206234
-0.019853 0.613169 -0.206037
-0.016990 0.613577 -0.206170
-0.014124 0.613477 -0.206159
-0.011259 0.613230 -0.206106
-0.008398 0.612758 -0.205990
-0.005428 0.620184 -0.208113
-0.002582 0.617419 -0.207348
0.000305 0.617426 -0.207369
0.003166 0.616522 -0.207132
0.005927 0.612914 -0.206127
0.008715 0.610894 -0.205574
0.011565 0.610735 -0.205549
0.014478 0.611905 -0.205900
0.017378 0.612588 -0.206115
0.020267 0.612956 -0.206240
0.023149 0.613158 -0.206318
0.025957 0.612222 -0.206074
0.028819 0.612126 -0.206068
0.031690 0.612162 -0.206100
0.034484 0.611239 -0.205861
0.037244 0.610010 -0.205534
0.040120 0.610161 -0.205600
0.043014 0.610470 -0.205711
0.045863 0.610290 -0.205684
0.048775 0.610709 -0.205827
0.052019 0.614045 -0.206800
0.054896 0.613938 -0.206795
0.057501 0.611587 -0.206152
0.060374 0.611524 -0.206160
0.063206 0.611134 -0.206076
0.066179 0.611795 -0.206291
0.069076 0.611853 -0.206335
0.071977 0.611923 -0.206383
0.074798 0.611434 -0.206273
0.077580 0.610710 -0.206096
0.080910 0.613426 -0.206899
0.083926 0.614070 -0.207114
0.087333 0.616946 -0.207964
0.090056 0.615741 -0.207653
0.092807 0.614741 -0.207401
0.095781 0.614974 -0.207501
0.098120 0.611840 -0.206642
0.100930 0.611254 -0.206511
0.103878 0.611369 -0.206579
0.106688 0.610781 -0.206448
0.109674 0.611036 -0.206559
0.113282 0.614150 -0.207485
0.117686 0.620716 -0.209399
0.119491 0.615416 -0.207927
0.121477 0.611112 -0.206740
0.124018 0.609327 -0.206272
0.126781 0.608512 -0.206083
0.129698 0.608334 -0.206077
0.132783 0.608808 -0.206258
0.136105 0.610166 -0.206692
0.138929 0.609526 -0.206557
0.141859 0.609286 -0.206538
0.144859 0.609281 -0.206587
0.147813 0.609076 -0.206580
0.150716 0.608672 -0.206517
0.153824 0.608964 -0.206655
0.156893 0.609083 -0.206746
0.160023 0.609366 -0.206884
0.162861 0.608641 -0.206735
0.166095 0.609198 -0.206955
0.169218 0.609344 -0.207059
0.174935 0.617622 -0.209498
0.176788 0.613617 -0.208414
0.180386 0.615026 -0.208886
0.183297 0.614290 -0.208744
0.183236 0.604760 -0.206075
0.187122 0.606967 -0.206781
0.190398 0.607317 -0.206955
0.193473 0.607051 -0.206954
0.196790 0.607422 -0.207138
0.200052 0.607592 -0.207266
0.203175 0.607342 -0.207275
0.207279 0.609659 -0.208026
0.210961 0.610761 -0.208429
0.213525 0.608907 -0.207981
0.215739 0.606172 -0.207280
0.217613 0.602619 -0.206344
0.223253 0.608425 -0.208115
0.226464 0.608107 -0.208118
0.229693 0.607799 -0.208125
0.232624 0.606746 -0.207919
0.235748 0.606131 -0.207841
0.238447 0.604507 -0.207472
0.241616 0.603955 -0.207416
0.246079 0.606280 -0.208196
0.252705 0.613294 -0.210342
0.255092 0.610813 -0.209730
0.258671 0.610931 -0.209876
0.260648 0.607593 -0.209017
0.266196 0.611817 -0.210360
0.269847 0.611956 -0.210516
0.272509 0.610033 -0.210070
0.274068 0.605892 -0.208978
0.276192 0.602957 -0.208236
0.280169 0.603732 -0.208577
0.284172 0.604519 -0.208922
0.289320 0.607482 -0.209904
0.292859 0.607294 -0.209963
0.299289 0.612549 -0.211616
0.297822 0.602974 -0.208920
0.301850 0.603737 -0.209252
0.305928 0.604581 -0.209606
0.309856 0.605152 -0.209876
0.313493 0.605208 -0.209992
0.316746 0.604615 -0.209913
0.319680 0.603508 -0.209679
0.322696 0.602603 -0.209498
0.324996 0.600537 -0.208971
0.326868 0.597841 -0.208251
0.329154 0.595943 -0.207759
0.330724 0.592953 -0.206939
-0.353985 0.603727 -0.208975
-0.352238 0.606351 -0.209735
-0.349494 0.607362 -0.210015
-0.346375 0.607802 -0.210122
-0.343099 0.608032 -0.210160
-0.338755 0.606405 -0.209649
-0.336199 0.608047 -0.210089
-0.332926 0.608452 -0.210161
-0.329458 0.608544 -0.210137
-0.325661 0.608053 -0.209939
-0.322156 0.608133 -0.209903
-0.319305 0.609495 -0.210238
-0.316024 0.610067 -0.210340
-0.311687 0.608583 -0.209838
-0.308534 0.609425 -0.210014
-0.305523 0.610574 -0.210277
-0.302370 0.611454 -0.210460
-0.298861 0.611608 -0.210429
-0.294624 0.610225 -0.209951
-0.291745 0.611667 -0.210295
-0.287685 0.610584 -0.209904
-0.284212 0.610723 -0.209868
-0.281032 0.611482 -0.210014
-0.277720 0.611932 -0.210070
-0.273977 0.611381 -0.209836
-0.270472 0.611326 -0.209747
-0.267027 0.611367 -0.209688
-0.263557 0.611310 -0.209601
-0.259875 0.610703 -0.209356
-0.256721 0.611316 -0.209466
-0.253758 0.612372 -0.209707
-0.250337 0.612268 -0.209613
-0.246627 0.611385 -0.209294
-0.243074 0.610832 -0.209074
-0.239754 0.610826 -0.209013
-0.236323 0.610478 -0.208856
-0.233788 0.612481 -0.209380
-0.229536 0.609816 -0.208556
-0.226812 0.611255 -0.208921
-0.223575 0.611248 -0.208870
-0.220263 0.610986 -0.208746
-0.217074 0.611022 -0.208711
-0.214086 0.611609 -0.208837
-0.211247 0.612621 -0.209087
-0.207811 0.611802 -0.208810
-0.204531 0.611398 -0.208655
-0.201385 0.611356 -0.208606
-0.198378 0.611721 -0.208676
-0.195021 0.610915 -0.208410
-0.191662 0.610038 -0.208126
-0.189077 0.611694 -0.208573
-0.186093 0.612004 -0.208634
-0.183192 0.612575 -0.208772
-0.180198 0.612802 -0.208812
-0.176967 0.612142 -0.208598
-0.174031 0.612507 -0.208680
-0.171332 0.613745 -0.209016
-0.168005 0.612588 -0.208663
-0.165046 0.612794 -0.208704
-0.161853 0.612037 -0.208469
-0.158842 0.611959 -0.208431
-0.155850 0.611928 -0.208408
-0.153087 0.612833 -0.208655
-0.149860 0.611738 -0.208328
-0.147187 0.613020 -0.208687
-0.144081 0.612366 -0.208489
-0.141458 0.613899 -0.208921
-0.138381 0.613318 -0.208747
-0.135388 0.613087 -0.208674
-0.132249 0.612096 -0.208383
-0.129395 0.612486 -0.208491
-0.126560 0.612971 -0.208627
-0.123398 0.611693 -0.208257
-0.120632 0.612516 -0.208492
-0.117849 0.613268 -0.208708
-0.114966 0.613451 -0.208761
-0.112036 0.613341 -0.208730
-0.109125 0.613324 -0.208727
-0.106279 0.613704 -0.208838
-0.103327 0.613379 -0.208748
-0.100412 0.613268 -0.208720
-0.097446 0.612773 -0.208582
-0.094611 0.613185 -0.208706
-0.091730 0.613260 -0.208733
-0.088853 0.613345 -0.208765
-0.085980 0.613466 -0.208806
-0.083038 0.612984 -0.208675
-0.080132 0.612764 -0.208620
-0.077338 0.613556 -0.208857
-0.074396 0.612962 -0.208696
-0.071529 0.613059 -0.208733
-0.068673 0.613280 -0.208808
-0.065804 0.613361 -0.208842
-0.062953 0.613645 -0.208935
-0.060064 0.613473 -0.208897
-0.057159 0.613045 -0.208786
-0.054330 0.613657 -0.208975
-0.051479 0.614012 -0.209090
-0.048607 0.614059 -0.209117
-0.045795 0.615198 -0.209459
-0.042800 0.612819 -0.208788
-0.039926 0.612668 -0.208758
-0.037046 0.612284 -0.208663
-0.034338 0.616850 -0.209994
-0.031483 0.617897 -0.210311
-0.028549 0.616126 -0.209816
-0.025644 0.614945 -0.209492
-0.022760 0.614367 -0.209342
-0.019881 0.613739 -0.209178
-0.017008 0.613309 -0.209071
-0.014140 0.613495 -0.209142
-0.011273 0.613025 -0.209024
-0.008367 0.617109 -0.210220
-0.005432 0.620447 -0.211201
-0.002507 0.621507 -0.211526
0.000345 0.619129 -0.210859
0.003184 0.617098 -0.210292
0.005978 0.614260 -0.209493
0.008836 0.613823 -0.209386
0.011748 0.614686 -0.209656
0.014650 0.615152 -0.209810
0.017477 0.614123 -0.209534
0.020501 0.616638 -0.210282
0.023349 0.615960 -0.210107
0.026441 0.618967 -0.210998
0.029307 0.618438 -0.210867
0.032052 0.616407 -0.210303
0.034998 0.617036 -0.210508
0.038009 0.618330 -0.210905
0.040783 0.616898 -0.210515
0.043516 0.615179 -0.210043
0.046540 0.616464 -0.210439
0.049267 0.614826 -0.209990
0.052540 0.618219 -0.210997
0.055312 0.617011 -0.210674
0.057509 0.611148 -0.209004
0.060389 0.611126 -0.209025
0.063322 0.611499 -0.209160
0.066206 0.611466 -0.209178
0.069148 0.611833 -0.209313
0.072013 0.611629 -0.209283
0.074845 0.611204 -0.209190
0.077807 0.611621 -0.209341
0.080866 0.612599 -0.209656
0.084062 0.614333 -0.210190
0.087491 0.617307 -0.211085
0.090457 0.617461 -0.211163
0.093195 0.616320 -0.210867
0.095563 0.613225 -0.210004
0.097897 0.610088 -0.209130
0.101030 0.611186 -0.209485
0.103862 0.610702 -0.209382
0.106725 0.610373 -0.209324
0.109716 0.610645 -0.209442
0.113134 0.612861 -0.210126
0.117382 0.618724 -0.211870
0.119351 0.614187 -0.210595
0.121624 0.611139 -0.209753
0.124255 0.609719 -0.209384
0.126978 0.608717 -0.209138
0.129873 0.608431 -0.209102
0.132967 0.608920 -0.209292
0.136024 0.609220 -0.209428
0.139073 0.609450 -0.209545
0.141988 0.609136 -0.209505
0.145299 0.610265 -0.209887
0.148199 0.609835 -0.209816
0.150992 0.609008 -0.209631
0.153785 0.608179 -0.209446
0.156841 0.608250 -0.209525
0.159813 0.608003 -0.209513
0.162974 0.608354 -0.209678
0.165965 0.608107 -0.209669
0.169535 0.609689 -0.210196
0.174246 0.614770 -0.211747
0.177535 0.615249 -0.211956
0.179993 0.613141 -0.211411
0.182839 0.612228 -0.211216
0.183832 0.605837 -0.209420
0.187092 0.606189 -0.209599
0.190509 0.606938 -0.209895
0.193601 0.606712 -0.209908
0.197659 0.609130 -0.210698
0.200327 0.607637 -0.210344
0.203128 0.606504 -0.210097
0.206664 0.607310 -0.210421
0.210414 0.608612 -0.210893
0.214178 0.609866 -0.211353
0.216537 0.607475 -0.210744
0.220019 0.607916 -0.210970
0.223876 0.609227 -0.211454
0.228057 0.611246 -0.212149
0.230570 0.609163 -0.211637
0.232652 0.606071 -0.210829
0.235697 0.605268 -0.210698
0.238563 0.604031 -0.210440
0.242728 0.605735 -0.211053
0.246964 0.607512 -0.211690
0.252467 0.612004 -0.213133
0.254743 0.609289 -0.212445
0.257460 0.607554 -0.212048
0.261859 0.609408 -0.212716
0.265187 0.608928 -0.212693
0.268960 0.609347 -0.212938
0.272478 0.609202 -0.213016
0.272944 0.602857 -0.211251
0.277308 0.604429 -0.211840
0.281354 0.605315 -0.212225
0.284596 0.604590 -0.212130
0.290202 0.608423 -0.213393
0.294724 0.610090 -0.214011
0.295078 0.603868 -0.212272
0.297724 0.602050 -0.211845
0.301095 0.601612 -0.211827
0.306317 0.604556 -0.212818
0.310343 0.605300 -0.213148
0.313959 0.605316 -0.213257
0.317035 0.604410 -0.213086
0.320090 0.603519 -0.212913
0.321677 0.600155 -0.211994
0.321661 0.594175 -0.210282
0.323440 0.591390 -0.209522
0.326138 0.590249 -0.209249
0.325711 0.584022 -0.207441
-0.352119 0.599853 -0.211027
-0.351878 0.605029 -0.212562
-0.349683 0.606977 -0.213127
-0.347038 0.608239 -0.213480
-0.343781 0.608504 -0.213528
-0.340123 0.608113 -0.213374
-0.335682 0.606345 -0.212804
-0.332771 0.607392 -0.213067
-0.330266 0.609260 -0.213570
-0.326950 0.609679 -0.213636
-0.322945 0.608830 -0.213320
-0.319012 0.608122 -0.213042
-0.315790 0.608794 -0.213172
-0.312606 0.609567 -0.213329
-0.308961 0.609446 -0.213217
-0.306062 0.610825 -0.213550
-0.302876 0.611646 -0.213714
-0.299242 0.611552 -0.213606
-0.295663 0.611554 -0.213526
-0.291114 0.609480 -0.212829
-0.288820 0.612169 -0.213545
-0.284891 0.611347 -0.213220
-0.281357 0.611345 -0.213138
-0.277960 0.611613 -0.213137
-0.274537 0.611796 -0.213112
-0.270852 0.611344 -0.212900
-0.267006 0.610466 -0.212563
-0.264057 0.611640 -0.212834
-0.260347 0.610981 -0.212565
-0.256598 0.610169 -0.212253
-0.253187 0.610119 -0.212167
-0.250585 0.612039 -0.212665
-0.246897 0.611224 -0.212357
-0.243442 0.610937 -0.212207
-0.240627 0.612261 -0.212534
-0.236945 0.611285 -0.212184
-0.232747 0.608853 -0.211408
-0.230492 0.611590 -0.212157
-0.227242 0.611614 -0.212108
-0.223617 0.610542 -0.211739
-0.220552 0.610986 -0.211817
-0.217392 0.611126 -0.211809
-0.214436 0.611821 -0.211965
-0.211143 0.611493 -0.211823
-0.207965 0.611456 -0.211768
-0.204475 0.610413 -0.211420
-0.201322 0.610352 -0.211361
-0.198296 0.610651 -0.211411
-0.195554 0.611844 -0.211724
-0.192326 0.611433 -0.211569
-0.188888 0.610261 -0.211192
-0.186164 0.611450 -0.211509
-0.183302 0.612165 -0.211689
-0.180326 0.612464 -0.211749
-0.177091 0.611801 -0.211528
-0.174429 0.613187 -0.211909
-0.171154 0.612290 -0.211622
-0.168185 0.612497 -0.211661
-0.165137 0.612366 -0.211602
-0.162333 0.613170 -0.211819
-0.158623 0.610293 -0.210957
-0.156249 0.612809 -0.211678
-0.153371 0.613264 -0.211797
-0.150134 0.612153 -0.211457
-0.147191 0.612264 -0.211477
-0.144570 0.613809 -0.211919
-0.141459 0.613131 -0.211710
-0.138447 0.612858 -0.211621
-0.135370 0.612233 -0.211430
-0.132454 0.612348 -0.211456
-0.129663 0.613089 -0.211668
-0.126523 0.612007 -0.211346
-0.123758 0.612866 -0.211594
-0.120794 0.612648 -0.211527
-0.117913 0.612864 -0.211588
-0.115056 0.613212 -0.211689
-0.112217 0.613665 -0.211821
-0.109298 0.613629 -0.211812
-0.106378 0.613561 -0.211793
-0.103515 0.613847 -0.211879
-0.100529 0.613296 -0.211721
-0.097578 0.612929 -0.211617
-0.094614 0.612426 -0.211474
-0.091785 0.612896 -0.211617
-0.088877 0.612754 -0.211582
-0.086001 0.612847 -0.211615
-0.083016 0.612000 -0.211374
-0.080196 0.612539 -0.211540
-0.077359 0.612952 -0.211669
-0.074551 0.613672 -0.211889
-0.071641 0.613400 -0.211819
-0.068775 0.613558 -0.211875
-0.065928 0.613942 -0.211998
-0.063046 0.613934 -0.212006
-0.060145 0.613661 -0.211938
-0.057250 0.613437 -0.211884
-0.054401 0.613821 -0.212009
-0.051538 0.614056 -0.212091
-0.048664 0.614104 -0.212118
-0.045807 0.614489 -0.212244
-0.042942 0.614754 -0.212336
-0.039948 0.612149 -0.211587
-0.037132 0.613436 -0.211979
-0.034391 0.617296 -0.213126
-0.031499 0.617239 -0.213125
-0.028581 0.616139 -0.212818
-0.025672 0.614879 -0.212465
-0.022775 0.613636 -0.212116
-0.019897 0.613116 -0.211981
-0.017027 0.613293 -0.212050
-0.014156 0.613357 -0.212086
-0.011286 0.612996 -0.211998
-0.008418 0.612788 -0.211955
-0.005430 0.621071 -0.214405
-0.002579 0.617988 -0.213519
0.000311 0.617740 -0.213465
0.003209 0.617859 -0.213520
0.006066 0.616731 -0.213208
0.008932 0.616094 -0.213041
0.011731 0.614027 -0.212455
0.014597 0.613765 -0.212398
0.017590 0.615919 -0.213053
0.020632 0.618530 -0.213841
0.023580 0.619242 -0.214073
0.026541 0.620036 -0.214329
0.029416 0.619510 -0.214197
0.032131 0.616984 -0.213477
0.035118 0.618048 -0.213814
0.038055 0.618395 -0.213940
0.041032 0.619127 -0.214180
0.044212 0.621872 -0.215012
0.047049 0.620963 -0.214771
0.049612 0.617568 -0.213798
0.052632 0.618537 -0.214109
0.055468 0.617836 -0.213930
0.058204 0.616353 -0.213521
0.061134 0.616502 -0.213592
0.063238 0.610331 -0.211803
0.066082 0.610028 -0.211743
0.069188 0.611580 -0.212230
0.072123 0.611842 -0.212337
0.074986 0.611594 -0.212295
0.077800 0.611029 -0.212160
0.080804 0.611658 -0.212377
0.084163 0.614373 -0.213211
0.087487 0.616709 -0.213934
0.090599 0.617692 -0.214259
0.093139 0.615425 -0.213625
0.095470 0.612140 -0.212693
0.097739 0.608678 -0.211708
0.101033 0.610610 -0.212316
0.103893 0.610263 -0.212252
0.106729 0.609797 -0.212154
0.110017 0.611473 -0.212690
0.113618 0.614502 -0.213627
0.116644 0.614762 -0.213747
0.119617 0.614748 -0.213788
0.121771 0.611162 -0.212773
0.124284 0.609226 -0.212246
0.126842 0.607528 -0.211791
0.129911 0.607959 -0.211967
0.133176 0.609125 -0.212362
0.136259 0.609501 -0.212525
0.139215 0.609354 -0.212534
0.141997 0.608526 -0.212342
0.144792 0.607748 -0.212167
0.148549 0.610451 -0.213025
0.150957 0.608227 -0.212424
0.153847 0.607737 -0.212339
0.156810 0.607482 -0.212324
0.159894 0.607610 -0.212425
0.162764 0.606991 -0.212306
0.166319 0.608586 -0.212846
0.170046 0.610642 -0.213526
0.174346 0.614394 -0.214712
0.177790 0.615341 -0.215066
0.181119 0.615871 -0.215299
0.183402 0.613213 -0.214584
0.184471 0.607022 -0.212818
0.187663 0.607146 -0.212934
0.190508 0.606233 -0.212743
0.193512 0.605754 -0.212683
0.197460 0.607862 -0.213398
0.200520 0.607446 -0.213361
0.203755 0.607467 -0.213458
0.206340 0.605727 -0.213029
0.210417 0.607886 -0.213769
0.213260 0.606767 -0.213531
0.216226 0.605948 -0.213384
0.219628 0.606198 -0.213559
0.224033 0.608867 -0.214462
0.228263 0.610995 -0.215206
0.231101 0.609682 -0.214920
0.232685 0.605397 -0.213743
0.235807 0.604768 -0.213665
0.239128 0.604574 -0.213720
0.243253 0.606164 -0.214313
0.247870 0.608772 -0.215216
0.251799 0.609751 -0.215631
0.252176 0.602915 -0.213691
0.255795 0.603197 -0.213898
0.259690 0.604021 -0.214270
0.263438 0.604479 -0.214533
0.267559 0.605667 -0.215017
0.270540 0.604459 -0.214779
0.272621 0.601434 -0.213990
0.276552 0.602151 -0.214334
0.281821 0.605464 -0.215465
0.284966 0.604544 -0.215313
0.291540 0.610229 -0.217166
0.295951 0.611655 -0.217725
0.295429 0.603771 -0.215453
0.296570 0.599158 -0.214170
0.301307 0.601257 -0.214927
0.306695 0.604500 -0.216030
0.310851 0.605475 -0.216440
0.314346 0.605275 -0.216487
0.317291 0.604140 -0.216244
0.319603 0.601962 -0.215678
0.322221 0.600396 -0.215292
0.318395 0.587937 -0.211569
0.321335 0.587179 -0.211415
0.326605 0.590376 -0.212465
0.326147 0.584108 -0.210610
-0.353987 0.602360 -0.214983
-0.351688 0.604000 -0.215472
-0.349332 0.605649 -0.215956
-0.346907 0.607277 -0.216426
-0.344216 0.608532 -0.216775
-0.340477 0.607991 -0.216571
-0.336151 0.606428 -0.216050
-0.332917 0.606881 -0.216136
-0.330430 0.608771 -0.216653
-0.327360 0.609646 -0.216856
-0.323537 0.609143 -0.216636
-0.319738 0.608696 -0.216430
-0.316130 0.608628 -0.216335
-0.312918 0.609346 -0.216474
-0.309681 0.610039 -0.216604
-0.306398 0.610655 -0.216708
-0.303027 0.611100 -0.216758
-0.299155 0.610515 -0.216496
-0.295505 0.610362 -0.216363
-0.291994 0.610482 -0.216312
-0.288852 0.611373 -0.216494
-0.285571 0.611959 -0.216584
-0.281612 0.611039 -0.216220
-0.278263 0.611422 -0.216249
-0.275367 0.612802 -0.216580
-0.271914 0.612911 -0.216529
-0.267712 0.611242 -0.215943
-0.264078 0.610822 -0.215736
-0.261112 0.611944 -0.215994
-0.256755 0.609687 -0.215237
-0.254203 0.611755 -0.215782
-0.250873 0.611896 -0.215750
-0.247286 0.611352 -0.215514
-0.244106 0.611785 -0.215574
-0.240506 0.611092 -0.215297
-0.236713 0.609825 -0.214850
-0.233652 0.610434 -0.214969
-0.230437 0.610596 -0.214955
-0.227393 0.611191 -0.215073
-0.223522 0.609439 -0.214491
-0.220635 0.610388 -0.214719
-0.217767 0.611375 -0.214961
-0.214277 0.610525 -0.214654
-0.211238 0.610950 -0.214731
-0.207993 0.610716 -0.214614
-0.204822 0.610664 -0.214552
-0.201305 0.609483 -0.214155
-0.198464 0.610373 -0.214380
-0.195598 0.611174 -0.214579
-0.192770 0.612088 -0.214814
-0.189672 0.612085 -0.214777
-0.186426 0.611539 -0.214579
-0.183360 0.611563 -0.214553
-0.180312 0.611611 -0.214537
-0.177367 0.611997 -0.214623
-0.174241 0.611695 -0.214505
-0.171470 0.612682 -0.214773
-0.168153 0.611580 -0.214420
-0.165506 0.613014 -0.214825
-0.162270 0.612131 -0.214540
-0.159174 0.611744 -0.214404
-0.156381 0.612569 -0.214632
-0.153469 0.612892 -0.214711
-0.150655 0.613623 -0.214913
-0.147631 0.613429 -0.214841
-0.144511 0.612759 -0.214628
-0.141450 0.612308 -0.214481
-0.138450 0.612095 -0.214407
-0.135392 0.611561 -0.214239
-0.132542 0.612010 -0.214364
-0.129676 0.612375 -0.214465
-0.126832 0.612849 -0.214601
-0.124034 0.613574 -0.214811
-0.121155 0.613866 -0.214894
-0.118024 0.612718 -0.214549
-0.115150 0.612982 -0.214625
-0.112301 0.613390 -0.214746
-0.109412 0.613559 -0.214795
-0.106507 0.613610 -0.214811
-0.103505 0.613001 -0.214631
-0.100584 0.612886 -0.214599
-0.097678 0.612856 -0.214593
-0.094755 0.612672 -0.214542
-0.091697 0.611434 -0.214177
-0.088895 0.612103 -0.214382
-0.086038 0.612360 -0.214464
-0.083176 0.612569 -0.214533
-0.080297 0.612636 -0.214560
-0.077429 0.612797 -0.214616
-0.074546 0.612804 -0.214626
-0.071684 0.613018 -0.214699
-0.068810 0.613113 -0.214737
-0.065995 0.613862 -0.214970
-0.063137 0.614187 -0.215078
-0.060163 0.613044 -0.214748
-0.057265 0.612764 -0.214676
-0.054481 0.614114 -0.215091
-0.051576 0.613746 -0.214993
-0.048695 0.613720 -0.214999
-0.045829 0.613957 -0.215083
-0.042961 0.614177 -0.215162
-0.040062 0.613750 -0.215049
-0.037175 0.613485 -0.214985
-0.034416 0.616882 -0.216013
-0.031567 0.618340 -0.216464
-0.028648 0.617558 -0.216246
-0.025735 0.616624 -0.215984
-0.022794 0.613192 -0.214976
-0.019910 0.612219 -0.214702
-0.017043 0.612617 -0.214838
-0.014172 0.612550 -0.214836
-0.011302 0.612365 -0.214799
-0.008424 0.613212 -0.215070
-0.005508 0.616113 -0.215955
-0.002610 0.616582 -0.216114
0.000270 0.616104 -0.215990
0.003227 0.618400 -0.216696
0.006131 0.618486 -0.216742
0.008969 0.616825 -0.216266
0.011713 0.613355 -0.215250
0.014541 0.612295 -0.214955
0.017583 0.615453 -0.215920
0.020592 0.617485 -0.216550
0.023593 0.619066 -0.217045
0.026373 0.617145 -0.216493
0.029174 0.615761 -0.216102
0.032065 0.615700 -0.216108
0.035043 0.616685 -0.216427
0.038080 0.618222 -0.216911
0.041177 0.620221 -0.217534
0.044832 0.627758 -0.219816
0.047080 0.620773 -0.217751
0.049615 0.617088 -0.216675
0.052525 0.617071 -0.216697
0.055558 0.618085 -0.217028
0.058460 0.617932 -0.217011
0.060939 0.614428 -0.215990
0.063182 0.609375 -0.214506
0.066161 0.610069 -0.214743
0.069115 0.610519 -0.214909
0.072180 0.611679 -0.215288
0.075061 0.611533 -0.215276
0.077900 0.611105 -0.215180
0.080832 0.611270 -0.215263
0.084079 0.613295 -0.215904
0.087421 0.615749 -0.216676
0.090390 0.615916 -0.216762
0.093251 0.615458 -0.216661
0.095694 0.612755 -0.215888
0.098012 0.609522 -0.214955
0.100849 0.609074 -0.214860
0.103958 0.609989 -0.215175
0.107003 0.610522 -0.215377
0.110266 0.612045 -0.215877
0.113556 0.613597 -0.216388
0.116623 0.614043 -0.216567
0.119442 0.613347 -0.216403
0.122422 0.613358 -0.216454
0.124789 0.610739 -0.215714
0.126774 0.606616 -0.214523
0.130142 0.608263 -0.215069
0.133204 0.608594 -0.215221
0.136331 0.609139 -0.215439
0.139201 0.608652 -0.215347
0.141929 0.607620 -0.215092
0.144789 0.607083 -0.214988
0.147990 0.607765 -0.215253
0.151147 0.608239 -0.215457
0.153986 0.607555 -0.215313
0.157122 0.607878 -0.215475
0.159985 0.607240 -0.215348
0.162955 0.606942 -0.215326
0.166932 0.609892 -0.216288
0.170722 0.612107 -0.217029
0.174485 0.614132 -0.217716
0.178026 0.615364 -0.218165
0.181943 0.617665 -0.218940
0.183783 0.613639 -0.217801
0.184692 0.606965 -0.215860
0.187757 0.606704 -0.215864
0.190977 0.606854 -0.215995
0.193817 0.605890 -0.215790
0.198061 0.608797 -0.216762
0.201432 0.609199 -0.216977
0.204240 0.608035 -0.216717
0.207975 0.609316 -0.217204
0.210063 0.606222 -0.216361
0.212730 0.604661 -0.215987
0.215317 0.602899 -0.215553
0.218745 0.603240 -0.215762
0.223568 0.606962 -0.217005
0.226758 0.606576 -0.216997
0.230004 0.606288 -0.217022
0.231322 0.601412 -0.215647
0.235890 0.604195 -0.216614
0.238892 0.603260 -0.216446
0.243313 0.605524 -0.217260
0.250503 0.613881 -0.219945
0.251053 0.607319 -0.218059
0.252173 0.602130 -0.216593
0.254894 0.600480 -0.216214
0.257993 0.599636 -0.216083
0.262435 0.601593 -0.216815
0.266554 0.602800 -0.217318
0.271299 0.605226 -0.218197
0.273279 0.601982 -0.217330
0.276325 0.600919 -0.217135
0.281920 0.604877 -0.218490
0.285020 0.603869 -0.218311
0.294405 0.614952 -0.221870
0.294761 0.608613 -0.220041
0.294671 0.601581 -0.217993
0.297854 0.600783 -0.217872
0.303141 0.603868 -0.218952
0.308126 0.606344 -0.219841
0.311741 0.606327 -0.219952
0.314224 0.604324 -0.219443
0.317837 0.604374 -0.219566
0.320544 0.602883 -0.219204
0.321949 0.599228 -0.218163
0.321902 0.593223 -0.216382
0.321886 0.587442 -0.214662
0.328366 0.592653 -0.216359
0.344132 0.613145 -0.222814
-0.357404 0.607498 -0.219789
-0.352009 0.603850 -0.218650
-0.349284 0.604847 -0.218940
-0.346764 0.606292 -0.219361
-0.343716 0.606895 -0.219515
-0.340485 0.607243 -0.219581
-0.336959 0.607120 -0.219495
-0.333328 0.606850 -0.219357
-0.330381 0.607882 -0.219616
-0.327523 0.609141 -0.219939
-0.323508 0.608268 -0.219599
-0.319971 0.608315 -0.219539
-0.316783 0.609058 -0.219689
-0.313421 0.609489 -0.219740
-0.310031 0.609882 -0.219776
-0.306299 0.609596 -0.219600
-0.302776 0.609727 -0.219551
-0.299270 0.609884 -0.219509
-0.295462 0.609402 -0.219269
-0.292131 0.609899 -0.219329
-0.288716 0.610204 -0.219331
-0.285706 0.611372 -0.219597
-0.282003 0.611017 -0.219396
-0.278423 0.610897 -0.219267
-0.275258 0.611674 -0.219415
-0.271636 0.611392 -0.219239
-0.268327 0.611787 -0.219271
-0.265049 0.612226 -0.219319
-0.260909 0.610582 -0.218730
-0.257808 0.611359 -0.218885
-0.254632 0.611931 -0.218978
-0.251204 0.611848 -0.218873
-0.247580 0.611221 -0.218604
-0.244166 0.611070 -0.218482
-0.241159 0.611925 -0.218669
-0.236978 0.609662 -0.217907
-0.233888 0.610207 -0.218005
-0.230959 0.611158 -0.218228
-0.227756 0.611338 -0.218218
-0.224129 0.610287 -0.217835
-0.220733 0.609818 -0.217632
-0.217945 0.611045 -0.217948
-0.214594 0.610612 -0.217760
-0.211368 0.610496 -0.217671
-0.208271 0.610724 -0.217688
-0.205103 0.610696 -0.217630
-0.202122 0.611210 -0.217739
-0.198803 0.610625 -0.217516
-0.195834 0.611114 -0.217621
-0.192876 0.611612 -0.217731
-0.189795 0.611678 -0.217711
-0.186680 0.611590 -0.217647
-0.183461 0.611097 -0.217461
-0.180382 0.611047 -0.217412
-0.177181 0.610517 -0.217219
-0.174465 0.611713 -0.217552
-0.171488 0.611939 -0.217592
-0.168550 0.612293 -0.217672
-0.165655 0.612790 -0.217798
-0.162559 0.612478 -0.217679
-0.159412 0.611911 -0.217485
-0.156433 0.611986 -0.217487
-0.153861 0.613756 -0.218004
-0.150991 0.614283 -0.218146
-0.147670 0.612810 -0.217683
-0.144559 0.612188 -0.217480
-0.141532 0.611896 -0.217377
-0.138609 0.612057 -0.217414
-0.135731 0.612419 -0.217512
-0.132615 0.611591 -0.217251
-0.129715 0.611791 -0.217303
-0.126896 0.612402 -0.217481
-0.124079 0.613030 -0.217665
-0.121272 0.613720 -0.217868
-0.118300 0.613499 -0.217797
-0.115269 0.612894 -0.217610
-0.112372 0.613031 -0.217649
-0.109489 0.613246 -0.217713
-0.106452 0.612470 -0.217477
-0.103548 0.612498 -0.217486
-0.100628 0.612400 -0.217457
-0.097750 0.612573 -0.217512
-0.094956 0.613345 -0.217748
-0.091858 0.611861 -0.217303
-0.088920 0.611506 -0.217199
-0.086090 0.611978 -0.217347
-0.083298 0.612805 -0.217604
-0.080351 0.612312 -0.217461
-0.077472 0.612377 -0.217488
-0.074556 0.612083 -0.217407
-0.071672 0.612067 -0.217410
-0.068928 0.613547 -0.217868
-0.066022 0.613333 -0.217812
-0.063123 0.613165 -0.217772
-0.060206 0.612719 -0.217647
-0.057308 0.612481 -0.217586
-0.054569 0.614511 -0.218214
-0.051632 0.613716 -0.217985
-0.048716 0.613143 -0.217824
-0.045858 0.613542 -0.217958
-0.043000 0.613989 -0.218107
-0.040097 0.613517 -0.217978
-0.037200 0.613063 -0.217855
-0.034494 0.618039 -0.219380
-0.031577 0.617498 -0.219231
-0.028701 0.618383 -0.219515
-0.025780 0.617431 -0.219243
-0.022827 0.613720 -0.218133
-0.019928 0.611730 -0.217546
-0.017054 0.610962 -0.217330
-0.014189 0.612075 -0.217685
-0.011316 0.612358 -0.217790
-0.008428 0.613893 -0.218274
-0.005515 0.616083 -0.218958
-0.002596 0.617526 -0.219415
0.000284 0.616701 -0.219185
0.003164 0.616140 -0.219034
0.006069 0.616482 -0.219159
0.008940 0.615847 -0.218986
0.011738 0.613650 -0.218340
0.014595 0.613106 -0.218196
0.017558 0.614641 -0.218685
0.020573 0.616786 -0.219359
0.023393 0.615501 -0.218991
0.026411 0.617295 -0.219560
0.029299 0.617058 -0.219512
0.032034 0.614865 -0.218869
0.034945 0.615041 -0.218947
0.037886 0.615526 -0.219120
0.041133 0.619266 -0.220284
0.044309 0.621887 -0.221108
0.046806 0.617586 -0.219825
0.049628 0.616704 -0.219584
0.052595 0.617183 -0.219758
0.055422 0.616401 -0.219548
0.058135 0.614731 -0.219069
0.060954 0.614015 -0.218880
0.063328 0.609948 -0.217671
0.066116 0.609196 -0.217473
0.069218 0.610702 -0.217963
0.072175 0.611096 -0.218116
0.075118 0.611347 -0.218225
0.077993 0.611140 -0.218196
0.080922 0.611257 -0.218266
0.084110 0.612905 -0.218804
0.087716 0.616889 -0.220056
0.090678 0.616962 -0.220116
0.093375 0.615549 -0.219723
0.095925 0.613403 -0.219107
0.098096 0.609365 -0.217914
0.101021 0.609352 -0.217951
0.103986 0.609524 -0.218045
0.106958 0.609693 -0.218140
0.110106 0.610668 -0.218482
0.113428 0.612383 -0.219052
0.116486 0.612796 -0.219225
0.119608 0.613453 -0.219474
0.122649 0.613704 -0.219600
0.125293 0.612234 -0.219201
0.127583 0.609335 -0.218365
0.130173 0.607747 -0.217932
0.133022 0.607224 -0.217826
0.136003 0.607209 -0.217877
0.139123 0.607697 -0.218084
0.142053 0.607424 -0.218059
0.145003 0.607205 -0.218052
0.148483 0.608880 -0.218628
0.151373 0.608366 -0.218534
0.154437 0.608448 -0.218625
0.157276 0.607722 -0.218469
0.160127 0.607031 -0.218326
0.163254 0.607239 -0.218461
0.165860 0.605718 -0.218066
0.170960 0.612163 -0.220123
0.173815 0.611318 -0.219940
0.176181 0.608956 -0.219292
0.180786 0.613428 -0.220751
0.182995 0.610562 -0.219952
0.185161 0.607625 -0.219131
0.187932 0.606487 -0.218868
0.191357 0.607208 -0.219180
0.194797 0.607908 -0.219488
0.198396 0.608985 -0.219915
0.201611 0.608943 -0.219999
0.205150 0.609728 -0.220341
0.208999 0.611268 -0.220919
0.210950 0.607777 -0.219942
0.212164 0.602453 -0.218399
0.215398 0.602347 -0.218473
0.221409 0.609121 -0.220685
0.223092 0.605025 -0.219527
0.226964 0.606302 -0.220040
0.230210 0.606005 -0.220065
0.231598 0.601290 -0.218719
0.235862 0.603349 -0.219481
0.239484 0.603836 -0.219757
0.243439 0.605023 -0.220254
0.250299 0.612623 -0.222753
0.251785 0.608139 -0.221486
0.252506 0.602066 -0.219722
0.254782 0.599450 -0.219038
0.258737 0.600423 -0.219477
0.262047 0.599989 -0.219477
0.267785 0.604550 -0.221043
0.272001 0.605861 -0.221593
0.274564 0.603779 -0.221079
0.278362 0.604183 -0.221345
0.285786 0.611687 -0.223842
0.290883 0.614471 -0.224858
0.293681 0.612762 -0.224460
0.291953 0.602500 -0.221366
0.293669 0.598930 -0.220375
0.300537 0.604987 -0.222416
0.303857 0.604415 -0.222364
0.308109 0.605553 -0.222849
0.312072 0.606168 -0.223164
0.315511 0.605861 -0.223184
0.317854 0.603670 -0.222602
0.321361 0.603579 -0.222679
0.322531 0.599520 -0.221492
0.323879 0.595893 -0.220434
0.326289 0.594176 -0.219973
0.329398 0.593709 -0.219900
0.338133 0.602586 -0.222785
-0.356223 0.604795 -0.222188
-0.353214 0.605219 -0.222312
-0.350063 0.605480 -0.222376
-0.347313 0.606519 -0.222676
-0.343866 0.606409 -0.222607
-0.340510 0.606523 -0.222600
-0.337262 0.606888 -0.222665
-0.333654 0.606654 -0.222535
-0.330571 0.607428 -0.222715
-0.327168 0.607660 -0.222719
-0.323625 0.607663 -0.222646
-0.320812 0.609087 -0.223015
-0.317471 0.609544 -0.223075
-0.314117 0.609999 -0.223131
-0.310107 0.609170 -0.222781
-0.306770 0.609674 -0.222847
-0.303411 0.610144 -0.222900
-0.300397 0.611325 -0.223174
-0.295768 0.609159 -0.222399
-0.292275 0.609318 -0.222351
-0.289034 0.609998 -0.222465
-0.285459 0.609945 -0.222351
-0.282154 0.610457 -0.222413
-0.278585 0.610365 -0.222287
-0.275104 0.610433 -0.222212
-0.271911 0.611125 -0.222333
-0.268580 0.611479 -0.222350
-0.265497 0.612385 -0.222539
-0.260992 0.609888 -0.221671
-0.258065 0.611090 -0.221956
-0.254918 0.611742 -0.222072
-0.250790 0.609933 -0.221424
-0.247469 0.610058 -0.221381
-0.244239 0.610376 -0.221399
-0.240983 0.610588 -0.221386
-0.237906 0.611230 -0.221510
-0.234422 0.610762 -0.221290
-0.231216 0.610983 -0.221287
-0.228189 0.611662 -0.221428
-0.224438 0.610288 -0.220935
-0.221172 0.610204 -0.220845
-0.217810 0.609796 -0.220656
-0.215392 0.612096 -0.221308
-0.212101 0.611827 -0.221167
-0.208650 0.611022 -0.220862
-0.205673 0.611605 -0.220989
-0.202661 0.612053 -0.221077
-0.199181 0.610987 -0.220698
-0.196033 0.610920 -0.220630
-0.193135 0.611629 -0.220804
-0.190348 0.612697 -0.221092
-0.186625 0.610574 -0.220395
-0.183836 0.611576 -0.220665
-0.180410 0.610324 -0.220242
-0.177454 0.610679 -0.220317
-0.174753 0.611951 -0.220676
-0.171563 0.611404 -0.220476
-0.168557 0.611502 -0.220477
-0.165680 0.612075 -0.220625
-0.162917 0.613087 -0.220912
-0.159824 0.612773 -0.220790
-0.156686 0.612229 -0.220599
-0.153919 0.613195 -0.220876
-0.151001 0.613520 -0.220956
-0.147908 0.613055 -0.220794
-0.144734 0.612180 -0.220507
-0.141703 0.611889 -0.220402
-0.138781 0.612076 -0.220446
-0.135886 0.612373 -0.220524
-0.132892 0.612168 -0.220449
-0.129838 0.611620 -0.220270
-0.126924 0.611751 -0.220301
-0.124096 0.612328 -0.220471
-0.121279 0.612965 -0.220661
-0.118384 0.613178 -0.220721
-0.115405 0.612888 -0.220626
-0.112556 0.613339 -0.220762
-0.109641 0.613393 -0.220776
-0.106645 0.612903 -0.220623
-0.103646 0.612344 -0.220451
-0.100767 0.612551 -0.220514
-0.097857 0.612522 -0.220507
-0.094924 0.612312 -0.220444
-0.092233 0.613900 -0.220936
-0.089046 0.611690 -0.220259
-0.086191 0.611999 -0.220358
-0.083273 0.611777 -0.220295
-0.080483 0.612668 -0.220576
-0.077528 0.612077 -0.220400
-0.074751 0.613153 -0.220739
-0.071976 0.614342 -0.221113
-0.069019 0.613686 -0.220919
-0.066205 0.614558 -0.221197
-0.063306 0.614505 -0.221191
-0.060261 0.612552 -0.220599
-0.057402 0.612877 -0.220710
-0.054522 0.612926 -0.220737
-0.051645 0.613012 -0.220775
-0.048748 0.612760 -0.220710
-0.045905 0.613445 -0.220934
-0.043036 0.613729 -0.221035
-0.040140 0.613467 -0.220968
-0.037243 0.613083 -0.220865
-0.034546 0.618423 -0.222527
-0.031603 0.617168 -0.222155
-0.028652 0.615061 -0.221521
-0.025816 0.617742 -0.222364
-0.022871 0.614917 -0.221509
-0.019946 0.611278 -0.220403
-0.017078 0.611809 -0.220584
-0.014204 0.608935 -0.219715
-0.011336 0.610714 -0.220282
-0.008467 0.610863 -0.220346
-0.005494 0.618045 -0.222583
-0.002593 0.617878 -0.222551
0.000290 0.616987 -0.222296
0.003153 0.615686 -0.221914
0.006035 0.615324 -0.221823
0.008843 0.613112 -0.221161
0.011733 0.613269 -0.221231
0.014640 0.613714 -0.221390
0.017661 0.616222 -0.222188
0.020578 0.616492 -0.222294
0.023568 0.617870 -0.222743
0.026444 0.617360 -0.222610
0.029304 0.616687 -0.222426
0.032191 0.616436 -0.222373
0.035054 0.615904 -0.222234
0.037761 0.613629 -0.221556
0.040690 0.613991 -0.221694
0.043755 0.615693 -0.222247
0.047029 0.619267 -0.223381
0.049850 0.618262 -0.223098
0.052797 0.618465 -0.223190
0.055510 0.616622 -0.222648
0.058152 0.614341 -0.221972
0.061297 0.616180 -0.222572
0.063247 0.608795 -0.220316
0.066441 0.611027 -0.221039
0.069278 0.610571 -0.220930
0.072207 0.610749 -0.221018
0.075114 0.610755 -0.221054
0.078008 0.610659 -0.221059
0.081096 0.611759 -0.221436
0.084215 0.612956 -0.221844
0.087955 0.617687 -0.223350
0.090923 0.617757 -0.223410
0.093541 0.615864 -0.222863
0.096228 0.614429 -0.222458
0.098471 0.610722 -0.221348
0.101121 0.609253 -0.220935
0.103996 0.608958 -0.220887
0.106831 0.608460 -0.220777
0.109953 0.609321 -0.221090
0.113641 0.612735 -0.222198
0.116467 0.612076 -0.222042
0.119491 0.612294 -0.222160
0.122728 0.613398 -0.222555
0.125540 0.612633 -0.222369
0.127876 0.609901 -0.221573
0.130248 0.607399 -0.220849
0.132893 0.606054 -0.220487
0.135869 0.606026 -0.220536
0.139129 0.607056 -0.220917
0.142360 0.607905 -0.221243
0.145462 0.608220 -0.221404
0.148583 0.608560 -0.221575
0.151595 0.608470 -0.221614
0.154439 0.607768 -0.221463
0.157379 0.607385 -0.221413
0.160531 0.607690 -0.221581
0.163392 0.606994 -0.221438
0.166934 0.608494 -0.221983
0.171081 0.611834 -0.223106
0.173900 0.610869 -0.222885
0.176041 0.607806 -0.222009
0.179100 0.607588 -0.222025
0.182769 0.609160 -0.222605
0.185359 0.607473 -0.222165
0.188266 0.606716 -0.222019
0.191816 0.607773 -0.222444
0.195069 0.607923 -0.222588
0.198425 0.608313 -0.222809
0.201870 0.608892 -0.223092
0.205241 0.609211 -0.223296
0.208400 0.608918 -0.223311
0.211770 0.609142 -0.223490
0.214902 0.608703 -0.223463
0.217527 0.606954 -0.223025
0.223158 0.612694 -0.224953
0.227231 0.614403 -0.225613
0.226600 0.604635 -0.222649
0.231158 0.607478 -0.223671
0.235895 0.610622 -0.224792
0.239859 0.611840 -0.225307
0.242772 0.610575 -0.225038
0.246429 0.610982 -0.225301
0.250462 0.612175 -0.225816
0.252027 0.607862 -0.224584
0.253245 0.602869 -0.223137
0.256287 0.601878 -0.222962
0.259361 0.600943 -0.222805
0.265035 0.605430 -0.224377
0.269404 0.607082 -0.225047
0.271381 0.603786 -0.224141
0.274117 0.602073 -0.223740
0.279028 0.604702 -0.224724
0.283529 0.606440 -0.225425
0.286895 0.605920 -0.225403
0.288876 0.602743 -0.224530
0.290577 0.599103 -0.223504
0.293495 0.597823 -0.223232
0.301553 0.606086 -0.226019
0.304606 0.605011 -0.225808
0.308067 0.604709 -0.225841
0.312286 0.605790 -0.226314
0.315212 0.604582 -0.226046
0.318753 0.604507 -0.226136
0.322556 0.604922 -0.226379
0.323472 0.600423 -0.225030
0.325250 0.597525 -0.224189
0.326585 0.593993 -0.223135
0.330734 0.595265 -0.223623
0.316812 0.566826 -0.214505
-0.354126 0.600542 -0.224067
-0.353774 0.605475 -0.225640
-0.351054 0.606476 -0.225943
-0.347688 0.606436 -0.225902
-0.344775 0.607264 -0.226132
-0.341239 0.607058 -0.226022
-0.337420 0.606391 -0.225757
-0.333980 0.606453 -0.225717
-0.330540 0.606562 -0.225687
-0.327351 0.607180 -0.225813
-0.323943 0.607431 -0.225816
-0.321599 0.609747 -0.226474
-0.317985 0.609682 -0.226366
-0.314603 0.610083 -0.226403
-0.310570 0.609217 -0.226032
-0.307179 0.609615 -0.226062
-0.304026 0.610507 -0.226247
-0.300642 0.610938 -0.226283
-0.296568 0.609930 -0.225860
-0.292718 0.609354 -0.225573
-0.289216 0.609486 -0.225511
-0.285999 0.610211 -0.225639
-0.282653 0.610645 -0.225673
-0.279001 0.610382 -0.225487
-0.275473 0.610357 -0.225377
-0.271849 0.610078 -0.225188
-0.268634 0.610696 -0.225284
-0.265296 0.611005 -0.225284
-0.261674 0.610606 -0.225062
-0.258472 0.611168 -0.225145
-0.254971 0.610970 -0.224990
-0.251591 0.611020 -0.224916
-0.247893 0.610228 -0.224577
-0.244648 0.610524 -0.224585
-0.241103 0.610007 -0.224338
-0.237998 0.610583 -0.224439
-0.235039 0.611521 -0.224656
-0.231748 0.611541 -0.224586
-0.228255 0.610960 -0.224329
-0.224966 0.610887 -0.224234
-0.221503 0.610269 -0.223970
-0.218497 0.610906 -0.224104
-0.215399 0.611247 -0.224147
-0.212093 0.610938 -0.223988
-0.209093 0.611498 -0.224105
-0.205994 0.611731 -0.224121
-0.202742 0.611450 -0.223977
-0.199703 0.611793 -0.224033
-0.196359 0.611123 -0.223771
-0.193546 0.612134 -0.224041
-0.190658 0.612888 -0.224231
-0.187629 0.613151 -0.224270
-0.183915 0.611009 -0.223555
-0.180939 0.611357 -0.223624
-0.177505 0.610032 -0.223170
-0.174740 0.611074 -0.223461
-0.172560 0.614302 -0.224441
-0.168772 0.611497 -0.223528
-0.165882 0.612036 -0.223667
-0.162896 0.612182 -0.223684
-0.160027 0.612777 -0.223844
-0.157025 0.612811 -0.223829
-0.153774 0.611767 -0.223478
-0.150919 0.612350 -0.223639
-0.148028 0.612775 -0.223751
-0.145051 0.612796 -0.223739
-0.141926 0.612112 -0.223507
-0.138887 0.611769 -0.223384
-0.136013 0.612185 -0.223499
-0.133138 0.612586 -0.223612
-0.130020 0.611746 -0.223336
-0.127104 0.611890 -0.223371
-0.124170 0.611922 -0.223372
-0.121316 0.612366 -0.223503
-0.118409 0.612516 -0.223542
-0.115534 0.612840 -0.223638
-0.112654 0.613126 -0.223723
-0.109648 0.612630 -0.223563
-0.106773 0.612915 -0.223650
-0.103945 0.613510 -0.223835
-0.101024 0.613492 -0.223828
-0.097900 0.612022 -0.223368
-0.095003 0.612078 -0.223387
-0.092052 0.611721 -0.223277
-0.089222 0.612260 -0.223449
-0.086308 0.612138 -0.223414
-0.083392 0.611974 -0.223367
-0.080514 0.612113 -0.223416
-0.077655 0.612425 -0.223519
-0.074805 0.612844 -0.223657
-0.071953 0.613260 -0.223795
-0.069199 0.614762 -0.224274
-0.066291 0.614676 -0.224256
-0.063366 0.614347 -0.224162
-0.060426 0.613787 -0.223996
-0.057502 0.613341 -0.223867
-0.054589 0.612995 -0.223770
-0.051661 0.612329 -0.223573
-0.048779 0.612333 -0.223586
-0.045923 0.612821 -0.223752
-0.043078 0.613588 -0.224006
-0.040153 0.612715 -0.223746
-0.037266 0.612587 -0.223720
-0.034552 0.617447 -0.225259
-0.031579 0.615106 -0.224540
-0.028712 0.616171 -0.224889
-0.025817 0.616321 -0.224953
-0.022904 0.615333 -0.224659
-0.020020 0.616324 -0.224987
-0.017123 0.616482 -0.225054
-0.014222 0.613773 -0.224222
-0.011327 0.615667 -0.224835
-0.008414 0.617514 -0.225434
-0.005520 0.616761 -0.225217
-0.002627 0.616288 -0.225088
0.000255 0.615535 -0.224871
0.003126 0.614677 -0.224623
0.006067 0.616081 -0.225085
0.008900 0.614348 -0.224562
0.011690 0.611984 -0.223841
0.014674 0.614095 -0.224526
0.017764 0.617790 -0.225710
0.020768 0.619381 -0.226233
0.023600 0.617984 -0.225818
0.026188 0.613187 -0.224335
0.029047 0.612727 -0.224215
0.032199 0.616083 -0.225295
0.035311 0.618542 -0.226094
0.037772 0.613278 -0.224466
0.040247 0.608717 -0.223058
0.043559 0.613177 -0.224488
0.046666 0.615209 -0.225156
0.049846 0.617706 -0.225970
0.052858 0.618475 -0.226241
0.055821 0.618747 -0.226357
0.058624 0.617664 -0.226048
0.061224 0.615058 -0.225258
0.063653 0.611325 -0.224115
0.066526 0.611093 -0.224075
0.069413 0.610959 -0.224066
0.072276 0.610656 -0.224005
0.075159 0.610479 -0.223984
0.078039 0.610281 -0.223958
0.081065 0.610978 -0.224215
0.084546 0.614354 -0.225317
0.087705 0.615631 -0.225759
0.090455 0.614497 -0.225442
0.093191 0.613327 -0.225114
0.096407 0.614776 -0.225613
0.100132 0.618791 -0.226924
0.102559 0.615963 -0.226076
0.104904 0.612847 -0.225137
0.107969 0.613349 -0.225343
0.111731 0.617103 -0.226577
0.114508 0.616105 -0.226311
0.116549 0.611806 -0.225003
0.119421 0.611338 -0.224907
0.122632 0.612334 -0.225275
0.125975 0.613815 -0.225798
0.129032 0.614024 -0.225921
0.132328 0.615166 -0.226341
0.135442 0.615510 -0.226509
0.139052 0.617744 -0.227279
0.141418 0.615114 -0.226509
0.146268 0.621849 -0.228709
0.148704 0.619437 -0.228011
0.150405 0.614434 -0.226493
0.153351 0.613987 -0.226421
0.156786 0.615217 -0.226884
0.159780 0.614871 -0.226848
0.162635 0.614036 -0.226659
0.165888 0.614504 -0.226886
0.169604 0.616418 -0.227576
0.172620 0.616005 -0.227527
0.174630 0.612423 -0.226472
0.176457 0.608356 -0.225263
0.179439 0.607880 -0.225200
0.182744 0.608343 -0.225439
0.185807 0.608043 -0.225436
0.188885 0.607756 -0.225441
0.192197 0.608102 -0.225649
0.195449 0.608229 -0.225790
0.198463 0.607656 -0.225710
0.201605 0.607405 -0.225736
0.205326 0.608666 -0.226247
0.209101 0.609989 -0.226782
0.211774 0.608371 -0.226378
0.214467 0.606805 -0.225992
0.218976 0.609822 -0.227079
0.224713 0.615760 -0.229107
0.224375 0.606598 -0.226290
0.226909 0.604585 -0.225770
0.230637 0.605432 -0.226171
0.237402 0.613352 -0.228851
0.240178 0.611763 -0.228475
0.242908 0.610067 -0.228066
0.247168 0.611828 -0.228774
0.249024 0.608145 -0.227728
0.251596 0.606092 -0.227208
0.253485 0.602573 -0.226216
0.256959 0.602499 -0.226337
0.261101 0.603804 -0.226907
0.266143 0.606920 -0.228066
0.269456 0.606364 -0.228036
0.272810 0.605874 -0.228029
0.274897 0.602825 -0.227190
0.278660 0.603153 -0.227447
0.281314 0.601280 -0.226989
0.284210 0.599905 -0.226690
0.286389 0.597178 -0.225949
0.289704 0.596657 -0.225925
0.301252 0.611536 -0.230923
0.302414 0.606884 -0.229547
0.304871 0.604711 -0.228976
0.308851 0.605350 -0.229319
0.312087 0.604667 -0.229225
0.315513 0.604358 -0.229248
0.318337 0.603034 -0.228932
0.323772 0.606291 -0.230111
0.324583 0.601609 -0.228680
0.326258 0.598533 -0.227766
0.326984 0.593981 -0.226359
0.326077 0.586864 -0.224099
0.335347 0.596682 -0.227394
-0.357440 0.605485 -0.228906
-0.353414 0.604152 -0.228463
-0.350904 0.605492 -0.228882
-0.347635 0.605604 -0.228891
-0.344536 0.606085 -0.229012
-0.341895 0.607457 -0.229414
-0.338138 0.606901 -0.229179
-0.334554 0.606699 -0.229052
-0.331010 0.606613 -0.228956
-0.327449 0.606534 -0.228856
-0.324732 0.608079 -0.229278
-0.321202 0.608134 -0.229210
-0.318798 0.610387 -0.229852
-0.314453 0.608917 -0.229279
-0.311005 0.609195 -0.229270
-0.307598 0.609566 -0.229289
-0.304416 0.610399 -0.229455
-0.301045 0.610861 -0.229499
-0.297673 0.611319 -0.229540
-0.293274 0.609615 -0.228879
-0.290085 0.610425 -0.229032
-0.286731 0.610875 -0.229069
-0.282956 0.610390 -0.228803
-0.279549 0.610678 -0.228787
-0.275797 0.610166 -0.228514
-0.271900 0.609273 -0.228120
-0.268835 0.610241 -0.228327
-0.265395 0.610317 -0.228248
-0.262045 0.610570 -0.228228
-0.258782 0.610996 -0.228265
-0.255343 0.610962 -0.228157
-0.251687 0.610344 -0.227862
-0.248352 0.610471 -0.227810
-0.244927 0.610329 -0.227673
-0.241583 0.610342 -0.227589
-0.238258 0.610363 -0.227509
-0.235440 0.611687 -0.227850
-0.232155 0.611743 -0.227787
-0.228465 0.610644 -0.227356
-0.225172 0.610569 -0.227255
-0.221761 0.610114 -0.227036
-0.218584 0.610272 -0.227016
-0.215519 0.610716 -0.227089
-0.212225 0.610452 -0.226939
-0.209217 0.610998 -0.227050
-0.206135 0.611292 -0.227083
-0.202983 0.611335 -0.227037
-0.199849 0.611393 -0.227000
-0.196942 0.612144 -0.227185
-0.193828 0.612199 -0.227151
-0.190803 0.612515 -0.227202
-0.187688 0.612498 -0.227150
-0.184471 0.612086 -0.226973
-0.180942 0.610523 -0.226431
-0.178152 0.611514 -0.226706
-0.175486 0.612962 -0.227129
-0.172011 0.611413 -0.226598
-0.169265 0.612536 -0.226921
-0.165986 0.611605 -0.226591
-0.163067 0.612028 -0.226695
-0.160048 0.612032 -0.226667
-0.157028 0.611997 -0.226628
-0.154166 0.612592 -0.226792
-0.150681 0.610502 -0.226102
-0.148060 0.612091 -0.226586
-0.145160 0.612471 -0.226685
-0.142125 0.612209 -0.226583
-0.139168 0.612283 -0.226588
-0.136218 0.612357 -0.226596
-0.133258 0.612364 -0.226583
-0.130174 0.611713 -0.226362
-0.127252 0.611848 -0.226393
-0.124436 0.612532 -0.226600
-0.121382 0.611921 -0.226395
-0.118440 0.611882 -0.226374
-0.115515 0.611918 -0.226379
-0.112748 0.612879 -0.226678
-0.109906 0.613410 -0.226843
-0.106824 0.612426 -0.226525
-0.103962 0.612807 -0.226644
-0.101133 0.613417 -0.226836
-0.098246 0.613637 -0.226906
-0.094967 0.611005 -0.226068
-0.092191 0.611950 -0.226370
-0.089377 0.612654 -0.226596
-0.086424 0.612259 -0.226473
-0.083520 0.612236 -0.226469
-0.080614 0.612170 -0.226453
-0.077722 0.612212 -0.226471
-0.074789 0.611849 -0.226362
-0.072069 0.613592 -0.226924
-0.069216 0.614084 -0.227088
-0.066337 0.614330 -0.227174
-0.063398 0.613864 -0.227035
-0.060460 0.613326 -0.226873
-0.057547 0.613055 -0.226797
-0.054662 0.613137 -0.226834
-0.051747 0.612746 -0.226721
-0.048804 0.611811 -0.226435
-0.045949 0.612324 -0.226611
-0.043119 0.613418 -0.226972
-0.040172 0.612109 -0.226569
-0.037299 0.612347 -0.226659
-0.034543 0.616032 -0.227848
-0.031614 0.615092 -0.227563
-0.028704 0.614509 -0.227393
-0.025849 0.616397 -0.228011
-0.022965 0.617652 -0.228428
-0.020058 0.617717 -0.228466
-0.017153 0.618376 -0.228694
-0.014240 0.617178 -0.228330
-0.011337 0.616497 -0.228131
-0.008421 0.617860 -0.228585
